296
-21.859261 -21.090649 -0.654394 841 0.472078 0.881557 0.000000
-21.859240 -21.090637 -0.645064 825 0.472078 0.881557 0.000000
-21.859854 -21.091225 -0.635748 847 0.472078 0.881557 0.000000
-21.859158 -21.090557 -0.626395 829 0.472078 0.881557 0.000000
-21.858498 -21.089918 -0.617041 837 0.472078 0.881557 0.000000
-21.858009 -21.089437 -0.607695 851 0.472078 0.881557 0.000000
-21.858450 -21.089870 -0.598381 845 0.472078 0.881557 0.000000
-21.860109 -21.091471 -0.589095 851 0.472078 0.881557 0.000000
-21.859457 -21.090839 -0.579741 827 0.472078 0.881557 0.000000
-21.857107 -21.088577 -0.570353 831 0.472078 0.881557 0.000000
-21.857328 -21.088789 -0.561030 821 0.472078 0.881557 0.000000
-21.857880 -21.089327 -0.551715 841 0.472078 0.881557 0.000000
-21.858150 -21.089592 -0.542382 835 0.472078 0.881557 0.000000
-21.858263 -21.089699 -0.533061 837 0.472078 0.881557 0.000000
-21.858181 -21.089621 -0.523721 825 0.472078 0.881557 0.000000
-21.858561 -21.089973 -0.514408 843 0.472078 0.881557 0.000000
-21.857254 -21.088724 -0.505040 857 0.472078 0.881557 0.000000
-21.856571 -21.088068 -0.495696 837 0.472078 0.881557 0.000000
-21.857208 -21.088675 -0.486380 843 0.472078 0.881557 0.000000
-21.857462 -21.088926 -0.477057 821 0.472078 0.881557 0.000000
-21.856094 -21.087608 -0.467700 841 0.472078 0.881557 0.000000
-21.855778 -21.087297 -0.458363 845 0.472078 0.881557 0.000000
-21.857981 -21.089428 -0.449082 841 0.472078 0.881557 0.000000
-21.860029 -21.091402 -0.439792 819 0.472078 0.881557 0.000000
-21.859861 -21.091240 -0.430463 823 0.472078 0.881557 0.000000
-21.858377 -21.089813 -0.421097 827 0.472078 0.881557 0.000000
-21.857359 -21.088827 -0.411757 841 0.472078 0.881557 0.000000
-21.856810 -21.088306 -0.402412 799 0.472078 0.881557 0.000000
-21.856535 -21.088039 -0.393084 801 0.472078 0.881557 0.000000
-21.857145 -21.088627 -0.383758 813 0.472078 0.881557 0.000000
-21.856611 -21.088108 -0.374423 843 0.472078 0.881557 0.000000
-21.857794 -21.089247 -0.365121 849 0.472078 0.881557 0.000000
-21.859077 -21.090496 -0.355809 831 0.472078 0.881557 0.000000
-21.857220 -21.088694 -0.346446 837 0.472078 0.881557 0.000000
-21.856340 -21.087849 -0.337104 821 0.472078 0.881557 0.000000
-21.856461 -21.087965 -0.327783 805 0.472078 0.881557 0.000000
-21.857372 -21.088852 -0.318464 811 0.472078 0.881557 0.000000
-21.854918 -21.086477 -0.309107 783 0.472078 0.881557 0.000000
-21.853722 -21.085331 -0.299758 771 0.472078 0.881557 0.000000
-21.855528 -21.087065 -0.290461 767 0.472078 0.881557 0.000000
-21.856428 -21.087946 -0.281142 793 0.472078 0.881557 0.000000
-21.855749 -21.087290 -0.271809 791 0.472078 0.881557 0.000000
-21.856812 -21.088318 -0.262488 777 0.472078 0.881557 0.000000
-21.865602 -21.085440 -0.654421 843 0.472078 0.881557 0.000000
-21.864740 -21.084608 -0.645059 833 0.472078 0.881557 0.000000
-21.865885 -21.085716 -0.635758 833 0.472078 0.881557 0.000000
-21.867386 -21.087173 -0.626474 839 0.472078 0.881557 0.000000
-21.866158 -21.085985 -0.617105 835 0.472078 0.881557 0.000000
-21.865437 -21.085297 -0.607752 827 0.472078 0.881557 0.000000
-21.866369 -21.086205 -0.598443 835 0.472078 0.881557 0.000000
-21.866758 -21.086578 -0.589129 827 0.472078 0.881557 0.000000
-21.867727 -21.087517 -0.579819 843 0.472078 0.881557 0.000000
-21.868998 -21.088757 -0.570517 831 0.472078 0.881557 0.000000
-21.866913 -21.086752 -0.561126 823 0.472078 0.881557 0.000000
-21.865309 -21.085201 -0.551761 833 0.472078 0.881557 0.000000
-21.866640 -21.086489 -0.542459 831 0.472078 0.881557 0.000000
-21.867229 -21.087059 -0.533143 837 0.472078 0.881557 0.000000
-21.867397 -21.087227 -0.523811 821 0.472078 0.881557 0.000000
-21.865921 -21.085808 -0.514445 835 0.472078 0.881557 0.000000
-21.864826 -21.084757 -0.505095 825 0.472078 0.881557 0.000000
-21.864618 -21.084560 -0.495757 833 0.472078 0.881557 0.000000
-21.863876 -21.083853 -0.486413 819 0.472078 0.881557 0.000000
-21.864403 -21.084370 -0.477088 831 0.472078 0.881557 0.000000
-21.866505 -21.086390 -0.467808 847 0.472078 0.881557 0.000000
-21.867142 -21.087011 -0.458492 833 0.472078 0.881557 0.000000
-21.865391 -21.085325 -0.449118 847 0.472078 0.881557 0.000000
-21.866442 -21.086342 -0.439818 829 0.472078 0.881557 0.000000
-21.866898 -21.086788 -0.430493 829 0.472078 0.881557 0.000000
-21.865360 -21.085318 -0.421128 833 0.472078 0.881557 0.000000
-21.864450 -21.084435 -0.411786 829 0.472078 0.881557 0.000000
-21.864222 -21.084219 -0.402448 815 0.472078 0.881557 0.000000
-21.866568 -21.086491 -0.393165 823 0.472078 0.881557 0.000000
-21.867912 -21.087793 -0.383852 831 0.472078 0.881557 0.000000
-21.865517 -21.085480 -0.374485 853 0.472078 0.881557 0.000000
-21.865503 -21.085470 -0.365155 859 0.472078 0.881557 0.000000
-21.868467 -21.088335 -0.355876 853 0.472078 0.881557 0.000000
-21.867651 -21.087557 -0.346534 833 0.472078 0.881557 0.000000
-21.866253 -21.086216 -0.337177 841 0.472078 0.881557 0.000000
-21.865057 -21.085068 -0.327828 815 0.472078 0.881557 0.000000
-21.863235 -21.083309 -0.318475 799 0.472078 0.881557 0.000000
-21.863729 -21.083786 -0.309150 795 0.472078 0.881557 0.000000
-21.864578 -21.084610 -0.299832 795 0.472078 0.881557 0.000000
-21.865589 -21.085594 -0.290522 775 0.472078 0.881557 0.000000
-21.866390 -21.086363 -0.281204 787 0.472078 0.881557 0.000000
-21.865068 -21.085098 -0.271857 787 0.472078 0.881557 0.000000
-21.864767 -21.084812 -0.262529 785 0.472078 0.881557 0.000000
-21.875853 -21.080242 -0.645170 823 0.472078 0.881557 0.000000
-21.875999 -21.080378 -0.635839 829 0.472078 0.881557 0.000000
-21.876299 -21.080666 -0.626515 819 0.472078 0.881557 0.000000
-21.876118 -21.080492 -0.617177 809 0.472078 0.881557 0.000000
-21.876572 -21.080923 -0.607852 809 0.472078 0.881557 0.000000
-21.877550 -21.081867 -0.598553 823 0.472078 0.881557 0.000000
-21.876472 -21.080828 -0.589183 833 0.472078 0.881557 0.000000
-21.874386 -21.078827 -0.579802 799 0.472078 0.881557 0.000000
-21.874725 -21.079147 -0.570479 795 0.472078 0.881557 0.000000
-21.876057 -21.080437 -0.561176 817 0.472078 0.881557 0.000000
-21.875233 -21.079638 -0.551824 827 0.472078 0.881557 0.000000
-21.876455 -21.080822 -0.542522 851 0.472078 0.881557 0.000000
-21.875788 -21.080179 -0.533168 845 0.472078 0.881557 0.000000
-21.874701 -21.079123 -0.523818 827 0.472078 0.881557 0.000000
-21.876654 -21.081007 -0.514529 815 0.472078 0.881557 0.000000
-21.876822 -21.081173 -0.505198 849 0.472078 0.881557 0.000000
-21.877459 -21.081779 -0.495881 835 0.472078 0.881557 0.000000
-21.876925 -21.081276 -0.486536 829 0.472078 0.881557 0.000000
-21.876040 -21.080423 -0.477184 831 0.472078 0.881557 0.000000
-21.875772 -21.080164 -0.467847 837 0.472078 0.881557 0.000000
-21.876297 -21.080667 -0.458531 835 0.472078 0.881557 0.000000
-21.875820 -21.080206 -0.449186 843 0.472078 0.881557 0.000000
-21.876867 -21.081223 -0.439876 815 0.472078 0.881557 0.000000
-21.877855 -21.082172 -0.430566 833 0.472078 0.881557 0.000000
-21.876791 -21.081148 -0.421206 809 0.472078 0.881557 0.000000
-21.877409 -21.081741 -0.411890 783 0.472078 0.881557 0.000000
-21.876440 -21.080807 -0.402539 813 0.472078 0.881557 0.000000
-21.874323 -21.078764 -0.393169 819 0.472078 0.881557 0.000000
-21.874413 -21.078856 -0.383838 817 0.472078 0.881557 0.000000
-21.874708 -21.079140 -0.374515 823 0.472078 0.881557 0.000000
-21.874672 -21.079111 -0.365185 821 0.472078 0.881557 0.000000
-21.875286 -21.079699 -0.355869 817 0.472078 0.881557 0.000000
-21.875462 -21.079874 -0.346537 823 0.472078 0.881557 0.000000
-21.876118 -21.080500 -0.337220 807 0.472078 0.881557 0.000000
-21.875727 -21.080124 -0.327884 825 0.472078 0.881557 0.000000
-21.874630 -21.079071 -0.318534 787 0.472078 0.881557 0.000000
-21.876017 -21.080406 -0.309221 789 0.472078 0.881557 0.000000
-21.875982 -21.080379 -0.299891 825 0.472078 0.881557 0.000000
-21.873732 -21.078199 -0.290532 807 0.472078 0.881557 0.000000
-21.873949 -21.078419 -0.281210 805 0.472078 0.881557 0.000000
-21.874802 -21.079233 -0.271891 771 0.472078 0.881557 0.000000
-21.875391 -21.079803 -0.262565 807 0.472078 0.881557 0.000000
-21.886606 -21.077719 -0.645303 817 0.472078 0.881557 0.000000
-21.887703 -21.078775 -0.636003 811 0.472078 0.881557 0.000000
-21.885685 -21.076830 -0.626602 805 0.472078 0.881557 0.000000
-21.886026 -21.077166 -0.617278 807 0.472078 0.881557 0.000000
-21.885796 -21.076937 -0.607940 803 0.472078 0.881557 0.000000
-21.884460 -21.075645 -0.598562 823 0.472078 0.881557 0.000000
-21.885057 -21.076233 -0.589247 803 0.472078 0.881557 0.000000
-21.884344 -21.075541 -0.579893 781 0.472078 0.881557 0.000000
-21.884848 -21.076025 -0.570578 789 0.472078 0.881557 0.000000
-21.884705 -21.075893 -0.561239 793 0.472078 0.881557 0.000000
-21.884724 -21.075911 -0.551909 823 0.472078 0.881557 0.000000
-21.884268 -21.075470 -0.542563 821 0.472078 0.881557 0.000000
-21.883640 -21.074871 -0.533209 831 0.472078 0.881557 0.000000
-21.885237 -21.076406 -0.523913 817 0.472078 0.881557 0.000000
-21.885870 -21.077013 -0.514597 833 0.472078 0.881557 0.000000
-21.884830 -21.076008 -0.505237 809 0.472078 0.881557 0.000000
-21.886206 -21.077335 -0.495933 839 0.472078 0.881557 0.000000
-21.887318 -21.078415 -0.486633 833 0.472078 0.881557 0.000000
-21.885576 -21.076736 -0.477259 829 0.472078 0.881557 0.000000
-21.883944 -21.075161 -0.467884 825 0.472078 0.881557 0.000000
-21.883152 -21.074400 -0.458542 839 0.472078 0.881557 0.000000
-21.883041 -21.074295 -0.449202 817 0.472078 0.881557 0.000000
-21.884813 -21.076006 -0.439905 831 0.472078 0.881557 0.000000
-21.884398 -21.075594 -0.430569 825 0.472078 0.881557 0.000000
-21.884176 -21.075386 -0.421231 809 0.472078 0.881557 0.000000
-21.886049 -21.077192 -0.411933 817 0.472078 0.881557 0.000000
-21.885830 -21.076984 -0.402595 827 0.472078 0.881557 0.000000
-21.884920 -21.076101 -0.393253 827 0.472078 0.881557 0.000000
-21.884888 -21.076075 -0.383913 833 0.472078 0.881557 0.000000
-21.885187 -21.076365 -0.374590 863 0.472078 0.881557 0.000000
-21.885853 -21.076996 -0.365274 833 0.472078 0.881557 0.000000
-21.885088 -21.076271 -0.355921 837 0.472078 0.881557 0.000000
-21.884489 -21.075686 -0.346586 827 0.472078 0.881557 0.000000
-21.885929 -21.077078 -0.337272 821 0.472078 0.881557 0.000000
-21.884577 -21.075773 -0.327925 819 0.472078 0.881557 0.000000
-21.883068 -21.074327 -0.318569 807 0.472078 0.881557 0.000000
-21.883400 -21.074644 -0.309246 773 0.472078 0.881557 0.000000
-21.886148 -21.077293 -0.299949 765 0.472078 0.881557 0.000000
-21.885843 -21.077000 -0.290612 765 0.472078 0.881557 0.000000
-21.883757 -21.074984 -0.281252 761 0.472078 0.881557 0.000000
-21.884384 -21.075598 -0.271935 753 0.472078 0.881557 0.000000
-21.885872 -21.077028 -0.262621 751 0.472078 0.881557 0.000000
-21.895044 -21.072445 -0.645361 827 0.472078 0.881557 0.000000
-21.894667 -21.072081 -0.636014 841 0.472078 0.881557 0.000000
-21.894915 -21.072311 -0.626682 813 0.472078 0.881557 0.000000
-21.895416 -21.072796 -0.617357 811 0.472078 0.881557 0.000000
-21.894968 -21.072374 -0.608011 817 0.472078 0.881557 0.000000
-21.895573 -21.072956 -0.598695 801 0.472078 0.881557 0.000000
-21.895021 -21.072422 -0.589340 815 0.472078 0.881557 0.000000
-21.894257 -21.071682 -0.579987 805 0.472078 0.881557 0.000000
-21.893963 -21.071402 -0.570639 825 0.472078 0.881557 0.000000
-21.893982 -21.071419 -0.561309 809 0.472078 0.881557 0.000000
-21.895477 -21.072857 -0.552015 821 0.472078 0.881557 0.000000
-21.893906 -21.071346 -0.542639 811 0.472078 0.881557 0.000000
-21.892132 -21.069641 -0.533256 827 0.472078 0.881557 0.000000
-21.891615 -21.069147 -0.523911 805 0.472078 0.881557 0.000000
-21.892624 -21.070116 -0.514601 795 0.472078 0.881557 0.000000
-21.893364 -21.070835 -0.505284 789 0.472078 0.881557 0.000000
-21.892689 -21.070189 -0.495940 809 0.472078 0.881557 0.000000
-21.893581 -21.071047 -0.486621 803 0.472078 0.881557 0.000000
-21.893330 -21.070799 -0.477283 805 0.472078 0.881557 0.000000
-21.893223 -21.070700 -0.467944 827 0.472078 0.881557 0.000000
-21.893906 -21.071344 -0.458627 821 0.472078 0.881557 0.000000
-21.893581 -21.071041 -0.449290 811 0.472078 0.881557 0.000000
-21.891567 -21.069109 -0.439919 789 0.472078 0.881557 0.000000
-21.891777 -21.069309 -0.430587 785 0.472078 0.881557 0.000000
-21.893805 -21.071255 -0.421297 815 0.472078 0.881557 0.000000
-21.894434 -21.071857 -0.411971 811 0.472078 0.881557 0.000000
-21.893839 -21.071287 -0.402627 793 0.472078 0.881557 0.000000
-21.894621 -21.072042 -0.393309 807 0.472078 0.881557 0.000000
-21.894432 -21.071859 -0.383971 815 0.472078 0.881557 0.000000
-21.893000 -21.070478 -0.374614 819 0.472078 0.881557 0.000000
-21.893332 -21.070808 -0.365290 823 0.472078 0.881557 0.000000
-21.894896 -21.072302 -0.355976 825 0.472078 0.881557 0.000000
-21.895025 -21.072437 -0.346644 815 0.472078 0.881557 0.000000
-21.892981 -21.070467 -0.337283 801 0.472078 0.881557 0.000000
-21.892906 -21.070395 -0.327954 811 0.472078 0.881557 0.000000
-21.894407 -21.071838 -0.318639 785 0.472078 0.881557 0.000000
-21.894737 -21.072153 -0.309316 765 0.472078 0.881557 0.000000
-21.891842 -21.069372 -0.299943 745 0.472078 0.881557 0.000000
-21.891605 -21.069138 -0.290605 735 0.472078 0.881557 0.000000
-21.892927 -21.070419 -0.281292 761 0.472078 0.881557 0.000000
-21.891621 -21.069155 -0.271945 767 0.472078 0.881557 0.000000
-21.893520 -21.070993 -0.262636 779 0.472078 0.881557 0.000000
-21.904263 -21.067934 -0.645441 799 0.472078 0.881557 0.000000
-21.903770 -21.067459 -0.636086 777 0.472078 0.881557 0.000000
-21.903702 -21.067392 -0.626746 819 0.472078 0.881557 0.000000
-21.902834 -21.066555 -0.617384 803 0.472078 0.881557 0.000000
-21.903189 -21.066889 -0.608061 799 0.472078 0.881557 0.000000
-21.902842 -21.066566 -0.598714 783 0.472078 0.881557 0.000000
-21.904032 -21.067711 -0.589412 799 0.472078 0.881557 0.000000
-21.905470 -21.069088 -0.580108 801 0.472078 0.881557 0.000000
-21.905077 -21.068710 -0.570762 807 0.472078 0.881557 0.000000
-21.904839 -21.068478 -0.561424 789 0.472078 0.881557 0.000000
-21.905640 -21.069260 -0.552106 811 0.472078 0.881557 0.000000
-21.903341 -21.067041 -0.542708 791 0.472078 0.881557 0.000000
-21.899815 -21.063660 -0.533291 801 0.472078 0.881557 0.000000
-21.901045 -21.064837 -0.523979 795 0.472078 0.881557 0.000000
-21.903786 -21.067467 -0.514713 787 0.472078 0.881557 0.000000
-21.904966 -21.068605 -0.505401 787 0.472078 0.881557 0.000000
-21.904230 -21.067904 -0.496048 795 0.472078 0.881557 0.000000
-21.902021 -21.065771 -0.486669 821 0.472078 0.881557 0.000000
-21.901907 -21.065666 -0.477330 791 0.472078 0.881557 0.000000
-21.902651 -21.066376 -0.468012 803 0.472078 0.881557 0.000000
-21.903015 -21.066732 -0.458689 797 0.472078 0.881557 0.000000
-21.904797 -21.068447 -0.449382 807 0.472078 0.881557 0.000000
-21.904848 -21.068491 -0.440051 815 0.472078 0.881557 0.000000
-21.904104 -21.067781 -0.430698 801 0.472078 0.881557 0.000000
-21.902985 -21.066700 -0.421348 789 0.472078 0.881557 0.000000
-21.903763 -21.067451 -0.412030 811 0.472078 0.881557 0.000000
-21.905697 -21.069307 -0.402722 805 0.472078 0.881557 0.000000
-21.904877 -21.068521 -0.393379 807 0.472078 0.881557 0.000000
-21.904919 -21.068558 -0.384039 793 0.472078 0.881557 0.000000
-21.905109 -21.068747 -0.374707 805 0.472078 0.881557 0.000000
-21.903082 -21.066803 -0.365346 809 0.472078 0.881557 0.000000
-21.902533 -21.066269 -0.356001 809 0.472078 0.881557 0.000000
-21.904293 -21.067965 -0.346694 803 0.472078 0.881557 0.000000
-21.904530 -21.068190 -0.337361 787 0.472078 0.881557 0.000000
-21.902124 -21.065884 -0.327994 771 0.472078 0.881557 0.000000
-21.899240 -21.063103 -0.318621 779 0.472078 0.881557 0.000000
-21.898407 -21.062305 -0.309269 785 0.472078 0.881557 0.000000
-21.900366 -21.064194 -0.299970 775 0.472078 0.881557 0.000000
-21.900028 -21.063862 -0.290633 763 0.472078 0.881557 0.000000
-21.900976 -21.064781 -0.281314 751 0.472078 0.881557 0.000000
-21.902735 -21.066463 -0.271997 773 0.472078 0.881557 0.000000
-21.902372 -21.066113 -0.262660 765 0.472078 0.881557 0.000000
-21.910147 -21.063292 -0.645458 799 0.472078 0.881557 0.000000
-21.910870 -21.063982 -0.636140 809 0.472078 0.881557 0.000000
-21.911646 -21.064732 -0.626833 775 0.472078 0.881557 0.000000
-21.911625 -21.064705 -0.617493 773 0.472078 0.881557 0.000000
-21.910545 -21.063667 -0.608123 793 0.472078 0.881557 0.000000
-21.909880 -21.063038 -0.598769 753 0.472078 0.881557 0.000000
-21.911179 -21.064287 -0.589466 779 0.472078 0.881557 0.000000
-21.911884 -21.064964 -0.580149 795 0.472078 0.881557 0.000000
-21.909113 -21.062302 -0.570736 785 0.472078 0.881557 0.000000
-21.909296 -21.062468 -0.561404 785 0.472078 0.881557 0.000000
-21.911726 -21.064812 -0.552130 797 0.472078 0.881557 0.000000
-21.911224 -21.064331 -0.542785 795 0.472078 0.881557 0.000000
-21.910393 -21.063526 -0.533423 801 0.472078 0.881557 0.000000
-21.910826 -21.063938 -0.524098 809 0.472078 0.881557 0.000000
-21.910845 -21.063957 -0.514758 771 0.472078 0.881557 0.000000
-21.910210 -21.063353 -0.505414 785 0.472078 0.881557 0.000000
-21.910635 -21.063759 -0.496079 817 0.472078 0.881557 0.000000
-21.910009 -21.063164 -0.486735 801 0.472078 0.881557 0.000000
-21.910208 -21.063354 -0.477403 811 0.472078 0.881557 0.000000
-21.912006 -21.065084 -0.468106 821 0.472078 0.881557 0.000000
-21.910637 -21.063766 -0.458738 785 0.472078 0.881557 0.000000
-21.907742 -21.060974 -0.449346 785 0.472078 0.881557 0.000000
-21.909781 -21.062943 -0.440046 783 0.472078 0.881557 0.000000
-21.910820 -21.063936 -0.430736 789 0.472078 0.881557 0.000000
-21.911598 -21.064688 -0.421418 789 0.472078 0.881557 0.000000
-21.914064 -21.067064 -0.412125 823 0.472078 0.881557 0.000000
-21.911589 -21.064671 -0.402748 795 0.472078 0.881557 0.000000
-21.909716 -21.062881 -0.393376 815 0.472078 0.881557 0.000000
-21.910070 -21.063217 -0.384042 821 0.472078 0.881557 0.000000
-21.910206 -21.063347 -0.374711 795 0.472078 0.881557 0.000000
-21.910242 -21.063375 -0.365380 793 0.472078 0.881557 0.000000
-21.910566 -21.063700 -0.356047 779 0.472078 0.881557 0.000000
-21.910648 -21.063768 -0.346716 777 0.472078 0.881557 0.000000
-21.911667 -21.064760 -0.337396 767 0.472078 0.881557 0.000000
-21.910383 -21.063513 -0.328038 781 0.472078 0.881557 0.000000
-21.908083 -21.061304 -0.318679 761 0.472078 0.881557 0.000000
-21.909575 -21.062740 -0.309365 757 0.472078 0.881557 0.000000
-21.910383 -21.063515 -0.300037 765 0.472078 0.881557 0.000000
-21.909380 -21.062555 -0.290686 745 0.472078 0.881557 0.000000
-21.908035 -21.061258 -0.281339 755 0.472078 0.881557 0.000000
-21.908827 -21.062021 -0.272021 747 0.472078 0.881557 0.000000
-21.908941 -21.062130 -0.262680 759 0.472078 0.881557 0.000000
