110
-22.327784 -20.622114 -0.655334 483 -0.382408 0.923994 0.000000
-22.329008 -20.623253 -0.646032 491 -0.382408 0.923994 0.000000
-22.327116 -20.621498 -0.636640 481 -0.382408 0.923994 0.000000
-22.324602 -20.619188 -0.627233 459 -0.382408 0.923994 0.000000
-22.325449 -20.619965 -0.617915 469 -0.382408 0.923994 0.000000
-22.328171 -20.622482 -0.608659 465 -0.382408 0.923994 0.000000
-22.327667 -20.622021 -0.599304 459 -0.382408 0.923994 0.000000
-22.326675 -20.621096 -0.589943 455 -0.382408 0.923994 0.000000
-22.325676 -20.620174 -0.580582 459 -0.382408 0.923994 0.000000
-22.324022 -20.618650 -0.571197 447 -0.382408 0.923994 0.000000
-22.324535 -20.619123 -0.561872 457 -0.382408 0.923994 0.000000
-22.326317 -20.620781 -0.552585 459 -0.382408 0.923994 0.000000
-22.326817 -20.621241 -0.543260 461 -0.382408 0.923994 0.000000
-22.326181 -20.620651 -0.533906 459 -0.382408 0.923994 0.000000
-22.325064 -20.619627 -0.524546 455 -0.382408 0.923994 0.000000
-22.324877 -20.619442 -0.515208 485 -0.382408 0.923994 0.000000
-22.325144 -20.619694 -0.505875 467 -0.382408 0.923994 0.000000
-22.324942 -20.619507 -0.496537 485 -0.382408 0.923994 0.000000
-22.325209 -20.619761 -0.487214 481 -0.382408 0.923994 0.000000
-22.325155 -20.619707 -0.477874 473 -0.382408 0.923994 0.000000
-22.327034 -20.621441 -0.468577 497 -0.382408 0.923994 0.000000
-22.326496 -20.620941 -0.459231 469 -0.382408 0.923994 0.000000
-22.326271 -20.620737 -0.449893 467 -0.382408 0.923994 0.000000
-22.325874 -20.620375 -0.440547 469 -0.382408 0.923994 0.000000
-22.323139 -20.617851 -0.431162 441 -0.382408 0.923994 0.000000
-22.321566 -20.616400 -0.421796 437 -0.382408 0.923994 0.000000
-22.322954 -20.617683 -0.412493 441 -0.382408 0.923994 0.000000
-22.324602 -20.619207 -0.403188 449 -0.382408 0.923994 0.000000
-22.323235 -20.617947 -0.393830 443 -0.382408 0.923994 0.000000
-22.323536 -20.618225 -0.384497 419 -0.382408 0.923994 0.000000
-22.325069 -20.619635 -0.375193 429 -0.382408 0.923994 0.000000
-22.324348 -20.618975 -0.365849 425 -0.382408 0.923994 0.000000
-22.323946 -20.618608 -0.356503 421 -0.382408 0.923994 0.000000
-22.327576 -20.621962 -0.347229 431 -0.382408 0.923994 0.000000
-22.327070 -20.621485 -0.337883 421 -0.382408 0.923994 0.000000
-22.323967 -20.618631 -0.328502 437 -0.382408 0.923994 0.000000
-22.324091 -20.618744 -0.319170 419 -0.382408 0.923994 0.000000
-22.323090 -20.617809 -0.309829 409 -0.382408 0.923994 0.000000
-22.323374 -20.618074 -0.300497 397 -0.382408 0.923994 0.000000
-22.323051 -20.617785 -0.291159 389 -0.382408 0.923994 0.000000
-22.322628 -20.617397 -0.281823 373 -0.382408 0.923994 0.000000
-22.321848 -20.616667 -0.272480 375 -0.382408 0.923994 0.000000
-22.352318 -20.631884 -0.655870 467 -0.382408 0.923994 0.000000
-22.349989 -20.629732 -0.646461 469 -0.382408 0.923994 0.000000
-22.349218 -20.629021 -0.637088 467 -0.382408 0.923994 0.000000
-22.351566 -20.631191 -0.627816 447 -0.382408 0.923994 0.000000
-22.353537 -20.633011 -0.618517 441 -0.382408 0.923994 0.000000
-22.353233 -20.632732 -0.609170 465 -0.382408 0.923994 0.000000
-22.350639 -20.630331 -0.599754 441 -0.382408 0.923994 0.000000
-22.349901 -20.629662 -0.590391 435 -0.382408 0.923994 0.000000
-22.349514 -20.629292 -0.581034 427 -0.382408 0.923994 0.000000
-22.349743 -20.629515 -0.571702 421 -0.382408 0.923994 0.000000
-22.348423 -20.628290 -0.562324 397 -0.382408 0.923994 0.000000
-22.348867 -20.628708 -0.552989 433 -0.382408 0.923994 0.000000
-22.350767 -20.630459 -0.543691 461 -0.382408 0.923994 0.000000
-22.350349 -20.630077 -0.534335 451 -0.382408 0.923994 0.000000
-22.352503 -20.632057 -0.525045 439 -0.382408 0.923994 0.000000
-22.350908 -20.630587 -0.515659 455 -0.382408 0.923994 0.000000
-22.352798 -20.632332 -0.506362 479 -0.382408 0.923994 0.000000
-22.356295 -20.635565 -0.497099 477 -0.382408 0.923994 0.000000
-22.355494 -20.634830 -0.487736 453 -0.382408 0.923994 0.000000
-22.353834 -20.633299 -0.478351 453 -0.382408 0.923994 0.000000
-22.352211 -20.631798 -0.468976 457 -0.382408 0.923994 0.000000
-22.350597 -20.630304 -0.459601 449 -0.382408 0.923994 0.000000
-22.347639 -20.627575 -0.450198 435 -0.382408 0.923994 0.000000
-22.348223 -20.628119 -0.440863 437 -0.382408 0.923994 0.000000
-22.349016 -20.628851 -0.431535 417 -0.382408 0.923994 0.000000
-22.345837 -20.625923 -0.422134 433 -0.382408 0.923994 0.000000
-22.346518 -20.626541 -0.412808 425 -0.382408 0.923994 0.000000
-22.351246 -20.630905 -0.403554 433 -0.382408 0.923994 0.000000
-22.352032 -20.631632 -0.394226 439 -0.382408 0.923994 0.000000
-22.349899 -20.629677 -0.384846 413 -0.382408 0.923994 0.000000
-22.348707 -20.628565 -0.375487 409 -0.382408 0.923994 0.000000
-22.350298 -20.630032 -0.366172 401 -0.382408 0.923994 0.000000
-22.351347 -20.631006 -0.356842 405 -0.382408 0.923994 0.000000
-22.350235 -20.629988 -0.347482 361 -0.382408 0.923994 0.000000
-22.347881 -20.627817 -0.338103 399 -0.382408 0.923994 0.000000
-22.344803 -20.624968 -0.328722 387 -0.382408 0.923994 0.000000
-22.344654 -20.624840 -0.319383 367 -0.382408 0.923994 0.000000
-22.347033 -20.627035 -0.310070 329 -0.382408 0.923994 0.000000
-22.349634 -20.629431 -0.300766 349 -0.382408 0.923994 0.000000
-22.350994 -20.630690 -0.291443 379 -0.382408 0.923994 0.000000
-22.348633 -20.628511 -0.282075 383 -0.382408 0.923994 0.000000
-22.348532 -20.628424 -0.272726 375 -0.382408 0.923994 0.000000
-22.374441 -20.639402 -0.553465 409 -0.382408 0.923994 0.000000
-22.374485 -20.639444 -0.525414 389 -0.382408 0.923994 0.000000
-22.374968 -20.639893 -0.516069 389 -0.382408 0.923994 0.000000
-22.375319 -20.640215 -0.478675 419 -0.382408 0.923994 0.000000
-22.374718 -20.639666 -0.469311 419 -0.382408 0.923994 0.000000
-22.374067 -20.639063 -0.459947 431 -0.382408 0.923994 0.000000
-22.374660 -20.639612 -0.450611 397 -0.382408 0.923994 0.000000
-22.375088 -20.640003 -0.441277 405 -0.382408 0.923994 0.000000
-22.373835 -20.638857 -0.431898 417 -0.382408 0.923994 0.000000
-22.373074 -20.638155 -0.422535 375 -0.382408 0.923994 0.000000
-22.373428 -20.638475 -0.413191 411 -0.382408 0.923994 0.000000
-22.374660 -20.639620 -0.403860 393 -0.382408 0.923994 0.000000
-22.374912 -20.639847 -0.394517 411 -0.382408 0.923994 0.000000
-22.374994 -20.639927 -0.385166 389 -0.382408 0.923994 0.000000
-22.374226 -20.639217 -0.375803 367 -0.382408 0.923994 0.000000
-22.374033 -20.639040 -0.366455 381 -0.382408 0.923994 0.000000
-22.372402 -20.637531 -0.357080 351 -0.382408 0.923994 0.000000
-22.373705 -20.638746 -0.347747 331 -0.382408 0.923994 0.000000
-22.374489 -20.639460 -0.338410 339 -0.382408 0.923994 0.000000
-22.374079 -20.639086 -0.329063 327 -0.382408 0.923994 0.000000
-22.374260 -20.639256 -0.319711 313 -0.382408 0.923994 0.000000
-22.373093 -20.638180 -0.310352 327 -0.382408 0.923994 0.000000
-22.371384 -20.636608 -0.300978 327 -0.382408 0.923994 0.000000
-22.370050 -20.635374 -0.291610 331 -0.382408 0.923994 0.000000
-22.369633 -20.634995 -0.282263 355 -0.382408 0.923994 0.000000
-22.371796 -20.636993 -0.272943 357 -0.382408 0.923994 0.000000
