262
-21.861517 -21.086504 -0.654834 761 0.130895 0.991396 0.000000
-21.861599 -21.086586 -0.645513 737 0.130895 0.991396 0.000000
-21.861158 -21.086157 -0.636167 747 0.130895 0.991396 0.000000
-21.862356 -21.087324 -0.626865 737 0.130895 0.991396 0.000000
-21.862387 -21.087349 -0.617535 759 0.130895 0.991396 0.000000
-21.862989 -21.087929 -0.608219 767 0.130895 0.991396 0.000000
-21.863550 -21.088472 -0.598903 763 0.130895 0.991396 0.000000
-21.862623 -21.087578 -0.589552 745 0.130895 0.991396 0.000000
-21.861443 -21.086443 -0.580183 729 0.130895 0.991396 0.000000
-21.861938 -21.086922 -0.570868 735 0.130895 0.991396 0.000000
-21.862223 -21.087198 -0.561545 729 0.130895 0.991396 0.000000
-21.863352 -21.088278 -0.552244 755 0.130895 0.991396 0.000000
-21.862568 -21.087526 -0.542891 759 0.130895 0.991396 0.000000
-21.861948 -21.086937 -0.533547 755 0.130895 0.991396 0.000000
-21.862221 -21.087200 -0.524214 759 0.130895 0.991396 0.000000
-21.861067 -21.086092 -0.514865 771 0.130895 0.991396 0.000000
-21.861242 -21.086252 -0.505533 773 0.130895 0.991396 0.000000
-21.861933 -21.086916 -0.496216 769 0.130895 0.991396 0.000000
-21.863459 -21.088394 -0.486921 773 0.130895 0.991396 0.000000
-21.862827 -21.087791 -0.477577 759 0.130895 0.991396 0.000000
-21.861027 -21.086054 -0.468214 753 0.130895 0.991396 0.000000
-21.861670 -21.086668 -0.458898 775 0.130895 0.991396 0.000000
-21.861599 -21.086609 -0.449558 781 0.130895 0.991396 0.000000
-21.862341 -21.087318 -0.440251 769 0.130895 0.991396 0.000000
-21.864534 -21.089436 -0.430960 763 0.130895 0.991396 0.000000
-21.863842 -21.088774 -0.421616 757 0.130895 0.991396 0.000000
-21.861193 -21.086214 -0.412241 763 0.130895 0.991396 0.000000
-21.861229 -21.086260 -0.402910 755 0.130895 0.991396 0.000000
-21.860952 -21.085993 -0.393573 735 0.130895 0.991396 0.000000
-21.861757 -21.086769 -0.374935 743 0.130895 0.991396 0.000000
-21.860840 -21.085878 -0.365583 759 0.130895 0.991396 0.000000
-21.860929 -21.085972 -0.328271 749 0.130895 0.991396 0.000000
-21.862095 -21.087097 -0.318960 733 0.130895 0.991396 0.000000
-21.860743 -21.085794 -0.309613 693 0.130895 0.991396 0.000000
-21.861139 -21.086182 -0.290959 671 0.130895 0.991396 0.000000
-21.861647 -21.086670 -0.262983 703 0.130895 0.991396 0.000000
-21.876577 -21.088055 -0.655096 781 0.130895 0.991396 0.000000
-21.876829 -21.088293 -0.645774 773 0.130895 0.991396 0.000000
-21.874813 -21.086348 -0.636373 743 0.130895 0.991396 0.000000
-21.875629 -21.087143 -0.627065 731 0.130895 0.991396 0.000000
-21.874073 -21.085649 -0.617689 721 0.130895 0.991396 0.000000
-21.873007 -21.084610 -0.608319 747 0.130895 0.991396 0.000000
-21.875135 -21.086676 -0.599049 759 0.130895 0.991396 0.000000
-21.875107 -21.086641 -0.589709 739 0.130895 0.991396 0.000000
-21.873777 -21.085358 -0.580341 751 0.130895 0.991396 0.000000
-21.874094 -21.085674 -0.571018 735 0.130895 0.991396 0.000000
-21.873545 -21.085140 -0.561673 755 0.130895 0.991396 0.000000
-21.872355 -21.083988 -0.552304 755 0.130895 0.991396 0.000000
-21.874428 -21.085993 -0.543024 753 0.130895 0.991396 0.000000
-21.875547 -21.087069 -0.533723 773 0.130895 0.991396 0.000000
-21.875349 -21.086878 -0.524385 755 0.130895 0.991396 0.000000
-21.875620 -21.087143 -0.515052 749 0.130895 0.991396 0.000000
-21.873610 -21.085205 -0.505671 765 0.130895 0.991396 0.000000
-21.872467 -21.084105 -0.496312 747 0.130895 0.991396 0.000000
-21.873415 -21.085022 -0.487002 761 0.130895 0.991396 0.000000
-21.874832 -21.086393 -0.477709 765 0.130895 0.991396 0.000000
-21.875368 -21.086905 -0.468383 769 0.130895 0.991396 0.000000
-21.873991 -21.085581 -0.459016 763 0.130895 0.991396 0.000000
-21.874035 -21.085632 -0.449685 761 0.130895 0.991396 0.000000
-21.875553 -21.087090 -0.440391 755 0.130895 0.991396 0.000000
-21.875542 -21.087080 -0.431051 751 0.130895 0.991396 0.000000
-21.874735 -21.086309 -0.421708 739 0.130895 0.991396 0.000000
-21.874155 -21.085752 -0.412363 743 0.130895 0.991396 0.000000
-21.875771 -21.087303 -0.403058 757 0.130895 0.991396 0.000000
-21.876278 -21.087801 -0.393733 749 0.130895 0.991396 0.000000
-21.873253 -21.084881 -0.384351 755 0.130895 0.991396 0.000000
-21.872648 -21.084303 -0.375007 739 0.130895 0.991396 0.000000
-21.874535 -21.086113 -0.365709 751 0.130895 0.991396 0.000000
-21.874554 -21.086132 -0.356378 759 0.130895 0.991396 0.000000
-21.874729 -21.086306 -0.347046 735 0.130895 0.991396 0.000000
-21.874702 -21.086285 -0.337716 739 0.130895 0.991396 0.000000
-21.872461 -21.084129 -0.328357 733 0.130895 0.991396 0.000000
-21.873535 -21.085163 -0.319037 721 0.130895 0.991396 0.000000
-21.873602 -21.085234 -0.309706 705 0.130895 0.991396 0.000000
-21.873137 -21.084787 -0.300370 693 0.130895 0.991396 0.000000
-21.873781 -21.085400 -0.291044 703 0.130895 0.991396 0.000000
-21.874792 -21.086382 -0.281734 707 0.130895 0.991396 0.000000
-21.874437 -21.086039 -0.272397 707 0.130895 0.991396 0.000000
-21.873075 -21.084728 -0.263050 697 0.130895 0.991396 0.000000
-21.884907 -21.082569 -0.655155 753 0.130895 0.991396 0.000000
-21.884840 -21.082502 -0.645816 757 0.130895 0.991396 0.000000
-21.886772 -21.084366 -0.636537 741 0.130895 0.991396 0.000000
-21.887871 -21.085421 -0.627227 717 0.130895 0.991396 0.000000
-21.887259 -21.084837 -0.617872 739 0.130895 0.991396 0.000000
-21.886387 -21.084000 -0.608510 753 0.130895 0.991396 0.000000
-21.887789 -21.085346 -0.599217 743 0.130895 0.991396 0.000000
-21.888395 -21.085941 -0.589891 753 0.130895 0.991396 0.000000
-21.886837 -21.084431 -0.580515 723 0.130895 0.991396 0.000000
-21.886078 -21.083698 -0.571162 741 0.130895 0.991396 0.000000
-21.886715 -21.084318 -0.561836 733 0.130895 0.991396 0.000000
-21.887209 -21.084795 -0.552511 743 0.130895 0.991396 0.000000
-21.887190 -21.084770 -0.543181 763 0.130895 0.991396 0.000000
-21.887032 -21.084625 -0.533842 759 0.130895 0.991396 0.000000
-21.886623 -21.084236 -0.524496 747 0.130895 0.991396 0.000000
-21.886421 -21.084034 -0.515158 767 0.130895 0.991396 0.000000
-21.887323 -21.084913 -0.505839 755 0.130895 0.991396 0.000000
-21.887594 -21.085163 -0.496506 765 0.130895 0.991396 0.000000
-21.887272 -21.084860 -0.487169 779 0.130895 0.991396 0.000000
-21.888493 -21.086029 -0.477857 785 0.130895 0.991396 0.000000
-21.887381 -21.084965 -0.468498 741 0.130895 0.991396 0.000000
-21.885902 -21.083546 -0.459131 741 0.130895 0.991396 0.000000
-21.885906 -21.083540 -0.449801 749 0.130895 0.991396 0.000000
-21.885794 -21.083435 -0.440462 753 0.130895 0.991396 0.000000
-21.885883 -21.083523 -0.431131 745 0.130895 0.991396 0.000000
-21.884771 -21.082447 -0.421771 723 0.130895 0.991396 0.000000
-21.884651 -21.082336 -0.412442 733 0.130895 0.991396 0.000000
-21.886583 -21.084200 -0.403144 739 0.130895 0.991396 0.000000
-21.886518 -21.084135 -0.393804 733 0.130895 0.991396 0.000000
-21.885178 -21.082844 -0.384446 749 0.130895 0.991396 0.000000
-21.885895 -21.083542 -0.375129 739 0.130895 0.991396 0.000000
-21.887552 -21.085142 -0.365823 767 0.130895 0.991396 0.000000
-21.886208 -21.083845 -0.356466 739 0.130895 0.991396 0.000000
-21.884338 -21.082035 -0.347104 737 0.130895 0.991396 0.000000
-21.883936 -21.081652 -0.337757 729 0.130895 0.991396 0.000000
-21.884964 -21.082649 -0.328447 735 0.130895 0.991396 0.000000
-21.886606 -21.084234 -0.319131 707 0.130895 0.991396 0.000000
-21.886736 -21.084358 -0.309800 701 0.130895 0.991396 0.000000
-21.886600 -21.084219 -0.300471 691 0.130895 0.991396 0.000000
-21.885815 -21.083466 -0.291118 691 0.130895 0.991396 0.000000
-21.886412 -21.084044 -0.281792 693 0.130895 0.991396 0.000000
-21.887253 -21.084858 -0.272474 687 0.130895 0.991396 0.000000
-21.885307 -21.082985 -0.263112 689 0.130895 0.991396 0.000000
-21.898338 -21.082119 -0.655356 763 0.130895 0.991396 0.000000
-21.899277 -21.083017 -0.646047 751 0.130895 0.991396 0.000000
-21.899790 -21.083508 -0.636721 751 0.130895 0.991396 0.000000
-21.899443 -21.083183 -0.627375 739 0.130895 0.991396 0.000000
-21.900274 -21.083979 -0.618056 743 0.130895 0.991396 0.000000
-21.899670 -21.083401 -0.608702 731 0.130895 0.991396 0.000000
-21.899282 -21.083031 -0.599345 743 0.130895 0.991396 0.000000
-21.899513 -21.083250 -0.590013 737 0.130895 0.991396 0.000000
-21.899166 -21.082911 -0.580666 721 0.130895 0.991396 0.000000
-21.900129 -21.083841 -0.571357 729 0.130895 0.991396 0.000000
-21.901321 -21.084988 -0.562045 721 0.130895 0.991396 0.000000
-21.900124 -21.083839 -0.552676 723 0.130895 0.991396 0.000000
-21.899511 -21.083242 -0.543322 735 0.130895 0.991396 0.000000
-21.898417 -21.082191 -0.533962 749 0.130895 0.991396 0.000000
-21.899372 -21.083118 -0.524643 755 0.130895 0.991396 0.000000
-21.901905 -21.085556 -0.515369 737 0.130895 0.991396 0.000000
-21.902073 -21.085712 -0.506027 741 0.130895 0.991396 0.000000
-21.901297 -21.084967 -0.496674 745 0.130895 0.991396 0.000000
-21.900085 -21.083807 -0.487305 747 0.130895 0.991396 0.000000
-21.899565 -21.083298 -0.477960 753 0.130895 0.991396 0.000000
-21.899975 -21.083693 -0.468626 731 0.130895 0.991396 0.000000
-21.900503 -21.084211 -0.459301 749 0.130895 0.991396 0.000000
-21.900280 -21.083988 -0.449962 739 0.130895 0.991396 0.000000
-21.899965 -21.083691 -0.440615 733 0.130895 0.991396 0.000000
-21.898220 -21.082010 -0.431242 729 0.130895 0.991396 0.000000
-21.897890 -21.081686 -0.421904 729 0.130895 0.991396 0.000000
-21.898136 -21.081930 -0.412572 735 0.130895 0.991396 0.000000
-21.897703 -21.081509 -0.403226 725 0.130895 0.991396 0.000000
-21.899103 -21.082867 -0.393912 715 0.130895 0.991396 0.000000
-21.900616 -21.084318 -0.384608 735 0.130895 0.991396 0.000000
-21.900597 -21.084303 -0.375268 733 0.130895 0.991396 0.000000
-21.899561 -21.083303 -0.365907 729 0.130895 0.991396 0.000000
-21.900167 -21.083883 -0.356581 727 0.130895 0.991396 0.000000
-21.900515 -21.084229 -0.347258 733 0.130895 0.991396 0.000000
-21.897951 -21.081753 -0.337882 723 0.130895 0.991396 0.000000
-21.896084 -21.079958 -0.328509 713 0.130895 0.991396 0.000000
-21.899841 -21.083584 -0.319233 701 0.130895 0.991396 0.000000
-21.900331 -21.084055 -0.309909 691 0.130895 0.991396 0.000000
-21.898554 -21.082336 -0.300545 703 0.130895 0.991396 0.000000
-21.898886 -21.082653 -0.291212 679 0.130895 0.991396 0.000000
-21.898109 -21.081907 -0.281869 689 0.130895 0.991396 0.000000
-21.896265 -21.080132 -0.272506 681 0.130895 0.991396 0.000000
-21.897549 -21.081366 -0.263184 689 0.130895 0.991396 0.000000
-21.912596 -21.082928 -0.655596 725 0.130895 0.991396 0.000000
-21.911993 -21.082350 -0.646231 745 0.130895 0.991396 0.000000
-21.910929 -21.081327 -0.636861 737 0.130895 0.991396 0.000000
-21.910120 -21.080542 -0.627499 723 0.130895 0.991396 0.000000
-21.911154 -21.081543 -0.618188 711 0.130895 0.991396 0.000000
-21.912758 -21.083084 -0.608883 703 0.130895 0.991396 0.000000
-21.914268 -21.084532 -0.599589 715 0.130895 0.991396 0.000000
-21.913553 -21.083849 -0.590225 715 0.130895 0.991396 0.000000
-21.910999 -21.081394 -0.580819 729 0.130895 0.991396 0.000000
-21.909805 -21.080250 -0.571440 731 0.130895 0.991396 0.000000
-21.911087 -21.081484 -0.562138 739 0.130895 0.991396 0.000000
-21.910372 -21.080790 -0.552774 757 0.130895 0.991396 0.000000
-21.909645 -21.080097 -0.543421 723 0.130895 0.991396 0.000000
-21.911030 -21.081429 -0.534108 735 0.130895 0.991396 0.000000
-21.910782 -21.081186 -0.524770 719 0.130895 0.991396 0.000000
-21.911055 -21.081453 -0.515437 723 0.130895 0.991396 0.000000
-21.911844 -21.082214 -0.506109 735 0.130895 0.991396 0.000000
-21.910961 -21.081366 -0.496747 753 0.130895 0.991396 0.000000
-21.912073 -21.082434 -0.487437 735 0.130895 0.991396 0.000000
-21.912388 -21.082735 -0.478103 717 0.130895 0.991396 0.000000
-21.911543 -21.081919 -0.468741 737 0.130895 0.991396 0.000000
-21.910799 -21.081211 -0.459388 737 0.130895 0.991396 0.000000
-21.910271 -21.080698 -0.450033 725 0.130895 0.991396 0.000000
-21.912266 -21.082613 -0.440734 741 0.130895 0.991396 0.000000
-21.910521 -21.080935 -0.431360 723 0.130895 0.991396 0.000000
-21.908396 -21.078901 -0.421980 711 0.130895 0.991396 0.000000
-21.910585 -21.081005 -0.412689 733 0.130895 0.991396 0.000000
-21.912212 -21.082577 -0.403373 727 0.130895 0.991396 0.000000
-21.910883 -21.081295 -0.394016 739 0.130895 0.991396 0.000000
-21.910170 -21.080614 -0.384662 727 0.130895 0.991396 0.000000
-21.908892 -21.079374 -0.375304 717 0.130895 0.991396 0.000000
-21.909233 -21.079708 -0.365971 733 0.130895 0.991396 0.000000
-21.910360 -21.080790 -0.356650 731 0.130895 0.991396 0.000000
-21.909286 -21.079760 -0.347290 705 0.130895 0.991396 0.000000
-21.908934 -21.079414 -0.337953 717 0.130895 0.991396 0.000000
-21.907852 -21.078377 -0.328593 715 0.130895 0.991396 0.000000
-21.909302 -21.079775 -0.319279 677 0.130895 0.991396 0.000000
-21.911692 -21.082071 -0.309976 685 0.130895 0.991396 0.000000
-21.910854 -21.081276 -0.300624 685 0.130895 0.991396 0.000000
-21.911186 -21.081591 -0.291290 687 0.130895 0.991396 0.000000
-21.912462 -21.082819 -0.281968 685 0.130895 0.991396 0.000000
-21.910461 -21.080902 -0.272607 679 0.130895 0.991396 0.000000
-21.908680 -21.079180 -0.263244 679 0.130895 0.991396 0.000000
-21.926365 -21.083044 -0.655811 717 0.130895 0.991396 0.000000
-21.926306 -21.082983 -0.646462 723 0.130895 0.991396 0.000000
-21.925491 -21.082205 -0.637099 709 0.130895 0.991396 0.000000
-21.924059 -21.080826 -0.627713 681 0.130895 0.991396 0.000000
-21.922760 -21.079582 -0.618335 689 0.130895 0.991396 0.000000
-21.923639 -21.080427 -0.609016 697 0.130895 0.991396 0.000000
-21.924400 -21.081163 -0.599689 695 0.130895 0.991396 0.000000
-21.924326 -21.081093 -0.590339 697 0.130895 0.991396 0.000000
-21.923887 -21.080664 -0.580983 715 0.130895 0.991396 0.000000
-21.924164 -21.080935 -0.571650 709 0.130895 0.991396 0.000000
-21.926664 -21.083334 -0.562366 733 0.130895 0.991396 0.000000
-21.926575 -21.083250 -0.553027 717 0.130895 0.991396 0.000000
-21.924480 -21.081242 -0.543627 727 0.130895 0.991396 0.000000
-21.923182 -21.079983 -0.534249 697 0.130895 0.991396 0.000000
-21.924458 -21.081213 -0.524936 703 0.130895 0.991396 0.000000
-21.924623 -21.081379 -0.515605 713 0.130895 0.991396 0.000000
-21.923990 -21.080761 -0.506240 701 0.130895 0.991396 0.000000
-21.924314 -21.081087 -0.496907 697 0.130895 0.991396 0.000000
-21.923529 -21.080320 -0.487544 707 0.130895 0.991396 0.000000
-21.922161 -21.079004 -0.478177 703 0.130895 0.991396 0.000000
-21.922266 -21.079105 -0.468836 703 0.130895 0.991396 0.000000
-21.923471 -21.080265 -0.459524 711 0.130895 0.991396 0.000000
-21.923674 -21.080471 -0.450182 699 0.130895 0.991396 0.000000
-21.923466 -21.080261 -0.440834 725 0.130895 0.991396 0.000000
-21.922979 -21.079796 -0.431488 729 0.130895 0.991396 0.000000
-21.922607 -21.079437 -0.422132 707 0.130895 0.991396 0.000000
-21.922699 -21.079527 -0.412790 707 0.130895 0.991396 0.000000
-21.922251 -21.079105 -0.403444 713 0.130895 0.991396 0.000000
-21.922550 -21.079382 -0.394111 719 0.130895 0.991396 0.000000
-21.924271 -21.081043 -0.384795 727 0.130895 0.991396 0.000000
-21.924519 -21.081276 -0.375462 729 0.130895 0.991396 0.000000
-21.924747 -21.081509 -0.366120 717 0.130895 0.991396 0.000000
-21.924301 -21.081074 -0.356774 713 0.130895 0.991396 0.000000
-21.921167 -21.078060 -0.347383 679 0.130895 0.991396 0.000000
-21.922560 -21.079401 -0.338060 687 0.130895 0.991396 0.000000
-21.926014 -21.082720 -0.328777 715 0.130895 0.991396 0.000000
-21.925394 -21.082132 -0.319423 689 0.130895 0.991396 0.000000
-21.924202 -21.080976 -0.310064 655 0.130895 0.991396 0.000000
-21.923578 -21.080379 -0.300719 675 0.130895 0.991396 0.000000
-21.921957 -21.078817 -0.291355 661 0.130895 0.991396 0.000000
-21.923233 -21.080048 -0.282032 655 0.130895 0.991396 0.000000
-21.922668 -21.079502 -0.272677 681 0.130895 0.991396 0.000000
-21.921402 -21.078297 -0.263329 677 0.130895 0.991396 0.000000
-21.923092 -21.079920 -0.254003 687 0.130895 0.991396 0.000000
-21.934128 -21.076597 -0.571736 673 0.130895 0.991396 0.000000
-21.934977 -21.077417 -0.562408 691 0.130895 0.991396 0.000000
-21.934395 -21.076864 -0.534363 695 0.130895 0.991396 0.000000
-21.933619 -21.076117 -0.525000 689 0.130895 0.991396 0.000000
-21.934675 -21.077127 -0.431578 697 0.130895 0.991396 0.000000
-21.934179 -21.076653 -0.422232 685 0.130895 0.991396 0.000000
-21.933760 -21.076250 -0.366165 715 0.130895 0.991396 0.000000
-21.933096 -21.075623 -0.356811 693 0.130895 0.991396 0.000000
-21.934521 -21.076988 -0.272745 667 0.130895 0.991396 0.000000
-21.932770 -21.075317 -0.263382 657 0.130895 0.991396 0.000000
