287
-21.941303 -20.945362 -0.643724 1387 0.609637 0.792681 0.000000
-21.940960 -20.945049 -0.634387 1395 0.609637 0.792681 0.000000
-21.939991 -20.944111 -0.625046 1379 0.609637 0.792681 0.000000
-21.940083 -20.944201 -0.615725 1381 0.609637 0.792681 0.000000
-21.940315 -20.944429 -0.606412 1385 0.609637 0.792681 0.000000
-21.940012 -20.944141 -0.559814 1387 0.609637 0.792681 0.000000
-21.940062 -20.944201 -0.522543 1381 0.609637 0.792681 0.000000
-21.948635 -20.939060 -0.643741 1393 0.609637 0.792681 0.000000
-21.947927 -20.938389 -0.634408 1397 0.609637 0.792681 0.000000
-21.948072 -20.938520 -0.625086 1387 0.609637 0.792681 0.000000
-21.947620 -20.938091 -0.615760 1375 0.609637 0.792681 0.000000
-21.948122 -20.938576 -0.606455 1379 0.609637 0.792681 0.000000
-21.947945 -20.938410 -0.597127 1387 0.609637 0.792681 0.000000
-21.947538 -20.938019 -0.587800 1387 0.609637 0.792681 0.000000
-21.946877 -20.937395 -0.578456 1365 0.609637 0.792681 0.000000
-21.946161 -20.936701 -0.569123 1393 0.609637 0.792681 0.000000
-21.946861 -20.937372 -0.559826 1387 0.609637 0.792681 0.000000
-21.948156 -20.938614 -0.550533 1389 0.609637 0.792681 0.000000
-21.947796 -20.938272 -0.541207 1393 0.609637 0.792681 0.000000
-21.947121 -20.937626 -0.531873 1385 0.609637 0.792681 0.000000
-21.947084 -20.937597 -0.522563 1395 0.609637 0.792681 0.000000
-21.946344 -20.936886 -0.513220 1389 0.609637 0.792681 0.000000
-21.946405 -20.936949 -0.503909 1383 0.609637 0.792681 0.000000
-21.947571 -20.938061 -0.494618 1391 0.609637 0.792681 0.000000
-21.947268 -20.937767 -0.485290 1383 0.609637 0.792681 0.000000
-21.946630 -20.937162 -0.475956 1379 0.609637 0.792681 0.000000
-21.946737 -20.937265 -0.466645 1377 0.609637 0.792681 0.000000
-21.946886 -20.937410 -0.457333 1381 0.609637 0.792681 0.000000
-21.945932 -20.936501 -0.447992 1383 0.609637 0.792681 0.000000
-21.946079 -20.936646 -0.438680 1379 0.609637 0.792681 0.000000
-21.947182 -20.937695 -0.429390 1371 0.609637 0.792681 0.000000
-21.946846 -20.937374 -0.420063 1381 0.609637 0.792681 0.000000
-21.946203 -20.936764 -0.410739 1377 0.609637 0.792681 0.000000
-21.946024 -20.936598 -0.401420 1377 0.609637 0.792681 0.000000
-21.946537 -20.937088 -0.392105 1371 0.609637 0.792681 0.000000
-21.947039 -20.937574 -0.382800 1391 0.609637 0.792681 0.000000
-21.946814 -20.937353 -0.373482 1387 0.609637 0.792681 0.000000
-21.946999 -20.937532 -0.364170 1391 0.609637 0.792681 0.000000
-21.945974 -20.936550 -0.354839 1393 0.609637 0.792681 0.000000
-21.944880 -20.935514 -0.345499 1381 0.609637 0.792681 0.000000
-21.945589 -20.936193 -0.336203 1383 0.609637 0.792681 0.000000
-21.947407 -20.937931 -0.326905 1381 0.609637 0.792681 0.000000
-21.947426 -20.937950 -0.317595 1387 0.609637 0.792681 0.000000
-21.946962 -20.937498 -0.308269 1385 0.609637 0.792681 0.000000
-21.945766 -20.936367 -0.298940 1383 0.609637 0.792681 0.000000
-21.945881 -20.936472 -0.289629 1373 0.609637 0.792681 0.000000
-21.947523 -20.938047 -0.280333 1379 0.609637 0.792681 0.000000
-21.956385 -20.933136 -0.643774 1381 0.609637 0.792681 0.000000
-21.957115 -20.933832 -0.634477 1391 0.609637 0.792681 0.000000
-21.956730 -20.933460 -0.625151 1387 0.609637 0.792681 0.000000
-21.956230 -20.932991 -0.615815 1369 0.609637 0.792681 0.000000
-21.955467 -20.932261 -0.606472 1379 0.609637 0.792681 0.000000
-21.954594 -20.931427 -0.597130 1375 0.609637 0.792681 0.000000
-21.954939 -20.931759 -0.587817 1373 0.609637 0.792681 0.000000
-21.954958 -20.931776 -0.578506 1387 0.609637 0.792681 0.000000
-21.954124 -20.930988 -0.569164 1381 0.609637 0.792681 0.000000
-21.954412 -20.931261 -0.559851 1369 0.609637 0.792681 0.000000
-21.955383 -20.932190 -0.550552 1363 0.609637 0.792681 0.000000
-21.954975 -20.931797 -0.541225 1367 0.609637 0.792681 0.000000
-21.955091 -20.931917 -0.531914 1383 0.609637 0.792681 0.000000
-21.955372 -20.932186 -0.522601 1375 0.609637 0.792681 0.000000
-21.954426 -20.931282 -0.513260 1385 0.609637 0.792681 0.000000
-21.954432 -20.931288 -0.503939 1383 0.609637 0.792681 0.000000
-21.955439 -20.932245 -0.494650 1371 0.609637 0.792681 0.000000
-21.956028 -20.932814 -0.485344 1373 0.609637 0.792681 0.000000
-21.956026 -20.932812 -0.476024 1373 0.609637 0.792681 0.000000
-21.955595 -20.932402 -0.466697 1371 0.609637 0.792681 0.000000
-21.955069 -20.931900 -0.457372 1377 0.609637 0.792681 0.000000
-21.955057 -20.931894 -0.448052 1375 0.609637 0.792681 0.000000
-21.954905 -20.931747 -0.438733 1367 0.609637 0.792681 0.000000
-21.954561 -20.931417 -0.429406 1375 0.609637 0.792681 0.000000
-21.954025 -20.930910 -0.420081 1367 0.609637 0.792681 0.000000
-21.953224 -20.930147 -0.410749 1377 0.609637 0.792681 0.000000
-21.953735 -20.930641 -0.401444 1373 0.609637 0.792681 0.000000
-21.954237 -20.931110 -0.392129 1369 0.609637 0.792681 0.000000
-21.953800 -20.930708 -0.382802 1369 0.609637 0.792681 0.000000
-21.953779 -20.930679 -0.373492 1377 0.609637 0.792681 0.000000
-21.954861 -20.931709 -0.364192 1385 0.609637 0.792681 0.000000
-21.954193 -20.931084 -0.354868 1383 0.609637 0.792681 0.000000
-21.952906 -20.929852 -0.345530 1377 0.609637 0.792681 0.000000
-21.954145 -20.931034 -0.336228 1373 0.609637 0.792681 0.000000
-21.954000 -20.930904 -0.326909 1375 0.609637 0.792681 0.000000
-21.952541 -20.929510 -0.317573 1387 0.609637 0.792681 0.000000
-21.952719 -20.929680 -0.308261 1387 0.609637 0.792681 0.000000
-21.953951 -20.930857 -0.298959 1371 0.609637 0.792681 0.000000
-21.954493 -20.931374 -0.289654 1387 0.609637 0.792681 0.000000
-21.952805 -20.929766 -0.280319 1383 0.609637 0.792681 0.000000
-21.963825 -20.926924 -0.643810 1411 0.609637 0.792681 0.000000
-21.963909 -20.927006 -0.634489 1407 0.609637 0.792681 0.000000
-21.963732 -20.926840 -0.625161 1395 0.609637 0.792681 0.000000
-21.963127 -20.926260 -0.615826 1373 0.609637 0.792681 0.000000
-21.962639 -20.925793 -0.606491 1379 0.609637 0.792681 0.000000
-21.963032 -20.926174 -0.597187 1385 0.609637 0.792681 0.000000
-21.963219 -20.926353 -0.587865 1373 0.609637 0.792681 0.000000
-21.963770 -20.926876 -0.578559 1391 0.609637 0.792681 0.000000
-21.963213 -20.926352 -0.569224 1379 0.609637 0.792681 0.000000
-21.962440 -20.925611 -0.559891 1381 0.609637 0.792681 0.000000
-21.963093 -20.926233 -0.550585 1381 0.609637 0.792681 0.000000
-21.962622 -20.925789 -0.541259 1373 0.609637 0.792681 0.000000
-21.962643 -20.925808 -0.531939 1369 0.609637 0.792681 0.000000
-21.963446 -20.926575 -0.522641 1377 0.609637 0.792681 0.000000
-21.962976 -20.926132 -0.513305 1381 0.609637 0.792681 0.000000
-21.963034 -20.926182 -0.503994 1379 0.609637 0.792681 0.000000
-21.963308 -20.926441 -0.494682 1387 0.609637 0.792681 0.000000
-21.962982 -20.926142 -0.485355 1379 0.609637 0.792681 0.000000
-21.963999 -20.927105 -0.476055 1385 0.609637 0.792681 0.000000
-21.963037 -20.926189 -0.466714 1367 0.609637 0.792681 0.000000
-21.961611 -20.924831 -0.457367 1367 0.609637 0.792681 0.000000
-21.961386 -20.924625 -0.448049 1367 0.609637 0.792681 0.000000
-21.961918 -20.925123 -0.438744 1379 0.609637 0.792681 0.000000
-21.963017 -20.926178 -0.429443 1391 0.609637 0.792681 0.000000
-21.963638 -20.926773 -0.420137 1395 0.609637 0.792681 0.000000
-21.962725 -20.925894 -0.410805 1375 0.609637 0.792681 0.000000
-21.962284 -20.925476 -0.401479 1371 0.609637 0.792681 0.000000
-21.962576 -20.925764 -0.392166 1377 0.609637 0.792681 0.000000
-21.962406 -20.925604 -0.382848 1379 0.609637 0.792681 0.000000
-21.962749 -20.925936 -0.373534 1371 0.609637 0.792681 0.000000
-21.962414 -20.925613 -0.364207 1381 0.609637 0.792681 0.000000
-21.962013 -20.925228 -0.354891 1373 0.609637 0.792681 0.000000
-21.962250 -20.925457 -0.345578 1385 0.609637 0.792681 0.000000
-21.962219 -20.925423 -0.336258 1377 0.609637 0.792681 0.000000
-21.962187 -20.925396 -0.326938 1387 0.609637 0.792681 0.000000
-21.961781 -20.925018 -0.317612 1387 0.609637 0.792681 0.000000
-21.961632 -20.924875 -0.308293 1379 0.609637 0.792681 0.000000
-21.961336 -20.924587 -0.298976 1383 0.609637 0.792681 0.000000
-21.961073 -20.924349 -0.289658 1389 0.609637 0.792681 0.000000
-21.962208 -20.925423 -0.280357 1383 0.609637 0.792681 0.000000
-21.971674 -20.921129 -0.643842 1395 0.609637 0.792681 0.000000
-21.972130 -20.921564 -0.634538 1389 0.609637 0.792681 0.000000
-21.970686 -20.920193 -0.625171 1381 0.609637 0.792681 0.000000
-21.970224 -20.919758 -0.615845 1387 0.609637 0.792681 0.000000
-21.970957 -20.920454 -0.606538 1391 0.609637 0.792681 0.000000
-21.970928 -20.920431 -0.597218 1389 0.609637 0.792681 0.000000
-21.970537 -20.920053 -0.587892 1373 0.609637 0.792681 0.000000
-21.970922 -20.920429 -0.578578 1373 0.609637 0.792681 0.000000
-21.970514 -20.920038 -0.569252 1371 0.609637 0.792681 0.000000
-21.970171 -20.919710 -0.559925 1385 0.609637 0.792681 0.000000
-21.970982 -20.920485 -0.550627 1373 0.609637 0.792681 0.000000
-21.970890 -20.920401 -0.541297 1373 0.609637 0.792681 0.000000
-21.970961 -20.920469 -0.531986 1379 0.609637 0.792681 0.000000
-21.971859 -20.921326 -0.522688 1379 0.609637 0.792681 0.000000
-21.970922 -20.920441 -0.513346 1379 0.609637 0.792681 0.000000
-21.970024 -20.919590 -0.504005 1375 0.609637 0.792681 0.000000
-21.969719 -20.919292 -0.494677 1373 0.609637 0.792681 0.000000
-21.970358 -20.919901 -0.485371 1375 0.609637 0.792681 0.000000
-21.971043 -20.920557 -0.476064 1385 0.609637 0.792681 0.000000
-21.970984 -20.920500 -0.466745 1377 0.609637 0.792681 0.000000
-21.971138 -20.920652 -0.457433 1375 0.609637 0.792681 0.000000
-21.971498 -20.920996 -0.448119 1379 0.609637 0.792681 0.000000
-21.970964 -20.920490 -0.438794 1385 0.609637 0.792681 0.000000
-21.970432 -20.919983 -0.429459 1379 0.609637 0.792681 0.000000
-21.971052 -20.920576 -0.420153 1385 0.609637 0.792681 0.000000
-21.970932 -20.920467 -0.410834 1387 0.609637 0.792681 0.000000
-21.971125 -20.920652 -0.401522 1385 0.609637 0.792681 0.000000
-21.970638 -20.920181 -0.392196 1391 0.609637 0.792681 0.000000
-21.969440 -20.919048 -0.382857 1385 0.609637 0.792681 0.000000
-21.969793 -20.919388 -0.373544 1391 0.609637 0.792681 0.000000
-21.969347 -20.918962 -0.364218 1381 0.609637 0.792681 0.000000
-21.968994 -20.918629 -0.354901 1381 0.609637 0.792681 0.000000
-21.969450 -20.919064 -0.345586 1379 0.609637 0.792681 0.000000
-21.970150 -20.919735 -0.336279 1379 0.609637 0.792681 0.000000
-21.969864 -20.919464 -0.326962 1379 0.609637 0.792681 0.000000
-21.968870 -20.918522 -0.317631 1375 0.609637 0.792681 0.000000
-21.969633 -20.919243 -0.308324 1377 0.609637 0.792681 0.000000
-21.969860 -20.919468 -0.299011 1395 0.609637 0.792681 0.000000
-21.969658 -20.919268 -0.289683 1383 0.609637 0.792681 0.000000
-21.969078 -20.918722 -0.280368 1391 0.609637 0.792681 0.000000
-21.978819 -20.914587 -0.643862 1391 0.609637 0.792681 0.000000
-21.979597 -20.915319 -0.634564 1387 0.609637 0.792681 0.000000
-21.979467 -20.915205 -0.625235 1375 0.609637 0.792681 0.000000
-21.979179 -20.914934 -0.615907 1393 0.609637 0.792681 0.000000
-21.979113 -20.914869 -0.606588 1377 0.609637 0.792681 0.000000
-21.978390 -20.914183 -0.597245 1383 0.609637 0.792681 0.000000
-21.978308 -20.914106 -0.587925 1375 0.609637 0.792681 0.000000
-21.979078 -20.914833 -0.578628 1381 0.609637 0.792681 0.000000
-21.978252 -20.914051 -0.569285 1369 0.609637 0.792681 0.000000
-21.979221 -20.914978 -0.559986 1387 0.609637 0.792681 0.000000
-21.979336 -20.915085 -0.550664 1389 0.609637 0.792681 0.000000
-21.978731 -20.914507 -0.541330 1377 0.609637 0.792681 0.000000
-21.979210 -20.914974 -0.532025 1395 0.609637 0.792681 0.000000
-21.978645 -20.914429 -0.522690 1385 0.609637 0.792681 0.000000
-21.978539 -20.914331 -0.513371 1373 0.609637 0.792681 0.000000
-21.979301 -20.915054 -0.504064 1381 0.609637 0.792681 0.000000
-21.978767 -20.914545 -0.494738 1377 0.609637 0.792681 0.000000
-21.978291 -20.914097 -0.485403 1377 0.609637 0.792681 0.000000
-21.978611 -20.914410 -0.476089 1385 0.609637 0.792681 0.000000
-21.978870 -20.914660 -0.466777 1393 0.609637 0.792681 0.000000
-21.977869 -20.913698 -0.457436 1381 0.609637 0.792681 0.000000
-21.977486 -20.913336 -0.448109 1375 0.609637 0.792681 0.000000
-21.977957 -20.913784 -0.438805 1385 0.609637 0.792681 0.000000
-21.978214 -20.914032 -0.429492 1375 0.609637 0.792681 0.000000
-21.978359 -20.914179 -0.420170 1379 0.609637 0.792681 0.000000
-21.977858 -20.913696 -0.410845 1383 0.609637 0.792681 0.000000
-21.977634 -20.913492 -0.401527 1383 0.609637 0.792681 0.000000
-21.977732 -20.913574 -0.392206 1389 0.609637 0.792681 0.000000
-21.978346 -20.914160 -0.382900 1375 0.609637 0.792681 0.000000
-21.978848 -20.914646 -0.373585 1379 0.609637 0.792681 0.000000
-21.978456 -20.914267 -0.364268 1369 0.609637 0.792681 0.000000
-21.977150 -20.913033 -0.354920 1369 0.609637 0.792681 0.000000
-21.977121 -20.913010 -0.345610 1377 0.609637 0.792681 0.000000
-21.977474 -20.913336 -0.336297 1373 0.609637 0.792681 0.000000
-21.977488 -20.913361 -0.326976 1377 0.609637 0.792681 0.000000
-21.977507 -20.913378 -0.317656 1379 0.609637 0.792681 0.000000
-21.977526 -20.913397 -0.308346 1377 0.609637 0.792681 0.000000
-21.978170 -20.914009 -0.299029 1385 0.609637 0.792681 0.000000
-21.978390 -20.914227 -0.289717 1389 0.609637 0.792681 0.000000
-21.977974 -20.913828 -0.280391 1393 0.609637 0.792681 0.000000
-21.987389 -20.909697 -0.643926 1395 0.609637 0.792681 0.000000
-21.986998 -20.909330 -0.634589 1383 0.609637 0.792681 0.000000
-21.985767 -20.908159 -0.625241 1371 0.609637 0.792681 0.000000
-21.985584 -20.907986 -0.615912 1373 0.609637 0.792681 0.000000
-21.985674 -20.908073 -0.606591 1369 0.609637 0.792681 0.000000
-21.986803 -20.909155 -0.597300 1389 0.609637 0.792681 0.000000
-21.987730 -20.910036 -0.588001 1395 0.609637 0.792681 0.000000
-21.986906 -20.909254 -0.578659 1399 0.609637 0.792681 0.000000
-21.985922 -20.908318 -0.569318 1389 0.609637 0.792681 0.000000
-21.985310 -20.907736 -0.559983 1377 0.609637 0.792681 0.000000
-21.985012 -20.907446 -0.550646 1373 0.609637 0.792681 0.000000
-21.985760 -20.908169 -0.541349 1369 0.609637 0.792681 0.000000
-21.986095 -20.908478 -0.532035 1371 0.609637 0.792681 0.000000
-21.985935 -20.908339 -0.522716 1371 0.609637 0.792681 0.000000
-21.986319 -20.908701 -0.513403 1385 0.609637 0.792681 0.000000
-21.986490 -20.908867 -0.504081 1387 0.609637 0.792681 0.000000
-21.986658 -20.909019 -0.494769 1393 0.609637 0.792681 0.000000
-21.986559 -20.908928 -0.485450 1387 0.609637 0.792681 0.000000
-21.986605 -20.908978 -0.476129 1385 0.609637 0.792681 0.000000
-21.986925 -20.909277 -0.466816 1375 0.609637 0.792681 0.000000
-21.985790 -20.908209 -0.457476 1389 0.609637 0.792681 0.000000
-21.984838 -20.907297 -0.448135 1375 0.609637 0.792681 0.000000
-21.985317 -20.907751 -0.438820 1385 0.609637 0.792681 0.000000
-21.984941 -20.907396 -0.429494 1379 0.609637 0.792681 0.000000
-21.984606 -20.907076 -0.420167 1371 0.609637 0.792681 0.000000
-21.985125 -20.907574 -0.410861 1379 0.609637 0.792681 0.000000
-21.985731 -20.908155 -0.401555 1383 0.609637 0.792681 0.000000
-21.985670 -20.908096 -0.392236 1389 0.609637 0.792681 0.000000
-21.984583 -20.907064 -0.382896 1387 0.609637 0.792681 0.000000
-21.984873 -20.907339 -0.373583 1379 0.609637 0.792681 0.000000
-21.985495 -20.907932 -0.364277 1375 0.609637 0.792681 0.000000
-21.985680 -20.908112 -0.354965 1371 0.609637 0.792681 0.000000
-21.985651 -20.908075 -0.345645 1377 0.609637 0.792681 0.000000
-21.985624 -20.908056 -0.336325 1371 0.609637 0.792681 0.000000
-21.986437 -20.908831 -0.327017 1383 0.609637 0.792681 0.000000
-21.986235 -20.908644 -0.317699 1369 0.609637 0.792681 0.000000
-21.986675 -20.909065 -0.308384 1369 0.609637 0.792681 0.000000
-21.986805 -20.909185 -0.299063 1379 0.609637 0.792681 0.000000
-21.985495 -20.907934 -0.289725 1375 0.609637 0.792681 0.000000
-21.985073 -20.907543 -0.280409 1391 0.609637 0.792681 0.000000
-21.995146 -20.903778 -0.643959 1399 0.609637 0.792681 0.000000
-21.994921 -20.903559 -0.634631 1399 0.609637 0.792681 0.000000
-21.993622 -20.902330 -0.625273 1381 0.609637 0.792681 0.000000
-21.993443 -20.902161 -0.615944 1385 0.609637 0.792681 0.000000
-21.993795 -20.902500 -0.606641 1389 0.609637 0.792681 0.000000
-21.993238 -20.901976 -0.597296 1387 0.609637 0.792681 0.000000
-21.993528 -20.902248 -0.587983 1377 0.609637 0.792681 0.000000
-21.994289 -20.902969 -0.578685 1385 0.609637 0.792681 0.000000
-21.994690 -20.903345 -0.569371 1383 0.609637 0.792681 0.000000
-21.994814 -20.903473 -0.560060 1383 0.609637 0.792681 0.000000
-21.993868 -20.902567 -0.550709 1389 0.609637 0.792681 0.000000
-21.993359 -20.902096 -0.541373 1383 0.609637 0.792681 0.000000
-21.994059 -20.902752 -0.532076 1379 0.609637 0.792681 0.000000
-21.993698 -20.902411 -0.522740 1375 0.609637 0.792681 0.000000
-21.993498 -20.902225 -0.513421 1387 0.609637 0.792681 0.000000
-21.994246 -20.902933 -0.504114 1381 0.609637 0.792681 0.000000
-21.994099 -20.902792 -0.494795 1387 0.609637 0.792681 0.000000
-21.993240 -20.901983 -0.485453 1379 0.609637 0.792681 0.000000
-21.992928 -20.901682 -0.476126 1375 0.609637 0.792681 0.000000
-21.993353 -20.902090 -0.466812 1387 0.609637 0.792681 0.000000
-21.993671 -20.902390 -0.457498 1391 0.609637 0.792681 0.000000
-21.993383 -20.902119 -0.448171 1387 0.609637 0.792681 0.000000
-21.994020 -20.902727 -0.438865 1389 0.609637 0.792681 0.000000
-21.994492 -20.903173 -0.429560 1403 0.609637 0.792681 0.000000
-21.993896 -20.902615 -0.420225 1387 0.609637 0.792681 0.000000
-21.993616 -20.902353 -0.410898 1387 0.609637 0.792681 0.000000
-21.993700 -20.902435 -0.401587 1387 0.609637 0.792681 0.000000
-21.993694 -20.902420 -0.392266 1383 0.609637 0.792681 0.000000
-21.993778 -20.902500 -0.382945 1383 0.609637 0.792681 0.000000
-21.993958 -20.902674 -0.373634 1381 0.609637 0.792681 0.000000
-21.993828 -20.902555 -0.364305 1383 0.609637 0.792681 0.000000
-21.993427 -20.902172 -0.354978 1379 0.609637 0.792681 0.000000
-21.992817 -20.901602 -0.345654 1373 0.609637 0.792681 0.000000
-21.992725 -20.901518 -0.336334 1377 0.609637 0.792681 0.000000
-21.992762 -20.901548 -0.327014 1385 0.609637 0.792681 0.000000
-21.993099 -20.901873 -0.317700 1375 0.609637 0.792681 0.000000
-21.993908 -20.902632 -0.308392 1371 0.609637 0.792681 0.000000
-21.993444 -20.902195 -0.299067 1391 0.609637 0.792681 0.000000
-21.992447 -20.901249 -0.289736 1383 0.609637 0.792681 0.000000
-21.992836 -20.901617 -0.280422 1399 0.609637 0.792681 0.000000
