40
-22.096294 -20.609894 -0.641127 575 -0.548674 0.836037 0.000000
-22.095146 -20.608822 -0.631808 587 -0.548674 0.836037 0.000000
-22.095127 -20.608810 -0.622528 581 -0.548674 0.836037 0.000000
-22.093559 -20.607340 -0.613202 577 -0.548674 0.836037 0.000000
-22.094278 -20.608006 -0.603935 593 -0.548674 0.836037 0.000000
-22.095482 -20.609135 -0.594684 579 -0.548674 0.836037 0.000000
-22.094963 -20.608658 -0.585388 567 -0.548674 0.836037 0.000000
-22.094681 -20.608381 -0.576101 565 -0.548674 0.836037 0.000000
-22.095392 -20.609056 -0.566834 581 -0.548674 0.836037 0.000000
-22.095039 -20.608723 -0.557547 577 -0.548674 0.836037 0.000000
-22.091042 -20.604992 -0.548164 579 -0.548674 0.836037 0.000000
-22.089457 -20.603523 -0.538849 579 -0.548674 0.836037 0.000000
-22.090971 -20.604925 -0.529604 561 -0.548674 0.836037 0.000000
-22.092104 -20.605986 -0.520354 565 -0.548674 0.836037 0.000000
-22.093603 -20.607388 -0.511109 549 -0.548674 0.836037 0.000000
-22.093185 -20.606993 -0.501813 555 -0.548674 0.836037 0.000000
-22.092865 -20.606701 -0.492526 565 -0.548674 0.836037 0.000000
-22.093353 -20.607155 -0.483261 563 -0.548674 0.836037 0.000000
-22.092913 -20.606741 -0.473965 577 -0.548674 0.836037 0.000000
-22.092068 -20.605951 -0.464673 571 -0.548674 0.836037 0.000000
-22.092430 -20.606293 -0.455399 575 -0.548674 0.836037 0.000000
-22.092697 -20.606548 -0.446126 565 -0.548674 0.836037 0.000000
-22.093012 -20.606836 -0.436853 569 -0.548674 0.836037 0.000000
-22.093477 -20.607275 -0.427578 563 -0.548674 0.836037 0.000000
-22.090790 -20.604771 -0.418243 551 -0.548674 0.836037 0.000000
-22.089817 -20.603853 -0.408952 539 -0.548674 0.836037 0.000000
-22.092634 -20.606489 -0.399726 527 -0.548674 0.836037 0.000000
-22.093050 -20.606876 -0.390452 535 -0.548674 0.836037 0.000000
-22.090895 -20.604858 -0.381132 545 -0.548674 0.836037 0.000000
-22.088991 -20.603085 -0.371829 541 -0.548674 0.836037 0.000000
-22.089340 -20.603415 -0.362556 533 -0.548674 0.836037 0.000000
-22.091227 -20.605181 -0.353308 549 -0.548674 0.836037 0.000000
-22.092184 -20.606062 -0.344039 551 -0.548674 0.836037 0.000000
-22.092100 -20.605984 -0.334759 551 -0.548674 0.836037 0.000000
-22.092384 -20.606249 -0.325486 553 -0.548674 0.836037 0.000000
-22.092880 -20.606710 -0.316221 551 -0.548674 0.836037 0.000000
-22.091076 -20.605040 -0.306908 557 -0.548674 0.836037 0.000000
-22.089167 -20.603260 -0.297606 547 -0.548674 0.836037 0.000000
-22.089497 -20.603563 -0.288332 547 -0.548674 0.836037 0.000000
-22.090366 -20.604374 -0.279074 581 -0.548674 0.836037 0.000000
