300
-21.458828 -21.419991 -0.651442 1075 0.265426 0.964131 0.000000
-21.458757 -21.419931 -0.642132 1081 0.265426 0.964131 0.000000
-21.459524 -21.420691 -0.632835 1077 0.265426 0.964131 0.000000
-21.460852 -21.422010 -0.623561 1087 0.265426 0.964131 0.000000
-21.460663 -21.421825 -0.614243 1091 0.265426 0.964131 0.000000
-21.460497 -21.421658 -0.604914 1089 0.265426 0.964131 0.000000
-21.461149 -21.422308 -0.595618 1077 0.265426 0.964131 0.000000
-21.461586 -21.422747 -0.586313 1073 0.265426 0.964131 0.000000
-21.459124 -21.420294 -0.576937 1071 0.265426 0.964131 0.000000
-21.457895 -21.419062 -0.567589 1079 0.265426 0.964131 0.000000
-21.459002 -21.420177 -0.558298 1081 0.265426 0.964131 0.000000
-21.459021 -21.420197 -0.548988 1081 0.265426 0.964131 0.000000
-21.459919 -21.421097 -0.539698 1083 0.265426 0.964131 0.000000
-21.460197 -21.421362 -0.530386 1071 0.265426 0.964131 0.000000
-21.459372 -21.420540 -0.521053 1079 0.265426 0.964131 0.000000
-21.458912 -21.420084 -0.511728 1087 0.265426 0.964131 0.000000
-21.458563 -21.419735 -0.502411 1087 0.265426 0.964131 0.000000
-21.458920 -21.420094 -0.493107 1083 0.265426 0.964131 0.000000
-21.459650 -21.420822 -0.483810 1085 0.265426 0.964131 0.000000
-21.459339 -21.420519 -0.474483 1069 0.265426 0.964131 0.000000
-21.459696 -21.420877 -0.465179 1077 0.265426 0.964131 0.000000
-21.459236 -21.420408 -0.455853 1085 0.265426 0.964131 0.000000
-21.457823 -21.419006 -0.446517 1093 0.265426 0.964131 0.000000
-21.458275 -21.419458 -0.437212 1097 0.265426 0.964131 0.000000
-21.459627 -21.420799 -0.427919 1103 0.265426 0.964131 0.000000
-21.459352 -21.420527 -0.418601 1077 0.265426 0.964131 0.000000
-21.458757 -21.419941 -0.409277 1067 0.265426 0.964131 0.000000
-21.458082 -21.419262 -0.399953 1069 0.265426 0.964131 0.000000
-21.457911 -21.419088 -0.390645 1073 0.265426 0.964131 0.000000
-21.458870 -21.420053 -0.381345 1063 0.265426 0.964131 0.000000
-21.459982 -21.421164 -0.372054 1067 0.265426 0.964131 0.000000
-21.459232 -21.420420 -0.362721 1057 0.265426 0.964131 0.000000
-21.457495 -21.418688 -0.353388 1077 0.265426 0.964131 0.000000
-21.456697 -21.417891 -0.344055 1087 0.265426 0.964131 0.000000
-21.457335 -21.418526 -0.334759 1065 0.265426 0.964131 0.000000
-21.458546 -21.419735 -0.325467 1087 0.265426 0.964131 0.000000
-21.459135 -21.420319 -0.316161 1073 0.265426 0.964131 0.000000
-21.459415 -21.420597 -0.306858 1089 0.265426 0.964131 0.000000
-21.458336 -21.419533 -0.297528 1061 0.265426 0.964131 0.000000
-21.457886 -21.419085 -0.288212 1059 0.265426 0.964131 0.000000
-21.458050 -21.419239 -0.278900 1051 0.265426 0.964131 0.000000
-21.456654 -21.417850 -0.269574 1047 0.265426 0.964131 0.000000
-21.457642 -21.418842 -0.260274 1057 0.265426 0.964131 0.000000
-21.471996 -21.419540 -0.651644 1053 0.265426 0.964131 0.000000
-21.471251 -21.418789 -0.642301 1053 0.265426 0.964131 0.000000
-21.469578 -21.417126 -0.632937 1069 0.265426 0.964131 0.000000
-21.469566 -21.417116 -0.623617 1073 0.265426 0.964131 0.000000
-21.470478 -21.418028 -0.614328 1079 0.265426 0.964131 0.000000
-21.470459 -21.418001 -0.605008 1079 0.265426 0.964131 0.000000
-21.470377 -21.417919 -0.595688 1045 0.265426 0.964131 0.000000
-21.470922 -21.418463 -0.586393 1065 0.265426 0.964131 0.000000
-21.469124 -21.416681 -0.577030 1077 0.265426 0.964131 0.000000
-21.469460 -21.417007 -0.567717 1077 0.265426 0.964131 0.000000
-21.470718 -21.418268 -0.558434 1071 0.265426 0.964131 0.000000
-21.470629 -21.418180 -0.549115 1075 0.265426 0.964131 0.000000
-21.470125 -21.417673 -0.539789 1085 0.265426 0.964131 0.000000
-21.469990 -21.417547 -0.530470 1091 0.265426 0.964131 0.000000
-21.469631 -21.417189 -0.521144 1099 0.265426 0.964131 0.000000
-21.470167 -21.417713 -0.511838 1093 0.265426 0.964131 0.000000
-21.470331 -21.417883 -0.502526 1077 0.265426 0.964131 0.000000
-21.468782 -21.416338 -0.493181 1065 0.265426 0.964131 0.000000
-21.468769 -21.416327 -0.483861 1083 0.265426 0.964131 0.000000
-21.469660 -21.417219 -0.474562 1077 0.265426 0.964131 0.000000
-21.470013 -21.417574 -0.465259 1077 0.265426 0.964131 0.000000
-21.469753 -21.417316 -0.455941 1079 0.265426 0.964131 0.000000
-21.468302 -21.415867 -0.446595 1075 0.265426 0.964131 0.000000
-21.468813 -21.416370 -0.437290 1083 0.265426 0.964131 0.000000
-21.468956 -21.416523 -0.427978 1081 0.265426 0.964131 0.000000
-21.468121 -21.415678 -0.418646 1059 0.265426 0.964131 0.000000
-21.469433 -21.416998 -0.409363 1081 0.265426 0.964131 0.000000
-21.469584 -21.417141 -0.400051 1071 0.265426 0.964131 0.000000
-21.468687 -21.416260 -0.390720 1069 0.265426 0.964131 0.000000
-21.468822 -21.416389 -0.381408 1075 0.265426 0.964131 0.000000
-21.470051 -21.417608 -0.372116 1071 0.265426 0.964131 0.000000
-21.470694 -21.418251 -0.362810 1079 0.265426 0.964131 0.000000
-21.469797 -21.417356 -0.353478 1087 0.265426 0.964131 0.000000
-21.468822 -21.416393 -0.344147 1081 0.265426 0.964131 0.000000
-21.468643 -21.416216 -0.334829 1077 0.265426 0.964131 0.000000
-21.469585 -21.417154 -0.325529 1083 0.265426 0.964131 0.000000
-21.469196 -21.416771 -0.316213 1057 0.265426 0.964131 0.000000
-21.468077 -21.415644 -0.306884 1061 0.265426 0.964131 0.000000
-21.468658 -21.416235 -0.297578 1055 0.265426 0.964131 0.000000
-21.468199 -21.415766 -0.288262 1059 0.265426 0.964131 0.000000
-21.467480 -21.415062 -0.278939 1049 0.265426 0.964131 0.000000
-21.468531 -21.416103 -0.269638 1057 0.265426 0.964131 0.000000
-21.468489 -21.416056 -0.260329 1053 0.265426 0.964131 0.000000
-21.482370 -21.416277 -0.651753 1077 0.265426 0.964131 0.000000
-21.481226 -21.415129 -0.642404 1071 0.265426 0.964131 0.000000
-21.479805 -21.413721 -0.633038 1073 0.265426 0.964131 0.000000
-21.480042 -21.413950 -0.623725 1059 0.265426 0.964131 0.000000
-21.480993 -21.414907 -0.614436 1071 0.265426 0.964131 0.000000
-21.482229 -21.416134 -0.605153 1053 0.265426 0.964131 0.000000
-21.482357 -21.416271 -0.595842 1077 0.265426 0.964131 0.000000
-21.481396 -21.415310 -0.586491 1077 0.265426 0.964131 0.000000
-21.481827 -21.415741 -0.577187 1061 0.265426 0.964131 0.000000
-21.481119 -21.415037 -0.567853 1083 0.265426 0.964131 0.000000
-21.480068 -21.413982 -0.558503 1091 0.265426 0.964131 0.000000
-21.479149 -21.413067 -0.549162 1085 0.265426 0.964131 0.000000
-21.479939 -21.413860 -0.539864 1081 0.265426 0.964131 0.000000
-21.480513 -21.414431 -0.530568 1085 0.265426 0.964131 0.000000
-21.480846 -21.414759 -0.521255 1087 0.265426 0.964131 0.000000
-21.481045 -21.414968 -0.511943 1091 0.265426 0.964131 0.000000
-21.481325 -21.415234 -0.502630 1095 0.265426 0.964131 0.000000
-21.481583 -21.415495 -0.493317 1081 0.265426 0.964131 0.000000
-21.480656 -21.414574 -0.483976 1085 0.265426 0.964131 0.000000
-21.479357 -21.413282 -0.474638 1055 0.265426 0.964131 0.000000
-21.479609 -21.413538 -0.465325 1083 0.265426 0.964131 0.000000
-21.481630 -21.415541 -0.456046 1087 0.265426 0.964131 0.000000
-21.481310 -21.415232 -0.446728 1065 0.265426 0.964131 0.000000
-21.480122 -21.414045 -0.437390 1077 0.265426 0.964131 0.000000
-21.480001 -21.413919 -0.428071 1079 0.265426 0.964131 0.000000
-21.479891 -21.413813 -0.418752 1075 0.265426 0.964131 0.000000
-21.480240 -21.414165 -0.409438 1077 0.265426 0.964131 0.000000
-21.479752 -21.413683 -0.400112 1071 0.265426 0.964131 0.000000
-21.479008 -21.412947 -0.390779 1059 0.265426 0.964131 0.000000
-21.478621 -21.412552 -0.381463 1063 0.265426 0.964131 0.000000
-21.477886 -21.411818 -0.372130 1057 0.265426 0.964131 0.000000
-21.479052 -21.412989 -0.362838 1079 0.265426 0.964131 0.000000
-21.481049 -21.414970 -0.353559 1081 0.265426 0.964131 0.000000
-21.481895 -21.415825 -0.344250 1081 0.265426 0.964131 0.000000
-21.480619 -21.414555 -0.334922 1081 0.265426 0.964131 0.000000
-21.478683 -21.412611 -0.325571 1061 0.265426 0.964131 0.000000
-21.478848 -21.412781 -0.316259 1071 0.265426 0.964131 0.000000
-21.479061 -21.413004 -0.306947 1061 0.265426 0.964131 0.000000
-21.479441 -21.413383 -0.297643 1059 0.265426 0.964131 0.000000
-21.479414 -21.413347 -0.288323 1067 0.265426 0.964131 0.000000
-21.479881 -21.413813 -0.279018 1065 0.265426 0.964131 0.000000
-21.479115 -21.413055 -0.269686 1073 0.265426 0.964131 0.000000
-21.477879 -21.411818 -0.260357 1055 0.265426 0.964131 0.000000
-21.492435 -21.413218 -0.651863 1087 0.265426 0.964131 0.000000
-21.492054 -21.412842 -0.642536 1075 0.265426 0.964131 0.000000
-21.491259 -21.412043 -0.633194 1071 0.265426 0.964131 0.000000
-21.491669 -21.412449 -0.623880 1067 0.265426 0.964131 0.000000
-21.491173 -21.411963 -0.614544 1065 0.265426 0.964131 0.000000
-21.489552 -21.410343 -0.605180 1061 0.265426 0.964131 0.000000
-21.489824 -21.410616 -0.595867 1053 0.265426 0.964131 0.000000
-21.491262 -21.412041 -0.586593 1051 0.265426 0.964131 0.000000
-21.492113 -21.412903 -0.577294 1065 0.265426 0.964131 0.000000
-21.491615 -21.412401 -0.567959 1053 0.265426 0.964131 0.000000
-21.490803 -21.411589 -0.558616 1047 0.265426 0.964131 0.000000
-21.490454 -21.411240 -0.549290 1071 0.265426 0.964131 0.000000
-21.491096 -21.411882 -0.539983 1069 0.265426 0.964131 0.000000
-21.491047 -21.411840 -0.530663 1071 0.265426 0.964131 0.000000
-21.490128 -21.410925 -0.521322 1085 0.265426 0.964131 0.000000
-21.490709 -21.411503 -0.512016 1091 0.265426 0.964131 0.000000
-21.491652 -21.412439 -0.502727 1091 0.265426 0.964131 0.000000
-21.491339 -21.412136 -0.493400 1077 0.265426 0.964131 0.000000
-21.490513 -21.411314 -0.484057 1079 0.265426 0.964131 0.000000
-21.490463 -21.411259 -0.474738 1069 0.265426 0.964131 0.000000
-21.491299 -21.412092 -0.465439 1071 0.265426 0.964131 0.000000
-21.491911 -21.412706 -0.456133 1083 0.265426 0.964131 0.000000
-21.492214 -21.413008 -0.446820 1079 0.265426 0.964131 0.000000
-21.490709 -21.411501 -0.437474 1075 0.265426 0.964131 0.000000
-21.489189 -21.409994 -0.428119 1079 0.265426 0.964131 0.000000
-21.489594 -21.410393 -0.418815 1051 0.265426 0.964131 0.000000
-21.490252 -21.411049 -0.409508 1061 0.265426 0.964131 0.000000
-21.490971 -21.411770 -0.400201 1063 0.265426 0.964131 0.000000
-21.491575 -21.412365 -0.390895 1065 0.265426 0.964131 0.000000
-21.490303 -21.411110 -0.381557 1073 0.265426 0.964131 0.000000
-21.489037 -21.409847 -0.372219 1065 0.265426 0.964131 0.000000
-21.489225 -21.410036 -0.362907 1077 0.265426 0.964131 0.000000
-21.489037 -21.409849 -0.353589 1067 0.265426 0.964131 0.000000
-21.490202 -21.411003 -0.344287 1073 0.265426 0.964131 0.000000
-21.490744 -21.411549 -0.334982 1081 0.265426 0.964131 0.000000
-21.489986 -21.410797 -0.325649 1075 0.265426 0.964131 0.000000
-21.489283 -21.410091 -0.316325 1065 0.265426 0.964131 0.000000
-21.489557 -21.410368 -0.307012 1059 0.265426 0.964131 0.000000
-21.490709 -21.411524 -0.297711 1057 0.265426 0.964131 0.000000
-21.490820 -21.411633 -0.288390 1055 0.265426 0.964131 0.000000
-21.489737 -21.410551 -0.279060 1053 0.265426 0.964131 0.000000
-21.490633 -21.411438 -0.269761 1057 0.265426 0.964131 0.000000
-21.491201 -21.412016 -0.260445 1051 0.265426 0.964131 0.000000
-21.503233 -21.410891 -0.651995 1075 0.265426 0.964131 0.000000
-21.502491 -21.410152 -0.642652 1073 0.265426 0.964131 0.000000
-21.502731 -21.410387 -0.633340 1057 0.265426 0.964131 0.000000
-21.502714 -21.410374 -0.624020 1061 0.265426 0.964131 0.000000
-21.502277 -21.409937 -0.614684 1073 0.265426 0.964131 0.000000
-21.502367 -21.410027 -0.605363 1049 0.265426 0.964131 0.000000
-21.502584 -21.410255 -0.596050 1051 0.265426 0.964131 0.000000
-21.501373 -21.409037 -0.586692 1041 0.265426 0.964131 0.000000
-21.501701 -21.409370 -0.577378 1047 0.265426 0.964131 0.000000
-21.502235 -21.409908 -0.568073 1049 0.265426 0.964131 0.000000
-21.500446 -21.408119 -0.558700 1061 0.265426 0.964131 0.000000
-21.499943 -21.407623 -0.549365 1071 0.265426 0.964131 0.000000
-21.500530 -21.408207 -0.540059 1075 0.265426 0.964131 0.000000
-21.501211 -21.408882 -0.530762 1085 0.265426 0.964131 0.000000
-21.500917 -21.408590 -0.521435 1087 0.265426 0.964131 0.000000
-21.500814 -21.408491 -0.512105 1083 0.265426 0.964131 0.000000
-21.502178 -21.409843 -0.502822 1083 0.265426 0.964131 0.000000
-21.502501 -21.410172 -0.493509 1071 0.265426 0.964131 0.000000
-21.500946 -21.408623 -0.484153 1073 0.265426 0.964131 0.000000
-21.500475 -21.408155 -0.474818 1055 0.265426 0.964131 0.000000
-21.499746 -21.407431 -0.465485 1071 0.265426 0.964131 0.000000
-21.500673 -21.408356 -0.456185 1067 0.265426 0.964131 0.000000
-21.501503 -21.409182 -0.446877 1057 0.265426 0.964131 0.000000
-21.500713 -21.408392 -0.437545 1063 0.265426 0.964131 0.000000
-21.500654 -21.408331 -0.428225 1075 0.265426 0.964131 0.000000
-21.501421 -21.409092 -0.418917 1067 0.265426 0.964131 0.000000
-21.501818 -21.409496 -0.409613 1069 0.265426 0.964131 0.000000
-21.501438 -21.409121 -0.400287 1055 0.265426 0.964131 0.000000
-21.500963 -21.408640 -0.390951 1055 0.265426 0.964131 0.000000
-21.500475 -21.408157 -0.381626 1067 0.265426 0.964131 0.000000
-21.500179 -21.407867 -0.372298 1047 0.265426 0.964131 0.000000
-21.500690 -21.408371 -0.362993 1071 0.265426 0.964131 0.000000
-21.502163 -21.409842 -0.353698 1051 0.265426 0.964131 0.000000
-21.502300 -21.409971 -0.344377 1063 0.265426 0.964131 0.000000
-21.501328 -21.409010 -0.335046 1061 0.265426 0.964131 0.000000
-21.501553 -21.409231 -0.325724 1073 0.265426 0.964131 0.000000
-21.501572 -21.409250 -0.316413 1063 0.265426 0.964131 0.000000
-21.500854 -21.408545 -0.307080 1051 0.265426 0.964131 0.000000
-21.500404 -21.408096 -0.297754 1043 0.265426 0.964131 0.000000
-21.500307 -21.408003 -0.288435 1047 0.265426 0.964131 0.000000
-21.499857 -21.407553 -0.279109 1067 0.265426 0.964131 0.000000
-21.500340 -21.408031 -0.269804 1061 0.265426 0.964131 0.000000
-21.500542 -21.408234 -0.260482 1059 0.265426 0.964131 0.000000
-21.513344 -21.407362 -0.652107 1073 0.265426 0.964131 0.000000
-21.513481 -21.407507 -0.642785 1065 0.265426 0.964131 0.000000
-21.513371 -21.407383 -0.633456 1051 0.265426 0.964131 0.000000
-21.512457 -21.406490 -0.624105 1025 0.265426 0.964131 0.000000
-21.511082 -21.405121 -0.614738 1019 0.265426 0.964131 0.000000
-21.510855 -21.404888 -0.605410 1031 0.265426 0.964131 0.000000
-21.511930 -21.405964 -0.596119 1039 0.265426 0.964131 0.000000
-21.511587 -21.405621 -0.586793 1055 0.265426 0.964131 0.000000
-21.511459 -21.405485 -0.577464 1043 0.265426 0.964131 0.000000
-21.512671 -21.406694 -0.568172 1047 0.265426 0.964131 0.000000
-21.512638 -21.406668 -0.558842 1045 0.265426 0.964131 0.000000
-21.511356 -21.405390 -0.549494 1065 0.265426 0.964131 0.000000
-21.511169 -21.405205 -0.540166 1055 0.265426 0.964131 0.000000
-21.510818 -21.404854 -0.530829 1091 0.265426 0.964131 0.000000
-21.511644 -21.405682 -0.521530 1091 0.265426 0.964131 0.000000
-21.513529 -21.407553 -0.512252 1075 0.265426 0.964131 0.000000
-21.513226 -21.407253 -0.502925 1047 0.265426 0.964131 0.000000
-21.511881 -21.405912 -0.493568 1051 0.265426 0.964131 0.000000
-21.511423 -21.405458 -0.484242 1053 0.265426 0.964131 0.000000
-21.511518 -21.405552 -0.474921 1043 0.265426 0.964131 0.000000
-21.512815 -21.406845 -0.465628 1059 0.265426 0.964131 0.000000
-21.512966 -21.407003 -0.456306 1063 0.265426 0.964131 0.000000
-21.512339 -21.406378 -0.446972 1061 0.265426 0.964131 0.000000
-21.511349 -21.405388 -0.437631 1051 0.265426 0.964131 0.000000
-21.510923 -21.404959 -0.428295 1067 0.265426 0.964131 0.000000
-21.511589 -21.405621 -0.418989 1055 0.265426 0.964131 0.000000
-21.512039 -21.406075 -0.409674 1055 0.265426 0.964131 0.000000
-21.511244 -21.405291 -0.400341 1049 0.265426 0.964131 0.000000
-21.509623 -21.403671 -0.390987 1045 0.265426 0.964131 0.000000
-21.509758 -21.403801 -0.381676 1043 0.265426 0.964131 0.000000
-21.510038 -21.404095 -0.372362 1055 0.265426 0.964131 0.000000
-21.511066 -21.405106 -0.363052 1063 0.265426 0.964131 0.000000
-21.512072 -21.406109 -0.353752 1067 0.265426 0.964131 0.000000
-21.511267 -21.405306 -0.344420 1071 0.265426 0.964131 0.000000
-21.510870 -21.404915 -0.335094 1081 0.265426 0.964131 0.000000
-21.510220 -21.404270 -0.325760 1069 0.265426 0.964131 0.000000
-21.509554 -21.403612 -0.316436 1049 0.265426 0.964131 0.000000
-21.509827 -21.403885 -0.307113 1049 0.265426 0.964131 0.000000
-21.510832 -21.404877 -0.297813 1057 0.265426 0.964131 0.000000
-21.511366 -21.405413 -0.288498 1043 0.265426 0.964131 0.000000
-21.510700 -21.404755 -0.279164 1047 0.265426 0.964131 0.000000
-21.510960 -21.405016 -0.269851 1051 0.265426 0.964131 0.000000
-21.511894 -21.405947 -0.260542 1051 0.265426 0.964131 0.000000
-21.523708 -21.403570 -0.652209 1063 0.265426 0.964131 0.000000
-21.523951 -21.403820 -0.642887 1053 0.265426 0.964131 0.000000
-21.522907 -21.402773 -0.633536 1037 0.265426 0.964131 0.000000
-21.522980 -21.402849 -0.624215 1023 0.265426 0.964131 0.000000
-21.523096 -21.402966 -0.605564 1039 0.265426 0.964131 0.000000
-21.523993 -21.403864 -0.596265 1067 0.265426 0.964131 0.000000
-21.523973 -21.403835 -0.586935 1065 0.265426 0.964131 0.000000
-21.523438 -21.403301 -0.577600 1051 0.265426 0.964131 0.000000
-21.523243 -21.403109 -0.568272 1045 0.265426 0.964131 0.000000
-21.522337 -21.402206 -0.558920 1033 0.265426 0.964131 0.000000
-21.522718 -21.402584 -0.549606 1023 0.265426 0.964131 0.000000
-21.523394 -21.403269 -0.540299 1049 0.265426 0.964131 0.000000
-21.522528 -21.402397 -0.530948 1053 0.265426 0.964131 0.000000
-21.522646 -21.402514 -0.521626 1061 0.265426 0.964131 0.000000
-21.523066 -21.402939 -0.512312 1051 0.265426 0.964131 0.000000
-21.522562 -21.402433 -0.502977 1043 0.265426 0.964131 0.000000
-21.522249 -21.402128 -0.493649 1043 0.265426 0.964131 0.000000
-21.521269 -21.401148 -0.484309 1043 0.265426 0.964131 0.000000
-21.521519 -21.401403 -0.474986 1043 0.265426 0.964131 0.000000
-21.520699 -21.400583 -0.465644 1037 0.265426 0.964131 0.000000
-21.521528 -21.401411 -0.456346 1041 0.265426 0.964131 0.000000
-21.522507 -21.402382 -0.447036 1051 0.265426 0.964131 0.000000
-21.520887 -21.400778 -0.437681 1059 0.265426 0.964131 0.000000
-21.521399 -21.401279 -0.428366 1061 0.265426 0.964131 0.000000
-21.521435 -21.401325 -0.419046 1051 0.265426 0.964131 0.000000
-21.520845 -21.400732 -0.409711 1045 0.265426 0.964131 0.000000
-21.521927 -21.401815 -0.400410 1051 0.265426 0.964131 0.000000
-21.522425 -21.402306 -0.391095 1035 0.265426 0.964131 0.000000
-21.521420 -21.401306 -0.381755 1045 0.265426 0.964131 0.000000
-21.520832 -21.400726 -0.372430 1045 0.265426 0.964131 0.000000
-21.521273 -21.401155 -0.363116 1041 0.265426 0.964131 0.000000
-21.521872 -21.401760 -0.353800 1057 0.265426 0.964131 0.000000
-21.521481 -21.401363 -0.344473 1051 0.265426 0.964131 0.000000
-21.521601 -21.401495 -0.335152 1043 0.265426 0.964131 0.000000
-21.522243 -21.402121 -0.325836 1051 0.265426 0.964131 0.000000
-21.522524 -21.402403 -0.316523 1041 0.265426 0.964131 0.000000
-21.520775 -21.400673 -0.307179 1033 0.265426 0.964131 0.000000
-21.520586 -21.400488 -0.297851 1047 0.265426 0.964131 0.000000
-21.521521 -21.401419 -0.288542 1049 0.265426 0.964131 0.000000
-21.521223 -21.401115 -0.279214 1039 0.265426 0.964131 0.000000
-21.521229 -21.401121 -0.269894 1065 0.265426 0.964131 0.000000
-21.521809 -21.401695 -0.260578 1041 0.265426 0.964131 0.000000
