161
-21.851189 -21.116671 -0.652134 607 -0.245312 0.969444 0.000000
-21.849491 -21.115030 -0.642741 605 -0.245312 0.969444 0.000000
-21.848465 -21.114050 -0.633380 601 -0.245312 0.969444 0.000000
-21.849863 -21.115395 -0.624086 587 -0.245312 0.969444 0.000000
-21.848948 -21.114519 -0.614725 577 -0.245312 0.969444 0.000000
-21.847235 -21.112865 -0.605341 589 -0.245312 0.969444 0.000000
-21.847589 -21.113201 -0.596018 573 -0.245312 0.969444 0.000000
-21.848351 -21.113939 -0.586700 575 -0.245312 0.969444 0.000000
-21.847527 -21.113140 -0.577348 591 -0.245312 0.969444 0.000000
-21.849121 -21.114687 -0.568052 585 -0.245312 0.969444 0.000000
-21.850777 -21.116285 -0.558766 581 -0.245312 0.969444 0.000000
-21.849323 -21.114885 -0.549390 601 -0.245312 0.969444 0.000000
-21.849443 -21.114998 -0.540058 597 -0.245312 0.969444 0.000000
-21.849401 -21.114965 -0.530729 607 -0.245312 0.969444 0.000000
-21.848732 -21.114309 -0.521375 597 -0.245312 0.969444 0.000000
-21.848524 -21.114115 -0.512037 611 -0.245312 0.969444 0.000000
-21.846952 -21.112602 -0.502671 587 -0.245312 0.969444 0.000000
-21.846222 -21.111895 -0.493318 601 -0.245312 0.969444 0.000000
-21.846748 -21.112398 -0.484003 601 -0.245312 0.969444 0.000000
-21.846956 -21.112612 -0.474671 603 -0.245312 0.969444 0.000000
-21.846483 -21.112156 -0.465335 593 -0.245312 0.969444 0.000000
-21.847265 -21.112911 -0.456017 597 -0.245312 0.969444 0.000000
-21.846786 -21.112450 -0.446672 593 -0.245312 0.969444 0.000000
-21.846836 -21.112494 -0.437341 591 -0.245312 0.969444 0.000000
-21.848822 -21.114418 -0.428052 581 -0.245312 0.969444 0.000000
-21.848652 -21.114254 -0.418713 569 -0.245312 0.969444 0.000000
-21.848228 -21.113838 -0.409377 593 -0.245312 0.969444 0.000000
-21.848730 -21.114321 -0.400052 603 -0.245312 0.969444 0.000000
-21.848709 -21.114307 -0.390722 577 -0.245312 0.969444 0.000000
-21.847683 -21.113327 -0.381371 587 -0.245312 0.969444 0.000000
-21.847195 -21.112844 -0.372026 597 -0.245312 0.969444 0.000000
-21.847744 -21.113380 -0.362700 607 -0.245312 0.969444 0.000000
-21.847351 -21.113005 -0.353364 583 -0.245312 0.969444 0.000000
-21.846691 -21.112370 -0.344030 573 -0.245312 0.969444 0.000000
-21.847919 -21.113560 -0.334708 583 -0.245312 0.969444 0.000000
-21.847837 -21.113482 -0.325379 559 -0.245312 0.969444 0.000000
-21.847481 -21.113134 -0.316042 545 -0.245312 0.969444 0.000000
-21.847765 -21.113411 -0.306719 535 -0.245312 0.969444 0.000000
-21.847090 -21.112762 -0.297375 537 -0.245312 0.969444 0.000000
-21.846424 -21.112118 -0.288041 515 -0.245312 0.969444 0.000000
-21.846697 -21.112375 -0.278708 525 -0.245312 0.969444 0.000000
-21.847178 -21.112841 -0.269384 529 -0.245312 0.969444 0.000000
-21.867573 -21.119596 -0.652432 591 -0.245312 0.969444 0.000000
-21.866772 -21.118814 -0.643070 583 -0.245312 0.969444 0.000000
-21.865013 -21.117123 -0.633676 601 -0.245312 0.969444 0.000000
-21.867054 -21.119091 -0.624397 577 -0.245312 0.969444 0.000000
-21.868654 -21.120646 -0.615101 609 -0.245312 0.969444 0.000000
-21.867947 -21.119957 -0.605738 595 -0.245312 0.969444 0.000000
-21.867453 -21.119482 -0.596392 569 -0.245312 0.969444 0.000000
-21.865639 -21.117731 -0.586999 591 -0.245312 0.969444 0.000000
-21.867405 -21.119434 -0.577712 573 -0.245312 0.969444 0.000000
-21.867620 -21.119654 -0.568370 581 -0.245312 0.969444 0.000000
-21.866226 -21.118303 -0.559003 585 -0.245312 0.969444 0.000000
-21.866447 -21.118515 -0.549661 575 -0.245312 0.969444 0.000000
-21.865618 -21.117723 -0.540308 589 -0.245312 0.969444 0.000000
-21.866901 -21.118959 -0.530996 587 -0.245312 0.969444 0.000000
-21.865490 -21.117596 -0.521629 587 -0.245312 0.969444 0.000000
-21.865759 -21.117861 -0.512296 573 -0.245312 0.969444 0.000000
-21.866348 -21.118431 -0.502970 583 -0.245312 0.969444 0.000000
-21.866825 -21.118895 -0.493646 607 -0.245312 0.969444 0.000000
-21.867250 -21.119301 -0.484311 595 -0.245312 0.969444 0.000000
-21.865398 -21.117517 -0.474939 585 -0.245312 0.969444 0.000000
-21.865355 -21.117470 -0.465599 585 -0.245312 0.969444 0.000000
-21.865765 -21.117878 -0.456275 601 -0.245312 0.969444 0.000000
-21.866549 -21.118633 -0.446947 575 -0.245312 0.969444 0.000000
-21.864811 -21.116945 -0.437574 585 -0.245312 0.969444 0.000000
-21.865055 -21.117191 -0.428241 587 -0.245312 0.969444 0.000000
-21.865261 -21.117390 -0.418909 583 -0.245312 0.969444 0.000000
-21.864449 -21.116613 -0.409556 565 -0.245312 0.969444 0.000000
-21.866486 -21.118582 -0.400257 575 -0.245312 0.969444 0.000000
-21.868469 -21.120491 -0.390957 565 -0.245312 0.969444 0.000000
-21.869455 -21.121441 -0.381637 577 -0.245312 0.969444 0.000000
-21.868795 -21.120804 -0.372284 579 -0.245312 0.969444 0.000000
-21.866194 -21.118294 -0.362908 587 -0.245312 0.969444 0.000000
-21.863953 -21.116135 -0.353530 571 -0.245312 0.969444 0.000000
-21.864088 -21.116262 -0.344198 543 -0.245312 0.969444 0.000000
-21.867205 -21.119284 -0.334908 565 -0.245312 0.969444 0.000000
-21.869648 -21.121641 -0.325614 553 -0.245312 0.969444 0.000000
-21.866831 -21.118923 -0.316231 529 -0.245312 0.969444 0.000000
-21.864475 -21.116648 -0.306864 505 -0.245312 0.969444 0.000000
-21.865065 -21.117214 -0.297538 507 -0.245312 0.969444 0.000000
-21.864872 -21.117031 -0.288199 517 -0.245312 0.969444 0.000000
-21.863825 -21.116020 -0.278849 517 -0.245312 0.969444 0.000000
-21.864311 -21.116491 -0.269524 515 -0.245312 0.969444 0.000000
-21.888754 -21.126621 -0.652867 577 -0.245312 0.969444 0.000000
-21.887947 -21.125851 -0.643494 599 -0.245312 0.969444 0.000000
-21.887608 -21.125530 -0.634137 565 -0.245312 0.969444 0.000000
-21.887230 -21.125153 -0.624781 553 -0.245312 0.969444 0.000000
-21.886204 -21.124172 -0.615410 577 -0.245312 0.969444 0.000000
-21.885963 -21.123938 -0.606062 583 -0.245312 0.969444 0.000000
-21.885412 -21.123404 -0.596697 571 -0.245312 0.969444 0.000000
-21.886229 -21.124201 -0.587379 569 -0.245312 0.969444 0.000000
-21.888727 -21.126616 -0.578095 557 -0.245312 0.969444 0.000000
-21.888176 -21.126081 -0.568740 557 -0.245312 0.969444 0.000000
-21.885193 -21.123203 -0.559319 579 -0.245312 0.969444 0.000000
-21.886517 -21.124485 -0.550006 569 -0.245312 0.969444 0.000000
-21.887960 -21.125872 -0.540691 587 -0.245312 0.969444 0.000000
-21.886757 -21.124716 -0.531323 577 -0.245312 0.969444 0.000000
-21.884457 -21.122498 -0.521925 539 -0.245312 0.969444 0.000000
-21.883736 -21.121796 -0.512562 545 -0.245312 0.969444 0.000000
-21.884684 -21.122715 -0.503242 571 -0.245312 0.969444 0.000000
-21.883953 -21.122007 -0.493879 575 -0.245312 0.969444 0.000000
-21.886950 -21.124901 -0.484610 569 -0.245312 0.969444 0.000000
-21.887003 -21.124958 -0.475269 579 -0.245312 0.969444 0.000000
-21.885204 -21.123220 -0.465886 571 -0.245312 0.969444 0.000000
-21.885426 -21.123432 -0.456544 563 -0.245312 0.969444 0.000000
-21.885256 -21.123266 -0.447195 559 -0.245312 0.969444 0.000000
-21.884604 -21.122650 -0.437841 559 -0.245312 0.969444 0.000000
-21.884077 -21.122137 -0.428486 559 -0.245312 0.969444 0.000000
-21.884434 -21.122486 -0.419152 551 -0.245312 0.969444 0.000000
-21.882626 -21.120739 -0.409780 563 -0.245312 0.969444 0.000000
-21.883144 -21.121239 -0.400444 575 -0.245312 0.969444 0.000000
-21.886703 -21.124678 -0.391170 563 -0.245312 0.969444 0.000000
-21.886209 -21.124205 -0.381814 537 -0.245312 0.969444 0.000000
-21.885605 -21.123625 -0.372460 557 -0.245312 0.969444 0.000000
-21.885216 -21.123240 -0.363114 541 -0.245312 0.969444 0.000000
-21.883661 -21.121740 -0.353748 547 -0.245312 0.969444 0.000000
-21.884161 -21.122225 -0.344413 529 -0.245312 0.969444 0.000000
-21.886021 -21.124033 -0.335105 537 -0.245312 0.969444 0.000000
-21.886032 -21.124044 -0.325765 541 -0.245312 0.969444 0.000000
-21.886051 -21.124063 -0.316414 531 -0.245312 0.969444 0.000000
-21.885759 -21.123783 -0.307077 491 -0.245312 0.969444 0.000000
-21.885084 -21.123119 -0.297723 503 -0.245312 0.969444 0.000000
-21.883841 -21.121933 -0.288365 503 -0.245312 0.969444 0.000000
-21.883368 -21.121477 -0.279019 503 -0.245312 0.969444 0.000000
-21.883169 -21.121286 -0.269671 507 -0.245312 0.969444 0.000000
-21.905115 -21.128984 -0.634457 553 -0.245312 0.969444 0.000000
-21.903046 -21.126993 -0.625047 545 -0.245312 0.969444 0.000000
-21.902025 -21.126005 -0.615666 533 -0.245312 0.969444 0.000000
-21.903681 -21.127604 -0.606370 535 -0.245312 0.969444 0.000000
-21.905666 -21.129515 -0.597071 539 -0.245312 0.969444 0.000000
-21.903522 -21.127455 -0.568961 565 -0.245312 0.969444 0.000000
-21.901953 -21.125944 -0.559576 561 -0.245312 0.969444 0.000000
-21.901972 -21.125961 -0.550225 557 -0.245312 0.969444 0.000000
-21.902567 -21.126535 -0.540899 559 -0.245312 0.969444 0.000000
-21.904106 -21.128027 -0.531584 557 -0.245312 0.969444 0.000000
-21.903854 -21.127783 -0.512876 547 -0.245312 0.969444 0.000000
-21.903757 -21.127691 -0.503527 559 -0.245312 0.969444 0.000000
-21.904602 -21.128511 -0.494198 541 -0.245312 0.969444 0.000000
-21.903975 -21.127901 -0.484834 565 -0.245312 0.969444 0.000000
-21.901716 -21.125729 -0.475446 557 -0.245312 0.969444 0.000000
-21.901081 -21.125111 -0.466082 537 -0.245312 0.969444 0.000000
-21.903400 -21.127352 -0.456779 531 -0.245312 0.969444 0.000000
-21.902388 -21.126371 -0.447419 539 -0.245312 0.969444 0.000000
-21.902018 -21.126013 -0.438062 535 -0.245312 0.969444 0.000000
-21.904680 -21.128590 -0.428766 547 -0.245312 0.969444 0.000000
-21.903856 -21.127796 -0.400703 527 -0.245312 0.969444 0.000000
-21.902838 -21.126808 -0.391343 539 -0.245312 0.969444 0.000000
-21.901875 -21.125879 -0.381972 537 -0.245312 0.969444 0.000000
-21.902899 -21.126877 -0.372652 553 -0.245312 0.969444 0.000000
-21.902395 -21.126396 -0.363297 513 -0.245312 0.969444 0.000000
-21.902906 -21.126886 -0.353951 527 -0.245312 0.969444 0.000000
-21.904453 -21.128382 -0.344636 501 -0.245312 0.969444 0.000000
-21.904215 -21.128145 -0.335278 521 -0.245312 0.969444 0.000000
-21.904444 -21.128378 -0.325936 509 -0.245312 0.969444 0.000000
-21.903831 -21.127779 -0.316582 489 -0.245312 0.969444 0.000000
-21.902002 -21.126015 -0.307209 491 -0.245312 0.969444 0.000000
-21.903650 -21.127607 -0.297883 491 -0.245312 0.969444 0.000000
-21.904926 -21.128839 -0.288560 493 -0.245312 0.969444 0.000000
-21.903555 -21.127522 -0.279193 489 -0.245312 0.969444 0.000000
-21.902670 -21.126671 -0.269832 487 -0.245312 0.969444 0.000000
