343
-14.479218 -14.005885 -0.663225 973 -0.233320 0.972400 0.000000
-14.479944 -14.006590 -0.657068 975 -0.233320 0.972400 0.000000
-14.480716 -14.007334 -0.650910 977 -0.233320 0.972400 0.000000
-14.480649 -14.007271 -0.644711 979 -0.233320 0.972400 0.000000
-14.479585 -14.006247 -0.638471 971 -0.233320 0.972400 0.000000
-14.478190 -14.004899 -0.632224 973 -0.233320 0.972400 0.000000
-14.478445 -14.005139 -0.626041 981 -0.233320 0.972400 0.000000
-14.478793 -14.005483 -0.619858 979 -0.233320 0.972400 0.000000
-14.478246 -14.004948 -0.613643 973 -0.233320 0.972400 0.000000
-14.477802 -14.004524 -0.607437 975 -0.233320 0.972400 0.000000
-14.477562 -14.004293 -0.601239 977 -0.233320 0.972400 0.000000
-14.477745 -14.004476 -0.595047 985 -0.233320 0.972400 0.000000
-14.478243 -14.004955 -0.588882 979 -0.233320 0.972400 0.000000
-14.478159 -14.004879 -0.582683 975 -0.233320 0.972400 0.000000
-14.477243 -14.003989 -0.576461 983 -0.233320 0.972400 0.000000
-14.477481 -14.004216 -0.570279 987 -0.233320 0.972400 0.000000
-14.478222 -14.004934 -0.564112 973 -0.233320 0.972400 0.000000
-14.478249 -14.004962 -0.557921 981 -0.233320 0.972400 0.000000
-14.477537 -14.004266 -0.551708 985 -0.233320 0.972400 0.000000
-14.477495 -14.004237 -0.545518 969 -0.233320 0.972400 0.000000
-14.477867 -14.004600 -0.539335 981 -0.233320 0.972400 0.000000
-14.477462 -14.004207 -0.533138 983 -0.233320 0.972400 0.000000
-14.477323 -14.004073 -0.526939 981 -0.233320 0.972400 0.000000
-14.478284 -14.004997 -0.520780 985 -0.233320 0.972400 0.000000
-14.477918 -14.004650 -0.514584 977 -0.233320 0.972400 0.000000
-14.476875 -14.003632 -0.508353 965 -0.233320 0.972400 0.000000
-14.476989 -14.003742 -0.502172 975 -0.233320 0.972400 0.000000
-14.476891 -14.003655 -0.495973 969 -0.233320 0.972400 0.000000
-14.477050 -14.003804 -0.489791 977 -0.233320 0.972400 0.000000
-14.476677 -14.003451 -0.483595 993 -0.233320 0.972400 0.000000
-14.476419 -14.003194 -0.477397 965 -0.233320 0.972400 0.000000
-14.477051 -14.003808 -0.471221 965 -0.233320 0.972400 0.000000
-14.476789 -14.003560 -0.465023 973 -0.233320 0.972400 0.000000
-14.477048 -14.003805 -0.458851 969 -0.233320 0.972400 0.000000
-14.476880 -14.003646 -0.452652 973 -0.233320 0.972400 0.000000
-14.476718 -14.003492 -0.446463 969 -0.233320 0.972400 0.000000
-14.477075 -14.003842 -0.440280 975 -0.233320 0.972400 0.000000
-14.476284 -14.003069 -0.434067 971 -0.233320 0.972400 0.000000
-14.475588 -14.002399 -0.427864 971 -0.233320 0.972400 0.000000
-14.475677 -14.002492 -0.421673 973 -0.233320 0.972400 0.000000
-14.475297 -14.002120 -0.415476 967 -0.233320 0.972400 0.000000
-14.475654 -14.002470 -0.409303 975 -0.233320 0.972400 0.000000
-14.476055 -14.002858 -0.403129 977 -0.233320 0.972400 0.000000
-14.476248 -14.003047 -0.396947 977 -0.233320 0.972400 0.000000
-14.475914 -14.002727 -0.390750 985 -0.233320 0.972400 0.000000
-14.475367 -14.002192 -0.384545 979 -0.233320 0.972400 0.000000
-14.474765 -14.001613 -0.378340 969 -0.233320 0.972400 0.000000
-14.474124 -14.000987 -0.372136 983 -0.233320 0.972400 0.000000
-14.473775 -14.000655 -0.365939 977 -0.233320 0.972400 0.000000
-14.473651 -14.000532 -0.359750 975 -0.233320 0.972400 0.000000
-14.474252 -14.001122 -0.353584 971 -0.233320 0.972400 0.000000
-14.474483 -14.001344 -0.347402 979 -0.233320 0.972400 0.000000
-14.473825 -14.000705 -0.341198 981 -0.233320 0.972400 0.000000
-14.473162 -14.000062 -0.334994 965 -0.233320 0.972400 0.000000
-14.473345 -14.000243 -0.328823 969 -0.233320 0.972400 0.000000
-14.473991 -14.000872 -0.322646 973 -0.233320 0.972400 0.000000
-14.473901 -14.000790 -0.316457 975 -0.233320 0.972400 0.000000
-14.473605 -14.000500 -0.310270 963 -0.233320 0.972400 0.000000
-14.473876 -14.000767 -0.304087 967 -0.233320 0.972400 0.000000
-14.474262 -14.001128 -0.297913 971 -0.233320 0.972400 0.000000
-14.474171 -14.001047 -0.291724 987 -0.233320 0.972400 0.000000
-14.474387 -14.001255 -0.285542 979 -0.233320 0.972400 0.000000
-14.493762 -14.010716 -0.663683 1007 -0.233320 0.972400 0.000000
-14.494699 -14.011621 -0.657534 1009 -0.233320 0.972400 0.000000
-14.494420 -14.011358 -0.651326 1005 -0.233320 0.972400 0.000000
-14.493826 -14.010786 -0.645102 1005 -0.233320 0.972400 0.000000
-14.493233 -14.010213 -0.638877 995 -0.233320 0.972400 0.000000
-14.492693 -14.009685 -0.632652 1003 -0.233320 0.972400 0.000000
-14.493042 -14.010029 -0.626469 1003 -0.233320 0.972400 0.000000
-14.493336 -14.010315 -0.620286 1005 -0.233320 0.972400 0.000000
-14.493260 -14.010244 -0.614086 999 -0.233320 0.972400 0.000000
-14.492822 -14.009812 -0.607870 999 -0.233320 0.972400 0.000000
-14.492740 -14.009738 -0.601681 999 -0.233320 0.972400 0.000000
-14.493183 -14.010172 -0.595497 1009 -0.233320 0.972400 0.000000
-14.492794 -14.009793 -0.589290 1001 -0.233320 0.972400 0.000000
-14.492614 -14.009612 -0.583082 999 -0.233320 0.972400 0.000000
-14.492892 -14.009885 -0.576899 1005 -0.233320 0.972400 0.000000
-14.492959 -14.009958 -0.570708 1003 -0.233320 0.972400 0.000000
-14.493040 -14.010031 -0.564517 1001 -0.233320 0.972400 0.000000
-14.492580 -14.009594 -0.558301 993 -0.233320 0.972400 0.000000
-14.492496 -14.009505 -0.552102 995 -0.233320 0.972400 0.000000
-14.492618 -14.009622 -0.545911 997 -0.233320 0.972400 0.000000
-14.492110 -14.009133 -0.539695 981 -0.233320 0.972400 0.000000
-14.492121 -14.009148 -0.533505 983 -0.233320 0.972400 0.000000
-14.491967 -14.009001 -0.527307 987 -0.233320 0.972400 0.000000
-14.492190 -14.009216 -0.521124 1001 -0.233320 0.972400 0.000000
-14.492939 -14.009939 -0.514957 999 -0.233320 0.972400 0.000000
-14.492471 -14.009482 -0.508741 985 -0.233320 0.972400 0.000000
-14.491578 -14.008626 -0.502520 991 -0.233320 0.972400 0.000000
-14.491802 -14.008841 -0.496327 995 -0.233320 0.972400 0.000000
-14.491906 -14.008945 -0.490136 1001 -0.233320 0.972400 0.000000
-14.491853 -14.008895 -0.483947 991 -0.233320 0.972400 0.000000
-14.492069 -14.009104 -0.477764 981 -0.233320 0.972400 0.000000
-14.492072 -14.009098 -0.471564 985 -0.233320 0.972400 0.000000
-14.491909 -14.008944 -0.465366 989 -0.233320 0.972400 0.000000
-14.491590 -14.008636 -0.459168 989 -0.233320 0.972400 0.000000
-14.490904 -14.007973 -0.452955 997 -0.233320 0.972400 0.000000
-14.491056 -14.008130 -0.446763 989 -0.233320 0.972400 0.000000
-14.491569 -14.008621 -0.440588 991 -0.233320 0.972400 0.000000
-14.491461 -14.008512 -0.434389 991 -0.233320 0.972400 0.000000
-14.491033 -14.008101 -0.428183 985 -0.233320 0.972400 0.000000
-14.490911 -14.007980 -0.421984 1003 -0.233320 0.972400 0.000000
-14.491055 -14.008131 -0.415803 991 -0.233320 0.972400 0.000000
-14.490988 -14.008068 -0.409603 991 -0.233320 0.972400 0.000000
-14.491076 -14.008147 -0.403422 989 -0.233320 0.972400 0.000000
-14.492265 -14.009296 -0.397261 997 -0.233320 0.972400 0.000000
-14.491985 -14.009033 -0.391053 1003 -0.233320 0.972400 0.000000
-14.491494 -14.008558 -0.384848 993 -0.233320 0.972400 0.000000
-14.491583 -14.008636 -0.378667 983 -0.233320 0.972400 0.000000
-14.491984 -14.009025 -0.372483 1005 -0.233320 0.972400 0.000000
-14.491745 -14.008794 -0.366285 1009 -0.233320 0.972400 0.000000
-14.490981 -14.008068 -0.360072 995 -0.233320 0.972400 0.000000
-14.490582 -14.007682 -0.353876 993 -0.233320 0.972400 0.000000
-14.490554 -14.007650 -0.347676 995 -0.233320 0.972400 0.000000
-14.489741 -14.006872 -0.341473 987 -0.233320 0.972400 0.000000
-14.488811 -14.005970 -0.335262 983 -0.233320 0.972400 0.000000
-14.489833 -14.006958 -0.329092 989 -0.233320 0.972400 0.000000
-14.490165 -14.007275 -0.322909 995 -0.233320 0.972400 0.000000
-14.489605 -14.006743 -0.316704 977 -0.233320 0.972400 0.000000
-14.489467 -14.006609 -0.310515 991 -0.233320 0.972400 0.000000
-14.489483 -14.006616 -0.304325 995 -0.233320 0.972400 0.000000
-14.490076 -14.007199 -0.298139 991 -0.233320 0.972400 0.000000
-14.490243 -14.007354 -0.291957 997 -0.233320 0.972400 0.000000
-14.490311 -14.007428 -0.285766 997 -0.233320 0.972400 0.000000
-14.507025 -14.014458 -0.664092 1009 -0.233320 0.972400 0.000000
-14.506847 -14.014291 -0.657884 1011 -0.233320 0.972400 0.000000
-14.506474 -14.013925 -0.651657 1005 -0.233320 0.972400 0.000000
-14.505308 -14.012804 -0.645408 995 -0.233320 0.972400 0.000000
-14.504972 -14.012483 -0.639191 1001 -0.233320 0.972400 0.000000
-14.505900 -14.013367 -0.633032 1001 -0.233320 0.972400 0.000000
-14.506619 -14.014067 -0.626865 1003 -0.233320 0.972400 0.000000
-14.506175 -14.013642 -0.620649 1005 -0.233320 0.972400 0.000000
-14.506310 -14.013773 -0.614458 1001 -0.233320 0.972400 0.000000
-14.506557 -14.014007 -0.608265 1009 -0.233320 0.972400 0.000000
-14.505845 -14.013324 -0.602032 1003 -0.233320 0.972400 0.000000
-14.505189 -14.012686 -0.595808 995 -0.233320 0.972400 0.000000
-14.505155 -14.012664 -0.589608 993 -0.233320 0.972400 0.000000
-14.505445 -14.012934 -0.583415 995 -0.233320 0.972400 0.000000
-14.505481 -14.012968 -0.577225 999 -0.233320 0.972400 0.000000
-14.504652 -14.012177 -0.570993 1001 -0.233320 0.972400 0.000000
-14.504883 -14.012398 -0.564800 999 -0.233320 0.972400 0.000000
-14.505011 -14.012521 -0.558609 997 -0.233320 0.972400 0.000000
-14.504549 -14.012071 -0.552393 1001 -0.233320 0.972400 0.000000
-14.504043 -14.011581 -0.546178 991 -0.233320 0.972400 0.000000
-14.504532 -14.012053 -0.539993 995 -0.233320 0.972400 0.000000
-14.504747 -14.012276 -0.533811 995 -0.233320 0.972400 0.000000
-14.504704 -14.012232 -0.527611 995 -0.233320 0.972400 0.000000
-14.504927 -14.012445 -0.521419 997 -0.233320 0.972400 0.000000
-14.504622 -14.012151 -0.515212 1015 -0.233320 0.972400 0.000000
-14.504265 -14.011810 -0.508995 1011 -0.233320 0.972400 0.000000
-14.504008 -14.011552 -0.502797 997 -0.233320 0.972400 0.000000
-14.504586 -14.012124 -0.496611 1003 -0.233320 0.972400 0.000000
-14.505012 -14.012530 -0.490437 995 -0.233320 0.972400 0.000000
-14.504749 -14.012282 -0.484230 999 -0.233320 0.972400 0.000000
-14.504547 -14.012083 -0.478021 997 -0.233320 0.972400 0.000000
-14.504856 -14.012380 -0.471838 987 -0.233320 0.972400 0.000000
-14.505024 -14.012537 -0.465647 991 -0.233320 0.972400 0.000000
-14.505010 -14.012531 -0.459446 993 -0.233320 0.972400 0.000000
-14.504842 -14.012372 -0.453248 989 -0.233320 0.972400 0.000000
-14.504584 -14.012115 -0.447040 985 -0.233320 0.972400 0.000000
-14.504470 -14.012013 -0.440841 1001 -0.233320 0.972400 0.000000
-14.504198 -14.011744 -0.434634 999 -0.233320 0.972400 0.000000
-14.503292 -14.010876 -0.428412 991 -0.233320 0.972400 0.000000
-14.502706 -14.010308 -0.422197 987 -0.233320 0.972400 0.000000
-14.503321 -14.010897 -0.416022 979 -0.233320 0.972400 0.000000
-14.503511 -14.011086 -0.409840 987 -0.233320 0.972400 0.000000
-14.503185 -14.010771 -0.403633 989 -0.233320 0.972400 0.000000
-14.503637 -14.011211 -0.397448 997 -0.233320 0.972400 0.000000
-14.503881 -14.011445 -0.391256 991 -0.233320 0.972400 0.000000
-14.503604 -14.011183 -0.385058 991 -0.233320 0.972400 0.000000
-14.503480 -14.011061 -0.378859 991 -0.233320 0.972400 0.000000
-14.504244 -14.011798 -0.372682 999 -0.233320 0.972400 0.000000
-14.503691 -14.011271 -0.366477 991 -0.233320 0.972400 0.000000
-14.501982 -14.009613 -0.360233 993 -0.233320 0.972400 0.000000
-14.502644 -14.010254 -0.354056 989 -0.233320 0.972400 0.000000
-14.502977 -14.010585 -0.347873 985 -0.233320 0.972400 0.000000
-14.502641 -14.010250 -0.341666 993 -0.233320 0.972400 0.000000
-14.502810 -14.010420 -0.335474 995 -0.233320 0.972400 0.000000
-14.503048 -14.010648 -0.329292 1001 -0.233320 0.972400 0.000000
-14.503335 -14.010926 -0.323099 1005 -0.233320 0.972400 0.000000
-14.502818 -14.010430 -0.316894 1003 -0.233320 0.972400 0.000000
-14.502789 -14.010400 -0.310704 1001 -0.233320 0.972400 0.000000
-14.503381 -14.010968 -0.304518 999 -0.233320 0.972400 0.000000
-14.503079 -14.010687 -0.298321 1011 -0.233320 0.972400 0.000000
-14.502666 -14.010288 -0.292115 1001 -0.233320 0.972400 0.000000
-14.502833 -14.010445 -0.285923 1001 -0.233320 0.972400 0.000000
-14.518210 -14.016362 -0.664401 1011 -0.233320 0.972400 0.000000
-14.517821 -14.015983 -0.658174 1009 -0.233320 0.972400 0.000000
-14.517438 -14.015609 -0.651958 993 -0.233320 0.972400 0.000000
-14.517741 -14.015903 -0.645765 999 -0.233320 0.972400 0.000000
-14.518622 -14.016762 -0.639606 1003 -0.233320 0.972400 0.000000
-14.518821 -14.016944 -0.633404 999 -0.233320 0.972400 0.000000
-14.518480 -14.016617 -0.627187 1005 -0.233320 0.972400 0.000000
-14.517776 -14.015941 -0.620954 995 -0.233320 0.972400 0.000000
-14.517599 -14.015774 -0.614745 995 -0.233320 0.972400 0.000000
-14.517319 -14.015498 -0.608528 1005 -0.233320 0.972400 0.000000
-14.516868 -14.015068 -0.602312 995 -0.233320 0.972400 0.000000
-14.517317 -14.015494 -0.596128 999 -0.233320 0.972400 0.000000
-14.517869 -14.016031 -0.589942 1005 -0.233320 0.972400 0.000000
-14.517573 -14.015756 -0.583735 999 -0.233320 0.972400 0.000000
-14.516541 -14.014757 -0.577484 997 -0.233320 0.972400 0.000000
-14.516881 -14.015081 -0.571301 1009 -0.233320 0.972400 0.000000
-14.517694 -14.015870 -0.565133 1009 -0.233320 0.972400 0.000000
-14.517664 -14.015839 -0.558923 1007 -0.233320 0.972400 0.000000
-14.517408 -14.015595 -0.552716 1007 -0.233320 0.972400 0.000000
-14.517372 -14.015558 -0.546516 1001 -0.233320 0.972400 0.000000
-14.517548 -14.015734 -0.540314 1003 -0.233320 0.972400 0.000000
-14.517236 -14.015432 -0.534107 995 -0.233320 0.972400 0.000000
-14.517726 -14.015904 -0.527922 1007 -0.233320 0.972400 0.000000
-14.517005 -14.015201 -0.521699 991 -0.233320 0.972400 0.000000
-14.516750 -14.014958 -0.515481 983 -0.233320 0.972400 0.000000
-14.517232 -14.015424 -0.509296 991 -0.233320 0.972400 0.000000
-14.517179 -14.015373 -0.503097 989 -0.233320 0.972400 0.000000
-14.517080 -14.015285 -0.496897 997 -0.233320 0.972400 0.000000
-14.516934 -14.015145 -0.490689 993 -0.233320 0.972400 0.000000
-14.517408 -14.015604 -0.484504 987 -0.233320 0.972400 0.000000
-14.517200 -14.015400 -0.478296 993 -0.233320 0.972400 0.000000
-14.516833 -14.015039 -0.472079 993 -0.233320 0.972400 0.000000
-14.516931 -14.015137 -0.465888 991 -0.233320 0.972400 0.000000
-14.516777 -14.014991 -0.459679 997 -0.233320 0.972400 0.000000
-14.516341 -14.014574 -0.453473 1001 -0.233320 0.972400 0.000000
-14.516179 -14.014420 -0.447265 995 -0.233320 0.972400 0.000000
-14.516284 -14.014512 -0.441064 989 -0.233320 0.972400 0.000000
-14.516224 -14.014455 -0.434864 993 -0.233320 0.972400 0.000000
-14.515474 -14.013741 -0.428641 999 -0.233320 0.972400 0.000000
-14.515201 -14.013470 -0.422443 1007 -0.233320 0.972400 0.000000
-14.515920 -14.014170 -0.416256 993 -0.233320 0.972400 0.000000
-14.515860 -14.014113 -0.410057 985 -0.233320 0.972400 0.000000
-14.515783 -14.014044 -0.403857 999 -0.233320 0.972400 0.000000
-14.515771 -14.014026 -0.397657 981 -0.233320 0.972400 0.000000
-14.515647 -14.013903 -0.391458 995 -0.233320 0.972400 0.000000
-14.515211 -14.013487 -0.385252 1001 -0.233320 0.972400 0.000000
-14.515128 -14.013411 -0.379053 1003 -0.233320 0.972400 0.000000
-14.515265 -14.013541 -0.372852 1003 -0.233320 0.972400 0.000000
-14.515243 -14.013516 -0.366652 1001 -0.233320 0.972400 0.000000
-14.515215 -14.013498 -0.360452 993 -0.233320 0.972400 0.000000
-14.515398 -14.013667 -0.354260 1001 -0.233320 0.972400 0.000000
-14.515372 -14.013651 -0.348060 1003 -0.233320 0.972400 0.000000
-14.515287 -14.013575 -0.341861 995 -0.233320 0.972400 0.000000
-14.514944 -14.013233 -0.335654 989 -0.233320 0.972400 0.000000
-14.514234 -14.012551 -0.329440 985 -0.233320 0.972400 0.000000
-14.514935 -14.013224 -0.323264 997 -0.233320 0.972400 0.000000
-14.515841 -14.014103 -0.317085 1009 -0.233320 0.972400 0.000000
-14.515648 -14.013924 -0.310886 1001 -0.233320 0.972400 0.000000
-14.514662 -14.012963 -0.304666 1005 -0.233320 0.972400 0.000000
-14.514838 -14.013141 -0.298474 1001 -0.233320 0.972400 0.000000
-14.515380 -14.013657 -0.292289 1007 -0.233320 0.972400 0.000000
-14.514435 -14.012755 -0.286067 1013 -0.233320 0.972400 0.000000
-14.531481 -14.020082 -0.664800 1005 -0.233320 0.972400 0.000000
-14.531829 -14.020427 -0.658607 999 -0.233320 0.972400 0.000000
-14.532657 -14.021229 -0.652439 1007 -0.233320 0.972400 0.000000
-14.532431 -14.021010 -0.646221 1001 -0.233320 0.972400 0.000000
-14.531366 -14.019986 -0.639971 1007 -0.233320 0.972400 0.000000
-14.530977 -14.019607 -0.633744 1015 -0.233320 0.972400 0.000000
-14.532220 -14.020802 -0.627592 1011 -0.233320 0.972400 0.000000
-14.531941 -14.020539 -0.621365 1011 -0.233320 0.972400 0.000000
-14.530922 -14.019552 -0.615124 1009 -0.233320 0.972400 0.000000
-14.531374 -14.019993 -0.608930 1009 -0.233320 0.972400 0.000000
-14.530764 -14.019407 -0.602695 1013 -0.233320 0.972400 0.000000
-14.530209 -14.018867 -0.596471 1013 -0.233320 0.972400 0.000000
-14.530769 -14.019409 -0.590285 1007 -0.233320 0.972400 0.000000
-14.530946 -14.019586 -0.584093 999 -0.233320 0.972400 0.000000
-14.529913 -14.018587 -0.577843 1001 -0.233320 0.972400 0.000000
-14.529475 -14.018156 -0.571617 991 -0.233320 0.972400 0.000000
-14.531275 -14.019898 -0.565480 1001 -0.233320 0.972400 0.000000
-14.531185 -14.019818 -0.559270 1011 -0.233320 0.972400 0.000000
-14.530576 -14.019232 -0.553046 1005 -0.233320 0.972400 0.000000
-14.530170 -14.018839 -0.546830 1001 -0.233320 0.972400 0.000000
-14.529922 -14.018602 -0.540612 997 -0.233320 0.972400 0.000000
-14.530615 -14.019268 -0.534435 997 -0.233320 0.972400 0.000000
-14.531004 -14.019645 -0.528241 1003 -0.233320 0.972400 0.000000
-14.530213 -14.018884 -0.522009 999 -0.233320 0.972400 0.000000
-14.529972 -14.018641 -0.515791 991 -0.233320 0.972400 0.000000
-14.530282 -14.018951 -0.509598 997 -0.233320 0.972400 0.000000
-14.530505 -14.019166 -0.503406 1005 -0.233320 0.972400 0.000000
-14.530091 -14.018767 -0.497189 1001 -0.233320 0.972400 0.000000
-14.529772 -14.018458 -0.490972 997 -0.233320 0.972400 0.000000
-14.529469 -14.018163 -0.484755 1001 -0.233320 0.972400 0.000000
-14.529048 -14.017758 -0.478539 997 -0.233320 0.972400 0.000000
-14.529931 -14.018619 -0.472360 997 -0.233320 0.972400 0.000000
-14.530787 -14.019431 -0.466192 1001 -0.233320 0.972400 0.000000
-14.529928 -14.018616 -0.459960 1003 -0.233320 0.972400 0.000000
-14.528927 -14.017642 -0.453719 989 -0.233320 0.972400 0.000000
-14.530084 -14.018765 -0.447558 983 -0.233320 0.972400 0.000000
-14.530180 -14.018851 -0.441357 999 -0.233320 0.972400 0.000000
-14.529124 -14.017834 -0.435117 995 -0.233320 0.972400 0.000000
-14.529582 -14.018279 -0.428932 993 -0.233320 0.972400 0.000000
-14.529837 -14.018519 -0.422730 1005 -0.233320 0.972400 0.000000
-14.529399 -14.018102 -0.416524 989 -0.233320 0.972400 0.000000
-14.529442 -14.018143 -0.410313 999 -0.233320 0.972400 0.000000
-14.529054 -14.017776 -0.404107 993 -0.233320 0.972400 0.000000
-14.529298 -14.018010 -0.397904 989 -0.233320 0.972400 0.000000
-14.529121 -14.017844 -0.391706 995 -0.233320 0.972400 0.000000
-14.527688 -14.016451 -0.385459 983 -0.233320 0.972400 0.000000
-14.527291 -14.016080 -0.379253 993 -0.233320 0.972400 0.000000
-14.528116 -14.016867 -0.373065 997 -0.233320 0.972400 0.000000
-14.528348 -14.017101 -0.366873 1001 -0.233320 0.972400 0.000000
-14.527582 -14.016360 -0.360650 999 -0.233320 0.972400 0.000000
-14.527884 -14.016653 -0.354457 1005 -0.233320 0.972400 0.000000
-14.528113 -14.016872 -0.348264 991 -0.233320 0.972400 0.000000
-14.528031 -14.016799 -0.342055 987 -0.233320 0.972400 0.000000
-14.528528 -14.017276 -0.335870 987 -0.233320 0.972400 0.000000
-14.528279 -14.017039 -0.329662 995 -0.233320 0.972400 0.000000
-14.527827 -14.016596 -0.323457 1005 -0.233320 0.972400 0.000000
-14.527963 -14.016725 -0.317255 1003 -0.233320 0.972400 0.000000
-14.527557 -14.016334 -0.311049 997 -0.233320 0.972400 0.000000
-14.527718 -14.016497 -0.304847 991 -0.233320 0.972400 0.000000
-14.529055 -14.017781 -0.298674 995 -0.233320 0.972400 0.000000
-14.528438 -14.017188 -0.292460 1005 -0.233320 0.972400 0.000000
-14.527336 -14.016134 -0.286240 1007 -0.233320 0.972400 0.000000
-14.540638 -14.020189 -0.522224 997 -0.233320 0.972400 0.000000
-14.541387 -14.020912 -0.516046 983 -0.233320 0.972400 0.000000
-14.541249 -14.020773 -0.503627 999 -0.233320 0.972400 0.000000
-14.540987 -14.020523 -0.497410 997 -0.233320 0.972400 0.000000
-14.541420 -14.020941 -0.472595 1003 -0.233320 0.972400 0.000000
-14.541407 -14.020933 -0.453975 1001 -0.233320 0.972400 0.000000
-14.541347 -14.020877 -0.447765 993 -0.233320 0.972400 0.000000
-14.541286 -14.020820 -0.441566 991 -0.233320 0.972400 0.000000
-14.541117 -14.020659 -0.435347 991 -0.233320 0.972400 0.000000
-14.541111 -14.020648 -0.429147 991 -0.233320 0.972400 0.000000
-14.540684 -14.020237 -0.422921 991 -0.233320 0.972400 0.000000
-14.540247 -14.019819 -0.416705 993 -0.233320 0.972400 0.000000
-14.541128 -14.020666 -0.410526 1001 -0.233320 0.972400 0.000000
-14.541108 -14.020655 -0.404316 1001 -0.233320 0.972400 0.000000
-14.540664 -14.020230 -0.398100 999 -0.233320 0.972400 0.000000
-14.540337 -14.019916 -0.391893 991 -0.233320 0.972400 0.000000
-14.540158 -14.019736 -0.385675 995 -0.233320 0.972400 0.000000
-14.540618 -14.020183 -0.379490 993 -0.233320 0.972400 0.000000
-14.540276 -14.019855 -0.373274 997 -0.233320 0.972400 0.000000
-14.539933 -14.019528 -0.367057 995 -0.233320 0.972400 0.000000
-14.540172 -14.019755 -0.360854 991 -0.233320 0.972400 0.000000
-14.540253 -14.019827 -0.354653 1001 -0.233320 0.972400 0.000000
-14.540428 -14.020004 -0.348451 997 -0.233320 0.972400 0.000000
-14.540345 -14.019928 -0.342252 995 -0.233320 0.972400 0.000000
-14.539948 -14.019542 -0.336036 989 -0.233320 0.972400 0.000000
-14.539660 -14.019258 -0.329828 993 -0.233320 0.972400 0.000000
-14.540258 -14.019835 -0.323632 1005 -0.233320 0.972400 0.000000
-14.540592 -14.020164 -0.317439 993 -0.233320 0.972400 0.000000
-14.540604 -14.020181 -0.311229 991 -0.233320 0.972400 0.000000
-14.540620 -14.020186 -0.305029 1001 -0.233320 0.972400 0.000000
-14.539950 -14.019550 -0.298815 1003 -0.233320 0.972400 0.000000
-14.540275 -14.019861 -0.292612 1001 -0.233320 0.972400 0.000000
-14.540606 -14.020179 -0.286418 1003 -0.233320 0.972400 0.000000
