180
-29.290976 -27.895210 -0.659862 309 0.580220 0.814460 0.000000
-29.287113 -27.891529 -0.647348 305 0.580220 0.814460 0.000000
-29.288836 -27.893167 -0.634962 323 0.580220 0.814460 0.000000
-29.294069 -27.898155 -0.622652 331 0.580220 0.814460 0.000000
-29.288910 -27.893238 -0.610120 309 0.580220 0.814460 0.000000
-29.286556 -27.890995 -0.597652 313 0.580220 0.814460 0.000000
-29.287954 -27.892328 -0.585259 311 0.580220 0.814460 0.000000
-29.288616 -27.892962 -0.572842 331 0.580220 0.814460 0.000000
-29.291912 -27.896093 -0.560481 371 0.580220 0.814460 0.000000
-29.295361 -27.899389 -0.548128 341 0.580220 0.814460 0.000000
-29.295013 -27.899050 -0.535691 325 0.580220 0.814460 0.000000
-29.289204 -27.893513 -0.523166 335 0.580220 0.814460 0.000000
-29.290382 -27.894638 -0.510764 333 0.580220 0.814460 0.000000
-29.290747 -27.894989 -0.498340 353 0.580220 0.814460 0.000000
-29.291121 -27.895348 -0.485927 371 0.580220 0.814460 0.000000
-29.291182 -27.895409 -0.473506 387 0.580220 0.814460 0.000000
-29.292030 -27.896210 -0.461097 349 0.580220 0.814460 0.000000
-29.294571 -27.898626 -0.448713 321 0.580220 0.814460 0.000000
-29.289743 -27.894033 -0.436208 347 0.580220 0.814460 0.000000
-29.287020 -27.891434 -0.423754 365 0.580220 0.814460 0.000000
-29.288755 -27.893095 -0.411357 363 0.580220 0.814460 0.000000
-29.292879 -27.897017 -0.398988 371 0.580220 0.814460 0.000000
-29.293331 -27.897451 -0.386573 381 0.580220 0.814460 0.000000
-29.291834 -27.896021 -0.374127 343 0.580220 0.814460 0.000000
-29.293766 -27.897869 -0.361729 337 0.580220 0.814460 0.000000
-29.291363 -27.895573 -0.349281 331 0.580220 0.814460 0.000000
-29.289846 -27.894138 -0.336835 325 0.580220 0.814460 0.000000
-29.291546 -27.895760 -0.324439 321 0.580220 0.814460 0.000000
-29.291840 -27.896038 -0.312016 335 0.580220 0.814460 0.000000
-29.294180 -27.898262 -0.299613 339 0.580220 0.814460 0.000000
-29.298540 -27.886011 -0.659854 335 0.580220 0.814460 0.000000
-29.302023 -27.889322 -0.647510 293 0.580220 0.814460 0.000000
-29.300732 -27.888100 -0.635052 285 0.580220 0.814460 0.000000
-29.300716 -27.888083 -0.622622 309 0.580220 0.814460 0.000000
-29.300539 -27.887911 -0.610193 279 0.580220 0.814460 0.000000
-29.297966 -27.885460 -0.597718 279 0.580220 0.814460 0.000000
-29.300060 -27.887457 -0.585337 333 0.580220 0.814460 0.000000
-29.302052 -27.889343 -0.572948 303 0.580220 0.814460 0.000000
-29.299835 -27.887241 -0.560489 313 0.580220 0.814460 0.000000
-29.298903 -27.886353 -0.548047 323 0.580220 0.814460 0.000000
-29.294836 -27.882477 -0.535546 337 0.580220 0.814460 0.000000
-29.293514 -27.881229 -0.523098 307 0.580220 0.814460 0.000000
-29.299509 -27.886936 -0.510781 309 0.580220 0.814460 0.000000
-29.299952 -27.887350 -0.498366 323 0.580220 0.814460 0.000000
-29.297934 -27.885437 -0.485905 367 0.580220 0.814460 0.000000
-29.297947 -27.885445 -0.473485 331 0.580220 0.814460 0.000000
-29.299055 -27.886499 -0.461084 323 0.580220 0.814460 0.000000
-29.300266 -27.887653 -0.448672 323 0.580220 0.814460 0.000000
-29.299049 -27.886492 -0.436234 323 0.580220 0.814460 0.000000
-29.299988 -27.887394 -0.423824 341 0.580220 0.814460 0.000000
-29.299860 -27.887259 -0.411405 345 0.580220 0.814460 0.000000
-29.298944 -27.886396 -0.398964 335 0.580220 0.814460 0.000000
-29.300621 -27.887985 -0.386568 293 0.580220 0.814460 0.000000
-29.298851 -27.886303 -0.374124 319 0.580220 0.814460 0.000000
-29.298294 -27.885778 -0.361689 297 0.580220 0.814460 0.000000
-29.304367 -27.891562 -0.349341 279 0.580220 0.814460 0.000000
-29.304708 -27.891878 -0.336918 299 0.580220 0.814460 0.000000
-29.301348 -27.888676 -0.324459 305 0.580220 0.814460 0.000000
-29.304314 -27.891510 -0.312061 315 0.580220 0.814460 0.000000
-29.302748 -27.890009 -0.299625 295 0.580220 0.814460 0.000000
-29.314880 -27.884842 -0.660044 311 0.580220 0.814460 0.000000
-29.307396 -27.877718 -0.647444 273 0.580220 0.814460 0.000000
-29.303673 -27.874180 -0.634939 317 0.580220 0.814460 0.000000
-29.309965 -27.880156 -0.622649 301 0.580220 0.814460 0.000000
-29.313448 -27.883469 -0.610296 289 0.580220 0.814460 0.000000
-29.313843 -27.883844 -0.597882 323 0.580220 0.814460 0.000000
-29.309034 -27.879278 -0.585357 349 0.580220 0.814460 0.000000
-29.308689 -27.878952 -0.572920 309 0.580220 0.814460 0.000000
-29.312159 -27.882252 -0.560567 299 0.580220 0.814460 0.000000
-29.310904 -27.881046 -0.548119 303 0.580220 0.814460 0.000000
-29.312201 -27.882282 -0.535716 313 0.580220 0.814460 0.000000
-29.314487 -27.884466 -0.523334 321 0.580220 0.814460 0.000000
-29.312954 -27.883003 -0.510878 343 0.580220 0.814460 0.000000
-29.307980 -27.878275 -0.498365 321 0.580220 0.814460 0.000000
-29.307447 -27.877769 -0.485930 361 0.580220 0.814460 0.000000
-29.310633 -27.880796 -0.473559 349 0.580220 0.814460 0.000000
-29.307356 -27.877676 -0.461090 345 0.580220 0.814460 0.000000
-29.307066 -27.877407 -0.448663 329 0.580220 0.814460 0.000000
-29.307289 -27.877617 -0.436240 335 0.580220 0.814460 0.000000
-29.310711 -27.880878 -0.423868 305 0.580220 0.814460 0.000000
-29.316004 -27.885900 -0.411517 285 0.580220 0.814460 0.000000
-29.311859 -27.881962 -0.399036 319 0.580220 0.814460 0.000000
-29.309072 -27.879311 -0.386572 315 0.580220 0.814460 0.000000
-29.307249 -27.877584 -0.374129 311 0.580220 0.814460 0.000000
-29.306536 -27.876902 -0.361696 311 0.580220 0.814460 0.000000
-29.306612 -27.876976 -0.349275 299 0.580220 0.814460 0.000000
-29.305063 -27.875502 -0.336829 327 0.580220 0.814460 0.000000
-29.308735 -27.878994 -0.324454 305 0.580220 0.814460 0.000000
-29.313040 -27.883085 -0.312073 305 0.580220 0.814460 0.000000
-29.311567 -27.881689 -0.299636 301 0.580220 0.814460 0.000000
-29.321833 -27.873724 -0.660008 297 0.580220 0.814460 0.000000
-29.321503 -27.873409 -0.647571 287 0.580220 0.814460 0.000000
-29.321486 -27.873394 -0.635140 299 0.580220 0.814460 0.000000
-29.320568 -27.872517 -0.622699 289 0.580220 0.814460 0.000000
-29.319017 -27.871042 -0.610233 313 0.580220 0.814460 0.000000
-29.319351 -27.871367 -0.597820 301 0.580220 0.814460 0.000000
-29.324150 -27.875935 -0.585484 323 0.580220 0.814460 0.000000
-29.320417 -27.872370 -0.572989 299 0.580220 0.814460 0.000000
-29.318102 -27.870174 -0.560521 325 0.580220 0.814460 0.000000
-29.315191 -27.867409 -0.548038 295 0.580220 0.814460 0.000000
-29.316004 -27.868179 -0.535630 309 0.580220 0.814460 0.000000
-29.321161 -27.873079 -0.523301 289 0.580220 0.814460 0.000000
-29.317875 -27.869963 -0.510812 343 0.580220 0.814460 0.000000
-29.319851 -27.871838 -0.498423 317 0.580220 0.814460 0.000000
-29.323877 -27.875660 -0.486064 345 0.580220 0.814460 0.000000
-29.323624 -27.875425 -0.473636 369 0.580220 0.814460 0.000000
-29.325731 -27.877432 -0.461246 339 0.580220 0.814460 0.000000
-29.323832 -27.875616 -0.448784 311 0.580220 0.814460 0.000000
-29.320803 -27.872740 -0.436312 299 0.580220 0.814460 0.000000
-29.318407 -27.870464 -0.423855 311 0.580220 0.814460 0.000000
-29.319704 -27.871700 -0.411452 325 0.580220 0.814460 0.000000
-29.322397 -27.874256 -0.399066 341 0.580220 0.814460 0.000000
-29.325132 -27.876858 -0.386670 301 0.580220 0.814460 0.000000
-29.322519 -27.874378 -0.374214 339 0.580220 0.814460 0.000000
-29.318150 -27.870226 -0.361735 301 0.580220 0.814460 0.000000
-29.320827 -27.872770 -0.349340 307 0.580220 0.814460 0.000000
-29.319847 -27.871830 -0.336909 337 0.580220 0.814460 0.000000
-29.318636 -27.870684 -0.324470 299 0.580220 0.814460 0.000000
-29.322807 -27.874641 -0.312090 309 0.580220 0.814460 0.000000
-29.323969 -27.875753 -0.299679 283 0.580220 0.814460 0.000000
-29.330309 -27.864058 -0.659997 305 0.580220 0.814460 0.000000
-29.335655 -27.869127 -0.647687 285 0.580220 0.814460 0.000000
-29.337648 -27.871027 -0.635307 279 0.580220 0.814460 0.000000
-29.334461 -27.867994 -0.622807 297 0.580220 0.814460 0.000000
-29.327166 -27.861067 -0.610226 259 0.580220 0.814460 0.000000
-29.329273 -27.863062 -0.597846 277 0.580220 0.814460 0.000000
-29.334806 -27.868326 -0.585533 311 0.580220 0.814460 0.000000
-29.335251 -27.868753 -0.573109 309 0.580220 0.814460 0.000000
-29.333731 -27.867304 -0.560653 325 0.580220 0.814460 0.000000
-29.330721 -27.864441 -0.548171 325 0.580220 0.814460 0.000000
-29.329569 -27.863348 -0.535721 325 0.580220 0.814460 0.000000
-29.329958 -27.863716 -0.523307 335 0.580220 0.814460 0.000000
-29.332769 -27.866396 -0.510931 327 0.580220 0.814460 0.000000
-29.333208 -27.866806 -0.498506 325 0.580220 0.814460 0.000000
-29.329288 -27.863079 -0.486013 351 0.580220 0.814460 0.000000
-29.332199 -27.865854 -0.473635 297 0.580220 0.814460 0.000000
-29.333693 -27.867264 -0.461231 291 0.580220 0.814460 0.000000
-29.329023 -27.862827 -0.448735 307 0.580220 0.814460 0.000000
-29.328590 -27.862417 -0.436308 325 0.580220 0.814460 0.000000
-29.329580 -27.863361 -0.423899 321 0.580220 0.814460 0.000000
-29.336781 -27.870203 -0.411570 347 0.580220 0.814460 0.000000
-29.334862 -27.868372 -0.399118 353 0.580220 0.814460 0.000000
-29.328957 -27.862761 -0.386614 311 0.580220 0.814460 0.000000
-29.332163 -27.865816 -0.374233 341 0.580220 0.814460 0.000000
-29.331087 -27.864786 -0.361793 315 0.580220 0.814460 0.000000
-29.328405 -27.862246 -0.349338 301 0.580220 0.814460 0.000000
-29.329859 -27.863625 -0.336924 313 0.580220 0.814460 0.000000
-29.331099 -27.864799 -0.324512 303 0.580220 0.814460 0.000000
-29.330910 -27.864614 -0.312094 325 0.580220 0.814460 0.000000
-29.331501 -27.865179 -0.299668 311 0.580220 0.814460 0.000000
-29.343306 -27.858679 -0.660104 299 0.580220 0.814460 0.000000
-29.347946 -27.863087 -0.647770 275 0.580220 0.814460 0.000000
-29.343800 -27.859148 -0.635249 305 0.580220 0.814460 0.000000
-29.341072 -27.856556 -0.622765 257 0.580220 0.814460 0.000000
-29.341625 -27.857088 -0.610349 281 0.580220 0.814460 0.000000
-29.342295 -27.857716 -0.597932 291 0.580220 0.814460 0.000000
-29.341846 -27.857292 -0.585496 333 0.580220 0.814460 0.000000
-29.343618 -27.858973 -0.573109 331 0.580220 0.814460 0.000000
-29.343483 -27.858845 -0.560680 325 0.580220 0.814460 0.000000
-29.341324 -27.856802 -0.548210 315 0.580220 0.814460 0.000000
-29.341555 -27.857018 -0.535788 311 0.580220 0.814460 0.000000
-29.339922 -27.855473 -0.523333 331 0.580220 0.814460 0.000000
-29.341101 -27.856585 -0.510922 349 0.580220 0.814460 0.000000
-29.340832 -27.856335 -0.498494 329 0.580220 0.814460 0.000000
-29.339094 -27.854679 -0.486040 337 0.580220 0.814460 0.000000
-29.341106 -27.856596 -0.473641 311 0.580220 0.814460 0.000000
-29.343176 -27.858561 -0.461251 331 0.580220 0.814460 0.000000
-29.342270 -27.857693 -0.448809 335 0.580220 0.814460 0.000000
-29.341734 -27.857183 -0.436374 351 0.580220 0.814460 0.000000
-29.344252 -27.859581 -0.423990 311 0.580220 0.814460 0.000000
-29.345633 -27.860886 -0.411576 327 0.580220 0.814460 0.000000
-29.346092 -27.861328 -0.399152 363 0.580220 0.814460 0.000000
-29.343954 -27.859291 -0.386702 373 0.580220 0.814460 0.000000
-29.342283 -27.857714 -0.374247 341 0.580220 0.814460 0.000000
-29.341455 -27.856928 -0.361815 299 0.580220 0.814460 0.000000
-29.339571 -27.855135 -0.349372 323 0.580220 0.814460 0.000000
-29.339975 -27.855518 -0.336948 321 0.580220 0.814460 0.000000
-29.339153 -27.854734 -0.324516 319 0.580220 0.814460 0.000000
-29.340067 -27.855600 -0.312097 303 0.580220 0.814460 0.000000
-29.341251 -27.856733 -0.299685 363 0.580220 0.814460 0.000000
