105
-28.928061 -28.242842 -0.672601 703 -0.094930 0.995484 0.000000
-28.926996 -28.241802 -0.660151 715 -0.094930 0.995484 0.000000
-28.927296 -28.242090 -0.647748 701 -0.094930 0.995484 0.000000
-28.928076 -28.242849 -0.635340 697 -0.094930 0.995484 0.000000
-28.926228 -28.241047 -0.622887 693 -0.094930 0.995484 0.000000
-28.926142 -28.240973 -0.610468 679 -0.094930 0.995484 0.000000
-28.927017 -28.241823 -0.598069 661 -0.094930 0.995484 0.000000
-28.925880 -28.240721 -0.486287 687 -0.094930 0.995484 0.000000
-28.928392 -28.243181 -0.473913 693 -0.094930 0.995484 0.000000
-28.926729 -28.241547 -0.461469 699 -0.094930 0.995484 0.000000
-28.926037 -28.240871 -0.449045 699 -0.094930 0.995484 0.000000
-28.928223 -28.243008 -0.436664 711 -0.094930 0.995484 0.000000
-28.951111 -28.247387 -0.672932 719 -0.094930 0.995484 0.000000
-28.947489 -28.243858 -0.660426 697 -0.094930 0.995484 0.000000
-28.949362 -28.245678 -0.648038 701 -0.094930 0.995484 0.000000
-28.952061 -28.248308 -0.635682 689 -0.094930 0.995484 0.000000
-28.949429 -28.245745 -0.623197 661 -0.094930 0.995484 0.000000
-28.946890 -28.243269 -0.610721 673 -0.094930 0.995484 0.000000
-28.946812 -28.243202 -0.598291 691 -0.094930 0.995484 0.000000
-28.947159 -28.243530 -0.585878 663 -0.094930 0.995484 0.000000
-28.943991 -28.240448 -0.573397 663 -0.094930 0.995484 0.000000
-28.945301 -28.241730 -0.560995 685 -0.094930 0.995484 0.000000
-28.946741 -28.243135 -0.548601 679 -0.094930 0.995484 0.000000
-28.944040 -28.240496 -0.536136 675 -0.094930 0.995484 0.000000
-28.946712 -28.243109 -0.523760 687 -0.094930 0.995484 0.000000
-28.947409 -28.243782 -0.511353 683 -0.094930 0.995484 0.000000
-28.943327 -28.239799 -0.498862 709 -0.094930 0.995484 0.000000
-28.944271 -28.240723 -0.486453 697 -0.094930 0.995484 0.000000
-28.947737 -28.244102 -0.474089 687 -0.094930 0.995484 0.000000
-28.948362 -28.244720 -0.461683 697 -0.094930 0.995484 0.000000
-28.946360 -28.242773 -0.449222 671 -0.094930 0.995484 0.000000
-28.945677 -28.242105 -0.436798 685 -0.094930 0.995484 0.000000
-28.943207 -28.239687 -0.424341 663 -0.094930 0.995484 0.000000
-28.944649 -28.241106 -0.411937 671 -0.094930 0.995484 0.000000
-28.946987 -28.243383 -0.399555 657 -0.094930 0.995484 0.000000
-28.946079 -28.242502 -0.387123 677 -0.094930 0.995484 0.000000
-28.947575 -28.243965 -0.374718 681 -0.094930 0.995484 0.000000
-28.944841 -28.241285 -0.362264 685 -0.094930 0.995484 0.000000
-28.945955 -28.242380 -0.349853 657 -0.094930 0.995484 0.000000
-28.948442 -28.244808 -0.337469 655 -0.094930 0.995484 0.000000
-28.948511 -28.244875 -0.325048 643 -0.094930 0.995484 0.000000
-28.946754 -28.243164 -0.312605 607 -0.094930 0.995484 0.000000
-28.943254 -28.239748 -0.300148 613 -0.094930 0.995484 0.000000
-28.968645 -28.247219 -0.673142 717 -0.094930 0.995484 0.000000
-28.967796 -28.246386 -0.660690 693 -0.094930 0.995484 0.000000
-28.968508 -28.247086 -0.648283 671 -0.094930 0.995484 0.000000
-28.968225 -28.246809 -0.635845 685 -0.094930 0.995484 0.000000
-28.967791 -28.246389 -0.623409 663 -0.094930 0.995484 0.000000
-28.967772 -28.246370 -0.610979 671 -0.094930 0.995484 0.000000
-28.964567 -28.243244 -0.598489 675 -0.094930 0.995484 0.000000
-28.964582 -28.243254 -0.586059 679 -0.094930 0.995484 0.000000
-28.964664 -28.243334 -0.573638 679 -0.094930 0.995484 0.000000
-28.963213 -28.241930 -0.561181 685 -0.094930 0.995484 0.000000
-28.964706 -28.243380 -0.548787 651 -0.094930 0.995484 0.000000
-28.966814 -28.245436 -0.536396 675 -0.094930 0.995484 0.000000
-28.968338 -28.246925 -0.524001 695 -0.094930 0.995484 0.000000
-28.966095 -28.244736 -0.511532 687 -0.094930 0.995484 0.000000
-28.964527 -28.243210 -0.499077 691 -0.094930 0.995484 0.000000
-28.966618 -28.245251 -0.486687 693 -0.094930 0.995484 0.000000
-28.966246 -28.244898 -0.474260 683 -0.094930 0.995484 0.000000
-28.964630 -28.243317 -0.461805 695 -0.094930 0.995484 0.000000
-28.963673 -28.242380 -0.449364 679 -0.094930 0.995484 0.000000
-28.964138 -28.242846 -0.436949 663 -0.094930 0.995484 0.000000
-28.965927 -28.244583 -0.424552 665 -0.094930 0.995484 0.000000
-28.967785 -28.246403 -0.412154 657 -0.094930 0.995484 0.000000
-28.967302 -28.245932 -0.399718 651 -0.094930 0.995484 0.000000
-28.965027 -28.243717 -0.387260 689 -0.094930 0.995484 0.000000
-28.963749 -28.242470 -0.374822 683 -0.094930 0.995484 0.000000
-28.965395 -28.244074 -0.362416 673 -0.094930 0.995484 0.000000
-28.966993 -28.245636 -0.350010 643 -0.094930 0.995484 0.000000
-28.965445 -28.244125 -0.337564 621 -0.094930 0.995484 0.000000
-28.969299 -28.247885 -0.325187 627 -0.094930 0.995484 0.000000
-28.971979 -28.250502 -0.312792 621 -0.094930 0.995484 0.000000
-28.966084 -28.244747 -0.300298 619 -0.094930 0.995484 0.000000
-28.986073 -28.246607 -0.673345 693 -0.094930 0.995484 0.000000
-28.985443 -28.245996 -0.660901 675 -0.094930 0.995484 0.000000
-28.988146 -28.248634 -0.648534 649 -0.094930 0.995484 0.000000
-28.987875 -28.248365 -0.636087 657 -0.094930 0.995484 0.000000
-28.985918 -28.246456 -0.623615 653 -0.094930 0.995484 0.000000
-28.986847 -28.247366 -0.611206 637 -0.094930 0.995484 0.000000
-28.988386 -28.248869 -0.598801 659 -0.094930 0.995484 0.000000
-28.987104 -28.247618 -0.586343 653 -0.094930 0.995484 0.000000
-28.985245 -28.245804 -0.573880 661 -0.094930 0.995484 0.000000
-28.983892 -28.244495 -0.561423 667 -0.094930 0.995484 0.000000
-28.985579 -28.246134 -0.549017 631 -0.094930 0.995484 0.000000
-28.989361 -28.249821 -0.536660 639 -0.094930 0.995484 0.000000
-28.987862 -28.248362 -0.524194 661 -0.094930 0.995484 0.000000
-28.986349 -28.246893 -0.511738 663 -0.094930 0.995484 0.000000
-28.986254 -28.246798 -0.499309 647 -0.094930 0.995484 0.000000
-28.986885 -28.247404 -0.486883 683 -0.094930 0.995484 0.000000
-28.984156 -28.244757 -0.474408 633 -0.094930 0.995484 0.000000
-28.982067 -28.242712 -0.461948 665 -0.094930 0.995484 0.000000
-28.985004 -28.245584 -0.449570 677 -0.094930 0.995484 0.000000
-28.986143 -28.246696 -0.437149 661 -0.094930 0.995484 0.000000
-28.985876 -28.246431 -0.424721 643 -0.094930 0.995484 0.000000
-28.986958 -28.247480 -0.412300 659 -0.094930 0.995484 0.000000
-28.987780 -28.248287 -0.399882 639 -0.094930 0.995484 0.000000
-28.987707 -28.248224 -0.387452 651 -0.094930 0.995484 0.000000
-28.986534 -28.247082 -0.375003 659 -0.094930 0.995484 0.000000
-28.984417 -28.245012 -0.362553 653 -0.094930 0.995484 0.000000
-28.984079 -28.244688 -0.350116 631 -0.094930 0.995484 0.000000
-28.984877 -28.245461 -0.337698 617 -0.094930 0.995484 0.000000
-28.986835 -28.247379 -0.325289 599 -0.094930 0.995484 0.000000
-28.987896 -28.248411 -0.312869 613 -0.094930 0.995484 0.000000
-28.986443 -28.246992 -0.300422 621 -0.094930 0.995484 0.000000
