301
-21.680965 -21.360905 -0.644678 293 0.265426 0.964131 0.000000
-21.678461 -21.358427 -0.635252 221 0.265426 0.964131 0.000000
-21.675833 -21.355844 -0.625827 209 0.265426 0.964131 0.000000
-21.679815 -21.359770 -0.616589 207 0.265426 0.964131 0.000000
-21.677040 -21.357035 -0.607165 257 0.265426 0.964131 0.000000
-21.674307 -21.354334 -0.597741 237 0.265426 0.964131 0.000000
-21.677086 -21.357079 -0.588464 251 0.265426 0.964131 0.000000
-21.676739 -21.356741 -0.579107 237 0.265426 0.964131 0.000000
-21.679695 -21.359648 -0.569839 243 0.265426 0.964131 0.000000
-21.683554 -21.363455 -0.560591 271 0.265426 0.964131 0.000000
-21.681087 -21.361025 -0.551175 271 0.265426 0.964131 0.000000
-21.677706 -21.357693 -0.541737 265 0.265426 0.964131 0.000000
-21.678879 -21.358839 -0.532426 251 0.265426 0.964131 0.000000
-21.681583 -21.361519 -0.523139 247 0.265426 0.964131 0.000000
-21.681395 -21.361317 -0.513781 269 0.265426 0.964131 0.000000
-21.679207 -21.359177 -0.504382 255 0.265426 0.964131 0.000000
-21.678848 -21.358818 -0.495025 257 0.265426 0.964131 0.000000
-21.679314 -21.359270 -0.485690 267 0.265426 0.964131 0.000000
-21.674793 -21.354820 -0.476244 263 0.265426 0.964131 0.000000
-21.672075 -21.352148 -0.466840 257 0.265426 0.964131 0.000000
-21.672493 -21.352558 -0.457506 277 0.265426 0.964131 0.000000
-21.675875 -21.355879 -0.448223 291 0.265426 0.964131 0.000000
-21.679924 -21.359877 -0.438963 311 0.265426 0.964131 0.000000
-21.679190 -21.359159 -0.429600 307 0.265426 0.964131 0.000000
-21.679071 -21.359034 -0.420251 305 0.265426 0.964131 0.000000
-21.680214 -21.360167 -0.410920 313 0.265426 0.964131 0.000000
-21.678371 -21.358347 -0.401537 303 0.265426 0.964131 0.000000
-21.678621 -21.358587 -0.392195 315 0.265426 0.964131 0.000000
-21.677862 -21.357849 -0.382832 277 0.265426 0.964131 0.000000
-21.674404 -21.354441 -0.373425 281 0.265426 0.964131 0.000000
-21.675671 -21.355692 -0.364103 277 0.265426 0.964131 0.000000
-21.676750 -21.356747 -0.354782 269 0.265426 0.964131 0.000000
-21.676817 -21.356817 -0.345431 255 0.265426 0.964131 0.000000
-21.680653 -21.360592 -0.336144 223 0.265426 0.964131 0.000000
-21.678278 -21.358252 -0.326767 215 0.265426 0.964131 0.000000
-21.674128 -21.354172 -0.317356 231 0.265426 0.964131 0.000000
-21.676178 -21.356186 -0.308036 261 0.265426 0.964131 0.000000
-21.678474 -21.358450 -0.298724 261 0.265426 0.964131 0.000000
-21.677763 -21.357754 -0.289371 253 0.265426 0.964131 0.000000
-21.678144 -21.358116 -0.280027 239 0.265426 0.964131 0.000000
-21.681431 -21.361359 -0.270725 227 0.265426 0.964131 0.000000
-21.684929 -21.364805 -0.261421 199 0.265426 0.964131 0.000000
-21.680140 -21.360090 -0.252017 183 0.265426 0.964131 0.000000
-21.689215 -21.355968 -0.644736 283 0.265426 0.964131 0.000000
-21.692488 -21.359184 -0.635474 225 0.265426 0.964131 0.000000
-21.691422 -21.358147 -0.626094 237 0.265426 0.964131 0.000000
-21.689695 -21.356436 -0.616690 223 0.265426 0.964131 0.000000
-21.690813 -21.357536 -0.607369 263 0.265426 0.964131 0.000000
-21.690212 -21.356947 -0.598005 231 0.265426 0.964131 0.000000
-21.684132 -21.350969 -0.588484 245 0.265426 0.964131 0.000000
-21.684418 -21.351240 -0.579141 209 0.265426 0.964131 0.000000
-21.691168 -21.357885 -0.569975 277 0.265426 0.964131 0.000000
-21.691664 -21.358374 -0.560630 261 0.265426 0.964131 0.000000
-21.688337 -21.355104 -0.551202 247 0.265426 0.964131 0.000000
-21.684811 -21.351633 -0.541756 241 0.265426 0.964131 0.000000
-21.687853 -21.354626 -0.532486 265 0.265426 0.964131 0.000000
-21.690987 -21.357710 -0.523216 261 0.265426 0.964131 0.000000
-21.689014 -21.355764 -0.513815 263 0.265426 0.964131 0.000000
-21.690641 -21.357365 -0.504499 271 0.265426 0.964131 0.000000
-21.690899 -21.357626 -0.495156 289 0.265426 0.964131 0.000000
-21.688257 -21.355017 -0.485751 295 0.265426 0.964131 0.000000
-21.688459 -21.355219 -0.476399 285 0.265426 0.964131 0.000000
-21.690378 -21.357109 -0.467090 259 0.265426 0.964131 0.000000
-21.690113 -21.356857 -0.457743 265 0.265426 0.964131 0.000000
-21.688704 -21.355469 -0.448356 291 0.265426 0.964131 0.000000
-21.688860 -21.355619 -0.439014 291 0.265426 0.964131 0.000000
-21.687756 -21.354532 -0.429645 293 0.265426 0.964131 0.000000
-21.692158 -21.358871 -0.420382 273 0.265426 0.964131 0.000000
-21.693254 -21.359940 -0.411051 269 0.265426 0.964131 0.000000
-21.692097 -21.358807 -0.401682 279 0.265426 0.964131 0.000000
-21.690771 -21.357492 -0.392305 279 0.265426 0.964131 0.000000
-21.689459 -21.356205 -0.382927 313 0.265426 0.964131 0.000000
-21.689632 -21.356379 -0.373585 327 0.265426 0.964131 0.000000
-21.688313 -21.355085 -0.364208 295 0.265426 0.964131 0.000000
-21.685785 -21.352585 -0.354822 277 0.265426 0.964131 0.000000
-21.685343 -21.352158 -0.345466 251 0.265426 0.964131 0.000000
-21.688278 -21.355045 -0.336167 255 0.265426 0.964131 0.000000
-21.688665 -21.355431 -0.326823 257 0.265426 0.964131 0.000000
-21.689932 -21.356670 -0.317491 293 0.265426 0.964131 0.000000
-21.691298 -21.358023 -0.308168 279 0.265426 0.964131 0.000000
-21.691109 -21.357836 -0.298809 253 0.265426 0.964131 0.000000
-21.690281 -21.357025 -0.289457 283 0.265426 0.964131 0.000000
-21.690140 -21.356880 -0.280098 235 0.265426 0.964131 0.000000
-21.688173 -21.354940 -0.270727 221 0.265426 0.964131 0.000000
-21.685778 -21.352581 -0.261350 215 0.265426 0.964131 0.000000
-21.686251 -21.353054 -0.252015 203 0.265426 0.964131 0.000000
-21.700552 -21.354578 -0.644891 245 0.265426 0.964131 0.000000
-21.699905 -21.353945 -0.635517 249 0.265426 0.964131 0.000000
-21.698530 -21.352592 -0.626120 231 0.265426 0.964131 0.000000
-21.696890 -21.350981 -0.616726 243 0.265426 0.964131 0.000000
-21.697140 -21.351221 -0.607373 261 0.265426 0.964131 0.000000
-21.697588 -21.351660 -0.598039 243 0.265426 0.964131 0.000000
-21.697554 -21.351631 -0.588689 241 0.265426 0.964131 0.000000
-21.702848 -21.356836 -0.579477 225 0.265426 0.964131 0.000000
-21.703493 -21.357479 -0.570141 227 0.265426 0.964131 0.000000
-21.698711 -21.352768 -0.560657 225 0.265426 0.964131 0.000000
-21.698622 -21.352680 -0.551307 259 0.265426 0.964131 0.000000
-21.701405 -21.355425 -0.542020 261 0.265426 0.964131 0.000000
-21.699800 -21.353848 -0.532625 273 0.265426 0.964131 0.000000
-21.697266 -21.351341 -0.523220 253 0.265426 0.964131 0.000000
-21.698406 -21.352476 -0.513889 277 0.265426 0.964131 0.000000
-21.698881 -21.352934 -0.504554 277 0.265426 0.964131 0.000000
-21.696970 -21.351055 -0.495162 261 0.265426 0.964131 0.000000
-21.699326 -21.353371 -0.485859 285 0.265426 0.964131 0.000000
-21.701460 -21.355471 -0.476558 273 0.265426 0.964131 0.000000
-21.700304 -21.354338 -0.467179 285 0.265426 0.964131 0.000000
-21.698683 -21.352747 -0.457795 295 0.265426 0.964131 0.000000
-21.698318 -21.352383 -0.448438 309 0.265426 0.964131 0.000000
-21.698515 -21.352579 -0.439086 303 0.265426 0.964131 0.000000
-21.698711 -21.352776 -0.429744 269 0.265426 0.964131 0.000000
-21.700584 -21.354610 -0.420425 279 0.265426 0.964131 0.000000
-21.700987 -21.355009 -0.411081 287 0.265426 0.964131 0.000000
-21.700922 -21.354942 -0.401732 281 0.265426 0.964131 0.000000
-21.700064 -21.354105 -0.392360 267 0.265426 0.964131 0.000000
-21.698698 -21.352758 -0.382983 269 0.265426 0.964131 0.000000
-21.695435 -21.349552 -0.373584 289 0.265426 0.964131 0.000000
-21.696453 -21.350555 -0.364244 259 0.265426 0.964131 0.000000
-21.699617 -21.353666 -0.354953 281 0.265426 0.964131 0.000000
-21.699842 -21.353886 -0.345601 267 0.265426 0.964131 0.000000
-21.699194 -21.353241 -0.336247 267 0.265426 0.964131 0.000000
-21.700830 -21.354862 -0.326921 233 0.265426 0.964131 0.000000
-21.702879 -21.356876 -0.317601 271 0.265426 0.964131 0.000000
-21.701283 -21.355303 -0.308226 279 0.265426 0.964131 0.000000
-21.701040 -21.355059 -0.298868 273 0.265426 0.964131 0.000000
-21.698645 -21.352713 -0.289481 239 0.265426 0.964131 0.000000
-21.696041 -21.350151 -0.280106 235 0.265426 0.964131 0.000000
-21.697821 -21.351894 -0.270778 229 0.265426 0.964131 0.000000
-21.699148 -21.353199 -0.261445 219 0.265426 0.964131 0.000000
-21.699560 -21.353603 -0.252101 251 0.265426 0.964131 0.000000
-21.708006 -21.348883 -0.644916 271 0.265426 0.964131 0.000000
-21.708462 -21.349327 -0.635582 273 0.265426 0.964131 0.000000
-21.712559 -21.353365 -0.626342 259 0.265426 0.964131 0.000000
-21.712023 -21.352829 -0.616967 257 0.265426 0.964131 0.000000
-21.709862 -21.350708 -0.607557 241 0.265426 0.964131 0.000000
-21.710255 -21.351084 -0.598213 199 0.265426 0.964131 0.000000
-21.708813 -21.349672 -0.588817 217 0.265426 0.964131 0.000000
-21.709471 -21.350313 -0.579480 179 0.265426 0.964131 0.000000
-21.711521 -21.352341 -0.570180 219 0.265426 0.964131 0.000000
-21.712378 -21.353180 -0.560852 237 0.265426 0.964131 0.000000
-21.714581 -21.355350 -0.551550 293 0.265426 0.964131 0.000000
-21.715385 -21.356131 -0.542212 283 0.265426 0.964131 0.000000
-21.712566 -21.353371 -0.532789 277 0.265426 0.964131 0.000000
-21.709986 -21.350828 -0.523374 257 0.265426 0.964131 0.000000
-21.709206 -21.350058 -0.514001 255 0.265426 0.964131 0.000000
-21.710569 -21.351408 -0.504678 265 0.265426 0.964131 0.000000
-21.711620 -21.352438 -0.495348 289 0.265426 0.964131 0.000000
-21.714500 -21.355263 -0.486060 279 0.265426 0.964131 0.000000
-21.711834 -21.352650 -0.476645 279 0.265426 0.964131 0.000000
-21.708702 -21.349567 -0.467225 285 0.265426 0.964131 0.000000
-21.710581 -21.351412 -0.457907 287 0.265426 0.964131 0.000000
-21.710676 -21.351509 -0.448556 283 0.265426 0.964131 0.000000
-21.705818 -21.346731 -0.439102 263 0.265426 0.964131 0.000000
-21.703362 -21.344305 -0.429706 279 0.265426 0.964131 0.000000
-21.711435 -21.352251 -0.420518 297 0.265426 0.964131 0.000000
-21.713345 -21.354134 -0.411199 295 0.265426 0.964131 0.000000
-21.708012 -21.348885 -0.401740 297 0.265426 0.964131 0.000000
-21.708830 -21.349689 -0.392402 275 0.265426 0.964131 0.000000
-21.709597 -21.350437 -0.383065 283 0.265426 0.964131 0.000000
-21.706699 -21.347599 -0.373662 281 0.265426 0.964131 0.000000
-21.707352 -21.348232 -0.364326 277 0.265426 0.964131 0.000000
-21.708424 -21.349297 -0.354995 267 0.265426 0.964131 0.000000
-21.710695 -21.351526 -0.345673 271 0.265426 0.964131 0.000000
-21.709984 -21.350828 -0.336310 259 0.265426 0.964131 0.000000
-21.709541 -21.350386 -0.326954 275 0.265426 0.964131 0.000000
-21.710791 -21.351625 -0.317621 267 0.265426 0.964131 0.000000
-21.708265 -21.349127 -0.308236 283 0.265426 0.964131 0.000000
-21.708752 -21.349611 -0.298891 245 0.265426 0.964131 0.000000
-21.712572 -21.353373 -0.289594 259 0.265426 0.964131 0.000000
-21.712160 -21.352970 -0.280227 249 0.265426 0.964131 0.000000
-21.710873 -21.351702 -0.270860 261 0.265426 0.964131 0.000000
-21.710251 -21.351082 -0.261505 239 0.265426 0.964131 0.000000
-21.706549 -21.347448 -0.252111 253 0.265426 0.964131 0.000000
-21.722178 -21.349503 -0.645148 273 0.265426 0.964131 0.000000
-21.725397 -21.352659 -0.635887 247 0.265426 0.964131 0.000000
-21.724283 -21.351566 -0.626497 239 0.265426 0.964131 0.000000
-21.721905 -21.349234 -0.617070 257 0.265426 0.964131 0.000000
-21.720163 -21.347525 -0.607666 205 0.265426 0.964131 0.000000
-21.715759 -21.343189 -0.598189 181 0.265426 0.964131 0.000000
-21.715950 -21.343378 -0.588837 179 0.265426 0.964131 0.000000
-21.722019 -21.349337 -0.579648 191 0.265426 0.964131 0.000000
-21.724438 -21.351719 -0.570354 243 0.265426 0.964131 0.000000
-21.722059 -21.349386 -0.560927 277 0.265426 0.964131 0.000000
-21.719109 -21.346476 -0.551495 273 0.265426 0.964131 0.000000
-21.717758 -21.345152 -0.542108 289 0.265426 0.964131 0.000000
-21.719654 -21.347023 -0.532800 289 0.265426 0.964131 0.000000
-21.722950 -21.350258 -0.523528 287 0.265426 0.964131 0.000000
-21.721447 -21.348780 -0.514132 287 0.265426 0.964131 0.000000
-21.720203 -21.347563 -0.504754 271 0.265426 0.964131 0.000000
-21.720623 -21.347975 -0.495409 249 0.265426 0.964131 0.000000
-21.720371 -21.347721 -0.486042 273 0.265426 0.964131 0.000000
-21.718655 -21.346033 -0.476648 251 0.265426 0.964131 0.000000
-21.713943 -21.341408 -0.467193 289 0.265426 0.964131 0.000000
-21.716770 -21.344177 -0.457906 269 0.265426 0.964131 0.000000
-21.719887 -21.347248 -0.448615 267 0.265426 0.964131 0.000000
-21.719461 -21.346832 -0.439249 267 0.265426 0.964131 0.000000
-21.721804 -21.349134 -0.429946 277 0.265426 0.964131 0.000000
-21.721169 -21.348503 -0.420572 279 0.265426 0.964131 0.000000
-21.718596 -21.345980 -0.411177 287 0.265426 0.964131 0.000000
-21.716961 -21.344376 -0.401793 291 0.265426 0.964131 0.000000
-21.717833 -21.345228 -0.392454 257 0.265426 0.964131 0.000000
-21.720945 -21.348291 -0.383154 289 0.265426 0.964131 0.000000
-21.720194 -21.347548 -0.373791 309 0.265426 0.964131 0.000000
-21.717661 -21.345057 -0.364395 255 0.265426 0.964131 0.000000
-21.718573 -21.345955 -0.355056 239 0.265426 0.964131 0.000000
-21.718607 -21.345985 -0.345705 257 0.265426 0.964131 0.000000
-21.718994 -21.346371 -0.336351 273 0.265426 0.964131 0.000000
-21.720375 -21.347721 -0.327018 239 0.265426 0.964131 0.000000
-21.722010 -21.349327 -0.317692 241 0.265426 0.964131 0.000000
-21.721189 -21.348526 -0.308329 275 0.265426 0.964131 0.000000
-21.720877 -21.348221 -0.298972 273 0.265426 0.964131 0.000000
-21.720221 -21.347569 -0.289608 315 0.265426 0.964131 0.000000
-21.720331 -21.347677 -0.280257 281 0.265426 0.964131 0.000000
-21.720383 -21.347736 -0.270906 293 0.265426 0.964131 0.000000
-21.718109 -21.345495 -0.261518 277 0.265426 0.964131 0.000000
-21.721451 -21.348782 -0.252206 255 0.265426 0.964131 0.000000
-21.730936 -21.345066 -0.645221 231 0.265426 0.964131 0.000000
-21.733953 -21.348026 -0.635951 237 0.265426 0.964131 0.000000
-21.734035 -21.348110 -0.626590 241 0.265426 0.964131 0.000000
-21.734484 -21.348547 -0.617246 219 0.265426 0.964131 0.000000
-21.734566 -21.348631 -0.607885 153 0.265426 0.964131 0.000000
-21.732300 -21.346395 -0.598467 213 0.265426 0.964131 0.000000
-21.735342 -21.349388 -0.589187 211 0.265426 0.964131 0.000000
-21.733484 -21.347567 -0.579774 227 0.265426 0.964131 0.000000
-21.732311 -21.346409 -0.570386 263 0.265426 0.964131 0.000000
-21.732552 -21.346643 -0.561033 267 0.265426 0.964131 0.000000
-21.730211 -21.344357 -0.551615 259 0.265426 0.964131 0.000000
-21.729500 -21.343645 -0.542242 279 0.265426 0.964131 0.000000
-21.731287 -21.345409 -0.532935 277 0.265426 0.964131 0.000000
-21.729837 -21.343975 -0.523538 285 0.265426 0.964131 0.000000
-21.730211 -21.344349 -0.514195 241 0.265426 0.964131 0.000000
-21.734137 -21.348202 -0.504927 239 0.265426 0.964131 0.000000
-21.732101 -21.346203 -0.495526 241 0.265426 0.964131 0.000000
-21.733259 -21.347336 -0.486195 233 0.265426 0.964131 0.000000
-21.733662 -21.347734 -0.476840 259 0.265426 0.964131 0.000000
-21.729498 -21.343641 -0.467390 247 0.265426 0.964131 0.000000
-21.730009 -21.344147 -0.458045 265 0.265426 0.964131 0.000000
-21.731838 -21.345943 -0.448727 289 0.265426 0.964131 0.000000
-21.730679 -21.344812 -0.439348 267 0.265426 0.964131 0.000000
-21.731874 -21.345980 -0.430017 267 0.265426 0.964131 0.000000
-21.732069 -21.346172 -0.420664 265 0.265426 0.964131 0.000000
-21.730753 -21.344879 -0.411287 287 0.265426 0.964131 0.000000
-21.732878 -21.346972 -0.401966 261 0.265426 0.964131 0.000000
-21.733221 -21.347303 -0.392623 255 0.265426 0.964131 0.000000
-21.731009 -21.345129 -0.383224 271 0.265426 0.964131 0.000000
-21.731152 -21.345278 -0.373872 275 0.265426 0.964131 0.000000
-21.731485 -21.345604 -0.364519 319 0.265426 0.964131 0.000000
-21.733021 -21.347113 -0.355184 269 0.265426 0.964131 0.000000
-21.733576 -21.347654 -0.345838 259 0.265426 0.964131 0.000000
-21.731712 -21.345827 -0.336456 243 0.265426 0.964131 0.000000
-21.730854 -21.344978 -0.327084 241 0.265426 0.964131 0.000000
-21.731443 -21.345560 -0.317738 231 0.265426 0.964131 0.000000
-21.729794 -21.343931 -0.308364 253 0.265426 0.964131 0.000000
-21.729752 -21.343895 -0.299004 285 0.265426 0.964131 0.000000
-21.732952 -21.347038 -0.289693 267 0.265426 0.964131 0.000000
-21.735195 -21.349243 -0.280371 301 0.265426 0.964131 0.000000
-21.734121 -21.348185 -0.271001 283 0.265426 0.964131 0.000000
-21.729744 -21.343882 -0.261583 273 0.265426 0.964131 0.000000
-21.726402 -21.340611 -0.252195 251 0.265426 0.964131 0.000000
-21.741579 -21.341963 -0.645338 267 0.265426 0.964131 0.000000
-21.741198 -21.341587 -0.635961 291 0.265426 0.964131 0.000000
-21.743370 -21.343719 -0.626670 295 0.265426 0.964131 0.000000
-21.744598 -21.344925 -0.617348 265 0.265426 0.964131 0.000000
-21.742325 -21.342697 -0.607920 273 0.265426 0.964131 0.000000
-21.739597 -21.340015 -0.598486 253 0.265426 0.964131 0.000000
-21.741179 -21.341564 -0.589170 241 0.265426 0.964131 0.000000
-21.742834 -21.343189 -0.579854 285 0.265426 0.964131 0.000000
-21.741901 -21.342278 -0.570473 273 0.265426 0.964131 0.000000
-21.741096 -21.341486 -0.561091 307 0.265426 0.964131 0.000000
-21.740326 -21.340736 -0.551708 315 0.265426 0.964131 0.000000
-21.744211 -21.344542 -0.542450 311 0.265426 0.964131 0.000000
-21.744755 -21.345070 -0.533105 307 0.265426 0.964131 0.000000
-21.740158 -21.340570 -0.523629 297 0.265426 0.964131 0.000000
-21.739799 -21.340216 -0.514262 281 0.265426 0.964131 0.000000
-21.741272 -21.341658 -0.504938 293 0.265426 0.964131 0.000000
-21.738869 -21.339304 -0.495531 279 0.265426 0.964131 0.000000
-21.741282 -21.341667 -0.486227 259 0.265426 0.964131 0.000000
-21.744261 -21.344593 -0.476928 311 0.265426 0.964131 0.000000
-21.745363 -21.345667 -0.467597 289 0.265426 0.964131 0.000000
-21.743261 -21.343611 -0.458187 299 0.265426 0.964131 0.000000
-21.738913 -21.339348 -0.448739 325 0.265426 0.964131 0.000000
-21.739700 -21.340115 -0.439401 297 0.265426 0.964131 0.000000
-21.740372 -21.340769 -0.430055 309 0.265426 0.964131 0.000000
-21.740622 -21.341022 -0.420702 289 0.265426 0.964131 0.000000
-21.740665 -21.341059 -0.411351 325 0.265426 0.964131 0.000000
-21.740330 -21.340736 -0.401984 303 0.265426 0.964131 0.000000
-21.741089 -21.341476 -0.392647 293 0.265426 0.964131 0.000000
-21.742907 -21.343267 -0.383319 293 0.265426 0.964131 0.000000
-21.744295 -21.344625 -0.373985 287 0.265426 0.964131 0.000000
-21.743444 -21.343781 -0.364613 311 0.265426 0.964131 0.000000
-21.739904 -21.340313 -0.355197 273 0.265426 0.964131 0.000000
-21.742699 -21.343056 -0.345880 285 0.265426 0.964131 0.000000
-21.741318 -21.341707 -0.336503 293 0.265426 0.964131 0.000000
-21.738522 -21.338955 -0.327100 285 0.265426 0.964131 0.000000
-21.741617 -21.341991 -0.317790 271 0.265426 0.964131 0.000000
-21.740221 -21.340631 -0.308413 265 0.265426 0.964131 0.000000
-21.740395 -21.340794 -0.299061 311 0.265426 0.964131 0.000000
-21.741766 -21.342136 -0.289728 279 0.265426 0.964131 0.000000
-21.741032 -21.341419 -0.280355 315 0.265426 0.964131 0.000000
-21.741888 -21.342258 -0.271016 301 0.265426 0.964131 0.000000
-21.742302 -21.342663 -0.261662 327 0.265426 0.964131 0.000000
-21.740221 -21.340628 -0.252282 281 0.265426 0.964131 0.000000
