774
-7.378384 -7.112161 -0.478505 1533 0.458372 0.888760 0.000000
-7.378376 -7.112151 -0.475345 1533 0.458372 0.888760 0.000000
-7.377479 -7.111286 -0.472134 1531 0.458372 0.888760 0.000000
-7.377320 -7.111130 -0.468975 1531 0.458372 0.888760 0.000000
-7.378316 -7.112092 -0.465886 1537 0.458372 0.888760 0.000000
-7.378986 -7.112741 -0.462769 1541 0.458372 0.888760 0.000000
-7.378669 -7.112431 -0.459592 1535 0.458372 0.888760 0.000000
-7.378089 -7.111872 -0.456408 1541 0.458372 0.888760 0.000000
-7.377804 -7.111602 -0.453240 1551 0.458372 0.888760 0.000000
-7.377535 -7.111344 -0.450073 1537 0.458372 0.888760 0.000000
-7.377998 -7.111788 -0.446948 1535 0.458372 0.888760 0.000000
-7.377467 -7.111282 -0.443763 1535 0.458372 0.888760 0.000000
-7.377031 -7.110864 -0.440587 1529 0.458372 0.888760 0.000000
-7.377860 -7.111666 -0.437479 1541 0.458372 0.888760 0.000000
-7.377845 -7.111650 -0.434330 1533 0.458372 0.888760 0.000000
-7.377679 -7.111488 -0.431161 1537 0.458372 0.888760 0.000000
-7.377394 -7.111217 -0.427994 1539 0.458372 0.888760 0.000000
-7.377387 -7.111208 -0.424844 1539 0.458372 0.888760 0.000000
-7.377261 -7.111091 -0.421685 1537 0.458372 0.888760 0.000000
-7.377613 -7.111433 -0.418551 1537 0.458372 0.888760 0.000000
-7.378180 -7.111973 -0.415436 1543 0.458372 0.888760 0.000000
-7.378005 -7.111804 -0.412267 1547 0.458372 0.888760 0.000000
-7.377466 -7.111291 -0.409092 1541 0.458372 0.888760 0.000000
-7.377554 -7.111371 -0.405942 1539 0.458372 0.888760 0.000000
-7.377636 -7.111459 -0.402801 1539 0.458372 0.888760 0.000000
-7.377455 -7.111284 -0.399632 1533 0.458372 0.888760 0.000000
-7.377902 -7.111715 -0.396508 1539 0.458372 0.888760 0.000000
-7.378260 -7.112050 -0.393375 1545 0.458372 0.888760 0.000000
-7.378237 -7.112028 -0.390225 1545 0.458372 0.888760 0.000000
-7.378677 -7.112467 -0.387090 1539 0.458372 0.888760 0.000000
-7.378241 -7.112036 -0.383925 1543 0.458372 0.888760 0.000000
-7.377270 -7.111101 -0.380724 1539 0.458372 0.888760 0.000000
-7.377766 -7.111584 -0.377599 1545 0.458372 0.888760 0.000000
-7.378380 -7.112175 -0.374473 1541 0.458372 0.888760 0.000000
-7.378079 -7.111892 -0.371306 1549 0.458372 0.888760 0.000000
-7.377738 -7.111564 -0.368139 1539 0.458372 0.888760 0.000000
-7.377762 -7.111579 -0.364989 1539 0.458372 0.888760 0.000000
-7.377789 -7.111609 -0.361838 1541 0.458372 0.888760 0.000000
-7.377917 -7.111734 -0.358697 1543 0.458372 0.888760 0.000000
-7.377728 -7.111553 -0.355539 1545 0.458372 0.888760 0.000000
-7.378064 -7.111884 -0.352405 1539 0.458372 0.888760 0.000000
-7.378296 -7.112103 -0.349263 1543 0.458372 0.888760 0.000000
-7.378003 -7.111827 -0.346096 1545 0.458372 0.888760 0.000000
-7.378027 -7.111843 -0.342946 1543 0.458372 0.888760 0.000000
-7.377989 -7.111808 -0.339796 1539 0.458372 0.888760 0.000000
-7.378221 -7.112029 -0.336654 1539 0.458372 0.888760 0.000000
-7.378128 -7.111950 -0.333504 1547 0.458372 0.888760 0.000000
-7.377993 -7.111813 -0.330346 1543 0.458372 0.888760 0.000000
-7.377906 -7.111727 -0.327196 1539 0.458372 0.888760 0.000000
-7.377765 -7.111597 -0.324038 1543 0.458372 0.888760 0.000000
-7.378356 -7.112170 -0.320912 1543 0.458372 0.888760 0.000000
-7.378788 -7.112589 -0.317778 1545 0.458372 0.888760 0.000000
-7.378280 -7.112101 -0.314612 1539 0.458372 0.888760 0.000000
-7.378080 -7.111899 -0.311454 1539 0.458372 0.888760 0.000000
-7.380099 -7.109455 -0.702626 1539 0.458372 0.888760 0.000000
-7.380410 -7.109753 -0.699493 1549 0.458372 0.888760 0.000000
-7.380867 -7.110204 -0.696379 1539 0.458372 0.888760 0.000000
-7.380970 -7.110297 -0.693228 1545 0.458372 0.888760 0.000000
-7.380493 -7.109833 -0.690022 1549 0.458372 0.888760 0.000000
-7.380480 -7.109832 -0.686862 1549 0.458372 0.888760 0.000000
-7.380155 -7.109516 -0.683665 1543 0.458372 0.888760 0.000000
-7.380140 -7.109500 -0.680505 1541 0.458372 0.888760 0.000000
-7.380659 -7.110002 -0.677390 1545 0.458372 0.888760 0.000000
-7.380748 -7.110096 -0.674239 1537 0.458372 0.888760 0.000000
-7.380845 -7.110182 -0.671088 1541 0.458372 0.888760 0.000000
-7.380616 -7.109970 -0.667910 1535 0.458372 0.888760 0.000000
-7.380442 -7.109801 -0.664732 1531 0.458372 0.888760 0.000000
-7.380745 -7.110091 -0.661599 1539 0.458372 0.888760 0.000000
-7.381041 -7.110376 -0.658466 1549 0.458372 0.888760 0.000000
-7.380931 -7.110271 -0.655297 1555 0.458372 0.888760 0.000000
-7.380797 -7.110147 -0.652128 1553 0.458372 0.888760 0.000000
-7.380783 -7.110132 -0.648968 1541 0.458372 0.888760 0.000000
-7.380983 -7.110328 -0.645826 1541 0.458372 0.888760 0.000000
-7.380960 -7.110306 -0.642666 1549 0.458372 0.888760 0.000000
-7.381097 -7.110437 -0.639515 1547 0.458372 0.888760 0.000000
-7.381130 -7.110473 -0.636355 1547 0.458372 0.888760 0.000000
-7.380789 -7.110145 -0.633168 1547 0.458372 0.888760 0.000000
-7.380408 -7.109771 -0.629981 1541 0.458372 0.888760 0.000000
-7.380433 -7.109800 -0.626821 1539 0.458372 0.888760 0.000000
-7.380362 -7.109727 -0.623662 1533 0.458372 0.888760 0.000000
-7.380381 -7.109751 -0.620501 1537 0.458372 0.888760 0.000000
-7.380517 -7.109882 -0.617360 1543 0.458372 0.888760 0.000000
-7.380440 -7.109816 -0.614191 1535 0.458372 0.888760 0.000000
-7.380250 -7.109634 -0.611022 1529 0.458372 0.888760 0.000000
-7.380068 -7.109459 -0.607844 1533 0.458372 0.888760 0.000000
-7.380307 -7.109686 -0.604712 1525 0.458372 0.888760 0.000000
-7.380539 -7.109907 -0.601569 1537 0.458372 0.888760 0.000000
-7.380247 -7.109630 -0.598392 1543 0.458372 0.888760 0.000000
-7.380375 -7.109756 -0.595241 1543 0.458372 0.888760 0.000000
-7.380455 -7.109828 -0.592090 1541 0.458372 0.888760 0.000000
-7.380266 -7.109647 -0.588922 1537 0.458372 0.888760 0.000000
-7.380444 -7.109824 -0.585770 1537 0.458372 0.888760 0.000000
-7.380835 -7.110198 -0.582646 1533 0.458372 0.888760 0.000000
-7.380804 -7.110170 -0.579486 1539 0.458372 0.888760 0.000000
-7.380765 -7.110135 -0.576327 1529 0.458372 0.888760 0.000000
-7.380784 -7.110159 -0.573176 1531 0.458372 0.888760 0.000000
-7.380641 -7.110015 -0.570008 1543 0.458372 0.888760 0.000000
-7.380921 -7.110287 -0.566875 1535 0.458372 0.888760 0.000000
-7.381152 -7.110507 -0.563733 1529 0.458372 0.888760 0.000000
-7.381473 -7.110825 -0.560599 1535 0.458372 0.888760 0.000000
-7.381595 -7.110944 -0.557448 1539 0.458372 0.888760 0.000000
-7.381667 -7.111011 -0.554298 1549 0.458372 0.888760 0.000000
-7.381628 -7.110977 -0.551138 1551 0.458372 0.888760 0.000000
-7.381319 -7.110673 -0.547961 1545 0.458372 0.888760 0.000000
-7.381226 -7.110595 -0.544801 1543 0.458372 0.888760 0.000000
-7.381083 -7.110451 -0.541633 1545 0.458372 0.888760 0.000000
-7.380567 -7.109957 -0.538437 1539 0.458372 0.888760 0.000000
-7.380783 -7.110165 -0.535305 1543 0.458372 0.888760 0.000000
-7.381485 -7.110839 -0.532199 1543 0.458372 0.888760 0.000000
-7.381487 -7.110850 -0.529038 1547 0.458372 0.888760 0.000000
-7.381545 -7.110905 -0.525888 1549 0.458372 0.888760 0.000000
-7.381609 -7.110966 -0.522737 1555 0.458372 0.888760 0.000000
-7.381776 -7.111122 -0.519596 1549 0.458372 0.888760 0.000000
-7.381722 -7.111076 -0.516436 1543 0.458372 0.888760 0.000000
-7.381310 -7.110677 -0.513250 1543 0.458372 0.888760 0.000000
-7.381423 -7.110789 -0.510099 1541 0.458372 0.888760 0.000000
-7.381258 -7.110641 -0.506940 1533 0.458372 0.888760 0.000000
-7.381370 -7.110739 -0.503789 1535 0.458372 0.888760 0.000000
-7.381062 -7.110450 -0.500612 1535 0.458372 0.888760 0.000000
-7.380855 -7.110242 -0.497444 1535 0.458372 0.888760 0.000000
-7.381374 -7.110744 -0.494329 1541 0.458372 0.888760 0.000000
-7.381797 -7.111157 -0.491195 1537 0.458372 0.888760 0.000000
-7.381584 -7.110957 -0.488027 1535 0.458372 0.888760 0.000000
-7.380956 -7.110347 -0.484833 1527 0.458372 0.888760 0.000000
-7.380943 -7.110345 -0.481682 1537 0.458372 0.888760 0.000000
-7.380841 -7.110247 -0.478523 1533 0.458372 0.888760 0.000000
-7.380315 -7.109732 -0.475338 1533 0.458372 0.888760 0.000000
-7.380254 -7.109679 -0.472179 1531 0.458372 0.888760 0.000000
-7.380303 -7.109727 -0.469028 1527 0.458372 0.888760 0.000000
-7.380814 -7.110223 -0.465903 1533 0.458372 0.888760 0.000000
-7.381396 -7.110775 -0.462788 1545 0.458372 0.888760 0.000000
-7.381072 -7.110474 -0.459611 1541 0.458372 0.888760 0.000000
-7.380635 -7.110056 -0.456435 1533 0.458372 0.888760 0.000000
-7.380739 -7.110148 -0.453284 1531 0.458372 0.888760 0.000000
-7.381044 -7.110454 -0.450151 1531 0.458372 0.888760 0.000000
-7.381243 -7.110635 -0.447009 1533 0.458372 0.888760 0.000000
-7.381238 -7.110640 -0.443859 1535 0.458372 0.888760 0.000000
-7.381064 -7.110470 -0.440690 1535 0.458372 0.888760 0.000000
-7.381319 -7.110710 -0.437558 1535 0.458372 0.888760 0.000000
-7.381298 -7.110702 -0.434398 1535 0.458372 0.888760 0.000000
-7.381076 -7.110481 -0.431240 1539 0.458372 0.888760 0.000000
-7.381069 -7.110472 -0.428080 1543 0.458372 0.888760 0.000000
-7.381102 -7.110508 -0.424930 1539 0.458372 0.888760 0.000000
-7.380826 -7.110244 -0.421762 1533 0.458372 0.888760 0.000000
-7.380597 -7.110032 -0.418604 1537 0.458372 0.888760 0.000000
-7.380684 -7.110111 -0.415453 1533 0.458372 0.888760 0.000000
-7.380877 -7.110300 -0.412311 1529 0.458372 0.888760 0.000000
-7.380655 -7.110080 -0.409143 1531 0.458372 0.888760 0.000000
-7.380529 -7.109962 -0.405985 1537 0.458372 0.888760 0.000000
-7.380771 -7.110204 -0.402852 1537 0.458372 0.888760 0.000000
-7.380962 -7.110379 -0.399710 1535 0.458372 0.888760 0.000000
-7.381155 -7.110568 -0.396568 1541 0.458372 0.888760 0.000000
-7.381180 -7.110598 -0.393418 1543 0.458372 0.888760 0.000000
-7.381428 -7.110831 -0.390276 1543 0.458372 0.888760 0.000000
-7.381246 -7.110656 -0.387117 1543 0.458372 0.888760 0.000000
-7.381161 -7.110583 -0.383958 1541 0.458372 0.888760 0.000000
-7.381139 -7.110562 -0.380808 1541 0.458372 0.888760 0.000000
-7.381059 -7.110482 -0.377649 1535 0.458372 0.888760 0.000000
-7.381244 -7.110665 -0.374507 1539 0.458372 0.888760 0.000000
-7.381324 -7.110739 -0.371366 1543 0.458372 0.888760 0.000000
-7.381350 -7.110768 -0.368216 1545 0.458372 0.888760 0.000000
-7.381209 -7.110639 -0.365057 1539 0.458372 0.888760 0.000000
-7.381130 -7.110559 -0.361898 1537 0.458372 0.888760 0.000000
-7.380582 -7.110026 -0.358723 1529 0.458372 0.888760 0.000000
-7.380497 -7.109954 -0.355564 1531 0.458372 0.888760 0.000000
-7.381095 -7.110532 -0.352448 1535 0.458372 0.888760 0.000000
-7.381017 -7.110453 -0.349289 1535 0.458372 0.888760 0.000000
-7.380876 -7.110323 -0.346130 1541 0.458372 0.888760 0.000000
-7.380948 -7.110390 -0.342989 1539 0.458372 0.888760 0.000000
-7.380918 -7.110362 -0.339829 1535 0.458372 0.888760 0.000000
-7.380879 -7.110328 -0.336679 1539 0.458372 0.888760 0.000000
-7.380633 -7.110089 -0.333522 1539 0.458372 0.888760 0.000000
-7.380444 -7.109907 -0.330364 1543 0.458372 0.888760 0.000000
-7.380557 -7.110020 -0.327222 1541 0.458372 0.888760 0.000000
-7.380837 -7.110292 -0.324080 1535 0.458372 0.888760 0.000000
-7.381539 -7.110966 -0.320953 1535 0.458372 0.888760 0.000000
-7.381708 -7.111136 -0.317811 1539 0.458372 0.888760 0.000000
-7.381039 -7.110481 -0.314637 1543 0.458372 0.888760 0.000000
-7.380531 -7.109993 -0.311462 1541 0.458372 0.888760 0.000000
-7.383326 -7.108005 -0.702718 1539 0.458372 0.888760 0.000000
-7.383677 -7.108347 -0.699595 1549 0.458372 0.888760 0.000000
-7.383624 -7.108300 -0.696425 1547 0.458372 0.888760 0.000000
-7.383187 -7.107883 -0.693219 1545 0.458372 0.888760 0.000000
-7.383451 -7.108129 -0.690086 1549 0.458372 0.888760 0.000000
-7.383118 -7.107820 -0.686890 1541 0.458372 0.888760 0.000000
-7.383374 -7.108059 -0.683757 1539 0.458372 0.888760 0.000000
-7.383623 -7.108307 -0.680615 1547 0.458372 0.888760 0.000000
-7.383146 -7.107844 -0.677419 1545 0.458372 0.888760 0.000000
-7.382821 -7.107528 -0.674222 1543 0.458372 0.888760 0.000000
-7.383331 -7.108023 -0.671107 1537 0.458372 0.888760 0.000000
-7.383476 -7.108161 -0.667966 1541 0.458372 0.888760 0.000000
-7.383461 -7.108146 -0.664796 1537 0.458372 0.888760 0.000000
-7.383764 -7.108436 -0.661663 1545 0.458372 0.888760 0.000000
-7.383480 -7.108165 -0.658485 1543 0.458372 0.888760 0.000000
-7.383092 -7.107800 -0.655289 1545 0.458372 0.888760 0.000000
-7.383450 -7.108134 -0.652156 1547 0.458372 0.888760 0.000000
-7.383691 -7.108376 -0.649023 1545 0.458372 0.888760 0.000000
-7.383199 -7.107900 -0.645818 1543 0.458372 0.888760 0.000000
-7.383502 -7.108191 -0.642685 1545 0.458372 0.888760 0.000000
-7.383480 -7.108169 -0.639525 1547 0.458372 0.888760 0.000000
-7.382938 -7.107642 -0.636320 1543 0.458372 0.888760 0.000000
-7.383020 -7.107729 -0.633169 1543 0.458372 0.888760 0.000000
-7.383101 -7.107803 -0.630018 1543 0.458372 0.888760 0.000000
-7.382927 -7.107635 -0.626840 1535 0.458372 0.888760 0.000000
-7.382953 -7.107664 -0.623690 1541 0.458372 0.888760 0.000000
-7.382977 -7.107693 -0.620529 1537 0.458372 0.888760 0.000000
-7.383169 -7.107868 -0.617387 1537 0.458372 0.888760 0.000000
-7.383465 -7.108153 -0.614255 1539 0.458372 0.888760 0.000000
-7.383434 -7.108125 -0.611095 1539 0.458372 0.888760 0.000000
-7.383142 -7.107849 -0.607907 1535 0.458372 0.888760 0.000000
-7.383112 -7.107820 -0.604748 1533 0.458372 0.888760 0.000000
-7.383718 -7.108405 -0.601642 1539 0.458372 0.888760 0.000000
-7.383846 -7.108530 -0.598491 1545 0.458372 0.888760 0.000000
-7.383242 -7.107939 -0.595286 1549 0.458372 0.888760 0.000000
-7.383578 -7.108269 -0.592153 1551 0.458372 0.888760 0.000000
-7.383707 -7.108394 -0.589012 1543 0.458372 0.888760 0.000000
-7.383301 -7.108001 -0.585815 1539 0.458372 0.888760 0.000000
-7.383534 -7.108236 -0.582683 1539 0.458372 0.888760 0.000000
-7.383981 -7.108654 -0.579559 1547 0.458372 0.888760 0.000000
-7.384047 -7.108729 -0.576408 1545 0.458372 0.888760 0.000000
-7.383857 -7.108547 -0.573230 1533 0.458372 0.888760 0.000000
-7.383770 -7.108461 -0.570071 1537 0.458372 0.888760 0.000000
-7.383892 -7.108581 -0.566919 1541 0.458372 0.888760 0.000000
-7.383956 -7.108641 -0.563769 1543 0.458372 0.888760 0.000000
-7.383759 -7.108454 -0.560600 1539 0.458372 0.888760 0.000000
-7.383943 -7.108622 -0.557459 1539 0.458372 0.888760 0.000000
-7.384166 -7.108837 -0.554316 1545 0.458372 0.888760 0.000000
-7.384017 -7.108701 -0.551148 1537 0.458372 0.888760 0.000000
-7.384082 -7.108762 -0.547997 1541 0.458372 0.888760 0.000000
-7.384147 -7.108823 -0.544846 1549 0.458372 0.888760 0.000000
-7.383901 -7.108583 -0.541669 1547 0.458372 0.888760 0.000000
-7.383904 -7.108594 -0.538519 1545 0.458372 0.888760 0.000000
-7.383968 -7.108655 -0.535368 1549 0.458372 0.888760 0.000000
-7.383977 -7.108659 -0.532208 1543 0.458372 0.888760 0.000000
-7.383979 -7.108670 -0.529058 1545 0.458372 0.888760 0.000000
-7.384313 -7.108985 -0.525924 1541 0.458372 0.888760 0.000000
-7.384840 -7.109494 -0.522799 1543 0.458372 0.888760 0.000000
-7.384476 -7.109147 -0.519623 1549 0.458372 0.888760 0.000000
-7.383593 -7.108294 -0.516401 1537 0.458372 0.888760 0.000000
-7.383491 -7.108195 -0.513242 1535 0.458372 0.888760 0.000000
-7.384185 -7.108863 -0.510135 1539 0.458372 0.888760 0.000000
-7.384920 -7.109577 -0.507028 1549 0.458372 0.888760 0.000000
-7.384768 -7.109426 -0.503860 1549 0.458372 0.888760 0.000000
-7.384134 -7.108824 -0.500665 1541 0.458372 0.888760 0.000000
-7.384191 -7.108879 -0.497515 1537 0.458372 0.888760 0.000000
-7.384303 -7.108978 -0.494364 1529 0.458372 0.888760 0.000000
-7.384138 -7.108829 -0.491205 1529 0.458372 0.888760 0.000000
-7.383876 -7.108578 -0.488028 1533 0.458372 0.888760 0.000000
-7.383662 -7.108363 -0.484860 1533 0.458372 0.888760 0.000000
-7.384196 -7.108878 -0.481744 1537 0.458372 0.888760 0.000000
-7.384454 -7.109131 -0.478602 1539 0.458372 0.888760 0.000000
-7.384286 -7.108968 -0.475443 1539 0.458372 0.888760 0.000000
-7.384384 -7.109068 -0.472292 1543 0.458372 0.888760 0.000000
-7.384488 -7.109161 -0.469141 1545 0.458372 0.888760 0.000000
-7.384331 -7.109019 -0.465983 1535 0.458372 0.888760 0.000000
-7.383799 -7.108498 -0.462798 1543 0.458372 0.888760 0.000000
-7.383577 -7.108291 -0.459630 1539 0.458372 0.888760 0.000000
-7.383827 -7.108538 -0.456487 1535 0.458372 0.888760 0.000000
-7.383978 -7.108682 -0.453346 1539 0.458372 0.888760 0.000000
-7.384028 -7.108731 -0.450195 1533 0.458372 0.888760 0.000000
-7.383853 -7.108562 -0.447027 1531 0.458372 0.888760 0.000000
-7.383895 -7.108604 -0.443876 1539 0.458372 0.888760 0.000000
-7.383729 -7.108442 -0.440718 1541 0.458372 0.888760 0.000000
-7.383825 -7.108528 -0.437567 1541 0.458372 0.888760 0.000000
-7.384026 -7.108723 -0.434425 1537 0.458372 0.888760 0.000000
-7.384226 -7.108919 -0.431283 1531 0.458372 0.888760 0.000000
-7.384521 -7.109203 -0.428150 1543 0.458372 0.888760 0.000000
-7.384452 -7.109144 -0.424991 1535 0.458372 0.888760 0.000000
-7.384389 -7.109077 -0.421841 1535 0.458372 0.888760 0.000000
-7.384533 -7.109214 -0.418690 1535 0.458372 0.888760 0.000000
-7.384359 -7.109046 -0.415531 1543 0.458372 0.888760 0.000000
-7.384075 -7.108775 -0.412364 1537 0.458372 0.888760 0.000000
-7.383790 -7.108504 -0.409197 1527 0.458372 0.888760 0.000000
-7.383718 -7.108431 -0.406037 1531 0.458372 0.888760 0.000000
-7.384334 -7.109022 -0.402921 1537 0.458372 0.888760 0.000000
-7.384685 -7.109365 -0.399788 1547 0.458372 0.888760 0.000000
-7.384448 -7.109146 -0.396620 1545 0.458372 0.888760 0.000000
-7.384170 -7.108868 -0.393453 1543 0.458372 0.888760 0.000000
-7.384092 -7.108802 -0.390293 1547 0.458372 0.888760 0.000000
-7.383911 -7.108627 -0.387135 1541 0.458372 0.888760 0.000000
-7.384310 -7.109007 -0.384001 1545 0.458372 0.888760 0.000000
-7.384757 -7.109439 -0.380877 1545 0.458372 0.888760 0.000000
-7.384464 -7.109162 -0.377709 1541 0.458372 0.888760 0.000000
-7.384131 -7.108840 -0.374542 1535 0.458372 0.888760 0.000000
-7.384578 -7.109271 -0.371408 1539 0.458372 0.888760 0.000000
-7.384761 -7.109440 -0.368266 1545 0.458372 0.888760 0.000000
-7.384366 -7.109068 -0.365100 1541 0.458372 0.888760 0.000000
-7.383912 -7.108624 -0.361924 1541 0.458372 0.888760 0.000000
-7.383461 -7.108194 -0.358748 1537 0.458372 0.888760 0.000000
-7.383797 -7.108524 -0.355615 1531 0.458372 0.888760 0.000000
-7.384085 -7.108802 -0.352482 1545 0.458372 0.888760 0.000000
-7.383736 -7.108468 -0.349306 1541 0.458372 0.888760 0.000000
-7.384237 -7.108943 -0.346181 1541 0.458372 0.888760 0.000000
-7.384040 -7.108756 -0.343023 1541 0.458372 0.888760 0.000000
-7.383381 -7.108120 -0.339839 1533 0.458372 0.888760 0.000000
-7.383861 -7.108591 -0.336714 1533 0.458372 0.888760 0.000000
-7.384570 -7.109272 -0.333597 1545 0.458372 0.888760 0.000000
-7.383958 -7.108675 -0.330413 1537 0.458372 0.888760 0.000000
-7.384183 -7.108902 -0.327271 1545 0.458372 0.888760 0.000000
-7.384677 -7.109372 -0.324146 1545 0.458372 0.888760 0.000000
-7.384162 -7.108878 -0.320971 1543 0.458372 0.888760 0.000000
-7.384075 -7.108792 -0.317822 1543 0.458372 0.888760 0.000000
-7.384403 -7.109115 -0.314678 1545 0.458372 0.888760 0.000000
-7.384039 -7.108768 -0.311512 1541 0.458372 0.888760 0.000000
-7.386596 -7.106820 -0.702819 1547 0.458372 0.888760 0.000000
-7.387011 -7.107213 -0.699695 1551 0.458372 0.888760 0.000000
-7.386844 -7.107050 -0.696526 1541 0.458372 0.888760 0.000000
-7.386734 -7.106945 -0.693347 1545 0.458372 0.888760 0.000000
-7.386823 -7.107039 -0.690196 1551 0.458372 0.888760 0.000000
-7.386395 -7.106628 -0.687000 1551 0.458372 0.888760 0.000000
-7.386437 -7.106670 -0.683840 1547 0.458372 0.888760 0.000000
-7.386700 -7.106915 -0.680697 1549 0.458372 0.888760 0.000000
-7.386789 -7.107009 -0.677546 1547 0.458372 0.888760 0.000000
-7.386933 -7.107147 -0.674395 1541 0.458372 0.888760 0.000000
-7.386657 -7.106883 -0.671217 1543 0.458372 0.888760 0.000000
-7.386332 -7.106567 -0.668020 1539 0.458372 0.888760 0.000000
-7.386427 -7.106653 -0.664869 1539 0.458372 0.888760 0.000000
-7.386302 -7.106536 -0.661700 1547 0.458372 0.888760 0.000000
-7.386343 -7.106578 -0.658540 1541 0.458372 0.888760 0.000000
-7.386638 -7.106862 -0.655407 1543 0.458372 0.888760 0.000000
-7.386561 -7.106797 -0.652238 1543 0.458372 0.888760 0.000000
-7.386339 -7.106576 -0.649060 1537 0.458372 0.888760 0.000000
-7.386005 -7.106254 -0.645873 1537 0.458372 0.888760 0.000000
-7.385990 -7.106238 -0.642713 1535 0.458372 0.888760 0.000000
-7.386072 -7.106326 -0.639562 1541 0.458372 0.888760 0.000000
-7.386153 -7.106399 -0.636411 1539 0.458372 0.888760 0.000000
-7.386400 -7.106632 -0.633269 1537 0.458372 0.888760 0.000000
-7.386067 -7.106310 -0.630082 1537 0.458372 0.888760 0.000000
-7.385561 -7.105836 -0.626886 1543 0.458372 0.888760 0.000000
-7.385600 -7.105864 -0.623726 1545 0.458372 0.888760 0.000000
-7.385626 -7.105894 -0.620566 1541 0.458372 0.888760 0.000000
-7.386232 -7.106479 -0.617460 1543 0.458372 0.888760 0.000000
-7.386998 -7.107217 -0.614363 1545 0.458372 0.888760 0.000000
-7.387707 -7.107898 -0.611266 1551 0.458372 0.888760 0.000000
-7.387422 -7.107627 -0.608078 1551 0.458372 0.888760 0.000000
-7.386914 -7.107139 -0.604883 1547 0.458372 0.888760 0.000000
-7.386884 -7.107111 -0.601723 1547 0.458372 0.888760 0.000000
-7.386598 -7.106827 -0.598536 1545 0.458372 0.888760 0.000000
-7.385986 -7.106243 -0.595332 1535 0.458372 0.888760 0.000000
-7.386004 -7.106266 -0.592182 1537 0.458372 0.888760 0.000000
-7.386354 -7.106595 -0.589048 1545 0.458372 0.888760 0.000000
-7.386731 -7.106970 -0.585914 1533 0.458372 0.888760 0.000000
-7.387130 -7.107351 -0.582791 1541 0.458372 0.888760 0.000000
-7.387092 -7.107316 -0.579631 1535 0.458372 0.888760 0.000000
-7.387061 -7.107287 -0.576471 1549 0.458372 0.888760 0.000000
-7.387189 -7.107399 -0.573320 1543 0.458372 0.888760 0.000000
-7.387414 -7.107627 -0.570178 1543 0.458372 0.888760 0.000000
-7.387065 -7.107293 -0.567001 1541 0.458372 0.888760 0.000000
-7.386971 -7.107200 -0.563832 1543 0.458372 0.888760 0.000000
-7.386933 -7.107166 -0.560672 1537 0.458372 0.888760 0.000000
-7.386797 -7.107028 -0.557503 1541 0.458372 0.888760 0.000000
-7.386959 -7.107192 -0.554362 1541 0.458372 0.888760 0.000000
-7.387134 -7.107355 -0.551220 1541 0.458372 0.888760 0.000000
-7.387304 -7.107525 -0.548078 1549 0.458372 0.888760 0.000000
-7.386683 -7.106922 -0.544874 1539 0.458372 0.888760 0.000000
-7.386168 -7.106428 -0.541679 1523 0.458372 0.888760 0.000000
-7.386502 -7.106743 -0.538546 1529 0.458372 0.888760 0.000000
-7.386934 -7.107162 -0.535421 1537 0.458372 0.888760 0.000000
-7.387150 -7.107371 -0.532279 1539 0.458372 0.888760 0.000000
-7.387001 -7.107234 -0.529111 1537 0.458372 0.888760 0.000000
-7.387009 -7.107238 -0.525960 1543 0.458372 0.888760 0.000000
-7.387012 -7.107249 -0.522800 1545 0.458372 0.888760 0.000000
-7.387283 -7.107501 -0.519668 1555 0.458372 0.888760 0.000000
-7.387611 -7.107824 -0.516534 1555 0.458372 0.888760 0.000000
-7.387501 -7.107719 -0.513365 1549 0.458372 0.888760 0.000000
-7.387461 -7.107671 -0.510206 1547 0.458372 0.888760 0.000000
-7.387359 -7.107573 -0.507047 1545 0.458372 0.888760 0.000000
-7.387353 -7.107577 -0.503897 1549 0.458372 0.888760 0.000000
-7.387141 -7.107377 -0.500718 1545 0.458372 0.888760 0.000000
-7.386727 -7.106978 -0.497542 1541 0.458372 0.888760 0.000000
-7.386521 -7.106771 -0.494374 1533 0.458372 0.888760 0.000000
-7.386842 -7.107088 -0.491241 1531 0.458372 0.888760 0.000000
-7.386564 -7.106823 -0.488064 1529 0.458372 0.888760 0.000000
-7.386096 -7.106367 -0.484878 1529 0.458372 0.888760 0.000000
-7.386725 -7.106970 -0.481772 1537 0.458372 0.888760 0.000000
-7.387101 -7.107331 -0.478638 1533 0.458372 0.888760 0.000000
-7.387301 -7.107527 -0.475496 1533 0.458372 0.888760 0.000000
-7.387510 -7.107729 -0.472354 1541 0.458372 0.888760 0.000000
-7.387400 -7.107625 -0.469195 1539 0.458372 0.888760 0.000000
-7.387441 -7.107667 -0.466035 1545 0.458372 0.888760 0.000000
-7.386916 -7.107152 -0.462850 1543 0.458372 0.888760 0.000000
-7.386543 -7.106798 -0.459673 1539 0.458372 0.888760 0.000000
-7.387262 -7.107499 -0.456566 1545 0.458372 0.888760 0.000000
-7.387574 -7.107797 -0.453433 1543 0.458372 0.888760 0.000000
-7.387041 -7.107276 -0.450248 1543 0.458372 0.888760 0.000000
-7.387138 -7.107376 -0.447097 1539 0.458372 0.888760 0.000000
-7.387123 -7.107360 -0.443937 1533 0.458372 0.888760 0.000000
-7.387006 -7.107249 -0.440778 1537 0.458372 0.888760 0.000000
-7.387627 -7.107846 -0.437662 1535 0.458372 0.888760 0.000000
-7.387669 -7.107888 -0.434512 1535 0.458372 0.888760 0.000000
-7.387551 -7.107778 -0.431353 1537 0.458372 0.888760 0.000000
-7.387806 -7.108017 -0.428210 1543 0.458372 0.888760 0.000000
-7.387737 -7.107958 -0.425051 1541 0.458372 0.888760 0.000000
-7.387714 -7.107936 -0.421901 1547 0.458372 0.888760 0.000000
-7.387332 -7.107562 -0.418725 1537 0.458372 0.888760 0.000000
-7.387262 -7.107502 -0.415565 1539 0.458372 0.888760 0.000000
-7.387240 -7.107481 -0.412415 1531 0.458372 0.888760 0.000000
-7.387233 -7.107471 -0.409265 1521 0.458372 0.888760 0.000000
-7.387052 -7.107296 -0.406097 1527 0.458372 0.888760 0.000000
-7.387037 -7.107281 -0.402947 1527 0.458372 0.888760 0.000000
-7.387278 -7.107522 -0.399805 1535 0.458372 0.888760 0.000000
-7.387469 -7.107697 -0.396663 1541 0.458372 0.888760 0.000000
-7.387440 -7.107683 -0.393513 1543 0.458372 0.888760 0.000000
-7.387472 -7.107705 -0.390363 1545 0.458372 0.888760 0.000000
-7.387457 -7.107689 -0.387203 1543 0.458372 0.888760 0.000000
-7.386957 -7.107207 -0.384027 1537 0.458372 0.888760 0.000000
-7.386927 -7.107179 -0.380878 1543 0.458372 0.888760 0.000000
-7.386753 -7.107011 -0.377709 1533 0.458372 0.888760 0.000000
-7.386508 -7.106785 -0.374551 1531 0.458372 0.888760 0.000000
-7.387115 -7.107370 -0.371426 1535 0.458372 0.888760 0.000000
-7.387403 -7.107649 -0.368293 1553 0.458372 0.888760 0.000000
-7.386902 -7.107167 -0.365117 1541 0.458372 0.888760 0.000000
-7.386927 -7.107183 -0.361967 1537 0.458372 0.888760 0.000000
-7.386745 -7.107007 -0.358799 1543 0.458372 0.888760 0.000000
-7.386493 -7.106776 -0.355641 1533 0.458372 0.888760 0.000000
-7.386892 -7.107156 -0.352507 1547 0.458372 0.888760 0.000000
-7.387069 -7.107333 -0.349365 1537 0.458372 0.888760 0.000000
-7.386353 -7.106640 -0.346182 1523 0.458372 0.888760 0.000000
-7.386051 -7.106343 -0.343015 1523 0.458372 0.888760 0.000000
-7.387184 -7.107439 -0.339914 1539 0.458372 0.888760 0.000000
-7.387829 -7.108056 -0.336788 1535 0.458372 0.888760 0.000000
-7.387115 -7.107377 -0.333605 1527 0.458372 0.888760 0.000000
-7.386440 -7.106730 -0.330431 1533 0.458372 0.888760 0.000000
-7.387093 -7.107351 -0.327305 1547 0.458372 0.888760 0.000000
-7.387692 -7.107931 -0.324179 1553 0.458372 0.888760 0.000000
-7.387073 -7.107341 -0.321005 1547 0.458372 0.888760 0.000000
-7.386978 -7.107249 -0.317846 1547 0.458372 0.888760 0.000000
-7.387362 -7.107616 -0.314712 1541 0.458372 0.888760 0.000000
-7.387275 -7.107530 -0.311563 1541 0.458372 0.888760 0.000000
-7.389609 -7.105365 -0.702902 1545 0.458372 0.888760 0.000000
-7.389443 -7.105203 -0.699723 1551 0.458372 0.888760 0.000000
-7.389332 -7.105097 -0.696554 1549 0.458372 0.888760 0.000000
-7.389700 -7.105453 -0.693420 1549 0.458372 0.888760 0.000000
-7.389741 -7.105495 -0.690270 1551 0.458372 0.888760 0.000000
-7.389146 -7.104924 -0.687046 1543 0.458372 0.888760 0.000000
-7.389243 -7.105024 -0.683895 1541 0.458372 0.888760 0.000000
-7.389546 -7.105315 -0.680762 1549 0.458372 0.888760 0.000000
-7.389119 -7.104904 -0.677566 1541 0.458372 0.888760 0.000000
-7.389047 -7.104830 -0.674396 1541 0.458372 0.888760 0.000000
-7.388986 -7.104777 -0.671227 1533 0.458372 0.888760 0.000000
-7.388922 -7.104710 -0.668057 1533 0.458372 0.888760 0.000000
-7.389323 -7.105104 -0.664933 1533 0.458372 0.888760 0.000000
-7.389259 -7.105036 -0.661774 1535 0.458372 0.888760 0.000000
-7.388775 -7.104568 -0.658568 1537 0.458372 0.888760 0.000000
-7.389119 -7.104904 -0.655435 1535 0.458372 0.888760 0.000000
-7.389582 -7.105348 -0.652321 1547 0.458372 0.888760 0.000000
-7.389615 -7.105383 -0.649160 1543 0.458372 0.888760 0.000000
-7.389171 -7.104960 -0.645964 1537 0.458372 0.888760 0.000000
-7.388741 -7.104535 -0.642768 1523 0.458372 0.888760 0.000000
-7.389196 -7.104972 -0.639644 1535 0.458372 0.888760 0.000000
-7.389278 -7.105060 -0.636493 1545 0.458372 0.888760 0.000000
-7.388618 -7.104425 -0.633279 1543 0.458372 0.888760 0.000000
-7.388501 -7.104314 -0.630110 1533 0.458372 0.888760 0.000000
-7.388948 -7.104745 -0.626986 1541 0.458372 0.888760 0.000000
-7.389244 -7.105031 -0.623853 1543 0.458372 0.888760 0.000000
-7.389483 -7.105257 -0.620711 1547 0.458372 0.888760 0.000000
-7.389349 -7.105133 -0.617542 1547 0.458372 0.888760 0.000000
-7.389381 -7.105155 -0.614382 1539 0.458372 0.888760 0.000000
-7.389718 -7.105485 -0.611248 1549 0.458372 0.888760 0.000000
-7.389744 -7.105515 -0.608098 1547 0.458372 0.888760 0.000000
-7.389403 -7.105186 -0.604911 1531 0.458372 0.888760 0.000000
-7.389221 -7.105011 -0.601733 1539 0.458372 0.888760 0.000000
-7.389404 -7.105181 -0.598591 1541 0.458372 0.888760 0.000000
-7.389581 -7.105357 -0.595449 1545 0.458372 0.888760 0.000000
-7.389494 -7.105271 -0.592280 1541 0.458372 0.888760 0.000000
-7.389783 -7.105550 -0.589147 1533 0.458372 0.888760 0.000000
-7.390181 -7.105929 -0.586013 1543 0.458372 0.888760 0.000000
-7.390143 -7.105895 -0.582854 1547 0.458372 0.888760 0.000000
-7.389953 -7.105713 -0.579685 1541 0.458372 0.888760 0.000000
-7.390026 -7.105781 -0.576535 1541 0.458372 0.888760 0.000000
-7.389933 -7.105703 -0.573365 1539 0.458372 0.888760 0.000000
-7.389957 -7.105718 -0.570215 1537 0.458372 0.888760 0.000000
-7.389919 -7.105684 -0.567055 1539 0.458372 0.888760 0.000000
-7.389832 -7.105597 -0.563886 1537 0.458372 0.888760 0.000000
-7.390002 -7.105769 -0.560744 1537 0.458372 0.888760 0.000000
-7.389756 -7.105529 -0.557567 1535 0.458372 0.888760 0.000000
-7.389558 -7.105341 -0.554398 1537 0.458372 0.888760 0.000000
-7.389521 -7.105307 -0.551239 1545 0.458372 0.888760 0.000000
-7.389377 -7.105163 -0.548070 1545 0.458372 0.888760 0.000000
-7.389649 -7.105429 -0.544927 1547 0.458372 0.888760 0.000000
-7.389603 -7.105388 -0.541768 1537 0.458372 0.888760 0.000000
-7.389676 -7.105455 -0.538617 1537 0.458372 0.888760 0.000000
-7.389733 -7.105510 -0.535466 1541 0.458372 0.888760 0.000000
-7.390060 -7.105820 -0.532333 1543 0.458372 0.888760 0.000000
-7.390062 -7.105831 -0.529173 1539 0.458372 0.888760 0.000000
-7.390071 -7.105834 -0.526023 1545 0.458372 0.888760 0.000000
-7.389976 -7.105742 -0.522854 1545 0.458372 0.888760 0.000000
-7.389668 -7.105453 -0.519677 1543 0.458372 0.888760 0.000000
-7.389565 -7.105354 -0.516517 1547 0.458372 0.888760 0.000000
-7.390211 -7.105970 -0.513401 1545 0.458372 0.888760 0.000000
-7.390101 -7.105865 -0.510242 1543 0.458372 0.888760 0.000000
-7.389688 -7.105466 -0.507056 1527 0.458372 0.888760 0.000000
-7.390223 -7.105981 -0.503941 1543 0.458372 0.888760 0.000000
-7.390113 -7.105876 -0.500772 1539 0.458372 0.888760 0.000000
-7.389956 -7.105734 -0.497613 1543 0.458372 0.888760 0.000000
-7.389957 -7.105731 -0.494453 1543 0.458372 0.888760 0.000000
-7.390117 -7.105881 -0.491312 1535 0.458372 0.888760 0.000000
-7.389696 -7.105476 -0.488126 1533 0.458372 0.888760 0.000000
-7.389269 -7.105079 -0.484949 1531 0.458372 0.888760 0.000000
-7.389373 -7.105171 -0.481798 1535 0.458372 0.888760 0.000000
-7.389789 -7.105578 -0.478674 1531 0.458372 0.888760 0.000000
-7.390578 -7.106335 -0.475567 1547 0.458372 0.888760 0.000000
-7.390571 -7.106325 -0.472407 1539 0.458372 0.888760 0.000000
-7.390206 -7.105978 -0.469230 1535 0.458372 0.888760 0.000000
-7.390199 -7.105968 -0.466080 1537 0.458372 0.888760 0.000000
-7.390089 -7.105864 -0.462911 1539 0.458372 0.888760 0.000000
-7.389923 -7.105701 -0.459753 1537 0.458372 0.888760 0.000000
-7.390131 -7.105903 -0.456611 1541 0.458372 0.888760 0.000000
-7.390117 -7.105887 -0.453451 1541 0.458372 0.888760 0.000000
-7.390055 -7.105834 -0.450291 1535 0.458372 0.888760 0.000000
-7.389992 -7.105767 -0.447142 1537 0.458372 0.888760 0.000000
-7.389771 -7.105561 -0.443974 1543 0.458372 0.888760 0.000000
-7.390393 -7.106158 -0.440848 1543 0.458372 0.888760 0.000000
-7.390705 -7.106456 -0.437715 1549 0.458372 0.888760 0.000000
-7.390260 -7.106032 -0.434539 1541 0.458372 0.888760 0.000000
-7.390349 -7.106125 -0.431388 1545 0.458372 0.888760 0.000000
-7.390183 -7.105963 -0.428230 1535 0.458372 0.888760 0.000000
-7.389907 -7.105699 -0.425052 1537 0.458372 0.888760 0.000000
-7.389733 -7.105529 -0.421894 1539 0.458372 0.888760 0.000000
-7.390085 -7.105873 -0.418760 1539 0.458372 0.888760 0.000000
-7.390284 -7.106054 -0.415618 1539 0.458372 0.888760 0.000000
-7.390524 -7.106295 -0.412476 1545 0.458372 0.888760 0.000000
-7.390931 -7.106680 -0.409342 1537 0.458372 0.888760 0.000000
-7.391013 -7.106768 -0.406191 1545 0.458372 0.888760 0.000000
-7.390210 -7.105992 -0.402999 1529 0.458372 0.888760 0.000000
-7.389869 -7.105664 -0.399832 1529 0.458372 0.888760 0.000000
-7.390276 -7.106051 -0.396698 1535 0.458372 0.888760 0.000000
-7.390828 -7.106592 -0.393573 1551 0.458372 0.888760 0.000000
-7.390708 -7.106467 -0.390414 1547 0.458372 0.888760 0.000000
-7.390097 -7.105884 -0.387229 1535 0.458372 0.888760 0.000000
-7.390393 -7.106168 -0.384096 1539 0.458372 0.888760 0.000000
-7.390791 -7.106548 -0.380963 1551 0.458372 0.888760 0.000000
-7.390976 -7.106731 -0.377811 1543 0.458372 0.888760 0.000000
-7.390684 -7.106454 -0.374653 1539 0.458372 0.888760 0.000000
-7.389873 -7.105672 -0.371461 1533 0.458372 0.888760 0.000000
-7.389635 -7.105439 -0.368293 1533 0.458372 0.888760 0.000000
-7.390028 -7.105827 -0.365159 1537 0.458372 0.888760 0.000000
-7.390100 -7.105895 -0.362009 1539 0.458372 0.888760 0.000000
-7.390499 -7.106274 -0.358875 1545 0.458372 0.888760 0.000000
-7.390509 -7.106292 -0.355725 1547 0.458372 0.888760 0.000000
-7.389539 -7.105357 -0.352534 1539 0.458372 0.888760 0.000000
-7.389134 -7.104964 -0.349358 1537 0.458372 0.888760 0.000000
-7.389574 -7.105390 -0.346233 1537 0.458372 0.888760 0.000000
-7.390013 -7.105815 -0.343099 1539 0.458372 0.888760 0.000000
-7.390038 -7.105831 -0.339949 1543 0.458372 0.888760 0.000000
-7.390263 -7.106059 -0.336807 1545 0.458372 0.888760 0.000000
-7.390079 -7.105869 -0.333648 1537 0.458372 0.888760 0.000000
-7.389771 -7.105580 -0.330481 1537 0.458372 0.888760 0.000000
-7.389844 -7.105648 -0.327330 1533 0.458372 0.888760 0.000000
-7.389654 -7.105466 -0.324172 1541 0.458372 0.888760 0.000000
-7.389186 -7.105024 -0.321006 1541 0.458372 0.888760 0.000000
-7.389521 -7.105340 -0.317863 1541 0.458372 0.888760 0.000000
-7.390223 -7.106014 -0.314746 1539 0.458372 0.888760 0.000000
-7.390606 -7.106381 -0.311603 1539 0.458372 0.888760 0.000000
-7.392484 -7.103953 -0.702975 1539 0.458372 0.888760 0.000000
-7.392263 -7.103747 -0.699797 1547 0.458372 0.888760 0.000000
-7.392153 -7.103642 -0.696618 1545 0.458372 0.888760 0.000000
-7.392409 -7.103882 -0.693485 1549 0.458372 0.888760 0.000000
-7.392457 -7.103930 -0.690325 1549 0.458372 0.888760 0.000000
-7.393023 -7.104470 -0.687210 1551 0.458372 0.888760 0.000000
-7.393121 -7.104570 -0.684059 1547 0.458372 0.888760 0.000000
-7.392159 -7.103641 -0.680808 1541 0.458372 0.888760 0.000000
-7.392208 -7.103689 -0.677657 1543 0.458372 0.888760 0.000000
-7.392719 -7.104185 -0.674542 1545 0.458372 0.888760 0.000000
-7.392663 -7.104124 -0.671373 1541 0.458372 0.888760 0.000000
-7.392586 -7.104058 -0.668203 1539 0.458372 0.888760 0.000000
-7.392841 -7.104298 -0.665061 1543 0.458372 0.888760 0.000000
-7.392342 -7.103829 -0.661855 1537 0.458372 0.888760 0.000000
-7.391755 -7.103265 -0.658651 1533 0.458372 0.888760 0.000000
-7.391740 -7.103250 -0.655481 1537 0.458372 0.888760 0.000000
-7.391779 -7.103277 -0.652331 1533 0.458372 0.888760 0.000000
-7.392339 -7.103825 -0.649215 1535 0.458372 0.888760 0.000000
-7.392787 -7.104257 -0.646091 1543 0.458372 0.888760 0.000000
-7.392564 -7.104036 -0.642913 1541 0.458372 0.888760 0.000000
-7.392487 -7.103971 -0.639744 1545 0.458372 0.888760 0.000000
-7.392527 -7.103999 -0.636583 1543 0.458372 0.888760 0.000000
-7.392401 -7.103881 -0.633414 1551 0.458372 0.888760 0.000000
-7.392586 -7.104064 -0.630272 1547 0.458372 0.888760 0.000000
-7.392618 -7.104086 -0.627112 1539 0.458372 0.888760 0.000000
-7.392754 -7.104218 -0.623971 1537 0.458372 0.888760 0.000000
-7.392358 -7.103846 -0.620774 1537 0.458372 0.888760 0.000000
-7.392328 -7.103817 -0.617614 1541 0.458372 0.888760 0.000000
-7.392465 -7.103948 -0.614463 1539 0.458372 0.888760 0.000000
-7.392339 -7.103831 -0.611294 1535 0.458372 0.888760 0.000000
-7.392570 -7.104052 -0.608152 1539 0.458372 0.888760 0.000000
-7.392596 -7.104081 -0.605002 1535 0.458372 0.888760 0.000000
-7.392150 -7.103643 -0.601806 1531 0.458372 0.888760 0.000000
-7.392066 -7.103571 -0.598636 1539 0.458372 0.888760 0.000000
-7.392354 -7.103850 -0.595504 1541 0.458372 0.888760 0.000000
-7.392378 -7.103866 -0.592343 1541 0.458372 0.888760 0.000000
-7.392299 -7.103786 -0.589184 1535 0.458372 0.888760 0.000000
-7.392628 -7.104110 -0.586051 1541 0.458372 0.888760 0.000000
-7.392970 -7.104432 -0.582918 1539 0.458372 0.888760 0.000000
-7.393250 -7.104703 -0.579775 1539 0.458372 0.888760 0.000000
-7.393482 -7.104925 -0.576633 1545 0.458372 0.888760 0.000000
-7.393022 -7.104488 -0.573447 1541 0.458372 0.888760 0.000000
-7.392522 -7.104006 -0.570252 1533 0.458372 0.888760 0.000000
-7.392691 -7.104177 -0.567100 1545 0.458372 0.888760 0.000000
-7.392707 -7.104186 -0.563950 1545 0.458372 0.888760 0.000000
-7.392621 -7.104100 -0.560780 1541 0.458372 0.888760 0.000000
-7.392529 -7.104022 -0.557621 1545 0.458372 0.888760 0.000000
-7.392584 -7.104077 -0.554461 1539 0.458372 0.888760 0.000000
-7.392395 -7.103896 -0.551292 1547 0.458372 0.888760 0.000000
-7.391935 -7.103446 -0.548107 1535 0.458372 0.888760 0.000000
-7.392366 -7.103864 -0.544972 1539 0.458372 0.888760 0.000000
-7.392487 -7.103983 -0.541831 1547 0.458372 0.888760 0.000000
-7.392282 -7.103789 -0.538653 1539 0.458372 0.888760 0.000000
-7.392401 -7.103894 -0.535512 1529 0.458372 0.888760 0.000000
-7.392514 -7.104006 -0.532361 1541 0.458372 0.888760 0.000000
-7.392467 -7.103966 -0.529201 1539 0.458372 0.888760 0.000000
-7.392851 -7.104334 -0.526067 1549 0.458372 0.888760 0.000000
-7.392964 -7.104446 -0.522926 1549 0.458372 0.888760 0.000000
-7.392495 -7.103990 -0.519731 1539 0.458372 0.888760 0.000000
-7.392601 -7.104095 -0.516579 1543 0.458372 0.888760 0.000000
-7.393031 -7.104501 -0.513455 1549 0.458372 0.888760 0.000000
-7.393089 -7.104569 -0.510305 1543 0.458372 0.888760 0.000000
-7.392930 -7.104413 -0.507136 1541 0.458372 0.888760 0.000000
-7.393354 -7.104826 -0.504012 1555 0.458372 0.888760 0.000000
-7.393093 -7.104574 -0.500834 1551 0.458372 0.888760 0.000000
-7.392520 -7.104023 -0.497640 1537 0.458372 0.888760 0.000000
-7.392943 -7.104421 -0.494516 1545 0.458372 0.888760 0.000000
-7.393256 -7.104732 -0.491383 1543 0.458372 0.888760 0.000000
-7.393368 -7.104831 -0.488232 1539 0.458372 0.888760 0.000000
-7.393106 -7.104579 -0.485054 1539 0.458372 0.888760 0.000000
-7.393093 -7.104578 -0.481904 1539 0.458372 0.888760 0.000000
-7.393301 -7.104780 -0.478762 1541 0.458372 0.888760 0.000000
-7.393302 -7.104776 -0.475602 1541 0.458372 0.888760 0.000000
-7.392928 -7.104408 -0.472425 1535 0.458372 0.888760 0.000000
-7.392866 -7.104355 -0.469266 1537 0.458372 0.888760 0.000000
-7.392964 -7.104455 -0.466115 1537 0.458372 0.888760 0.000000
-7.392854 -7.104351 -0.462956 1531 0.458372 0.888760 0.000000
-7.392846 -7.104341 -0.459806 1537 0.458372 0.888760 0.000000
-7.392950 -7.104434 -0.456655 1541 0.458372 0.888760 0.000000
-7.393096 -7.104585 -0.453503 1543 0.458372 0.888760 0.000000
-7.393144 -7.104620 -0.450353 1545 0.458372 0.888760 0.000000
-7.393034 -7.104515 -0.447194 1539 0.458372 0.888760 0.000000
-7.393013 -7.104507 -0.444044 1535 0.458372 0.888760 0.000000
-7.393165 -7.104651 -0.440892 1535 0.458372 0.888760 0.000000
-7.392943 -7.104431 -0.437724 1535 0.458372 0.888760 0.000000
-7.392984 -7.104473 -0.434574 1535 0.458372 0.888760 0.000000
-7.393177 -7.104662 -0.431432 1531 0.458372 0.888760 0.000000
-7.393378 -7.104858 -0.428290 1531 0.458372 0.888760 0.000000
-7.393522 -7.104995 -0.425139 1535 0.458372 0.888760 0.000000
-7.393404 -7.104884 -0.421980 1547 0.458372 0.888760 0.000000
-7.393333 -7.104811 -0.418820 1549 0.458372 0.888760 0.000000
-7.393318 -7.104795 -0.415670 1537 0.458372 0.888760 0.000000
-7.393295 -7.104773 -0.412510 1535 0.458372 0.888760 0.000000
-7.393226 -7.104714 -0.409361 1547 0.458372 0.888760 0.000000
-7.393260 -7.104750 -0.406201 1547 0.458372 0.888760 0.000000
-7.393140 -7.104625 -0.403042 1537 0.458372 0.888760 0.000000
-7.393117 -7.104603 -0.399892 1535 0.458372 0.888760 0.000000
-7.393359 -7.104844 -0.396749 1539 0.458372 0.888760 0.000000
-7.393646 -7.105122 -0.393617 1539 0.458372 0.888760 0.000000
-7.393845 -7.105303 -0.390465 1545 0.458372 0.888760 0.000000
-7.393768 -7.105238 -0.387315 1541 0.458372 0.888760 0.000000
-7.393690 -7.105158 -0.384156 1541 0.458372 0.888760 0.000000
-7.393508 -7.104983 -0.380988 1545 0.458372 0.888760 0.000000
-7.393485 -7.104961 -0.377838 1543 0.458372 0.888760 0.000000
-7.393089 -7.104589 -0.374661 1541 0.458372 0.888760 0.000000
-7.392638 -7.104159 -0.371496 1533 0.458372 0.888760 0.000000
-7.392931 -7.104430 -0.368353 1533 0.458372 0.888760 0.000000
-7.393745 -7.105219 -0.365235 1541 0.458372 0.888760 0.000000
-7.393922 -7.105396 -0.362093 1545 0.458372 0.888760 0.000000
-7.393684 -7.105163 -0.358925 1545 0.458372 0.888760 0.000000
-7.393233 -7.104733 -0.355760 1541 0.458372 0.888760 0.000000
-7.392517 -7.104041 -0.352576 1533 0.458372 0.888760 0.000000
-7.392646 -7.104166 -0.349425 1527 0.458372 0.888760 0.000000
-7.393458 -7.104941 -0.346307 1537 0.458372 0.888760 0.000000
-7.393365 -7.104863 -0.343158 1535 0.458372 0.888760 0.000000
-7.393239 -7.104732 -0.339999 1537 0.458372 0.888760 0.000000
-7.393248 -7.104749 -0.336849 1537 0.458372 0.888760 0.000000
-7.392796 -7.104305 -0.333673 1537 0.458372 0.888760 0.000000
-7.392924 -7.104430 -0.330522 1535 0.458372 0.888760 0.000000
-7.393301 -7.104805 -0.327388 1547 0.458372 0.888760 0.000000
-7.392999 -7.104508 -0.324231 1545 0.458372 0.888760 0.000000
-7.392276 -7.103809 -0.321048 1539 0.458372 0.888760 0.000000
-7.393137 -7.104637 -0.317930 1541 0.458372 0.888760 0.000000
-7.393783 -7.105267 -0.314803 1549 0.458372 0.888760 0.000000
-7.393426 -7.104926 -0.311637 1547 0.458372 0.888760 0.000000
-7.394929 -7.102056 -0.703003 1533 0.458372 0.888760 0.000000
-7.395606 -7.102697 -0.699907 1551 0.458372 0.888760 0.000000
-7.395433 -7.102542 -0.696728 1545 0.458372 0.888760 0.000000
-7.395434 -7.102539 -0.693568 1543 0.458372 0.888760 0.000000
-7.395475 -7.102582 -0.690407 1543 0.458372 0.888760 0.000000
-7.395411 -7.102514 -0.687238 1541 0.458372 0.888760 0.000000
-7.395723 -7.102811 -0.684105 1551 0.458372 0.888760 0.000000
-7.395710 -7.102810 -0.680945 1543 0.458372 0.888760 0.000000
-7.395432 -7.102531 -0.677758 1543 0.458372 0.888760 0.000000
-7.395321 -7.102426 -0.674579 1547 0.458372 0.888760 0.000000
-7.394941 -7.102066 -0.671382 1545 0.458372 0.888760 0.000000
-7.395086 -7.102204 -0.668241 1547 0.458372 0.888760 0.000000
-7.395278 -7.102394 -0.665089 1537 0.458372 0.888760 0.000000
-7.395104 -7.102224 -0.661910 1553 0.458372 0.888760 0.000000
-7.394875 -7.102012 -0.658732 1545 0.458372 0.888760 0.000000
-7.394756 -7.101887 -0.655563 1543 0.458372 0.888760 0.000000
-7.395108 -7.102230 -0.652430 1539 0.458372 0.888760 0.000000
-7.394934 -7.102060 -0.649252 1539 0.458372 0.888760 0.000000
-7.394705 -7.101847 -0.646074 1545 0.458372 0.888760 0.000000
-7.394841 -7.101979 -0.642922 1541 0.458372 0.888760 0.000000
-7.395192 -7.102307 -0.639799 1549 0.458372 0.888760 0.000000
-7.395703 -7.102803 -0.636674 1553 0.458372 0.888760 0.000000
-7.395419 -7.102532 -0.633497 1553 0.458372 0.888760 0.000000
-7.394711 -7.101845 -0.630273 1547 0.458372 0.888760 0.000000
-7.394847 -7.101977 -0.627122 1537 0.458372 0.888760 0.000000
-7.395191 -7.102314 -0.623999 1533 0.458372 0.888760 0.000000
-7.395168 -7.102291 -0.620829 1541 0.458372 0.888760 0.000000
-7.395034 -7.102168 -0.617660 1537 0.458372 0.888760 0.000000
-7.395172 -7.102300 -0.614509 1541 0.458372 0.888760 0.000000
-7.395085 -7.102213 -0.611349 1543 0.458372 0.888760 0.000000
-7.394800 -7.101943 -0.608162 1537 0.458372 0.888760 0.000000
-7.394777 -7.101921 -0.605002 1539 0.458372 0.888760 0.000000
-7.395065 -7.102200 -0.601869 1541 0.458372 0.888760 0.000000
-7.395353 -7.102478 -0.598726 1531 0.458372 0.888760 0.000000
-7.395370 -7.102487 -0.595576 1525 0.458372 0.888760 0.000000
-7.395133 -7.102268 -0.592398 1527 0.458372 0.888760 0.000000
-7.395054 -7.102188 -0.589229 1529 0.458372 0.888760 0.000000
-7.395119 -7.102249 -0.586078 1535 0.458372 0.888760 0.000000
-7.395358 -7.102476 -0.582936 1535 0.458372 0.888760 0.000000
-7.395527 -7.102647 -0.579794 1535 0.458372 0.888760 0.000000
-7.395657 -7.102772 -0.576643 1533 0.458372 0.888760 0.000000
-7.395680 -7.102787 -0.573483 1539 0.458372 0.888760 0.000000
-7.395427 -7.102541 -0.570305 1543 0.458372 0.888760 0.000000
-7.395183 -7.102316 -0.567127 1549 0.458372 0.888760 0.000000
-7.395096 -7.102230 -0.563968 1549 0.458372 0.888760 0.000000
-7.395535 -7.102656 -0.560844 1531 0.458372 0.888760 0.000000
-7.395911 -7.103017 -0.557710 1533 0.458372 0.888760 0.000000
-7.395935 -7.103033 -0.554550 1539 0.458372 0.888760 0.000000
-7.395524 -7.102648 -0.551364 1543 0.458372 0.888760 0.000000
-7.395111 -7.102249 -0.548178 1537 0.458372 0.888760 0.000000
-7.395335 -7.102464 -0.545035 1545 0.458372 0.888760 0.000000
-7.395343 -7.102467 -0.541885 1543 0.458372 0.888760 0.000000
-7.394995 -7.102132 -0.538698 1537 0.458372 0.888760 0.000000
-7.395108 -7.102245 -0.535547 1543 0.458372 0.888760 0.000000
-7.395372 -7.102504 -0.532415 1553 0.458372 0.888760 0.000000
-7.395230 -7.102361 -0.529246 1547 0.458372 0.888760 0.000000
-7.395661 -7.102779 -0.526122 1539 0.458372 0.888760 0.000000
-7.395615 -7.102739 -0.522962 1543 0.458372 0.888760 0.000000
-7.395145 -7.102282 -0.519767 1531 0.458372 0.888760 0.000000
-7.395522 -7.102643 -0.516643 1541 0.458372 0.888760 0.000000
-7.395897 -7.103005 -0.513509 1549 0.458372 0.888760 0.000000
-7.395581 -7.102709 -0.510332 1553 0.458372 0.888760 0.000000
-7.395374 -7.102501 -0.507164 1545 0.458372 0.888760 0.000000
-7.395589 -7.102709 -0.504022 1553 0.458372 0.888760 0.000000
-7.395743 -7.102867 -0.500870 1551 0.458372 0.888760 0.000000
-7.395744 -7.102864 -0.497720 1541 0.458372 0.888760 0.000000
-7.395642 -7.102766 -0.494551 1539 0.458372 0.888760 0.000000
-7.395229 -7.102366 -0.491375 1537 0.458372 0.888760 0.000000
-7.395486 -7.102620 -0.488232 1539 0.458372 0.888760 0.000000
-7.395854 -7.102975 -0.485099 1543 0.458372 0.888760 0.000000
-7.395639 -7.102761 -0.481931 1537 0.458372 0.888760 0.000000
-7.395640 -7.102772 -0.478771 1535 0.458372 0.888760 0.000000
-7.395427 -7.102558 -0.475603 1531 0.458372 0.888760 0.000000
-7.395262 -7.102409 -0.472444 1529 0.458372 0.888760 0.000000
-7.395676 -7.102802 -0.469310 1537 0.458372 0.888760 0.000000
-7.396092 -7.103208 -0.466176 1545 0.458372 0.888760 0.000000
-7.395988 -7.103096 -0.463017 1539 0.458372 0.888760 0.000000
-7.395720 -7.102838 -0.459850 1545 0.458372 0.888760 0.000000
-7.395498 -7.102632 -0.456682 1535 0.458372 0.888760 0.000000
-7.395650 -7.102775 -0.453530 1535 0.458372 0.888760 0.000000
-7.396010 -7.103123 -0.450397 1543 0.458372 0.888760 0.000000
-7.395893 -7.103013 -0.447238 1541 0.458372 0.888760 0.000000
-7.395297 -7.102442 -0.444053 1527 0.458372 0.888760 0.000000
-7.395449 -7.102586 -0.440902 1535 0.458372 0.888760 0.000000
-7.395912 -7.103030 -0.437777 1543 0.458372 0.888760 0.000000
-7.396001 -7.103124 -0.434626 1531 0.458372 0.888760 0.000000
-7.395986 -7.103108 -0.431466 1537 0.458372 0.888760 0.000000
-7.395868 -7.102997 -0.428307 1547 0.458372 0.888760 0.000000
-7.395592 -7.102733 -0.425140 1535 0.458372 0.888760 0.000000
-7.395688 -7.102819 -0.421989 1535 0.458372 0.888760 0.000000
-7.395833 -7.102957 -0.418848 1527 0.458372 0.888760 0.000000
-7.395388 -7.102533 -0.415672 1527 0.458372 0.888760 0.000000
-7.395844 -7.102971 -0.412537 1541 0.458372 0.888760 0.000000
-7.396616 -7.103715 -0.409430 1539 0.458372 0.888760 0.000000
-7.396499 -7.103604 -0.406261 1541 0.458372 0.888760 0.000000
