505
-14.812304 -13.806867 -0.672515 925 -0.028470 0.999595 0.000000
-14.811916 -13.806499 -0.666278 913 -0.028470 0.999595 0.000000
-14.811913 -13.806501 -0.660048 911 -0.028470 0.999595 0.000000
-14.812482 -13.807035 -0.653852 909 -0.028470 0.999595 0.000000
-14.812516 -13.807068 -0.647622 931 -0.028470 0.999595 0.000000
-14.812025 -13.806605 -0.641377 925 -0.028470 0.999595 0.000000
-14.812760 -13.807284 -0.635190 913 -0.028470 0.999595 0.000000
-14.813593 -13.808065 -0.629001 919 -0.028470 0.999595 0.000000
-14.812233 -13.806798 -0.622714 925 -0.028470 0.999595 0.000000
-14.811193 -13.805838 -0.616444 899 -0.028470 0.999595 0.000000
-14.812240 -13.806813 -0.610264 921 -0.028470 0.999595 0.000000
-14.812545 -13.807087 -0.604051 923 -0.028470 0.999595 0.000000
-14.811822 -13.806416 -0.597797 923 -0.028470 0.999595 0.000000
-14.811524 -13.806146 -0.591570 943 -0.028470 0.999595 0.000000
-14.811232 -13.805867 -0.585333 913 -0.028470 0.999595 0.000000
-14.810884 -13.805545 -0.579096 921 -0.028470 0.999595 0.000000
-14.811325 -13.805964 -0.572891 925 -0.028470 0.999595 0.000000
-14.811137 -13.805781 -0.566663 913 -0.028470 0.999595 0.000000
-14.810288 -13.804996 -0.560401 917 -0.028470 0.999595 0.000000
-14.810585 -13.805263 -0.554188 907 -0.028470 0.999595 0.000000
-14.810174 -13.804891 -0.547952 915 -0.028470 0.999595 0.000000
-14.810344 -13.805043 -0.541740 923 -0.028470 0.999595 0.000000
-14.811224 -13.805862 -0.535551 939 -0.028470 0.999595 0.000000
-14.811068 -13.805717 -0.529323 927 -0.028470 0.999595 0.000000
-14.811190 -13.805833 -0.523102 915 -0.028470 0.999595 0.000000
-14.811255 -13.805890 -0.516881 917 -0.028470 0.999595 0.000000
-14.811420 -13.806051 -0.510669 935 -0.028470 0.999595 0.000000
-14.811964 -13.806553 -0.504464 947 -0.028470 0.999595 0.000000
-14.810740 -13.805419 -0.498195 933 -0.028470 0.999595 0.000000
-14.810465 -13.805166 -0.491968 923 -0.028470 0.999595 0.000000
-14.810955 -13.805625 -0.485763 921 -0.028470 0.999595 0.000000
-14.810686 -13.805365 -0.479535 921 -0.028470 0.999595 0.000000
-14.811112 -13.805773 -0.473321 921 -0.028470 0.999595 0.000000
-14.810796 -13.805474 -0.467094 933 -0.028470 0.999595 0.000000
-14.809611 -13.804373 -0.460835 931 -0.028470 0.999595 0.000000
-14.809503 -13.804267 -0.454616 923 -0.028470 0.999595 0.000000
-14.810190 -13.804907 -0.448409 927 -0.028470 0.999595 0.000000
-14.810776 -13.805454 -0.442213 925 -0.028470 0.999595 0.000000
-14.811408 -13.806038 -0.436007 927 -0.028470 0.999595 0.000000
-14.811190 -13.805843 -0.429779 921 -0.028470 0.999595 0.000000
-14.810905 -13.805571 -0.423552 929 -0.028470 0.999595 0.000000
-14.809608 -13.804367 -0.417294 907 -0.028470 0.999595 0.000000
-14.809214 -13.804008 -0.411067 913 -0.028470 0.999595 0.000000
-14.809422 -13.804192 -0.404845 911 -0.028470 0.999595 0.000000
-14.809506 -13.804276 -0.398634 917 -0.028470 0.999595 0.000000
-14.809764 -13.804510 -0.392422 923 -0.028470 0.999595 0.000000
-14.810486 -13.805191 -0.386215 929 -0.028470 0.999595 0.000000
-14.809397 -13.804179 -0.379965 927 -0.028470 0.999595 0.000000
-14.808889 -13.803703 -0.373739 925 -0.028470 0.999595 0.000000
-14.809665 -13.804427 -0.367542 917 -0.028470 0.999595 0.000000
-14.810338 -13.805057 -0.361336 929 -0.028470 0.999595 0.000000
-14.809934 -13.804676 -0.355109 925 -0.028470 0.999595 0.000000
-14.809164 -13.803955 -0.348866 925 -0.028470 0.999595 0.000000
-14.809669 -13.804424 -0.342661 923 -0.028470 0.999595 0.000000
-14.810008 -13.804750 -0.336448 911 -0.028470 0.999595 0.000000
-14.809070 -13.803869 -0.330207 897 -0.028470 0.999595 0.000000
-14.809540 -13.804317 -0.317782 901 -0.028470 0.999595 0.000000
-14.810029 -13.804773 -0.311577 901 -0.028470 0.999595 0.000000
-14.809568 -13.804337 -0.305342 905 -0.028470 0.999595 0.000000
-14.821499 -13.806649 -0.672742 915 -0.028470 0.999595 0.000000
-14.822610 -13.807691 -0.666562 935 -0.028470 0.999595 0.000000
-14.822978 -13.808027 -0.660348 933 -0.028470 0.999595 0.000000
-14.822695 -13.807767 -0.654111 927 -0.028470 0.999595 0.000000
-14.822245 -13.807351 -0.647865 917 -0.028470 0.999595 0.000000
-14.822279 -13.807384 -0.641634 903 -0.028470 0.999595 0.000000
-14.822265 -13.807364 -0.635414 913 -0.028470 0.999595 0.000000
-14.821496 -13.806657 -0.629151 937 -0.028470 0.999595 0.000000
-14.820996 -13.806188 -0.622906 931 -0.028470 0.999595 0.000000
-14.821405 -13.806569 -0.616692 923 -0.028470 0.999595 0.000000
-14.821384 -13.806544 -0.610462 911 -0.028470 0.999595 0.000000
-14.821570 -13.806724 -0.604250 919 -0.028470 0.999595 0.000000
-14.821550 -13.806699 -0.598020 921 -0.028470 0.999595 0.000000
-14.820669 -13.805876 -0.591758 921 -0.028470 0.999595 0.000000
-14.819620 -13.804908 -0.585488 915 -0.028470 0.999595 0.000000
-14.820874 -13.806075 -0.579316 929 -0.028470 0.999595 0.000000
-14.821705 -13.806843 -0.573128 927 -0.028470 0.999595 0.000000
-14.821246 -13.806419 -0.566882 923 -0.028470 0.999595 0.000000
-14.821210 -13.806382 -0.560652 915 -0.028470 0.999595 0.000000
-14.820742 -13.805952 -0.554407 919 -0.028470 0.999595 0.000000
-14.820977 -13.806169 -0.548194 913 -0.028470 0.999595 0.000000
-14.821627 -13.806779 -0.541998 931 -0.028470 0.999595 0.000000
-14.820527 -13.805745 -0.535728 931 -0.028470 0.999595 0.000000
-14.820117 -13.805359 -0.529492 927 -0.028470 0.999595 0.000000
-14.820542 -13.805767 -0.523278 927 -0.028470 0.999595 0.000000
-14.820880 -13.806078 -0.517064 925 -0.028470 0.999595 0.000000
-14.821210 -13.806384 -0.510851 945 -0.028470 0.999595 0.000000
-14.820727 -13.805942 -0.504616 931 -0.028470 0.999595 0.000000
-14.820419 -13.805651 -0.498378 939 -0.028470 0.999595 0.000000
-14.820955 -13.806146 -0.492173 925 -0.028470 0.999595 0.000000
-14.821979 -13.807103 -0.485983 945 -0.028470 0.999595 0.000000
-14.821877 -13.807003 -0.479754 943 -0.028470 0.999595 0.000000
-14.820743 -13.805953 -0.473495 953 -0.028470 0.999595 0.000000
-14.820586 -13.805808 -0.467266 931 -0.028470 0.999595 0.000000
-14.821012 -13.806202 -0.461062 929 -0.028470 0.999595 0.000000
-14.820264 -13.805498 -0.454809 925 -0.028470 0.999595 0.000000
-14.819391 -13.804695 -0.448557 915 -0.028470 0.999595 0.000000
-14.819443 -13.804741 -0.442336 923 -0.028470 0.999595 0.000000
-14.820011 -13.805274 -0.436131 923 -0.028470 0.999595 0.000000
-14.819584 -13.804875 -0.429894 933 -0.028470 0.999595 0.000000
-14.818932 -13.804261 -0.423661 917 -0.028470 0.999595 0.000000
-14.819510 -13.804801 -0.417455 915 -0.028470 0.999595 0.000000
-14.819544 -13.804833 -0.411234 919 -0.028470 0.999595 0.000000
-14.819475 -13.804771 -0.405005 915 -0.028470 0.999595 0.000000
-14.819942 -13.805211 -0.398800 917 -0.028470 0.999595 0.000000
-14.819489 -13.804779 -0.392565 919 -0.028470 0.999595 0.000000
-14.819366 -13.804674 -0.386336 923 -0.028470 0.999595 0.000000
-14.820252 -13.805499 -0.380137 931 -0.028470 0.999595 0.000000
-14.820128 -13.805379 -0.373908 939 -0.028470 0.999595 0.000000
-14.819407 -13.804708 -0.367675 929 -0.028470 0.999595 0.000000
-14.818899 -13.804234 -0.361439 925 -0.028470 0.999595 0.000000
-14.819140 -13.804456 -0.355227 931 -0.028470 0.999595 0.000000
-14.819279 -13.804585 -0.349005 921 -0.028470 0.999595 0.000000
-14.818597 -13.803958 -0.342772 935 -0.028470 0.999595 0.000000
-14.818680 -13.804028 -0.336551 917 -0.028470 0.999595 0.000000
-14.819393 -13.804703 -0.330344 915 -0.028470 0.999595 0.000000
-14.819626 -13.804917 -0.324132 931 -0.028470 0.999595 0.000000
-14.819487 -13.804787 -0.317903 921 -0.028470 0.999595 0.000000
-14.819498 -13.804800 -0.311682 915 -0.028470 0.999595 0.000000
-14.819150 -13.804465 -0.305456 905 -0.028470 0.999595 0.000000
-14.819368 -13.804682 -0.299233 899 -0.028470 0.999595 0.000000
-14.819394 -13.804694 -0.293013 905 -0.028470 0.999595 0.000000
-14.819613 -13.804899 -0.286801 893 -0.028470 0.999595 0.000000
-14.832383 -13.808159 -0.673043 925 -0.028470 0.999595 0.000000
-14.831622 -13.807457 -0.666780 907 -0.028470 0.999595 0.000000
-14.832088 -13.807896 -0.660566 911 -0.028470 0.999595 0.000000
-14.832345 -13.808131 -0.654353 917 -0.028470 0.999595 0.000000
-14.831520 -13.807365 -0.648081 927 -0.028470 0.999595 0.000000
-14.830392 -13.806307 -0.641801 915 -0.028470 0.999595 0.000000
-14.830746 -13.806644 -0.635588 923 -0.028470 0.999595 0.000000
-14.831259 -13.807121 -0.629383 933 -0.028470 0.999595 0.000000
-14.831347 -13.807197 -0.623162 921 -0.028470 0.999595 0.000000
-14.831120 -13.806983 -0.616924 913 -0.028470 0.999595 0.000000
-14.830980 -13.806864 -0.610685 919 -0.028470 0.999595 0.000000
-14.831875 -13.807695 -0.604497 917 -0.028470 0.999595 0.000000
-14.832173 -13.807961 -0.598274 939 -0.028470 0.999595 0.000000
-14.831067 -13.806935 -0.592004 925 -0.028470 0.999595 0.000000
-14.830242 -13.806170 -0.585741 927 -0.028470 0.999595 0.000000
-14.829830 -13.805782 -0.579505 925 -0.028470 0.999595 0.000000
-14.830447 -13.806355 -0.573299 925 -0.028470 0.999595 0.000000
-14.830362 -13.806280 -0.567070 931 -0.028470 0.999595 0.000000
-14.830375 -13.806295 -0.560840 929 -0.028470 0.999595 0.000000
-14.830400 -13.806320 -0.554609 931 -0.028470 0.999595 0.000000
-14.830779 -13.806678 -0.548406 931 -0.028470 0.999595 0.000000
-14.830853 -13.806741 -0.542175 933 -0.028470 0.999595 0.000000
-14.830394 -13.806317 -0.535929 941 -0.028470 0.999595 0.000000
-14.830190 -13.806123 -0.529701 931 -0.028470 0.999595 0.000000
-14.830247 -13.806172 -0.523470 919 -0.028470 0.999595 0.000000
-14.830317 -13.806245 -0.517249 937 -0.028470 0.999595 0.000000
-14.830223 -13.806150 -0.511020 939 -0.028470 0.999595 0.000000
-14.830011 -13.805962 -0.504792 931 -0.028470 0.999595 0.000000
-14.829694 -13.805663 -0.498554 929 -0.028470 0.999595 0.000000
-14.829642 -13.805615 -0.492325 925 -0.028470 0.999595 0.000000
-14.829749 -13.805717 -0.486104 927 -0.028470 0.999595 0.000000
-14.830342 -13.806271 -0.479898 933 -0.028470 0.999595 0.000000
-14.830239 -13.806169 -0.473669 937 -0.028470 0.999595 0.000000
-14.829375 -13.805371 -0.467407 925 -0.028470 0.999595 0.000000
-14.829275 -13.805271 -0.461188 935 -0.028470 0.999595 0.000000
-14.829645 -13.805621 -0.454974 945 -0.028470 0.999595 0.000000
-14.830334 -13.806263 -0.448767 943 -0.028470 0.999595 0.000000
-14.830009 -13.805959 -0.442530 935 -0.028470 0.999595 0.000000
-14.829732 -13.805693 -0.436293 923 -0.028470 0.999595 0.000000
-14.830151 -13.806081 -0.430079 929 -0.028470 0.999595 0.000000
-14.829118 -13.805125 -0.423828 917 -0.028470 0.999595 0.000000
-14.828626 -13.804662 -0.417593 909 -0.028470 0.999595 0.000000
-14.829092 -13.805101 -0.411378 921 -0.028470 0.999595 0.000000
-14.829183 -13.805192 -0.405157 921 -0.028470 0.999595 0.000000
-14.828732 -13.804774 -0.398921 931 -0.028470 0.999595 0.000000
-14.828342 -13.804407 -0.392685 913 -0.028470 0.999595 0.000000
-14.828592 -13.804636 -0.386472 909 -0.028470 0.999595 0.000000
-14.828899 -13.804923 -0.380249 923 -0.028470 0.999595 0.000000
-14.829142 -13.805145 -0.374037 927 -0.028470 0.999595 0.000000
-14.829063 -13.805077 -0.367807 939 -0.028470 0.999595 0.000000
-14.829355 -13.805351 -0.361594 939 -0.028470 0.999595 0.000000
-14.829493 -13.805477 -0.355373 915 -0.028470 0.999595 0.000000
-14.829410 -13.805405 -0.349144 915 -0.028470 0.999595 0.000000
-14.829227 -13.805226 -0.342915 917 -0.028470 0.999595 0.000000
-14.828657 -13.804702 -0.336680 921 -0.028470 0.999595 0.000000
-14.828461 -13.804512 -0.330452 911 -0.028470 0.999595 0.000000
-14.829229 -13.805229 -0.324245 915 -0.028470 0.999595 0.000000
-14.829567 -13.805555 -0.318031 907 -0.028470 0.999595 0.000000
-14.828358 -13.804420 -0.311783 899 -0.028470 0.999595 0.000000
-14.828099 -13.804181 -0.305555 905 -0.028470 0.999595 0.000000
-14.827959 -13.804049 -0.299326 903 -0.028470 0.999595 0.000000
-14.827381 -13.803518 -0.293091 895 -0.028470 0.999595 0.000000
-14.827559 -13.803677 -0.286870 893 -0.028470 0.999595 0.000000
-14.843080 -13.809327 -0.673327 917 -0.028470 0.999595 0.000000
-14.843172 -13.809419 -0.667106 921 -0.028470 0.999595 0.000000
-14.842092 -13.808412 -0.660816 931 -0.028470 0.999595 0.000000
-14.841919 -13.808253 -0.654578 927 -0.028470 0.999595 0.000000
-14.842710 -13.808990 -0.648380 915 -0.028470 0.999595 0.000000
-14.842856 -13.809123 -0.642159 913 -0.028470 0.999595 0.000000
-14.842358 -13.808655 -0.635903 923 -0.028470 0.999595 0.000000
-14.842449 -13.808746 -0.629672 933 -0.028470 0.999595 0.000000
-14.842905 -13.809164 -0.623468 929 -0.028470 0.999595 0.000000
-14.842726 -13.809001 -0.617229 925 -0.028470 0.999595 0.000000
-14.841789 -13.808134 -0.610958 913 -0.028470 0.999595 0.000000
-14.841505 -13.807862 -0.604710 921 -0.028470 0.999595 0.000000
-14.841476 -13.807844 -0.598480 941 -0.028470 0.999595 0.000000
-14.840810 -13.807217 -0.592227 935 -0.028470 0.999595 0.000000
-14.841313 -13.807687 -0.586012 923 -0.028470 0.999595 0.000000
-14.841923 -13.808252 -0.579806 925 -0.028470 0.999595 0.000000
-14.841950 -13.808279 -0.573575 923 -0.028470 0.999595 0.000000
-14.842024 -13.808342 -0.567345 937 -0.028470 0.999595 0.000000
-14.841885 -13.808225 -0.561116 939 -0.028470 0.999595 0.000000
-14.842061 -13.808383 -0.554894 931 -0.028470 0.999595 0.000000
-14.842608 -13.808898 -0.548679 945 -0.028470 0.999595 0.000000
-14.842092 -13.808417 -0.542433 941 -0.028470 0.999595 0.000000
-14.841361 -13.807726 -0.536170 931 -0.028470 0.999595 0.000000
-14.841483 -13.807840 -0.529949 929 -0.028470 0.999595 0.000000
-14.841334 -13.807703 -0.523710 941 -0.028470 0.999595 0.000000
-14.841013 -13.807413 -0.517473 939 -0.028470 0.999595 0.000000
-14.840967 -13.807369 -0.511243 927 -0.028470 0.999595 0.000000
-14.841249 -13.807624 -0.505020 939 -0.028470 0.999595 0.000000
-14.840775 -13.807187 -0.498775 939 -0.028470 0.999595 0.000000
-14.839862 -13.806339 -0.492523 937 -0.028470 0.999595 0.000000
-14.840454 -13.806892 -0.486307 933 -0.028470 0.999595 0.000000
-14.841260 -13.807640 -0.480110 931 -0.028470 0.999595 0.000000
-14.840992 -13.807394 -0.473872 923 -0.028470 0.999595 0.000000
-14.840349 -13.806787 -0.467618 933 -0.028470 0.999595 0.000000
-14.840029 -13.806497 -0.461381 929 -0.028470 0.999595 0.000000
-14.839856 -13.806339 -0.455152 925 -0.028470 0.999595 0.000000
-14.839315 -13.805826 -0.448907 925 -0.028470 0.999595 0.000000
-14.839899 -13.806372 -0.442701 929 -0.028470 0.999595 0.000000
-14.840532 -13.806970 -0.436485 933 -0.028470 0.999595 0.000000
-14.840418 -13.806857 -0.430256 931 -0.028470 0.999595 0.000000
-14.840357 -13.806801 -0.424027 937 -0.028470 0.999595 0.000000
-14.840286 -13.806738 -0.417797 911 -0.028470 0.999595 0.000000
-14.839636 -13.806124 -0.411553 909 -0.028470 0.999595 0.000000
-14.839829 -13.806308 -0.405331 921 -0.028470 0.999595 0.000000
-14.840026 -13.806494 -0.399109 923 -0.028470 0.999595 0.000000
-14.839472 -13.805983 -0.392864 923 -0.028470 0.999595 0.000000
-14.839992 -13.806464 -0.386649 913 -0.028470 0.999595 0.000000
-14.840400 -13.806846 -0.380435 929 -0.028470 0.999595 0.000000
-14.839733 -13.806218 -0.374191 933 -0.028470 0.999595 0.000000
-14.838853 -13.805408 -0.367950 945 -0.028470 0.999595 0.000000
-14.837651 -13.804280 -0.361691 921 -0.028470 0.999595 0.000000
-14.839123 -13.805657 -0.355497 929 -0.028470 0.999595 0.000000
-14.840001 -13.806477 -0.349298 931 -0.028470 0.999595 0.000000
-14.839438 -13.805944 -0.343053 921 -0.028470 0.999595 0.000000
-14.839139 -13.805674 -0.336826 925 -0.028470 0.999595 0.000000
-14.839221 -13.805743 -0.330595 927 -0.028470 0.999595 0.000000
-14.838539 -13.805104 -0.324361 905 -0.028470 0.999595 0.000000
-14.838447 -13.805023 -0.318132 907 -0.028470 0.999595 0.000000
-14.839111 -13.805646 -0.311916 917 -0.028470 0.999595 0.000000
-14.838276 -13.804859 -0.305673 911 -0.028470 0.999595 0.000000
-14.838871 -13.805427 -0.299458 909 -0.028470 0.999595 0.000000
-14.838675 -13.805237 -0.293229 907 -0.028470 0.999595 0.000000
-14.837132 -13.803799 -0.286974 909 -0.028470 0.999595 0.000000
-14.837565 -13.804213 -0.280759 907 -0.028470 0.999595 0.000000
-14.852251 -13.809233 -0.673554 907 -0.028470 0.999595 0.000000
-14.852676 -13.809626 -0.667340 907 -0.028470 0.999595 0.000000
-14.852288 -13.809258 -0.661084 907 -0.028470 0.999595 0.000000
-14.851742 -13.808753 -0.654829 917 -0.028470 0.999595 0.000000
-14.852311 -13.809286 -0.648613 913 -0.028470 0.999595 0.000000
-14.851924 -13.808920 -0.642367 915 -0.028470 0.999595 0.000000
-14.850890 -13.807963 -0.636086 915 -0.028470 0.999595 0.000000
-14.850018 -13.807148 -0.629814 901 -0.028470 0.999595 0.000000
-14.850364 -13.807478 -0.623601 899 -0.028470 0.999595 0.000000
-14.851314 -13.808353 -0.617402 917 -0.028470 0.999595 0.000000
-14.851826 -13.808829 -0.611197 915 -0.028470 0.999595 0.000000
-14.851423 -13.808463 -0.604940 907 -0.028470 0.999595 0.000000
-14.850654 -13.807741 -0.598678 911 -0.028470 0.999595 0.000000
-14.850195 -13.807319 -0.592432 913 -0.028470 0.999595 0.000000
-14.850539 -13.807635 -0.586208 913 -0.028470 0.999595 0.000000
-14.851213 -13.808265 -0.580002 921 -0.028470 0.999595 0.000000
-14.851661 -13.808677 -0.573788 913 -0.028470 0.999595 0.000000
-14.851314 -13.808354 -0.567541 921 -0.028470 0.999595 0.000000
-14.850799 -13.807875 -0.561285 925 -0.028470 0.999595 0.000000
-14.851456 -13.808491 -0.555079 913 -0.028470 0.999595 0.000000
-14.851530 -13.808555 -0.548848 919 -0.028470 0.999595 0.000000
-14.851326 -13.808372 -0.542610 927 -0.028470 0.999595 0.000000
-14.851289 -13.808334 -0.536380 933 -0.028470 0.999595 0.000000
-14.850710 -13.807790 -0.530125 935 -0.028470 0.999595 0.000000
-14.850720 -13.807803 -0.523895 927 -0.028470 0.999595 0.000000
-14.851161 -13.808209 -0.517681 927 -0.028470 0.999595 0.000000
-14.850368 -13.807483 -0.511418 933 -0.028470 0.999595 0.000000
-14.849837 -13.806990 -0.505173 933 -0.028470 0.999595 0.000000
-14.850326 -13.807433 -0.498958 933 -0.028470 0.999595 0.000000
-14.849845 -13.806992 -0.492713 917 -0.028470 0.999595 0.000000
-14.850062 -13.807196 -0.486490 919 -0.028470 0.999595 0.000000
-14.850765 -13.807849 -0.480274 933 -0.028470 0.999595 0.000000
-14.849956 -13.807095 -0.474021 917 -0.028470 0.999595 0.000000
-14.849369 -13.806545 -0.467777 915 -0.028470 0.999595 0.000000
-14.850002 -13.807142 -0.461560 921 -0.028470 0.999595 0.000000
-14.851025 -13.808087 -0.455361 923 -0.028470 0.999595 0.000000
-14.850327 -13.807435 -0.449107 927 -0.028470 0.999595 0.000000
-14.849245 -13.806428 -0.442847 921 -0.028470 0.999595 0.000000
-14.849343 -13.806524 -0.436626 913 -0.028470 0.999595 0.000000
-14.849762 -13.806912 -0.430402 919 -0.028470 0.999595 0.000000
-14.850928 -13.807998 -0.424211 925 -0.028470 0.999595 0.000000
-14.851072 -13.808130 -0.417979 921 -0.028470 0.999595 0.000000
-14.849937 -13.807080 -0.411720 927 -0.028470 0.999595 0.000000
-14.849598 -13.806764 -0.405483 917 -0.028470 0.999595 0.000000
-14.849531 -13.806703 -0.399253 911 -0.028470 0.999595 0.000000
-14.849190 -13.806385 -0.393016 919 -0.028470 0.999595 0.000000
-14.848850 -13.806069 -0.386779 919 -0.028470 0.999595 0.000000
-14.849099 -13.806298 -0.380557 925 -0.028470 0.999595 0.000000
-14.850305 -13.807414 -0.374356 939 -0.028470 0.999595 0.000000
-14.850016 -13.807151 -0.368118 941 -0.028470 0.999595 0.000000
-14.848919 -13.806131 -0.361858 919 -0.028470 0.999595 0.000000
-14.848785 -13.806005 -0.355629 917 -0.028470 0.999595 0.000000
-14.848915 -13.806126 -0.349408 911 -0.028470 0.999595 0.000000
-14.850384 -13.807489 -0.343214 931 -0.028470 0.999595 0.000000
-14.850300 -13.807415 -0.336985 919 -0.028470 0.999595 0.000000
-14.849579 -13.806745 -0.330731 919 -0.028470 0.999595 0.000000
-14.849812 -13.806960 -0.324509 909 -0.028470 0.999595 0.000000
-14.849074 -13.806277 -0.318266 905 -0.028470 0.999595 0.000000
-14.848671 -13.805899 -0.312029 891 -0.028470 0.999595 0.000000
-14.848896 -13.806108 -0.305807 895 -0.028470 0.999595 0.000000
-14.849019 -13.806223 -0.299586 899 -0.028470 0.999595 0.000000
-14.849357 -13.806534 -0.293363 901 -0.028470 0.999595 0.000000
-14.848986 -13.806192 -0.287126 909 -0.028470 0.999595 0.000000
-14.847610 -13.804914 -0.280869 901 -0.028470 0.999595 0.000000
-14.861217 -13.809268 -0.673772 911 -0.028470 0.999595 0.000000
-14.861523 -13.809554 -0.667549 921 -0.028470 0.999595 0.000000
-14.861246 -13.809288 -0.661301 901 -0.028470 0.999595 0.000000
-14.860700 -13.808783 -0.655046 915 -0.028470 0.999595 0.000000
-14.860631 -13.808720 -0.648807 911 -0.028470 0.999595 0.000000
-14.860826 -13.808907 -0.642575 917 -0.028470 0.999595 0.000000
-14.860925 -13.808989 -0.636344 901 -0.028470 0.999595 0.000000
-14.860418 -13.808527 -0.630088 907 -0.028470 0.999595 0.000000
-14.860286 -13.808402 -0.623850 905 -0.028470 0.999595 0.000000
-14.859954 -13.808092 -0.617592 917 -0.028470 0.999595 0.000000
-14.859447 -13.807616 -0.611337 909 -0.028470 0.999595 0.000000
-14.860923 -13.808987 -0.605163 919 -0.028470 0.999595 0.000000
-14.861381 -13.809419 -0.598949 917 -0.028470 0.999595 0.000000
-14.860659 -13.808747 -0.592685 919 -0.028470 0.999595 0.000000
-14.860192 -13.808319 -0.586429 907 -0.028470 0.999595 0.000000
-14.859635 -13.807793 -0.580175 909 -0.028470 0.999595 0.000000
-14.859120 -13.807311 -0.573919 929 -0.028470 0.999595 0.000000
-14.859731 -13.807890 -0.567703 925 -0.028470 0.999595 0.000000
-14.860928 -13.809000 -0.561522 939 -0.028470 0.999595 0.000000
-14.860414 -13.808518 -0.555267 935 -0.028470 0.999595 0.000000
-14.859737 -13.807886 -0.549003 925 -0.028470 0.999595 0.000000
-14.860117 -13.808243 -0.542789 949 -0.028470 0.999595 0.000000
-14.859610 -13.807768 -0.536534 947 -0.028470 0.999595 0.000000
-14.859661 -13.807828 -0.530303 937 -0.028470 0.999595 0.000000
-14.860323 -13.808434 -0.524087 935 -0.028470 0.999595 0.000000
-14.860223 -13.808348 -0.517858 931 -0.028470 0.999595 0.000000
-14.859373 -13.807549 -0.511595 935 -0.028470 0.999595 0.000000
-14.858261 -13.806518 -0.505316 923 -0.028470 0.999595 0.000000
-14.858257 -13.806519 -0.499086 917 -0.028470 0.999595 0.000000
-14.859025 -13.807222 -0.492878 913 -0.028470 0.999595 0.000000
-14.859352 -13.807528 -0.486655 921 -0.028470 0.999595 0.000000
-14.858647 -13.806883 -0.480401 919 -0.028470 0.999595 0.000000
-14.858275 -13.806528 -0.474155 909 -0.028470 0.999595 0.000000
-14.858598 -13.806828 -0.467932 917 -0.028470 0.999595 0.000000
-14.858697 -13.806924 -0.461711 905 -0.028470 0.999595 0.000000
-14.859336 -13.807514 -0.455494 903 -0.028470 0.999595 0.000000
-14.858806 -13.807021 -0.449249 919 -0.028470 0.999595 0.000000
-14.859112 -13.807307 -0.443026 917 -0.028470 0.999595 0.000000
-14.859856 -13.808005 -0.436809 923 -0.028470 0.999595 0.000000
-14.858824 -13.807050 -0.430549 919 -0.028470 0.999595 0.000000
-14.857903 -13.806182 -0.424297 915 -0.028470 0.999595 0.000000
-14.857627 -13.805929 -0.418050 903 -0.028470 0.999595 0.000000
-14.858298 -13.806558 -0.411843 889 -0.028470 0.999595 0.000000
-14.858770 -13.806990 -0.405619 913 -0.028470 0.999595 0.000000
-14.859021 -13.807232 -0.399396 915 -0.028470 0.999595 0.000000
-14.859327 -13.807518 -0.393173 917 -0.028470 0.999595 0.000000
-14.858932 -13.807144 -0.386937 937 -0.028470 0.999595 0.000000
-14.858807 -13.807025 -0.380698 921 -0.028470 0.999595 0.000000
-14.858731 -13.806957 -0.374468 931 -0.028470 0.999595 0.000000
-14.857794 -13.806089 -0.368207 925 -0.028470 0.999595 0.000000
-14.856537 -13.804917 -0.361948 919 -0.028470 0.999595 0.000000
-14.856300 -13.804696 -0.355710 917 -0.028470 0.999595 0.000000
-14.856958 -13.805313 -0.349504 931 -0.028470 0.999595 0.000000
-14.856826 -13.805187 -0.343265 921 -0.028470 0.999595 0.000000
-14.856367 -13.804764 -0.337029 915 -0.028470 0.999595 0.000000
-14.856448 -13.804833 -0.330798 899 -0.028470 0.999595 0.000000
-14.857424 -13.805741 -0.324589 901 -0.028470 0.999595 0.000000
-14.857396 -13.805724 -0.318359 899 -0.028470 0.999595 0.000000
-14.856984 -13.805338 -0.312123 897 -0.028470 0.999595 0.000000
-14.857313 -13.805643 -0.305900 903 -0.028470 0.999595 0.000000
-14.857811 -13.806108 -0.299675 903 -0.028470 0.999595 0.000000
-14.857184 -13.805526 -0.293441 893 -0.028470 0.999595 0.000000
-14.856933 -13.805292 -0.287203 893 -0.028470 0.999595 0.000000
-14.856775 -13.805146 -0.280974 893 -0.028470 0.999595 0.000000
-14.870687 -13.809602 -0.674016 903 -0.028470 0.999595 0.000000
-14.871528 -13.810390 -0.667818 903 -0.028470 0.999595 0.000000
-14.871148 -13.810029 -0.661561 901 -0.028470 0.999595 0.000000
-14.870753 -13.809669 -0.655304 905 -0.028470 0.999595 0.000000
-14.870636 -13.809556 -0.649055 897 -0.028470 0.999595 0.000000
-14.870136 -13.809086 -0.642800 897 -0.028470 0.999595 0.000000
-14.869902 -13.808880 -0.636552 897 -0.028470 0.999595 0.000000
-14.869458 -13.808469 -0.630296 893 -0.028470 0.999595 0.000000
-14.869285 -13.808297 -0.624048 903 -0.028470 0.999595 0.000000
-14.869846 -13.808825 -0.617832 893 -0.028470 0.999595 0.000000
-14.870471 -13.809403 -0.611626 893 -0.028470 0.999595 0.000000
-14.870553 -13.809486 -0.605385 903 -0.028470 0.999595 0.000000
-14.870413 -13.809354 -0.599146 911 -0.028470 0.999595 0.000000
-14.869802 -13.808785 -0.592882 913 -0.028470 0.999595 0.000000
-14.869134 -13.808157 -0.586618 913 -0.028470 0.999595 0.000000
-14.869536 -13.808533 -0.580394 907 -0.028470 0.999595 0.000000
-14.870137 -13.809092 -0.574188 921 -0.028470 0.999595 0.000000
-14.869414 -13.808420 -0.567915 915 -0.028470 0.999595 0.000000
-14.869650 -13.808637 -0.561693 913 -0.028470 0.999595 0.000000
-14.870090 -13.809057 -0.555468 931 -0.028470 0.999595 0.000000
-14.869416 -13.808423 -0.549215 927 -0.028470 0.999595 0.000000
-14.869275 -13.808290 -0.542966 935 -0.028470 0.999595 0.000000
-14.869126 -13.808151 -0.536727 917 -0.028470 0.999595 0.000000
-14.869130 -13.808161 -0.530487 909 -0.028470 0.999595 0.000000
-14.869363 -13.808376 -0.524264 913 -0.028470 0.999595 0.000000
-14.869104 -13.808137 -0.518017 919 -0.028470 0.999595 0.000000
-14.868310 -13.807397 -0.511754 915 -0.028470 0.999595 0.000000
-14.868529 -13.807600 -0.505532 907 -0.028470 0.999595 0.000000
-14.868697 -13.807752 -0.499300 909 -0.028470 0.999595 0.000000
-14.868758 -13.807818 -0.493069 911 -0.028470 0.999595 0.000000
-14.868656 -13.807716 -0.486830 909 -0.028470 0.999595 0.000000
-14.867750 -13.806874 -0.480559 905 -0.028470 0.999595 0.000000
-14.868279 -13.807364 -0.474343 911 -0.028470 0.999595 0.000000
-14.869184 -13.808215 -0.468135 909 -0.028470 0.999595 0.000000
-14.868701 -13.807758 -0.461889 917 -0.028470 0.999595 0.000000
-14.867574 -13.806714 -0.455620 905 -0.028470 0.999595 0.000000
-14.867622 -13.806759 -0.449389 915 -0.028470 0.999595 0.000000
-14.868526 -13.807596 -0.443180 921 -0.028470 0.999595 0.000000
-14.869102 -13.808137 -0.436965 911 -0.028470 0.999595 0.000000
-14.868182 -13.807282 -0.430703 903 -0.028470 0.999595 0.000000
-14.868176 -13.807270 -0.424473 895 -0.028470 0.999595 0.000000
-14.868378 -13.807461 -0.418241 889 -0.028470 0.999595 0.000000
-14.867984 -13.807101 -0.411995 891 -0.028470 0.999595 0.000000
-14.868241 -13.807337 -0.405772 893 -0.028470 0.999595 0.000000
-14.868061 -13.807174 -0.399534 905 -0.028470 0.999595 0.000000
-14.867299 -13.806458 -0.393281 903 -0.028470 0.999595 0.000000
-14.867598 -13.806738 -0.387048 903 -0.028470 0.999595 0.000000
-14.868706 -13.807764 -0.380847 915 -0.028470 0.999595 0.000000
-14.867555 -13.806701 -0.374588 907 -0.028470 0.999595 0.000000
-14.866785 -13.805980 -0.368335 903 -0.028470 0.999595 0.000000
-14.867076 -13.806254 -0.362102 909 -0.028470 0.999595 0.000000
-14.866575 -13.805785 -0.355867 903 -0.028470 0.999595 0.000000
-14.867670 -13.806799 -0.349656 923 -0.028470 0.999595 0.000000
-14.867745 -13.806878 -0.343425 907 -0.028470 0.999595 0.000000
-14.867765 -13.806898 -0.337195 911 -0.028470 0.999595 0.000000
-14.867138 -13.806315 -0.330951 907 -0.028470 0.999595 0.000000
-14.865931 -13.805196 -0.324692 887 -0.028470 0.999595 0.000000
-14.866643 -13.805856 -0.318475 895 -0.028470 0.999595 0.000000
-14.867895 -13.807009 -0.312263 901 -0.028470 0.999595 0.000000
-14.867643 -13.806775 -0.306025 901 -0.028470 0.999595 0.000000
-14.866426 -13.805647 -0.299767 891 -0.028470 0.999595 0.000000
-14.866336 -13.805567 -0.293537 877 -0.028470 0.999595 0.000000
-14.867413 -13.806569 -0.287327 875 -0.028470 0.999595 0.000000
-14.867965 -13.807076 -0.281102 887 -0.028470 0.999595 0.000000
-14.880961 -13.810677 -0.674292 907 -0.028470 0.999595 0.000000
-14.879888 -13.809675 -0.668002 903 -0.028470 0.999595 0.000000
-14.880672 -13.810406 -0.661794 903 -0.028470 0.999595 0.000000
-14.879265 -13.809102 -0.655497 891 -0.028470 0.999595 0.000000
-14.878718 -13.808596 -0.649232 889 -0.028470 0.999595 0.000000
-14.878651 -13.808534 -0.642983 887 -0.028470 0.999595 0.000000
-14.877826 -13.807768 -0.636710 875 -0.028470 0.999595 0.000000
-14.879419 -13.809244 -0.630535 893 -0.028470 0.999595 0.000000
-14.879772 -13.809568 -0.624312 903 -0.028470 0.999595 0.000000
-14.879267 -13.809108 -0.618056 889 -0.028470 0.999595 0.000000
-14.879356 -13.809183 -0.611815 889 -0.028470 0.999595 0.000000
-14.879496 -13.809311 -0.605584 891 -0.028470 0.999595 0.000000
-14.879562 -13.809383 -0.599343 889 -0.028470 0.999595 0.000000
-14.879597 -13.809415 -0.593103 897 -0.028470 0.999595 0.000000
-14.879671 -13.809480 -0.586872 893 -0.028470 0.999595 0.000000
-14.879275 -13.809107 -0.580615 905 -0.028470 0.999595 0.000000
-14.879512 -13.809337 -0.574383 905 -0.028470 0.999595 0.000000
-14.879107 -13.808956 -0.568127 911 -0.028470 0.999595 0.000000
-14.878321 -13.808221 -0.561864 911 -0.028470 0.999595 0.000000
-14.879414 -13.809237 -0.555663 917 -0.028470 0.999595 0.000000
-14.880390 -13.810143 -0.549464 905 -0.028470 0.999595 0.000000
-14.879389 -13.809214 -0.543183 907 -0.028470 0.999595 0.000000
-14.878325 -13.808233 -0.536913 925 -0.028470 0.999595 0.000000
-14.879091 -13.808936 -0.530696 917 -0.028470 0.999595 0.000000
-14.878945 -13.808811 -0.524457 909 -0.028470 0.999595 0.000000
-14.878525 -13.808419 -0.518201 905 -0.028470 0.999595 0.000000
-14.879395 -13.809217 -0.511993 909 -0.028470 0.999595 0.000000
-14.880098 -13.809872 -0.505776 903 -0.028470 0.999595 0.000000
-14.879992 -13.809778 -0.499537 913 -0.028470 0.999595 0.000000
-14.878982 -13.808840 -0.493266 917 -0.028470 0.999595 0.000000
-14.878666 -13.808543 -0.487019 913 -0.028470 0.999595 0.000000
-14.878661 -13.808545 -0.480779 913 -0.028470 0.999595 0.000000
-14.878131 -13.808051 -0.474524 907 -0.028470 0.999595 0.000000
-14.878294 -13.808198 -0.468292 919 -0.028470 0.999595 0.000000
-14.878120 -13.808040 -0.462053 911 -0.028470 0.999595 0.000000
-14.878339 -13.808244 -0.455821 915 -0.028470 0.999595 0.000000
-14.878230 -13.808137 -0.449582 913 -0.028470 0.999595 0.000000
-14.877946 -13.807878 -0.443335 895 -0.028470 0.999595 0.000000
-14.877996 -13.807923 -0.437104 909 -0.028470 0.999595 0.000000
-14.878200 -13.808115 -0.430872 905 -0.028470 0.999595 0.000000
-14.878234 -13.808148 -0.424641 911 -0.028470 0.999595 0.000000
-14.877959 -13.807896 -0.418394 893 -0.028470 0.999595 0.000000
-14.877682 -13.807630 -0.412146 895 -0.028470 0.999595 0.000000
-14.877343 -13.807314 -0.405909 899 -0.028470 0.999595 0.000000
-14.878556 -13.808450 -0.399698 913 -0.028470 0.999595 0.000000
-14.878592 -13.808482 -0.393467 903 -0.028470 0.999595 0.000000
-14.878315 -13.808216 -0.387220 901 -0.028470 0.999595 0.000000
-14.878558 -13.808453 -0.380997 909 -0.028470 0.999595 0.000000
-14.877564 -13.807528 -0.374736 909 -0.028470 0.999595 0.000000
-14.876683 -13.806705 -0.368475 909 -0.028470 0.999595 0.000000
-14.876822 -13.806833 -0.362243 917 -0.028470 0.999595 0.000000
-14.877438 -13.807404 -0.356027 905 -0.028470 0.999595 0.000000
-14.878102 -13.808025 -0.349801 913 -0.028470 0.999595 0.000000
-14.877158 -13.807154 -0.343549 905 -0.028470 0.999595 0.000000
-14.877783 -13.807731 -0.337324 907 -0.028470 0.999595 0.000000
-14.877744 -13.807693 -0.331094 901 -0.028470 0.999595 0.000000
-14.876426 -13.806472 -0.324826 889 -0.028470 0.999595 0.000000
-14.877249 -13.807232 -0.318608 893 -0.028470 0.999595 0.000000
-14.877482 -13.807448 -0.312376 897 -0.028470 0.999595 0.000000
-14.877446 -13.807412 -0.306146 901 -0.028470 0.999595 0.000000
-14.877728 -13.807679 -0.299913 899 -0.028470 0.999595 0.000000
-14.877101 -13.807096 -0.293669 887 -0.028470 0.999595 0.000000
-14.876571 -13.806604 -0.287424 875 -0.028470 0.999595 0.000000
-14.876472 -13.806517 -0.281184 887 -0.028470 0.999595 0.000000
