312
-22.120340 -20.800909 -0.635134 853 0.609637 0.792681 0.000000
-22.122561 -20.802992 -0.625863 839 0.609637 0.792681 0.000000
-22.122961 -20.803366 -0.616549 823 0.609637 0.792681 0.000000
-22.122618 -20.803053 -0.607202 845 0.609637 0.792681 0.000000
-22.123388 -20.803780 -0.597895 855 0.609637 0.792681 0.000000
-22.121347 -20.801863 -0.588514 821 0.609637 0.792681 0.000000
-22.120245 -20.800817 -0.579154 843 0.609637 0.792681 0.000000
-22.121649 -20.802147 -0.569860 833 0.609637 0.792681 0.000000
-22.122797 -20.803217 -0.560569 845 0.609637 0.792681 0.000000
-22.124025 -20.804380 -0.551268 853 0.609637 0.792681 0.000000
-22.122978 -20.803396 -0.541917 863 0.609637 0.792681 0.000000
-22.121775 -20.802269 -0.532558 847 0.609637 0.792681 0.000000
-22.120667 -20.801218 -0.523198 835 0.609637 0.792681 0.000000
-22.119816 -20.800419 -0.513856 845 0.609637 0.792681 0.000000
-22.119774 -20.800385 -0.504526 859 0.609637 0.792681 0.000000
-22.120907 -20.801445 -0.495226 855 0.609637 0.792681 0.000000
-22.122183 -20.802647 -0.485923 867 0.609637 0.792681 0.000000
-22.121696 -20.802189 -0.476588 841 0.609637 0.792681 0.000000
-22.122175 -20.802643 -0.467263 837 0.609637 0.792681 0.000000
-22.121698 -20.802193 -0.457927 843 0.609637 0.792681 0.000000
-22.121426 -20.801937 -0.448600 841 0.609637 0.792681 0.000000
-22.122101 -20.802574 -0.439283 875 0.609637 0.792681 0.000000
-22.120975 -20.801514 -0.429933 851 0.609637 0.792681 0.000000
-22.120916 -20.801466 -0.420604 867 0.609637 0.792681 0.000000
-22.122873 -20.803307 -0.411315 855 0.609637 0.792681 0.000000
-22.122435 -20.802889 -0.401979 869 0.609637 0.792681 0.000000
-22.120716 -20.801270 -0.392625 867 0.609637 0.792681 0.000000
-22.119892 -20.800503 -0.383282 847 0.609637 0.792681 0.000000
-22.119919 -20.800528 -0.373952 843 0.609637 0.792681 0.000000
-22.120485 -20.801062 -0.364636 837 0.609637 0.792681 0.000000
-22.121090 -20.801630 -0.355320 859 0.609637 0.792681 0.000000
-22.119894 -20.800512 -0.345982 837 0.609637 0.792681 0.000000
-22.120560 -20.801128 -0.336665 845 0.609637 0.792681 0.000000
-22.121637 -20.802145 -0.327355 823 0.609637 0.792681 0.000000
-22.121288 -20.801823 -0.318018 827 0.609637 0.792681 0.000000
-22.120668 -20.801233 -0.308683 829 0.609637 0.792681 0.000000
-22.120253 -20.800848 -0.299357 827 0.609637 0.792681 0.000000
-22.121647 -20.802156 -0.290044 825 0.609637 0.792681 0.000000
-22.123745 -20.804127 -0.280754 807 0.609637 0.792681 0.000000
-22.127443 -20.794603 -0.635152 835 0.609637 0.792681 0.000000
-22.127977 -20.795101 -0.625837 851 0.609637 0.792681 0.000000
-22.129923 -20.796934 -0.616559 841 0.609637 0.792681 0.000000
-22.129738 -20.796761 -0.607230 841 0.609637 0.792681 0.000000
-22.130089 -20.797083 -0.597907 833 0.609637 0.792681 0.000000
-22.129841 -20.796860 -0.588569 825 0.609637 0.792681 0.000000
-22.129608 -20.796635 -0.579241 843 0.609637 0.792681 0.000000
-22.129202 -20.796257 -0.569894 821 0.609637 0.792681 0.000000
-22.127138 -20.794317 -0.560513 823 0.609637 0.792681 0.000000
-22.127901 -20.795040 -0.551206 851 0.609637 0.792681 0.000000
-22.129309 -20.796362 -0.541913 871 0.609637 0.792681 0.000000
-22.130442 -20.797421 -0.532612 855 0.609637 0.792681 0.000000
-22.130342 -20.797329 -0.523282 855 0.609637 0.792681 0.000000
-22.129393 -20.796446 -0.513931 835 0.609637 0.792681 0.000000
-22.130573 -20.797544 -0.504630 851 0.609637 0.792681 0.000000
-22.130838 -20.797798 -0.495307 855 0.609637 0.792681 0.000000
-22.129665 -20.796698 -0.485948 865 0.609637 0.792681 0.000000
-22.129141 -20.796211 -0.476613 853 0.609637 0.792681 0.000000
-22.128609 -20.795706 -0.467267 849 0.609637 0.792681 0.000000
-22.128336 -20.795446 -0.457940 845 0.609637 0.792681 0.000000
-22.127796 -20.794949 -0.448595 853 0.609637 0.792681 0.000000
-22.128109 -20.795240 -0.439281 849 0.609637 0.792681 0.000000
-22.130072 -20.797087 -0.429993 825 0.609637 0.792681 0.000000
-22.130161 -20.797174 -0.420662 853 0.609637 0.792681 0.000000
-22.128342 -20.795460 -0.411299 829 0.609637 0.792681 0.000000
-22.127256 -20.794443 -0.401958 827 0.609637 0.792681 0.000000
-22.126764 -20.793982 -0.392623 813 0.609637 0.792681 0.000000
-22.126261 -20.793499 -0.383287 803 0.609637 0.792681 0.000000
-22.128113 -20.795244 -0.373990 843 0.609637 0.792681 0.000000
-22.129951 -20.796976 -0.364692 839 0.609637 0.792681 0.000000
-22.128967 -20.796053 -0.355351 841 0.609637 0.792681 0.000000
-22.128134 -20.795265 -0.346009 839 0.609637 0.792681 0.000000
-22.127136 -20.794331 -0.336668 835 0.609637 0.792681 0.000000
-22.126318 -20.793556 -0.327336 821 0.609637 0.792681 0.000000
-22.127081 -20.794277 -0.318018 817 0.609637 0.792681 0.000000
-22.127937 -20.795088 -0.308700 803 0.609637 0.792681 0.000000
-22.129087 -20.796160 -0.299389 795 0.609637 0.792681 0.000000
-22.129250 -20.796320 -0.290067 783 0.609637 0.792681 0.000000
-22.130383 -20.797392 -0.280756 815 0.609637 0.792681 0.000000
-22.137030 -20.790625 -0.635247 835 0.609637 0.792681 0.000000
-22.138605 -20.792107 -0.625962 857 0.609637 0.792681 0.000000
-22.137684 -20.791235 -0.616601 835 0.609637 0.792681 0.000000
-22.137705 -20.791267 -0.607270 829 0.609637 0.792681 0.000000
-22.137905 -20.791445 -0.597948 843 0.609637 0.792681 0.000000
-22.136217 -20.789864 -0.588574 827 0.609637 0.792681 0.000000
-22.136246 -20.789886 -0.579243 831 0.609637 0.792681 0.000000
-22.138502 -20.792007 -0.569972 837 0.609637 0.792681 0.000000
-22.136602 -20.790232 -0.560599 841 0.609637 0.792681 0.000000
-22.135817 -20.789494 -0.551247 835 0.609637 0.792681 0.000000
-22.138720 -20.792215 -0.541989 833 0.609637 0.792681 0.000000
-22.138891 -20.792381 -0.532667 845 0.609637 0.792681 0.000000
-22.138151 -20.791683 -0.523314 863 0.609637 0.792681 0.000000
-22.137033 -20.790640 -0.513964 825 0.609637 0.792681 0.000000
-22.136564 -20.790197 -0.504618 833 0.609637 0.792681 0.000000
-22.137478 -20.791052 -0.495310 847 0.609637 0.792681 0.000000
-22.138445 -20.791965 -0.486000 845 0.609637 0.792681 0.000000
-22.139246 -20.792719 -0.476693 839 0.609637 0.792681 0.000000
-22.138918 -20.792416 -0.467355 849 0.609637 0.792681 0.000000
-22.138433 -20.791964 -0.458020 867 0.609637 0.792681 0.000000
-22.138809 -20.792305 -0.448696 847 0.609637 0.792681 0.000000
-22.138542 -20.792053 -0.439358 855 0.609637 0.792681 0.000000
-22.135635 -20.789331 -0.429975 839 0.609637 0.792681 0.000000
-22.136011 -20.789686 -0.420652 833 0.609637 0.792681 0.000000
-22.136108 -20.789768 -0.411331 831 0.609637 0.792681 0.000000
-22.134329 -20.788099 -0.401967 817 0.609637 0.792681 0.000000
-22.136063 -20.789734 -0.392670 849 0.609637 0.792681 0.000000
-22.137266 -20.790865 -0.383369 831 0.609637 0.792681 0.000000
-22.135124 -20.788849 -0.373999 841 0.609637 0.792681 0.000000
-22.134504 -20.788275 -0.364664 841 0.609637 0.792681 0.000000
-22.136940 -20.790552 -0.355381 827 0.609637 0.792681 0.000000
-22.137814 -20.791376 -0.346063 835 0.609637 0.792681 0.000000
-22.135439 -20.789150 -0.336705 845 0.609637 0.792681 0.000000
-22.134869 -20.788612 -0.327370 805 0.609637 0.792681 0.000000
-22.137131 -20.790739 -0.318069 801 0.609637 0.792681 0.000000
-22.136131 -20.789806 -0.308728 797 0.609637 0.792681 0.000000
-22.134115 -20.787905 -0.299377 791 0.609637 0.792681 0.000000
-22.136038 -20.789721 -0.290078 795 0.609637 0.792681 0.000000
-22.136057 -20.789736 -0.280748 795 0.609637 0.792681 0.000000
-22.145555 -20.786140 -0.635319 843 0.609637 0.792681 0.000000
-22.145798 -20.786375 -0.625987 819 0.609637 0.792681 0.000000
-22.146212 -20.786751 -0.616673 831 0.609637 0.792681 0.000000
-22.145702 -20.786276 -0.607327 845 0.609637 0.792681 0.000000
-22.143591 -20.784300 -0.597937 837 0.609637 0.792681 0.000000
-22.144804 -20.785437 -0.588635 843 0.609637 0.792681 0.000000
-22.146362 -20.786905 -0.579351 831 0.609637 0.792681 0.000000
-22.144466 -20.785128 -0.569968 833 0.609637 0.792681 0.000000
-22.144114 -20.784794 -0.560631 835 0.609637 0.792681 0.000000
-22.144829 -20.785463 -0.551314 823 0.609637 0.792681 0.000000
-22.144682 -20.785322 -0.541985 833 0.609637 0.792681 0.000000
-22.143414 -20.784143 -0.532627 815 0.609637 0.792681 0.000000
-22.143110 -20.783850 -0.523290 839 0.609637 0.792681 0.000000
-22.144339 -20.785009 -0.513988 855 0.609637 0.792681 0.000000
-22.144192 -20.784868 -0.504659 835 0.609637 0.792681 0.000000
-22.144306 -20.784975 -0.495328 839 0.609637 0.792681 0.000000
-22.145313 -20.785919 -0.486018 897 0.609637 0.792681 0.000000
-22.145050 -20.785683 -0.476690 863 0.609637 0.792681 0.000000
-22.146492 -20.787029 -0.467387 865 0.609637 0.792681 0.000000
-22.145359 -20.785975 -0.458037 853 0.609637 0.792681 0.000000
-22.143492 -20.784222 -0.448664 843 0.609637 0.792681 0.000000
-22.144987 -20.785614 -0.439370 847 0.609637 0.792681 0.000000
-22.145237 -20.785854 -0.430048 841 0.609637 0.792681 0.000000
-22.143408 -20.784134 -0.420685 827 0.609637 0.792681 0.000000
-22.142759 -20.783533 -0.411340 839 0.609637 0.792681 0.000000
-22.144617 -20.785269 -0.402043 831 0.609637 0.792681 0.000000
-22.143421 -20.784149 -0.392694 833 0.609637 0.792681 0.000000
-22.142597 -20.783382 -0.383351 839 0.609637 0.792681 0.000000
-22.143059 -20.783808 -0.374037 837 0.609637 0.792681 0.000000
-22.143995 -20.784695 -0.364728 821 0.609637 0.792681 0.000000
-22.145041 -20.785671 -0.355408 825 0.609637 0.792681 0.000000
-22.143980 -20.784687 -0.346067 823 0.609637 0.792681 0.000000
-22.143322 -20.784065 -0.336733 843 0.609637 0.792681 0.000000
-22.143925 -20.784632 -0.327407 825 0.609637 0.792681 0.000000
-22.143518 -20.784252 -0.318081 803 0.609637 0.792681 0.000000
-22.142624 -20.783417 -0.308739 793 0.609637 0.792681 0.000000
-22.141632 -20.782475 -0.299398 783 0.609637 0.792681 0.000000
-22.142448 -20.783239 -0.290080 805 0.609637 0.792681 0.000000
-22.145281 -20.785904 -0.280794 793 0.609637 0.792681 0.000000
-22.153254 -20.781137 -0.635368 831 0.609637 0.792681 0.000000
-22.154142 -20.781973 -0.626060 823 0.609637 0.792681 0.000000
-22.155029 -20.782808 -0.616751 839 0.609637 0.792681 0.000000
-22.156179 -20.783895 -0.607450 841 0.609637 0.792681 0.000000
-22.155617 -20.783363 -0.598105 829 0.609637 0.792681 0.000000
-22.154995 -20.782774 -0.588751 837 0.609637 0.792681 0.000000
-22.152775 -20.780695 -0.579361 853 0.609637 0.792681 0.000000
-22.150883 -20.778923 -0.569979 827 0.609637 0.792681 0.000000
-22.150265 -20.778347 -0.560635 835 0.609637 0.792681 0.000000
-22.151186 -20.779209 -0.551326 835 0.609637 0.792681 0.000000
-22.152807 -20.780727 -0.542040 829 0.609637 0.792681 0.000000
-22.153616 -20.781487 -0.532732 833 0.609637 0.792681 0.000000
-22.152287 -20.780247 -0.523365 853 0.609637 0.792681 0.000000
-22.150442 -20.778511 -0.513992 841 0.609637 0.792681 0.000000
-22.152000 -20.779968 -0.504697 839 0.609637 0.792681 0.000000
-22.153814 -20.781681 -0.495410 839 0.609637 0.792681 0.000000
-22.152319 -20.780279 -0.486043 847 0.609637 0.792681 0.000000
-22.151365 -20.779383 -0.476692 853 0.609637 0.792681 0.000000
-22.151253 -20.779280 -0.467363 859 0.609637 0.792681 0.000000
-22.150396 -20.778471 -0.458021 845 0.609637 0.792681 0.000000
-22.151459 -20.779474 -0.448711 845 0.609637 0.792681 0.000000
-22.152258 -20.780214 -0.439393 865 0.609637 0.792681 0.000000
-22.151180 -20.779202 -0.430043 821 0.609637 0.792681 0.000000
-22.149353 -20.777496 -0.420680 811 0.609637 0.792681 0.000000
-22.150030 -20.778133 -0.411363 819 0.609637 0.792681 0.000000
-22.151344 -20.779367 -0.402061 821 0.609637 0.792681 0.000000
-22.152020 -20.780005 -0.392744 813 0.609637 0.792681 0.000000
-22.152267 -20.780231 -0.383422 831 0.609637 0.792681 0.000000
-22.151665 -20.779669 -0.374077 843 0.609637 0.792681 0.000000
-22.150944 -20.778997 -0.364744 821 0.609637 0.792681 0.000000
-22.150331 -20.778412 -0.355399 807 0.609637 0.792681 0.000000
-22.150990 -20.779037 -0.346083 793 0.609637 0.792681 0.000000
-22.151018 -20.779062 -0.336762 803 0.609637 0.792681 0.000000
-22.152214 -20.780186 -0.327451 807 0.609637 0.792681 0.000000
-22.152386 -20.780352 -0.318119 813 0.609637 0.792681 0.000000
-22.151552 -20.779564 -0.308776 809 0.609637 0.792681 0.000000
-22.150402 -20.778482 -0.299437 791 0.609637 0.792681 0.000000
-22.148649 -20.776846 -0.290083 797 0.609637 0.792681 0.000000
-22.149511 -20.777649 -0.280775 805 0.609637 0.792681 0.000000
-22.158886 -20.773218 -0.635341 815 0.609637 0.792681 0.000000
-22.158749 -20.773094 -0.626002 793 0.609637 0.792681 0.000000
-22.160709 -20.774927 -0.616734 829 0.609637 0.792681 0.000000
-22.160957 -20.775154 -0.607401 839 0.609637 0.792681 0.000000
-22.159645 -20.773928 -0.598033 831 0.609637 0.792681 0.000000
-22.159679 -20.773956 -0.588703 833 0.609637 0.792681 0.000000
-22.162580 -20.776678 -0.579445 831 0.609637 0.792681 0.000000
-22.162436 -20.776550 -0.570117 829 0.609637 0.792681 0.000000
-22.159952 -20.774221 -0.560720 835 0.609637 0.792681 0.000000
-22.159706 -20.773983 -0.551382 829 0.609637 0.792681 0.000000
-22.159773 -20.774054 -0.542051 809 0.609637 0.792681 0.000000
-22.159674 -20.773962 -0.532722 819 0.609637 0.792681 0.000000
-22.159101 -20.773424 -0.523377 831 0.609637 0.792681 0.000000
-22.160181 -20.774441 -0.514066 827 0.609637 0.792681 0.000000
-22.160671 -20.774889 -0.504752 829 0.609637 0.792681 0.000000
-22.159548 -20.773842 -0.495392 829 0.609637 0.792681 0.000000
-22.159292 -20.773598 -0.486054 799 0.609637 0.792681 0.000000
-22.158751 -20.773098 -0.476719 833 0.609637 0.792681 0.000000
-22.160137 -20.774401 -0.467416 833 0.609637 0.792681 0.000000
-22.161901 -20.776047 -0.458119 837 0.609637 0.792681 0.000000
-22.160295 -20.774544 -0.448754 821 0.609637 0.792681 0.000000
-22.159328 -20.773636 -0.439413 849 0.609637 0.792681 0.000000
-22.160326 -20.774572 -0.430103 845 0.609637 0.792681 0.000000
-22.160105 -20.774368 -0.420765 835 0.609637 0.792681 0.000000
-22.157471 -20.771906 -0.411389 809 0.609637 0.792681 0.000000
-22.157457 -20.771887 -0.402059 819 0.609637 0.792681 0.000000
-22.159151 -20.773476 -0.392763 827 0.609637 0.792681 0.000000
-22.158066 -20.772459 -0.383413 821 0.609637 0.792681 0.000000
-22.159048 -20.773382 -0.374104 811 0.609637 0.792681 0.000000
-22.160736 -20.774967 -0.364798 829 0.609637 0.792681 0.000000
-22.157938 -20.772346 -0.355424 837 0.609637 0.792681 0.000000
-22.156937 -20.771399 -0.346083 815 0.609637 0.792681 0.000000
-22.157503 -20.771933 -0.336757 807 0.609637 0.792681 0.000000
-22.157957 -20.772354 -0.327443 791 0.609637 0.792681 0.000000
-22.158072 -20.772476 -0.318111 793 0.609637 0.792681 0.000000
-22.157499 -20.771936 -0.308777 793 0.609637 0.792681 0.000000
-22.157148 -20.771605 -0.299440 783 0.609637 0.792681 0.000000
-22.158382 -20.772757 -0.290128 785 0.609637 0.792681 0.000000
-22.160006 -20.774277 -0.280822 801 0.609637 0.792681 0.000000
-22.170591 -20.770464 -0.635480 839 0.609637 0.792681 0.000000
-22.170563 -20.770445 -0.626150 835 0.609637 0.792681 0.000000
-22.168411 -20.768423 -0.616760 821 0.609637 0.792681 0.000000
-22.167589 -20.767654 -0.607398 827 0.609637 0.792681 0.000000
-22.167669 -20.767723 -0.598077 823 0.609637 0.792681 0.000000
-22.168915 -20.768900 -0.588775 819 0.609637 0.792681 0.000000
-22.169004 -20.768972 -0.579444 817 0.609637 0.792681 0.000000
-22.167841 -20.767893 -0.570084 819 0.609637 0.792681 0.000000
-22.167917 -20.767967 -0.560753 819 0.609637 0.792681 0.000000
-22.168213 -20.768236 -0.551430 797 0.609637 0.792681 0.000000
-22.166780 -20.766899 -0.542064 809 0.609637 0.792681 0.000000
-22.167006 -20.767109 -0.532731 819 0.609637 0.792681 0.000000
-22.168343 -20.768356 -0.523439 813 0.609637 0.792681 0.000000
-22.168039 -20.768076 -0.514101 817 0.609637 0.792681 0.000000
-22.168108 -20.768145 -0.504770 823 0.609637 0.792681 0.000000
-22.168104 -20.768145 -0.495440 805 0.609637 0.792681 0.000000
-22.167902 -20.767942 -0.486102 817 0.609637 0.792681 0.000000
-22.166288 -20.766436 -0.476737 819 0.609637 0.792681 0.000000
-22.166767 -20.766888 -0.467412 839 0.609637 0.792681 0.000000
-22.167782 -20.767839 -0.458102 827 0.609637 0.792681 0.000000
-22.166437 -20.766584 -0.448745 817 0.609637 0.792681 0.000000
-22.166645 -20.766781 -0.439422 825 0.609637 0.792681 0.000000
-22.167280 -20.767374 -0.430106 815 0.609637 0.792681 0.000000
-22.166145 -20.766306 -0.420757 803 0.609637 0.792681 0.000000
-22.164801 -20.765051 -0.411399 791 0.609637 0.792681 0.000000
-22.166384 -20.766527 -0.402104 785 0.609637 0.792681 0.000000
-22.167423 -20.767509 -0.392784 791 0.609637 0.792681 0.000000
-22.165546 -20.765751 -0.383431 813 0.609637 0.792681 0.000000
-22.164194 -20.764477 -0.374074 801 0.609637 0.792681 0.000000
-22.166826 -20.766956 -0.364789 823 0.609637 0.792681 0.000000
-22.168245 -20.768284 -0.355485 833 0.609637 0.792681 0.000000
-22.167261 -20.767361 -0.346134 829 0.609637 0.792681 0.000000
-22.165892 -20.766077 -0.336787 813 0.609637 0.792681 0.000000
-22.166605 -20.766745 -0.327470 819 0.609637 0.792681 0.000000
-22.169508 -20.769466 -0.318183 807 0.609637 0.792681 0.000000
-22.166748 -20.766876 -0.308818 785 0.609637 0.792681 0.000000
-22.164415 -20.764698 -0.299450 785 0.609637 0.792681 0.000000
-22.166788 -20.766912 -0.290158 793 0.609637 0.792681 0.000000
-22.167700 -20.767767 -0.280839 799 0.609637 0.792681 0.000000
-22.176384 -20.762663 -0.635462 807 0.609637 0.792681 0.000000
-22.176680 -20.762943 -0.626139 793 0.609637 0.792681 0.000000
-22.175911 -20.762232 -0.616786 791 0.609637 0.792681 0.000000
-22.173965 -20.760403 -0.607404 797 0.609637 0.792681 0.000000
-22.173569 -20.760033 -0.598057 785 0.609637 0.792681 0.000000
-22.175838 -20.762165 -0.588786 793 0.609637 0.792681 0.000000
-22.176395 -20.762680 -0.579470 803 0.609637 0.792681 0.000000
-22.174118 -20.760544 -0.570082 813 0.609637 0.792681 0.000000
-22.174675 -20.761074 -0.560756 819 0.609637 0.792681 0.000000
-22.176289 -20.762589 -0.551471 807 0.609637 0.792681 0.000000
-22.175385 -20.761742 -0.542119 799 0.609637 0.792681 0.000000
-22.174978 -20.761364 -0.532773 801 0.609637 0.792681 0.000000
-22.175859 -20.762180 -0.523464 813 0.609637 0.792681 0.000000
-22.175491 -20.761833 -0.514117 799 0.609637 0.792681 0.000000
-22.175276 -20.761635 -0.504789 817 0.609637 0.792681 0.000000
-22.175825 -20.762144 -0.495464 823 0.609637 0.792681 0.000000
-22.175827 -20.762148 -0.486134 811 0.609637 0.792681 0.000000
-22.173851 -20.760309 -0.476762 823 0.609637 0.792681 0.000000
-22.173689 -20.760153 -0.467423 803 0.609637 0.792681 0.000000
-22.174807 -20.761200 -0.458122 805 0.609637 0.792681 0.000000
-22.175814 -20.762142 -0.448813 801 0.609637 0.792681 0.000000
-22.176662 -20.762936 -0.439495 823 0.609637 0.792681 0.000000
-22.177134 -20.763382 -0.430170 821 0.609637 0.792681 0.000000
-22.177183 -20.763424 -0.420839 819 0.609637 0.792681 0.000000
-22.176311 -20.762606 -0.411497 803 0.609637 0.792681 0.000000
-22.174952 -20.761339 -0.402140 803 0.609637 0.792681 0.000000
-22.173660 -20.760128 -0.392782 805 0.609637 0.792681 0.000000
-22.175613 -20.761955 -0.383493 795 0.609637 0.792681 0.000000
-22.177622 -20.763838 -0.374194 783 0.609637 0.792681 0.000000
-22.176577 -20.762867 -0.364844 789 0.609637 0.792681 0.000000
-22.174149 -20.760584 -0.355476 795 0.609637 0.792681 0.000000
-22.173271 -20.759771 -0.346134 767 0.609637 0.792681 0.000000
-22.175272 -20.761637 -0.336835 803 0.609637 0.792681 0.000000
-22.175188 -20.761557 -0.327506 779 0.609637 0.792681 0.000000
-22.173552 -20.760031 -0.318151 773 0.609637 0.792681 0.000000
-22.175219 -20.761585 -0.308845 777 0.609637 0.792681 0.000000
-22.178602 -20.764761 -0.299563 753 0.609637 0.792681 0.000000
-22.177114 -20.763365 -0.290207 775 0.609637 0.792681 0.000000
-22.173441 -20.759935 -0.280831 781 0.609637 0.792681 0.000000
