564
-14.878306 -13.977683 -0.672029 245 0.137801 0.990460 0.000000
-14.878559 -13.977921 -0.665767 235 0.137801 0.990460 0.000000
-14.878382 -13.977755 -0.659488 221 0.137801 0.990460 0.000000
-14.878480 -13.977853 -0.653217 233 0.137801 0.990460 0.000000
-14.880007 -13.979282 -0.647003 235 0.137801 0.990460 0.000000
-14.879624 -13.978926 -0.640706 219 0.137801 0.990460 0.000000
-14.878755 -13.978105 -0.634394 217 0.137801 0.990460 0.000000
-14.878631 -13.977983 -0.628115 209 0.137801 0.990460 0.000000
-14.877807 -13.977215 -0.621813 223 0.137801 0.990460 0.000000
-14.878849 -13.978197 -0.615573 233 0.137801 0.990460 0.000000
-14.880534 -13.979782 -0.609367 241 0.137801 0.990460 0.000000
-14.878697 -13.978059 -0.603024 247 0.137801 0.990460 0.000000
-14.878032 -13.977431 -0.596720 253 0.137801 0.990460 0.000000
-14.878536 -13.977900 -0.590465 275 0.137801 0.990460 0.000000
-14.877871 -13.977271 -0.584162 263 0.137801 0.990460 0.000000
-14.878110 -13.977497 -0.577899 257 0.137801 0.990460 0.000000
-14.878189 -13.977567 -0.571628 237 0.137801 0.990460 0.000000
-14.876920 -13.976382 -0.565310 223 0.137801 0.990460 0.000000
-14.877262 -13.976706 -0.559047 221 0.137801 0.990460 0.000000
-14.879148 -13.978468 -0.552839 225 0.137801 0.990460 0.000000
-14.879429 -13.978740 -0.546576 239 0.137801 0.990460 0.000000
-14.879658 -13.978958 -0.540314 275 0.137801 0.990460 0.000000
-14.878449 -13.977811 -0.533995 271 0.137801 0.990460 0.000000
-14.877974 -13.977376 -0.527709 265 0.137801 0.990460 0.000000
-14.879807 -13.979095 -0.521492 235 0.137801 0.990460 0.000000
-14.880031 -13.979295 -0.515230 227 0.137801 0.990460 0.000000
-14.878705 -13.978051 -0.508912 267 0.137801 0.990460 0.000000
-14.878920 -13.978258 -0.502640 267 0.137801 0.990460 0.000000
-14.879086 -13.978412 -0.496378 267 0.137801 0.990460 0.000000
-14.878657 -13.978016 -0.490092 249 0.137801 0.990460 0.000000
-14.877661 -13.977067 -0.483781 253 0.137801 0.990460 0.000000
-14.876046 -13.975562 -0.477456 265 0.137801 0.990460 0.000000
-14.876000 -13.975517 -0.471186 243 0.137801 0.990460 0.000000
-14.877490 -13.976917 -0.464962 253 0.137801 0.990460 0.000000
-14.878448 -13.977808 -0.458723 283 0.137801 0.990460 0.000000
-14.878555 -13.977913 -0.452452 261 0.137801 0.990460 0.000000
-14.879068 -13.978401 -0.446197 277 0.137801 0.990460 0.000000
-14.877468 -13.976894 -0.439872 271 0.137801 0.990460 0.000000
-14.876552 -13.976037 -0.433570 285 0.137801 0.990460 0.000000
-14.877882 -13.977281 -0.427338 255 0.137801 0.990460 0.000000
-14.877224 -13.976660 -0.421054 263 0.137801 0.990460 0.000000
-14.877369 -13.976795 -0.414782 245 0.137801 0.990460 0.000000
-14.878101 -13.977489 -0.408535 297 0.137801 0.990460 0.000000
-14.877452 -13.976874 -0.402241 279 0.137801 0.990460 0.000000
-14.878234 -13.977606 -0.395994 277 0.137801 0.990460 0.000000
-14.878000 -13.977396 -0.389716 263 0.137801 0.990460 0.000000
-14.877074 -13.976517 -0.383424 255 0.137801 0.990460 0.000000
-14.877369 -13.976800 -0.377161 247 0.137801 0.990460 0.000000
-14.877245 -13.976679 -0.370882 231 0.137801 0.990460 0.000000
-14.877373 -13.976802 -0.364621 255 0.137801 0.990460 0.000000
-14.877087 -13.976535 -0.358334 251 0.137801 0.990460 0.000000
-14.876790 -13.976259 -0.352056 225 0.137801 0.990460 0.000000
-14.878255 -13.977626 -0.345822 239 0.137801 0.990460 0.000000
-14.877958 -13.977351 -0.339545 239 0.137801 0.990460 0.000000
-14.877395 -13.976820 -0.333260 243 0.137801 0.990460 0.000000
-14.876454 -13.975943 -0.326969 237 0.137801 0.990460 0.000000
-14.875727 -13.975250 -0.320685 241 0.137801 0.990460 0.000000
-14.876168 -13.975667 -0.314431 201 0.137801 0.990460 0.000000
-14.876886 -13.976335 -0.308174 211 0.137801 0.990460 0.000000
-14.878021 -13.977407 -0.301923 249 0.137801 0.990460 0.000000
-14.876758 -13.976215 -0.295625 223 0.137801 0.990460 0.000000
-14.876015 -13.975524 -0.289342 199 0.137801 0.990460 0.000000
-14.874963 -13.974530 -0.283052 193 0.137801 0.990460 0.000000
-14.889142 -13.978969 -0.672323 279 0.137801 0.990460 0.000000
-14.888327 -13.978206 -0.666010 275 0.137801 0.990460 0.000000
-14.886663 -13.976635 -0.659656 253 0.137801 0.990460 0.000000
-14.885698 -13.975724 -0.653334 239 0.137801 0.990460 0.000000
-14.886054 -13.976059 -0.647081 219 0.137801 0.990460 0.000000
-14.886246 -13.976246 -0.640809 211 0.137801 0.990460 0.000000
-14.886766 -13.976727 -0.634554 213 0.137801 0.990460 0.000000
-14.887171 -13.977114 -0.628290 223 0.137801 0.990460 0.000000
-14.887418 -13.977345 -0.622028 229 0.137801 0.990460 0.000000
-14.887081 -13.977026 -0.615741 245 0.137801 0.990460 0.000000
-14.885081 -13.975155 -0.609379 235 0.137801 0.990460 0.000000
-14.885970 -13.975989 -0.603141 223 0.137801 0.990460 0.000000
-14.887373 -13.977305 -0.596917 225 0.137801 0.990460 0.000000
-14.886173 -13.976176 -0.590598 243 0.137801 0.990460 0.000000
-14.886529 -13.976511 -0.584335 239 0.137801 0.990460 0.000000
-14.887082 -13.977031 -0.578080 245 0.137801 0.990460 0.000000
-14.886888 -13.976839 -0.571791 265 0.137801 0.990460 0.000000
-14.885201 -13.975264 -0.565457 255 0.137801 0.990460 0.000000
-14.885384 -13.975430 -0.559185 233 0.137801 0.990460 0.000000
-14.886259 -13.976253 -0.552947 251 0.137801 0.990460 0.000000
-14.885413 -13.975466 -0.546635 247 0.137801 0.990460 0.000000
-14.885966 -13.975986 -0.540379 241 0.137801 0.990460 0.000000
-14.887052 -13.976992 -0.534149 253 0.137801 0.990460 0.000000
-14.886260 -13.976249 -0.527846 253 0.137801 0.990460 0.000000
-14.884991 -13.975064 -0.521528 261 0.137801 0.990460 0.000000
-14.886597 -13.976571 -0.515303 251 0.137801 0.990460 0.000000
-14.888211 -13.978086 -0.509087 261 0.137801 0.990460 0.000000
-14.886940 -13.976888 -0.502769 265 0.137801 0.990460 0.000000
-14.886463 -13.976439 -0.496474 243 0.137801 0.990460 0.000000
-14.885507 -13.975550 -0.490172 247 0.137801 0.990460 0.000000
-14.885509 -13.975543 -0.483902 269 0.137801 0.990460 0.000000
-14.886943 -13.976898 -0.477669 275 0.137801 0.990460 0.000000
-14.885995 -13.976001 -0.471367 271 0.137801 0.990460 0.000000
-14.884229 -13.974347 -0.465034 271 0.137801 0.990460 0.000000
-14.883375 -13.973540 -0.458742 271 0.137801 0.990460 0.000000
-14.885224 -13.975286 -0.452524 293 0.137801 0.990460 0.000000
-14.886555 -13.976530 -0.446292 283 0.137801 0.990460 0.000000
-14.886024 -13.976025 -0.439996 283 0.137801 0.990460 0.000000
-14.885679 -13.975711 -0.433719 289 0.137801 0.990460 0.000000
-14.884662 -13.974758 -0.427409 273 0.137801 0.990460 0.000000
-14.884388 -13.974486 -0.421131 267 0.137801 0.990460 0.000000
-14.884910 -13.974982 -0.414876 265 0.137801 0.990460 0.000000
-14.885314 -13.975368 -0.408612 265 0.137801 0.990460 0.000000
-14.884719 -13.974798 -0.402328 243 0.137801 0.990460 0.000000
-14.885918 -13.975935 -0.396086 275 0.137801 0.990460 0.000000
-14.887562 -13.977475 -0.389851 281 0.137801 0.990460 0.000000
-14.885676 -13.975698 -0.383528 269 0.137801 0.990460 0.000000
-14.883999 -13.974130 -0.377214 255 0.137801 0.990460 0.000000
-14.886382 -13.976361 -0.371001 241 0.137801 0.990460 0.000000
-14.886731 -13.976689 -0.364738 241 0.137801 0.990460 0.000000
-14.884621 -13.974716 -0.358418 235 0.137801 0.990460 0.000000
-14.885817 -13.975839 -0.352176 247 0.137801 0.990460 0.000000
-14.885473 -13.975513 -0.345889 235 0.137801 0.990460 0.000000
-14.883463 -13.973620 -0.339578 261 0.137801 0.990460 0.000000
-14.886107 -13.976104 -0.333363 253 0.137801 0.990460 0.000000
-14.885160 -13.975220 -0.327072 273 0.137801 0.990460 0.000000
-14.883842 -13.973984 -0.320774 245 0.137801 0.990460 0.000000
-14.884930 -13.975003 -0.314524 223 0.137801 0.990460 0.000000
-14.884097 -13.974215 -0.308231 217 0.137801 0.990460 0.000000
-14.884855 -13.974929 -0.301974 233 0.137801 0.990460 0.000000
-14.885408 -13.975449 -0.295719 223 0.137801 0.990460 0.000000
-14.885473 -13.975507 -0.289448 213 0.137801 0.990460 0.000000
-14.886177 -13.976176 -0.283191 181 0.137801 0.990460 0.000000
-14.896483 -13.976800 -0.672459 241 0.137801 0.990460 0.000000
-14.896685 -13.976995 -0.666187 259 0.137801 0.990460 0.000000
-14.894965 -13.975379 -0.659833 257 0.137801 0.990460 0.000000
-14.895172 -13.975565 -0.653561 247 0.137801 0.990460 0.000000
-14.897077 -13.977355 -0.647363 221 0.137801 0.990460 0.000000
-14.897008 -13.977292 -0.641084 209 0.137801 0.990460 0.000000
-14.895281 -13.975669 -0.634730 217 0.137801 0.990460 0.000000
-14.894309 -13.974753 -0.628409 233 0.137801 0.990460 0.000000
-14.894814 -13.975236 -0.622154 251 0.137801 0.990460 0.000000
-14.893732 -13.974217 -0.615824 269 0.137801 0.990460 0.000000
-14.892966 -13.973493 -0.609521 235 0.137801 0.990460 0.000000
-14.893313 -13.973820 -0.603257 215 0.137801 0.990460 0.000000
-14.894772 -13.975195 -0.597033 229 0.137801 0.990460 0.000000
-14.895927 -13.976273 -0.590803 257 0.137801 0.990460 0.000000
-14.895460 -13.975845 -0.584507 241 0.137801 0.990460 0.000000
-14.893999 -13.974465 -0.578170 275 0.137801 0.990460 0.000000
-14.893759 -13.974236 -0.571892 237 0.137801 0.990460 0.000000
-14.895750 -13.976109 -0.565684 245 0.137801 0.990460 0.000000
-14.895612 -13.975975 -0.559405 257 0.137801 0.990460 0.000000
-14.895096 -13.975496 -0.553109 265 0.137801 0.990460 0.000000
-14.895168 -13.975560 -0.546829 229 0.137801 0.990460 0.000000
-14.894810 -13.975221 -0.540542 251 0.137801 0.990460 0.000000
-14.895888 -13.976235 -0.534302 267 0.137801 0.990460 0.000000
-14.895953 -13.976294 -0.528031 261 0.137801 0.990460 0.000000
-14.893456 -13.973953 -0.521664 261 0.137801 0.990460 0.000000
-14.893674 -13.974161 -0.515402 239 0.137801 0.990460 0.000000
-14.895813 -13.976169 -0.509192 263 0.137801 0.990460 0.000000
-14.895667 -13.976028 -0.502913 269 0.137801 0.990460 0.000000
-14.894081 -13.974534 -0.496588 253 0.137801 0.990460 0.000000
-14.894500 -13.974934 -0.490324 255 0.137801 0.990460 0.000000
-14.894990 -13.975389 -0.484059 283 0.137801 0.990460 0.000000
-14.894985 -13.975390 -0.477789 291 0.137801 0.990460 0.000000
-14.895042 -13.975442 -0.471508 281 0.137801 0.990460 0.000000
-14.893599 -13.974090 -0.465191 285 0.137801 0.990460 0.000000
-14.892581 -13.973137 -0.458881 279 0.137801 0.990460 0.000000
-14.893220 -13.973726 -0.452625 271 0.137801 0.990460 0.000000
-14.894323 -13.974773 -0.446384 289 0.137801 0.990460 0.000000
-14.895182 -13.975569 -0.440136 267 0.137801 0.990460 0.000000
-14.894847 -13.975263 -0.433849 275 0.137801 0.990460 0.000000
-14.896390 -13.976706 -0.427624 275 0.137801 0.990460 0.000000
-14.896321 -13.976643 -0.421345 287 0.137801 0.990460 0.000000
-14.894862 -13.975264 -0.415028 259 0.137801 0.990460 0.000000
-14.895273 -13.975656 -0.408764 271 0.137801 0.990460 0.000000
-14.894781 -13.975195 -0.402479 251 0.137801 0.990460 0.000000
-14.895248 -13.975633 -0.396214 271 0.137801 0.990460 0.000000
-14.894000 -13.974466 -0.389906 285 0.137801 0.990460 0.000000
-14.891895 -13.972485 -0.383575 255 0.137801 0.990460 0.000000
-14.892725 -13.973269 -0.377328 259 0.137801 0.990460 0.000000
-14.893506 -13.974002 -0.371070 263 0.137801 0.990460 0.000000
-14.893807 -13.974277 -0.364807 251 0.137801 0.990460 0.000000
-14.894045 -13.974503 -0.358535 243 0.137801 0.990460 0.000000
-14.892790 -13.973330 -0.352236 243 0.137801 0.990460 0.000000
-14.892014 -13.972600 -0.345943 235 0.137801 0.990460 0.000000
-14.892891 -13.973423 -0.339685 239 0.137801 0.990460 0.000000
-14.893394 -13.973890 -0.333430 235 0.137801 0.990460 0.000000
-14.893257 -13.973757 -0.327151 261 0.137801 0.990460 0.000000
-14.894712 -13.975130 -0.320908 267 0.137801 0.990460 0.000000
-14.895699 -13.976054 -0.314658 217 0.137801 0.990460 0.000000
-14.895503 -13.975862 -0.308380 227 0.137801 0.990460 0.000000
-14.895452 -13.975826 -0.302100 235 0.137801 0.990460 0.000000
-14.893396 -13.973896 -0.295789 235 0.137801 0.990460 0.000000
-14.893563 -13.974051 -0.289518 223 0.137801 0.990460 0.000000
-14.894855 -13.975264 -0.283265 225 0.137801 0.990460 0.000000
-14.903374 -13.974358 -0.666289 249 0.137801 0.990460 0.000000
-14.903740 -13.974700 -0.660026 253 0.137801 0.990460 0.000000
-14.902020 -13.973083 -0.653672 241 0.137801 0.990460 0.000000
-14.902636 -13.973669 -0.647416 249 0.137801 0.990460 0.000000
-14.905240 -13.976107 -0.641241 245 0.137801 0.990460 0.000000
-14.905595 -13.976440 -0.634978 231 0.137801 0.990460 0.000000
-14.905198 -13.976069 -0.628681 251 0.137801 0.990460 0.000000
-14.903903 -13.974852 -0.622343 245 0.137801 0.990460 0.000000
-14.904834 -13.975731 -0.616104 241 0.137801 0.990460 0.000000
-14.906369 -13.977169 -0.609890 229 0.137801 0.990460 0.000000
-14.904635 -13.975541 -0.603536 221 0.137801 0.990460 0.000000
-14.904016 -13.974965 -0.597232 211 0.137801 0.990460 0.000000
-14.903948 -13.974889 -0.590952 237 0.137801 0.990460 0.000000
-14.902529 -13.973569 -0.584615 251 0.137801 0.990460 0.000000
-14.904151 -13.975090 -0.578400 261 0.137801 0.990460 0.000000
-14.905237 -13.976110 -0.572159 253 0.137801 0.990460 0.000000
-14.904785 -13.975680 -0.565864 267 0.137801 0.990460 0.000000
-14.903466 -13.974444 -0.559536 285 0.137801 0.990460 0.000000
-14.901243 -13.972353 -0.553177 259 0.137801 0.990460 0.000000
-14.901687 -13.972772 -0.546912 269 0.137801 0.990460 0.000000
-14.902452 -13.973490 -0.540665 267 0.137801 0.990460 0.000000
-14.904711 -13.975609 -0.534464 269 0.137801 0.990460 0.000000
-14.903918 -13.974865 -0.528161 277 0.137801 0.990460 0.000000
-14.901799 -13.972871 -0.521801 259 0.137801 0.990460 0.000000
-14.901700 -13.972783 -0.515521 267 0.137801 0.990460 0.000000
-14.902190 -13.973239 -0.509267 279 0.137801 0.990460 0.000000
-14.902240 -13.973285 -0.502986 263 0.137801 0.990460 0.000000
-14.902408 -13.973453 -0.496714 263 0.137801 0.990460 0.000000
-14.904021 -13.974954 -0.490489 283 0.137801 0.990460 0.000000
-14.902686 -13.973702 -0.484171 281 0.137801 0.990460 0.000000
-14.901134 -13.972249 -0.477846 283 0.137801 0.990460 0.000000
-14.901671 -13.972756 -0.471581 283 0.137801 0.990460 0.000000
-14.901351 -13.972448 -0.465294 307 0.137801 0.990460 0.000000
-14.900646 -13.971790 -0.459000 277 0.137801 0.990460 0.000000
-14.901608 -13.972695 -0.452751 273 0.137801 0.990460 0.000000
-14.903199 -13.974191 -0.446526 251 0.137801 0.990460 0.000000
-14.903358 -13.974339 -0.440254 271 0.137801 0.990460 0.000000
-14.902544 -13.973576 -0.433952 285 0.137801 0.990460 0.000000
-14.902907 -13.973916 -0.427688 267 0.137801 0.990460 0.000000
-14.903909 -13.974854 -0.421439 251 0.137801 0.990460 0.000000
-14.903526 -13.974496 -0.415152 273 0.137801 0.990460 0.000000
-14.901910 -13.972977 -0.408827 263 0.137801 0.990460 0.000000
-14.901464 -13.972554 -0.402541 269 0.137801 0.990460 0.000000
-14.902308 -13.973351 -0.396283 281 0.137801 0.990460 0.000000
-14.903247 -13.974237 -0.390034 293 0.137801 0.990460 0.000000
-14.901998 -13.973056 -0.383725 285 0.137801 0.990460 0.000000
-14.901649 -13.972738 -0.377439 271 0.137801 0.990460 0.000000
-14.901901 -13.972961 -0.371176 271 0.137801 0.990460 0.000000
-14.901723 -13.972796 -0.364898 249 0.137801 0.990460 0.000000
-14.901852 -13.972919 -0.358616 249 0.137801 0.990460 0.000000
-14.902248 -13.973300 -0.352352 237 0.137801 0.990460 0.000000
-14.902116 -13.973171 -0.346074 229 0.137801 0.990460 0.000000
-14.901978 -13.973038 -0.339795 253 0.137801 0.990460 0.000000
-14.901525 -13.972610 -0.333509 249 0.137801 0.990460 0.000000
-14.901754 -13.972828 -0.327246 251 0.137801 0.990460 0.000000
-14.902097 -13.973149 -0.320973 251 0.137801 0.990460 0.000000
-14.901737 -13.972810 -0.314696 213 0.137801 0.990460 0.000000
-14.902934 -13.973933 -0.308445 241 0.137801 0.990460 0.000000
-14.902684 -13.973696 -0.302167 241 0.137801 0.990460 0.000000
-14.901462 -13.972550 -0.295859 217 0.137801 0.990460 0.000000
-14.900568 -13.971710 -0.289567 219 0.137801 0.990460 0.000000
-14.899879 -13.971078 -0.283283 229 0.137801 0.990460 0.000000
-14.910605 -13.972423 -0.666415 255 0.137801 0.990460 0.000000
-14.911606 -13.973359 -0.660186 249 0.137801 0.990460 0.000000
-14.911546 -13.973302 -0.653896 271 0.137801 0.990460 0.000000
-14.911311 -13.973078 -0.647608 243 0.137801 0.990460 0.000000
-14.911567 -13.973317 -0.641336 215 0.137801 0.990460 0.000000
-14.911860 -13.973600 -0.635063 227 0.137801 0.990460 0.000000
-14.910142 -13.971985 -0.628709 217 0.137801 0.990460 0.000000
-14.909162 -13.971062 -0.622388 215 0.137801 0.990460 0.000000
-14.909989 -13.971846 -0.616140 203 0.137801 0.990460 0.000000
-14.911248 -13.973019 -0.609918 231 0.137801 0.990460 0.000000
-14.913422 -13.975053 -0.603717 235 0.137801 0.990460 0.000000
-14.914727 -13.976278 -0.597495 233 0.137801 0.990460 0.000000
-14.911973 -13.973702 -0.591101 223 0.137801 0.990460 0.000000
-14.909925 -13.971779 -0.584740 235 0.137801 0.990460 0.000000
-14.910257 -13.972095 -0.578466 233 0.137801 0.990460 0.000000
-14.911195 -13.972966 -0.572228 263 0.137801 0.990460 0.000000
-14.912219 -13.973936 -0.565988 281 0.137801 0.990460 0.000000
-14.911497 -13.973250 -0.559674 291 0.137801 0.990460 0.000000
-14.911305 -13.973073 -0.553386 263 0.137801 0.990460 0.000000
-14.912335 -13.974034 -0.547146 245 0.137801 0.990460 0.000000
-14.912238 -13.973947 -0.540867 263 0.137801 0.990460 0.000000
-14.910816 -13.972611 -0.534530 267 0.137801 0.990460 0.000000
-14.911363 -13.973127 -0.528275 261 0.137801 0.990460 0.000000
-14.912174 -13.973885 -0.522017 245 0.137801 0.990460 0.000000
-14.910849 -13.972641 -0.515689 259 0.137801 0.990460 0.000000
-14.909893 -13.971750 -0.509378 249 0.137801 0.990460 0.000000
-14.910224 -13.972052 -0.503115 271 0.137801 0.990460 0.000000
-14.911185 -13.972958 -0.496866 283 0.137801 0.990460 0.000000
-14.911251 -13.973016 -0.490585 279 0.137801 0.990460 0.000000
-14.911466 -13.973222 -0.484313 289 0.137801 0.990460 0.000000
-14.910501 -13.972312 -0.478012 273 0.137801 0.990460 0.000000
-14.910820 -13.972615 -0.471739 275 0.137801 0.990460 0.000000
-14.911993 -13.973719 -0.465498 279 0.137801 0.990460 0.000000
-14.911782 -13.973514 -0.459209 275 0.137801 0.990460 0.000000
-14.910593 -13.972407 -0.452900 255 0.137801 0.990460 0.000000
-14.909793 -13.971657 -0.446598 263 0.137801 0.990460 0.000000
-14.912033 -13.973747 -0.440387 277 0.137801 0.990460 0.000000
-14.913035 -13.974685 -0.434137 277 0.137801 0.990460 0.000000
-14.911797 -13.973525 -0.427819 295 0.137801 0.990460 0.000000
-14.910927 -13.972718 -0.421516 283 0.137801 0.990460 0.000000
-14.910221 -13.972058 -0.415213 273 0.137801 0.990460 0.000000
-14.909038 -13.970942 -0.408904 263 0.137801 0.990460 0.000000
-14.909708 -13.971572 -0.402648 269 0.137801 0.990460 0.000000
-14.909743 -13.971606 -0.396377 287 0.137801 0.990460 0.000000
-14.909730 -13.971586 -0.390097 265 0.137801 0.990460 0.000000
-14.910455 -13.972274 -0.383840 265 0.137801 0.990460 0.000000
-14.909365 -13.971249 -0.377530 273 0.137801 0.990460 0.000000
-14.909454 -13.971327 -0.371259 231 0.137801 0.990460 0.000000
-14.912208 -13.973912 -0.365043 233 0.137801 0.990460 0.000000
-14.913136 -13.974777 -0.358794 249 0.137801 0.990460 0.000000
-14.912739 -13.974406 -0.352508 253 0.137801 0.990460 0.000000
-14.910307 -13.972133 -0.346171 259 0.137801 0.990460 0.000000
-14.910215 -13.972050 -0.339891 239 0.137801 0.990460 0.000000
-14.911953 -13.973665 -0.333655 247 0.137801 0.990460 0.000000
-14.910534 -13.972346 -0.327348 241 0.137801 0.990460 0.000000
-14.910183 -13.972014 -0.321061 243 0.137801 0.990460 0.000000
-14.910044 -13.971880 -0.314782 247 0.137801 0.990460 0.000000
-14.908875 -13.970791 -0.308483 261 0.137801 0.990460 0.000000
-14.908689 -13.970604 -0.302195 247 0.137801 0.990460 0.000000
-14.909233 -13.971118 -0.295929 235 0.137801 0.990460 0.000000
-14.909299 -13.971176 -0.289659 233 0.137801 0.990460 0.000000
-14.909836 -13.971684 -0.283394 217 0.137801 0.990460 0.000000
-14.920609 -13.973068 -0.666675 251 0.137801 0.990460 0.000000
-14.920069 -13.972555 -0.660370 263 0.137801 0.990460 0.000000
-14.920118 -13.972601 -0.654090 243 0.137801 0.990460 0.000000
-14.919507 -13.972031 -0.647775 225 0.137801 0.990460 0.000000
-14.919007 -13.971564 -0.641470 203 0.137801 0.990460 0.000000
-14.919584 -13.972104 -0.635214 205 0.137801 0.990460 0.000000
-14.920527 -13.972982 -0.628965 203 0.137801 0.990460 0.000000
-14.920776 -13.973215 -0.622693 191 0.137801 0.990460 0.000000
-14.919795 -13.972291 -0.616372 183 0.137801 0.990460 0.000000
-14.919295 -13.971825 -0.610066 211 0.137801 0.990460 0.000000
-14.918896 -13.971453 -0.603770 209 0.137801 0.990460 0.000000
-14.918765 -13.971325 -0.597481 211 0.137801 0.990460 0.000000
-14.918469 -13.971050 -0.591184 227 0.137801 0.990460 0.000000
-14.918283 -13.970879 -0.584895 249 0.137801 0.990460 0.000000
-14.917932 -13.970545 -0.578598 281 0.137801 0.990460 0.000000
-14.919492 -13.972015 -0.572384 267 0.137801 0.990460 0.000000
-14.920004 -13.972490 -0.566119 265 0.137801 0.990460 0.000000
-14.918735 -13.971306 -0.559790 277 0.137801 0.990460 0.000000
-14.919240 -13.971774 -0.553526 271 0.137801 0.990460 0.000000
-14.918880 -13.971435 -0.547229 247 0.137801 0.990460 0.000000
-14.919213 -13.971749 -0.540966 265 0.137801 0.990460 0.000000
-14.919608 -13.972116 -0.534692 261 0.137801 0.990460 0.000000
-14.919572 -13.972078 -0.528412 265 0.137801 0.990460 0.000000
-14.920054 -13.972541 -0.522147 253 0.137801 0.990460 0.000000
-14.920749 -13.973189 -0.515891 277 0.137801 0.990460 0.000000
-14.919807 -13.972299 -0.509579 259 0.137801 0.990460 0.000000
-14.919921 -13.972409 -0.503298 265 0.137801 0.990460 0.000000
-14.920458 -13.972918 -0.497033 273 0.137801 0.990460 0.000000
-14.920413 -13.972873 -0.490753 291 0.137801 0.990460 0.000000
-14.920786 -13.973220 -0.484480 285 0.137801 0.990460 0.000000
-14.919930 -13.972411 -0.478177 267 0.137801 0.990460 0.000000
-14.918858 -13.971414 -0.471857 267 0.137801 0.990460 0.000000
-14.918805 -13.971363 -0.465578 275 0.137801 0.990460 0.000000
-14.919123 -13.971666 -0.459305 273 0.137801 0.990460 0.000000
-14.919014 -13.971556 -0.453025 261 0.137801 0.990460 0.000000
-14.919434 -13.971955 -0.446751 265 0.137801 0.990460 0.000000
-14.918359 -13.970942 -0.440441 255 0.137801 0.990460 0.000000
-14.918457 -13.971041 -0.434170 297 0.137801 0.990460 0.000000
-14.918498 -13.971080 -0.427890 303 0.137801 0.990460 0.000000
-14.917472 -13.970119 -0.421579 279 0.137801 0.990460 0.000000
-14.918269 -13.970864 -0.415321 269 0.137801 0.990460 0.000000
-14.916595 -13.969286 -0.408997 275 0.137801 0.990460 0.000000
-14.917542 -13.970178 -0.402748 267 0.137801 0.990460 0.000000
-14.920350 -13.972809 -0.396542 285 0.137801 0.990460 0.000000
-14.918945 -13.971488 -0.390225 259 0.137801 0.990460 0.000000
-14.917383 -13.970027 -0.383909 263 0.137801 0.990460 0.000000
-14.917844 -13.970458 -0.377635 261 0.137801 0.990460 0.000000
-14.919581 -13.972087 -0.371398 243 0.137801 0.990460 0.000000
-14.918697 -13.971254 -0.365106 241 0.137801 0.990460 0.000000
-14.917389 -13.970037 -0.358788 245 0.137801 0.990460 0.000000
-14.917571 -13.970205 -0.352517 243 0.137801 0.990460 0.000000
-14.917809 -13.970430 -0.346244 219 0.137801 0.990460 0.000000
-14.917678 -13.970303 -0.339965 233 0.137801 0.990460 0.000000
-14.915936 -13.968668 -0.333651 257 0.137801 0.990460 0.000000
-14.917024 -13.969689 -0.327391 249 0.137801 0.990460 0.000000
-14.918173 -13.970760 -0.321140 247 0.137801 0.990460 0.000000
-14.919041 -13.971576 -0.314882 241 0.137801 0.990460 0.000000
-14.918901 -13.971441 -0.308603 251 0.137801 0.990460 0.000000
-14.918911 -13.971455 -0.302323 263 0.137801 0.990460 0.000000
-14.920156 -13.972631 -0.296071 255 0.137801 0.990460 0.000000
-14.918612 -13.971182 -0.289755 247 0.137801 0.990460 0.000000
-14.917882 -13.970490 -0.283462 221 0.137801 0.990460 0.000000
-14.929070 -13.972599 -0.666868 243 0.137801 0.990460 0.000000
-14.926982 -13.970644 -0.660488 245 0.137801 0.990460 0.000000
-14.927228 -13.970876 -0.654215 217 0.137801 0.990460 0.000000
-14.927647 -13.971261 -0.647951 213 0.137801 0.990460 0.000000
-14.928379 -13.971940 -0.641694 201 0.137801 0.990460 0.000000
-14.929215 -13.972731 -0.635446 241 0.137801 0.990460 0.000000
-14.929045 -13.972570 -0.629158 183 0.137801 0.990460 0.000000
-14.927899 -13.971500 -0.622818 181 0.137801 0.990460 0.000000
-14.926427 -13.970124 -0.616472 159 0.137801 0.990460 0.000000
-14.927002 -13.970650 -0.610216 175 0.137801 0.990460 0.000000
-14.927720 -13.971331 -0.603960 187 0.137801 0.990460 0.000000
-14.928021 -13.971607 -0.597687 199 0.137801 0.990460 0.000000
-14.928102 -13.971678 -0.591406 241 0.137801 0.990460 0.000000
-14.927908 -13.971498 -0.585117 251 0.137801 0.990460 0.000000
-14.929647 -13.973129 -0.578901 261 0.137801 0.990460 0.000000
-14.929988 -13.973451 -0.572627 273 0.137801 0.990460 0.000000
-14.928937 -13.972470 -0.566297 277 0.137801 0.990460 0.000000
-14.928743 -13.972279 -0.560009 271 0.137801 0.990460 0.000000
-14.928228 -13.971799 -0.553704 275 0.137801 0.990460 0.000000
-14.928026 -13.971614 -0.547415 265 0.137801 0.990460 0.000000
-14.927886 -13.971478 -0.541127 257 0.137801 0.990460 0.000000
-14.928493 -13.972043 -0.534861 257 0.137801 0.990460 0.000000
-14.929305 -13.972800 -0.528613 263 0.137801 0.990460 0.000000
-14.928618 -13.972168 -0.522299 253 0.137801 0.990460 0.000000
-14.929108 -13.972624 -0.516034 255 0.137801 0.990460 0.000000
-14.929440 -13.972925 -0.509761 251 0.137801 0.990460 0.000000
-14.927839 -13.971434 -0.503426 249 0.137801 0.990460 0.000000
-14.927582 -13.971189 -0.497138 277 0.137801 0.990460 0.000000
-14.928063 -13.971639 -0.490864 291 0.137801 0.990460 0.000000
-14.926897 -13.970551 -0.484544 287 0.137801 0.990460 0.000000
-14.925776 -13.969500 -0.478225 263 0.137801 0.990460 0.000000
-14.924866 -13.968647 -0.471923 281 0.137801 0.990460 0.000000
-14.925239 -13.968995 -0.465650 283 0.137801 0.990460 0.000000
-14.925666 -13.969400 -0.459385 267 0.137801 0.990460 0.000000
-14.925982 -13.969689 -0.453112 263 0.137801 0.990460 0.000000
-14.926346 -13.970030 -0.446839 283 0.137801 0.990460 0.000000
-14.926333 -13.970024 -0.440559 271 0.137801 0.990460 0.000000
-14.924459 -13.968268 -0.434226 275 0.137801 0.990460 0.000000
-14.923816 -13.967660 -0.427922 269 0.137801 0.990460 0.000000
-14.926742 -13.970398 -0.421724 265 0.137801 0.990460 0.000000
-14.927154 -13.970791 -0.415460 259 0.137801 0.990460 0.000000
-14.925906 -13.969625 -0.409142 257 0.137801 0.990460 0.000000
-14.926748 -13.970407 -0.402884 259 0.137801 0.990460 0.000000
-14.925339 -13.969096 -0.396567 255 0.137801 0.990460 0.000000
-14.925269 -13.969018 -0.390288 239 0.137801 0.990460 0.000000
-14.925727 -13.969447 -0.384013 261 0.137801 0.990460 0.000000
-14.924851 -13.968636 -0.377711 261 0.137801 0.990460 0.000000
-14.925200 -13.968964 -0.371438 263 0.137801 0.990460 0.000000
-14.925130 -13.968886 -0.365158 207 0.137801 0.990460 0.000000
-14.925958 -13.969669 -0.358900 217 0.137801 0.990460 0.000000
-14.925929 -13.969638 -0.352620 235 0.137801 0.990460 0.000000
-14.925311 -13.969063 -0.346326 229 0.137801 0.990460 0.000000
-14.926680 -13.970339 -0.340073 235 0.137801 0.990460 0.000000
-14.926589 -13.970257 -0.333794 227 0.137801 0.990460 0.000000
-14.927197 -13.970822 -0.327528 235 0.137801 0.990460 0.000000
-14.928230 -13.971798 -0.321268 235 0.137801 0.990460 0.000000
-14.927289 -13.970906 -0.314967 261 0.137801 0.990460 0.000000
-14.926561 -13.970228 -0.308674 253 0.137801 0.990460 0.000000
-14.925180 -13.968941 -0.302366 241 0.137801 0.990460 0.000000
-14.924020 -13.967857 -0.296067 237 0.137801 0.990460 0.000000
-14.925742 -13.969460 -0.289821 231 0.137801 0.990460 0.000000
-14.927842 -13.971423 -0.283581 221 0.137801 0.990460 0.000000
-14.935445 -13.970492 -0.666979 253 0.137801 0.990460 0.000000
-14.935487 -13.970531 -0.660689 255 0.137801 0.990460 0.000000
-14.934838 -13.969932 -0.654375 221 0.137801 0.990460 0.000000
-14.934872 -13.969964 -0.648094 221 0.137801 0.990460 0.000000
-14.936571 -13.971547 -0.641878 205 0.137801 0.990460 0.000000
-14.936118 -13.971132 -0.635572 213 0.137801 0.990460 0.000000
-14.936852 -13.971813 -0.629315 189 0.137801 0.990460 0.000000
-14.936878 -13.971840 -0.623035 201 0.137801 0.990460 0.000000
-14.934247 -13.969378 -0.616639 199 0.137801 0.990460 0.000000
-14.934597 -13.969707 -0.610366 205 0.137801 0.990460 0.000000
-14.935807 -13.970828 -0.604124 219 0.137801 0.990460 0.000000
-14.934340 -13.969456 -0.597778 221 0.137801 0.990460 0.000000
-14.934682 -13.969778 -0.591505 227 0.137801 0.990460 0.000000
-14.935509 -13.970548 -0.585257 263 0.137801 0.990460 0.000000
-14.934576 -13.969677 -0.578935 255 0.137801 0.990460 0.000000
-14.934964 -13.970050 -0.572661 263 0.137801 0.990460 0.000000
-14.935258 -13.970321 -0.566389 281 0.137801 0.990460 0.000000
-14.935645 -13.970680 -0.560125 267 0.137801 0.990460 0.000000
-14.935028 -13.970104 -0.553810 249 0.137801 0.990460 0.000000
-14.934512 -13.969625 -0.547505 265 0.137801 0.990460 0.000000
-14.934145 -13.969278 -0.541208 251 0.137801 0.990460 0.000000
-14.934587 -13.969697 -0.534944 245 0.137801 0.990460 0.000000
-14.934181 -13.969306 -0.528648 237 0.137801 0.990460 0.000000
-14.935315 -13.970364 -0.522397 249 0.137801 0.990460 0.000000
-14.936394 -13.971378 -0.516147 245 0.137801 0.990460 0.000000
-14.933890 -13.969032 -0.509780 247 0.137801 0.990460 0.000000
-14.934058 -13.969188 -0.503498 247 0.137801 0.990460 0.000000
-14.936252 -13.971238 -0.497288 265 0.137801 0.990460 0.000000
-14.936680 -13.971644 -0.491024 267 0.137801 0.990460 0.000000
-14.936526 -13.971498 -0.484735 263 0.137801 0.990460 0.000000
-14.936095 -13.971101 -0.478439 267 0.137801 0.990460 0.000000
-14.935399 -13.970448 -0.472125 275 0.137801 0.990460 0.000000
-14.935188 -13.970243 -0.465837 265 0.137801 0.990460 0.000000
-14.935883 -13.970891 -0.459580 267 0.137801 0.990460 0.000000
-14.936836 -13.971789 -0.453321 263 0.137801 0.990460 0.000000
-14.936880 -13.971830 -0.447041 275 0.137801 0.990460 0.000000
-14.935704 -13.970736 -0.440721 285 0.137801 0.990460 0.000000
-14.934629 -13.969723 -0.434401 275 0.137801 0.990460 0.000000
-14.933964 -13.969108 -0.428107 257 0.137801 0.990460 0.000000
-14.935034 -13.970101 -0.421847 267 0.137801 0.990460 0.000000
-14.935171 -13.970231 -0.415576 251 0.137801 0.990460 0.000000
-14.935857 -13.970873 -0.409309 245 0.137801 0.990460 0.000000
-14.936487 -13.971457 -0.403043 251 0.137801 0.990460 0.000000
-14.934815 -13.969893 -0.396709 247 0.137801 0.990460 0.000000
-14.933351 -13.968522 -0.390392 255 0.137801 0.990460 0.000000
-14.933542 -13.968709 -0.384120 259 0.137801 0.990460 0.000000
-14.934755 -13.969846 -0.377869 267 0.137801 0.990460 0.000000
-14.935048 -13.970115 -0.371586 249 0.137801 0.990460 0.000000
-14.934862 -13.969943 -0.365298 241 0.137801 0.990460 0.000000
-14.932160 -13.967410 -0.358953 237 0.137801 0.990460 0.000000
-14.931709 -13.966996 -0.352667 251 0.137801 0.990460 0.000000
-14.934729 -13.969811 -0.346448 237 0.137801 0.990460 0.000000
-14.935933 -13.970941 -0.340197 245 0.137801 0.990460 0.000000
-14.936217 -13.971204 -0.333924 233 0.137801 0.990460 0.000000
-14.934052 -13.969185 -0.327594 243 0.137801 0.990460 0.000000
-14.931927 -13.967199 -0.321264 239 0.137801 0.990460 0.000000
-14.932958 -13.968162 -0.315004 245 0.137801 0.990460 0.000000
-14.934312 -13.969425 -0.308751 261 0.137801 0.990460 0.000000
-14.934975 -13.970048 -0.302485 271 0.137801 0.990460 0.000000
-14.935949 -13.970951 -0.296226 267 0.137801 0.990460 0.000000
-14.934729 -13.969818 -0.289917 237 0.137801 0.990460 0.000000
-14.933835 -13.968979 -0.283615 257 0.137801 0.990460 0.000000
-14.944034 -13.970644 -0.667188 257 0.137801 0.990460 0.000000
-14.944547 -13.971132 -0.660923 237 0.137801 0.990460 0.000000
-14.942828 -13.969517 -0.654559 243 0.137801 0.990460 0.000000
-14.942657 -13.969357 -0.648261 221 0.137801 0.990460 0.000000
-14.943062 -13.969744 -0.641987 235 0.137801 0.990460 0.000000
-14.941767 -13.968525 -0.635649 227 0.137801 0.990460 0.000000
-14.942924 -13.969603 -0.629408 215 0.137801 0.990460 0.000000
-14.944177 -13.970784 -0.623176 201 0.137801 0.990460 0.000000
-14.943464 -13.970118 -0.616853 205 0.137801 0.990460 0.000000
-14.944410 -13.970997 -0.610604 215 0.137801 0.990460 0.000000
-14.943318 -13.969971 -0.604274 199 0.137801 0.990460 0.000000
-14.941420 -13.968196 -0.597911 221 0.137801 0.990460 0.000000
-14.943098 -13.969774 -0.591685 213 0.137801 0.990460 0.000000
-14.943241 -13.969896 -0.585404 239 0.137801 0.990460 0.000000
-14.943314 -13.969975 -0.579123 261 0.137801 0.990460 0.000000
-14.944025 -13.970636 -0.572866 251 0.137801 0.990460 0.000000
-14.943831 -13.970458 -0.566568 297 0.137801 0.990460 0.000000
-14.942624 -13.969324 -0.560239 273 0.137801 0.990460 0.000000
-14.940937 -13.967748 -0.553885 267 0.137801 0.990460 0.000000
-14.941111 -13.967908 -0.547613 265 0.137801 0.990460 0.000000
-14.941876 -13.968628 -0.541356 259 0.137801 0.990460 0.000000
-14.940763 -13.967583 -0.535026 239 0.137801 0.990460 0.000000
-14.941527 -13.968301 -0.528769 257 0.137801 0.990460 0.000000
-14.942237 -13.968963 -0.522502 245 0.137801 0.990460 0.000000
-14.942351 -13.969073 -0.516221 247 0.137801 0.990460 0.000000
-14.942950 -13.969632 -0.509955 243 0.137801 0.990460 0.000000
-14.940336 -13.967184 -0.503589 237 0.137801 0.990460 0.000000
-14.940716 -13.967538 -0.497316 269 0.137801 0.990460 0.000000
-14.943069 -13.969744 -0.491103 273 0.137801 0.990460 0.000000
-14.942324 -13.969039 -0.484800 271 0.137801 0.990460 0.000000
-14.942059 -13.968788 -0.478503 249 0.137801 0.990460 0.000000
-14.944410 -13.970996 -0.472290 269 0.137801 0.990460 0.000000
-14.945105 -13.971643 -0.466024 283 0.137801 0.990460 0.000000
-14.942263 -13.968984 -0.459650 255 0.137801 0.990460 0.000000
-14.941191 -13.967986 -0.453340 269 0.137801 0.990460 0.000000
-14.942150 -13.968877 -0.447081 259 0.137801 0.990460 0.000000
-14.943316 -13.969975 -0.440830 273 0.137801 0.990460 0.000000
-14.942297 -13.969019 -0.434519 269 0.137801 0.990460 0.000000
-14.942826 -13.969507 -0.428244 255 0.137801 0.990460 0.000000
-14.942537 -13.969238 -0.421957 269 0.137801 0.990460 0.000000
-14.940874 -13.967682 -0.415622 255 0.137801 0.990460 0.000000
-14.939416 -13.966317 -0.409296 257 0.137801 0.990460 0.000000
-14.939286 -13.966204 -0.403017 237 0.137801 0.990460 0.000000
-14.941149 -13.967934 -0.396779 227 0.137801 0.990460 0.000000
-14.941875 -13.968622 -0.390512 269 0.137801 0.990460 0.000000
-14.942012 -13.968750 -0.384231 253 0.137801 0.990460 0.000000
-14.942587 -13.969275 -0.377965 261 0.137801 0.990460 0.000000
-14.942935 -13.969604 -0.371692 239 0.137801 0.990460 0.000000
-14.942907 -13.969586 -0.365402 233 0.137801 0.990460 0.000000
-14.942242 -13.968959 -0.359108 247 0.137801 0.990460 0.000000
-14.941625 -13.968383 -0.352804 247 0.137801 0.990460 0.000000
-14.941861 -13.968607 -0.346531 235 0.137801 0.990460 0.000000
-14.942478 -13.969179 -0.340265 231 0.137801 0.990460 0.000000
-14.942133 -13.968852 -0.333968 239 0.137801 0.990460 0.000000
-14.940864 -13.967668 -0.327660 243 0.137801 0.990460 0.000000
-14.942068 -13.968797 -0.321399 259 0.137801 0.990460 0.000000
-14.942928 -13.969606 -0.315141 249 0.137801 0.990460 0.000000
-14.940872 -13.967677 -0.308810 249 0.137801 0.990460 0.000000
-14.939766 -13.966639 -0.302510 273 0.137801 0.990460 0.000000
-14.940091 -13.966949 -0.296227 265 0.137801 0.990460 0.000000
-14.940637 -13.967463 -0.289961 245 0.137801 0.990460 0.000000
-14.940222 -13.967064 -0.283665 257 0.137801 0.990460 0.000000
-14.947114 -13.965308 -0.497397 285 0.137801 0.990460 0.000000
-14.947225 -13.965404 -0.491106 305 0.137801 0.990460 0.000000
-14.947153 -13.965335 -0.283722 271 0.137801 0.990460 0.000000
