717
-14.633961 -14.126985 -0.674895 835 0.450450 0.892802 0.000000
-14.633784 -14.126818 -0.668636 831 0.450450 0.892802 0.000000
-14.632782 -14.125846 -0.662336 827 0.450450 0.892802 0.000000
-14.632247 -14.125327 -0.656061 807 0.450450 0.892802 0.000000
-14.633128 -14.126184 -0.649852 825 0.450450 0.892802 0.000000
-14.633006 -14.126062 -0.643593 813 0.450450 0.892802 0.000000
-14.632619 -14.125693 -0.637327 791 0.450450 0.892802 0.000000
-14.631335 -14.124449 -0.631019 809 0.450450 0.892802 0.000000
-14.630949 -14.124081 -0.624752 811 0.450450 0.892802 0.000000
-14.631402 -14.124516 -0.618518 821 0.450450 0.892802 0.000000
-14.632334 -14.125412 -0.612299 825 0.450450 0.892802 0.000000
-14.633092 -14.126151 -0.606081 823 0.450450 0.892802 0.000000
-14.632338 -14.125413 -0.599799 807 0.450450 0.892802 0.000000
-14.631779 -14.124875 -0.593524 803 0.450450 0.892802 0.000000
-14.632180 -14.125266 -0.587290 813 0.450450 0.892802 0.000000
-14.632041 -14.125131 -0.581041 817 0.450450 0.892802 0.000000
-14.631741 -14.124846 -0.574774 809 0.450450 0.892802 0.000000
-14.632507 -14.125580 -0.568556 831 0.450450 0.892802 0.000000
-14.632571 -14.125653 -0.562305 833 0.450450 0.892802 0.000000
-14.632597 -14.125666 -0.556055 821 0.450450 0.892802 0.000000
-14.631868 -14.124975 -0.549782 841 0.450450 0.892802 0.000000
-14.631729 -14.124839 -0.543523 823 0.450450 0.892802 0.000000
-14.632270 -14.125358 -0.537288 827 0.450450 0.892802 0.000000
-14.631499 -14.124605 -0.531015 831 0.450450 0.892802 0.000000
-14.631348 -14.124472 -0.524756 823 0.450450 0.892802 0.000000
-14.631093 -14.124226 -0.518498 821 0.450450 0.892802 0.000000
-14.631002 -14.124129 -0.512249 837 0.450450 0.892802 0.000000
-14.631112 -14.124240 -0.505998 829 0.450450 0.892802 0.000000
-14.630641 -14.123788 -0.499742 843 0.450450 0.892802 0.000000
-14.630338 -14.123489 -0.493475 843 0.450450 0.892802 0.000000
-14.631440 -14.124556 -0.487264 837 0.450450 0.892802 0.000000
-14.632969 -14.126028 -0.481070 825 0.450450 0.892802 0.000000
-14.632069 -14.125167 -0.474788 813 0.450450 0.892802 0.000000
-14.631174 -14.124298 -0.468516 797 0.450450 0.892802 0.000000
-14.631178 -14.124306 -0.462266 823 0.450450 0.892802 0.000000
-14.631218 -14.124345 -0.456016 803 0.450450 0.892802 0.000000
-14.631899 -14.125008 -0.449789 829 0.450450 0.892802 0.000000
-14.630739 -14.123879 -0.443500 813 0.450450 0.892802 0.000000
-14.629886 -14.123057 -0.437228 799 0.450450 0.892802 0.000000
-14.631244 -14.124374 -0.431025 807 0.450450 0.892802 0.000000
-14.631924 -14.125024 -0.424798 851 0.450450 0.892802 0.000000
-14.631070 -14.124202 -0.418526 843 0.450450 0.892802 0.000000
-14.630846 -14.123981 -0.412268 811 0.450450 0.892802 0.000000
-14.631097 -14.124223 -0.406026 807 0.450450 0.892802 0.000000
-14.631335 -14.124465 -0.399783 809 0.450450 0.892802 0.000000
-14.632154 -14.125256 -0.393565 811 0.450450 0.892802 0.000000
-14.632401 -14.125491 -0.387323 827 0.450450 0.892802 0.000000
-14.631599 -14.124714 -0.381050 841 0.450450 0.892802 0.000000
-14.631524 -14.124643 -0.374801 843 0.450450 0.892802 0.000000
-14.630239 -14.123398 -0.368523 823 0.450450 0.892802 0.000000
-14.630095 -14.123270 -0.362274 823 0.450450 0.892802 0.000000
-14.630813 -14.123951 -0.356037 835 0.450450 0.892802 0.000000
-14.630847 -14.123984 -0.349797 809 0.450450 0.892802 0.000000
-14.631232 -14.124363 -0.343563 819 0.450450 0.892802 0.000000
-14.631204 -14.124331 -0.337313 813 0.450450 0.892802 0.000000
-14.631641 -14.124752 -0.331069 803 0.450450 0.892802 0.000000
-14.631302 -14.124423 -0.324822 817 0.450450 0.892802 0.000000
-14.630673 -14.123828 -0.318558 807 0.450450 0.892802 0.000000
-14.630380 -14.123537 -0.312310 785 0.450450 0.892802 0.000000
-14.630240 -14.123400 -0.306052 769 0.450450 0.892802 0.000000
-14.630938 -14.124077 -0.299825 793 0.450450 0.892802 0.000000
-14.630582 -14.123734 -0.293568 793 0.450450 0.892802 0.000000
-14.630382 -14.123547 -0.287320 773 0.450450 0.892802 0.000000
-14.630392 -14.123549 -0.281079 761 0.450450 0.892802 0.000000
-14.630143 -14.123308 -0.274822 773 0.450450 0.892802 0.000000
-14.639494 -14.123366 -0.674947 825 0.450450 0.892802 0.000000
-14.638803 -14.122693 -0.668664 819 0.450450 0.892802 0.000000
-14.638103 -14.122012 -0.662381 805 0.450450 0.892802 0.000000
-14.638349 -14.122261 -0.656138 805 0.450450 0.892802 0.000000
-14.638701 -14.122600 -0.649904 793 0.450450 0.892802 0.000000
-14.638484 -14.122385 -0.643636 793 0.450450 0.892802 0.000000
-14.638052 -14.121965 -0.637370 809 0.450450 0.892802 0.000000
-14.638294 -14.122198 -0.631128 805 0.450450 0.892802 0.000000
-14.638906 -14.122790 -0.624902 813 0.450450 0.892802 0.000000
-14.638829 -14.122720 -0.618642 807 0.450450 0.892802 0.000000
-14.637967 -14.121891 -0.612351 799 0.450450 0.892802 0.000000
-14.638103 -14.122022 -0.606109 801 0.450450 0.892802 0.000000
-14.637653 -14.121588 -0.599843 815 0.450450 0.892802 0.000000
-14.637266 -14.121206 -0.593567 813 0.450450 0.892802 0.000000
-14.638335 -14.122246 -0.587366 817 0.450450 0.892802 0.000000
-14.638680 -14.122576 -0.581123 803 0.450450 0.892802 0.000000
-14.638909 -14.122798 -0.574881 835 0.450450 0.892802 0.000000
-14.638406 -14.122318 -0.568615 823 0.450450 0.892802 0.000000
-14.637784 -14.121716 -0.562341 831 0.450450 0.892802 0.000000
-14.638543 -14.122444 -0.556114 827 0.450450 0.892802 0.000000
-14.639099 -14.122976 -0.549888 831 0.450450 0.892802 0.000000
-14.638742 -14.122634 -0.543621 811 0.450450 0.892802 0.000000
-14.639220 -14.123102 -0.537387 819 0.450450 0.892802 0.000000
-14.638397 -14.122304 -0.531105 827 0.450450 0.892802 0.000000
-14.638041 -14.121961 -0.524838 841 0.450450 0.892802 0.000000
-14.638621 -14.122527 -0.518612 827 0.450450 0.892802 0.000000
-14.638794 -14.122690 -0.512370 819 0.450450 0.892802 0.000000
-14.638697 -14.122601 -0.506111 835 0.450450 0.892802 0.000000
-14.638495 -14.122400 -0.499853 827 0.450450 0.892802 0.000000
-14.637975 -14.121894 -0.493588 823 0.450450 0.892802 0.000000
-14.638499 -14.122401 -0.487352 829 0.450450 0.892802 0.000000
-14.638127 -14.122046 -0.481096 825 0.450450 0.892802 0.000000
-14.637033 -14.120983 -0.474806 823 0.450450 0.892802 0.000000
-14.636605 -14.120583 -0.468540 827 0.450450 0.892802 0.000000
-14.636335 -14.120324 -0.462293 815 0.450450 0.892802 0.000000
-14.637811 -14.121738 -0.456088 809 0.450450 0.892802 0.000000
-14.637798 -14.121734 -0.449838 809 0.450450 0.892802 0.000000
-14.637419 -14.121371 -0.443572 815 0.450450 0.892802 0.000000
-14.637631 -14.121566 -0.437330 823 0.450450 0.892802 0.000000
-14.637618 -14.121562 -0.431080 819 0.450450 0.892802 0.000000
-14.636974 -14.120939 -0.424816 829 0.450450 0.892802 0.000000
-14.637076 -14.121030 -0.418564 821 0.450450 0.892802 0.000000
-14.635952 -14.119956 -0.412285 799 0.450450 0.892802 0.000000
-14.635890 -14.119885 -0.406035 803 0.450450 0.892802 0.000000
-14.637771 -14.121701 -0.399847 813 0.450450 0.892802 0.000000
-14.636955 -14.120925 -0.393575 823 0.450450 0.892802 0.000000
-14.636996 -14.120951 -0.387324 823 0.450450 0.892802 0.000000
-14.638184 -14.122100 -0.381113 825 0.450450 0.892802 0.000000
-14.638529 -14.122432 -0.374870 825 0.450450 0.892802 0.000000
-14.638399 -14.122315 -0.368621 823 0.450450 0.892802 0.000000
-14.638268 -14.122187 -0.362362 827 0.450450 0.892802 0.000000
-14.637086 -14.121039 -0.356093 817 0.450450 0.892802 0.000000
-14.636582 -14.120561 -0.349828 797 0.450450 0.892802 0.000000
-14.637815 -14.121748 -0.343606 795 0.450450 0.892802 0.000000
-14.638372 -14.122281 -0.337370 811 0.450450 0.892802 0.000000
-14.637806 -14.121737 -0.331115 801 0.450450 0.892802 0.000000
-14.637255 -14.121206 -0.324851 775 0.450450 0.892802 0.000000
-14.637265 -14.121222 -0.318610 777 0.450450 0.892802 0.000000
-14.637393 -14.121345 -0.312359 791 0.450450 0.892802 0.000000
-14.637505 -14.121457 -0.306118 791 0.450450 0.892802 0.000000
-14.637528 -14.121469 -0.299867 791 0.450450 0.892802 0.000000
-14.637851 -14.121781 -0.293634 793 0.450450 0.892802 0.000000
-14.637184 -14.121141 -0.287370 783 0.450450 0.892802 0.000000
-14.637038 -14.120998 -0.281122 785 0.450450 0.892802 0.000000
-14.637196 -14.121148 -0.274880 779 0.450450 0.892802 0.000000
-14.646645 -14.121107 -0.675076 835 0.450450 0.892802 0.000000
-14.646629 -14.121088 -0.668816 837 0.450450 0.892802 0.000000
-14.645519 -14.120026 -0.662516 817 0.450450 0.892802 0.000000
-14.645350 -14.119865 -0.656248 813 0.450450 0.892802 0.000000
-14.645017 -14.119541 -0.649981 815 0.450450 0.892802 0.000000
-14.644257 -14.118811 -0.643698 793 0.450450 0.892802 0.000000
-14.644352 -14.118895 -0.637447 821 0.450450 0.892802 0.000000
-14.644971 -14.119493 -0.631221 817 0.450450 0.892802 0.000000
-14.645262 -14.119780 -0.624978 819 0.450450 0.892802 0.000000
-14.644982 -14.119499 -0.618710 819 0.450450 0.892802 0.000000
-14.644744 -14.119281 -0.612452 813 0.450450 0.892802 0.000000
-14.644146 -14.118698 -0.606168 793 0.450450 0.892802 0.000000
-14.644226 -14.118771 -0.599927 795 0.450450 0.892802 0.000000
-14.644938 -14.119458 -0.593700 787 0.450450 0.892802 0.000000
-14.645020 -14.119544 -0.587449 805 0.450450 0.892802 0.000000
-14.644670 -14.119208 -0.581182 809 0.450450 0.892802 0.000000
-14.644852 -14.119376 -0.574940 825 0.450450 0.892802 0.000000
-14.645346 -14.119858 -0.568705 827 0.450450 0.892802 0.000000
-14.644787 -14.119320 -0.562431 815 0.450450 0.892802 0.000000
-14.645068 -14.119586 -0.556188 825 0.450450 0.892802 0.000000
-14.645617 -14.120113 -0.549962 843 0.450450 0.892802 0.000000
-14.644738 -14.119270 -0.543671 827 0.450450 0.892802 0.000000
-14.644533 -14.119079 -0.537412 819 0.450450 0.892802 0.000000
-14.644705 -14.119240 -0.531171 817 0.450450 0.892802 0.000000
-14.644459 -14.119001 -0.524913 811 0.450450 0.892802 0.000000
-14.644942 -14.119462 -0.518678 821 0.450450 0.892802 0.000000
-14.644783 -14.119321 -0.512420 819 0.450450 0.892802 0.000000
-14.643538 -14.118108 -0.506121 817 0.450450 0.892802 0.000000
-14.643323 -14.117909 -0.499863 833 0.450450 0.892802 0.000000
-14.644011 -14.118578 -0.493636 827 0.450450 0.892802 0.000000
-14.644021 -14.118579 -0.487386 845 0.450450 0.892802 0.000000
-14.643332 -14.117919 -0.481113 823 0.450450 0.892802 0.000000
-14.644126 -14.118677 -0.474895 821 0.450450 0.892802 0.000000
-14.644699 -14.119237 -0.468659 817 0.450450 0.892802 0.000000
-14.643961 -14.118525 -0.462386 825 0.450450 0.892802 0.000000
-14.644175 -14.118733 -0.456144 831 0.450450 0.892802 0.000000
-14.644752 -14.119284 -0.449908 825 0.450450 0.892802 0.000000
-14.644426 -14.118967 -0.443651 809 0.450450 0.892802 0.000000
-14.643628 -14.118204 -0.437379 821 0.450450 0.892802 0.000000
-14.644199 -14.118749 -0.431143 815 0.450450 0.892802 0.000000
-14.644341 -14.118887 -0.424902 831 0.450450 0.892802 0.000000
-14.643752 -14.118323 -0.418637 819 0.450450 0.892802 0.000000
-14.642999 -14.117599 -0.412364 807 0.450450 0.892802 0.000000
-14.642244 -14.116872 -0.406091 803 0.450450 0.892802 0.000000
-14.642965 -14.117568 -0.399864 807 0.450450 0.892802 0.000000
-14.642680 -14.117296 -0.393607 813 0.450450 0.892802 0.000000
-14.643040 -14.117640 -0.387363 809 0.450450 0.892802 0.000000
-14.643596 -14.118174 -0.381138 813 0.450450 0.892802 0.000000
-14.642896 -14.117492 -0.374864 821 0.450450 0.892802 0.000000
-14.643024 -14.117618 -0.368623 807 0.450450 0.892802 0.000000
-14.642685 -14.117301 -0.362366 813 0.450450 0.892802 0.000000
-14.643660 -14.118235 -0.356137 799 0.450450 0.892802 0.000000
-14.644215 -14.118768 -0.349901 801 0.450450 0.892802 0.000000
-14.643604 -14.118185 -0.343637 799 0.450450 0.892802 0.000000
-14.643840 -14.118414 -0.337394 797 0.450450 0.892802 0.000000
-14.643537 -14.118115 -0.331147 799 0.450450 0.892802 0.000000
-14.642878 -14.117480 -0.324883 809 0.450450 0.892802 0.000000
-14.642897 -14.117502 -0.318633 799 0.450450 0.892802 0.000000
-14.643226 -14.117820 -0.312390 805 0.450450 0.892802 0.000000
-14.643236 -14.117834 -0.306149 787 0.450450 0.892802 0.000000
-14.643418 -14.118004 -0.299898 807 0.450450 0.892802 0.000000
-14.642694 -14.117303 -0.293634 789 0.450450 0.892802 0.000000
-14.642907 -14.117512 -0.287392 769 0.450450 0.892802 0.000000
-14.643028 -14.117631 -0.281151 763 0.450450 0.892802 0.000000
-14.642929 -14.117540 -0.274902 777 0.450450 0.892802 0.000000
-14.650433 -14.116116 -0.675053 811 0.450450 0.892802 0.000000
-14.651377 -14.117024 -0.668834 847 0.450450 0.892802 0.000000
-14.650781 -14.116454 -0.662560 841 0.450450 0.892802 0.000000
-14.650501 -14.116189 -0.656292 823 0.450450 0.892802 0.000000
-14.650224 -14.115925 -0.650025 819 0.450450 0.892802 0.000000
-14.650054 -14.115749 -0.643766 787 0.450450 0.892802 0.000000
-14.650875 -14.116542 -0.637548 803 0.450450 0.892802 0.000000
-14.650644 -14.116329 -0.631280 823 0.450450 0.892802 0.000000
-14.651161 -14.116817 -0.625045 833 0.450450 0.892802 0.000000
-14.651350 -14.117005 -0.618803 825 0.450450 0.892802 0.000000
-14.650012 -14.115716 -0.612496 823 0.450450 0.892802 0.000000
-14.649780 -14.115489 -0.606228 829 0.450450 0.892802 0.000000
-14.650851 -14.116529 -0.600018 829 0.450450 0.892802 0.000000
-14.651781 -14.117424 -0.593809 839 0.450450 0.892802 0.000000
-14.651175 -14.116835 -0.587524 823 0.450450 0.892802 0.000000
-14.650407 -14.116096 -0.581241 805 0.450450 0.892802 0.000000
-14.650486 -14.116168 -0.574991 803 0.450450 0.892802 0.000000
-14.650139 -14.115832 -0.568724 813 0.450450 0.892802 0.000000
-14.650148 -14.115847 -0.562473 815 0.450450 0.892802 0.000000
-14.650650 -14.116333 -0.556238 811 0.450450 0.892802 0.000000
-14.650552 -14.116244 -0.549989 841 0.450450 0.892802 0.000000
-14.649469 -14.115193 -0.543689 815 0.450450 0.892802 0.000000
-14.649014 -14.114754 -0.537424 813 0.450450 0.892802 0.000000
-14.649593 -14.115320 -0.531198 829 0.450450 0.892802 0.000000
-14.649299 -14.115028 -0.524931 833 0.450450 0.892802 0.000000
-14.649621 -14.115341 -0.518687 829 0.450450 0.892802 0.000000
-14.649632 -14.115355 -0.512437 833 0.450450 0.892802 0.000000
-14.650434 -14.116119 -0.506219 831 0.450450 0.892802 0.000000
-14.650640 -14.116323 -0.499977 827 0.450450 0.892802 0.000000
-14.650066 -14.115772 -0.493703 839 0.450450 0.892802 0.000000
-14.650280 -14.115981 -0.487460 829 0.450450 0.892802 0.000000
-14.650025 -14.115735 -0.481193 831 0.450450 0.892802 0.000000
-14.649341 -14.115067 -0.474929 815 0.450450 0.892802 0.000000
-14.649446 -14.115173 -0.468678 827 0.450450 0.892802 0.000000
-14.649277 -14.115011 -0.462419 805 0.450450 0.892802 0.000000
-14.649535 -14.115258 -0.456177 833 0.450450 0.892802 0.000000
-14.650271 -14.115967 -0.449950 835 0.450450 0.892802 0.000000
-14.649323 -14.115053 -0.443668 829 0.450450 0.892802 0.000000
-14.649200 -14.114944 -0.437419 821 0.450450 0.892802 0.000000
-14.649134 -14.114881 -0.431170 813 0.450450 0.892802 0.000000
-14.649026 -14.114771 -0.424911 827 0.450450 0.892802 0.000000
-14.649754 -14.115472 -0.418684 819 0.450450 0.892802 0.000000
-14.648789 -14.114545 -0.412403 821 0.450450 0.892802 0.000000
-14.649252 -14.114987 -0.406168 847 0.450450 0.892802 0.000000
-14.649597 -14.115319 -0.399925 825 0.450450 0.892802 0.000000
-14.648682 -14.114446 -0.393653 813 0.450450 0.892802 0.000000
-14.649088 -14.114828 -0.387419 823 0.450450 0.892802 0.000000
-14.649543 -14.115276 -0.381175 819 0.450450 0.892802 0.000000
-14.649364 -14.115096 -0.374926 819 0.450450 0.892802 0.000000
-14.648814 -14.114564 -0.368662 809 0.450450 0.892802 0.000000
-14.649050 -14.114792 -0.362419 809 0.450450 0.892802 0.000000
-14.648813 -14.114573 -0.356161 817 0.450450 0.892802 0.000000
-14.648891 -14.114645 -0.349920 807 0.450450 0.892802 0.000000
-14.649129 -14.114873 -0.343668 791 0.450450 0.892802 0.000000
-14.649567 -14.115295 -0.337434 799 0.450450 0.892802 0.000000
-14.649804 -14.115523 -0.331191 797 0.450450 0.892802 0.000000
-14.649137 -14.114883 -0.324927 801 0.450450 0.892802 0.000000
-14.648951 -14.114695 -0.318669 789 0.450450 0.892802 0.000000
-14.648859 -14.114612 -0.312420 769 0.450450 0.892802 0.000000
-14.649081 -14.114827 -0.306177 763 0.450450 0.892802 0.000000
-14.649099 -14.114848 -0.299927 783 0.450450 0.892802 0.000000
-14.648797 -14.114550 -0.293680 793 0.450450 0.892802 0.000000
-14.649118 -14.114861 -0.287437 789 0.450450 0.892802 0.000000
-14.648973 -14.114719 -0.281188 783 0.450450 0.892802 0.000000
-14.647831 -14.113619 -0.274909 783 0.450450 0.892802 0.000000
-14.656908 -14.113399 -0.675147 815 0.450450 0.892802 0.000000
-14.657059 -14.113542 -0.668896 817 0.450450 0.892802 0.000000
-14.654995 -14.111558 -0.662545 803 0.450450 0.892802 0.000000
-14.654880 -14.111442 -0.656286 799 0.450450 0.892802 0.000000
-14.655967 -14.112494 -0.650086 801 0.450450 0.892802 0.000000
-14.657481 -14.113955 -0.643891 809 0.450450 0.892802 0.000000
-14.657888 -14.114350 -0.637657 815 0.450450 0.892802 0.000000
-14.657126 -14.113619 -0.631374 789 0.450450 0.892802 0.000000
-14.655899 -14.112432 -0.625066 797 0.450450 0.892802 0.000000
-14.655084 -14.111643 -0.618773 789 0.450450 0.892802 0.000000
-14.656279 -14.112798 -0.612572 809 0.450450 0.892802 0.000000
-14.658048 -14.114496 -0.606385 819 0.450450 0.892802 0.000000
-14.657966 -14.114421 -0.600135 805 0.450450 0.892802 0.000000
-14.656369 -14.112878 -0.593810 791 0.450450 0.892802 0.000000
-14.656287 -14.112801 -0.587551 805 0.450450 0.892802 0.000000
-14.656360 -14.112866 -0.581300 799 0.450450 0.892802 0.000000
-14.656908 -14.113406 -0.575075 823 0.450450 0.892802 0.000000
-14.656193 -14.112712 -0.568791 805 0.450450 0.892802 0.000000
-14.655845 -14.112377 -0.562525 817 0.450450 0.892802 0.000000
-14.656066 -14.112592 -0.556282 817 0.450450 0.892802 0.000000
-14.655460 -14.112002 -0.550008 801 0.450450 0.892802 0.000000
-14.655898 -14.112424 -0.543764 807 0.450450 0.892802 0.000000
-14.656065 -14.112594 -0.537522 799 0.450450 0.892802 0.000000
-14.655188 -14.111739 -0.531240 801 0.450450 0.892802 0.000000
-14.654980 -14.111546 -0.524982 813 0.450450 0.892802 0.000000
-14.655778 -14.112319 -0.518754 807 0.450450 0.892802 0.000000
-14.656846 -14.113344 -0.512544 837 0.450450 0.892802 0.000000
-14.657229 -14.113707 -0.506300 821 0.450450 0.892802 0.000000
-14.657700 -14.114168 -0.500065 821 0.450450 0.892802 0.000000
-14.656543 -14.113056 -0.493776 811 0.450450 0.892802 0.000000
-14.656132 -14.112654 -0.487510 821 0.450450 0.892802 0.000000
-14.656610 -14.113108 -0.481265 817 0.450450 0.892802 0.000000
-14.655661 -14.112194 -0.474984 819 0.450450 0.892802 0.000000
-14.655553 -14.112098 -0.468735 835 0.450450 0.892802 0.000000
-14.655386 -14.111938 -0.462477 813 0.450450 0.892802 0.000000
-14.654913 -14.111485 -0.456211 811 0.450450 0.892802 0.000000
-14.655015 -14.111575 -0.449960 813 0.450450 0.892802 0.000000
-14.655369 -14.111927 -0.443726 791 0.450450 0.892802 0.000000
-14.655209 -14.111773 -0.437468 807 0.450450 0.892802 0.000000
-14.655093 -14.111656 -0.431209 799 0.450450 0.892802 0.000000
-14.655664 -14.112202 -0.424973 801 0.450450 0.892802 0.000000
-14.655121 -14.111677 -0.418708 803 0.450450 0.892802 0.000000
-14.655530 -14.112074 -0.412474 815 0.450450 0.892802 0.000000
-14.657044 -14.113534 -0.406259 839 0.450450 0.892802 0.000000
-14.655924 -14.112452 -0.399980 815 0.450450 0.892802 0.000000
-14.654065 -14.110663 -0.393678 793 0.450450 0.892802 0.000000
-14.654729 -14.111300 -0.387451 793 0.450450 0.892802 0.000000
-14.655806 -14.112344 -0.381231 787 0.450450 0.892802 0.000000
-14.655894 -14.112422 -0.374980 805 0.450450 0.892802 0.000000
-14.656036 -14.112560 -0.368728 793 0.450450 0.892802 0.000000
-14.656477 -14.112996 -0.362494 803 0.450450 0.892802 0.000000
-14.655723 -14.112258 -0.356221 815 0.450450 0.892802 0.000000
-14.654683 -14.111267 -0.349951 801 0.450450 0.892802 0.000000
-14.655346 -14.111902 -0.343714 785 0.450450 0.892802 0.000000
-14.655527 -14.112072 -0.337472 775 0.450450 0.892802 0.000000
-14.654650 -14.111230 -0.331200 789 0.450450 0.892802 0.000000
-14.654091 -14.110693 -0.324936 769 0.450450 0.892802 0.000000
-14.653784 -14.110403 -0.318688 779 0.450450 0.892802 0.000000
-14.654650 -14.111233 -0.312450 779 0.450450 0.892802 0.000000
-14.655875 -14.112414 -0.306228 773 0.450450 0.892802 0.000000
-14.656004 -14.112538 -0.299987 773 0.450450 0.892802 0.000000
-14.656278 -14.112799 -0.293744 779 0.450450 0.892802 0.000000
-14.655393 -14.111950 -0.287472 783 0.450450 0.892802 0.000000
-14.654452 -14.111044 -0.281201 803 0.450450 0.892802 0.000000
-14.654251 -14.110844 -0.274953 807 0.450450 0.892802 0.000000
-14.662819 -14.110108 -0.675216 801 0.450450 0.892802 0.000000
-14.663227 -14.110505 -0.668972 783 0.450450 0.892802 0.000000
-14.663378 -14.110648 -0.662731 799 0.450450 0.892802 0.000000
-14.662897 -14.110189 -0.656445 825 0.450450 0.892802 0.000000
-14.663671 -14.110929 -0.650228 815 0.450450 0.892802 0.000000
-14.663650 -14.110917 -0.643968 807 0.450450 0.892802 0.000000
-14.663534 -14.110801 -0.637709 811 0.450450 0.892802 0.000000
-14.663467 -14.110737 -0.631449 797 0.450450 0.892802 0.000000
-14.663703 -14.110965 -0.625207 799 0.450450 0.892802 0.000000
-14.664314 -14.111557 -0.618981 807 0.450450 0.892802 0.000000
-14.663662 -14.110929 -0.612697 785 0.450450 0.892802 0.000000
-14.662955 -14.110242 -0.606413 797 0.450450 0.892802 0.000000
-14.662723 -14.110014 -0.600145 793 0.450450 0.892802 0.000000
-14.663373 -14.110652 -0.593919 785 0.450450 0.892802 0.000000
-14.663671 -14.110931 -0.587676 815 0.450450 0.892802 0.000000
-14.662636 -14.109933 -0.581376 811 0.450450 0.892802 0.000000
-14.663293 -14.110562 -0.575149 815 0.450450 0.892802 0.000000
-14.663212 -14.110486 -0.568890 809 0.450450 0.892802 0.000000
-14.662652 -14.109949 -0.562615 809 0.450450 0.892802 0.000000
-14.662561 -14.109865 -0.556356 817 0.450450 0.892802 0.000000
-14.662580 -14.109887 -0.550106 823 0.450450 0.892802 0.000000
-14.662651 -14.109951 -0.543855 811 0.450450 0.892802 0.000000
-14.662608 -14.109907 -0.537595 795 0.450450 0.892802 0.000000
-14.662353 -14.109661 -0.531337 805 0.450450 0.892802 0.000000
-14.662527 -14.109838 -0.525086 801 0.450450 0.892802 0.000000
-14.662746 -14.110039 -0.518843 805 0.450450 0.892802 0.000000
-14.663388 -14.110656 -0.512617 821 0.450450 0.892802 0.000000
-14.663445 -14.110723 -0.506366 819 0.450450 0.892802 0.000000
-14.662607 -14.109913 -0.500084 817 0.450450 0.892802 0.000000
-14.662983 -14.110271 -0.493840 827 0.450450 0.892802 0.000000
-14.662931 -14.110219 -0.487581 825 0.450450 0.892802 0.000000
-14.662724 -14.110025 -0.481323 811 0.450450 0.892802 0.000000
-14.662414 -14.109722 -0.475065 811 0.450450 0.892802 0.000000
-14.662300 -14.109619 -0.468806 815 0.450450 0.892802 0.000000
-14.662988 -14.110274 -0.462580 803 0.450450 0.892802 0.000000
-14.661822 -14.109154 -0.456291 809 0.450450 0.892802 0.000000
-14.660507 -14.107884 -0.449993 813 0.450450 0.892802 0.000000
-14.661016 -14.108377 -0.443758 817 0.450450 0.892802 0.000000
-14.661174 -14.108527 -0.437516 811 0.450450 0.892802 0.000000
-14.661901 -14.109229 -0.431279 791 0.450450 0.892802 0.000000
-14.662253 -14.109566 -0.425046 799 0.450450 0.892802 0.000000
-14.661509 -14.108847 -0.418773 799 0.450450 0.892802 0.000000
-14.661550 -14.108888 -0.412522 791 0.450450 0.892802 0.000000
-14.662215 -14.109536 -0.406286 797 0.450450 0.892802 0.000000
-14.662521 -14.109823 -0.400043 799 0.450450 0.892802 0.000000
-14.662601 -14.109908 -0.393792 825 0.450450 0.892802 0.000000
-14.662846 -14.110143 -0.387549 795 0.450450 0.892802 0.000000
-14.662350 -14.109671 -0.381284 803 0.450450 0.892802 0.000000
-14.661283 -14.108633 -0.375004 805 0.450450 0.892802 0.000000
-14.661730 -14.109062 -0.368769 803 0.450450 0.892802 0.000000
-14.661859 -14.109187 -0.362518 805 0.450450 0.892802 0.000000
-14.661463 -14.108811 -0.356262 803 0.450450 0.892802 0.000000
-14.661443 -14.108787 -0.350012 801 0.450450 0.892802 0.000000
-14.660456 -14.107841 -0.343731 809 0.450450 0.892802 0.000000
-14.660529 -14.107921 -0.337490 783 0.450450 0.892802 0.000000
-14.661824 -14.109159 -0.331268 775 0.450450 0.892802 0.000000
-14.662061 -14.109387 -0.325015 769 0.450450 0.892802 0.000000
-14.661126 -14.108486 -0.318754 769 0.450450 0.892802 0.000000
-14.660819 -14.108195 -0.312497 769 0.450450 0.892802 0.000000
-14.661264 -14.108624 -0.306252 767 0.450450 0.892802 0.000000
-14.660956 -14.108320 -0.299995 755 0.450450 0.892802 0.000000
-14.660234 -14.107635 -0.293732 767 0.450450 0.892802 0.000000
-14.660775 -14.108155 -0.287497 765 0.450450 0.892802 0.000000
-14.660464 -14.107849 -0.281239 761 0.450450 0.892802 0.000000
-14.660476 -14.107864 -0.274989 789 0.450450 0.892802 0.000000
-14.671405 -14.109419 -0.675410 815 0.450450 0.892802 0.000000
-14.670651 -14.108695 -0.669117 811 0.450450 0.892802 0.000000
-14.669167 -14.107269 -0.662791 801 0.450450 0.892802 0.000000
-14.669371 -14.107457 -0.656539 809 0.450450 0.892802 0.000000
-14.669833 -14.107900 -0.650304 815 0.450450 0.892802 0.000000
-14.669554 -14.107635 -0.644037 793 0.450450 0.892802 0.000000
-14.669332 -14.107414 -0.637769 797 0.450450 0.892802 0.000000
-14.668944 -14.107046 -0.631502 789 0.450450 0.892802 0.000000
-14.668331 -14.106463 -0.625218 797 0.450450 0.892802 0.000000
-14.667470 -14.105635 -0.618926 791 0.450450 0.892802 0.000000
-14.667721 -14.105876 -0.612684 781 0.450450 0.892802 0.000000
-14.668853 -14.106966 -0.606473 823 0.450450 0.892802 0.000000
-14.670149 -14.108205 -0.600270 807 0.450450 0.892802 0.000000
-14.669855 -14.107927 -0.594003 799 0.450450 0.892802 0.000000
-14.668565 -14.106690 -0.587695 815 0.450450 0.892802 0.000000
-14.668698 -14.106806 -0.581444 789 0.450450 0.892802 0.000000
-14.669238 -14.107340 -0.575208 799 0.450450 0.892802 0.000000
-14.668579 -14.106691 -0.568934 789 0.450450 0.892802 0.000000
-14.667600 -14.105753 -0.562634 785 0.450450 0.892802 0.000000
-14.668935 -14.107038 -0.556431 795 0.450450 0.892802 0.000000
-14.669264 -14.107355 -0.550187 801 0.450450 0.892802 0.000000
-14.667171 -14.105347 -0.543857 787 0.450450 0.892802 0.000000
-14.667135 -14.105309 -0.537607 791 0.450450 0.892802 0.000000
-14.668304 -14.106431 -0.531396 789 0.450450 0.892802 0.000000
-14.668642 -14.106755 -0.525153 799 0.450450 0.892802 0.000000
-14.668597 -14.106711 -0.518893 807 0.450450 0.892802 0.000000
-14.669450 -14.107530 -0.512675 807 0.450450 0.892802 0.000000
-14.669601 -14.107686 -0.506423 819 0.450450 0.892802 0.000000
-14.668824 -14.106929 -0.500140 809 0.450450 0.892802 0.000000
-14.668459 -14.106578 -0.493874 801 0.450450 0.892802 0.000000
-14.667614 -14.105777 -0.487592 801 0.450450 0.892802 0.000000
-14.667405 -14.105569 -0.481333 803 0.450450 0.892802 0.000000
-14.668305 -14.106441 -0.475115 817 0.450450 0.892802 0.000000
-14.667994 -14.106136 -0.468848 825 0.450450 0.892802 0.000000
-14.666985 -14.105170 -0.462567 829 0.450450 0.892802 0.000000
-14.666659 -14.104854 -0.456300 791 0.450450 0.892802 0.000000
-14.667294 -14.105464 -0.450074 809 0.450450 0.892802 0.000000
-14.667077 -14.105250 -0.443806 789 0.450450 0.892802 0.000000
-14.666854 -14.105044 -0.437548 769 0.450450 0.892802 0.000000
-14.667480 -14.105649 -0.431322 785 0.450450 0.892802 0.000000
-14.667732 -14.105890 -0.425069 791 0.450450 0.892802 0.000000
-14.667983 -14.106130 -0.418826 807 0.450450 0.892802 0.000000
-14.667283 -14.105449 -0.412553 797 0.450450 0.892802 0.000000
-14.667426 -14.105587 -0.406312 807 0.450450 0.892802 0.000000
-14.668201 -14.106340 -0.400074 815 0.450450 0.892802 0.000000
-14.668453 -14.106581 -0.393831 797 0.450450 0.892802 0.000000
-14.668159 -14.106303 -0.387574 809 0.450450 0.892802 0.000000
-14.667468 -14.105630 -0.381301 795 0.450450 0.892802 0.000000
-14.667127 -14.105298 -0.375044 795 0.450450 0.892802 0.000000
-14.666774 -14.104971 -0.368787 793 0.450450 0.892802 0.000000
-14.667078 -14.105257 -0.362544 779 0.450450 0.892802 0.000000
-14.667681 -14.105841 -0.356308 793 0.450450 0.892802 0.000000
-14.668180 -14.106315 -0.350063 791 0.450450 0.892802 0.000000
-14.668635 -14.106750 -0.343819 793 0.450450 0.892802 0.000000
-14.668436 -14.106563 -0.337570 787 0.450450 0.892802 0.000000
-14.667933 -14.106085 -0.331305 773 0.450450 0.892802 0.000000
-14.667062 -14.105236 -0.325033 765 0.450450 0.892802 0.000000
-14.667237 -14.105412 -0.318791 751 0.450450 0.892802 0.000000
-14.666561 -14.104764 -0.312518 759 0.450450 0.892802 0.000000
-14.666367 -14.104570 -0.306269 757 0.450450 0.892802 0.000000
-14.667220 -14.105402 -0.300031 755 0.450450 0.892802 0.000000
-14.667035 -14.105214 -0.293783 753 0.450450 0.892802 0.000000
-14.666672 -14.104866 -0.287526 763 0.450450 0.892802 0.000000
-14.666254 -14.104471 -0.281270 769 0.450450 0.892802 0.000000
-14.666536 -14.104737 -0.275017 777 0.450450 0.892802 0.000000
-14.675621 -14.104822 -0.675404 787 0.450450 0.892802 0.000000
-14.675981 -14.105166 -0.669160 785 0.450450 0.892802 0.000000
-14.675812 -14.105006 -0.662902 809 0.450450 0.892802 0.000000
-14.674949 -14.104177 -0.656600 771 0.450450 0.892802 0.000000
-14.675309 -14.104520 -0.650356 797 0.450450 0.892802 0.000000
-14.674924 -14.104153 -0.644090 791 0.450450 0.892802 0.000000
-14.674747 -14.103985 -0.637821 787 0.450450 0.892802 0.000000
-14.674578 -14.103824 -0.631553 787 0.450450 0.892802 0.000000
-14.674611 -14.103857 -0.625302 799 0.450450 0.892802 0.000000
-14.674800 -14.104033 -0.619050 791 0.450450 0.892802 0.000000
-14.674779 -14.104008 -0.612800 771 0.450450 0.892802 0.000000
-14.675227 -14.104449 -0.606556 777 0.450450 0.892802 0.000000
-14.675673 -14.104878 -0.600321 791 0.450450 0.892802 0.000000
-14.675494 -14.104697 -0.594053 787 0.450450 0.892802 0.000000
-14.675149 -14.104375 -0.587786 809 0.450450 0.892802 0.000000
-14.675179 -14.104394 -0.581536 795 0.450450 0.892802 0.000000
-14.675673 -14.104876 -0.575301 797 0.450450 0.892802 0.000000
-14.675536 -14.104740 -0.569032 787 0.450450 0.892802 0.000000
-14.674876 -14.104104 -0.562758 781 0.450450 0.892802 0.000000
-14.675363 -14.104580 -0.556513 803 0.450450 0.892802 0.000000
-14.676222 -14.105404 -0.550295 819 0.450450 0.892802 0.000000
-14.675446 -14.104659 -0.544012 821 0.450450 0.892802 0.000000
-14.674662 -14.103909 -0.537730 805 0.450450 0.892802 0.000000
-14.674895 -14.104122 -0.531477 791 0.450450 0.892802 0.000000
-14.674749 -14.103980 -0.525218 787 0.450450 0.892802 0.000000
-14.674551 -14.103793 -0.518960 797 0.450450 0.892802 0.000000
-14.674505 -14.103748 -0.512700 811 0.450450 0.892802 0.000000
-14.674191 -14.103453 -0.506433 807 0.450450 0.892802 0.000000
-14.673569 -14.102850 -0.500159 791 0.450450 0.892802 0.000000
-14.673462 -14.102754 -0.493900 797 0.450450 0.892802 0.000000
-14.674579 -14.103817 -0.487689 809 0.450450 0.892802 0.000000
-14.674316 -14.103565 -0.481422 815 0.450450 0.892802 0.000000
-14.674162 -14.103416 -0.475163 815 0.450450 0.892802 0.000000
-14.674579 -14.103820 -0.468929 813 0.450450 0.892802 0.000000
-14.674098 -14.103361 -0.462653 799 0.450450 0.892802 0.000000
-14.675035 -14.104262 -0.456434 803 0.450450 0.892802 0.000000
-14.675030 -14.104264 -0.450174 829 0.450450 0.892802 0.000000
-14.675032 -14.104259 -0.443924 817 0.450450 0.892802 0.000000
-14.674653 -14.103896 -0.437657 781 0.450450 0.892802 0.000000
-14.673588 -14.102874 -0.431377 795 0.450450 0.892802 0.000000
-14.672998 -14.102310 -0.425103 767 0.450450 0.892802 0.000000
-14.673780 -14.103057 -0.418875 787 0.450450 0.892802 0.000000
-14.673666 -14.102941 -0.412616 795 0.450450 0.892802 0.000000
-14.672693 -14.102008 -0.406335 783 0.450450 0.892802 0.000000
-14.672892 -14.102203 -0.400093 797 0.450450 0.892802 0.000000
-14.673501 -14.102794 -0.393857 801 0.450450 0.892802 0.000000
-14.674065 -14.103333 -0.387622 807 0.450450 0.892802 0.000000
-14.673514 -14.102802 -0.381347 791 0.450450 0.892802 0.000000
-14.673914 -14.103192 -0.375113 799 0.450450 0.892802 0.000000
-14.673106 -14.102407 -0.368840 775 0.450450 0.892802 0.000000
-14.672812 -14.102131 -0.362573 775 0.450450 0.892802 0.000000
-14.673267 -14.102567 -0.356339 781 0.450450 0.892802 0.000000
-14.672607 -14.101933 -0.350065 777 0.450450 0.892802 0.000000
-14.672835 -14.102153 -0.343822 785 0.450450 0.892802 0.000000
-14.673445 -14.102730 -0.337586 785 0.450450 0.892802 0.000000
-14.672358 -14.101687 -0.331307 771 0.450450 0.892802 0.000000
-14.672321 -14.101663 -0.325057 745 0.450450 0.892802 0.000000
-14.672971 -14.102286 -0.318820 753 0.450450 0.892802 0.000000
-14.672724 -14.102048 -0.312563 743 0.450450 0.892802 0.000000
-14.672320 -14.101652 -0.306306 741 0.450450 0.892802 0.000000
-14.671333 -14.100707 -0.300036 751 0.450450 0.892802 0.000000
-14.672031 -14.101383 -0.293799 769 0.450450 0.892802 0.000000
-14.673628 -14.102912 -0.287573 785 0.450450 0.892802 0.000000
-14.673958 -14.103231 -0.281330 771 0.450450 0.892802 0.000000
-14.674171 -14.103441 -0.275088 771 0.450450 0.892802 0.000000
-14.681993 -14.102839 -0.675514 803 0.450450 0.892802 0.000000
-14.681302 -14.102165 -0.669221 809 0.450450 0.892802 0.000000
-14.681023 -14.101900 -0.662953 789 0.450450 0.892802 0.000000
-14.680955 -14.101836 -0.656694 775 0.450450 0.892802 0.000000
-14.680100 -14.101013 -0.650392 783 0.450450 0.892802 0.000000
-14.680718 -14.101610 -0.644166 783 0.450450 0.892802 0.000000
-14.682021 -14.102856 -0.637963 789 0.450450 0.892802 0.000000
-14.682110 -14.102948 -0.631712 789 0.450450 0.892802 0.000000
-14.681988 -14.102826 -0.625443 787 0.450450 0.892802 0.000000
-14.681328 -14.102192 -0.619159 779 0.450450 0.892802 0.000000
-14.681471 -14.102329 -0.612908 789 0.450450 0.892802 0.000000
-14.681436 -14.102304 -0.606648 789 0.450450 0.892802 0.000000
-14.680315 -14.101221 -0.600348 763 0.450450 0.892802 0.000000
-14.679974 -14.100891 -0.594082 785 0.450450 0.892802 0.000000
-14.680202 -14.101112 -0.587829 785 0.450450 0.892802 0.000000
-14.680277 -14.101192 -0.581578 791 0.450450 0.892802 0.000000
-14.680247 -14.101161 -0.575318 795 0.450450 0.892802 0.000000
-14.680694 -14.101589 -0.569084 797 0.450450 0.892802 0.000000
-14.680774 -14.101662 -0.562823 783 0.450450 0.892802 0.000000
-14.681211 -14.102083 -0.556589 791 0.450450 0.892802 0.000000
-14.681012 -14.101897 -0.550321 801 0.450450 0.892802 0.000000
-14.680446 -14.101354 -0.544046 779 0.450450 0.892802 0.000000
-14.680620 -14.101516 -0.537794 777 0.450450 0.892802 0.000000
-14.680100 -14.101025 -0.531519 771 0.450450 0.892802 0.000000
-14.680119 -14.101031 -0.525268 785 0.450450 0.892802 0.000000
-14.679652 -14.100585 -0.518993 765 0.450450 0.892802 0.000000
-14.680295 -14.101201 -0.512766 797 0.450450 0.892802 0.000000
-14.679667 -14.100607 -0.506492 789 0.450450 0.892802 0.000000
-14.678469 -14.099446 -0.500194 785 0.450450 0.892802 0.000000
-14.680208 -14.101120 -0.493997 789 0.450450 0.892802 0.000000
-14.680265 -14.101172 -0.487746 775 0.450450 0.892802 0.000000
-14.678945 -14.099910 -0.481449 789 0.450450 0.892802 0.000000
-14.678152 -14.099152 -0.475166 767 0.450450 0.892802 0.000000
-14.677732 -14.098744 -0.468900 771 0.450450 0.892802 0.000000
-14.678522 -14.099498 -0.462672 769 0.450450 0.892802 0.000000
-14.679686 -14.100614 -0.456451 803 0.450450 0.892802 0.000000
-14.679829 -14.100764 -0.450199 809 0.450450 0.892802 0.000000
-14.679402 -14.100349 -0.443933 801 0.450450 0.892802 0.000000
-14.679124 -14.100084 -0.437676 795 0.450450 0.892802 0.000000
-14.677903 -14.098906 -0.431387 799 0.450450 0.892802 0.000000
-14.677844 -14.098847 -0.425128 779 0.450450 0.892802 0.000000
-14.678991 -14.099952 -0.418907 821 0.450450 0.892802 0.000000
-14.678768 -14.099744 -0.412649 811 0.450450 0.892802 0.000000
-14.678177 -14.099168 -0.406384 785 0.450450 0.892802 0.000000
-14.678204 -14.099195 -0.400124 787 0.450450 0.892802 0.000000
-14.677872 -14.098885 -0.393867 791 0.450450 0.892802 0.000000
-14.678490 -14.099469 -0.387631 789 0.450450 0.892802 0.000000
-14.679052 -14.100008 -0.381395 787 0.450450 0.892802 0.000000
-14.679086 -14.100041 -0.375145 789 0.450450 0.892802 0.000000
-14.679580 -14.100523 -0.368900 775 0.450450 0.892802 0.000000
-14.679824 -14.100756 -0.362657 795 0.450450 0.892802 0.000000
-14.679529 -14.100479 -0.356390 785 0.450450 0.892802 0.000000
-14.678871 -14.099844 -0.350126 799 0.450450 0.892802 0.000000
-14.677416 -14.098445 -0.343840 771 0.450450 0.892802 0.000000
-14.677442 -14.098472 -0.337590 757 0.450450 0.892802 0.000000
-14.678091 -14.099095 -0.331353 755 0.450450 0.892802 0.000000
-14.678217 -14.099219 -0.325102 749 0.450450 0.892802 0.000000
-14.679086 -14.100051 -0.318873 747 0.450450 0.892802 0.000000
-14.678941 -14.099909 -0.312615 739 0.450450 0.892802 0.000000
-14.678006 -14.099008 -0.306343 741 0.450450 0.892802 0.000000
-14.679021 -14.099987 -0.300114 761 0.450450 0.892802 0.000000
-14.679204 -14.100157 -0.293862 761 0.450450 0.892802 0.000000
-14.678886 -14.099859 -0.287605 761 0.450450 0.892802 0.000000
-14.678476 -14.099458 -0.281348 753 0.450450 0.892802 0.000000
-14.678277 -14.099273 -0.275090 779 0.450450 0.892802 0.000000
-14.686850 -14.099049 -0.675541 781 0.450450 0.892802 0.000000
-14.686735 -14.098933 -0.669282 799 0.450450 0.892802 0.000000
-14.687033 -14.099225 -0.663039 783 0.450450 0.892802 0.000000
-14.687346 -14.099517 -0.656796 799 0.450450 0.892802 0.000000
-14.687381 -14.099552 -0.650535 791 0.450450 0.892802 0.000000
-14.687679 -14.099844 -0.644292 793 0.450450 0.892802 0.000000
-14.688304 -14.100434 -0.638056 775 0.450450 0.892802 0.000000
-14.687225 -14.099412 -0.631746 787 0.450450 0.892802 0.000000
-14.686416 -14.098627 -0.625454 771 0.450450 0.892802 0.000000
-14.686497 -14.098713 -0.619203 759 0.450450 0.892802 0.000000
-14.687325 -14.099498 -0.612985 767 0.450450 0.892802 0.000000
-14.687406 -14.099585 -0.606724 761 0.450450 0.892802 0.000000
-14.687119 -14.099298 -0.600457 787 0.450450 0.892802 0.000000
-14.687200 -14.099384 -0.594206 795 0.450450 0.892802 0.000000
-14.686066 -14.098289 -0.587896 761 0.450450 0.892802 0.000000
-14.685825 -14.098056 -0.581628 767 0.450450 0.892802 0.000000
-14.686639 -14.098842 -0.575411 769 0.450450 0.892802 0.000000
-14.687239 -14.099412 -0.569175 791 0.450450 0.892802 0.000000
-14.687734 -14.099895 -0.562930 801 0.450450 0.892802 0.000000
-14.687175 -14.099356 -0.556655 795 0.450450 0.892802 0.000000
-14.686080 -14.098308 -0.550355 783 0.450450 0.892802 0.000000
-14.686253 -14.098470 -0.544103 779 0.450450 0.892802 0.000000
-14.687376 -14.099554 -0.537893 783 0.450450 0.892802 0.000000
-14.686173 -14.098401 -0.531594 763 0.450450 0.892802 0.000000
-14.685717 -14.097962 -0.525318 771 0.450450 0.892802 0.000000
-14.685773 -14.098014 -0.519067 791 0.450450 0.892802 0.000000
-14.684520 -14.096807 -0.512769 789 0.450450 0.892802 0.000000
-14.684679 -14.096959 -0.506518 779 0.450450 0.892802 0.000000
-14.685164 -14.097433 -0.500283 781 0.450450 0.892802 0.000000
-14.685485 -14.097731 -0.494030 781 0.450450 0.892802 0.000000
-14.685441 -14.097686 -0.487780 779 0.450450 0.892802 0.000000
-14.685280 -14.097532 -0.481521 779 0.450450 0.892802 0.000000
-14.685702 -14.097940 -0.475277 793 0.450450 0.892802 0.000000
-14.685122 -14.097385 -0.469002 789 0.450450 0.892802 0.000000
-14.684851 -14.097127 -0.462735 789 0.450450 0.892802 0.000000
-14.685648 -14.097886 -0.456507 791 0.450450 0.892802 0.000000
-14.686220 -14.098445 -0.450271 793 0.450450 0.892802 0.000000
-14.685265 -14.097526 -0.443990 769 0.450450 0.892802 0.000000
-14.684301 -14.096599 -0.437710 757 0.450450 0.892802 0.000000
-14.684452 -14.096743 -0.431458 787 0.450450 0.892802 0.000000
-14.684812 -14.097087 -0.425214 795 0.450450 0.892802 0.000000
-14.684535 -14.096823 -0.418947 789 0.450450 0.892802 0.000000
-14.684575 -14.096862 -0.412696 793 0.450450 0.892802 0.000000
-14.685933 -14.098166 -0.406483 785 0.450450 0.892802 0.000000
-14.687290 -14.099469 -0.400260 801 0.450450 0.892802 0.000000
-14.687216 -14.099400 -0.394011 797 0.450450 0.892802 0.000000
-14.686033 -14.098265 -0.387722 779 0.450450 0.892802 0.000000
-14.684861 -14.097139 -0.381433 779 0.450450 0.892802 0.000000
-14.685041 -14.097307 -0.375191 777 0.450450 0.892802 0.000000
-14.685870 -14.098106 -0.368953 773 0.450450 0.892802 0.000000
-14.685887 -14.098126 -0.362703 789 0.450450 0.892802 0.000000
-14.684869 -14.097141 -0.356422 759 0.450450 0.892802 0.000000
-14.684202 -14.096501 -0.350158 779 0.450450 0.892802 0.000000
-14.684383 -14.096684 -0.343906 763 0.450450 0.892802 0.000000
-14.684675 -14.096957 -0.337664 733 0.450450 0.892802 0.000000
-14.685167 -14.097438 -0.331419 753 0.450450 0.892802 0.000000
-14.685925 -14.098165 -0.325181 761 0.450450 0.892802 0.000000
-14.686527 -14.098735 -0.318945 757 0.450450 0.892802 0.000000
-14.685906 -14.098146 -0.312671 731 0.450450 0.892802 0.000000
-14.684981 -14.097253 -0.306400 729 0.450450 0.892802 0.000000
-14.684729 -14.097008 -0.300142 735 0.450450 0.892802 0.000000
-14.684162 -14.096464 -0.293877 749 0.450450 0.892802 0.000000
-14.683432 -14.095772 -0.287614 743 0.450450 0.892802 0.000000
-14.684656 -14.096937 -0.281382 757 0.450450 0.892802 0.000000
-14.684614 -14.096908 -0.275133 769 0.450450 0.892802 0.000000
-14.683829 -14.096143 -0.268860 773 0.450450 0.892802 0.000000
-14.694050 -14.097339 -0.675686 795 0.450450 0.892802 0.000000
-14.693040 -14.096374 -0.669375 799 0.450450 0.892802 0.000000
-14.692505 -14.095856 -0.663091 769 0.450450 0.892802 0.000000
-14.693760 -14.097062 -0.656888 775 0.450450 0.892802 0.000000
-14.693156 -14.096486 -0.650604 773 0.450450 0.892802 0.000000
-14.692145 -14.095508 -0.644293 777 0.450450 0.892802 0.000000
-14.692343 -14.095704 -0.638051 769 0.450450 0.892802 0.000000
-14.692905 -14.096242 -0.631816 767 0.450450 0.892802 0.000000
-14.693632 -14.096929 -0.625589 769 0.450450 0.892802 0.000000
-14.693027 -14.096354 -0.619304 773 0.450450 0.892802 0.000000
-14.691363 -14.094753 -0.612970 763 0.450450 0.892802 0.000000
-14.691232 -14.094637 -0.606711 767 0.450450 0.892802 0.000000
-14.691213 -14.094612 -0.600451 775 0.450450 0.892802 0.000000
-14.691666 -14.095048 -0.594207 781 0.450450 0.892802 0.000000
-14.692003 -14.095371 -0.587963 773 0.450450 0.892802 0.000000
-14.691811 -14.095192 -0.581705 781 0.450450 0.892802 0.000000
-14.691892 -14.095263 -0.575444 767 0.450450 0.892802 0.000000
-14.692384 -14.095744 -0.569209 771 0.450450 0.892802 0.000000
-14.691718 -14.095104 -0.562926 783 0.450450 0.892802 0.000000
-14.691953 -14.095318 -0.556673 779 0.450450 0.892802 0.000000
-14.692758 -14.096097 -0.550445 777 0.450450 0.892802 0.000000
-14.691194 -14.094593 -0.544130 779 0.450450 0.892802 0.000000
-14.690465 -14.093902 -0.537847 757 0.450450 0.892802 0.000000
-14.690639 -14.094065 -0.531605 763 0.450450 0.892802 0.000000
-14.690859 -14.094279 -0.525353 767 0.450450 0.892802 0.000000
-14.692193 -14.095551 -0.519140 775 0.450450 0.892802 0.000000
-14.692305 -14.095661 -0.512889 765 0.450450 0.892802 0.000000
-14.690782 -14.094204 -0.506583 771 0.450450 0.892802 0.000000
-14.691000 -14.094405 -0.500331 779 0.450450 0.892802 0.000000
-14.692163 -14.095521 -0.494120 769 0.450450 0.892802 0.000000
-14.691746 -14.095126 -0.487844 773 0.450450 0.892802 0.000000
-14.691748 -14.095120 -0.481593 759 0.450450 0.892802 0.000000
-14.692490 -14.095835 -0.475356 793 0.450450 0.892802 0.000000
-14.691855 -14.095233 -0.469082 771 0.450450 0.892802 0.000000
-14.690851 -14.094261 -0.462792 767 0.450450 0.892802 0.000000
-14.690426 -14.093861 -0.456525 751 0.450450 0.892802 0.000000
-14.690896 -14.094309 -0.450281 785 0.450450 0.892802 0.000000
-14.691256 -14.094653 -0.444037 759 0.450450 0.892802 0.000000
-14.691244 -14.094648 -0.437787 785 0.450450 0.892802 0.000000
-14.690071 -14.093521 -0.431498 783 0.450450 0.892802 0.000000
-14.689909 -14.093367 -0.425240 785 0.450450 0.892802 0.000000
-14.691219 -14.094618 -0.419017 773 0.450450 0.892802 0.000000
-14.690935 -14.094347 -0.412760 757 0.450450 0.892802 0.000000
-14.690399 -14.093829 -0.406484 791 0.450450 0.892802 0.000000
-14.691329 -14.094724 -0.400255 779 0.450450 0.892802 0.000000
-14.691214 -14.094608 -0.393996 781 0.450450 0.892802 0.000000
-14.689659 -14.093125 -0.387701 757 0.450450 0.892802 0.000000
-14.689373 -14.092854 -0.381444 765 0.450450 0.892802 0.000000
-14.690030 -14.093485 -0.375207 777 0.450450 0.892802 0.000000
-14.690967 -14.094372 -0.368978 735 0.450450 0.892802 0.000000
-14.691038 -14.094451 -0.362727 757 0.450450 0.892802 0.000000
-14.691494 -14.094887 -0.356483 781 0.450450 0.892802 0.000000
-14.691674 -14.095056 -0.350231 775 0.450450 0.892802 0.000000
-14.690113 -14.093568 -0.343946 751 0.450450 0.892802 0.000000
-14.690029 -14.093476 -0.337686 761 0.450450 0.892802 0.000000
-14.690958 -14.094372 -0.331457 751 0.450450 0.892802 0.000000
-14.690867 -14.094288 -0.325198 733 0.450450 0.892802 0.000000
-14.691197 -14.094606 -0.318955 739 0.450450 0.892802 0.000000
-14.690950 -14.094369 -0.312697 725 0.450450 0.892802 0.000000
-14.691077 -14.094492 -0.306446 741 0.450450 0.892802 0.000000
-14.689670 -14.093132 -0.300159 725 0.450450 0.892802 0.000000
-14.688302 -14.091830 -0.293882 741 0.450450 0.892802 0.000000
-14.689371 -14.092855 -0.287651 737 0.450450 0.892802 0.000000
-14.690704 -14.094127 -0.281419 739 0.450450 0.892802 0.000000
-14.690605 -14.094035 -0.275169 761 0.450450 0.892802 0.000000
-14.690561 -14.093991 -0.268910 801 0.450450 0.892802 0.000000
