786
-7.655027 -7.019577 -0.679968 507 0.282458 0.959280 0.000000
-7.654358 -7.018968 -0.676704 515 0.282458 0.959280 0.000000
-7.654138 -7.018760 -0.673486 511 0.282458 0.959280 0.000000
-7.655739 -7.020230 -0.670421 505 0.282458 0.959280 0.000000
-7.655669 -7.020170 -0.667211 497 0.282458 0.959280 0.000000
-7.655276 -7.019810 -0.663975 493 0.282458 0.959280 0.000000
-7.655749 -7.020239 -0.660811 527 0.282458 0.959280 0.000000
-7.654441 -7.019038 -0.657503 495 0.282458 0.959280 0.000000
-7.653834 -7.018480 -0.654248 503 0.282458 0.959280 0.000000
-7.654947 -7.019503 -0.651138 507 0.282458 0.959280 0.000000
-7.655200 -7.019729 -0.647955 507 0.282458 0.959280 0.000000
-7.654752 -7.019325 -0.644720 509 0.282458 0.959280 0.000000
-7.655382 -7.019895 -0.641564 501 0.282458 0.959280 0.000000
-7.655841 -7.020325 -0.638409 509 0.282458 0.959280 0.000000
-7.656300 -7.020743 -0.635235 489 0.282458 0.959280 0.000000
-7.656875 -7.021268 -0.632089 517 0.282458 0.959280 0.000000
-7.656577 -7.020998 -0.628862 517 0.282458 0.959280 0.000000
-7.656136 -7.020586 -0.625626 491 0.282458 0.959280 0.000000
-7.655672 -7.020170 -0.622380 495 0.282458 0.959280 0.000000
-7.655277 -7.019795 -0.619154 517 0.282458 0.959280 0.000000
-7.655626 -7.020125 -0.615981 527 0.282458 0.959280 0.000000
-7.656249 -7.020687 -0.612825 521 0.282458 0.959280 0.000000
-7.655146 -7.019678 -0.609545 533 0.282458 0.959280 0.000000
-7.654146 -7.018763 -0.606264 539 0.282458 0.959280 0.000000
-7.655408 -7.019920 -0.603162 525 0.282458 0.959280 0.000000
-7.656843 -7.021229 -0.600069 529 0.282458 0.959280 0.000000
-7.656372 -7.020806 -0.596833 533 0.282458 0.959280 0.000000
-7.654788 -7.019342 -0.593518 539 0.282458 0.959280 0.000000
-7.654757 -7.019314 -0.590308 539 0.282458 0.959280 0.000000
-7.655152 -7.019681 -0.587144 547 0.282458 0.959280 0.000000
-7.655547 -7.020048 -0.583971 551 0.282458 0.959280 0.000000
-7.654925 -7.019477 -0.580726 543 0.282458 0.959280 0.000000
-7.654838 -7.019390 -0.577527 527 0.282458 0.959280 0.000000
-7.655927 -7.020395 -0.574407 523 0.282458 0.959280 0.000000
-7.655305 -7.019824 -0.571163 533 0.282458 0.959280 0.000000
-7.655157 -7.019687 -0.567944 557 0.282458 0.959280 0.000000
-7.656694 -7.021092 -0.564860 549 0.282458 0.959280 0.000000
-7.655631 -7.020114 -0.561589 561 0.282458 0.959280 0.000000
-7.655641 -7.020131 -0.558389 569 0.282458 0.959280 0.000000
-7.656303 -7.020739 -0.555233 559 0.282458 0.959280 0.000000
-7.655452 -7.019958 -0.551981 535 0.282458 0.959280 0.000000
-7.655895 -7.020363 -0.548807 535 0.282458 0.959280 0.000000
-7.656502 -7.020913 -0.545651 561 0.282458 0.959280 0.000000
-7.655810 -7.020287 -0.542407 553 0.282458 0.959280 0.000000
-7.655456 -7.019958 -0.539180 551 0.282458 0.959280 0.000000
-7.656276 -7.020707 -0.536043 551 0.282458 0.959280 0.000000
-7.655795 -7.020263 -0.532807 557 0.282458 0.959280 0.000000
-7.654354 -7.018940 -0.529521 553 0.282458 0.959280 0.000000
-7.653930 -7.018556 -0.526294 531 0.282458 0.959280 0.000000
-7.654529 -7.019100 -0.523139 533 0.282458 0.959280 0.000000
-7.655074 -7.019600 -0.519974 543 0.282458 0.959280 0.000000
-7.655783 -7.020247 -0.516827 527 0.282458 0.959280 0.000000
-7.655297 -7.019812 -0.513591 541 0.282458 0.959280 0.000000
-7.654446 -7.019030 -0.510339 553 0.282458 0.959280 0.000000
-7.655471 -7.019970 -0.507210 567 0.282458 0.959280 0.000000
-7.656284 -7.020713 -0.504062 567 0.282458 0.959280 0.000000
-7.656284 -7.020710 -0.500872 573 0.282458 0.959280 0.000000
-7.656395 -7.020808 -0.497681 557 0.282458 0.959280 0.000000
-7.655695 -7.020175 -0.494437 571 0.282458 0.959280 0.000000
-7.654994 -7.019527 -0.491194 579 0.282458 0.959279 0.000000
-7.655531 -7.020021 -0.488029 565 0.282458 0.959280 0.000000
-7.655539 -7.020024 -0.484838 553 0.282458 0.959279 0.000000
-7.655367 -7.019868 -0.481630 555 0.282458 0.959280 0.000000
-7.654824 -7.019374 -0.478405 541 0.282458 0.959280 0.000000
-7.654715 -7.019269 -0.475196 535 0.282458 0.959279 0.000000
-7.655031 -7.019559 -0.472023 531 0.282458 0.959280 0.000000
-7.654440 -7.019013 -0.468788 527 0.282458 0.959280 0.000000
-7.655301 -7.019808 -0.465650 553 0.282458 0.959280 0.000000
-7.655884 -7.020339 -0.462485 555 0.282458 0.959280 0.000000
-7.654151 -7.018756 -0.459191 531 0.282458 0.959280 0.000000
-7.653821 -7.018447 -0.455974 539 0.282458 0.959280 0.000000
-7.654839 -7.019381 -0.452834 557 0.282458 0.959280 0.000000
-7.655257 -7.019766 -0.449670 535 0.282458 0.959280 0.000000
-7.656062 -7.020502 -0.446513 527 0.282458 0.959280 0.000000
-7.655993 -7.020442 -0.443313 543 0.282458 0.959280 0.000000
-7.655337 -7.019833 -0.440089 561 0.282458 0.959280 0.000000
-7.656286 -7.020710 -0.436940 575 0.282458 0.959279 0.000000
-7.657193 -7.021542 -0.433792 559 0.282458 0.959280 0.000000
-7.657129 -7.021473 -0.430592 551 0.282458 0.959280 0.000000
-7.656412 -7.020813 -0.427359 553 0.282458 0.959280 0.000000
-7.655752 -7.020212 -0.424135 561 0.282458 0.959280 0.000000
-7.655736 -7.020195 -0.420935 549 0.282458 0.959280 0.000000
-7.656212 -7.020640 -0.417771 543 0.282458 0.959280 0.000000
-7.655975 -7.020419 -0.414563 541 0.282458 0.959280 0.000000
-7.656543 -7.020938 -0.411397 541 0.282458 0.959280 0.000000
-7.656906 -7.021266 -0.408214 551 0.282458 0.959280 0.000000
-7.655158 -7.019670 -0.404930 543 0.282458 0.959280 0.000000
-7.654450 -7.019017 -0.401707 549 0.282458 0.959280 0.000000
-7.655443 -7.019932 -0.398557 555 0.282458 0.959280 0.000000
-7.655910 -7.020356 -0.395393 525 0.282458 0.959280 0.000000
-7.655948 -7.020383 -0.392192 547 0.282458 0.959280 0.000000
-7.656510 -7.020911 -0.389027 561 0.282458 0.959280 0.000000
-7.656274 -7.020690 -0.385829 523 0.282458 0.959280 0.000000
-7.655874 -7.020324 -0.382613 545 0.282458 0.959280 0.000000
-7.655953 -7.020397 -0.379422 549 0.282458 0.959280 0.000000
-7.656143 -7.020573 -0.376240 531 0.282458 0.959280 0.000000
-7.655851 -7.020294 -0.373033 509 0.282458 0.959279 0.000000
-7.655285 -7.019782 -0.369808 517 0.282458 0.959280 0.000000
-7.655632 -7.020097 -0.366635 521 0.282458 0.959280 0.000000
-7.655987 -7.020418 -0.363451 547 0.282458 0.959280 0.000000
-7.655304 -7.019798 -0.360228 531 0.282458 0.959280 0.000000
-7.655974 -7.020413 -0.357061 543 0.282458 0.959280 0.000000
-7.655620 -7.020085 -0.353855 529 0.282458 0.959280 0.000000
-7.654461 -7.019016 -0.350615 511 0.282458 0.959280 0.000000
-7.654960 -7.019479 -0.347441 529 0.282458 0.959280 0.000000
-7.655466 -7.019948 -0.344276 523 0.282458 0.959280 0.000000
-7.655386 -7.019867 -0.341076 503 0.282458 0.959280 0.000000
-7.656271 -7.020681 -0.337918 531 0.282458 0.959280 0.000000
-7.657201 -7.021532 -0.334759 533 0.282458 0.959279 0.000000
-7.656839 -7.021196 -0.331553 535 0.282458 0.959280 0.000000
-7.655083 -7.019594 -0.328289 531 0.282458 0.959280 0.000000
-7.654556 -7.019113 -0.325074 505 0.282458 0.959280 0.000000
-7.655376 -7.019862 -0.321916 493 0.282458 0.959279 0.000000
-7.656369 -7.020762 -0.318767 487 0.282458 0.959280 0.000000
-7.656490 -7.020882 -0.315575 489 0.282458 0.959280 0.000000
-7.655694 -7.020144 -0.312353 471 0.282458 0.959280 0.000000
-7.659050 -7.018889 -0.708963 539 0.282458 0.959280 0.000000
-7.658988 -7.018836 -0.705753 547 0.282458 0.959280 0.000000
-7.660109 -7.019866 -0.702653 563 0.282458 0.959280 0.000000
-7.660425 -7.020156 -0.699470 549 0.282458 0.959280 0.000000
-7.659456 -7.019266 -0.696179 519 0.282458 0.959280 0.000000
-7.659717 -7.019498 -0.692996 521 0.282458 0.959280 0.000000
-7.660033 -7.019788 -0.689823 519 0.282458 0.959280 0.000000
-7.659647 -7.019434 -0.686587 533 0.282458 0.959280 0.000000
-7.658561 -7.018437 -0.683287 499 0.282458 0.959280 0.000000
-7.658876 -7.018727 -0.680114 499 0.282458 0.959280 0.000000
-7.659452 -7.019253 -0.676958 519 0.282458 0.959280 0.000000
-7.658799 -7.018657 -0.673694 509 0.282458 0.959280 0.000000
-7.658886 -7.018736 -0.670503 513 0.282458 0.959280 0.000000
-7.659629 -7.019422 -0.667356 491 0.282458 0.959280 0.000000
-7.659503 -7.019304 -0.664148 509 0.282458 0.959280 0.000000
-7.658416 -7.018306 -0.660848 517 0.282458 0.959280 0.000000
-7.658236 -7.018144 -0.657639 507 0.282458 0.959280 0.000000
-7.658977 -7.018816 -0.654492 509 0.282458 0.959280 0.000000
-7.659064 -7.018895 -0.651301 509 0.282458 0.959280 0.000000
-7.659531 -7.019332 -0.648137 495 0.282458 0.959280 0.000000
-7.659247 -7.019061 -0.644910 497 0.282458 0.959280 0.000000
-7.659170 -7.018994 -0.641700 481 0.282458 0.959280 0.000000
-7.659581 -7.019374 -0.638536 499 0.282458 0.959280 0.000000
-7.658967 -7.018809 -0.635282 513 0.282458 0.959280 0.000000
-7.659542 -7.019335 -0.632126 523 0.282458 0.959280 0.000000
-7.660221 -7.019957 -0.628980 499 0.282458 0.959280 0.000000
-7.658795 -7.018646 -0.625663 489 0.282458 0.959280 0.000000
-7.658126 -7.018038 -0.622410 503 0.282458 0.959280 0.000000
-7.658797 -7.018653 -0.619263 515 0.282458 0.959280 0.000000
-7.659373 -7.019179 -0.616108 499 0.282458 0.959279 0.000000
-7.659610 -7.019392 -0.612925 531 0.282458 0.959280 0.000000
-7.659154 -7.018981 -0.609690 539 0.282458 0.959280 0.000000
-7.659076 -7.018901 -0.606480 547 0.282458 0.959280 0.000000
-7.660394 -7.020117 -0.603378 545 0.282458 0.959280 0.000000
-7.659070 -7.018902 -0.600080 519 0.282458 0.959280 0.000000
-7.657856 -7.017790 -0.596781 533 0.282458 0.959280 0.000000
-7.658795 -7.018647 -0.593653 549 0.282458 0.959280 0.000000
-7.658386 -7.018274 -0.590426 523 0.282458 0.959280 0.000000
-7.658844 -7.018691 -0.587262 555 0.282458 0.959280 0.000000
-7.659073 -7.018898 -0.584070 567 0.282458 0.959280 0.000000
-7.658238 -7.018130 -0.580818 539 0.282458 0.959280 0.000000
-7.657657 -7.017604 -0.577573 515 0.282458 0.959280 0.000000
-7.659359 -7.019156 -0.574497 515 0.282458 0.959280 0.000000
-7.658997 -7.018821 -0.571270 523 0.282458 0.959280 0.000000
-7.658100 -7.018002 -0.568008 559 0.282458 0.959280 0.000000
-7.659677 -7.019452 -0.564924 559 0.282458 0.959280 0.000000
-7.660560 -7.020251 -0.561785 557 0.282458 0.959280 0.000000
-7.659284 -7.019089 -0.558487 537 0.282458 0.959280 0.000000
-7.657622 -7.017562 -0.555173 509 0.282458 0.959280 0.000000
-7.658560 -7.018419 -0.552044 531 0.282458 0.959280 0.000000
-7.660074 -7.019805 -0.548950 543 0.282458 0.959280 0.000000
-7.660572 -7.020268 -0.545785 551 0.282458 0.959280 0.000000
-7.660313 -7.020029 -0.542567 535 0.282458 0.959280 0.000000
-7.660006 -7.019752 -0.539350 553 0.282458 0.959279 0.000000
-7.659581 -7.019353 -0.536124 545 0.282458 0.959279 0.000000
-7.658896 -7.018732 -0.532870 531 0.282458 0.959280 0.000000
-7.658149 -7.018047 -0.529627 543 0.282458 0.959280 0.000000
-7.658583 -7.018445 -0.526453 541 0.282458 0.959280 0.000000
-7.659781 -7.019538 -0.523342 547 0.282458 0.959280 0.000000
-7.659136 -7.018948 -0.520098 535 0.282458 0.959280 0.000000
-7.658553 -7.018410 -0.516863 539 0.282458 0.959280 0.000000
-7.658728 -7.018572 -0.513671 551 0.282458 0.959280 0.000000
-7.658239 -7.018123 -0.510446 537 0.282458 0.959280 0.000000
-7.658139 -7.018037 -0.507247 539 0.282458 0.959280 0.000000
-7.659006 -7.018824 -0.504099 569 0.282458 0.959280 0.000000
-7.658903 -7.018724 -0.500899 571 0.282458 0.959280 0.000000
-7.658684 -7.018530 -0.497681 557 0.282458 0.959280 0.000000
-7.659394 -7.019177 -0.494535 577 0.282458 0.959280 0.000000
-7.659434 -7.019218 -0.491334 573 0.282458 0.959280 0.000000
-7.659710 -7.019464 -0.488162 567 0.282458 0.959280 0.000000
-7.660674 -7.020354 -0.485022 583 0.282458 0.959280 0.000000
-7.660193 -7.019910 -0.481797 559 0.282458 0.959280 0.000000
-7.658950 -7.018773 -0.478518 523 0.282458 0.959280 0.000000
-7.658626 -7.018469 -0.475301 519 0.282458 0.959280 0.000000
-7.659266 -7.019060 -0.472145 545 0.282458 0.959280 0.000000
-7.658076 -7.017965 -0.468876 557 0.282458 0.959280 0.000000
-7.658125 -7.018014 -0.465686 565 0.282458 0.959280 0.000000
-7.659734 -7.019490 -0.462581 559 0.282458 0.959280 0.000000
-7.658868 -7.018697 -0.459339 559 0.282458 0.959280 0.000000
-7.658915 -7.018731 -0.456148 555 0.282458 0.959280 0.000000
-7.659066 -7.018875 -0.452957 523 0.282458 0.959280 0.000000
-7.659437 -7.019208 -0.449783 535 0.282458 0.959280 0.000000
-7.660557 -7.020238 -0.446653 565 0.282458 0.959280 0.000000
-7.659581 -7.019343 -0.443402 569 0.282458 0.959280 0.000000
-7.658597 -7.018441 -0.440151 553 0.282458 0.959280 0.000000
-7.659069 -7.018871 -0.436976 549 0.282458 0.959280 0.000000
-7.659323 -7.019110 -0.433794 567 0.282458 0.959280 0.000000
-7.660120 -7.019841 -0.430646 539 0.282458 0.959280 0.000000
-7.660057 -7.019772 -0.427447 539 0.282458 0.959280 0.000000
-7.660263 -7.019960 -0.424255 559 0.282458 0.959280 0.000000
-7.659216 -7.019008 -0.421005 549 0.282458 0.959280 0.000000
-7.658334 -7.018202 -0.417763 549 0.282458 0.959280 0.000000
-7.659674 -7.019422 -0.414640 557 0.282458 0.959280 0.000000
-7.661205 -7.020835 -0.411526 569 0.282458 0.959280 0.000000
-7.660654 -7.020321 -0.408301 547 0.282458 0.959280 0.000000
-7.658526 -7.018381 -0.405001 533 0.282458 0.959279 0.000000
-7.658023 -7.017919 -0.401775 533 0.282458 0.959280 0.000000
-7.657897 -7.017801 -0.398576 525 0.282458 0.959280 0.000000
-7.659065 -7.018868 -0.395435 523 0.282458 0.959280 0.000000
-7.660176 -7.019877 -0.392295 531 0.282458 0.959280 0.000000
-7.660477 -7.020155 -0.389122 531 0.282458 0.959280 0.000000
-7.660454 -7.020132 -0.385922 551 0.282458 0.959280 0.000000
-7.659289 -7.019072 -0.382673 561 0.282458 0.959279 0.000000
-7.658407 -7.018266 -0.379431 561 0.282458 0.959280 0.000000
-7.658644 -7.018479 -0.376249 541 0.282458 0.959280 0.000000
-7.659166 -7.018960 -0.373084 521 0.282458 0.959280 0.000000
-7.659245 -7.019034 -0.369893 521 0.282458 0.959280 0.000000
-7.658843 -7.018654 -0.366677 531 0.282458 0.959280 0.000000
-7.659837 -7.019568 -0.363527 515 0.282458 0.959280 0.000000
-7.660295 -7.019986 -0.360353 517 0.282458 0.959280 0.000000
-7.659941 -7.019658 -0.357146 537 0.282458 0.959280 0.000000
-7.659847 -7.019578 -0.353947 519 0.282458 0.959280 0.000000
-7.659714 -7.019454 -0.350748 517 0.282458 0.959280 0.000000
-7.659896 -7.019623 -0.347566 539 0.282458 0.959280 0.000000
-7.659976 -7.019697 -0.344376 537 0.282458 0.959280 0.000000
-7.658535 -7.018374 -0.341119 509 0.282458 0.959280 0.000000
-7.658236 -7.018103 -0.337912 505 0.282458 0.959280 0.000000
-7.659111 -7.018897 -0.334754 521 0.282458 0.959280 0.000000
-7.659885 -7.019607 -0.331596 539 0.282458 0.959280 0.000000
-7.660012 -7.019732 -0.328405 531 0.282458 0.959280 0.000000
-7.661376 -7.020970 -0.325262 523 0.282458 0.959280 0.000000
-7.661069 -7.020694 -0.322055 511 0.282458 0.959280 0.000000
-7.660116 -7.019817 -0.318824 525 0.282458 0.959280 0.000000
-7.660339 -7.020031 -0.315642 519 0.282458 0.959280 0.000000
-7.659227 -7.019001 -0.312402 511 0.282458 0.959280 0.000000
-7.662308 -7.017484 -0.709064 539 0.282458 0.959280 0.000000
-7.663278 -7.018367 -0.705945 547 0.282458 0.959280 0.000000
-7.662954 -7.018063 -0.702708 533 0.282458 0.959280 0.000000
-7.662838 -7.017965 -0.699489 539 0.282458 0.959280 0.000000
-7.662768 -7.017905 -0.696280 505 0.282458 0.959280 0.000000
-7.661476 -7.016716 -0.692962 501 0.282458 0.959280 0.000000
-7.660822 -7.016119 -0.689698 493 0.282458 0.959280 0.000000
-7.662581 -7.017729 -0.686651 521 0.282458 0.959280 0.000000
-7.663008 -7.018122 -0.683487 525 0.282458 0.959280 0.000000
-7.661810 -7.017022 -0.680179 533 0.282458 0.959280 0.000000
-7.661748 -7.016968 -0.676969 521 0.282458 0.959280 0.000000
-7.662434 -7.017595 -0.673823 503 0.282458 0.959280 0.000000
-7.662694 -7.017827 -0.670640 501 0.282458 0.959280 0.000000
-7.663435 -7.018499 -0.667503 513 0.282458 0.959280 0.000000
-7.662995 -7.018101 -0.664257 489 0.282458 0.959280 0.000000
-7.662540 -7.017691 -0.661021 469 0.282458 0.959280 0.000000
-7.662689 -7.017820 -0.657830 483 0.282458 0.959280 0.000000
-7.662083 -7.017262 -0.654575 497 0.282458 0.959280 0.000000
-7.661147 -7.016413 -0.651294 485 0.282458 0.959280 0.000000
-7.661510 -7.016740 -0.648121 493 0.282458 0.959280 0.000000
-7.662134 -7.017318 -0.644965 487 0.282458 0.959280 0.000000
-7.662008 -7.017200 -0.641756 489 0.282458 0.959279 0.000000
-7.661127 -7.016393 -0.638484 497 0.282458 0.959280 0.000000
-7.660779 -7.016071 -0.635247 501 0.282458 0.959280 0.000000
-7.661521 -7.016743 -0.632110 499 0.282458 0.959280 0.000000
-7.662461 -7.017614 -0.628981 497 0.282458 0.959280 0.000000
-7.662665 -7.017787 -0.625799 477 0.282458 0.959280 0.000000
-7.663171 -7.018257 -0.622634 491 0.282458 0.959280 0.000000
-7.662502 -7.017649 -0.619381 499 0.282458 0.959280 0.000000
-7.663235 -7.018314 -0.616234 519 0.282458 0.959280 0.000000
-7.662778 -7.017889 -0.612998 511 0.282458 0.959280 0.000000
-7.661888 -7.017077 -0.609726 527 0.282458 0.959280 0.000000
-7.662883 -7.017992 -0.606607 553 0.282458 0.959280 0.000000
-7.663018 -7.018110 -0.603415 555 0.282458 0.959280 0.000000
-7.661639 -7.016851 -0.600108 533 0.282458 0.959280 0.000000
-7.661932 -7.017122 -0.596925 525 0.282458 0.959280 0.000000
-7.662500 -7.017642 -0.593770 547 0.282458 0.959280 0.000000
-7.663005 -7.018096 -0.590605 537 0.282458 0.959280 0.000000
-7.663621 -7.018668 -0.587449 559 0.282458 0.959280 0.000000
-7.662511 -7.017651 -0.584170 547 0.282458 0.959280 0.000000
-7.661620 -7.016825 -0.580898 543 0.282458 0.959280 0.000000
-7.662220 -7.017383 -0.577742 527 0.282458 0.959280 0.000000
-7.662575 -7.017705 -0.574569 527 0.282458 0.959280 0.000000
-7.661512 -7.016726 -0.571299 517 0.282458 0.959280 0.000000
-7.662223 -7.017386 -0.568142 541 0.282458 0.959280 0.000000
-7.663161 -7.018244 -0.565013 563 0.282458 0.959280 0.000000
-7.663453 -7.018501 -0.561830 553 0.282458 0.959279 0.000000
-7.663036 -7.018122 -0.558604 545 0.282458 0.959280 0.000000
-7.662558 -7.017693 -0.555369 555 0.282458 0.959280 0.000000
-7.663062 -7.018148 -0.552204 545 0.282458 0.959280 0.000000
-7.664370 -7.019342 -0.549101 539 0.282458 0.959280 0.000000
-7.663465 -7.018517 -0.545840 539 0.282458 0.959280 0.000000
-7.662458 -7.017596 -0.542569 541 0.282458 0.959279 0.000000
-7.663167 -7.018243 -0.539412 515 0.282458 0.959280 0.000000
-7.663775 -7.018794 -0.536257 533 0.282458 0.959280 0.000000
-7.664367 -7.019346 -0.533101 539 0.282458 0.959280 0.000000
-7.663414 -7.018469 -0.529830 535 0.282458 0.959280 0.000000
-7.663746 -7.018772 -0.526657 527 0.282458 0.959280 0.000000
-7.664723 -7.019660 -0.523528 567 0.282458 0.959280 0.000000
-7.663756 -7.018785 -0.520257 567 0.282458 0.959280 0.000000
-7.663228 -7.018290 -0.517021 559 0.282458 0.959280 0.000000
-7.662851 -7.017957 -0.513805 551 0.282458 0.959280 0.000000
-7.664152 -7.019145 -0.510693 563 0.282458 0.959280 0.000000
-7.664641 -7.019587 -0.507518 555 0.282458 0.959280 0.000000
-7.663570 -7.018602 -0.504258 539 0.282458 0.959280 0.000000
-7.663137 -7.018210 -0.501032 553 0.282458 0.959280 0.000000
-7.662973 -7.018061 -0.497823 557 0.282458 0.959280 0.000000
-7.662493 -7.017618 -0.494588 553 0.282458 0.959280 0.000000
-7.662714 -7.017818 -0.491406 551 0.282458 0.959280 0.000000
-7.662659 -7.017770 -0.488206 561 0.282458 0.959280 0.000000
-7.662660 -7.017767 -0.485006 565 0.282458 0.959280 0.000000
-7.663410 -7.018459 -0.481859 541 0.282458 0.959280 0.000000
-7.663079 -7.018149 -0.478642 527 0.282458 0.959280 0.000000
-7.662221 -7.017362 -0.475390 509 0.282458 0.959280 0.000000
-7.662167 -7.017315 -0.472190 525 0.282458 0.959280 0.000000
-7.662428 -7.017560 -0.469008 549 0.282458 0.959280 0.000000
-7.662208 -7.017353 -0.465800 557 0.282458 0.959280 0.000000
-7.663005 -7.018083 -0.462652 557 0.282458 0.959280 0.000000
-7.664187 -7.019163 -0.459521 549 0.282458 0.959280 0.000000
-7.664015 -7.019007 -0.456313 555 0.282458 0.959280 0.000000
-7.662447 -7.017570 -0.453027 525 0.282458 0.959280 0.000000
-7.662866 -7.017955 -0.449853 539 0.282458 0.959280 0.000000
-7.664419 -7.019372 -0.446739 575 0.282458 0.959280 0.000000
-7.663979 -7.018975 -0.443523 541 0.282458 0.959280 0.000000
-7.662782 -7.017876 -0.440254 533 0.282458 0.959280 0.000000
-7.662664 -7.017764 -0.437055 545 0.282458 0.959280 0.000000
-7.662216 -7.017360 -0.433839 539 0.282458 0.959280 0.000000
-7.662477 -7.017591 -0.430656 521 0.282458 0.959280 0.000000
-7.663384 -7.018424 -0.427508 525 0.282458 0.959280 0.000000
-7.662769 -7.017859 -0.424274 535 0.282458 0.959280 0.000000
-7.662748 -7.017851 -0.421084 539 0.282458 0.959280 0.000000
-7.663496 -7.018528 -0.417927 523 0.282458 0.959280 0.000000
-7.663584 -7.018609 -0.414736 517 0.282458 0.959280 0.000000
-7.663404 -7.018446 -0.411527 535 0.282458 0.959280 0.000000
-7.663491 -7.018526 -0.408336 531 0.282458 0.959280 0.000000
-7.663689 -7.018707 -0.405144 529 0.282458 0.959279 0.000000
-7.663776 -7.018787 -0.401954 543 0.282458 0.959280 0.000000
-7.663808 -7.018809 -0.398763 533 0.282458 0.959280 0.000000
-7.663567 -7.018597 -0.395555 515 0.282458 0.959280 0.000000
-7.662251 -7.017388 -0.392298 533 0.282458 0.959280 0.000000
-7.661801 -7.016970 -0.389082 521 0.282458 0.959280 0.000000
-7.662377 -7.017496 -0.385906 533 0.282458 0.959280 0.000000
-7.663207 -7.018265 -0.382758 557 0.282458 0.959280 0.000000
-7.663184 -7.018242 -0.379559 541 0.282458 0.959280 0.000000
-7.663326 -7.018366 -0.376367 527 0.282458 0.959280 0.000000
-7.663454 -7.018492 -0.373186 515 0.282458 0.959280 0.000000
-7.662895 -7.017972 -0.369961 491 0.282458 0.959280 0.000000
-7.662809 -7.017898 -0.366762 495 0.282458 0.959280 0.000000
-7.662943 -7.018016 -0.363571 511 0.282458 0.959280 0.000000
-7.663724 -7.018733 -0.360413 529 0.282458 0.959279 0.000000
-7.664339 -7.019290 -0.357247 541 0.282458 0.959280 0.000000
-7.664199 -7.019173 -0.354048 539 0.282458 0.959280 0.000000
-7.663796 -7.018793 -0.350832 541 0.282458 0.959280 0.000000
-7.663326 -7.018370 -0.347617 545 0.282458 0.959280 0.000000
-7.663886 -7.018883 -0.344451 541 0.282458 0.959280 0.000000
-7.664061 -7.019046 -0.341259 553 0.282458 0.959280 0.000000
-7.664368 -7.019315 -0.338077 523 0.282458 0.959280 0.000000
-7.664810 -7.019720 -0.334902 527 0.282458 0.959280 0.000000
-7.664237 -7.019201 -0.331688 537 0.282458 0.959280 0.000000
-7.664411 -7.019364 -0.328496 531 0.282458 0.959280 0.000000
-7.664536 -7.019475 -0.325305 527 0.282458 0.959280 0.000000
-7.664561 -7.019491 -0.322114 505 0.282458 0.959280 0.000000
-7.664893 -7.019793 -0.318931 505 0.282458 0.959280 0.000000
-7.663995 -7.018975 -0.315699 519 0.282458 0.959280 0.000000
-7.662176 -7.017308 -0.312436 529 0.282458 0.959280 0.000000
-7.665259 -7.015883 -0.709139 545 0.282458 0.959280 0.000000
-7.666931 -7.017410 -0.706083 551 0.282458 0.959280 0.000000
-7.667894 -7.018300 -0.702964 535 0.282458 0.959280 0.000000
-7.666381 -7.016907 -0.699618 523 0.282458 0.959280 0.000000
-7.665830 -7.016407 -0.696363 517 0.282458 0.959280 0.000000
-7.666627 -7.017136 -0.693235 531 0.282458 0.959280 0.000000
-7.666188 -7.016739 -0.689989 523 0.282458 0.959280 0.000000
-7.665540 -7.016135 -0.686725 529 0.282458 0.959280 0.000000
-7.665684 -7.016273 -0.683534 531 0.282458 0.959280 0.000000
-7.666275 -7.016810 -0.680378 535 0.282458 0.959280 0.000000
-7.666362 -7.016890 -0.677177 503 0.282458 0.959280 0.000000
-7.667324 -7.017766 -0.674058 503 0.282458 0.959280 0.000000
-7.667744 -7.018152 -0.670894 523 0.282458 0.959280 0.000000
-7.666326 -7.016862 -0.667568 493 0.282458 0.959280 0.000000
-7.664964 -7.015616 -0.664250 501 0.282458 0.959280 0.000000
-7.664579 -7.015263 -0.661014 485 0.282458 0.959280 0.000000
-7.666013 -7.016572 -0.657930 493 0.282458 0.959280 0.000000
-7.667022 -7.017486 -0.654811 483 0.282458 0.959280 0.000000
-7.665440 -7.016049 -0.651475 481 0.282458 0.959280 0.000000
-7.665266 -7.015880 -0.648257 487 0.282458 0.959280 0.000000
-7.666757 -7.017247 -0.645173 503 0.282458 0.959280 0.000000
-7.666245 -7.016778 -0.641928 491 0.282458 0.959280 0.000000
-7.666664 -7.017164 -0.638764 479 0.282458 0.959280 0.000000
-7.666317 -7.016842 -0.635527 487 0.282458 0.959280 0.000000
-7.664947 -7.015590 -0.632220 477 0.282458 0.959280 0.000000
-7.665034 -7.015669 -0.629019 473 0.282458 0.959280 0.000000
-7.666248 -7.016774 -0.625917 481 0.282458 0.959280 0.000000
-7.667685 -7.018098 -0.622824 511 0.282458 0.959280 0.000000
-7.668032 -7.018413 -0.619651 521 0.282458 0.959280 0.000000
-7.666937 -7.017409 -0.616361 519 0.282458 0.959280 0.000000
-7.665834 -7.016398 -0.613071 503 0.282458 0.959280 0.000000
-7.666559 -7.017057 -0.609924 531 0.282458 0.959280 0.000000
-7.667066 -7.017527 -0.606759 539 0.282458 0.959280 0.000000
-7.666719 -7.017204 -0.603532 545 0.282458 0.959280 0.000000
-7.667176 -7.017622 -0.600368 553 0.282458 0.959280 0.000000
-7.667146 -7.017593 -0.597158 541 0.282458 0.959280 0.000000
-7.666470 -7.016978 -0.593905 549 0.282458 0.959280 0.000000
-7.665950 -7.016504 -0.590669 555 0.282458 0.959280 0.000000
-7.665920 -7.016475 -0.587470 527 0.282458 0.959280 0.000000
-7.666590 -7.017090 -0.584313 537 0.282458 0.959280 0.000000
-7.666717 -7.017201 -0.581122 539 0.282458 0.959280 0.000000
-7.666362 -7.016872 -0.577895 535 0.282458 0.959280 0.000000
-7.667300 -7.017729 -0.574766 545 0.282458 0.959280 0.000000
-7.666986 -7.017447 -0.571539 537 0.282458 0.959280 0.000000
-7.666523 -7.017029 -0.568303 551 0.282458 0.959280 0.000000
-7.667304 -7.017733 -0.565156 543 0.282458 0.959280 0.000000
-7.667478 -7.017895 -0.561974 533 0.282458 0.959280 0.000000
-7.666848 -7.017319 -0.558720 547 0.282458 0.959280 0.000000
-7.666265 -7.016780 -0.555486 557 0.282458 0.959280 0.000000
-7.667355 -7.017785 -0.552355 563 0.282458 0.959280 0.000000
-7.666780 -7.017251 -0.549121 545 0.282458 0.959280 0.000000
-7.666417 -7.016916 -0.545894 537 0.282458 0.959280 0.000000
-7.666268 -7.016779 -0.542685 519 0.282458 0.959280 0.000000
-7.666002 -7.016548 -0.539468 515 0.282458 0.959280 0.000000
-7.666719 -7.017201 -0.536311 513 0.282458 0.959280 0.000000
-7.666295 -7.016816 -0.533085 511 0.282458 0.959280 0.000000
-7.665491 -7.016072 -0.529832 533 0.282458 0.959280 0.000000
-7.665721 -7.016279 -0.526650 519 0.282458 0.959280 0.000000
-7.666163 -7.016684 -0.523476 547 0.282458 0.959280 0.000000
-7.665353 -7.015948 -0.520223 543 0.282458 0.959280 0.000000
-7.665307 -7.015907 -0.517024 543 0.282458 0.959280 0.000000
-7.666071 -7.016598 -0.513876 539 0.282458 0.959280 0.000000
-7.666291 -7.016798 -0.510694 565 0.282458 0.959280 0.000000
-7.665490 -7.016069 -0.507442 543 0.282458 0.959280 0.000000
-7.665009 -7.015626 -0.504206 541 0.282458 0.959280 0.000000
-7.664364 -7.015036 -0.500972 559 0.282458 0.959280 0.000000
-7.665500 -7.016078 -0.497841 549 0.282458 0.959280 0.000000
-7.665824 -7.016375 -0.494668 563 0.282458 0.959280 0.000000
-7.665603 -7.016167 -0.491460 559 0.282458 0.959280 0.000000
-7.666849 -7.017312 -0.488339 541 0.282458 0.959280 0.000000
-7.666361 -7.016862 -0.485103 549 0.282458 0.959280 0.000000
-7.665709 -7.016266 -0.481869 533 0.282458 0.959280 0.000000
-7.666575 -7.017053 -0.478721 515 0.282458 0.959280 0.000000
-7.667112 -7.017547 -0.475556 507 0.282458 0.959280 0.000000
-7.667051 -7.017493 -0.472356 531 0.282458 0.959280 0.000000
-7.666776 -7.017241 -0.469139 547 0.282458 0.959280 0.000000
-7.667847 -7.018219 -0.466009 537 0.282458 0.959280 0.000000
-7.668007 -7.018370 -0.462817 537 0.282458 0.959280 0.000000
-7.666645 -7.017124 -0.459540 547 0.282458 0.959280 0.000000
-7.665667 -7.016228 -0.456289 543 0.282458 0.959280 0.000000
-7.665984 -7.016518 -0.453106 541 0.282458 0.959280 0.000000
-7.667110 -7.017540 -0.449975 559 0.282458 0.959280 0.000000
-7.668396 -7.018716 -0.446853 549 0.282458 0.959280 0.000000
-7.668602 -7.018904 -0.443661 543 0.282458 0.959280 0.000000
-7.667128 -7.017556 -0.440385 547 0.282458 0.959280 0.000000
-7.665121 -7.015725 -0.437073 555 0.282458 0.959280 0.000000
-7.664900 -7.015517 -0.433866 563 0.282458 0.959280 0.000000
-7.665800 -7.016342 -0.430717 541 0.282458 0.959280 0.000000
-7.666162 -7.016670 -0.427544 529 0.282458 0.959280 0.000000
-7.665936 -7.016470 -0.424336 553 0.282458 0.959280 0.000000
-7.666725 -7.017194 -0.421178 579 0.282458 0.959280 0.000000
-7.667039 -7.017469 -0.417995 535 0.282458 0.959280 0.000000
-7.666104 -7.016620 -0.414754 529 0.282458 0.959280 0.000000
-7.666781 -7.017241 -0.411587 533 0.282458 0.959280 0.000000
-7.667420 -7.017817 -0.408431 531 0.282458 0.959280 0.000000
-7.667610 -7.017992 -0.405239 527 0.282458 0.959280 0.000000
-7.667911 -7.018270 -0.402057 509 0.282458 0.959280 0.000000
-7.667193 -7.017610 -0.398823 503 0.282458 0.959280 0.000000
-7.667440 -7.017844 -0.395641 517 0.282458 0.959280 0.000000
-7.667960 -7.018311 -0.392476 523 0.282458 0.959280 0.000000
-7.668364 -7.018684 -0.389292 535 0.282458 0.959280 0.000000
-7.668561 -7.018866 -0.386110 521 0.282458 0.959280 0.000000
-7.667726 -7.018097 -0.382868 523 0.282458 0.959280 0.000000
-7.666357 -7.016846 -0.379611 499 0.282458 0.959280 0.000000
-7.666326 -7.016817 -0.376411 517 0.282458 0.959280 0.000000
-7.666460 -7.016934 -0.373219 499 0.282458 0.959280 0.000000
-7.666974 -7.017410 -0.370055 487 0.282458 0.959280 0.000000
-7.666840 -7.017285 -0.366856 501 0.282458 0.959280 0.000000
-7.666218 -7.016715 -0.363632 517 0.282458 0.959280 0.000000
-7.667267 -7.017673 -0.360482 513 0.282458 0.959280 0.000000
-7.667293 -7.017703 -0.357281 521 0.282458 0.959280 0.000000
-7.665913 -7.016431 -0.354024 517 0.282458 0.959280 0.000000
-7.665820 -7.016352 -0.350825 535 0.282458 0.959280 0.000000
-7.666545 -7.017011 -0.347668 533 0.282458 0.959280 0.000000
-7.666783 -7.017238 -0.344486 521 0.282458 0.959280 0.000000
-7.667020 -7.017451 -0.341293 533 0.282458 0.959280 0.000000
-7.668021 -7.018358 -0.338144 551 0.282458 0.959280 0.000000
-7.667494 -7.017877 -0.334929 535 0.282458 0.959280 0.000000
-7.666266 -7.016753 -0.331680 519 0.282458 0.959280 0.000000
-7.666235 -7.016724 -0.328481 515 0.282458 0.959280 0.000000
-7.666031 -7.016543 -0.325282 513 0.282458 0.959280 0.000000
-7.666962 -7.017394 -0.322124 519 0.282458 0.959280 0.000000
-7.667736 -7.018105 -0.318956 505 0.282458 0.959280 0.000000
-7.667161 -7.017572 -0.315742 513 0.282458 0.959280 0.000000
-7.667500 -7.017880 -0.312558 533 0.282458 0.959280 0.000000
-7.669597 -7.015463 -0.706130 543 0.282458 0.959280 0.000000
-7.670023 -7.015854 -0.702956 519 0.282458 0.959280 0.000000
-7.670237 -7.016049 -0.699774 509 0.282458 0.959280 0.000000
-7.669795 -7.015637 -0.696528 513 0.282458 0.959280 0.000000
-7.670221 -7.016029 -0.693354 541 0.282458 0.959280 0.000000
-7.670806 -7.016562 -0.690198 543 0.282458 0.959280 0.000000
-7.669712 -7.015571 -0.686899 543 0.282458 0.959280 0.000000
-7.669492 -7.015364 -0.683680 523 0.282458 0.959280 0.000000
-7.669484 -7.015354 -0.680471 523 0.282458 0.959280 0.000000
-7.668658 -7.014605 -0.677198 497 0.282458 0.959280 0.000000
-7.669572 -7.015429 -0.674070 507 0.282458 0.959280 0.000000
-7.670093 -7.015911 -0.670905 507 0.282458 0.959280 0.000000
-7.669811 -7.015653 -0.667677 493 0.282458 0.959280 0.000000
-7.669039 -7.014949 -0.664404 493 0.282458 0.959280 0.000000
-7.668867 -7.014793 -0.661186 471 0.282458 0.959280 0.000000
-7.669765 -7.015604 -0.658057 477 0.282458 0.959280 0.000000
-7.669860 -7.015690 -0.654866 467 0.282458 0.959280 0.000000
-7.668649 -7.014592 -0.651558 469 0.282458 0.959280 0.000000
-7.669335 -7.015220 -0.648411 461 0.282458 0.959280 0.000000
-7.670454 -7.016235 -0.645301 487 0.282458 0.959280 0.000000
-7.669737 -7.015575 -0.642037 483 0.282458 0.959279 0.000000
-7.669061 -7.014961 -0.638774 467 0.282458 0.959280 0.000000
-7.668880 -7.014798 -0.635555 499 0.282458 0.959280 0.000000
-7.670315 -7.016108 -0.632472 477 0.282458 0.959280 0.000000
-7.671372 -7.017073 -0.629352 461 0.282458 0.959280 0.000000
-7.670317 -7.016115 -0.626061 481 0.282458 0.959280 0.000000
-7.670405 -7.016194 -0.622871 493 0.282458 0.959280 0.000000
-7.670712 -7.016464 -0.619688 487 0.282458 0.959280 0.000000
-7.669492 -7.015359 -0.616389 491 0.282458 0.959280 0.000000
-7.670123 -7.015929 -0.613233 545 0.282458 0.959280 0.000000
-7.671172 -7.016888 -0.610113 561 0.282458 0.959280 0.000000
-7.671038 -7.016763 -0.606904 547 0.282458 0.959280 0.000000
-7.671811 -7.017474 -0.603757 537 0.282458 0.959280 0.000000
-7.671892 -7.017548 -0.600566 541 0.282458 0.959280 0.000000
-7.670891 -7.016633 -0.597285 553 0.282458 0.959280 0.000000
-7.670545 -7.016311 -0.594049 569 0.282458 0.959280 0.000000
-7.669655 -7.015499 -0.590787 545 0.282458 0.959280 0.000000
-7.669349 -7.015222 -0.587560 553 0.282458 0.959280 0.000000
-7.669530 -7.015377 -0.584368 541 0.282458 0.959280 0.000000
-7.669555 -7.015407 -0.581168 531 0.282458 0.959280 0.000000
-7.669840 -7.015671 -0.577995 529 0.282458 0.959280 0.000000
-7.670234 -7.016024 -0.574821 545 0.282458 0.959280 0.000000
-7.670100 -7.015899 -0.571602 525 0.282458 0.959280 0.000000
-7.669897 -7.015718 -0.568394 543 0.282458 0.959280 0.000000
-7.671001 -7.016721 -0.565264 539 0.282458 0.959280 0.000000
-7.671443 -7.017126 -0.562099 531 0.282458 0.959280 0.000000
-7.670111 -7.015905 -0.558802 527 0.282458 0.959280 0.000000
-7.669254 -7.015131 -0.555540 529 0.282458 0.959280 0.000000
-7.670681 -7.016435 -0.552436 553 0.282458 0.959280 0.000000
-7.671714 -7.017382 -0.549307 555 0.282458 0.959280 0.000000
-7.670713 -7.016453 -0.546036 549 0.282458 0.959280 0.000000
-7.670124 -7.015922 -0.542801 525 0.282458 0.959280 0.000000
-7.670567 -7.016326 -0.539627 519 0.282458 0.959280 0.000000
-7.671338 -7.017023 -0.536480 515 0.282458 0.959279 0.000000
-7.671561 -7.017238 -0.533298 523 0.282458 0.959280 0.000000
-7.670269 -7.016048 -0.530010 519 0.282458 0.959280 0.000000
-7.669790 -7.015619 -0.526774 535 0.282458 0.959280 0.000000
-7.670775 -7.016514 -0.523645 563 0.282458 0.959280 0.000000
-7.670191 -7.015975 -0.520400 541 0.282458 0.959280 0.000000
-7.669492 -7.015342 -0.517157 529 0.282458 0.959280 0.000000
-7.669397 -7.015248 -0.513947 539 0.282458 0.959280 0.000000
-7.669722 -7.015545 -0.510774 547 0.282458 0.959280 0.000000
-7.670369 -7.016141 -0.507618 547 0.282458 0.959280 0.000000
-7.670156 -7.015940 -0.504400 539 0.282458 0.959280 0.000000
-7.670158 -7.015950 -0.501200 535 0.282458 0.959280 0.000000
-7.669993 -7.015800 -0.497991 547 0.282458 0.959280 0.000000
-7.669734 -7.015562 -0.494774 549 0.282458 0.959279 0.000000
-7.670113 -7.015902 -0.491600 547 0.282458 0.959280 0.000000
-7.669948 -7.015752 -0.488392 549 0.282458 0.959280 0.000000
-7.669405 -7.015258 -0.485157 537 0.282458 0.959280 0.000000
-7.669997 -7.015797 -0.482001 525 0.282458 0.959280 0.000000
-7.671236 -7.016935 -0.478869 549 0.282458 0.959280 0.000000
-7.671126 -7.016829 -0.475670 547 0.282458 0.959280 0.000000
-7.670156 -7.015940 -0.472409 525 0.282458 0.959280 0.000000
-7.670418 -7.016186 -0.469227 555 0.282458 0.959280 0.000000
-7.670953 -7.016666 -0.466062 573 0.282458 0.959280 0.000000
-7.670246 -7.016026 -0.462818 555 0.282458 0.959280 0.000000
-7.669483 -7.015328 -0.459575 559 0.282458 0.959280 0.000000
-7.669317 -7.015165 -0.456367 531 0.282458 0.959280 0.000000
-7.670712 -7.016443 -0.453254 559 0.282458 0.959280 0.000000
-7.671455 -7.017128 -0.450097 559 0.282458 0.959280 0.000000
-7.671502 -7.017163 -0.446906 571 0.282458 0.959280 0.000000
-7.671432 -7.017103 -0.443697 547 0.282458 0.959280 0.000000
-7.670992 -7.016704 -0.440481 547 0.282458 0.959280 0.000000
-7.670551 -7.016293 -0.437255 547 0.282458 0.959280 0.000000
-7.670103 -7.015889 -0.434029 553 0.282458 0.959280 0.000000
-7.669340 -7.015192 -0.430796 523 0.282458 0.959280 0.000000
-7.670129 -7.015914 -0.427639 535 0.282458 0.959280 0.000000
-7.671145 -7.016835 -0.424499 553 0.282458 0.959280 0.000000
-7.671124 -7.016826 -0.421299 547 0.282458 0.959279 0.000000
-7.671438 -7.017102 -0.418116 555 0.282458 0.959280 0.000000
-7.671196 -7.016890 -0.414908 543 0.282458 0.959280 0.000000
-7.670968 -7.016675 -0.411700 547 0.282458 0.959280 0.000000
-7.670842 -7.016558 -0.408491 525 0.282458 0.959280 0.000000
-7.670119 -7.015905 -0.405258 503 0.282458 0.959280 0.000000
-7.670158 -7.015933 -0.402068 501 0.282458 0.959280 0.000000
-7.671916 -7.017542 -0.398951 515 0.282458 0.959280 0.000000
-7.672649 -7.018208 -0.395794 557 0.282458 0.959280 0.000000
-7.671382 -7.017052 -0.392536 529 0.282458 0.959280 0.000000
-7.670122 -7.015901 -0.389278 539 0.282458 0.959280 0.000000
-7.669287 -7.015133 -0.386036 517 0.282458 0.959280 0.000000
-7.670667 -7.016398 -0.382913 509 0.282458 0.959280 0.000000
-7.670431 -7.016178 -0.379705 527 0.282458 0.959280 0.000000
-7.670023 -7.015806 -0.376488 507 0.282458 0.959280 0.000000
-7.669897 -7.015687 -0.373279 503 0.282458 0.959280 0.000000
-7.669276 -7.015117 -0.370055 503 0.282458 0.959280 0.000000
-7.670216 -7.015988 -0.366906 515 0.282458 0.959280 0.000000
-7.671256 -7.016940 -0.363756 501 0.282458 0.959280 0.000000
-7.671501 -7.017160 -0.360574 525 0.282458 0.959280 0.000000
-7.671532 -7.017181 -0.357374 513 0.282458 0.959280 0.000000
-7.671873 -7.017504 -0.354200 535 0.282458 0.959280 0.000000
-7.670872 -7.016576 -0.350960 529 0.282458 0.959280 0.000000
-7.670360 -7.016107 -0.347735 521 0.282458 0.959280 0.000000
-7.669503 -7.015334 -0.344502 515 0.282458 0.959280 0.000000
-7.670181 -7.015942 -0.341336 523 0.282458 0.959280 0.000000
-7.670741 -7.016455 -0.338171 537 0.282458 0.959280 0.000000
-7.670483 -7.016230 -0.334963 535 0.282458 0.959280 0.000000
-7.671373 -7.017035 -0.331805 513 0.282458 0.959280 0.000000
-7.671761 -7.017395 -0.328621 521 0.282458 0.959280 0.000000
-7.670217 -7.015977 -0.325365 517 0.282458 0.959280 0.000000
-7.669587 -7.015400 -0.322141 509 0.282458 0.959280 0.000000
-7.669549 -7.015366 -0.318951 523 0.282458 0.959280 0.000000
-7.669888 -7.015675 -0.315768 537 0.282458 0.959280 0.000000
-7.671685 -7.017315 -0.312641 525 0.282458 0.959280 0.000000
-7.672910 -7.014115 -0.706231 515 0.282458 0.959280 0.000000
-7.672476 -7.013710 -0.702985 497 0.282458 0.959280 0.000000
-7.673005 -7.014197 -0.699820 515 0.282458 0.959280 0.000000
-7.673108 -7.014289 -0.696629 535 0.282458 0.959280 0.000000
-7.674016 -7.015121 -0.693500 545 0.282458 0.959280 0.000000
-7.674119 -7.015214 -0.690299 541 0.282458 0.959280 0.000000
-7.673355 -7.014516 -0.687027 505 0.282458 0.959280 0.000000
-7.673664 -7.014800 -0.683854 511 0.282458 0.959280 0.000000
-7.673230 -7.014394 -0.680608 503 0.282458 0.959280 0.000000
-7.673586 -7.014729 -0.677434 513 0.282458 0.959280 0.000000
-7.674170 -7.015262 -0.674279 527 0.282458 0.959280 0.000000
-7.674265 -7.015348 -0.671078 493 0.282458 0.959280 0.000000
-7.673343 -7.014496 -0.667796 475 0.282458 0.959280 0.000000
-7.672895 -7.014092 -0.664550 507 0.282458 0.959279 0.000000
-7.673795 -7.014917 -0.661422 507 0.282458 0.959280 0.000000
-7.673132 -7.014301 -0.658158 475 0.282458 0.959280 0.000000
-7.672685 -7.013897 -0.654922 465 0.282458 0.959280 0.000000
-7.672883 -7.014079 -0.651730 465 0.282458 0.959280 0.000000
-7.672764 -7.013967 -0.648511 461 0.282458 0.959280 0.000000
-7.672790 -7.013996 -0.645311 469 0.282458 0.959280 0.000000
-7.673049 -7.014228 -0.642128 471 0.282458 0.959280 0.000000
-7.672965 -7.014155 -0.638919 503 0.282458 0.959280 0.000000
-7.673328 -7.014483 -0.635746 525 0.282458 0.959280 0.000000
-7.674006 -7.015104 -0.632599 481 0.282458 0.959280 0.000000
-7.674526 -7.015572 -0.629434 487 0.282458 0.959280 0.000000
-7.673645 -7.014766 -0.626162 463 0.282458 0.959280 0.000000
-7.673662 -7.014789 -0.622952 483 0.282458 0.959280 0.000000
-7.674238 -7.015315 -0.619797 483 0.282458 0.959280 0.000000
-7.674750 -7.015775 -0.616632 505 0.282458 0.959280 0.000000
-7.675161 -7.016156 -0.613458 525 0.282458 0.959280 0.000000
-7.674650 -7.015687 -0.610213 549 0.282458 0.959280 0.000000
-7.673760 -7.014875 -0.606941 541 0.282458 0.959280 0.000000
-7.673729 -7.014846 -0.603741 553 0.282458 0.959280 0.000000
-7.673912 -7.015015 -0.600549 545 0.282458 0.959280 0.000000
-7.674259 -7.015330 -0.597376 549 0.282458 0.959280 0.000000
-7.674291 -7.015352 -0.594176 565 0.282458 0.959280 0.000000
-7.673985 -7.015075 -0.590948 565 0.282458 0.959280 0.000000
-7.674174 -7.015250 -0.587757 543 0.282458 0.959280 0.000000
-7.674575 -7.015609 -0.584583 529 0.282458 0.959280 0.000000
-7.673576 -7.014695 -0.581312 549 0.282458 0.959280 0.000000
-7.672994 -7.014170 -0.578067 531 0.282458 0.959280 0.000000
-7.674366 -7.015415 -0.574964 523 0.282458 0.959280 0.000000
-7.673571 -7.014692 -0.571702 535 0.282458 0.959280 0.000000
-7.672130 -7.013383 -0.568395 511 0.282458 0.959280 0.000000
-7.672697 -7.013888 -0.565230 517 0.282458 0.959280 0.000000
-7.673085 -7.014249 -0.562066 531 0.282458 0.959280 0.000000
-7.672944 -7.014119 -0.558847 527 0.282458 0.959280 0.000000
-7.673702 -7.014817 -0.555700 527 0.282458 0.959280 0.000000
-7.674538 -7.015578 -0.552562 515 0.282458 0.959280 0.000000
-7.674057 -7.015134 -0.549327 525 0.282458 0.959280 0.000000
-7.673365 -7.014507 -0.546073 539 0.282458 0.959280 0.000000
-7.673388 -7.014522 -0.542873 523 0.282458 0.959280 0.000000
-7.673720 -7.014825 -0.539700 503 0.282458 0.959280 0.000000
-7.673674 -7.014784 -0.536490 513 0.282458 0.959280 0.000000
-7.672879 -7.014060 -0.533237 513 0.282458 0.959280 0.000000
-7.672723 -7.013917 -0.530029 537 0.282458 0.959280 0.000000
-7.672952 -7.014125 -0.526847 543 0.282458 0.959280 0.000000
-7.673228 -7.014369 -0.523664 537 0.282458 0.959280 0.000000
-7.673449 -7.014569 -0.520472 541 0.282458 0.959280 0.000000
-7.672757 -7.013942 -0.517228 543 0.282458 0.959280 0.000000
-7.673089 -7.014245 -0.514045 539 0.282458 0.959280 0.000000
-7.673901 -7.014987 -0.510907 523 0.282458 0.959280 0.000000
-7.673468 -7.014596 -0.507671 525 0.282458 0.959280 0.000000
-7.673744 -7.014840 -0.504489 529 0.282458 0.959280 0.000000
-7.674392 -7.015437 -0.501333 559 0.282458 0.959280 0.000000
-7.674179 -7.015235 -0.498124 565 0.282458 0.959280 0.000000
-7.673377 -7.014506 -0.494872 567 0.282458 0.959280 0.000000
-7.673914 -7.015000 -0.491707 561 0.282458 0.959280 0.000000
-7.674395 -7.015436 -0.488532 545 0.282458 0.959279 0.000000
-7.674017 -7.015089 -0.485306 529 0.282458 0.959280 0.000000
-7.674341 -7.015385 -0.482133 537 0.282458 0.959280 0.000000
-7.674452 -7.015484 -0.478941 555 0.282458 0.959280 0.000000
-7.674658 -7.015672 -0.475749 531 0.282458 0.959280 0.000000
-7.673799 -7.014884 -0.472497 509 0.282458 0.959280 0.000000
-7.673194 -7.014340 -0.469263 531 0.282458 0.959280 0.000000
-7.673352 -7.014477 -0.466071 543 0.282458 0.959280 0.000000
-7.673833 -7.014913 -0.462907 563 0.282458 0.959280 0.000000
-7.673339 -7.014472 -0.459681 561 0.282458 0.959280 0.000000
-7.672843 -7.014015 -0.456446 549 0.282458 0.959280 0.000000
-7.673222 -7.014356 -0.453272 539 0.282458 0.959280 0.000000
-7.673095 -7.014237 -0.450063 529 0.282458 0.959280 0.000000
-7.673633 -7.014731 -0.446898 555 0.282458 0.959280 0.000000
-7.673728 -7.014818 -0.443707 535 0.282458 0.959280 0.000000
-7.675178 -7.016139 -0.440594 537 0.282458 0.959280 0.000000
-7.675534 -7.016475 -0.437410 561 0.282458 0.959280 0.000000
-7.674502 -7.015522 -0.434150 545 0.282458 0.959280 0.000000
-7.673738 -7.014823 -0.430917 541 0.282458 0.959280 0.000000
-7.672857 -7.014018 -0.427665 537 0.282458 0.959280 0.000000
-7.673103 -7.014251 -0.424483 537 0.282458 0.959280 0.000000
-7.674119 -7.015171 -0.421343 551 0.282458 0.959280 0.000000
-7.673348 -7.014467 -0.418100 539 0.282458 0.959280 0.000000
-7.672790 -7.013960 -0.414875 507 0.282458 0.959280 0.000000
-7.673682 -7.014780 -0.411727 515 0.282458 0.959280 0.000000
-7.674265 -7.015312 -0.408561 519 0.282458 0.959280 0.000000
-7.674242 -7.015290 -0.405362 523 0.282458 0.959280 0.000000
-7.673250 -7.014381 -0.402111 527 0.282458 0.959280 0.000000
-7.672644 -7.013824 -0.398886 533 0.282458 0.959280 0.000000
-7.674024 -7.015089 -0.395753 535 0.282458 0.959280 0.000000
-7.674214 -7.015264 -0.392572 513 0.282458 0.959280 0.000000
-7.674569 -7.015585 -0.389388 525 0.282458 0.959280 0.000000
-7.674546 -7.015563 -0.386188 519 0.282458 0.959280 0.000000
-7.674531 -7.015547 -0.382988 511 0.282458 0.959280 0.000000
-7.674988 -7.015964 -0.379814 507 0.282458 0.959280 0.000000
-7.674202 -7.015248 -0.376581 505 0.282458 0.959280 0.000000
-7.673265 -7.014384 -0.373340 507 0.282458 0.959280 0.000000
-7.673770 -7.014853 -0.370165 513 0.282458 0.959279 0.000000
-7.675307 -7.016257 -0.367041 507 0.282458 0.959280 0.000000
-7.676467 -7.017319 -0.363900 497 0.282458 0.959280 0.000000
-7.675143 -7.016104 -0.360642 495 0.282458 0.959280 0.000000
-7.674033 -7.015088 -0.357392 503 0.282458 0.959280 0.000000
-7.675027 -7.016003 -0.354243 515 0.282458 0.959280 0.000000
-7.674838 -7.015821 -0.351035 523 0.282458 0.959280 0.000000
-7.674154 -7.015200 -0.347811 525 0.282458 0.959280 0.000000
-7.674288 -7.015317 -0.344620 519 0.282458 0.959280 0.000000
-7.674202 -7.015244 -0.341421 525 0.282458 0.959280 0.000000
-7.674006 -7.015056 -0.338212 509 0.282458 0.959280 0.000000
-7.673913 -7.014977 -0.335013 523 0.282458 0.959280 0.000000
-7.673985 -7.015043 -0.331822 511 0.282458 0.959280 0.000000
-7.673520 -7.014613 -0.328607 497 0.282458 0.959280 0.000000
-7.673537 -7.014636 -0.325416 525 0.282458 0.959280 0.000000
-7.673057 -7.014193 -0.322201 537 0.282458 0.959280 0.000000
-7.672050 -7.013272 -0.318960 537 0.282458 0.959280 0.000000
-7.672175 -7.013383 -0.315769 515 0.282458 0.959280 0.000000
-7.673217 -7.014336 -0.312619 501 0.282458 0.959280 0.000000
-7.677696 -7.014177 -0.706468 527 0.282458 0.959280 0.000000
-7.677531 -7.014027 -0.703250 523 0.282458 0.959280 0.000000
-7.676452 -7.013035 -0.699940 539 0.282458 0.959280 0.000000
-7.677200 -7.013713 -0.696802 545 0.282458 0.959280 0.000000
-7.678211 -7.014641 -0.693683 539 0.282458 0.959280 0.000000
-7.677344 -7.013847 -0.690401 537 0.282458 0.959280 0.000000
-7.676959 -7.013494 -0.687155 517 0.282458 0.959280 0.000000
-7.677321 -7.013821 -0.683981 529 0.282458 0.959280 0.000000
-7.677046 -7.013569 -0.680754 521 0.282458 0.959280 0.000000
-7.677741 -7.014204 -0.677607 513 0.282458 0.959280 0.000000
-7.677773 -7.014239 -0.674407 513 0.282458 0.959280 0.000000
-7.676467 -7.013051 -0.671089 469 0.282458 0.959280 0.000000
-7.676617 -7.013181 -0.667887 491 0.282458 0.959280 0.000000
-7.677956 -7.014400 -0.664795 527 0.282458 0.959280 0.000000
-7.678203 -7.014635 -0.661612 503 0.282458 0.959280 0.000000
-7.677321 -7.013828 -0.658330 479 0.282458 0.959280 0.000000
-7.677581 -7.014060 -0.655148 465 0.282458 0.959280 0.000000
-7.677944 -7.014388 -0.651975 443 0.282458 0.959280 0.000000
-7.676897 -7.013435 -0.648684 445 0.282458 0.959280 0.000000
-7.677576 -7.014057 -0.645528 463 0.282458 0.959280 0.000000
-7.678206 -7.014627 -0.642382 475 0.282458 0.959280 0.000000
-7.677814 -7.014267 -0.639135 463 0.282458 0.959280 0.000000
-7.678003 -7.014442 -0.635954 495 0.282458 0.959280 0.000000
-7.677342 -7.013840 -0.632690 473 0.282458 0.959280 0.000000
-7.676996 -7.013517 -0.629463 463 0.282458 0.959280 0.000000
-7.677564 -7.014037 -0.626298 459 0.282458 0.959280 0.000000
-7.676833 -7.013378 -0.623034 457 0.282458 0.959280 0.000000
-7.676486 -7.013056 -0.619807 479 0.282458 0.959280 0.000000
-7.676471 -7.013040 -0.616597 493 0.282458 0.959280 0.000000
-7.676448 -7.013017 -0.613398 527 0.282458 0.959280 0.000000
-7.676520 -7.013084 -0.610197 551 0.282458 0.959280 0.000000
-7.676497 -7.013062 -0.606997 531 0.282458 0.959280 0.000000
-7.676852 -7.013383 -0.603814 527 0.282458 0.959280 0.000000
-7.677358 -7.013853 -0.600649 543 0.282458 0.959280 0.000000
-7.677760 -7.014212 -0.597475 551 0.282458 0.959280 0.000000
-7.677839 -7.014285 -0.594284 553 0.282458 0.959280 0.000000
-7.676619 -7.013166 -0.590985 565 0.282458 0.959280 0.000000
-7.675564 -7.012208 -0.587705 535 0.282458 0.959280 0.000000
-7.677045 -7.013555 -0.584611 545 0.282458 0.959280 0.000000
-7.677929 -7.014368 -0.581473 539 0.282458 0.959280 0.000000
-7.677575 -7.014039 -0.578246 539 0.282458 0.959280 0.000000
-7.677426 -7.013902 -0.575028 543 0.282458 0.959280 0.000000
-7.677128 -7.013631 -0.571800 541 0.282458 0.959280 0.000000
-7.677845 -7.014285 -0.568654 561 0.282458 0.959280 0.000000
-7.678611 -7.014988 -0.565506 547 0.282458 0.959280 0.000000
-7.678043 -7.014462 -0.562262 533 0.282458 0.959280 0.000000
-7.678217 -7.014625 -0.559070 529 0.282458 0.959280 0.000000
