774
-7.859789 -6.844508 -0.492416 487 -0.025522 0.999674 0.000000
-7.859734 -6.844462 -0.489207 503 -0.025522 0.999674 0.000000
-7.858631 -6.843496 -0.485937 485 -0.025522 0.999674 0.000000
-7.857254 -6.842296 -0.482649 465 -0.025522 0.999674 0.000000
-7.857637 -6.842633 -0.479465 467 -0.025522 0.999674 0.000000
-7.858513 -6.843394 -0.476308 459 -0.025522 0.999674 0.000000
-7.859226 -6.844007 -0.473141 467 -0.025522 0.999674 0.000000
-7.858677 -6.843536 -0.469906 463 -0.025522 0.999674 0.000000
-7.857680 -6.842663 -0.466645 443 -0.025522 0.999674 0.000000
-7.858493 -6.843376 -0.463487 449 -0.025522 0.999674 0.000000
-7.858712 -6.843563 -0.460285 457 -0.025522 0.999674 0.000000
-7.858372 -6.843264 -0.457068 473 -0.025522 0.999674 0.000000
-7.857815 -6.842787 -0.453823 463 -0.025522 0.999674 0.000000
-7.858414 -6.843300 -0.450658 459 -0.025522 0.999674 0.000000
-7.859835 -6.844538 -0.447525 469 -0.025522 0.999674 0.000000
-7.859827 -6.844529 -0.444325 455 -0.025522 0.999674 0.000000
-7.858328 -6.843224 -0.441028 437 -0.025522 0.999674 0.000000
-7.858037 -6.842974 -0.437811 461 -0.025522 0.999674 0.000000
-7.859303 -6.844069 -0.434669 487 -0.025522 0.999674 0.000000
-7.859337 -6.844103 -0.431469 459 -0.025522 0.999674 0.000000
-7.859653 -6.844377 -0.428286 451 -0.025522 0.999674 0.000000
-7.859582 -6.844319 -0.425077 449 -0.025522 0.999674 0.000000
-7.858796 -6.843630 -0.421824 465 -0.025522 0.999674 0.000000
-7.859057 -6.843863 -0.418631 475 -0.025522 0.999674 0.000000
-7.859423 -6.844173 -0.415448 483 -0.025522 0.999674 0.000000
-7.858799 -6.843634 -0.412213 465 -0.025522 0.999674 0.000000
-7.858177 -6.843094 -0.408979 441 -0.025522 0.999674 0.000000
-7.858380 -6.843270 -0.405777 425 -0.025522 0.999674 0.000000
-7.859452 -6.844205 -0.402627 453 -0.025522 0.999674 0.000000
-7.859719 -6.844429 -0.399435 457 -0.025522 0.999674 0.000000
-7.860743 -6.845328 -0.396285 457 -0.025522 0.999674 0.000000
-7.860442 -6.845058 -0.393058 431 -0.025522 0.999674 0.000000
-7.859423 -6.844181 -0.389807 435 -0.025522 0.999674 0.000000
-7.859796 -6.844497 -0.386624 435 -0.025522 0.999674 0.000000
-7.860430 -6.845050 -0.383448 423 -0.025522 0.999674 0.000000
-7.860131 -6.844794 -0.380231 437 -0.025522 0.999674 0.000000
-7.859717 -6.844426 -0.377004 413 -0.025522 0.999674 0.000000
-7.859736 -6.844449 -0.373804 413 -0.025522 0.999674 0.000000
-7.859558 -6.844284 -0.370586 431 -0.025522 0.999674 0.000000
-7.859471 -6.844213 -0.367376 419 -0.025522 0.999674 0.000000
-7.859106 -6.843895 -0.364159 417 -0.025522 0.999674 0.000000
-7.858800 -6.843635 -0.360942 417 -0.025522 0.999674 0.000000
-7.859207 -6.843989 -0.357758 433 -0.025522 0.999674 0.000000
-7.860342 -6.844973 -0.354598 455 -0.025522 0.999674 0.000000
-7.860861 -6.845426 -0.351413 481 -0.025522 0.999674 0.000000
-7.859784 -6.844478 -0.348163 457 -0.025522 0.999674 0.000000
-7.858926 -6.843735 -0.344931 425 -0.025522 0.999674 0.000000
-7.859269 -6.844041 -0.341737 409 -0.025522 0.999674 0.000000
-7.859900 -6.844580 -0.338562 431 -0.025522 0.999674 0.000000
-7.859317 -6.844070 -0.335337 415 -0.025522 0.999674 0.000000
-7.859546 -6.844279 -0.332135 421 -0.025522 0.999674 0.000000
-7.859734 -6.844442 -0.328943 439 -0.025522 0.999674 0.000000
-7.858487 -6.843353 -0.325694 427 -0.025522 0.999674 0.000000
-7.858397 -6.843269 -0.322485 433 -0.025522 0.999674 0.000000
-7.860004 -6.844673 -0.319340 433 -0.025522 0.999674 0.000000
-7.860353 -6.844972 -0.316157 405 -0.025522 0.999674 0.000000
-7.858928 -6.843736 -0.312890 397 -0.025522 0.999674 0.000000
-7.859164 -6.843935 -0.309698 413 -0.025522 0.999674 0.000000
-7.860057 -6.844723 -0.306530 411 -0.025522 0.999674 0.000000
-7.862849 -6.842784 -0.704425 453 -0.025522 0.999674 0.000000
-7.862402 -6.842391 -0.701169 455 -0.025522 0.999674 0.000000
-7.862226 -6.842241 -0.697940 455 -0.025522 0.999674 0.000000
-7.862290 -6.842286 -0.694730 453 -0.025522 0.999674 0.000000
-7.863264 -6.843134 -0.691601 457 -0.025522 0.999674 0.000000
-7.863589 -6.843414 -0.688408 443 -0.025522 0.999674 0.000000
-7.863137 -6.843029 -0.685152 443 -0.025522 0.999674 0.000000
-7.863291 -6.843155 -0.681950 431 -0.025522 0.999674 0.000000
-7.864054 -6.843818 -0.678803 423 -0.025522 0.999674 0.000000
-7.863603 -6.843434 -0.675547 399 -0.025522 0.999674 0.000000
-7.863756 -6.843559 -0.672346 413 -0.025522 0.999674 0.000000
-7.863521 -6.843352 -0.669118 417 -0.025522 0.999674 0.000000
-7.863508 -6.843350 -0.665898 431 -0.025522 0.999674 0.000000
-7.864099 -6.843858 -0.662733 413 -0.025522 0.999674 0.000000
-7.863088 -6.842987 -0.659442 413 -0.025522 0.999674 0.000000
-7.862845 -6.842773 -0.656204 427 -0.025522 0.999674 0.000000
-7.862350 -6.842330 -0.652948 411 -0.025522 0.999674 0.000000
-7.863098 -6.842981 -0.649801 407 -0.025522 0.999674 0.000000
-7.864454 -6.844171 -0.646699 415 -0.025522 0.999674 0.000000
-7.863667 -6.843482 -0.643416 409 -0.025522 0.999674 0.000000
-7.864026 -6.843800 -0.640233 427 -0.025522 0.999674 0.000000
-7.864335 -6.844069 -0.637050 431 -0.025522 0.999674 0.000000
-7.864042 -6.843805 -0.633812 433 -0.025522 0.999674 0.000000
-7.863801 -6.843592 -0.630575 413 -0.025522 0.999674 0.000000
-7.863777 -6.843570 -0.627365 431 -0.025522 0.999674 0.000000
-7.863154 -6.843030 -0.624100 419 -0.025522 0.999674 0.000000
-7.863341 -6.843194 -0.620909 429 -0.025522 0.999674 0.000000
-7.863650 -6.843462 -0.617716 421 -0.025522 0.999674 0.000000
-7.861975 -6.842010 -0.614381 411 -0.025522 0.999674 0.000000
-7.861553 -6.841636 -0.611135 425 -0.025522 0.999674 0.000000
-7.861920 -6.841961 -0.607951 439 -0.025522 0.999674 0.000000
-7.862884 -6.842789 -0.604812 455 -0.025522 0.999674 0.000000
-7.863298 -6.843151 -0.601628 449 -0.025522 0.999674 0.000000
-7.863266 -6.843122 -0.598419 423 -0.025522 0.999674 0.000000
-7.862847 -6.842762 -0.595172 423 -0.025522 0.999674 0.000000
-7.862597 -6.842543 -0.591945 439 -0.025522 0.999674 0.000000
-7.862501 -6.842466 -0.588725 443 -0.025522 0.999674 0.000000
-7.862420 -6.842389 -0.585516 441 -0.025522 0.999674 0.000000
-7.864148 -6.843898 -0.582430 451 -0.025522 0.999674 0.000000
-7.864888 -6.844543 -0.579273 455 -0.025522 0.999674 0.000000
-7.864904 -6.844551 -0.576063 441 -0.025522 0.999674 0.000000
-7.863819 -6.843611 -0.572773 439 -0.025522 0.999674 0.000000
-7.863519 -6.843341 -0.569536 447 -0.025522 0.999674 0.000000
-7.863749 -6.843550 -0.566344 457 -0.025522 0.999674 0.000000
-7.863157 -6.843034 -0.563089 459 -0.025522 0.999674 0.000000
-7.864235 -6.843961 -0.559959 451 -0.025522 0.999674 0.000000
-7.864082 -6.843828 -0.556740 469 -0.025522 0.999674 0.000000
-7.863710 -6.843504 -0.553504 469 -0.025522 0.999674 0.000000
-7.864604 -6.844292 -0.550355 455 -0.025522 0.999674 0.000000
-7.863681 -6.843487 -0.547084 457 -0.025522 0.999674 0.000000
-7.863698 -6.843496 -0.543874 445 -0.025522 0.999674 0.000000
-7.863933 -6.843695 -0.540671 459 -0.025522 0.999674 0.000000
-7.863771 -6.843556 -0.537453 473 -0.025522 0.999674 0.000000
-7.863887 -6.843666 -0.534252 477 -0.025522 0.999674 0.000000
-7.864341 -6.844057 -0.531077 479 -0.025522 0.999674 0.000000
-7.864796 -6.844448 -0.527893 467 -0.025522 0.999674 0.000000
-7.865244 -6.844847 -0.524709 481 -0.025522 0.999674 0.000000
-7.865633 -6.845176 -0.521525 483 -0.025522 0.999674 0.000000
-7.864604 -6.844278 -0.518255 475 -0.025522 0.999674 0.000000
-7.864055 -6.843807 -0.515010 453 -0.025522 0.999674 0.000000
-7.864000 -6.843761 -0.511800 449 -0.025522 0.999674 0.000000
-7.863506 -6.843332 -0.508554 481 -0.025522 0.999674 0.000000
-7.864017 -6.843766 -0.505380 493 -0.025522 0.999674 0.000000
-7.863678 -6.843480 -0.502153 479 -0.025522 0.999674 0.000000
-7.863290 -6.843144 -0.498916 475 -0.025522 0.999674 0.000000
-7.864352 -6.844059 -0.495776 465 -0.025522 0.999674 0.000000
-7.865278 -6.844871 -0.492628 493 -0.025522 0.999674 0.000000
-7.866276 -6.845738 -0.489479 515 -0.025522 0.999674 0.000000
-7.865838 -6.845351 -0.486243 493 -0.025522 0.999674 0.000000
-7.864129 -6.843861 -0.482928 473 -0.025522 0.999674 0.000000
-7.864342 -6.844057 -0.479736 495 -0.025522 0.999674 0.000000
-7.864511 -6.844194 -0.476535 487 -0.025522 0.999674 0.000000
-7.863678 -6.843469 -0.473282 471 -0.025522 0.999674 0.000000
-7.864173 -6.843904 -0.470097 465 -0.025522 0.999674 0.000000
-7.863947 -6.843704 -0.466879 439 -0.025522 0.999674 0.000000
-7.863771 -6.843554 -0.463661 467 -0.025522 0.999674 0.000000
-7.864209 -6.843933 -0.460477 473 -0.025522 0.999674 0.000000
-7.864753 -6.844404 -0.457302 467 -0.025522 0.999674 0.000000
-7.865128 -6.844735 -0.454118 473 -0.025522 0.999674 0.000000
-7.865613 -6.845150 -0.450934 473 -0.025522 0.999674 0.000000
-7.865445 -6.845006 -0.447715 455 -0.025522 0.999674 0.000000
-7.865592 -6.845139 -0.444514 441 -0.025522 0.999674 0.000000
-7.865261 -6.844845 -0.441297 451 -0.025522 0.999674 0.000000
-7.864144 -6.843881 -0.438027 469 -0.025522 0.999674 0.000000
-7.864184 -6.843907 -0.434817 477 -0.025522 0.999674 0.000000
-7.864340 -6.844047 -0.431625 471 -0.025522 0.999674 0.000000
-7.863936 -6.843699 -0.428389 447 -0.025522 0.999674 0.000000
-7.864203 -6.843923 -0.425196 463 -0.025522 0.999674 0.000000
-7.864456 -6.844149 -0.422004 471 -0.025522 0.999674 0.000000
-7.864943 -6.844564 -0.418829 481 -0.025522 0.999674 0.000000
-7.864700 -6.844351 -0.415611 463 -0.025522 0.999674 0.000000
-7.863859 -6.843620 -0.412359 435 -0.025522 0.999674 0.000000
-7.863949 -6.843698 -0.409158 441 -0.025522 0.999674 0.000000
-7.864639 -6.844305 -0.405982 461 -0.025522 0.999674 0.000000
-7.865670 -6.845197 -0.402832 483 -0.025522 0.999674 0.000000
-7.865590 -6.845132 -0.399623 473 -0.025522 0.999674 0.000000
-7.864472 -6.844154 -0.396353 445 -0.025522 0.999674 0.000000
-7.864287 -6.843997 -0.393145 439 -0.025522 0.999674 0.000000
-7.864483 -6.844167 -0.389943 459 -0.025522 0.999674 0.000000
-7.864182 -6.843897 -0.386725 457 -0.025522 0.999674 0.000000
-7.864760 -6.844408 -0.383550 453 -0.025522 0.999674 0.000000
-7.865069 -6.844675 -0.380357 455 -0.025522 0.999674 0.000000
-7.865101 -6.844696 -0.377147 429 -0.025522 0.999674 0.000000
-7.865565 -6.845107 -0.373963 439 -0.025522 0.999674 0.000000
-7.864885 -6.844512 -0.370729 433 -0.025522 0.999674 0.000000
-7.863970 -6.843712 -0.367487 453 -0.025522 0.999674 0.000000
-7.864766 -6.844413 -0.364310 443 -0.025522 0.999674 0.000000
-7.865286 -6.844867 -0.361135 437 -0.025522 0.999674 0.000000
-7.864759 -6.844400 -0.357900 439 -0.025522 0.999674 0.000000
-7.864841 -6.844471 -0.354699 423 -0.025522 0.999674 0.000000
-7.864973 -6.844593 -0.351497 455 -0.025522 0.999674 0.000000
-7.865111 -6.844706 -0.348306 463 -0.025522 0.999674 0.000000
-7.864797 -6.844439 -0.345089 433 -0.025522 0.999674 0.000000
-7.864327 -6.844028 -0.341863 419 -0.025522 0.999674 0.000000
-7.864839 -6.844475 -0.338678 431 -0.025522 0.999674 0.000000
-7.865697 -6.845211 -0.335500 423 -0.025522 0.999674 0.000000
-7.866096 -6.845560 -0.332317 423 -0.025522 0.999674 0.000000
-7.865952 -6.845433 -0.329108 445 -0.025522 0.999674 0.000000
-7.865798 -6.845301 -0.325889 433 -0.025522 0.999674 0.000000
-7.865321 -6.844884 -0.322674 437 -0.025522 0.999674 0.000000
-7.864844 -6.844468 -0.319448 405 -0.025522 0.999674 0.000000
-7.865015 -6.844619 -0.316246 387 -0.025522 0.999674 0.000000
-7.864871 -6.844493 -0.313038 405 -0.025522 0.999674 0.000000
-7.864654 -6.844312 -0.309829 419 -0.025522 0.999674 0.000000
-7.864395 -6.844086 -0.306612 423 -0.025522 0.999674 0.000000
-7.868450 -6.843132 -0.704716 471 -0.025522 0.999674 0.000000
-7.868217 -6.842939 -0.701478 477 -0.025522 0.999674 0.000000
-7.868154 -6.842886 -0.698259 445 -0.025522 0.999674 0.000000
-7.867991 -6.842734 -0.695030 429 -0.025522 0.999674 0.000000
-7.868033 -6.842774 -0.691820 445 -0.025522 0.999674 0.000000
-7.867857 -6.842624 -0.688581 431 -0.025522 0.999674 0.000000
-7.867566 -6.842374 -0.685344 443 -0.025522 0.999674 0.000000
-7.867728 -6.842506 -0.682142 423 -0.025522 0.999674 0.000000
-7.867664 -6.842454 -0.678923 423 -0.025522 0.999674 0.000000
-7.867649 -6.842438 -0.675703 425 -0.025522 0.999674 0.000000
-7.868298 -6.843003 -0.672547 443 -0.025522 0.999674 0.000000
-7.868664 -6.843327 -0.669363 431 -0.025522 0.999674 0.000000
-7.868388 -6.843075 -0.666126 431 -0.025522 0.999674 0.000000
-7.868367 -6.843068 -0.662906 385 -0.025522 0.999674 0.000000
-7.867856 -6.842613 -0.659651 407 -0.025522 0.999674 0.000000
-7.867785 -6.842555 -0.656431 431 -0.025522 0.999674 0.000000
-7.869584 -6.844118 -0.653365 425 -0.025522 0.999674 0.000000
-7.869349 -6.843911 -0.650127 425 -0.025522 0.999674 0.000000
-7.869384 -6.843946 -0.646916 425 -0.025522 0.999674 0.000000
-7.870026 -6.844504 -0.643750 419 -0.025522 0.999674 0.000000
-7.868308 -6.843008 -0.640396 403 -0.025522 0.999674 0.000000
-7.869111 -6.843701 -0.637249 399 -0.025522 0.999674 0.000000
-7.870522 -6.844933 -0.634146 399 -0.025522 0.999674 0.000000
-7.869340 -6.843905 -0.630836 427 -0.025522 0.999674 0.000000
-7.869098 -6.843693 -0.627608 415 -0.025522 0.999674 0.000000
-7.869845 -6.844343 -0.624452 403 -0.025522 0.999674 0.000000
-7.869602 -6.844130 -0.621214 417 -0.025522 0.999674 0.000000
-7.868689 -6.843345 -0.617932 433 -0.025522 0.999674 0.000000
-7.868721 -6.843365 -0.614722 433 -0.025522 0.999674 0.000000
-7.868747 -6.843394 -0.611511 435 -0.025522 0.999674 0.000000
-7.868277 -6.842983 -0.608265 439 -0.025522 0.999674 0.000000
-7.867483 -6.842288 -0.604993 453 -0.025522 0.999674 0.000000
-7.867615 -6.842410 -0.601791 443 -0.025522 0.999674 0.000000
-7.868751 -6.843394 -0.598661 453 -0.025522 0.999674 0.000000
-7.869107 -6.843698 -0.595478 447 -0.025522 0.999674 0.000000
-7.868793 -6.843431 -0.592240 461 -0.025522 0.999674 0.000000
-7.869086 -6.843687 -0.589048 455 -0.025522 0.999674 0.000000
-7.869720 -6.844239 -0.585882 465 -0.025522 0.999674 0.000000
-7.868917 -6.843538 -0.582609 471 -0.025522 0.999674 0.000000
-7.869153 -6.843738 -0.579417 457 -0.025522 0.999674 0.000000
-7.870005 -6.844482 -0.576269 455 -0.025522 0.999674 0.000000
-7.869245 -6.843825 -0.572996 433 -0.025522 0.999674 0.000000
-7.869108 -6.843705 -0.569777 453 -0.025522 0.999674 0.000000
-7.869570 -6.844102 -0.566593 477 -0.025522 0.999674 0.000000
-7.869312 -6.843877 -0.563365 457 -0.025522 0.999674 0.000000
-7.870254 -6.844701 -0.560226 451 -0.025522 0.999674 0.000000
-7.870109 -6.844574 -0.556998 451 -0.025522 0.999674 0.000000
-7.868528 -6.843195 -0.553682 445 -0.025522 0.999674 0.000000
-7.868376 -6.843063 -0.550453 431 -0.025522 0.999674 0.000000
-7.868774 -6.843411 -0.547269 439 -0.025522 0.999674 0.000000
-7.869123 -6.843710 -0.544086 465 -0.025522 0.999674 0.000000
-7.869189 -6.843769 -0.540875 469 -0.025522 0.999674 0.000000
-7.870195 -6.844641 -0.537736 477 -0.025522 0.999674 0.000000
-7.870148 -6.844601 -0.534527 491 -0.025522 0.999674 0.000000
-7.869986 -6.844462 -0.531298 473 -0.025522 0.999674 0.000000
-7.870668 -6.845051 -0.528132 477 -0.025522 0.999674 0.000000
-7.869787 -6.844290 -0.524870 463 -0.025522 0.999674 0.000000
-7.869689 -6.844200 -0.521651 457 -0.025522 0.999674 0.000000
-7.870249 -6.844683 -0.518475 463 -0.025522 0.999674 0.000000
-7.869481 -6.844021 -0.515212 451 -0.025522 0.999674 0.000000
-7.869043 -6.843635 -0.511976 475 -0.025522 0.999674 0.000000
-7.870260 -6.844693 -0.508845 489 -0.025522 0.999674 0.000000
-7.870431 -6.844844 -0.505643 501 -0.025522 0.999674 0.000000
-7.869104 -6.843695 -0.502355 483 -0.025522 0.999674 0.000000
-7.868505 -6.843173 -0.499101 461 -0.025522 0.999674 0.000000
-7.868181 -6.842885 -0.495874 461 -0.025522 0.999674 0.000000
-7.868888 -6.843507 -0.492707 487 -0.025522 0.999674 0.000000
-7.869279 -6.843849 -0.489523 491 -0.025522 0.999674 0.000000
-7.868947 -6.843556 -0.486296 483 -0.025522 0.999674 0.000000
-7.868892 -6.843510 -0.483077 481 -0.025522 0.999674 0.000000
-7.869167 -6.843740 -0.479884 455 -0.025522 0.999674 0.000000
-7.868942 -6.843552 -0.476666 461 -0.025522 0.999674 0.000000
-7.869161 -6.843740 -0.473474 451 -0.025522 0.999674 0.000000
-7.869981 -6.844460 -0.470307 443 -0.025522 0.999674 0.000000
-7.869975 -6.844450 -0.467097 459 -0.025522 0.999674 0.000000
-7.869756 -6.844255 -0.463879 473 -0.025522 0.999674 0.000000
-7.869133 -6.843716 -0.460634 477 -0.025522 0.999674 0.000000
-7.869239 -6.843805 -0.457433 483 -0.025522 0.999674 0.000000
-7.870115 -6.844566 -0.454275 469 -0.025522 0.999674 0.000000
-7.870335 -6.844754 -0.451073 449 -0.025522 0.999674 0.000000
-7.870200 -6.844647 -0.447854 449 -0.025522 0.999674 0.000000
-7.870086 -6.844545 -0.444645 445 -0.025522 0.999674 0.000000
-7.869796 -6.844296 -0.441418 459 -0.025522 0.999674 0.000000
-7.869520 -6.844045 -0.438200 475 -0.025522 0.999674 0.000000
-7.869668 -6.844178 -0.434999 487 -0.025522 0.999674 0.000000
-7.869045 -6.843639 -0.431754 469 -0.025522 0.999674 0.000000
-7.869418 -6.843956 -0.428571 457 -0.025522 0.999674 0.000000
-7.870951 -6.845291 -0.425437 461 -0.025522 0.999674 0.000000
-7.870717 -6.845084 -0.422219 467 -0.025522 0.999674 0.000000
-7.870313 -6.844736 -0.418992 489 -0.025522 0.999674 0.000000
-7.869633 -6.844141 -0.415749 455 -0.025522 0.999674 0.000000
-7.869780 -6.844273 -0.412547 439 -0.025522 0.999674 0.000000
-7.869919 -6.844400 -0.409346 447 -0.025522 0.999674 0.000000
-7.868965 -6.843571 -0.406094 457 -0.025522 0.999674 0.000000
-7.869501 -6.844037 -0.402909 477 -0.025522 0.999674 0.000000
-7.870699 -6.845068 -0.399759 479 -0.025522 0.999674 0.000000
-7.870676 -6.845047 -0.396549 443 -0.025522 0.999674 0.000000
-7.871140 -6.845458 -0.393364 455 -0.025522 0.999674 0.000000
-7.871288 -6.845592 -0.390163 463 -0.025522 0.999674 0.000000
-7.870826 -6.845187 -0.386937 459 -0.025522 0.999674 0.000000
-7.869750 -6.844253 -0.383677 473 -0.025522 0.999674 0.000000
-7.869499 -6.844033 -0.380459 461 -0.025522 0.999674 0.000000
-7.869589 -6.844110 -0.377258 419 -0.025522 0.999674 0.000000
-7.868407 -6.843084 -0.373999 423 -0.025522 0.999674 0.000000
-7.868044 -6.842766 -0.370772 417 -0.025522 0.999674 0.000000
-7.868571 -6.843225 -0.367587 451 -0.025522 0.999674 0.000000
-7.868653 -6.843297 -0.364386 435 -0.025522 0.999674 0.000000
-7.870282 -6.844704 -0.361251 437 -0.025522 0.999674 0.000000
-7.870633 -6.845017 -0.358068 447 -0.025522 0.999674 0.000000
-7.869936 -6.844409 -0.354824 443 -0.025522 0.999674 0.000000
-7.869135 -6.843709 -0.351582 445 -0.025522 0.999674 0.000000
-7.868828 -6.843447 -0.348364 441 -0.025522 0.999674 0.000000
-7.870344 -6.844758 -0.345220 441 -0.025522 0.999674 0.000000
-7.870636 -6.845013 -0.342028 431 -0.025522 0.999674 0.000000
-7.869990 -6.844456 -0.338794 449 -0.025522 0.999674 0.000000
-7.869576 -6.844087 -0.335577 425 -0.025522 0.999674 0.000000
-7.869862 -6.844338 -0.332385 441 -0.025522 0.999674 0.000000
-7.871322 -6.845605 -0.329231 457 -0.025522 0.999674 0.000000
-7.872052 -6.846244 -0.326054 445 -0.025522 0.999674 0.000000
-7.870693 -6.845070 -0.322797 409 -0.025522 0.999674 0.000000
-7.870094 -6.844548 -0.319562 403 -0.025522 0.999674 0.000000
-7.870450 -6.844853 -0.316369 415 -0.025522 0.999674 0.000000
-7.871124 -6.845436 -0.313193 421 -0.025522 0.999674 0.000000
-7.871134 -6.845452 -0.309992 423 -0.025522 0.999674 0.000000
-7.870868 -6.845221 -0.306775 441 -0.025522 0.999674 0.000000
-7.874471 -6.843987 -0.705053 469 -0.025522 0.999674 0.000000
-7.874471 -6.843982 -0.701843 453 -0.025522 0.999674 0.000000
-7.872584 -6.842345 -0.698460 455 -0.025522 0.999674 0.000000
-7.872577 -6.842336 -0.695240 443 -0.025522 0.999674 0.000000
-7.873622 -6.843238 -0.692110 431 -0.025522 0.999674 0.000000
-7.873891 -6.843477 -0.688918 449 -0.025522 0.999674 0.000000
-7.873997 -6.843565 -0.685707 457 -0.025522 0.999674 0.000000
-7.873488 -6.843125 -0.682451 449 -0.025522 0.999674 0.000000
-7.873189 -6.842869 -0.679204 443 -0.025522 0.999674 0.000000
-7.873133 -6.842809 -0.675984 421 -0.025522 0.999674 0.000000
-7.873182 -6.842856 -0.672774 413 -0.025522 0.999674 0.000000
-7.873500 -6.843131 -0.669581 415 -0.025522 0.999674 0.000000
-7.873922 -6.843497 -0.666407 387 -0.025522 0.999674 0.000000
-7.873737 -6.843340 -0.663169 399 -0.025522 0.999674 0.000000
-7.873453 -6.843083 -0.659931 423 -0.025522 0.999674 0.000000
-7.873431 -6.843075 -0.656711 417 -0.025522 0.999674 0.000000
-7.874249 -6.843781 -0.653564 431 -0.025522 0.999674 0.000000
-7.875994 -6.845302 -0.650488 425 -0.025522 0.999674 0.000000
-7.875743 -6.845082 -0.647250 409 -0.025522 0.999674 0.000000
-7.874691 -6.844167 -0.643949 397 -0.025522 0.999674 0.000000
-7.874335 -6.843855 -0.640713 397 -0.025522 0.999674 0.000000
-7.874424 -6.843931 -0.637502 411 -0.025522 0.999674 0.000000
-7.873356 -6.843003 -0.634201 407 -0.025522 0.999674 0.000000
-7.873721 -6.843314 -0.631018 431 -0.025522 0.999674 0.000000
-7.874581 -6.844064 -0.627870 425 -0.025522 0.999674 0.000000
-7.873900 -6.843468 -0.624596 389 -0.025522 0.999674 0.000000
-7.873919 -6.843490 -0.621386 401 -0.025522 0.999674 0.000000
-7.874729 -6.844189 -0.618228 423 -0.025522 0.999674 0.000000
-7.874975 -6.844409 -0.615036 421 -0.025522 0.999674 0.000000
-7.873460 -6.843092 -0.611710 441 -0.025522 0.999674 0.000000
-7.872610 -6.842355 -0.608428 447 -0.025522 0.999674 0.000000
-7.874563 -6.844048 -0.605360 447 -0.025522 0.999674 0.000000
-7.875804 -6.845124 -0.602238 443 -0.025522 0.999674 0.000000
-7.875553 -6.844904 -0.599011 441 -0.025522 0.999674 0.000000
-7.875466 -6.844834 -0.595781 465 -0.025522 0.999674 0.000000
-7.875158 -6.844559 -0.592544 459 -0.025522 0.999674 0.000000
-7.874738 -6.844198 -0.589308 463 -0.025522 0.999674 0.000000
-7.874438 -6.843929 -0.586070 467 -0.025522 0.999674 0.000000
-7.872916 -6.842606 -0.582744 445 -0.025522 0.999674 0.000000
-7.872884 -6.842578 -0.579524 455 -0.025522 0.999674 0.000000
-7.874006 -6.843564 -0.576394 455 -0.025522 0.999674 0.000000
-7.874679 -6.844146 -0.573228 443 -0.025522 0.999674 0.000000
-7.875473 -6.844833 -0.570071 459 -0.025522 0.999674 0.000000
-7.875054 -6.844473 -0.566834 493 -0.025522 0.999674 0.000000
-7.874795 -6.844248 -0.563597 495 -0.025522 0.999674 0.000000
-7.875200 -6.844588 -0.560413 487 -0.025522 0.999674 0.000000
-7.875769 -6.845092 -0.557238 475 -0.025522 0.999674 0.000000
-7.875722 -6.845053 -0.554028 469 -0.025522 0.999674 0.000000
-7.875131 -6.844537 -0.550773 465 -0.025522 0.999674 0.000000
-7.874540 -6.844022 -0.547519 461 -0.025522 0.999674 0.000000
-7.873617 -6.843216 -0.544247 453 -0.025522 0.999674 0.000000
-7.873520 -6.843126 -0.541028 445 -0.025522 0.999674 0.000000
-7.875183 -6.844573 -0.537923 455 -0.025522 0.999674 0.000000
-7.876853 -6.846026 -0.534817 463 -0.025522 0.999674 0.000000
-7.875597 -6.844930 -0.531529 457 -0.025522 0.999674 0.000000
-7.873995 -6.843547 -0.528213 453 -0.025522 0.999674 0.000000
-7.873948 -6.843507 -0.524993 465 -0.025522 0.999674 0.000000
-7.875180 -6.844577 -0.521862 477 -0.025522 0.999674 0.000000
-7.876015 -6.845294 -0.518705 475 -0.025522 0.999674 0.000000
-7.875133 -6.844533 -0.515432 475 -0.025522 0.999674 0.000000
-7.873870 -6.843432 -0.512144 473 -0.025522 0.999674 0.000000
-7.874535 -6.844008 -0.508978 463 -0.025522 0.999674 0.000000
-7.875039 -6.844450 -0.505793 481 -0.025522 0.999674 0.000000
-7.874601 -6.844063 -0.502557 479 -0.025522 0.999674 0.000000
-7.874546 -6.844017 -0.499347 489 -0.025522 0.999674 0.000000
-7.874221 -6.843729 -0.496110 477 -0.025522 0.999674 0.000000
-7.874718 -6.844165 -0.492936 485 -0.025522 0.999674 0.000000
-7.875763 -6.845068 -0.489786 491 -0.025522 0.999674 0.000000
-7.875935 -6.845220 -0.486584 493 -0.025522 0.999674 0.000000
-7.876146 -6.845401 -0.483383 491 -0.025522 0.999674 0.000000
-7.875434 -6.844781 -0.480129 469 -0.025522 0.999674 0.000000
-7.874382 -6.843865 -0.476858 445 -0.025522 0.999674 0.000000
-7.874701 -6.844154 -0.473665 457 -0.025522 0.999674 0.000000
-7.875089 -6.844482 -0.470482 479 -0.025522 0.999674 0.000000
-7.874864 -6.844295 -0.467254 481 -0.025522 0.999674 0.000000
-7.874525 -6.843996 -0.464027 465 -0.025522 0.999674 0.000000
-7.874963 -6.844375 -0.460843 471 -0.025522 0.999674 0.000000
-7.875945 -6.845229 -0.457684 473 -0.025522 0.999674 0.000000
-7.876544 -6.845743 -0.454508 471 -0.025522 0.999674 0.000000
-7.875596 -6.844919 -0.451247 457 -0.025522 0.999674 0.000000
-7.875314 -6.844676 -0.448019 471 -0.025522 0.999674 0.000000
-7.875908 -6.845199 -0.444844 481 -0.025522 0.999674 0.000000
-7.875568 -6.844899 -0.441617 469 -0.025522 0.999674 0.000000
-7.875998 -6.845272 -0.438433 467 -0.025522 0.999674 0.000000
-7.876373 -6.845602 -0.435239 491 -0.025522 0.999674 0.000000
-7.875529 -6.844857 -0.431987 481 -0.025522 0.999674 0.000000
-7.875028 -6.844422 -0.428751 457 -0.025522 0.999674 0.000000
-7.875450 -6.844790 -0.425557 463 -0.025522 0.999674 0.000000
-7.876150 -6.845405 -0.422391 489 -0.025522 0.999674 0.000000
-7.875907 -6.845191 -0.419163 475 -0.025522 0.999674 0.000000
-7.874797 -6.844219 -0.415903 467 -0.025522 0.999674 0.000000
-7.875277 -6.844642 -0.412719 439 -0.025522 0.999674 0.000000
-7.875140 -6.844522 -0.409500 429 -0.025522 0.999674 0.000000
-7.873465 -6.843070 -0.406205 421 -0.025522 0.999674 0.000000
-7.873505 -6.843097 -0.403005 463 -0.025522 0.999674 0.000000
-7.874866 -6.844277 -0.399862 471 -0.025522 0.999674 0.000000
-7.875889 -6.845175 -0.396703 437 -0.025522 0.999674 0.000000
-7.875420 -6.844765 -0.393467 423 -0.025522 0.999674 0.000000
-7.875122 -6.844510 -0.390250 445 -0.025522 0.999674 0.000000
-7.875439 -6.844784 -0.387057 455 -0.025522 0.999674 0.000000
-7.875796 -6.845088 -0.383863 467 -0.025522 0.999674 0.000000
-7.875497 -6.844833 -0.380636 465 -0.025522 0.999674 0.000000
-7.875197 -6.844563 -0.377419 453 -0.025522 0.999674 0.000000
-7.875556 -6.844882 -0.374225 437 -0.025522 0.999674 0.000000
-7.875475 -6.844804 -0.371016 417 -0.025522 0.999674 0.000000
-7.874894 -6.844309 -0.367781 403 -0.025522 0.999674 0.000000
-7.875972 -6.845236 -0.364621 417 -0.025522 0.999674 0.000000
-7.877213 -6.846312 -0.361470 431 -0.025522 0.999674 0.000000
-7.876905 -6.846050 -0.358243 439 -0.025522 0.999674 0.000000
-7.875772 -6.845060 -0.354983 437 -0.025522 0.999674 0.000000
-7.875521 -6.844841 -0.351765 459 -0.025522 0.999674 0.000000
-7.876423 -6.845634 -0.348597 457 -0.025522 0.999674 0.000000
-7.876271 -6.845502 -0.345388 457 -0.025522 0.999674 0.000000
-7.875533 -6.844850 -0.342145 451 -0.025522 0.999674 0.000000
-7.874936 -6.844343 -0.338910 447 -0.025522 0.999674 0.000000
-7.875121 -6.844492 -0.335708 455 -0.025522 0.999674 0.000000
-7.875585 -6.844903 -0.332524 453 -0.025522 0.999674 0.000000
-7.876322 -6.845534 -0.329347 453 -0.025522 0.999674 0.000000
-7.877604 -6.846654 -0.326186 455 -0.025522 0.999674 0.000000
-7.876908 -6.846046 -0.322952 415 -0.025522 0.999674 0.000000
-7.876204 -6.845433 -0.319718 411 -0.025522 0.999674 0.000000
-7.876222 -6.845455 -0.316508 429 -0.025522 0.999674 0.000000
-7.875185 -6.844552 -0.313267 421 -0.025522 0.999674 0.000000
-7.874426 -6.843895 -0.310034 427 -0.025522 0.999674 0.000000
-7.875163 -6.844526 -0.306847 417 -0.025522 0.999674 0.000000
-7.878610 -6.843349 -0.705236 479 -0.025522 0.999674 0.000000
-7.878327 -6.843106 -0.701998 463 -0.025522 0.999674 0.000000
-7.878815 -6.843535 -0.698814 441 -0.025522 0.999674 0.000000
-7.878921 -6.843625 -0.695613 433 -0.025522 0.999674 0.000000
-7.879513 -6.844132 -0.692437 439 -0.025522 0.999674 0.000000
-7.879181 -6.843839 -0.689190 453 -0.025522 0.999674 0.000000
-7.878008 -6.842832 -0.685871 445 -0.025522 0.999674 0.000000
-7.878502 -6.843253 -0.682696 449 -0.025522 0.999674 0.000000
-7.878869 -6.843577 -0.679513 435 -0.025522 0.999674 0.000000
-7.878310 -6.843087 -0.676248 413 -0.025522 0.999674 0.000000
-7.878303 -6.843077 -0.673028 423 -0.025522 0.999674 0.000000
-7.878287 -6.843061 -0.669808 437 -0.025522 0.999674 0.000000
-7.878653 -6.843386 -0.666625 425 -0.025522 0.999674 0.000000
-7.878920 -6.843609 -0.663422 433 -0.025522 0.999674 0.000000
-7.879117 -6.843793 -0.660230 405 -0.025522 0.999674 0.000000
-7.879992 -6.844541 -0.657082 407 -0.025522 0.999674 0.000000
-7.879638 -6.844244 -0.653835 407 -0.025522 0.999674 0.000000
-7.879185 -6.843845 -0.650579 405 -0.025522 0.999674 0.000000
-7.879169 -6.843829 -0.647359 419 -0.025522 0.999674 0.000000
-7.878927 -6.843616 -0.644122 419 -0.025522 0.999674 0.000000
-7.878911 -6.843600 -0.640912 409 -0.025522 0.999674 0.000000
-7.878444 -6.843204 -0.637656 417 -0.025522 0.999674 0.000000
-7.878265 -6.843039 -0.634427 413 -0.025522 0.999674 0.000000
-7.879611 -6.844207 -0.631315 403 -0.025522 0.999674 0.000000
-7.880585 -6.845056 -0.628176 403 -0.025522 0.999674 0.000000
-7.880675 -6.845133 -0.624965 391 -0.025522 0.999674 0.000000
-7.879881 -6.844439 -0.621682 397 -0.025522 0.999674 0.000000
-7.878310 -6.843079 -0.618347 395 -0.025522 0.999674 0.000000
-7.878287 -6.843057 -0.615127 421 -0.025522 0.999674 0.000000
-7.878757 -6.843461 -0.611952 439 -0.025522 0.999674 0.000000
-7.878282 -6.843058 -0.608697 445 -0.025522 0.999674 0.000000
-7.878314 -6.843078 -0.605486 447 -0.025522 0.999674 0.000000
-7.878776 -6.843475 -0.602302 445 -0.025522 0.999674 0.000000
-7.880018 -6.844565 -0.599181 443 -0.025522 0.999674 0.000000
-7.881201 -6.845585 -0.596060 473 -0.025522 0.999674 0.000000
-7.880951 -6.845366 -0.592822 489 -0.025522 0.999674 0.000000
-7.879647 -6.844234 -0.589514 479 -0.025522 0.999674 0.000000
-7.878676 -6.843392 -0.586223 471 -0.025522 0.999674 0.000000
-7.878207 -6.842982 -0.582977 463 -0.025522 0.999674 0.000000
-7.878564 -6.843287 -0.579783 453 -0.025522 0.999674 0.000000
-7.879238 -6.843883 -0.576617 455 -0.025522 0.999674 0.000000
-7.879756 -6.844322 -0.573442 435 -0.025522 0.999674 0.000000
-7.879830 -6.844387 -0.570232 445 -0.025522 0.999674 0.000000
-7.879744 -6.844317 -0.567012 481 -0.025522 0.999674 0.000000
-7.879427 -6.844035 -0.563775 479 -0.025522 0.999674 0.000000
-7.879114 -6.843768 -0.560538 459 -0.025522 0.999674 0.000000
-7.878910 -6.843585 -0.557310 455 -0.025522 0.999674 0.000000
-7.879586 -6.844182 -0.554144 453 -0.025522 0.999674 0.000000
-7.879813 -6.844376 -0.550951 447 -0.025522 0.999674 0.000000
-7.879336 -6.843959 -0.547706 455 -0.025522 0.999674 0.000000
-7.879077 -6.843733 -0.544468 459 -0.025522 0.999674 0.000000
-7.879532 -6.844125 -0.541294 465 -0.025522 0.999674 0.000000
-7.880254 -6.844758 -0.538127 445 -0.025522 0.999674 0.000000
-7.879769 -6.844335 -0.534881 443 -0.025522 0.999674 0.000000
-7.879397 -6.844011 -0.531645 449 -0.025522 0.999674 0.000000
-7.879844 -6.844396 -0.528461 463 -0.025522 0.999674 0.000000
-7.879732 -6.844307 -0.525241 467 -0.025522 0.999674 0.000000
-7.879748 -6.844316 -0.522021 465 -0.025522 0.999674 0.000000
-7.880535 -6.844997 -0.518864 469 -0.025522 0.999674 0.000000
-7.880812 -6.845241 -0.515661 485 -0.025522 0.999674 0.000000
-7.879490 -6.844083 -0.512374 475 -0.025522 0.999674 0.000000
-7.880652 -6.845099 -0.509233 467 -0.025522 0.999674 0.000000
-7.881649 -6.845965 -0.506084 475 -0.025522 0.999674 0.000000
-7.880280 -6.844771 -0.502786 473 -0.025522 0.999674 0.000000
-7.879837 -6.844393 -0.499540 487 -0.025522 0.999674 0.000000
-7.879796 -6.844345 -0.496330 499 -0.025522 0.999674 0.000000
-7.879076 -6.843719 -0.493067 493 -0.025522 0.999674 0.000000
-7.879790 -6.844346 -0.489900 475 -0.025522 0.999674 0.000000
-7.880505 -6.844973 -0.486734 471 -0.025522 0.999674 0.000000
-7.880229 -6.844721 -0.483506 477 -0.025522 0.999674 0.000000
-7.879955 -6.844484 -0.480279 469 -0.025522 0.999674 0.000000
-7.880054 -6.844581 -0.477067 449 -0.025522 0.999674 0.000000
-7.880556 -6.845008 -0.473883 459 -0.025522 0.999674 0.000000
-7.879992 -6.844526 -0.470648 465 -0.025522 0.999674 0.000000
-7.879601 -6.844175 -0.467411 467 -0.025522 0.999674 0.000000
-7.879490 -6.844087 -0.464192 475 -0.025522 0.999674 0.000000
-7.880310 -6.844792 -0.461025 477 -0.025522 0.999674 0.000000
-7.880861 -6.845270 -0.457850 483 -0.025522 0.999674 0.000000
-7.880019 -6.844539 -0.454587 469 -0.025522 0.999674 0.000000
-7.879235 -6.843864 -0.451334 465 -0.025522 0.999674 0.000000
-7.879835 -6.844379 -0.448159 469 -0.025522 0.999674 0.000000
-7.880872 -6.845276 -0.444999 485 -0.025522 0.999674 0.000000
-7.879983 -6.844509 -0.441747 469 -0.025522 0.999674 0.000000
-7.879360 -6.843969 -0.438503 471 -0.025522 0.999674 0.000000
-7.879070 -6.843720 -0.435275 471 -0.025522 0.999674 0.000000
-7.878900 -6.843561 -0.432057 463 -0.025522 0.999674 0.000000
-7.880261 -6.844742 -0.428915 455 -0.025522 0.999674 0.000000
-7.880353 -6.844833 -0.425714 471 -0.025522 0.999674 0.000000
-7.880337 -6.844817 -0.422494 487 -0.025522 0.999674 0.000000
-7.880929 -6.845325 -0.419318 485 -0.025522 0.999674 0.000000
-7.880639 -6.845076 -0.416091 471 -0.025522 0.999674 0.000000
-7.880518 -6.844967 -0.412872 463 -0.025522 0.999674 0.000000
-7.880658 -6.845094 -0.409670 451 -0.025522 0.999674 0.000000
-7.881030 -6.845411 -0.406477 441 -0.025522 0.999674 0.000000
-7.881057 -6.845439 -0.403277 461 -0.025522 0.999674 0.000000
-7.879883 -6.844419 -0.400007 449 -0.025522 0.999674 0.000000
-7.878975 -6.843626 -0.396755 427 -0.025522 0.999674 0.000000
-7.879455 -6.844049 -0.393561 443 -0.025522 0.999674 0.000000
-7.880532 -6.844976 -0.390411 435 -0.025522 0.999674 0.000000
-7.880955 -6.845343 -0.387217 437 -0.025522 0.999674 0.000000
-7.880981 -6.845371 -0.384007 447 -0.025522 0.999674 0.000000
-7.880689 -6.845108 -0.380780 443 -0.025522 0.999674 0.000000
-7.880771 -6.845179 -0.377579 437 -0.025522 0.999674 0.000000
-7.880683 -6.845109 -0.374369 441 -0.025522 0.999674 0.000000
-7.879826 -6.844366 -0.371117 409 -0.025522 0.999674 0.000000
-7.881455 -6.845774 -0.367982 413 -0.025522 0.999674 0.000000
-7.881482 -6.845803 -0.364772 423 -0.025522 0.999674 0.000000
-7.880954 -6.845336 -0.361537 435 -0.025522 0.999674 0.000000
-7.881701 -6.845987 -0.358360 433 -0.025522 0.999674 0.000000
-7.881727 -6.846015 -0.355150 429 -0.025522 0.999674 0.000000
-7.881031 -6.845407 -0.351916 451 -0.025522 0.999674 0.000000
-7.881274 -6.845613 -0.348714 447 -0.025522 0.999674 0.000000
-7.881575 -6.845875 -0.345521 427 -0.025522 0.999674 0.000000
-7.880045 -6.844547 -0.342245 441 -0.025522 0.999674 0.000000
-7.879625 -6.844186 -0.339018 431 -0.025522 0.999674 0.000000
-7.880250 -6.844733 -0.335842 441 -0.025522 0.999674 0.000000
-7.880324 -6.844798 -0.332632 439 -0.025522 0.999674 0.000000
-7.881070 -6.845435 -0.329455 439 -0.025522 0.999674 0.000000
-7.882627 -6.846788 -0.326311 443 -0.025522 0.999674 0.000000
-7.882262 -6.846470 -0.323084 447 -0.025522 0.999674 0.000000
-7.880724 -6.845136 -0.319818 423 -0.025522 0.999674 0.000000
-7.881674 -6.845966 -0.316639 423 -0.025522 0.999674 0.000000
-7.882574 -6.846745 -0.313471 443 -0.025522 0.999674 0.000000
-7.882152 -6.846371 -0.310245 429 -0.025522 0.999674 0.000000
-7.881498 -6.845808 -0.307011 415 -0.025522 0.999674 0.000000
-7.884467 -6.844055 -0.705564 459 -0.025522 0.999674 0.000000
-7.884631 -6.844200 -0.702353 453 -0.025522 0.999674 0.000000
-7.884892 -6.844432 -0.699160 443 -0.025522 0.999674 0.000000
-7.884501 -6.844082 -0.695904 463 -0.025522 0.999674 0.000000
-7.885605 -6.845041 -0.692783 479 -0.025522 0.999674 0.000000
-7.884926 -6.844460 -0.689500 473 -0.025522 0.999674 0.000000
-7.884699 -6.844258 -0.686262 453 -0.025522 0.999674 0.000000
-7.884141 -6.843767 -0.682997 441 -0.025522 0.999674 0.000000
-7.882636 -6.842470 -0.679650 433 -0.025522 0.999674 0.000000
-7.884176 -6.843798 -0.676556 421 -0.025522 0.999674 0.000000
-7.885588 -6.845029 -0.673453 443 -0.025522 0.999674 0.000000
-7.883764 -6.843441 -0.670090 411 -0.025522 0.999674 0.000000
-7.884130 -6.843764 -0.666896 403 -0.025522 0.999674 0.000000
-7.885662 -6.845086 -0.663802 415 -0.025522 0.999674 0.000000
-7.884934 -6.844455 -0.660529 415 -0.025522 0.999674 0.000000
-7.885137 -6.844630 -0.657327 403 -0.025522 0.999674 0.000000
-7.885723 -6.845146 -0.654152 389 -0.025522 0.999674 0.000000
-7.885212 -6.844691 -0.650896 387 -0.025522 0.999674 0.000000
-7.884525 -6.844103 -0.647622 385 -0.025522 0.999674 0.000000
-7.884737 -6.844285 -0.644420 387 -0.025522 0.999674 0.000000
-7.884607 -6.844170 -0.641191 379 -0.025522 0.999674 0.000000
-7.884528 -6.844106 -0.637962 387 -0.025522 0.999674 0.000000
-7.885176 -6.844656 -0.634796 425 -0.025522 0.999674 0.000000
-7.884919 -6.844445 -0.631558 405 -0.025522 0.999674 0.000000
-7.884246 -6.843855 -0.628294 385 -0.025522 0.999674 0.000000
-7.884279 -6.843876 -0.625074 391 -0.025522 0.999674 0.000000
-7.884368 -6.843953 -0.621863 389 -0.025522 0.999674 0.000000
-7.883455 -6.843168 -0.618581 399 -0.025522 0.999674 0.000000
-7.883099 -6.842855 -0.615335 415 -0.025522 0.999674 0.000000
-7.884622 -6.844172 -0.612231 425 -0.025522 0.999674 0.000000
-7.885362 -6.844816 -0.609074 461 -0.025522 0.999674 0.000000
-7.884900 -6.844412 -0.605818 473 -0.025522 0.999674 0.000000
-7.884585 -6.844144 -0.602581 469 -0.025522 0.999674 0.000000
-7.884668 -6.844215 -0.599370 463 -0.025522 0.999674 0.000000
-7.885357 -6.844810 -0.596204 475 -0.025522 0.999674 0.000000
-7.884993 -6.844492 -0.592957 479 -0.025522 0.999674 0.000000
-7.884185 -6.843799 -0.589684 465 -0.025522 0.999674 0.000000
-7.884655 -6.844203 -0.586500 457 -0.025522 0.999674 0.000000
-7.884842 -6.844366 -0.583298 465 -0.025522 0.999674 0.000000
-7.884697 -6.844240 -0.580079 463 -0.025522 0.999674 0.000000
-7.885104 -6.844594 -0.576885 463 -0.025522 0.999674 0.000000
-7.884959 -6.844468 -0.573657 457 -0.025522 0.999674 0.000000
-7.884481 -6.844051 -0.570411 453 -0.025522 0.999674 0.000000
-7.884109 -6.843727 -0.567174 473 -0.025522 0.999674 0.000000
-7.883907 -6.843544 -0.563946 449 -0.025522 0.999674 0.000000
-7.884257 -6.843857 -0.560753 447 -0.025522 0.999674 0.000000
-7.883942 -6.843575 -0.557516 443 -0.025522 0.999674 0.000000
-7.884235 -6.843832 -0.554323 449 -0.025522 0.999674 0.000000
-7.884747 -6.844279 -0.551138 457 -0.025522 0.999674 0.000000
-7.883604 -6.843282 -0.547848 449 -0.025522 0.999674 0.000000
-7.883833 -6.843490 -0.544646 457 -0.025522 0.999674 0.000000
-7.885341 -6.844794 -0.541532 449 -0.025522 0.999674 0.000000
-7.885737 -6.845128 -0.538349 425 -0.025522 0.999674 0.000000
-7.886136 -6.845477 -0.535155 441 -0.025522 0.999674 0.000000
-7.885262 -6.844722 -0.531883 449 -0.025522 0.999674 0.000000
-7.884719 -6.844243 -0.528638 437 -0.025522 0.999674 0.000000
-7.885717 -6.845109 -0.525489 495 -0.025522 0.999674 0.000000
-7.885564 -6.844977 -0.522260 501 -0.025522 0.999674 0.000000
-7.884577 -6.844123 -0.518979 473 -0.025522 0.999674 0.000000
-7.884522 -6.844077 -0.515769 477 -0.025522 0.999674 0.000000
-7.885746 -6.845141 -0.512628 505 -0.025522 0.999674 0.000000
-7.884920 -6.844422 -0.509365 483 -0.025522 0.999674 0.000000
-7.884152 -6.843760 -0.506102 471 -0.025522 0.999674 0.000000
-7.885100 -6.844576 -0.502944 473 -0.025522 0.999674 0.000000
-7.885539 -6.844955 -0.499760 479 -0.025522 0.999674 0.000000
-7.885323 -6.844775 -0.496532 491 -0.025522 0.999674 0.000000
-7.885217 -6.844678 -0.493312 487 -0.025522 0.999674 0.000000
-7.885154 -6.844626 -0.490093 473 -0.025522 0.999674 0.000000
-7.885323 -6.844763 -0.486891 467 -0.025522 0.999674 0.000000
-7.885819 -6.845199 -0.483707 463 -0.025522 0.999674 0.000000
-7.885756 -6.845147 -0.480497 471 -0.025522 0.999674 0.000000
-7.885546 -6.844958 -0.477269 467 -0.025522 0.999674 0.000000
-7.886536 -6.845819 -0.474110 459 -0.025522 0.999674 0.000000
-7.886139 -6.845476 -0.470874 463 -0.025522 0.999674 0.000000
-7.885087 -6.844561 -0.467603 485 -0.025522 0.999674 0.000000
-7.885581 -6.844981 -0.464418 487 -0.025522 0.999674 0.000000
-7.886676 -6.845935 -0.461268 493 -0.025522 0.999674 0.000000
-7.886557 -6.845840 -0.458049 485 -0.025522 0.999674 0.000000
-7.885496 -6.844918 -0.454779 467 -0.025522 0.999674 0.000000
-7.885051 -6.844526 -0.451533 453 -0.025522 0.999674 0.000000
-7.884873 -6.844375 -0.448314 469 -0.025522 0.999674 0.000000
-7.884866 -6.844366 -0.445105 473 -0.025522 0.999674 0.000000
-7.886018 -6.845361 -0.441954 475 -0.025522 0.999674 0.000000
-7.886115 -6.845444 -0.438743 471 -0.025522 0.999674 0.000000
-7.885664 -6.845059 -0.435507 453 -0.025522 0.999674 0.000000
-7.886361 -6.845660 -0.432331 467 -0.025522 0.999674 0.000000
-7.886954 -6.846181 -0.429155 469 -0.025522 0.999674 0.000000
-7.885722 -6.845105 -0.425876 465 -0.025522 0.999674 0.000000
-7.883836 -6.843467 -0.422563 469 -0.025522 0.999674 0.000000
-7.884923 -6.844415 -0.419413 485 -0.025522 0.999674 0.000000
-7.886559 -6.845829 -0.416288 467 -0.025522 0.999674 0.000000
-7.886602 -6.845870 -0.413078 461 -0.025522 0.999674 0.000000
-7.885590 -6.844984 -0.409817 435 -0.025522 0.999674 0.000000
-7.885349 -6.844785 -0.406589 417 -0.025522 0.999674 0.000000
-7.886273 -6.845583 -0.403421 441 -0.025522 0.999674 0.000000
-7.885083 -6.844550 -0.400151 427 -0.025522 0.999674 0.000000
-7.885010 -6.844478 -0.396942 419 -0.025522 0.999674 0.000000
-7.885877 -6.845233 -0.393774 449 -0.025522 0.999674 0.000000
-7.885028 -6.844496 -0.390522 441 -0.025522 0.999674 0.000000
-7.885160 -6.844618 -0.387311 439 -0.025522 0.999674 0.000000
-7.885971 -6.845317 -0.384143 451 -0.025522 0.999674 0.000000
-7.886660 -6.845912 -0.380967 451 -0.025522 0.999674 0.000000
-7.886303 -6.845600 -0.377740 447 -0.025522 0.999674 0.000000
-7.884895 -6.844376 -0.374463 423 -0.025522 0.999674 0.000000
-7.885140 -6.844596 -0.371260 409 -0.025522 0.999674 0.000000
-7.886106 -6.845438 -0.368091 425 -0.025522 0.999674 0.000000
-7.886526 -6.845790 -0.364898 413 -0.025522 0.999674 0.000000
-7.886551 -6.845819 -0.361687 411 -0.025522 0.999674 0.000000
-7.885864 -6.845217 -0.358453 415 -0.025522 0.999674 0.000000
-7.885550 -6.844950 -0.355226 435 -0.025522 0.999674 0.000000
-7.885793 -6.845156 -0.352024 443 -0.025522 0.999674 0.000000
-7.885819 -6.845184 -0.348824 441 -0.025522 0.999674 0.000000
-7.885730 -6.845100 -0.345604 441 -0.025522 0.999674 0.000000
-7.885261 -6.844690 -0.342379 429 -0.025522 0.999674 0.000000
-7.884614 -6.844132 -0.339134 443 -0.025522 0.999674 0.000000
-7.885571 -6.844968 -0.335966 449 -0.025522 0.999674 0.000000
-7.886578 -6.845841 -0.332796 451 -0.025522 0.999674 0.000000
-7.887040 -6.846238 -0.329612 443 -0.025522 0.999674 0.000000
-7.886506 -6.845779 -0.326377 445 -0.025522 0.999674 0.000000
-7.886249 -6.845554 -0.323159 435 -0.025522 0.999674 0.000000
-7.887254 -6.846426 -0.319990 435 -0.025522 0.999674 0.000000
-7.888112 -6.847162 -0.316812 437 -0.025522 0.999674 0.000000
-7.887959 -6.847029 -0.313593 433 -0.025522 0.999674 0.000000
-7.887743 -6.846848 -0.310375 425 -0.025522 0.999674 0.000000
-7.887434 -6.846573 -0.307148 419 -0.025522 0.999674 0.000000
-7.888559 -6.843131 -0.705729 419 -0.025522 0.999674 0.000000
-7.889938 -6.844325 -0.702626 437 -0.025522 0.999674 0.000000
-7.888990 -6.843501 -0.699325 445 -0.025522 0.999674 0.000000
-7.889046 -6.843539 -0.696104 471 -0.025522 0.999674 0.000000
-7.889754 -6.844161 -0.692948 461 -0.025522 0.999674 0.000000
-7.890239 -6.844575 -0.689763 443 -0.025522 0.999674 0.000000
-7.889844 -6.844234 -0.686517 457 -0.025522 0.999674 0.000000
-7.889836 -6.844223 -0.683287 445 -0.025522 0.999674 0.000000
-7.890705 -6.844979 -0.680139 443 -0.025522 0.999674 0.000000
-7.890528 -6.844829 -0.676910 429 -0.025522 0.999674 0.000000
-7.889629 -6.844055 -0.673608 401 -0.025522 0.999674 0.000000
-7.889623 -6.844046 -0.670388 383 -0.025522 0.999674 0.000000
-7.889557 -6.843980 -0.667169 407 -0.025522 0.999674 0.000000
-7.888716 -6.843249 -0.663877 451 -0.025522 0.999674 0.000000
-7.888029 -6.842660 -0.660603 435 -0.025522 0.999674 0.000000
-7.887633 -6.842319 -0.657346 409 -0.025522 0.999674 0.000000
-7.888330 -6.842919 -0.654190 383 -0.025522 0.999674 0.000000
-7.888979 -6.843483 -0.651024 369 -0.025522 0.999674 0.000000
-7.889507 -6.843944 -0.647839 379 -0.025522 0.999674 0.000000
-7.890149 -6.844501 -0.644673 383 -0.025522 0.999674 0.000000
-7.889582 -6.844005 -0.641408 379 -0.025522 0.999674 0.000000
-7.888901 -6.843409 -0.638134 387 -0.025522 0.999674 0.000000
-7.888709 -6.843246 -0.634906 407 -0.025522 0.999674 0.000000
-7.890184 -6.844525 -0.631802 391 -0.025522 0.999674 0.000000
-7.889714 -6.844114 -0.628547 371 -0.025522 0.999674 0.000000
-7.888759 -6.843285 -0.625255 371 -0.025522 0.999674 0.000000
-7.889004 -6.843505 -0.622053 381 -0.025522 0.999674 0.000000
-7.888754 -6.843285 -0.618815 389 -0.025522 0.999674 0.000000
-7.890554 -6.844849 -0.615739 427 -0.025522 0.999674 0.000000
-7.891243 -6.845444 -0.612572 447 -0.025522 0.999674 0.000000
-7.889566 -6.843991 -0.609228 467 -0.025522 0.999674 0.000000
-7.888928 -6.843440 -0.605953 471 -0.025522 0.999674 0.000000
-7.889180 -6.843652 -0.602761 481 -0.025522 0.999674 0.000000
-7.889650 -6.844055 -0.599577 467 -0.025522 0.999674 0.000000
-7.889781 -6.844176 -0.596365 469 -0.025522 0.999674 0.000000
-7.889587 -6.843999 -0.593137 471 -0.025522 0.999674 0.000000
-7.888940 -6.843441 -0.589873 445 -0.025522 0.999674 0.000000
-7.888138 -6.842741 -0.586600 439 -0.025522 0.999674 0.000000
-7.889273 -6.843725 -0.583460 457 -0.025522 0.999674 0.000000
-7.889503 -6.843933 -0.580257 473 -0.025522 0.999674 0.000000
-7.888481 -6.843040 -0.576977 447 -0.025522 0.999674 0.000000
-7.889276 -6.843727 -0.573809 451 -0.025522 0.999674 0.000000
-7.890121 -6.844465 -0.570652 467 -0.025522 0.999674 0.000000
-7.889807 -6.844198 -0.567414 475 -0.025522 0.999674 0.000000
-7.890098 -6.844440 -0.564222 461 -0.025522 0.999674 0.000000
-7.891006 -6.845225 -0.561063 467 -0.025522 0.999674 0.000000
-7.891291 -6.845476 -0.557871 461 -0.025522 0.999674 0.000000
-7.890644 -6.844917 -0.554606 463 -0.025522 0.999674 0.000000
-7.889997 -6.844360 -0.551342 437 -0.025522 0.999674 0.000000
-7.890338 -6.844653 -0.548149 429 -0.025522 0.999674 0.000000
-7.890412 -6.844718 -0.544938 447 -0.025522 0.999674 0.000000
-7.890096 -6.844436 -0.541701 439 -0.025522 0.999674 0.000000
-7.891102 -6.845309 -0.538552 449 -0.025522 0.999674 0.000000
-7.890389 -6.844688 -0.535288 445 -0.025522 0.999674 0.000000
-7.889022 -6.843509 -0.531991 427 -0.025522 0.999674 0.000000
-7.890239 -6.844566 -0.528850 463 -0.025522 0.999674 0.000000
-7.891527 -6.845678 -0.525718 471 -0.025522 0.999674 0.000000
-7.891910 -6.846015 -0.522524 505 -0.025522 0.999674 0.000000
-7.890549 -6.844827 -0.519227 489 -0.025522 0.999674 0.000000
-7.889611 -6.844024 -0.515955 469 -0.025522 0.999674 0.000000
-7.890276 -6.844600 -0.512779 473 -0.025522 0.999674 0.000000
-7.890010 -6.844369 -0.509541 447 -0.025522 0.999674 0.000000
-7.890398 -6.844697 -0.506358 465 -0.025522 0.999674 0.000000
-7.891291 -6.845472 -0.503199 479 -0.025522 0.999674 0.000000
-7.891180 -6.845383 -0.499970 489 -0.025522 0.999674 0.000000
-7.891180 -6.845380 -0.496760 495 -0.025522 0.999674 0.000000
-7.891075 -6.845283 -0.493541 487 -0.025522 0.999674 0.000000
-7.891789 -6.845910 -0.490365 477 -0.025522 0.999674 0.000000
-7.891352 -6.845524 -0.487118 465 -0.025522 0.999674 0.000000
-7.889360 -6.843793 -0.483786 445 -0.025522 0.999674 0.000000
-7.890181 -6.844513 -0.480629 475 -0.025522 0.999674 0.000000
-7.890788 -6.845033 -0.477443 461 -0.025522 0.999674 0.000000
-7.889962 -6.844315 -0.474181 477 -0.025522 0.999674 0.000000
-7.889625 -6.844029 -0.470954 461 -0.025522 0.999674 0.000000
-7.889786 -6.844160 -0.467742 461 -0.025522 0.999674 0.000000
-7.889836 -6.844207 -0.464532 477 -0.025522 0.999674 0.000000
-7.889554 -6.843963 -0.461304 493 -0.025522 0.999674 0.000000
-7.889765 -6.844145 -0.458102 467 -0.025522 0.999674 0.000000
-7.890860 -6.845098 -0.454952 465 -0.025522 0.999674 0.000000
-7.890578 -6.844855 -0.451725 467 -0.025522 0.999674 0.000000
-7.891341 -6.845518 -0.448548 475 -0.025522 0.999674 0.000000
-7.892215 -6.846265 -0.445390 479 -0.025522 0.999674 0.000000
-7.891487 -6.845634 -0.442136 469 -0.025522 0.999674 0.000000
-7.890922 -6.845150 -0.438891 463 -0.025522 0.999674 0.000000
-7.890144 -6.844468 -0.435628 455 -0.025522 0.999674 0.000000
-7.890072 -6.844410 -0.432419 461 -0.025522 0.999674 0.000000
-7.891046 -6.845258 -0.429250 465 -0.025522 0.999674 0.000000
-7.891200 -6.845384 -0.426048 471 -0.025522 0.999674 0.000000
-7.889906 -6.844272 -0.422770 459 -0.025522 0.999674 0.000000
-7.890060 -6.844397 -0.419569 471 -0.025522 0.999674 0.000000
