761
-7.486150 -6.829741 -0.326372 1319 -0.025522 0.999674 0.000000
-7.486642 -6.830199 -0.323277 1321 -0.025522 0.999674 0.000000
-7.487319 -6.830811 -0.320191 1325 -0.025522 0.999674 0.000000
-7.487223 -6.830720 -0.317072 1315 -0.025522 0.999674 0.000000
-7.486753 -6.830297 -0.313936 1315 -0.025522 0.999674 0.000000
-7.486108 -6.829703 -0.310802 1317 -0.025522 0.999674 0.000000
-7.486182 -6.829768 -0.307691 1321 -0.025522 0.999674 0.000000
-7.494111 -6.832694 -0.704438 1351 -0.025522 0.999674 0.000000
-7.494593 -6.833132 -0.701343 1355 -0.025522 0.999674 0.000000
-7.494309 -6.832875 -0.698196 1355 -0.025522 0.999674 0.000000
-7.494246 -6.832823 -0.695056 1355 -0.025522 0.999674 0.000000
-7.494125 -6.832715 -0.691917 1349 -0.025522 0.999674 0.000000
-7.493955 -6.832557 -0.688779 1359 -0.025522 0.999674 0.000000
-7.493892 -6.832505 -0.685639 1357 -0.025522 0.999674 0.000000
-7.494048 -6.832644 -0.682528 1353 -0.025522 0.999674 0.000000
-7.494204 -6.832785 -0.679416 1351 -0.025522 0.999674 0.000000
-7.494083 -6.832676 -0.676277 1357 -0.025522 0.999674 0.000000
-7.494068 -6.832661 -0.673147 1363 -0.025522 0.999674 0.000000
-7.494592 -6.833144 -0.670062 1365 -0.025522 0.999674 0.000000
-7.494790 -6.833328 -0.666950 1355 -0.025522 0.999674 0.000000
-7.494782 -6.833318 -0.663830 1359 -0.025522 0.999674 0.000000
-7.494555 -6.833103 -0.660683 1359 -0.025522 0.999674 0.000000
-7.494213 -6.832790 -0.657526 1359 -0.025522 0.999674 0.000000
-7.494198 -6.832775 -0.654396 1359 -0.025522 0.999674 0.000000
-7.494177 -6.832768 -0.651266 1353 -0.025522 0.999674 0.000000
-7.493949 -6.832553 -0.648118 1353 -0.025522 0.999674 0.000000
-7.494366 -6.832928 -0.645024 1363 -0.025522 0.999674 0.000000
-7.494661 -6.833199 -0.641921 1365 -0.025522 0.999674 0.000000
-7.494745 -6.833284 -0.638810 1371 -0.025522 0.999674 0.000000
-7.494681 -6.833219 -0.635671 1367 -0.025522 0.999674 0.000000
-7.494544 -6.833098 -0.632542 1363 -0.025522 0.999674 0.000000
-7.494741 -6.833282 -0.629430 1365 -0.025522 0.999674 0.000000
-7.494392 -6.832963 -0.626273 1359 -0.025522 0.999674 0.000000
-7.494475 -6.833035 -0.623152 1367 -0.025522 0.999674 0.000000
-7.494728 -6.833261 -0.620050 1365 -0.025522 0.999674 0.000000
-7.494804 -6.833340 -0.616929 1365 -0.025522 0.999674 0.000000
-7.494675 -6.833212 -0.613790 1363 -0.025522 0.999674 0.000000
-7.494596 -6.833148 -0.610661 1359 -0.025522 0.999674 0.000000
-7.494833 -6.833363 -0.607549 1365 -0.025522 0.999674 0.000000
-7.494916 -6.833434 -0.604438 1365 -0.025522 0.999674 0.000000
-7.494403 -6.832965 -0.601273 1361 -0.025522 0.999674 0.000000
-7.494430 -6.832994 -0.598142 1357 -0.025522 0.999674 0.000000
-7.494766 -6.833309 -0.595049 1359 -0.025522 0.999674 0.000000
-7.494628 -6.833175 -0.591910 1363 -0.025522 0.999674 0.000000
-7.494874 -6.833395 -0.588808 1367 -0.025522 0.999674 0.000000
-7.495113 -6.833623 -0.585696 1363 -0.025522 0.999674 0.000000
-7.495343 -6.833832 -0.582593 1365 -0.025522 0.999674 0.000000
-7.495206 -6.833712 -0.579455 1359 -0.025522 0.999674 0.000000
-7.494946 -6.833473 -0.576317 1359 -0.025522 0.999674 0.000000
-7.494653 -6.833196 -0.573170 1361 -0.025522 0.999674 0.000000
-7.494664 -6.833213 -0.570039 1363 -0.025522 0.999674 0.000000
-7.494843 -6.833371 -0.566938 1365 -0.025522 0.999674 0.000000
-7.495026 -6.833543 -0.563826 1363 -0.025522 0.999674 0.000000
-7.495205 -6.833701 -0.560714 1369 -0.025522 0.999674 0.000000
-7.495003 -6.833519 -0.557576 1367 -0.025522 0.999674 0.000000
-7.495021 -6.833541 -0.554446 1367 -0.025522 0.999674 0.000000
-7.494875 -6.833401 -0.551317 1367 -0.025522 0.999674 0.000000
-7.494510 -6.833070 -0.548170 1351 -0.025522 0.999674 0.000000
-7.494349 -6.832932 -0.545032 1353 -0.025522 0.999674 0.000000
-7.494905 -6.833437 -0.541946 1357 -0.025522 0.999674 0.000000
-7.495022 -6.833547 -0.538835 1355 -0.025522 0.999674 0.000000
-7.495088 -6.833606 -0.535715 1355 -0.025522 0.999674 0.000000
-7.495374 -6.833857 -0.532612 1361 -0.025522 0.999674 0.000000
-7.495008 -6.833526 -0.529465 1361 -0.025522 0.999674 0.000000
-7.494748 -6.833287 -0.526318 1355 -0.025522 0.999674 0.000000
-7.494799 -6.833334 -0.523207 1357 -0.025522 0.999674 0.000000
-7.494915 -6.833444 -0.520086 1357 -0.025522 0.999674 0.000000
-7.494926 -6.833460 -0.516966 1355 -0.025522 0.999674 0.000000
-7.494877 -6.833406 -0.513846 1361 -0.025522 0.999674 0.000000
-7.495042 -6.833566 -0.510734 1355 -0.025522 0.999674 0.000000
-7.495207 -6.833712 -0.507623 1359 -0.025522 0.999674 0.000000
-7.494939 -6.833467 -0.504475 1357 -0.025522 0.999674 0.000000
-7.494884 -6.833422 -0.501356 1367 -0.025522 0.999674 0.000000
-7.495162 -6.833666 -0.498253 1361 -0.025522 0.999674 0.000000
-7.495646 -6.834118 -0.495158 1357 -0.025522 0.999674 0.000000
-7.495597 -6.834065 -0.492029 1353 -0.025522 0.999674 0.000000
-7.495755 -6.834219 -0.488917 1351 -0.025522 0.999674 0.000000
-7.495593 -6.834066 -0.485789 1357 -0.025522 0.999674 0.000000
-7.495048 -6.833573 -0.482634 1351 -0.025522 0.999674 0.000000
-7.495049 -6.833570 -0.479514 1351 -0.025522 0.999674 0.000000
-7.494886 -6.833418 -0.476385 1353 -0.025522 0.999674 0.000000
-7.495206 -6.833707 -0.473282 1361 -0.025522 0.999674 0.000000
-7.495201 -6.833712 -0.470162 1363 -0.025522 0.999674 0.000000
-7.495356 -6.833851 -0.467040 1363 -0.025522 0.999674 0.000000
-7.495620 -6.834098 -0.463938 1359 -0.025522 0.999674 0.000000
-7.494961 -6.833493 -0.460784 1357 -0.025522 0.999674 0.000000
-7.494798 -6.833341 -0.457645 1359 -0.025522 0.999674 0.000000
-7.494954 -6.833480 -0.454534 1363 -0.025522 0.999674 0.000000
-7.494933 -6.833473 -0.451414 1365 -0.025522 0.999674 0.000000
-7.495578 -6.834060 -0.448328 1363 -0.025522 0.999674 0.000000
-7.496003 -6.834441 -0.445234 1363 -0.025522 0.999674 0.000000
-7.495450 -6.833943 -0.442089 1357 -0.025522 0.999674 0.000000
-7.494741 -6.833287 -0.438926 1349 -0.025522 0.999674 0.000000
-7.495420 -6.833912 -0.435839 1357 -0.025522 0.999674 0.000000
-7.495626 -6.834103 -0.432737 1363 -0.025522 0.999674 0.000000
-7.495235 -6.833739 -0.429591 1359 -0.025522 0.999674 0.000000
-7.495164 -6.833681 -0.426471 1363 -0.025522 0.999674 0.000000
-7.495263 -6.833765 -0.423350 1369 -0.025522 0.999674 0.000000
-7.495413 -6.833912 -0.420239 1363 -0.025522 0.999674 0.000000
-7.495176 -6.833691 -0.417111 1347 -0.025522 0.999674 0.000000
-7.495048 -6.833577 -0.413982 1361 -0.025522 0.999674 0.000000
-7.494975 -6.833506 -0.410853 1367 -0.025522 0.999674 0.000000
-7.494905 -6.833448 -0.407733 1359 -0.025522 0.999674 0.000000
-7.494890 -6.833433 -0.404613 1359 -0.025522 0.999674 0.000000
-7.494866 -6.833412 -0.401493 1357 -0.025522 0.999674 0.000000
-7.495064 -6.833595 -0.398381 1359 -0.025522 0.999674 0.000000
-7.495579 -6.834057 -0.395287 1365 -0.025522 0.999674 0.000000
-7.495726 -6.834191 -0.392175 1365 -0.025522 0.999674 0.000000
-7.495639 -6.834121 -0.389056 1369 -0.025522 0.999674 0.000000
-7.495290 -6.833802 -0.385919 1353 -0.025522 0.999674 0.000000
-7.495162 -6.833688 -0.382790 1361 -0.025522 0.999674 0.000000
-7.495626 -6.834100 -0.379696 1365 -0.025522 0.999674 0.000000
-7.495816 -6.834278 -0.376584 1363 -0.025522 0.999674 0.000000
-7.495735 -6.834200 -0.373465 1367 -0.025522 0.999674 0.000000
-7.495549 -6.834030 -0.370336 1363 -0.025522 0.999674 0.000000
-7.495625 -6.834109 -0.367226 1365 -0.025522 0.999674 0.000000
-7.496027 -6.834473 -0.364122 1367 -0.025522 0.999674 0.000000
-7.496158 -6.834594 -0.361010 1367 -0.025522 0.999674 0.000000
-7.495752 -6.834219 -0.357874 1363 -0.025522 0.999674 0.000000
-7.495770 -6.834241 -0.354754 1359 -0.025522 0.999674 0.000000
-7.495526 -6.834015 -0.351626 1361 -0.025522 0.999674 0.000000
-7.495544 -6.834037 -0.348506 1361 -0.025522 0.999674 0.000000
-7.496541 -6.834940 -0.345427 1365 -0.025522 0.999674 0.000000
-7.496128 -6.834573 -0.342290 1367 -0.025522 0.999674 0.000000
-7.495394 -6.833899 -0.339147 1359 -0.025522 0.999674 0.000000
-7.495574 -6.834057 -0.336035 1355 -0.025522 0.999674 0.000000
-7.495430 -6.833931 -0.332907 1355 -0.025522 0.999674 0.000000
-7.495717 -6.834196 -0.329804 1355 -0.025522 0.999674 0.000000
-7.495905 -6.834360 -0.326692 1359 -0.025522 0.999674 0.000000
-7.495539 -6.834028 -0.323555 1367 -0.025522 0.999674 0.000000
-7.495501 -6.833995 -0.320436 1369 -0.025522 0.999674 0.000000
-7.495461 -6.833961 -0.317326 1363 -0.025522 0.999674 0.000000
-7.496018 -6.834468 -0.314221 1363 -0.025522 0.999674 0.000000
-7.495921 -6.834378 -0.311101 1363 -0.025522 0.999674 0.000000
-7.495287 -6.833805 -0.307957 1357 -0.025522 0.999674 0.000000
-7.499753 -6.833650 -0.704766 1363 -0.025522 0.999674 0.000000
-7.499427 -6.833349 -0.701599 1363 -0.025522 0.999674 0.000000
-7.499641 -6.833546 -0.698487 1365 -0.025522 0.999674 0.000000
-7.499470 -6.833386 -0.695348 1369 -0.025522 0.999674 0.000000
-7.498981 -6.832936 -0.692173 1365 -0.025522 0.999674 0.000000
-7.499392 -6.833320 -0.689079 1363 -0.025522 0.999674 0.000000
-7.499443 -6.833367 -0.685958 1363 -0.025522 0.999674 0.000000
-7.499485 -6.833408 -0.682828 1363 -0.025522 0.999674 0.000000
-7.499909 -6.833789 -0.679734 1363 -0.025522 0.999674 0.000000
-7.499576 -6.833482 -0.676577 1367 -0.025522 0.999674 0.000000
-7.499292 -6.833225 -0.673419 1365 -0.025522 0.999674 0.000000
-7.499922 -6.833800 -0.670353 1371 -0.025522 0.999674 0.000000
-7.500120 -6.833983 -0.667242 1369 -0.025522 0.999674 0.000000
-7.499731 -6.833634 -0.664075 1361 -0.025522 0.999674 0.000000
-7.499389 -6.833321 -0.660918 1365 -0.025522 0.999674 0.000000
-7.499537 -6.833454 -0.657797 1369 -0.025522 0.999674 0.000000
-7.499579 -6.833495 -0.654676 1367 -0.025522 0.999674 0.000000
-7.499294 -6.833224 -0.651519 1365 -0.025522 0.999674 0.000000
-7.499336 -6.833265 -0.648398 1365 -0.025522 0.999674 0.000000
-7.499199 -6.833145 -0.645260 1369 -0.025522 0.999674 0.000000
-7.498803 -6.832790 -0.642103 1365 -0.025522 0.999674 0.000000
-7.499374 -6.833308 -0.639018 1369 -0.025522 0.999674 0.000000
-7.499301 -6.833236 -0.635888 1363 -0.025522 0.999674 0.000000
-7.498904 -6.832880 -0.632722 1359 -0.025522 0.999674 0.000000
-7.499100 -6.833050 -0.629610 1357 -0.025522 0.999674 0.000000
-7.499503 -6.833428 -0.626516 1365 -0.025522 0.999674 0.000000
-7.499643 -6.833556 -0.623405 1369 -0.025522 0.999674 0.000000
-7.499620 -6.833534 -0.620275 1373 -0.025522 0.999674 0.000000
-7.499490 -6.833406 -0.617136 1371 -0.025522 0.999674 0.000000
-7.499466 -6.833385 -0.614006 1377 -0.025522 0.999674 0.000000
-7.500024 -6.833905 -0.610931 1377 -0.025522 0.999674 0.000000
-7.499894 -6.833777 -0.607792 1371 -0.025522 0.999674 0.000000
-7.499544 -6.833457 -0.604635 1371 -0.025522 0.999674 0.000000
-7.499898 -6.833785 -0.601532 1371 -0.025522 0.999674 0.000000
-7.499971 -6.833849 -0.598411 1367 -0.025522 0.999674 0.000000
-7.499998 -6.833879 -0.595291 1369 -0.025522 0.999674 0.000000
-7.500023 -6.833894 -0.592171 1363 -0.025522 0.999674 0.000000
-7.499879 -6.833768 -0.589032 1363 -0.025522 0.999674 0.000000
-7.499839 -6.833735 -0.585902 1367 -0.025522 0.999674 0.000000
-7.499972 -6.833856 -0.582781 1365 -0.025522 0.999674 0.000000
-7.500209 -6.834070 -0.579679 1371 -0.025522 0.999674 0.000000
-7.500178 -6.834043 -0.576549 1365 -0.025522 0.999674 0.000000
-7.499927 -6.833810 -0.573401 1363 -0.025522 0.999674 0.000000
-7.499619 -6.833535 -0.570254 1369 -0.025522 0.999674 0.000000
-7.499743 -6.833650 -0.567143 1365 -0.025522 0.999674 0.000000
-7.499654 -6.833567 -0.564013 1359 -0.025522 0.999674 0.000000
-7.499671 -6.833575 -0.560883 1361 -0.025522 0.999674 0.000000
-7.500326 -6.834182 -0.557807 1373 -0.025522 0.999674 0.000000
-7.500188 -6.834048 -0.554668 1371 -0.025522 0.999674 0.000000
-7.499227 -6.833177 -0.551477 1361 -0.025522 0.999674 0.000000
-7.499456 -6.833385 -0.548375 1357 -0.025522 0.999674 0.000000
-7.500013 -6.833892 -0.545290 1365 -0.025522 0.999674 0.000000
-7.500343 -6.834200 -0.542186 1371 -0.025522 0.999674 0.000000
-7.500409 -6.834260 -0.539066 1365 -0.025522 0.999674 0.000000
-7.499823 -6.833723 -0.535901 1357 -0.025522 0.999674 0.000000
-7.499725 -6.833632 -0.532772 1359 -0.025522 0.999674 0.000000
-7.500119 -6.833990 -0.529668 1359 -0.025522 0.999674 0.000000
-7.500290 -6.834142 -0.526557 1355 -0.025522 0.999674 0.000000
-7.500407 -6.834252 -0.523445 1353 -0.025522 0.999674 0.000000
-7.499928 -6.833821 -0.520290 1349 -0.025522 0.999674 0.000000
-7.500255 -6.834116 -0.517187 1355 -0.025522 0.999674 0.000000
-7.500363 -6.834219 -0.514066 1361 -0.025522 0.999674 0.000000
-7.499990 -6.833882 -0.510919 1359 -0.025522 0.999674 0.000000
-7.500317 -6.834177 -0.507816 1363 -0.025522 0.999674 0.000000
-7.500375 -6.834230 -0.504695 1367 -0.025522 0.999674 0.000000
-7.500166 -6.834042 -0.501557 1365 -0.025522 0.999674 0.000000
-7.500387 -6.834244 -0.498455 1365 -0.025522 0.999674 0.000000
-7.500599 -6.834426 -0.495343 1359 -0.025522 0.999674 0.000000
-7.501197 -6.834976 -0.492257 1359 -0.025522 0.999674 0.000000
-7.501256 -6.835029 -0.489137 1363 -0.025522 0.999674 0.000000
-7.500767 -6.834579 -0.485981 1361 -0.025522 0.999674 0.000000
-7.500704 -6.834528 -0.482862 1359 -0.025522 0.999674 0.000000
-7.500812 -6.834631 -0.479741 1361 -0.025522 0.999674 0.000000
-7.501400 -6.835162 -0.476655 1369 -0.025522 0.999674 0.000000
-7.501077 -6.834875 -0.473508 1359 -0.025522 0.999674 0.000000
-7.500261 -6.834126 -0.470335 1361 -0.025522 0.999674 0.000000
-7.500149 -6.834024 -0.467206 1367 -0.025522 0.999674 0.000000
-7.500199 -6.834071 -0.464086 1369 -0.025522 0.999674 0.000000
-7.500405 -6.834261 -0.460984 1375 -0.025522 0.999674 0.000000
-7.500611 -6.834451 -0.457872 1369 -0.025522 0.999674 0.000000
-7.500986 -6.834783 -0.454768 1369 -0.025522 0.999674 0.000000
-7.500383 -6.834234 -0.451614 1365 -0.025522 0.999674 0.000000
-7.499781 -6.833685 -0.448459 1367 -0.025522 0.999674 0.000000
-7.499987 -6.833875 -0.445347 1367 -0.025522 0.999674 0.000000
-7.500135 -6.834009 -0.442236 1365 -0.025522 0.999674 0.000000
-7.500227 -6.834100 -0.439115 1361 -0.025522 0.999674 0.000000
-7.500489 -6.834332 -0.436013 1359 -0.025522 0.999674 0.000000
-7.500695 -6.834522 -0.432901 1355 -0.025522 0.999674 0.000000
-7.500625 -6.834465 -0.429771 1361 -0.025522 0.999674 0.000000
-7.500282 -6.834152 -0.426634 1365 -0.025522 0.999674 0.000000
-7.500651 -6.834490 -0.423531 1365 -0.025522 0.999674 0.000000
-7.500792 -6.834619 -0.420419 1365 -0.025522 0.999674 0.000000
-7.500458 -6.834311 -0.417282 1357 -0.025522 0.999674 0.000000
-7.500485 -6.834341 -0.414162 1363 -0.025522 0.999674 0.000000
-7.500370 -6.834224 -0.411033 1363 -0.025522 0.999674 0.000000
-7.500455 -6.834310 -0.407912 1363 -0.025522 0.999674 0.000000
-7.500758 -6.834587 -0.404809 1359 -0.025522 0.999674 0.000000
-7.500580 -6.834422 -0.401681 1355 -0.025522 0.999674 0.000000
-7.500833 -6.834648 -0.398568 1371 -0.025522 0.999674 0.000000
-7.500478 -6.834337 -0.395432 1365 -0.025522 0.999674 0.000000
-7.500029 -6.833917 -0.392296 1363 -0.025522 0.999674 0.000000
-7.500113 -6.834002 -0.389175 1359 -0.025522 0.999674 0.000000
-7.500359 -6.834223 -0.386063 1355 -0.025522 0.999674 0.000000
-7.500980 -6.834791 -0.382977 1371 -0.025522 0.999674 0.000000
-7.501015 -6.834826 -0.379856 1369 -0.025522 0.999674 0.000000
-7.500494 -6.834352 -0.376711 1367 -0.025522 0.999674 0.000000
-7.500095 -6.833982 -0.373575 1359 -0.025522 0.999674 0.000000
-7.500122 -6.834011 -0.370454 1361 -0.025522 0.999674 0.000000
-7.500041 -6.833933 -0.367335 1363 -0.025522 0.999674 0.000000
-7.500231 -6.834112 -0.364223 1361 -0.025522 0.999674 0.000000
-7.501113 -6.834915 -0.361145 1369 -0.025522 0.999674 0.000000
-7.501033 -6.834838 -0.358016 1361 -0.025522 0.999674 0.000000
-7.500570 -6.834420 -0.354880 1365 -0.025522 0.999674 0.000000
-7.500539 -6.834393 -0.351760 1363 -0.025522 0.999674 0.000000
-7.500614 -6.834458 -0.348639 1363 -0.025522 0.999674 0.000000
-7.500859 -6.834678 -0.345527 1367 -0.025522 0.999674 0.000000
-7.500706 -6.834546 -0.342408 1369 -0.025522 0.999674 0.000000
-7.500618 -6.834462 -0.339279 1365 -0.025522 0.999674 0.000000
-7.500750 -6.834584 -0.336168 1361 -0.025522 0.999674 0.000000
-7.500874 -6.834699 -0.333056 1357 -0.025522 0.999674 0.000000
-7.500566 -6.834424 -0.329919 1359 -0.025522 0.999674 0.000000
-7.500315 -6.834192 -0.326791 1363 -0.025522 0.999674 0.000000
-7.500707 -6.834549 -0.323688 1361 -0.025522 0.999674 0.000000
-7.500887 -6.834707 -0.320576 1367 -0.025522 0.999674 0.000000
-7.501011 -6.834822 -0.317465 1373 -0.025522 0.999674 0.000000
-7.501128 -6.834932 -0.314344 1365 -0.025522 0.999674 0.000000
-7.500875 -6.834699 -0.311216 1367 -0.025522 0.999674 0.000000
-7.500453 -6.834311 -0.308080 1361 -0.025522 0.999674 0.000000
-7.505070 -6.834222 -0.705057 1369 -0.025522 0.999674 0.000000
-7.504632 -6.833823 -0.701881 1355 -0.025522 0.999674 0.000000
-7.504519 -6.833721 -0.698742 1363 -0.025522 0.999674 0.000000
-7.504186 -6.833414 -0.695585 1365 -0.025522 0.999674 0.000000
-7.504178 -6.833404 -0.692445 1363 -0.025522 0.999674 0.000000
-7.504384 -6.833594 -0.689333 1363 -0.025522 0.999674 0.000000
-7.504158 -6.833394 -0.686185 1357 -0.025522 0.999674 0.000000
-7.503988 -6.833235 -0.683037 1367 -0.025522 0.999674 0.000000
-7.503761 -6.833035 -0.679889 1367 -0.025522 0.999674 0.000000
-7.503475 -6.832763 -0.676732 1363 -0.025522 0.999674 0.000000
-7.503576 -6.832860 -0.673610 1361 -0.025522 0.999674 0.000000
-7.504213 -6.833442 -0.670534 1365 -0.025522 0.999674 0.000000
-7.504794 -6.833966 -0.667459 1377 -0.025522 0.999674 0.000000
-7.504345 -6.833560 -0.664293 1371 -0.025522 0.999674 0.000000
-7.504275 -6.833502 -0.661154 1367 -0.025522 0.999674 0.000000
-7.504479 -6.833678 -0.658042 1367 -0.025522 0.999674 0.000000
-7.504457 -6.833671 -0.654912 1363 -0.025522 0.999674 0.000000
-7.504507 -6.833704 -0.651791 1365 -0.025522 0.999674 0.000000
-7.504483 -6.833682 -0.648651 1369 -0.025522 0.999674 0.000000
-7.503973 -6.833228 -0.645486 1379 -0.025522 0.999674 0.000000
-7.503850 -6.833106 -0.642347 1365 -0.025522 0.999674 0.000000
-7.504097 -6.833341 -0.639235 1369 -0.025522 0.999674 0.000000
-7.504131 -6.833362 -0.636114 1375 -0.025522 0.999674 0.000000
-7.504483 -6.833689 -0.633011 1373 -0.025522 0.999674 0.000000
-7.504737 -6.833915 -0.629899 1371 -0.025522 0.999674 0.000000
-7.503963 -6.833211 -0.626716 1377 -0.025522 0.999674 0.000000
-7.504104 -6.833338 -0.623594 1373 -0.025522 0.999674 0.000000
-7.504611 -6.833808 -0.620510 1377 -0.025522 0.999674 0.000000
-7.504694 -6.833879 -0.617389 1379 -0.025522 0.999674 0.000000
-7.505047 -6.834207 -0.614285 1373 -0.025522 0.999674 0.000000
-7.504861 -6.834036 -0.611147 1375 -0.025522 0.999674 0.000000
-7.504504 -6.833711 -0.607990 1373 -0.025522 0.999674 0.000000
-7.504367 -6.833591 -0.604851 1373 -0.025522 0.999674 0.000000
-7.504986 -6.834146 -0.601766 1369 -0.025522 0.999674 0.000000
-7.505119 -6.834267 -0.598654 1369 -0.025522 0.999674 0.000000
-7.504827 -6.834004 -0.595497 1363 -0.025522 0.999674 0.000000
-7.505057 -6.834212 -0.592395 1371 -0.025522 0.999674 0.000000
-7.504544 -6.833744 -0.589229 1369 -0.025522 0.999674 0.000000
-7.503804 -6.833077 -0.586046 1365 -0.025522 0.999674 0.000000
-7.504155 -6.833391 -0.582943 1365 -0.025522 0.999674 0.000000
-7.504875 -6.834046 -0.579866 1369 -0.025522 0.999674 0.000000
-7.504730 -6.833920 -0.576737 1371 -0.025522 0.999674 0.000000
-7.504536 -6.833744 -0.573589 1369 -0.025522 0.999674 0.000000
-7.504879 -6.834050 -0.570486 1371 -0.025522 0.999674 0.000000
-7.504521 -6.833724 -0.567339 1369 -0.025522 0.999674 0.000000
-7.504433 -6.833641 -0.564200 1363 -0.025522 0.999674 0.000000
-7.504820 -6.834006 -0.561106 1361 -0.025522 0.999674 0.000000
-7.504894 -6.834072 -0.557985 1363 -0.025522 0.999674 0.000000
-7.504692 -6.833889 -0.554847 1365 -0.025522 0.999674 0.000000
-7.504595 -6.833799 -0.551708 1361 -0.025522 0.999674 0.000000
-7.504662 -6.833859 -0.548587 1357 -0.025522 0.999674 0.000000
-7.504777 -6.833968 -0.545476 1361 -0.025522 0.999674 0.000000
-7.504526 -6.833735 -0.542328 1361 -0.025522 0.999674 0.000000
-7.504543 -6.833745 -0.539208 1361 -0.025522 0.999674 0.000000
-7.504977 -6.834146 -0.536114 1361 -0.025522 0.999674 0.000000
-7.505207 -6.834353 -0.533002 1359 -0.025522 0.999674 0.000000
-7.504997 -6.834166 -0.529864 1361 -0.025522 0.999674 0.000000
-7.504850 -6.834025 -0.526725 1361 -0.025522 0.999674 0.000000
-7.505179 -6.834334 -0.523622 1363 -0.025522 0.999674 0.000000
-7.505238 -6.834387 -0.520501 1363 -0.025522 0.999674 0.000000
-7.505133 -6.834291 -0.517372 1357 -0.025522 0.999674 0.000000
-7.504660 -6.833853 -0.514217 1359 -0.025522 0.999674 0.000000
-7.504982 -6.834156 -0.511113 1357 -0.025522 0.999674 0.000000
-7.505472 -6.834599 -0.508019 1359 -0.025522 0.999674 0.000000
-7.505163 -6.834311 -0.504872 1359 -0.025522 0.999674 0.000000
-7.504504 -6.833720 -0.501708 1359 -0.025522 0.999674 0.000000
-7.504450 -6.833674 -0.498578 1361 -0.025522 0.999674 0.000000
-7.504727 -6.833919 -0.495475 1359 -0.025522 0.999674 0.000000
-7.505275 -6.834418 -0.492380 1357 -0.025522 0.999674 0.000000
-7.505594 -6.834707 -0.489277 1359 -0.025522 0.999674 0.000000
-7.505539 -6.834662 -0.486148 1357 -0.025522 0.999674 0.000000
-7.505695 -6.834802 -0.483036 1359 -0.025522 0.999674 0.000000
-7.505641 -6.834756 -0.479907 1361 -0.025522 0.999674 0.000000
-7.505691 -6.834803 -0.476786 1359 -0.025522 0.999674 0.000000
-7.505373 -6.834508 -0.473649 1375 -0.025522 0.999674 0.000000
-7.504984 -6.834158 -0.470492 1371 -0.025522 0.999674 0.000000
-7.504602 -6.833815 -0.467346 1361 -0.025522 0.999674 0.000000
-7.504432 -6.833657 -0.464217 1361 -0.025522 0.999674 0.000000
-7.504694 -6.833889 -0.461115 1369 -0.025522 0.999674 0.000000
-7.504795 -6.833987 -0.457994 1359 -0.025522 0.999674 0.000000
-7.504845 -6.834033 -0.454873 1363 -0.025522 0.999674 0.000000
-7.505043 -6.834218 -0.451761 1367 -0.025522 0.999674 0.000000
-7.505467 -6.834599 -0.448667 1365 -0.025522 0.999674 0.000000
-7.505404 -6.834548 -0.445538 1365 -0.025522 0.999674 0.000000
-7.505013 -6.834184 -0.442392 1365 -0.025522 0.999674 0.000000
-7.505432 -6.834573 -0.439288 1371 -0.025522 0.999674 0.000000
-7.505807 -6.834904 -0.436194 1371 -0.025522 0.999674 0.000000
-7.505792 -6.834889 -0.433064 1369 -0.025522 0.999674 0.000000
-7.505671 -6.834781 -0.429935 1367 -0.025522 0.999674 0.000000
-7.505437 -6.834574 -0.426797 1363 -0.025522 0.999674 0.000000
-7.505429 -6.834565 -0.423677 1365 -0.025522 0.999674 0.000000
-7.505137 -6.834301 -0.420540 1355 -0.025522 0.999674 0.000000
-7.504902 -6.834081 -0.417402 1359 -0.025522 0.999674 0.000000
-7.504889 -6.834080 -0.414282 1359 -0.025522 0.999674 0.000000
-7.505143 -6.834306 -0.411170 1365 -0.025522 0.999674 0.000000
-7.505233 -6.834384 -0.408059 1367 -0.025522 0.999674 0.000000
-7.505209 -6.834363 -0.404929 1367 -0.025522 0.999674 0.000000
-7.505139 -6.834305 -0.401809 1369 -0.025522 0.999674 0.000000
-7.504684 -6.833893 -0.398664 1359 -0.025522 0.999674 0.000000
-7.504662 -6.833872 -0.395544 1363 -0.025522 0.999674 0.000000
-7.505673 -6.834786 -0.392474 1365 -0.025522 0.999674 0.000000
-7.506017 -6.835107 -0.389361 1371 -0.025522 0.999674 0.000000
-7.505676 -6.834794 -0.386224 1371 -0.025522 0.999674 0.000000
-7.505213 -6.834376 -0.383078 1371 -0.025522 0.999674 0.000000
-7.505246 -6.834397 -0.379958 1367 -0.025522 0.999674 0.000000
-7.505649 -6.834774 -0.376864 1367 -0.025522 0.999674 0.000000
-7.505625 -6.834753 -0.373734 1369 -0.025522 0.999674 0.000000
-7.505822 -6.834923 -0.370622 1367 -0.025522 0.999674 0.000000
-7.505791 -6.834896 -0.367503 1363 -0.025522 0.999674 0.000000
-7.505867 -6.834975 -0.364382 1363 -0.025522 0.999674 0.000000
-7.505836 -6.834948 -0.361262 1363 -0.025522 0.999674 0.000000
-7.505379 -6.834521 -0.358116 1363 -0.025522 0.999674 0.000000
-7.505071 -6.834247 -0.354989 1367 -0.025522 0.999674 0.000000
-7.505212 -6.834374 -0.351867 1369 -0.025522 0.999674 0.000000
-7.505010 -6.834192 -0.348739 1363 -0.025522 0.999674 0.000000
-7.504873 -6.834072 -0.345610 1357 -0.025522 0.999674 0.000000
-7.505053 -6.834230 -0.342499 1353 -0.025522 0.999674 0.000000
-7.505185 -6.834352 -0.339387 1355 -0.025522 0.999674 0.000000
-7.505683 -6.834801 -0.336293 1361 -0.025522 0.999674 0.000000
-7.506084 -6.835164 -0.333189 1369 -0.025522 0.999674 0.000000
-7.505989 -6.835088 -0.330060 1363 -0.025522 0.999674 0.000000
-7.506014 -6.835104 -0.326939 1361 -0.025522 0.999674 0.000000
-7.506188 -6.835269 -0.323828 1367 -0.025522 0.999674 0.000000
-7.506589 -6.835633 -0.320724 1379 -0.025522 0.999674 0.000000
-7.506271 -6.835337 -0.317587 1377 -0.025522 0.999674 0.000000
-7.506176 -6.835261 -0.314468 1369 -0.025522 0.999674 0.000000
-7.506357 -6.835420 -0.311356 1367 -0.025522 0.999674 0.000000
-7.505886 -6.834996 -0.308210 1361 -0.025522 0.999674 0.000000
-7.510423 -6.834733 -0.705349 1373 -0.025522 0.999674 0.000000
-7.509502 -6.833892 -0.702137 1367 -0.025522 0.999674 0.000000
-7.508900 -6.833343 -0.698943 1359 -0.025522 0.999674 0.000000
-7.509327 -6.833738 -0.695849 1357 -0.025522 0.999674 0.000000
-7.509206 -6.833631 -0.692710 1363 -0.025522 0.999674 0.000000
-7.508881 -6.833329 -0.689543 1369 -0.025522 0.999674 0.000000
-7.509469 -6.833859 -0.686467 1365 -0.025522 0.999674 0.000000
-7.509879 -6.834243 -0.683373 1371 -0.025522 0.999674 0.000000
-7.509880 -6.834239 -0.680243 1373 -0.025522 0.999674 0.000000
-7.509915 -6.834275 -0.677113 1369 -0.025522 0.999674 0.000000
-7.509858 -6.834216 -0.673973 1367 -0.025522 0.999674 0.000000
-7.509518 -6.833916 -0.670816 1369 -0.025522 0.999674 0.000000
-7.509339 -6.833751 -0.667668 1365 -0.025522 0.999674 0.000000
-7.509211 -6.833638 -0.664529 1371 -0.025522 0.999674 0.000000
-7.508991 -6.833428 -0.661371 1363 -0.025522 0.999674 0.000000
-7.509026 -6.833464 -0.658251 1365 -0.025522 0.999674 0.000000
-7.508578 -6.833057 -0.655075 1371 -0.025522 0.999674 0.000000
-7.508237 -6.832744 -0.651918 1367 -0.025522 0.999674 0.000000
-7.508753 -6.833220 -0.648833 1367 -0.025522 0.999674 0.000000
-7.509602 -6.833986 -0.645775 1373 -0.025522 0.999674 0.000000
-7.509855 -6.834213 -0.642663 1373 -0.025522 0.999674 0.000000
-7.509400 -6.833801 -0.639497 1375 -0.025522 0.999674 0.000000
-7.509166 -6.833594 -0.636349 1379 -0.025522 0.999674 0.000000
-7.509199 -6.833615 -0.633219 1379 -0.025522 0.999674 0.000000
-7.509339 -6.833742 -0.630107 1373 -0.025522 0.999674 0.000000
-7.509479 -6.833870 -0.626986 1369 -0.025522 0.999674 0.000000
-7.509718 -6.834098 -0.623873 1363 -0.025522 0.999674 0.000000
-7.509696 -6.834077 -0.620744 1367 -0.025522 0.999674 0.000000
-7.509133 -6.833558 -0.617569 1371 -0.025522 0.999674 0.000000
-7.508947 -6.833388 -0.614421 1361 -0.025522 0.999674 0.000000
-7.508974 -6.833417 -0.611300 1367 -0.025522 0.999674 0.000000
-7.509326 -6.833744 -0.608197 1375 -0.025522 0.999674 0.000000
-7.509621 -6.834014 -0.605094 1377 -0.025522 0.999674 0.000000
-7.509596 -6.833979 -0.601964 1361 -0.025522 0.999674 0.000000
-7.509502 -6.833903 -0.598825 1367 -0.025522 0.999674 0.000000
-7.508883 -6.833342 -0.595651 1363 -0.025522 0.999674 0.000000
-7.509071 -6.833506 -0.592539 1363 -0.025522 0.999674 0.000000
-7.509416 -6.833827 -0.589435 1375 -0.025522 0.999674 0.000000
-7.509059 -6.833501 -0.586279 1363 -0.025522 0.999674 0.000000
-7.509084 -6.833516 -0.583148 1365 -0.025522 0.999674 0.000000
-7.509421 -6.833831 -0.580055 1371 -0.025522 0.999674 0.000000
-7.509290 -6.833704 -0.576916 1367 -0.025522 0.999674 0.000000
-7.509251 -6.833670 -0.573787 1367 -0.025522 0.999674 0.000000
-7.509376 -6.833786 -0.570665 1371 -0.025522 0.999674 0.000000
-7.509768 -6.834142 -0.567562 1369 -0.025522 0.999674 0.000000
-7.509729 -6.834109 -0.564432 1365 -0.025522 0.999674 0.000000
-7.509209 -6.833634 -0.561267 1357 -0.025522 0.999674 0.000000
-7.509439 -6.833843 -0.558155 1357 -0.025522 0.999674 0.000000
-7.509349 -6.833759 -0.555025 1363 -0.025522 0.999674 0.000000
-7.508984 -6.833427 -0.551869 1365 -0.025522 0.999674 0.000000
-7.509108 -6.833543 -0.548757 1359 -0.025522 0.999674 0.000000
-7.509443 -6.833844 -0.545654 1359 -0.025522 0.999674 0.000000
-7.509397 -6.833805 -0.542525 1367 -0.025522 0.999674 0.000000
-7.509578 -6.833976 -0.539403 1365 -0.025522 0.999674 0.000000
-7.510396 -6.834718 -0.536335 1367 -0.025522 0.999674 0.000000
-7.510348 -6.834679 -0.533205 1373 -0.025522 0.999674 0.000000
-7.509875 -6.834241 -0.530050 1365 -0.025522 0.999674 0.000000
-7.510261 -6.834592 -0.526946 1367 -0.025522 0.999674 0.000000
-7.510482 -6.834794 -0.523834 1363 -0.025522 0.999674 0.000000
-7.510492 -6.834810 -0.520714 1363 -0.025522 0.999674 0.000000
-7.510493 -6.834807 -0.517584 1373 -0.025522 0.999674 0.000000
-7.510178 -6.834527 -0.514437 1361 -0.025522 0.999674 0.000000
-7.510073 -6.834430 -0.511307 1361 -0.025522 0.999674 0.000000
-7.510187 -6.834526 -0.508186 1365 -0.025522 0.999674 0.000000
-7.510246 -6.834579 -0.505066 1365 -0.025522 0.999674 0.000000
-7.510355 -6.834682 -0.501945 1367 -0.025522 0.999674 0.000000
-7.510576 -6.834884 -0.498833 1367 -0.025522 0.999674 0.000000
-7.510413 -6.834732 -0.495694 1359 -0.025522 0.999674 0.000000
-7.510245 -6.834589 -0.492565 1361 -0.025522 0.999674 0.000000
-7.510303 -6.834642 -0.489445 1363 -0.025522 0.999674 0.000000
-7.509822 -6.834198 -0.486289 1357 -0.025522 0.999674 0.000000
-7.509660 -6.834045 -0.483151 1363 -0.025522 0.999674 0.000000
-7.509924 -6.834291 -0.480038 1357 -0.025522 0.999674 0.000000
-7.509861 -6.834240 -0.476909 1363 -0.025522 0.999674 0.000000
-7.509975 -6.834335 -0.473798 1375 -0.025522 0.999674 0.000000
-7.510238 -6.834581 -0.470685 1367 -0.025522 0.999674 0.000000
-7.510345 -6.834671 -0.467564 1363 -0.025522 0.999674 0.000000
-7.510559 -6.834867 -0.464452 1367 -0.025522 0.999674 0.000000
-7.510430 -6.834753 -0.461323 1367 -0.025522 0.999674 0.000000
-7.510480 -6.834800 -0.458202 1363 -0.025522 0.999674 0.000000
-7.510858 -6.835145 -0.455099 1367 -0.025522 0.999674 0.000000
-7.510305 -6.834647 -0.451944 1373 -0.025522 0.999674 0.000000
-7.510019 -6.834376 -0.448797 1361 -0.025522 0.999674 0.000000
-7.510014 -6.834381 -0.445676 1359 -0.025522 0.999674 0.000000
-7.509467 -6.833874 -0.442522 1367 -0.025522 0.999674 0.000000
-7.509184 -6.833617 -0.439384 1367 -0.025522 0.999674 0.000000
-7.509439 -6.833858 -0.436272 1367 -0.025522 0.999674 0.000000
-7.510232 -6.834581 -0.433194 1371 -0.025522 0.999674 0.000000
-7.510380 -6.834714 -0.430083 1371 -0.025522 0.999674 0.000000
-7.510315 -6.834649 -0.426953 1371 -0.025522 0.999674 0.000000
-7.510521 -6.834839 -0.423841 1371 -0.025522 0.999674 0.000000
-7.510229 -6.834576 -0.420704 1375 -0.025522 0.999674 0.000000
-7.510164 -6.834511 -0.417574 1375 -0.025522 0.999674 0.000000
-7.509980 -6.834354 -0.414436 1365 -0.025522 0.999674 0.000000
-7.509694 -6.834084 -0.411299 1355 -0.025522 0.999674 0.000000
-7.510106 -6.834467 -0.408195 1359 -0.025522 0.999674 0.000000
-7.510522 -6.834842 -0.405101 1371 -0.025522 0.999674 0.000000
-7.510612 -6.834919 -0.401980 1375 -0.025522 0.999674 0.000000
-7.510370 -6.834707 -0.398842 1371 -0.025522 0.999674 0.000000
-7.509971 -6.834337 -0.395696 1375 -0.025522 0.999674 0.000000
-7.510056 -6.834423 -0.392585 1371 -0.025522 0.999674 0.000000
-7.510309 -6.834649 -0.389472 1369 -0.025522 0.999674 0.000000
-7.510491 -6.834821 -0.386361 1367 -0.025522 0.999674 0.000000
-7.510532 -6.834848 -0.383240 1371 -0.025522 0.999674 0.000000
-7.510231 -6.834579 -0.380103 1361 -0.025522 0.999674 0.000000
-7.509940 -6.834316 -0.376966 1363 -0.025522 0.999674 0.000000
-7.510236 -6.834587 -0.373853 1363 -0.025522 0.999674 0.000000
-7.510644 -6.834955 -0.370749 1357 -0.025522 0.999674 0.000000
-7.510982 -6.835270 -0.367646 1371 -0.025522 0.999674 0.000000
-7.510640 -6.834957 -0.364509 1371 -0.025522 0.999674 0.000000
-7.510437 -6.834774 -0.361380 1359 -0.025522 0.999674 0.000000
-7.510520 -6.834846 -0.358260 1369 -0.025522 0.999674 0.000000
-7.510221 -6.834577 -0.355122 1363 -0.025522 0.999674 0.000000
-7.510345 -6.834692 -0.352001 1363 -0.025522 0.999674 0.000000
-7.510213 -6.834565 -0.348872 1367 -0.025522 0.999674 0.000000
-7.510233 -6.834588 -0.345752 1365 -0.025522 0.999674 0.000000
-7.511123 -6.835398 -0.342674 1357 -0.025522 0.999674 0.000000
-7.511198 -6.835463 -0.339553 1357 -0.025522 0.999674 0.000000
-7.510564 -6.834890 -0.336409 1355 -0.025522 0.999674 0.000000
-7.511070 -6.835346 -0.333304 1367 -0.025522 0.999674 0.000000
-7.511088 -6.835369 -0.330184 1377 -0.025522 0.999674 0.000000
-7.510560 -6.834888 -0.327039 1367 -0.025522 0.999674 0.000000
-7.510421 -6.834754 -0.323910 1369 -0.025522 0.999674 0.000000
-7.510319 -6.834672 -0.320791 1365 -0.025522 0.999674 0.000000
-7.510394 -6.834738 -0.317670 1369 -0.025522 0.999674 0.000000
-7.510728 -6.835038 -0.314557 1363 -0.025522 0.999674 0.000000
-7.510795 -6.835098 -0.311446 1363 -0.025522 0.999674 0.000000
-7.510651 -6.834972 -0.308317 1357 -0.025522 0.999674 0.000000
-7.514676 -6.834408 -0.705550 1371 -0.025522 0.999674 0.000000
-7.514888 -6.834591 -0.702438 1375 -0.025522 0.999674 0.000000
-7.514938 -6.834638 -0.699307 1369 -0.025522 0.999674 0.000000
-7.515031 -6.834730 -0.696176 1373 -0.025522 0.999674 0.000000
-7.514160 -6.833939 -0.692964 1373 -0.025522 0.999674 0.000000
-7.513826 -6.833631 -0.689807 1369 -0.025522 0.999674 0.000000
-7.513927 -6.833729 -0.686686 1367 -0.025522 0.999674 0.000000
-7.513706 -6.833520 -0.683528 1361 -0.025522 0.999674 0.000000
-7.514344 -6.834101 -0.680452 1369 -0.025522 0.999674 0.000000
-7.514663 -6.834389 -0.677349 1365 -0.025522 0.999674 0.000000
-7.513939 -6.833735 -0.674156 1359 -0.025522 0.999674 0.000000
-7.513542 -6.833380 -0.670990 1365 -0.025522 0.999674 0.000000
-7.514236 -6.834003 -0.667913 1375 -0.025522 0.999674 0.000000
-7.514823 -6.834533 -0.664828 1377 -0.025522 0.999674 0.000000
-7.514376 -6.834127 -0.661662 1371 -0.025522 0.999674 0.000000
-7.514248 -6.834013 -0.658513 1379 -0.025522 0.999674 0.000000
-7.514446 -6.834198 -0.655401 1371 -0.025522 0.999674 0.000000
-7.514593 -6.834331 -0.652279 1375 -0.025522 0.999674 0.000000
-7.514359 -6.834124 -0.649132 1369 -0.025522 0.999674 0.000000
-7.514287 -6.834053 -0.645992 1369 -0.025522 0.999674 0.000000
-7.514966 -6.834677 -0.642916 1381 -0.025522 0.999674 0.000000
-7.515007 -6.834705 -0.639795 1371 -0.025522 0.999674 0.000000
-7.514120 -6.833902 -0.636583 1367 -0.025522 0.999674 0.000000
-7.513501 -6.833340 -0.633409 1361 -0.025522 0.999674 0.000000
-7.513584 -6.833412 -0.630278 1365 -0.025522 0.999674 0.000000
-7.513618 -6.833447 -0.627158 1371 -0.025522 0.999674 0.000000
-7.513700 -6.833518 -0.624027 1363 -0.025522 0.999674 0.000000
-7.514167 -6.833944 -0.620933 1361 -0.025522 0.999674 0.000000
-7.514358 -6.834122 -0.617821 1367 -0.025522 0.999674 0.000000
-7.514008 -6.833803 -0.614664 1365 -0.025522 0.999674 0.000000
-7.514409 -6.834166 -0.611570 1373 -0.025522 0.999674 0.000000
-7.515143 -6.834833 -0.608493 1377 -0.025522 0.999674 0.000000
-7.514844 -6.834564 -0.605336 1377 -0.025522 0.999674 0.000000
-7.514282 -6.834045 -0.602161 1369 -0.025522 0.999674 0.000000
-7.513982 -6.833776 -0.599014 1367 -0.025522 0.999674 0.000000
-7.514163 -6.833948 -0.595892 1365 -0.025522 0.999674 0.000000
-7.514351 -6.834112 -0.592780 1365 -0.025522 0.999674 0.000000
-7.514426 -6.834177 -0.589660 1363 -0.025522 0.999674 0.000000
-7.514771 -6.834498 -0.586556 1371 -0.025522 0.999674 0.000000
-7.514798 -6.834527 -0.583426 1379 -0.025522 0.999674 0.000000
-7.514383 -6.834146 -0.580270 1377 -0.025522 0.999674 0.000000
-7.514237 -6.834019 -0.577131 1369 -0.025522 0.999674 0.000000
-7.513717 -6.833544 -0.573956 1363 -0.025522 0.999674 0.000000
-7.513684 -6.833503 -0.570826 1365 -0.025522 0.999674 0.000000
-7.514240 -6.834009 -0.567741 1363 -0.025522 0.999674 0.000000
-7.514365 -6.834125 -0.564620 1369 -0.025522 0.999674 0.000000
-7.514383 -6.834148 -0.561499 1371 -0.025522 0.999674 0.000000
-7.514294 -6.834064 -0.558360 1361 -0.025522 0.999674 0.000000
-7.514679 -6.834415 -0.555256 1363 -0.025522 0.999674 0.000000
-7.515080 -6.834778 -0.552163 1363 -0.025522 0.999674 0.000000
-7.515083 -6.834789 -0.549032 1365 -0.025522 0.999674 0.000000
-7.514936 -6.834649 -0.545894 1363 -0.025522 0.999674 0.000000
-7.515280 -6.834956 -0.542790 1377 -0.025522 0.999674 0.000000
-7.515331 -6.835017 -0.539670 1375 -0.025522 0.999674 0.000000
-7.514916 -6.834635 -0.536504 1367 -0.025522 0.999674 0.000000
-7.514820 -6.834545 -0.533374 1367 -0.025522 0.999674 0.000000
-7.514773 -6.834506 -0.530245 1369 -0.025522 0.999674 0.000000
-7.515385 -6.835054 -0.527159 1365 -0.025522 0.999674 0.000000
-7.515656 -6.835307 -0.524046 1367 -0.025522 0.999674 0.000000
-7.515127 -6.834826 -0.520881 1359 -0.025522 0.999674 0.000000
-7.515349 -6.835029 -0.517769 1361 -0.025522 0.999674 0.000000
-7.515513 -6.835174 -0.514658 1357 -0.025522 0.999674 0.000000
-7.515352 -6.835036 -0.511519 1357 -0.025522 0.999674 0.000000
-7.515362 -6.835039 -0.508389 1353 -0.025522 0.999674 0.000000
-7.515257 -6.834943 -0.505260 1361 -0.025522 0.999674 0.000000
-7.515365 -6.835047 -0.502139 1363 -0.025522 0.999674 0.000000
-7.515643 -6.835291 -0.499026 1367 -0.025522 0.999674 0.000000
-7.515538 -6.835195 -0.495897 1365 -0.025522 0.999674 0.000000
-7.515425 -6.835093 -0.492758 1357 -0.025522 0.999674 0.000000
-7.515420 -6.835098 -0.489628 1361 -0.025522 0.999674 0.000000
-7.515534 -6.835193 -0.486517 1361 -0.025522 0.999674 0.000000
-7.515211 -6.834906 -0.483370 1359 -0.025522 0.999674 0.000000
-7.515203 -6.834898 -0.480240 1357 -0.025522 0.999674 0.000000
-7.515148 -6.834851 -0.477110 1361 -0.025522 0.999674 0.000000
-7.514546 -6.834302 -0.473946 1361 -0.025522 0.999674 0.000000
-7.514115 -6.833909 -0.470800 1363 -0.025522 0.999674 0.000000
-7.514484 -6.834248 -0.467696 1363 -0.025522 0.999674 0.000000
-7.514909 -6.834630 -0.464592 1365 -0.025522 0.999674 0.000000
-7.514470 -6.834229 -0.461436 1363 -0.025522 0.999674 0.000000
-7.514365 -6.834133 -0.458307 1363 -0.025522 0.999674 0.000000
-7.515329 -6.835012 -0.455238 1369 -0.025522 0.999674 0.000000
-7.515314 -6.834997 -0.452118 1365 -0.025522 0.999674 0.000000
-7.514761 -6.834498 -0.448953 1363 -0.025522 0.999674 0.000000
-7.514862 -6.834595 -0.445832 1373 -0.025522 0.999674 0.000000
-7.514854 -6.834586 -0.442712 1363 -0.025522 0.999674 0.000000
-7.514726 -6.834472 -0.439583 1361 -0.025522 0.999674 0.000000
-7.515045 -6.834761 -0.436470 1361 -0.025522 0.999674 0.000000
-7.515470 -6.835142 -0.433366 1371 -0.025522 0.999674 0.000000
-7.515178 -6.834879 -0.430229 1369 -0.025522 0.999674 0.000000
-7.515007 -6.834721 -0.427090 1373 -0.025522 0.999674 0.000000
-7.515255 -6.834955 -0.423988 1369 -0.025522 0.999674 0.000000
-7.514970 -6.834684 -0.420840 1361 -0.025522 0.999674 0.000000
-7.514849 -6.834577 -0.417711 1365 -0.025522 0.999674 0.000000
-7.514988 -6.834704 -0.414600 1363 -0.025522 0.999674 0.000000
-7.515032 -6.834745 -0.411470 1359 -0.025522 0.999674 0.000000
-7.515172 -6.834873 -0.408358 1369 -0.025522 0.999674 0.000000
-7.515319 -6.835007 -0.405237 1365 -0.025522 0.999674 0.000000
-7.515183 -6.834887 -0.402108 1367 -0.025522 0.999674 0.000000
-7.515111 -6.834815 -0.398979 1369 -0.025522 0.999674 0.000000
-7.515258 -6.834948 -0.395867 1373 -0.025522 0.999674 0.000000
-7.515017 -6.834736 -0.392729 1371 -0.025522 0.999674 0.000000
-7.514935 -6.834658 -0.389600 1367 -0.025522 0.999674 0.000000
-7.515346 -6.835041 -0.386496 1367 -0.025522 0.999674 0.000000
-7.515535 -6.835206 -0.383384 1375 -0.025522 0.999674 0.000000
-7.515406 -6.835091 -0.380255 1369 -0.025522 0.999674 0.000000
-7.515056 -6.834772 -0.377109 1363 -0.025522 0.999674 0.000000
-7.514870 -6.834602 -0.373980 1365 -0.025522 0.999674 0.000000
-7.515434 -6.835114 -0.370885 1369 -0.025522 0.999674 0.000000
-7.515843 -6.835483 -0.367781 1369 -0.025522 0.999674 0.000000
-7.515485 -6.835158 -0.364634 1363 -0.025522 0.999674 0.000000
-7.515839 -6.835485 -0.361531 1361 -0.025522 0.999674 0.000000
-7.516289 -6.835898 -0.358427 1377 -0.025522 0.999674 0.000000
-7.515882 -6.835523 -0.355280 1373 -0.025522 0.999674 0.000000
-7.515795 -6.835453 -0.352161 1371 -0.025522 0.999674 0.000000
-7.515933 -6.835567 -0.349040 1367 -0.025522 0.999674 0.000000
-7.515739 -6.835390 -0.345911 1365 -0.025522 0.999674 0.000000
-7.515758 -6.835413 -0.342781 1369 -0.025522 0.999674 0.000000
-7.515279 -6.834983 -0.339646 1361 -0.025522 0.999674 0.000000
-7.515084 -6.834806 -0.336507 1361 -0.025522 0.999674 0.000000
-7.515649 -6.835319 -0.333412 1365 -0.025522 0.999674 0.000000
-7.515936 -6.835583 -0.330299 1367 -0.025522 0.999674 0.000000
-7.515961 -6.835598 -0.327179 1367 -0.025522 0.999674 0.000000
-7.515964 -6.835609 -0.324059 1371 -0.025522 0.999674 0.000000
-7.515280 -6.834986 -0.320905 1371 -0.025522 0.999674 0.000000
-7.514978 -6.834703 -0.317768 1371 -0.025522 0.999674 0.000000
-7.515208 -6.834911 -0.314656 1365 -0.025522 0.999674 0.000000
-7.515210 -6.834922 -0.311535 1365 -0.025522 0.999674 0.000000
-7.515285 -6.834987 -0.308415 1363 -0.025522 0.999674 0.000000
-7.518476 -6.833590 -0.705706 1373 -0.025522 0.999674 0.000000
-7.518909 -6.833977 -0.702612 1371 -0.025522 0.999674 0.000000
-7.518959 -6.834024 -0.699481 1371 -0.025522 0.999674 0.000000
-7.518951 -6.834014 -0.696341 1365 -0.025522 0.999674 0.000000
-7.519158 -6.834205 -0.693229 1373 -0.025522 0.999674 0.000000
-7.519208 -6.834252 -0.690098 1365 -0.025522 0.999674 0.000000
-7.518811 -6.833896 -0.686932 1363 -0.025522 0.999674 0.000000
-7.518698 -6.833794 -0.683783 1365 -0.025522 0.999674 0.000000
-7.519009 -6.834076 -0.680680 1369 -0.025522 0.999674 0.000000
-7.519157 -6.834210 -0.677559 1371 -0.025522 0.999674 0.000000
-7.518931 -6.834010 -0.674401 1373 -0.025522 0.999674 0.000000
-7.518540 -6.833646 -0.671234 1367 -0.025522 0.999674 0.000000
-7.519127 -6.834176 -0.668159 1371 -0.025522 0.999674 0.000000
-7.519595 -6.834602 -0.665064 1373 -0.025522 0.999674 0.000000
-7.519042 -6.834104 -0.661879 1375 -0.025522 0.999674 0.000000
-7.518750 -6.833840 -0.658722 1373 -0.025522 0.999674 0.000000
-7.519061 -6.834123 -0.655619 1371 -0.025522 0.999674 0.000000
-7.518932 -6.834009 -0.652470 1369 -0.025522 0.999674 0.000000
-7.518648 -6.833752 -0.649313 1357 -0.025522 0.999674 0.000000
-7.518462 -6.833581 -0.646164 1357 -0.025522 0.999674 0.000000
-7.518724 -6.833814 -0.643062 1369 -0.025522 0.999674 0.000000
-7.518969 -6.834034 -0.639949 1371 -0.025522 0.999674 0.000000
-7.518785 -6.833878 -0.636801 1361 -0.025522 0.999674 0.000000
-7.518826 -6.833905 -0.633671 1365 -0.025522 0.999674 0.000000
-7.519065 -6.834133 -0.630558 1367 -0.025522 0.999674 0.000000
-7.518616 -6.833713 -0.627392 1367 -0.025522 0.999674 0.000000
-7.518424 -6.833550 -0.624244 1363 -0.025522 0.999674 0.000000
-7.519101 -6.834162 -0.621168 1359 -0.025522 0.999674 0.000000
-7.519404 -6.834438 -0.618055 1377 -0.025522 0.999674 0.000000
-7.519437 -6.834459 -0.614925 1381 -0.025522 0.999674 0.000000
-7.519138 -6.834190 -0.611777 1369 -0.025522 0.999674 0.000000
-7.518455 -6.833580 -0.608593 1369 -0.025522 0.999674 0.000000
-7.518269 -6.833410 -0.605445 1369 -0.025522 0.999674 0.000000
-7.518515 -6.833630 -0.602333 1359 -0.025522 0.999674 0.000000
-7.519234 -6.834286 -0.599256 1365 -0.025522 0.999674 0.000000
-7.519154 -6.834208 -0.596117 1365 -0.025522 0.999674 0.000000
-7.518585 -6.833697 -0.592942 1361 -0.025522 0.999674 0.000000
-7.518446 -6.833563 -0.589803 1361 -0.025522 0.999674 0.000000
-7.518734 -6.833828 -0.586700 1363 -0.025522 0.999674 0.000000
-7.519306 -6.834346 -0.583605 1367 -0.025522 0.999674 0.000000
-7.519209 -6.834256 -0.580476 1361 -0.025522 0.999674 0.000000
-7.519236 -6.834285 -0.577345 1373 -0.025522 0.999674 0.000000
-7.519252 -6.834294 -0.574215 1371 -0.025522 0.999674 0.000000
-7.519484 -6.834516 -0.571103 1379 -0.025522 0.999674 0.000000
-7.519076 -6.834140 -0.567937 1361 -0.025522 0.999674 0.000000
-7.518816 -6.833901 -0.564789 1361 -0.025522 0.999674 0.000000
-7.519054 -6.834116 -0.561677 1363 -0.025522 0.999674 0.000000
-7.519286 -6.834338 -0.558564 1367 -0.025522 0.999674 0.000000
-7.519726 -6.834731 -0.555470 1369 -0.025522 0.999674 0.000000
-7.519638 -6.834648 -0.552331 1361 -0.025522 0.999674 0.000000
-7.519754 -6.834757 -0.549210 1363 -0.025522 0.999674 0.000000
-7.519714 -6.834723 -0.546080 1371 -0.025522 0.999674 0.000000
-7.519136 -6.834192 -0.542916 1363 -0.025522 0.999674 0.000000
-7.518812 -6.833905 -0.539759 1361 -0.025522 0.999674 0.000000
-7.518724 -6.833822 -0.536629 1367 -0.025522 0.999674 0.000000
-7.518954 -6.834030 -0.533517 1371 -0.025522 0.999674 0.000000
-7.518962 -6.834033 -0.530387 1363 -0.025522 0.999674 0.000000
-7.519674 -6.834682 -0.527300 1369 -0.025522 0.999674 0.000000
-7.520116 -6.835089 -0.524206 1369 -0.025522 0.999674 0.000000
-7.520280 -6.835235 -0.521084 1361 -0.025522 0.999674 0.000000
-7.520396 -6.835344 -0.517963 1359 -0.025522 0.999674 0.000000
-7.519810 -6.834808 -0.514799 1365 -0.025522 0.999674 0.000000
-7.519542 -6.834563 -0.511651 1355 -0.025522 0.999674 0.000000
-7.519764 -6.834765 -0.508539 1355 -0.025522 0.999674 0.000000
-7.519872 -6.834868 -0.505418 1357 -0.025522 0.999674 0.000000
-7.519654 -6.834674 -0.502280 1353 -0.025522 0.999674 0.000000
-7.520095 -6.835068 -0.499176 1363 -0.025522 0.999674 0.000000
-7.519990 -6.834971 -0.496046 1359 -0.025522 0.999674 0.000000
-7.519935 -6.834926 -0.492917 1355 -0.025522 0.999674 0.000000
-7.520091 -6.835066 -0.489795 1361 -0.025522 0.999674 0.000000
-7.519873 -6.834871 -0.486657 1363 -0.025522 0.999674 0.000000
-7.519492 -6.834527 -0.483501 1355 -0.025522 0.999674 0.000000
-7.519118 -6.834190 -0.480354 1353 -0.025522 0.999674 0.000000
-7.518948 -6.834032 -0.477216 1363 -0.025522 0.999674 0.000000
-7.518893 -6.833987 -0.474086 1357 -0.025522 0.999674 0.000000
-7.518885 -6.833977 -0.470956 1357 -0.025522 0.999674 0.000000
-7.519050 -6.834123 -0.467845 1363 -0.025522 0.999674 0.000000
-7.519418 -6.834462 -0.464731 1371 -0.025522 0.999674 0.000000
-7.519625 -6.834652 -0.461619 1369 -0.025522 0.999674 0.000000
-7.519894 -6.834890 -0.458507 1373 -0.025522 0.999674 0.000000
-7.520107 -6.835086 -0.455394 1369 -0.025522 0.999674 0.000000
-7.519816 -6.834824 -0.452257 1373 -0.025522 0.999674 0.000000
-7.519427 -6.834474 -0.449101 1371 -0.025522 0.999674 0.000000
-7.519264 -6.834321 -0.445972 1365 -0.025522 0.999674 0.000000
-7.519249 -6.834306 -0.442842 1357 -0.025522 0.999674 0.000000
-7.519674 -6.834688 -0.439738 1365 -0.025522 0.999674 0.000000
-7.520042 -6.835027 -0.436635 1369 -0.025522 0.999674 0.000000
-7.520134 -6.835118 -0.433514 1369 -0.025522 0.999674 0.000000
-7.519794 -6.834805 -0.430367 1363 -0.025522 0.999674 0.000000
-7.519566 -6.834590 -0.427229 1367 -0.025522 0.999674 0.000000
-7.519772 -6.834781 -0.424117 1377 -0.025522 0.999674 0.000000
-7.519912 -6.834908 -0.420995 1371 -0.025522 0.999674 0.000000
-7.519578 -6.834600 -0.417848 1369 -0.025522 0.999674 0.000000
-7.519767 -6.834778 -0.414737 1363 -0.025522 0.999674 0.000000
-7.519973 -6.834969 -0.411625 1373 -0.025522 0.999674 0.000000
-7.519460 -6.834500 -0.408469 1365 -0.025522 0.999674 0.000000
-7.519283 -6.834336 -0.405341 1363 -0.025522 0.999674 0.000000
-7.519593 -6.834619 -0.402228 1365 -0.025522 0.999674 0.000000
-7.519889 -6.834889 -0.399115 1363 -0.025522 0.999674 0.000000
-7.519924 -6.834924 -0.395995 1373 -0.025522 0.999674 0.000000
-7.519687 -6.834703 -0.392857 1375 -0.025522 0.999674 0.000000
-7.519558 -6.834590 -0.389728 1363 -0.025522 0.999674 0.000000
-7.520017 -6.835009 -0.386624 1367 -0.025522 0.999674 0.000000
-7.520533 -6.835485 -0.383519 1377 -0.025522 0.999674 0.000000
-7.520184 -6.835166 -0.380382 1367 -0.025522 0.999674 0.000000
-7.520153 -6.835138 -0.377252 1369 -0.025522 0.999674 0.000000
-7.520243 -6.835216 -0.374131 1363 -0.025522 0.999674 0.000000
-7.519894 -6.834896 -0.370994 1361 -0.025522 0.999674 0.000000
-7.520076 -6.835068 -0.367873 1369 -0.025522 0.999674 0.000000
-7.520158 -6.835140 -0.364752 1361 -0.025522 0.999674 0.000000
-7.520340 -6.835311 -0.361640 1355 -0.025522 0.999674 0.000000
-7.520586 -6.835532 -0.358528 1367 -0.025522 0.999674 0.000000
-7.520937 -6.835845 -0.355414 1379 -0.025522 0.999674 0.000000
-7.521069 -6.835966 -0.352303 1379 -0.025522 0.999674 0.000000
