774
-7.594922 -7.158281 -0.625202 257 -0.404632 0.914480 0.000000
-7.595962 -7.159267 -0.622072 281 -0.404632 0.914480 0.000000
-7.596679 -7.159937 -0.618915 285 -0.404632 0.914480 0.000000
-7.595963 -7.159260 -0.615642 279 -0.404632 0.914480 0.000000
-7.594879 -7.158244 -0.612342 273 -0.404632 0.914480 0.000000
-7.594424 -7.157818 -0.609086 287 -0.404632 0.914480 0.000000
-7.594990 -7.158339 -0.605911 301 -0.404632 0.914480 0.000000
-7.595700 -7.159017 -0.602754 319 -0.404632 0.914480 0.000000
-7.595408 -7.158737 -0.599517 313 -0.404632 0.914480 0.000000
-7.594788 -7.158151 -0.596253 309 -0.404632 0.914480 0.000000
-7.595506 -7.158835 -0.593096 315 -0.404632 0.914480 0.000000
-7.596324 -7.159602 -0.589938 309 -0.404632 0.914480 0.000000
-7.595177 -7.158521 -0.586639 295 -0.404632 0.914480 0.000000
-7.595098 -7.158440 -0.583420 303 -0.404632 0.914480 0.000000
-7.596493 -7.159766 -0.580306 283 -0.404632 0.914480 0.000000
-7.596729 -7.159981 -0.577104 269 -0.404632 0.914480 0.000000
-7.595306 -7.158650 -0.573787 267 -0.404632 0.914480 0.000000
-7.594960 -7.158312 -0.570550 279 -0.404632 0.914480 0.000000
-7.595984 -7.159285 -0.567411 277 -0.404632 0.914480 0.000000
-7.595844 -7.159154 -0.564182 277 -0.404632 0.914480 0.000000
-7.595647 -7.158965 -0.560954 267 -0.404632 0.914480 0.000000
-7.596191 -7.159482 -0.557779 273 -0.404632 0.914480 0.000000
-7.596530 -7.159792 -0.554585 281 -0.404632 0.914480 0.000000
-7.596116 -7.159412 -0.551349 291 -0.404632 0.914480 0.000000
-7.597619 -7.160826 -0.548235 291 -0.404632 0.914480 0.000000
-7.597736 -7.160931 -0.545034 301 -0.404632 0.914480 0.000000
-7.596582 -7.159845 -0.541735 319 -0.404632 0.914480 0.000000
-7.596221 -7.159508 -0.538498 327 -0.404632 0.914480 0.000000
-7.596662 -7.159915 -0.535314 335 -0.404632 0.914480 0.000000
-7.596183 -7.159470 -0.532068 333 -0.404632 0.914480 0.000000
-7.594705 -7.158082 -0.528752 331 -0.404632 0.914480 0.000000
-7.595248 -7.158584 -0.525577 329 -0.404632 0.914480 0.000000
-7.596642 -7.159897 -0.522454 329 -0.404632 0.914480 0.000000
-7.596799 -7.160047 -0.519252 335 -0.404632 0.914480 0.000000
-7.597022 -7.160263 -0.516060 335 -0.404632 0.914480 0.000000
-7.595905 -7.159207 -0.512770 349 -0.404632 0.914480 0.000000
-7.595647 -7.158968 -0.509543 343 -0.404632 0.914480 0.000000
-7.596504 -7.159766 -0.506384 341 -0.404632 0.914480 0.000000
-7.595655 -7.158967 -0.503112 341 -0.404632 0.914480 0.000000
-7.595923 -7.159221 -0.499920 349 -0.404632 0.914480 0.000000
-7.596294 -7.159571 -0.496736 347 -0.404632 0.914480 0.000000
-7.595768 -7.159073 -0.493481 353 -0.404632 0.914480 0.000000
-7.595550 -7.158879 -0.490263 357 -0.404632 0.914480 0.000000
-7.596187 -7.159472 -0.487087 331 -0.404632 0.914480 0.000000
-7.595922 -7.159226 -0.483859 325 -0.404632 0.914480 0.000000
-7.596456 -7.159722 -0.480684 313 -0.404632 0.914480 0.000000
-7.597149 -7.160373 -0.477508 321 -0.404632 0.914480 0.000000
-7.596333 -7.159614 -0.474245 313 -0.404632 0.914480 0.000000
-7.595169 -7.158507 -0.470966 323 -0.404632 0.914480 0.000000
-7.595005 -7.158357 -0.467748 323 -0.404632 0.914480 0.000000
-7.596430 -7.159708 -0.464614 339 -0.404632 0.914480 0.000000
-7.597060 -7.160295 -0.461448 339 -0.404632 0.914480 0.000000
-7.596794 -7.160048 -0.458221 331 -0.404632 0.914480 0.000000
-7.597533 -7.160737 -0.455044 343 -0.404632 0.914480 0.000000
-7.597835 -7.161030 -0.451851 329 -0.404632 0.914480 0.000000
-7.598259 -7.161425 -0.448667 331 -0.404632 0.914480 0.000000
-7.597025 -7.160260 -0.445378 325 -0.404632 0.914480 0.000000
-7.595468 -7.158794 -0.442083 303 -0.404632 0.914480 0.000000
-7.596044 -7.159337 -0.438907 307 -0.404632 0.914480 0.000000
-7.597467 -7.160674 -0.435774 311 -0.404632 0.914480 0.000000
-7.598147 -7.161326 -0.432597 315 -0.404632 0.914480 0.000000
-7.596109 -7.159405 -0.429276 301 -0.404632 0.914480 0.000000
-7.595882 -7.159191 -0.426058 307 -0.404632 0.914480 0.000000
-7.596032 -7.159321 -0.422847 335 -0.404632 0.914480 0.000000
-7.596223 -7.159512 -0.419655 321 -0.404632 0.914480 0.000000
-7.596900 -7.160150 -0.416479 319 -0.404632 0.914480 0.000000
-7.595925 -7.159223 -0.413218 321 -0.404632 0.914480 0.000000
-7.596815 -7.160059 -0.410049 309 -0.404632 0.914480 0.000000
-7.597540 -7.160750 -0.406882 319 -0.404632 0.914480 0.000000
-7.596990 -7.160234 -0.403637 305 -0.404632 0.914480 0.000000
-7.597763 -7.160963 -0.400470 289 -0.404632 0.914480 0.000000
-7.597535 -7.160748 -0.397242 291 -0.404632 0.914480 0.000000
-7.597040 -7.160276 -0.394007 293 -0.404632 0.914480 0.000000
-7.597434 -7.160645 -0.390823 297 -0.404632 0.914480 0.000000
-7.596885 -7.160129 -0.387578 293 -0.404632 0.914480 0.000000
-7.596279 -7.159554 -0.384344 265 -0.404632 0.914480 0.000000
-7.596619 -7.159880 -0.381150 273 -0.404632 0.914480 0.000000
-7.597501 -7.160710 -0.377982 281 -0.404632 0.914480 0.000000
-7.598595 -7.161740 -0.374822 297 -0.404632 0.914480 0.000000
-7.597826 -7.161019 -0.371579 279 -0.404632 0.914480 0.000000
-7.596678 -7.159938 -0.368310 287 -0.404632 0.914480 0.000000
-7.597716 -7.160909 -0.365150 317 -0.404632 0.914480 0.000000
-7.598063 -7.161240 -0.361956 309 -0.404632 0.914480 0.000000
-7.597287 -7.160513 -0.358714 313 -0.404632 0.914480 0.000000
-7.597412 -7.160625 -0.355512 317 -0.404632 0.914480 0.000000
-7.598082 -7.161257 -0.352326 327 -0.404632 0.914480 0.000000
-7.598366 -7.161523 -0.349133 319 -0.404632 0.914480 0.000000
-7.598225 -7.161392 -0.345915 289 -0.404632 0.914480 0.000000
-7.598031 -7.161216 -0.342696 283 -0.404632 0.914480 0.000000
-7.597362 -7.160577 -0.339463 287 -0.404632 0.914480 0.000000
-7.597221 -7.160447 -0.336244 301 -0.404632 0.914480 0.000000
-7.597718 -7.160911 -0.333059 295 -0.404632 0.914480 0.000000
-7.598750 -7.161891 -0.329889 309 -0.404632 0.914480 0.000000
-7.597697 -7.160900 -0.326639 287 -0.404632 0.914480 0.000000
-7.596966 -7.160210 -0.323396 267 -0.404632 0.914480 0.000000
-7.598415 -7.161581 -0.320252 273 -0.404632 0.914480 0.000000
-7.597856 -7.161044 -0.317017 261 -0.404632 0.914480 0.000000
-7.597329 -7.160546 -0.313782 269 -0.404632 0.914480 0.000000
-7.597992 -7.161173 -0.310606 263 -0.404632 0.914480 0.000000
-7.597678 -7.160874 -0.307379 255 -0.404632 0.914480 0.000000
-7.597365 -7.160590 -0.304162 267 -0.404632 0.914480 0.000000
-7.597319 -7.160549 -0.300952 253 -0.404632 0.914480 0.000000
-7.597335 -7.160558 -0.297742 251 -0.404632 0.914480 0.000000
-7.604475 -7.162892 -0.703096 307 -0.404632 0.914480 0.000000
-7.604838 -7.163236 -0.699903 321 -0.404632 0.914480 0.000000
-7.605201 -7.163580 -0.696719 327 -0.404632 0.914480 0.000000
-7.605194 -7.163569 -0.693489 325 -0.404632 0.914480 0.000000
-7.603803 -7.162265 -0.690152 305 -0.404632 0.914480 0.000000
-7.602993 -7.161498 -0.686860 303 -0.404632 0.914480 0.000000
-7.604260 -7.162694 -0.683748 299 -0.404632 0.914480 0.000000
-7.605220 -7.163589 -0.680609 285 -0.404632 0.914480 0.000000
-7.605521 -7.163882 -0.677416 279 -0.404632 0.914480 0.000000
-7.605143 -7.163519 -0.674159 259 -0.404632 0.914480 0.000000
-7.605450 -7.163804 -0.670966 263 -0.404632 0.914480 0.000000
-7.606703 -7.164989 -0.667844 271 -0.404632 0.914480 0.000000
-7.605839 -7.164177 -0.664552 275 -0.404632 0.914480 0.000000
-7.604022 -7.162461 -0.661179 269 -0.404632 0.914480 0.000000
-7.604014 -7.162451 -0.657959 279 -0.404632 0.914480 0.000000
-7.605054 -7.163436 -0.654820 271 -0.404632 0.914480 0.000000
-7.604505 -7.162920 -0.651555 265 -0.404632 0.914480 0.000000
-7.603899 -7.162346 -0.648290 283 -0.404632 0.914480 0.000000
-7.604356 -7.162779 -0.645106 295 -0.404632 0.914480 0.000000
-7.605459 -7.163815 -0.641976 277 -0.404632 0.914480 0.000000
-7.605964 -7.164301 -0.638801 287 -0.404632 0.914480 0.000000
-7.605154 -7.163534 -0.635508 285 -0.404632 0.914480 0.000000
-7.604179 -7.162606 -0.632207 261 -0.404632 0.914480 0.000000
-7.604684 -7.163092 -0.629032 255 -0.404632 0.914480 0.000000
-7.605187 -7.163563 -0.625858 263 -0.404632 0.914480 0.000000
-7.605220 -7.163598 -0.622637 275 -0.404632 0.914480 0.000000
-7.605300 -7.163673 -0.619426 287 -0.404632 0.914480 0.000000
-7.604482 -7.162899 -0.616144 289 -0.404632 0.914480 0.000000
-7.605255 -7.163628 -0.612987 283 -0.404632 0.914480 0.000000
-7.605389 -7.163746 -0.609775 301 -0.404632 0.914480 0.000000
-7.605626 -7.163974 -0.606573 321 -0.404632 0.914480 0.000000
-7.605650 -7.164003 -0.603353 319 -0.404632 0.914480 0.000000
-7.604401 -7.162827 -0.600044 283 -0.404632 0.914480 0.000000
-7.605974 -7.164298 -0.596940 277 -0.404632 0.914480 0.000000
-7.605944 -7.164270 -0.593720 299 -0.404632 0.914480 0.000000
-7.605220 -7.163586 -0.590447 309 -0.404632 0.914480 0.000000
-7.606204 -7.164513 -0.587307 313 -0.404632 0.914480 0.000000
-7.605475 -7.163838 -0.584034 321 -0.404632 0.914480 0.000000
-7.604217 -7.162654 -0.580716 315 -0.404632 0.914480 0.000000
-7.604391 -7.162818 -0.577514 309 -0.404632 0.914480 0.000000
-7.604949 -7.163334 -0.574339 315 -0.404632 0.914480 0.000000
-7.604856 -7.163255 -0.571109 313 -0.404632 0.914480 0.000000
-7.605093 -7.163469 -0.567917 317 -0.404632 0.914480 0.000000
-7.606070 -7.164390 -0.564768 319 -0.404632 0.914480 0.000000
-7.606557 -7.164848 -0.561583 323 -0.404632 0.914480 0.000000
-7.606629 -7.164916 -0.558373 309 -0.404632 0.914480 0.000000
-7.606268 -7.164579 -0.555126 313 -0.404632 0.914480 0.000000
-7.605169 -7.163550 -0.551836 311 -0.404632 0.914480 0.000000
-7.604973 -7.163361 -0.548598 315 -0.404632 0.914480 0.000000
-7.604234 -7.162665 -0.545335 309 -0.404632 0.914480 0.000000
-7.604298 -7.162726 -0.542124 313 -0.404632 0.914480 0.000000
-7.604150 -7.162589 -0.538895 335 -0.404632 0.914480 0.000000
-7.604960 -7.163349 -0.535738 341 -0.404632 0.914480 0.000000
-7.605661 -7.164006 -0.532561 347 -0.404632 0.914480 0.000000
-7.605513 -7.163869 -0.529342 349 -0.404632 0.914480 0.000000
-7.607008 -7.165277 -0.526218 343 -0.404632 0.914480 0.000000
-7.606640 -7.164935 -0.522982 357 -0.404632 0.914480 0.000000
-7.605902 -7.164239 -0.519718 351 -0.404632 0.914480 0.000000
-7.605698 -7.164042 -0.516490 321 -0.404632 0.914480 0.000000
-7.605761 -7.164104 -0.513270 345 -0.404632 0.914480 0.000000
-7.606454 -7.164754 -0.510103 363 -0.404632 0.914480 0.000000
-7.606400 -7.164708 -0.506884 351 -0.404632 0.914480 0.000000
-7.605984 -7.164313 -0.503637 363 -0.404632 0.914480 0.000000
-7.605348 -7.163713 -0.500383 343 -0.404632 0.914480 0.000000
-7.604924 -7.163312 -0.497137 329 -0.404632 0.914480 0.000000
-7.606097 -7.164419 -0.493996 349 -0.404632 0.914480 0.000000
-7.606782 -7.165064 -0.490829 365 -0.404632 0.914480 0.000000
-7.605350 -7.163713 -0.487523 335 -0.404632 0.914480 0.000000
-7.604714 -7.163114 -0.484269 333 -0.404632 0.914480 0.000000
-7.605880 -7.164215 -0.481128 337 -0.404632 0.914480 0.000000
-7.606305 -7.164608 -0.477934 329 -0.404632 0.914480 0.000000
-7.605607 -7.163958 -0.474680 323 -0.404632 0.914480 0.000000
-7.606032 -7.164352 -0.471486 341 -0.404632 0.914480 0.000000
-7.606292 -7.164599 -0.468284 331 -0.404632 0.914480 0.000000
-7.605806 -7.164148 -0.465048 327 -0.404632 0.914480 0.000000
-7.605641 -7.163984 -0.461820 345 -0.404632 0.914480 0.000000
-7.605847 -7.164187 -0.458618 345 -0.404632 0.914480 0.000000
-7.606422 -7.164729 -0.455432 349 -0.404632 0.914480 0.000000
-7.606848 -7.165124 -0.452248 345 -0.404632 0.914480 0.000000
-7.606354 -7.164666 -0.449003 339 -0.404632 0.914480 0.000000
-7.606503 -7.164796 -0.445801 317 -0.404632 0.914480 0.000000
-7.606592 -7.164891 -0.442590 305 -0.404632 0.914480 0.000000
-7.606222 -7.164534 -0.439354 307 -0.404632 0.914480 0.000000
-7.605562 -7.163915 -0.436100 335 -0.404632 0.914480 0.000000
-7.605452 -7.163809 -0.432881 335 -0.404632 0.914480 0.000000
-7.605486 -7.163846 -0.429670 305 -0.404632 0.914480 0.000000
-7.606273 -7.164586 -0.426503 325 -0.404632 0.914480 0.000000
-7.606470 -7.164769 -0.423291 317 -0.404632 0.914480 0.000000
-7.605977 -7.164312 -0.420055 327 -0.404632 0.914480 0.000000
-7.606228 -7.164538 -0.416853 333 -0.404632 0.914480 0.000000
-7.606158 -7.164478 -0.413634 293 -0.404632 0.914480 0.000000
-7.607102 -7.165359 -0.410475 285 -0.404632 0.914480 0.000000
-7.606656 -7.164939 -0.407239 297 -0.404632 0.914480 0.000000
-7.605831 -7.164174 -0.403976 307 -0.404632 0.914480 0.000000
-7.605816 -7.164158 -0.400766 297 -0.404632 0.914480 0.000000
-7.604990 -7.163378 -0.397514 319 -0.404632 0.914480 0.000000
-7.605771 -7.164113 -0.394337 313 -0.404632 0.914480 0.000000
-7.605536 -7.163892 -0.391109 315 -0.404632 0.914480 0.000000
-7.605725 -7.164069 -0.387907 311 -0.404632 0.914480 0.000000
-7.607882 -7.166106 -0.384797 291 -0.404632 0.914480 0.000000
-7.608503 -7.166686 -0.381621 307 -0.404632 0.914480 0.000000
-7.606932 -7.165208 -0.378325 297 -0.404632 0.914480 0.000000
-7.606799 -7.165083 -0.375107 277 -0.404632 0.914480 0.000000
-7.607193 -7.165452 -0.371913 291 -0.404632 0.914480 0.000000
-7.606109 -7.164435 -0.368653 299 -0.404632 0.914480 0.000000
-7.607147 -7.165407 -0.365483 313 -0.404632 0.914480 0.000000
-7.607967 -7.166187 -0.362315 311 -0.404632 0.914480 0.000000
-7.607244 -7.165504 -0.359062 313 -0.404632 0.914480 0.000000
-7.606521 -7.164821 -0.355819 307 -0.404632 0.914480 0.000000
-7.606066 -7.164395 -0.352583 315 -0.404632 0.914480 0.000000
-7.606350 -7.164661 -0.349390 313 -0.404632 0.914480 0.000000
-7.607758 -7.165986 -0.346237 307 -0.404632 0.914480 0.000000
-7.608262 -7.166457 -0.343042 297 -0.404632 0.914480 0.000000
-7.606471 -7.164774 -0.339759 301 -0.404632 0.914480 0.000000
-7.606117 -7.164444 -0.336532 309 -0.404632 0.914480 0.000000
-7.606771 -7.165063 -0.333346 303 -0.404632 0.914480 0.000000
-7.607432 -7.165676 -0.330160 285 -0.404632 0.914480 0.000000
-7.608087 -7.166295 -0.326973 305 -0.404632 0.914480 0.000000
-7.607458 -7.165701 -0.323739 303 -0.404632 0.914480 0.000000
-7.607749 -7.165974 -0.320536 273 -0.404632 0.914480 0.000000
-7.608876 -7.167043 -0.317366 255 -0.404632 0.914480 0.000000
-7.608420 -7.166603 -0.314140 273 -0.404632 0.914480 0.000000
-7.607729 -7.165959 -0.310896 277 -0.404632 0.914480 0.000000
-7.608335 -7.166526 -0.307711 277 -0.404632 0.914480 0.000000
-7.608714 -7.166883 -0.304507 281 -0.404632 0.914480 0.000000
-7.608353 -7.166546 -0.301280 263 -0.404632 0.914480 0.000000
-7.608259 -7.166453 -0.298071 283 -0.404632 0.914480 0.000000
-7.612286 -7.166200 -0.703623 343 -0.404632 0.914480 0.000000
-7.612704 -7.166601 -0.700429 337 -0.404632 0.914480 0.000000
-7.614027 -7.167842 -0.697327 343 -0.404632 0.914480 0.000000
-7.614978 -7.168730 -0.694188 343 -0.404632 0.914480 0.000000
-7.613737 -7.167573 -0.690849 307 -0.404632 0.914480 0.000000
-7.612195 -7.166120 -0.687494 301 -0.404632 0.914480 0.000000
-7.612393 -7.166303 -0.684282 301 -0.404632 0.914480 0.000000
-7.612331 -7.166248 -0.681052 301 -0.404632 0.914480 0.000000
-7.612584 -7.166490 -0.677850 291 -0.404632 0.914480 0.000000
-7.613316 -7.167172 -0.674693 299 -0.404632 0.914480 0.000000
-7.613419 -7.167265 -0.671482 299 -0.404632 0.914480 0.000000
-7.613129 -7.167000 -0.668224 289 -0.404632 0.914480 0.000000
-7.613759 -7.167586 -0.665058 265 -0.404632 0.914480 0.000000
-7.613854 -7.167673 -0.661847 287 -0.404632 0.914480 0.000000
-7.612989 -7.166862 -0.658545 291 -0.404632 0.914480 0.000000
-7.612165 -7.166096 -0.655253 273 -0.404632 0.914480 0.000000
-7.611890 -7.165829 -0.652006 269 -0.404632 0.914480 0.000000
-7.612828 -7.166718 -0.648867 285 -0.404632 0.914480 0.000000
-7.612915 -7.166799 -0.645646 271 -0.404632 0.914480 0.000000
-7.612097 -7.166025 -0.642353 245 -0.404632 0.914480 0.000000
-7.612302 -7.166214 -0.639151 277 -0.404632 0.914480 0.000000
-7.613232 -7.167098 -0.636003 277 -0.404632 0.914480 0.000000
-7.614279 -7.168076 -0.632873 269 -0.404632 0.914480 0.000000
-7.613934 -7.167751 -0.629616 277 -0.404632 0.914480 0.000000
-7.613171 -7.167036 -0.626333 265 -0.404632 0.914480 0.000000
-7.612024 -7.165956 -0.623024 257 -0.404632 0.914480 0.000000
-7.613864 -7.167684 -0.619946 281 -0.404632 0.914480 0.000000
-7.614794 -7.168567 -0.616797 291 -0.404632 0.914480 0.000000
-7.613717 -7.167543 -0.613488 291 -0.404632 0.914480 0.000000
-7.613788 -7.167610 -0.610277 313 -0.404632 0.914480 0.000000
-7.613019 -7.166889 -0.606994 313 -0.404632 0.914480 0.000000
-7.612666 -7.166559 -0.603747 307 -0.404632 0.914480 0.000000
-7.613650 -7.167486 -0.600598 293 -0.404632 0.914480 0.000000
-7.613415 -7.167265 -0.597360 305 -0.404632 0.914480 0.000000
-7.612740 -7.166634 -0.594086 313 -0.404632 0.914480 0.000000
-7.612449 -7.166355 -0.590839 313 -0.404632 0.914480 0.000000
-7.613062 -7.166928 -0.587673 309 -0.404632 0.914480 0.000000
-7.613820 -7.167645 -0.584506 321 -0.404632 0.914480 0.000000
-7.613898 -7.167718 -0.581285 325 -0.404632 0.914480 0.000000
-7.614553 -7.168338 -0.578119 319 -0.404632 0.914480 0.000000
-7.613672 -7.167500 -0.574827 307 -0.404632 0.914480 0.000000
-7.613531 -7.167369 -0.571598 313 -0.404632 0.914480 0.000000
-7.614555 -7.168341 -0.568459 323 -0.404632 0.914480 0.000000
-7.615154 -7.168902 -0.565283 337 -0.404632 0.914480 0.000000
-7.614533 -7.168315 -0.562009 317 -0.404632 0.914480 0.000000
-7.612905 -7.166779 -0.558674 313 -0.404632 0.914480 0.000000
-7.613025 -7.166899 -0.555463 309 -0.404632 0.914480 0.000000
-7.613836 -7.167659 -0.552305 309 -0.404632 0.914480 0.000000
-7.613317 -7.167167 -0.549050 307 -0.404632 0.914480 0.000000
-7.612902 -7.166787 -0.545794 325 -0.404632 0.914480 0.000000
-7.612754 -7.166649 -0.542565 309 -0.404632 0.914480 0.000000
-7.612448 -7.166358 -0.539328 307 -0.404632 0.914480 0.000000
-7.613156 -7.167021 -0.536161 317 -0.404632 0.914480 0.000000
-7.614219 -7.168025 -0.533011 333 -0.404632 0.914480 0.000000
-7.613542 -7.167379 -0.529747 327 -0.404632 0.914480 0.000000
-7.613230 -7.167095 -0.526510 319 -0.404632 0.914480 0.000000
-7.614568 -7.168349 -0.523377 333 -0.404632 0.914480 0.000000
-7.615269 -7.169007 -0.520201 337 -0.404632 0.914480 0.000000
-7.613625 -7.167458 -0.516876 313 -0.404632 0.914480 0.000000
-7.614161 -7.167968 -0.513691 337 -0.404632 0.914480 0.000000
-7.614751 -7.168523 -0.510515 349 -0.404632 0.914480 0.000000
-7.613423 -7.167269 -0.507208 351 -0.404632 0.914480 0.000000
-7.613274 -7.167131 -0.503979 347 -0.404632 0.914480 0.000000
-7.613699 -7.167525 -0.500785 331 -0.404632 0.914480 0.000000
-7.613592 -7.167434 -0.497566 341 -0.404632 0.914480 0.000000
-7.613009 -7.166878 -0.494311 359 -0.404632 0.914480 0.000000
-7.613648 -7.167485 -0.491135 363 -0.404632 0.914480 0.000000
-7.614231 -7.168034 -0.487950 351 -0.404632 0.914480 0.000000
-7.613217 -7.167074 -0.484669 349 -0.404632 0.914480 0.000000
-7.612416 -7.166328 -0.481407 329 -0.404632 0.914480 0.000000
-7.613423 -7.167274 -0.478247 325 -0.404632 0.914480 0.000000
-7.613110 -7.166975 -0.475010 321 -0.404632 0.914480 0.000000
-7.613048 -7.166922 -0.471790 335 -0.404632 0.914480 0.000000
-7.614213 -7.168023 -0.468639 333 -0.404632 0.914480 0.000000
-7.614480 -7.168262 -0.465437 333 -0.404632 0.914480 0.000000
-7.613191 -7.167053 -0.462149 331 -0.404632 0.914480 0.000000
-7.612657 -7.166550 -0.458894 329 -0.404632 0.914480 0.000000
-7.613713 -7.167548 -0.455744 325 -0.404632 0.914480 0.000000
-7.612801 -7.166685 -0.452472 317 -0.404632 0.914480 0.000000
-7.612849 -7.166733 -0.449262 311 -0.404632 0.914480 0.000000
-7.614486 -7.168269 -0.446136 315 -0.404632 0.914480 0.000000
-7.613944 -7.167759 -0.442891 325 -0.404632 0.914480 0.000000
-7.612655 -7.166551 -0.439603 331 -0.404632 0.914480 0.000000
-7.613435 -7.167285 -0.436426 327 -0.404632 0.914480 0.000000
-7.614277 -7.168071 -0.433258 331 -0.404632 0.914480 0.000000
-7.614427 -7.168216 -0.430047 323 -0.404632 0.914480 0.000000
-7.614782 -7.168552 -0.426853 329 -0.404632 0.914480 0.000000
-7.614665 -7.168440 -0.423624 333 -0.404632 0.914480 0.000000
-7.614540 -7.168322 -0.420405 329 -0.404632 0.914480 0.000000
-7.615053 -7.168814 -0.417220 309 -0.404632 0.914480 0.000000
-7.614928 -7.168695 -0.413991 311 -0.404632 0.914480 0.000000
-7.614489 -7.168282 -0.410756 305 -0.404632 0.914480 0.000000
-7.614205 -7.168008 -0.407518 299 -0.404632 0.914480 0.000000
-7.615088 -7.168839 -0.404350 317 -0.404632 0.914480 0.000000
-7.615923 -7.169632 -0.401182 327 -0.404632 0.914480 0.000000
-7.614413 -7.168205 -0.397886 317 -0.404632 0.914480 0.000000
-7.613855 -7.167682 -0.394641 309 -0.404632 0.914480 0.000000
-7.614045 -7.167859 -0.391439 313 -0.404632 0.914480 0.000000
-7.614400 -7.168196 -0.388236 307 -0.404632 0.914480 0.000000
-7.614692 -7.168468 -0.385033 317 -0.404632 0.914480 0.000000
-7.614992 -7.168747 -0.381830 305 -0.404632 0.914480 0.000000
-7.615338 -7.169078 -0.378637 297 -0.404632 0.914480 0.000000
-7.613657 -7.167497 -0.375342 293 -0.404632 0.914480 0.000000
-7.613736 -7.167572 -0.372132 291 -0.404632 0.914480 0.000000
-7.614728 -7.168505 -0.368962 295 -0.404632 0.914480 0.000000
-7.614649 -7.168424 -0.365743 315 -0.404632 0.914480 0.000000
-7.614830 -7.168594 -0.362531 315 -0.404632 0.914480 0.000000
-7.614432 -7.168226 -0.359305 311 -0.404632 0.914480 0.000000
-7.614818 -7.168589 -0.356101 305 -0.404632 0.914480 0.000000
-7.615652 -7.169368 -0.352923 309 -0.404632 0.914480 0.000000
-7.615669 -7.169391 -0.349713 323 -0.404632 0.914480 0.000000
-7.614254 -7.168053 -0.346436 305 -0.404632 0.914480 0.000000
-7.614484 -7.168275 -0.343224 303 -0.404632 0.914480 0.000000
-7.615892 -7.169600 -0.340071 301 -0.404632 0.914480 0.000000
-7.616018 -7.169711 -0.336859 301 -0.404632 0.914480 0.000000
-7.615878 -7.169580 -0.333641 307 -0.404632 0.914480 0.000000
-7.616107 -7.169802 -0.330438 301 -0.404632 0.914480 0.000000
-7.616179 -7.169870 -0.327228 293 -0.404632 0.914480 0.000000
-7.614967 -7.168725 -0.323959 289 -0.404632 0.914480 0.000000
-7.615087 -7.168844 -0.320748 277 -0.404632 0.914480 0.000000
-7.615953 -7.169662 -0.317570 297 -0.404632 0.914480 0.000000
-7.615121 -7.168877 -0.314327 285 -0.404632 0.914480 0.000000
-7.614965 -7.168733 -0.311099 289 -0.404632 0.914480 0.000000
-7.615673 -7.169396 -0.307912 301 -0.404632 0.914480 0.000000
-7.616114 -7.169803 -0.304718 287 -0.404632 0.914480 0.000000
-7.616657 -7.170320 -0.301523 275 -0.404632 0.914480 0.000000
-7.616139 -7.169829 -0.298287 293 -0.404632 0.914480 0.000000
-7.620404 -7.169809 -0.704177 337 -0.404632 0.914480 0.000000
-7.620987 -7.170358 -0.701002 323 -0.404632 0.914480 0.000000
-7.621672 -7.171002 -0.697835 313 -0.404632 0.914480 0.000000
-7.621830 -7.171139 -0.694624 311 -0.404632 0.914480 0.000000
-7.621500 -7.170828 -0.691366 309 -0.404632 0.914480 0.000000
-7.621706 -7.171031 -0.688154 315 -0.404632 0.914480 0.000000
-7.621698 -7.171021 -0.684924 319 -0.404632 0.914480 0.000000
-7.621527 -7.170865 -0.681686 317 -0.404632 0.914480 0.000000
-7.620606 -7.169995 -0.678375 303 -0.404632 0.914480 0.000000
-7.621558 -7.170883 -0.675236 297 -0.404632 0.914480 0.000000
-7.622182 -7.171477 -0.672060 291 -0.404632 0.914480 0.000000
-7.621207 -7.170564 -0.668749 293 -0.404632 0.914480 0.000000
-7.621310 -7.170656 -0.665528 297 -0.404632 0.914480 0.000000
-7.621719 -7.171038 -0.662344 285 -0.404632 0.914480 0.000000
-7.621807 -7.171118 -0.659123 277 -0.404632 0.914480 0.000000
-7.622217 -7.171513 -0.655929 279 -0.404632 0.914480 0.000000
-7.622784 -7.172035 -0.652754 279 -0.404632 0.914480 0.000000
-7.622392 -7.171674 -0.649497 281 -0.404632 0.914480 0.000000
-7.621850 -7.171164 -0.646222 283 -0.404632 0.914480 0.000000
-7.621725 -7.171045 -0.642983 289 -0.404632 0.914480 0.000000
-7.621812 -7.171125 -0.639772 285 -0.404632 0.914480 0.000000
-7.620892 -7.170255 -0.636471 291 -0.404632 0.914480 0.000000
-7.620445 -7.169836 -0.633205 287 -0.404632 0.914480 0.000000
-7.621484 -7.170821 -0.630065 275 -0.404632 0.914480 0.000000
-7.622036 -7.171344 -0.626890 273 -0.404632 0.914480 0.000000
-7.622398 -7.171674 -0.623686 263 -0.404632 0.914480 0.000000
-7.622635 -7.171902 -0.620484 269 -0.404632 0.914480 0.000000
-7.622078 -7.171380 -0.617219 277 -0.404632 0.914480 0.000000
-7.621040 -7.170402 -0.613909 295 -0.404632 0.914480 0.000000
-7.621922 -7.171233 -0.610751 313 -0.404632 0.914480 0.000000
-7.623605 -7.172806 -0.607655 315 -0.404632 0.914480 0.000000
-7.622561 -7.171835 -0.604354 323 -0.404632 0.914480 0.000000
-7.620461 -7.169849 -0.600964 305 -0.404632 0.914480 0.000000
-7.619739 -7.169180 -0.597691 305 -0.404632 0.914480 0.000000
-7.620611 -7.169991 -0.594533 307 -0.404632 0.914480 0.000000
-7.621596 -7.170918 -0.591383 325 -0.404632 0.914480 0.000000
-7.621724 -7.171044 -0.588172 313 -0.404632 0.914480 0.000000
-7.620836 -7.170214 -0.584880 323 -0.404632 0.914480 0.000000
-7.620544 -7.169934 -0.581633 319 -0.404632 0.914480 0.000000
-7.621411 -7.170753 -0.578475 319 -0.404632 0.914480 0.000000
-7.622018 -7.171320 -0.575299 319 -0.404632 0.914480 0.000000
-7.621506 -7.170835 -0.572034 321 -0.404632 0.914480 0.000000
-7.621146 -7.170499 -0.568787 315 -0.404632 0.914480 0.000000
-7.621800 -7.171118 -0.565611 325 -0.404632 0.914480 0.000000
-7.621603 -7.170929 -0.562373 321 -0.404632 0.914480 0.000000
-7.621723 -7.171048 -0.559161 319 -0.404632 0.914480 0.000000
-7.622384 -7.171660 -0.555985 325 -0.404632 0.914480 0.000000
-7.622024 -7.171324 -0.552738 319 -0.404632 0.914480 0.000000
-7.622143 -7.171444 -0.549527 313 -0.404632 0.914480 0.000000
-7.622419 -7.171704 -0.546324 323 -0.404632 0.914480 0.000000
-7.621106 -7.170462 -0.543007 319 -0.404632 0.914480 0.000000
-7.621492 -7.170824 -0.539813 311 -0.404632 0.914480 0.000000
-7.621658 -7.170981 -0.536601 307 -0.404632 0.914480 0.000000
-7.621666 -7.170985 -0.533381 319 -0.404632 0.914480 0.000000
-7.623328 -7.172554 -0.530276 317 -0.404632 0.914480 0.000000
-7.623383 -7.172608 -0.527055 341 -0.404632 0.914480 0.000000
-7.623502 -7.172714 -0.523844 335 -0.404632 0.914480 0.000000
-7.623085 -7.172319 -0.520588 325 -0.404632 0.914480 0.000000
-7.621922 -7.171226 -0.517289 331 -0.404632 0.914480 0.000000
-7.621924 -7.171237 -0.514068 351 -0.404632 0.914480 0.000000
-7.622680 -7.171938 -0.510901 341 -0.404632 0.914480 0.000000
-7.623208 -7.172442 -0.507706 333 -0.404632 0.914480 0.000000
-7.623059 -7.172305 -0.504478 333 -0.404632 0.914480 0.000000
-7.622792 -7.172044 -0.501240 337 -0.404632 0.914480 0.000000
-7.623328 -7.172554 -0.498055 345 -0.404632 0.914480 0.000000
-7.623069 -7.172301 -0.494817 351 -0.404632 0.914480 0.000000
-7.622638 -7.171907 -0.491571 347 -0.404632 0.914480 0.000000
-7.624180 -7.173354 -0.488447 357 -0.404632 0.914480 0.000000
-7.625408 -7.174505 -0.485295 351 -0.404632 0.914480 0.000000
-7.623748 -7.172943 -0.481971 333 -0.404632 0.914480 0.000000
-7.621893 -7.171195 -0.478638 313 -0.404632 0.914480 0.000000
-7.621352 -7.170699 -0.475383 327 -0.404632 0.914480 0.000000
-7.621990 -7.171292 -0.472207 319 -0.404632 0.914480 0.000000
-7.622202 -7.171487 -0.468995 327 -0.404632 0.914480 0.000000
-7.622880 -7.172126 -0.465818 319 -0.404632 0.914480 0.000000
-7.623189 -7.172425 -0.462615 323 -0.404632 0.914480 0.000000
-7.621702 -7.171017 -0.459309 333 -0.404632 0.914480 0.000000
-7.621530 -7.170860 -0.456081 335 -0.404632 0.914480 0.000000
-7.621420 -7.170754 -0.452852 321 -0.404632 0.914480 0.000000
-7.621405 -7.170738 -0.449632 335 -0.404632 0.914480 0.000000
-7.621453 -7.170786 -0.446421 335 -0.404632 0.914480 0.000000
-7.621385 -7.170726 -0.443192 317 -0.404632 0.914480 0.000000
-7.622336 -7.171614 -0.440033 325 -0.404632 0.914480 0.000000
-7.623343 -7.172560 -0.436863 331 -0.404632 0.914480 0.000000
-7.622197 -7.171493 -0.433584 325 -0.404632 0.914480 0.000000
-7.621599 -7.170925 -0.430329 317 -0.404632 0.914480 0.000000
-7.622607 -7.171871 -0.427170 315 -0.404632 0.914480 0.000000
-7.621681 -7.171010 -0.423899 317 -0.404632 0.914480 0.000000
-7.620761 -7.170140 -0.420627 323 -0.404632 0.914480 0.000000
-7.621439 -7.170778 -0.417451 313 -0.404632 0.914480 0.000000
-7.622705 -7.171961 -0.414299 303 -0.404632 0.914480 0.000000
-7.623485 -7.172696 -0.411121 313 -0.404632 0.914480 0.000000
-7.621386 -7.170724 -0.407791 285 -0.404632 0.914480 0.000000
-7.620726 -7.170105 -0.404537 301 -0.404632 0.914480 0.000000
-7.623370 -7.172591 -0.401452 311 -0.404632 0.914480 0.000000
-7.624471 -7.173627 -0.398292 305 -0.404632 0.914480 0.000000
-7.624346 -7.173508 -0.395063 299 -0.404632 0.914480 0.000000
-7.624160 -7.173339 -0.391834 293 -0.404632 0.914480 0.000000
-7.623232 -7.172463 -0.388573 289 -0.404632 0.914480 0.000000
-7.622352 -7.171640 -0.385311 299 -0.404632 0.914480 0.000000
-7.622816 -7.172066 -0.382117 297 -0.404632 0.914480 0.000000
-7.624761 -7.173904 -0.378989 287 -0.404632 0.914480 0.000000
-7.625319 -7.174420 -0.375793 269 -0.404632 0.914480 0.000000
-7.625083 -7.174199 -0.372565 275 -0.404632 0.914480 0.000000
-7.624204 -7.173375 -0.369304 299 -0.404632 0.914480 0.000000
-7.622782 -7.172044 -0.366027 283 -0.404632 0.914480 0.000000
-7.622649 -7.171920 -0.362798 291 -0.404632 0.914480 0.000000
-7.622941 -7.172193 -0.359595 301 -0.404632 0.914480 0.000000
-7.623869 -7.173061 -0.356416 317 -0.404632 0.914480 0.000000
-7.624797 -7.173929 -0.353238 325 -0.404632 0.914480 0.000000
-7.624713 -7.173857 -0.350018 321 -0.404632 0.914480 0.000000
-7.623888 -7.173078 -0.346766 299 -0.404632 0.914480 0.000000
-7.622843 -7.172093 -0.343506 303 -0.404632 0.914480 0.000000
-7.623921 -7.173110 -0.340336 301 -0.404632 0.914480 0.000000
-7.624747 -7.173882 -0.337148 307 -0.404632 0.914480 0.000000
-7.624064 -7.173245 -0.333904 291 -0.404632 0.914480 0.000000
-7.624192 -7.173371 -0.330693 313 -0.404632 0.914480 0.000000
-7.623311 -7.172533 -0.327431 295 -0.404632 0.914480 0.000000
-7.623744 -7.172947 -0.324237 289 -0.404632 0.914480 0.000000
-7.625200 -7.174310 -0.321073 297 -0.404632 0.914480 0.000000
-7.624895 -7.174032 -0.317846 303 -0.404632 0.914480 0.000000
-7.623630 -7.172843 -0.314578 301 -0.404632 0.914480 0.000000
-7.624393 -7.173550 -0.311391 295 -0.404632 0.914480 0.000000
-7.624888 -7.174015 -0.308196 275 -0.404632 0.914480 0.000000
-7.624842 -7.173974 -0.304976 271 -0.404632 0.914480 0.000000
-7.624050 -7.173234 -0.301723 287 -0.404632 0.914480 0.000000
-7.623641 -7.172846 -0.298497 311 -0.404632 0.914480 0.000000
-7.628044 -7.172770 -0.704677 329 -0.404632 0.914480 0.000000
-7.628997 -7.173672 -0.701527 323 -0.404632 0.914480 0.000000
-7.630107 -7.174715 -0.698397 349 -0.404632 0.914480 0.000000
-7.629997 -7.174608 -0.695158 353 -0.404632 0.914480 0.000000
-7.630100 -7.174701 -0.691937 341 -0.404632 0.914480 0.000000
-7.630299 -7.174898 -0.688725 337 -0.404632 0.914480 0.000000
-7.630243 -7.174836 -0.685495 329 -0.404632 0.914480 0.000000
-7.630488 -7.175070 -0.682283 317 -0.404632 0.914480 0.000000
-7.631495 -7.176017 -0.679144 315 -0.404632 0.914480 0.000000
-7.631268 -7.175802 -0.675896 303 -0.404632 0.914480 0.000000
-7.630137 -7.174747 -0.672566 303 -0.404632 0.914480 0.000000
-7.629650 -7.174282 -0.669291 297 -0.404632 0.914480 0.000000
-7.631389 -7.175914 -0.666214 323 -0.404632 0.914480 0.000000
-7.631477 -7.176009 -0.662993 313 -0.404632 0.914480 0.000000
-7.629708 -7.174344 -0.659610 285 -0.404632 0.914480 0.000000
-7.630228 -7.174828 -0.656425 261 -0.404632 0.914480 0.000000
-7.631172 -7.175709 -0.653276 255 -0.404632 0.914480 0.000000
-7.631473 -7.176003 -0.650073 259 -0.404632 0.914480 0.000000
-7.630545 -7.175127 -0.646772 263 -0.404632 0.914480 0.000000
-7.630318 -7.174912 -0.643524 259 -0.404632 0.914480 0.000000
-7.631473 -7.175992 -0.640393 265 -0.404632 0.914480 0.000000
-7.631767 -7.176278 -0.637180 283 -0.404632 0.914480 0.000000
-7.631744 -7.176256 -0.633950 277 -0.404632 0.914480 0.000000
-7.631619 -7.176138 -0.630711 263 -0.404632 0.914480 0.000000
-7.632500 -7.176968 -0.627563 253 -0.404632 0.914480 0.000000
-7.631352 -7.175888 -0.624234 255 -0.404632 0.914480 0.000000
-7.630755 -7.175319 -0.620959 273 -0.404632 0.914480 0.000000
-7.631205 -7.175746 -0.617775 293 -0.404632 0.914480 0.000000
-7.630591 -7.175165 -0.614491 305 -0.404632 0.914480 0.000000
-7.631576 -7.176093 -0.611341 339 -0.404632 0.914480 0.000000
-7.631128 -7.175673 -0.608085 343 -0.404632 0.914480 0.000000
-7.631365 -7.175901 -0.604873 349 -0.404632 0.914480 0.000000
-7.631343 -7.175879 -0.601643 327 -0.404632 0.914480 0.000000
-7.630250 -7.174842 -0.598333 327 -0.404632 0.914480 0.000000
-7.630165 -7.174769 -0.595104 339 -0.404632 0.914480 0.000000
-7.629922 -7.174542 -0.591856 329 -0.404632 0.914480 0.000000
-7.629253 -7.173903 -0.588583 311 -0.404632 0.914480 0.000000
-7.630017 -7.174624 -0.585415 313 -0.404632 0.914480 0.000000
-7.630357 -7.174949 -0.582212 333 -0.404632 0.914480 0.000000
-7.630428 -7.175016 -0.578991 335 -0.404632 0.914480 0.000000
-7.631042 -7.175590 -0.575805 317 -0.404632 0.914480 0.000000
-7.631428 -7.175952 -0.572612 317 -0.404632 0.914480 0.000000
-7.632193 -7.176675 -0.569444 335 -0.404632 0.914480 0.000000
-7.631729 -7.176242 -0.566179 335 -0.404632 0.914480 0.000000
-7.630738 -7.175302 -0.562888 325 -0.404632 0.914480 0.000000
-7.630378 -7.174965 -0.559631 321 -0.404632 0.914480 0.000000
-7.629805 -7.174430 -0.556367 325 -0.404632 0.914480 0.000000
-7.629931 -7.174542 -0.553145 313 -0.404632 0.914480 0.000000
-7.630797 -7.175360 -0.549987 313 -0.404632 0.914480 0.000000
-7.631444 -7.175973 -0.546811 315 -0.404632 0.914480 0.000000
-7.632843 -7.177278 -0.543678 315 -0.404632 0.914480 0.000000
-7.632380 -7.176846 -0.540422 305 -0.404632 0.914480 0.000000
-7.632011 -7.176502 -0.537165 305 -0.404632 0.914480 0.000000
-7.632446 -7.176917 -0.533971 319 -0.404632 0.914480 0.000000
-7.631393 -7.175926 -0.530681 315 -0.404632 0.914480 0.000000
-7.630544 -7.175128 -0.527399 311 -0.404632 0.914480 0.000000
-7.631779 -7.176285 -0.524257 341 -0.404632 0.914480 0.000000
-7.631897 -7.176391 -0.521036 353 -0.404632 0.914480 0.000000
-7.631097 -7.175644 -0.517763 339 -0.404632 0.914480 0.000000
-7.631805 -7.176308 -0.514577 351 -0.404632 0.914480 0.000000
-7.631382 -7.175907 -0.511331 349 -0.404632 0.914480 0.000000
-7.630745 -7.175307 -0.508067 341 -0.404632 0.914480 0.000000
-7.630328 -7.174912 -0.504810 341 -0.404632 0.914480 0.000000
-7.630959 -7.175512 -0.501634 343 -0.404632 0.914480 0.000000
-7.631982 -7.176471 -0.498475 349 -0.404632 0.914480 0.000000
-7.631338 -7.175865 -0.495211 369 -0.404632 0.914480 0.000000
-7.631182 -7.175721 -0.491972 381 -0.404632 0.914480 0.000000
-7.631717 -7.176219 -0.488777 361 -0.404632 0.914480 0.000000
-7.631663 -7.176170 -0.485557 345 -0.404632 0.914480 0.000000
-7.630917 -7.175468 -0.482284 329 -0.404632 0.914480 0.000000
-7.631822 -7.176318 -0.479116 323 -0.404632 0.914480 0.000000
-7.631870 -7.176366 -0.475895 343 -0.404632 0.914480 0.000000
-7.631973 -7.176459 -0.472684 317 -0.404632 0.914480 0.000000
-7.631967 -7.176464 -0.469454 325 -0.404632 0.914480 0.000000
-7.631645 -7.176159 -0.466217 341 -0.404632 0.914480 0.000000
-7.631048 -7.175591 -0.462953 351 -0.404632 0.914480 0.000000
-7.630513 -7.175087 -0.459698 329 -0.404632 0.914480 0.000000
-7.631356 -7.175886 -0.456530 327 -0.404632 0.914480 0.000000
-7.632041 -7.176531 -0.453343 329 -0.404632 0.914480 0.000000
-7.632507 -7.176971 -0.450149 333 -0.404632 0.914480 0.000000
-7.632869 -7.177314 -0.446945 343 -0.404632 0.914480 0.000000
-7.632642 -7.177099 -0.443707 347 -0.404632 0.914480 0.000000
-7.631888 -7.176391 -0.440444 337 -0.404632 0.914480 0.000000
-7.631723 -7.176227 -0.437216 323 -0.404632 0.914480 0.000000
-7.631654 -7.176167 -0.433986 313 -0.404632 0.914480 0.000000
-7.631426 -7.175952 -0.430748 323 -0.404632 0.914480 0.000000
-7.631521 -7.176038 -0.427537 333 -0.404632 0.914480 0.000000
-7.632096 -7.176580 -0.424342 341 -0.404632 0.914480 0.000000
-7.631979 -7.176468 -0.421113 333 -0.404632 0.914480 0.000000
-7.632759 -7.177202 -0.417936 341 -0.404632 0.914480 0.000000
-7.633380 -7.177783 -0.414750 321 -0.404632 0.914480 0.000000
-7.632186 -7.176664 -0.411461 319 -0.404632 0.914480 0.000000
-7.632329 -7.176803 -0.408249 311 -0.404632 0.914480 0.000000
-7.633485 -7.177883 -0.405078 311 -0.404632 0.914480 0.000000
-7.633360 -7.177764 -0.401860 311 -0.404632 0.914480 0.000000
-7.633440 -7.177852 -0.398639 295 -0.404632 0.914480 0.000000
-7.632253 -7.176725 -0.395360 301 -0.404632 0.914480 0.000000
-7.631051 -7.175600 -0.392071 287 -0.404632 0.914480 0.000000
-7.632310 -7.176777 -0.388919 281 -0.404632 0.914480 0.000000
-7.633199 -7.177614 -0.385741 283 -0.404632 0.914480 0.000000
-7.632053 -7.176548 -0.382461 293 -0.404632 0.914480 0.000000
-7.631070 -7.175614 -0.379191 287 -0.404632 0.914480 0.000000
-7.632699 -7.177143 -0.376045 285 -0.404632 0.914480 0.000000
-7.633683 -7.178071 -0.372876 303 -0.404632 0.914480 0.000000
-7.633495 -7.177901 -0.369637 293 -0.404632 0.914480 0.000000
-7.633677 -7.178071 -0.366426 273 -0.404632 0.914480 0.000000
-7.633921 -7.178292 -0.363223 287 -0.404632 0.914480 0.000000
-7.633678 -7.178064 -0.359986 297 -0.404632 0.914480 0.000000
-7.633169 -7.177594 -0.356740 303 -0.404632 0.914480 0.000000
-7.632973 -7.177404 -0.353512 307 -0.404632 0.914480 0.000000
-7.632949 -7.177382 -0.350292 317 -0.404632 0.914480 0.000000
-7.633494 -7.177899 -0.347097 313 -0.404632 0.914480 0.000000
-7.634258 -7.178621 -0.343910 311 -0.404632 0.914480 0.000000
-7.634187 -7.178546 -0.340680 301 -0.404632 0.914480 0.000000
-7.633614 -7.178011 -0.337436 293 -0.404632 0.914480 0.000000
-7.634110 -7.178476 -0.334231 311 -0.404632 0.914480 0.000000
-7.632742 -7.177191 -0.330954 299 -0.404632 0.914480 0.000000
-7.631053 -7.175604 -0.327670 295 -0.404632 0.914480 0.000000
-7.632516 -7.176972 -0.324506 321 -0.404632 0.914480 0.000000
-7.633430 -7.177842 -0.321327 323 -0.404632 0.914480 0.000000
-7.632966 -7.177396 -0.318081 315 -0.404632 0.914480 0.000000
-7.633297 -7.177714 -0.314878 299 -0.404632 0.914480 0.000000
-7.634054 -7.178430 -0.311691 293 -0.404632 0.914480 0.000000
-7.633968 -7.178342 -0.308462 297 -0.404632 0.914480 0.000000
-7.633339 -7.177749 -0.305218 295 -0.404632 0.914480 0.000000
-7.632978 -7.177413 -0.301981 295 -0.404632 0.914480 0.000000
-7.632775 -7.177217 -0.298753 289 -0.404632 0.914480 0.000000
-7.638574 -7.178203 -0.705430 313 -0.404632 0.914480 0.000000
-7.638574 -7.178199 -0.702190 335 -0.404632 0.914480 0.000000
-7.639418 -7.178999 -0.699032 353 -0.404632 0.914480 0.000000
-7.640204 -7.179726 -0.695875 361 -0.404632 0.914480 0.000000
-7.639725 -7.179280 -0.692599 357 -0.404632 0.914480 0.000000
-7.639231 -7.178823 -0.689324 351 -0.404632 0.914480 0.000000
-7.639066 -7.178658 -0.686075 333 -0.404632 0.914480 0.000000
-7.640011 -7.179554 -0.682926 317 -0.404632 0.914480 0.000000
-7.639893 -7.179441 -0.679677 311 -0.404632 0.914480 0.000000
-7.639619 -7.179188 -0.676420 307 -0.404632 0.914480 0.000000
-7.639707 -7.179268 -0.673199 309 -0.404632 0.914480 0.000000
-7.638740 -7.178361 -0.669888 315 -0.404632 0.914480 0.000000
-7.638575 -7.178196 -0.666639 327 -0.404632 0.914480 0.000000
-7.639190 -7.178784 -0.663463 319 -0.404632 0.914480 0.000000
-7.639183 -7.178775 -0.660223 287 -0.404632 0.914480 0.000000
-7.639585 -7.179150 -0.657030 261 -0.404632 0.914480 0.000000
-7.640002 -7.179537 -0.653836 265 -0.404632 0.914480 0.000000
-7.640719 -7.180222 -0.650659 265 -0.404632 0.914480 0.000000
-7.640705 -7.180205 -0.647429 279 -0.404632 0.914480 0.000000
-7.639360 -7.178939 -0.644081 265 -0.404632 0.914480 0.000000
-7.638173 -7.177826 -0.640752 247 -0.404632 0.914480 0.000000
-7.638685 -7.178304 -0.637567 287 -0.404632 0.914480 0.000000
-7.639621 -7.179179 -0.634409 283 -0.404632 0.914480 0.000000
-7.640070 -7.179606 -0.631214 281 -0.404632 0.914480 0.000000
-7.640206 -7.179738 -0.628003 275 -0.404632 0.914480 0.000000
-7.640293 -7.179818 -0.624772 293 -0.404632 0.914480 0.000000
-7.640380 -7.179898 -0.621551 299 -0.404632 0.914480 0.000000
-7.639713 -7.179273 -0.618267 319 -0.404632 0.914480 0.000000
-7.639115 -7.178705 -0.614993 313 -0.404632 0.914480 0.000000
-7.640145 -7.179670 -0.611843 353 -0.404632 0.914480 0.000000
-7.640445 -7.179949 -0.608630 341 -0.404632 0.914480 0.000000
-7.640463 -7.179972 -0.605410 345 -0.404632 0.914480 0.000000
-7.640069 -7.179596 -0.602144 333 -0.404632 0.914480 0.000000
-7.639936 -7.179471 -0.598905 343 -0.404632 0.914480 0.000000
-7.639521 -7.179090 -0.595649 349 -0.404632 0.914480 0.000000
-7.638752 -7.178370 -0.592356 345 -0.404632 0.914480 0.000000
-7.638351 -7.177988 -0.589099 355 -0.404632 0.914480 0.000000
-7.639437 -7.179011 -0.585949 337 -0.404632 0.914480 0.000000
-7.640255 -7.179777 -0.582781 333 -0.404632 0.914480 0.000000
-7.639793 -7.179345 -0.579516 339 -0.404632 0.914480 0.000000
-7.639660 -7.179219 -0.576277 335 -0.404632 0.914480 0.000000
-7.640047 -7.179582 -0.573083 359 -0.404632 0.914480 0.000000
-7.639592 -7.179156 -0.569817 355 -0.404632 0.914480 0.000000
-7.639717 -7.179267 -0.566596 343 -0.404632 0.914480 0.000000
-7.640575 -7.180079 -0.563428 345 -0.404632 0.914480 0.000000
-7.639428 -7.178998 -0.560119 325 -0.404632 0.914480 0.000000
-7.639169 -7.178758 -0.556871 313 -0.404632 0.914480 0.000000
-7.640090 -7.179621 -0.553712 311 -0.404632 0.914480 0.000000
-7.640642 -7.180144 -0.550517 307 -0.404632 0.914480 0.000000
-7.640328 -7.179846 -0.547270 311 -0.404632 0.914480 0.000000
-7.640454 -7.179957 -0.544049 325 -0.404632 0.914480 0.000000
-7.640408 -7.179915 -0.540819 313 -0.404632 0.914480 0.000000
-7.639677 -7.179226 -0.537546 317 -0.404632 0.914480 0.000000
-7.640268 -7.179795 -0.534350 321 -0.404632 0.914480 0.000000
-7.640552 -7.180048 -0.531148 325 -0.404632 0.914480 0.000000
-7.640615 -7.180108 -0.527927 325 -0.404632 0.914480 0.000000
-7.640939 -7.180420 -0.524714 343 -0.404632 0.914480 0.000000
-7.641742 -7.181174 -0.521546 355 -0.404632 0.914480 0.000000
-7.642593 -7.181979 -0.518368 351 -0.404632 0.914480 0.000000
-7.641122 -7.180583 -0.515042 351 -0.404632 0.914480 0.000000
-7.639628 -7.179183 -0.511726 355 -0.404632 0.914480 0.000000
-7.640219 -7.179737 -0.508530 357 -0.404632 0.914480 0.000000
-7.640385 -7.179894 -0.505319 345 -0.404632 0.914480 0.000000
-7.639647 -7.179198 -0.502045 339 -0.404632 0.914480 0.000000
-7.639695 -7.179247 -0.498815 343 -0.404632 0.914480 0.000000
-7.639861 -7.179405 -0.495603 375 -0.404632 0.914480 0.000000
-7.639649 -7.179203 -0.492365 365 -0.404632 0.914480 0.000000
-7.640602 -7.180104 -0.489196 357 -0.404632 0.914480 0.000000
-7.640603 -7.180100 -0.485966 351 -0.404632 0.914480 0.000000
-7.640713 -7.180199 -0.482745 337 -0.404632 0.914480 0.000000
-7.641242 -7.180704 -0.479560 359 -0.404632 0.914480 0.000000
-7.639528 -7.179098 -0.476226 359 -0.404632 0.914480 0.000000
-7.638994 -7.178595 -0.472971 345 -0.404632 0.914480 0.000000
-7.639529 -7.179090 -0.469776 343 -0.404632 0.914480 0.000000
-7.640365 -7.179883 -0.466598 349 -0.404632 0.914480 0.000000
-7.640742 -7.180226 -0.463394 341 -0.404632 0.914480 0.000000
-7.640940 -7.180422 -0.460182 333 -0.404632 0.914480 0.000000
-7.641311 -7.180772 -0.456979 335 -0.404632 0.914480 0.000000
-7.641892 -7.181306 -0.453783 341 -0.404632 0.914480 0.000000
-7.641398 -7.180849 -0.450528 333 -0.404632 0.914480 0.000000
-7.641179 -7.180640 -0.447290 331 -0.404632 0.914480 0.000000
-7.641966 -7.181382 -0.444112 331 -0.404632 0.914480 0.000000
-7.641582 -7.181026 -0.440866 343 -0.404632 0.914480 0.000000
-7.640985 -7.180459 -0.437601 353 -0.404632 0.914480 0.000000
-7.639854 -7.179404 -0.434312 327 -0.404632 0.914480 0.000000
-7.639846 -7.179394 -0.431092 343 -0.404632 0.914480 0.000000
-7.640099 -7.179621 -0.427879 343 -0.404632 0.914480 0.000000
-7.639919 -7.179458 -0.424641 335 -0.404632 0.914480 0.000000
-7.640658 -7.180147 -0.421464 327 -0.404632 0.914480 0.000000
-7.641809 -7.181235 -0.418293 327 -0.404632 0.914480 0.000000
-7.641251 -7.180713 -0.415038 331 -0.404632 0.914480 0.000000
-7.639954 -7.179498 -0.411750 343 -0.404632 0.914480 0.000000
-7.640159 -7.179686 -0.408538 329 -0.404632 0.914480 0.000000
-7.640726 -7.180223 -0.405343 333 -0.404632 0.914480 0.000000
-7.642033 -7.181451 -0.402181 329 -0.404632 0.914480 0.000000
-7.642332 -7.181730 -0.398978 339 -0.404632 0.914480 0.000000
-7.641681 -7.181118 -0.395714 325 -0.404632 0.914480 0.000000
-7.641539 -7.180986 -0.392485 309 -0.404632 0.914480 0.000000
-7.641524 -7.180970 -0.389255 313 -0.404632 0.914480 0.000000
-7.641824 -7.181249 -0.386052 323 -0.404632 0.914480 0.000000
-7.642172 -7.181580 -0.382839 327 -0.404632 0.914480 0.000000
-7.641936 -7.181359 -0.379601 315 -0.404632 0.914480 0.000000
-7.642070 -7.181477 -0.376390 313 -0.404632 0.914480 0.000000
-7.642362 -7.181749 -0.373177 299 -0.404632 0.914480 0.000000
-7.642065 -7.181478 -0.369940 307 -0.404632 0.914480 0.000000
-7.642412 -7.181808 -0.366726 295 -0.404632 0.914480 0.000000
-7.642278 -7.181669 -0.363497 309 -0.404632 0.914480 0.000000
-7.642947 -7.182301 -0.360301 311 -0.404632 0.914480 0.000000
-7.643231 -7.182567 -0.357098 309 -0.404632 0.914480 0.000000
-7.643146 -7.182494 -0.353869 319 -0.404632 0.914480 0.000000
-7.643124 -7.182473 -0.350639 319 -0.404632 0.914480 0.000000
-7.643509 -7.182834 -0.347435 333 -0.404632 0.914480 0.000000
-7.644062 -7.183358 -0.344230 309 -0.404632 0.914480 0.000000
-7.642702 -7.182078 -0.340953 319 -0.404632 0.914480 0.000000
-7.643417 -7.182748 -0.337756 319 -0.404632 0.914480 0.000000
-7.644118 -7.183405 -0.334559 337 -0.404632 0.914480 0.000000
-7.642491 -7.181870 -0.331265 327 -0.404632 0.914480 0.000000
-7.642138 -7.181539 -0.328028 339 -0.404632 0.914480 0.000000
-7.642421 -7.181805 -0.324815 357 -0.404632 0.914480 0.000000
-7.643548 -7.182874 -0.321644 345 -0.404632 0.914480 0.000000
-7.643139 -7.182486 -0.318398 339 -0.404632 0.914480 0.000000
-7.642621 -7.181995 -0.315153 337 -0.404632 0.914480 0.000000
-7.643219 -7.182556 -0.311957 327 -0.404632 0.914480 0.000000
-7.643661 -7.182977 -0.308753 341 -0.404632 0.914480 0.000000
-7.643567 -7.182884 -0.305524 339 -0.404632 0.914480 0.000000
-7.642138 -7.181548 -0.302247 329 -0.404632 0.914480 0.000000
-7.641351 -7.180799 -0.298995 337 -0.404632 0.914480 0.000000
-7.648822 -7.183170 -0.702907 379 -0.404632 0.914480 0.000000
-7.648438 -7.182815 -0.699641 393 -0.404632 0.914480 0.000000
-7.648165 -7.182562 -0.696373 381 -0.404632 0.914480 0.000000
-7.647953 -7.182360 -0.693125 365 -0.404632 0.914480 0.000000
-7.647726 -7.182145 -0.689867 375 -0.404632 0.914480 0.000000
-7.647451 -7.181892 -0.686610 349 -0.404632 0.914480 0.000000
-7.647758 -7.182177 -0.683397 341 -0.404632 0.914480 0.000000
-7.647381 -7.181814 -0.680130 337 -0.404632 0.914480 0.000000
-7.648539 -7.182908 -0.676999 331 -0.404632 0.914480 0.000000
-7.649168 -7.183495 -0.673813 329 -0.404632 0.914480 0.000000
-7.648776 -7.183133 -0.670547 327 -0.404632 0.914480 0.000000
-7.648132 -7.182527 -0.667253 331 -0.404632 0.914480 0.000000
-7.648117 -7.182511 -0.664023 309 -0.404632 0.914480 0.000000
-7.649163 -7.183489 -0.660873 293 -0.404632 0.914480 0.000000
-7.649046 -7.183376 -0.657634 295 -0.404632 0.914480 0.000000
-7.649189 -7.183515 -0.654403 277 -0.404632 0.914480 0.000000
-7.649111 -7.183448 -0.651163 279 -0.404632 0.914480 0.000000
-7.649529 -7.183836 -0.647969 283 -0.404632 0.914480 0.000000
-7.649506 -7.183813 -0.644729 287 -0.404632 0.914480 0.000000
-7.649168 -7.183496 -0.641473 291 -0.404632 0.914480 0.000000
-7.648989 -7.183333 -0.638224 321 -0.404632 0.914480 0.000000
-7.648808 -7.183156 -0.634976 331 -0.404632 0.914480 0.000000
-7.649909 -7.184192 -0.631825 331 -0.404632 0.914480 0.000000
-7.650100 -7.184368 -0.628604 333 -0.404632 0.914480 0.000000
-7.648849 -7.183191 -0.625275 321 -0.404632 0.914480 0.000000
-7.648504 -7.182867 -0.622008 337 -0.404632 0.914480 0.000000
-7.648585 -7.182955 -0.618787 333 -0.404632 0.914480 0.000000
-7.648082 -7.182477 -0.615512 345 -0.404632 0.914480 0.000000
-7.648593 -7.182954 -0.612317 387 -0.404632 0.914480 0.000000
-7.648296 -7.182683 -0.609070 381 -0.404632 0.914480 0.000000
-7.648225 -7.182608 -0.605831 369 -0.404632 0.914480 0.000000
-7.649680 -7.183970 -0.602707 365 -0.404632 0.914480 0.000000
-7.649649 -7.183941 -0.599467 369 -0.404632 0.914480 0.000000
-7.648394 -7.182772 -0.596139 383 -0.404632 0.914480 0.000000
-7.648103 -7.182493 -0.592891 375 -0.404632 0.914480 0.000000
-7.648284 -7.182662 -0.589670 369 -0.404632 0.914480 0.000000
