761
-7.600275 -6.833644 -0.640508 1169 -0.025522 0.999674 0.000000
-7.600471 -6.833814 -0.637376 1175 -0.025522 0.999674 0.000000
-7.599796 -6.833210 -0.634172 1159 -0.025522 0.999674 0.000000
-7.599604 -6.833048 -0.631004 1149 -0.025522 0.999674 0.000000
-7.599913 -6.833317 -0.627881 1153 -0.025522 0.999674 0.000000
-7.600371 -6.833736 -0.624767 1161 -0.025522 0.999674 0.000000
-7.601120 -6.834401 -0.621670 1187 -0.025522 0.999674 0.000000
-7.601090 -6.834374 -0.618520 1185 -0.025522 0.999674 0.000000
-7.600301 -6.833672 -0.615307 1177 -0.025522 0.999674 0.000000
-7.599847 -6.833260 -0.612121 1171 -0.025522 0.999674 0.000000
-7.600475 -6.833820 -0.609026 1179 -0.025522 0.999674 0.000000
-7.601471 -6.834723 -0.605956 1195 -0.025522 0.999674 0.000000
-7.601772 -6.834986 -0.602823 1191 -0.025522 0.999674 0.000000
-7.600650 -6.833979 -0.599594 1175 -0.025522 0.999674 0.000000
-7.600025 -6.833426 -0.596389 1169 -0.025522 0.999674 0.000000
-7.600808 -6.834130 -0.593302 1169 -0.025522 0.999674 0.000000
-7.601273 -6.834541 -0.590188 1171 -0.025522 0.999674 0.000000
-7.600852 -6.834167 -0.587012 1185 -0.025522 0.999674 0.000000
-7.600770 -6.834089 -0.583852 1171 -0.025522 0.999674 0.000000
-7.600455 -6.833808 -0.580685 1175 -0.025522 0.999674 0.000000
-7.600105 -6.833489 -0.577508 1187 -0.025522 0.999674 0.000000
-7.600180 -6.833554 -0.574367 1181 -0.025522 0.999674 0.000000
-7.600793 -6.834116 -0.571262 1179 -0.025522 0.999674 0.000000
-7.600810 -6.834125 -0.568111 1161 -0.025522 0.999674 0.000000
-7.600552 -6.833900 -0.564944 1165 -0.025522 0.999674 0.000000
-7.600789 -6.834114 -0.561811 1173 -0.025522 0.999674 0.000000
-7.600424 -6.833783 -0.558645 1167 -0.025522 0.999674 0.000000
-7.600058 -6.833451 -0.555468 1165 -0.025522 0.999674 0.000000
-7.601215 -6.834489 -0.552397 1175 -0.025522 0.999674 0.000000
-7.600907 -6.834214 -0.549230 1175 -0.025522 0.999674 0.000000
-7.599664 -6.833103 -0.546001 1159 -0.025522 0.999674 0.000000
-7.600495 -6.833842 -0.542914 1165 -0.025522 0.999674 0.000000
-7.601213 -6.834484 -0.539807 1177 -0.025522 0.999674 0.000000
-7.602028 -6.835226 -0.536719 1187 -0.025522 0.999674 0.000000
-7.601940 -6.835142 -0.533570 1169 -0.025522 0.999674 0.000000
-7.601184 -6.834464 -0.530367 1173 -0.025522 0.999674 0.000000
-7.601192 -6.834466 -0.527217 1169 -0.025522 0.999674 0.000000
-7.601145 -6.834426 -0.524067 1169 -0.025522 0.999674 0.000000
-7.600717 -6.834046 -0.520891 1163 -0.025522 0.999674 0.000000
-7.601059 -6.834353 -0.517768 1167 -0.025522 0.999674 0.000000
-7.601550 -6.834797 -0.514653 1169 -0.025522 0.999674 0.000000
-7.601387 -6.834645 -0.511495 1167 -0.025522 0.999674 0.000000
-7.601235 -6.834513 -0.508346 1187 -0.025522 0.999674 0.000000
-7.601285 -6.834559 -0.505196 1191 -0.025522 0.999674 0.000000
-7.600912 -6.834222 -0.502029 1187 -0.025522 0.999674 0.000000
-7.600971 -6.834275 -0.498888 1191 -0.025522 0.999674 0.000000
-7.601516 -6.834761 -0.495773 1187 -0.025522 0.999674 0.000000
-7.601517 -6.834758 -0.492623 1195 -0.025522 0.999674 0.000000
-7.600966 -6.834272 -0.489448 1185 -0.025522 0.999674 0.000000
-7.600917 -6.834219 -0.486299 1181 -0.025522 0.999674 0.000000
-7.601790 -6.835004 -0.483210 1185 -0.025522 0.999674 0.000000
-7.602109 -6.835292 -0.480077 1195 -0.025522 0.999674 0.000000
-7.602054 -6.835246 -0.476928 1203 -0.025522 0.999674 0.000000
-7.601551 -6.834798 -0.473752 1195 -0.025522 0.999674 0.000000
-7.600851 -6.834163 -0.470569 1171 -0.025522 0.999674 0.000000
-7.601284 -6.834550 -0.467445 1175 -0.025522 0.999674 0.000000
-7.601758 -6.834981 -0.464330 1193 -0.025522 0.999674 0.000000
-7.601426 -6.834688 -0.461163 1173 -0.025522 0.999674 0.000000
-7.601582 -6.834827 -0.458032 1173 -0.025522 0.999674 0.000000
-7.602234 -6.835406 -0.454926 1181 -0.025522 0.999674 0.000000
-7.602050 -6.835250 -0.451767 1185 -0.025522 0.999674 0.000000
-7.601660 -6.834900 -0.448601 1189 -0.025522 0.999674 0.000000
-7.601498 -6.834748 -0.445442 1173 -0.025522 0.999674 0.000000
-7.601263 -6.834541 -0.442284 1173 -0.025522 0.999674 0.000000
-7.601142 -6.834433 -0.439135 1183 -0.025522 0.999674 0.000000
-7.601078 -6.834367 -0.435986 1175 -0.025522 0.999674 0.000000
-7.600688 -6.834018 -0.432819 1171 -0.025522 0.999674 0.000000
-7.600560 -6.833904 -0.429670 1165 -0.025522 0.999674 0.000000
-7.601416 -6.834676 -0.426572 1177 -0.025522 0.999674 0.000000
-7.602004 -6.835206 -0.423457 1179 -0.025522 0.999674 0.000000
-7.601606 -6.834850 -0.420291 1177 -0.025522 0.999674 0.000000
-7.601370 -6.834630 -0.417133 1171 -0.025522 0.999674 0.000000
-7.601463 -6.834721 -0.414002 1175 -0.025522 0.999674 0.000000
-7.601171 -6.834457 -0.410834 1171 -0.025522 0.999674 0.000000
-7.601262 -6.834535 -0.407703 1175 -0.025522 0.999674 0.000000
-7.601190 -6.834477 -0.404554 1167 -0.025522 0.999674 0.000000
-7.600891 -6.834208 -0.401397 1177 -0.025522 0.999674 0.000000
-7.601476 -6.834724 -0.398281 1187 -0.025522 0.999674 0.000000
-7.601829 -6.835051 -0.395148 1183 -0.025522 0.999674 0.000000
-7.601537 -6.834788 -0.391991 1175 -0.025522 0.999674 0.000000
-7.601301 -6.834567 -0.388843 1175 -0.025522 0.999674 0.000000
-7.601810 -6.835037 -0.385718 1171 -0.025522 0.999674 0.000000
-7.601794 -6.835021 -0.382578 1177 -0.025522 0.999674 0.000000
-7.601550 -6.834795 -0.379420 1183 -0.025522 0.999674 0.000000
-7.601568 -6.834817 -0.376280 1163 -0.025522 0.999674 0.000000
-7.601553 -6.834802 -0.373130 1167 -0.025522 0.999674 0.000000
-7.601090 -6.834384 -0.369974 1169 -0.025522 0.999674 0.000000
-7.601059 -6.834356 -0.366824 1165 -0.025522 0.999674 0.000000
-7.601255 -6.834527 -0.363693 1159 -0.025522 0.999674 0.000000
-7.601592 -6.834841 -0.360559 1163 -0.025522 0.999674 0.000000
-7.601674 -6.834912 -0.357428 1163 -0.025522 0.999674 0.000000
-7.601806 -6.835034 -0.354287 1159 -0.025522 0.999674 0.000000
-7.602044 -6.835248 -0.351155 1169 -0.025522 0.999674 0.000000
-7.601312 -6.834589 -0.347982 1167 -0.025522 0.999674 0.000000
-7.600628 -6.833965 -0.344808 1143 -0.025522 0.999674 0.000000
-7.600533 -6.833889 -0.341659 1147 -0.025522 0.999674 0.000000
-7.601153 -6.834444 -0.338543 1159 -0.025522 0.999674 0.000000
-7.601341 -6.834608 -0.335411 1161 -0.025522 0.999674 0.000000
-7.601246 -6.834532 -0.332262 1161 -0.025522 0.999674 0.000000
-7.600831 -6.834150 -0.329106 1153 -0.025522 0.999674 0.000000
-7.600246 -6.833627 -0.325941 1147 -0.025522 0.999674 0.000000
-7.600370 -6.833742 -0.322800 1143 -0.025522 0.999674 0.000000
-7.600118 -6.833509 -0.319652 1149 -0.025522 0.999674 0.000000
-7.600617 -6.833959 -0.316527 1159 -0.025522 0.999674 0.000000
-7.601336 -6.834614 -0.313420 1157 -0.025522 0.999674 0.000000
-7.601303 -6.834573 -0.310271 1155 -0.025522 0.999674 0.000000
-7.601591 -6.834837 -0.307138 1131 -0.025522 0.999674 0.000000
-7.603497 -6.832426 -0.703650 1161 -0.025522 0.999674 0.000000
-7.603971 -6.832858 -0.700546 1167 -0.025522 0.999674 0.000000
-7.604573 -6.833386 -0.697440 1173 -0.025522 0.999674 0.000000
-7.604560 -6.833385 -0.694290 1169 -0.025522 0.999674 0.000000
-7.603852 -6.832743 -0.691076 1161 -0.025522 0.999674 0.000000
-7.604057 -6.832933 -0.687934 1175 -0.025522 0.999674 0.000000
-7.604978 -6.833754 -0.684866 1185 -0.025522 0.999674 0.000000
-7.605508 -6.834227 -0.681761 1177 -0.025522 0.999674 0.000000
-7.605119 -6.833878 -0.678574 1167 -0.025522 0.999674 0.000000
-7.604176 -6.833033 -0.675333 1165 -0.025522 0.999674 0.000000
-7.604332 -6.833172 -0.672202 1171 -0.025522 0.999674 0.000000
-7.604806 -6.833604 -0.669087 1169 -0.025522 0.999674 0.000000
-7.605165 -6.833922 -0.665964 1169 -0.025522 0.999674 0.000000
-7.605313 -6.834056 -0.662822 1167 -0.025522 0.999674 0.000000
-7.605411 -6.834139 -0.659681 1165 -0.025522 0.999674 0.000000
-7.605121 -6.833890 -0.656504 1169 -0.025522 0.999674 0.000000
-7.604893 -6.833675 -0.653326 1187 -0.025522 0.999674 0.000000
-7.605091 -6.833859 -0.650194 1195 -0.025522 0.999674 0.000000
-7.604854 -6.833639 -0.647026 1173 -0.025522 0.999674 0.000000
-7.604833 -6.833631 -0.643866 1171 -0.025522 0.999674 0.000000
-7.605625 -6.834341 -0.640779 1183 -0.025522 0.999674 0.000000
-7.605835 -6.834522 -0.637647 1175 -0.025522 0.999674 0.000000
-7.605643 -6.834360 -0.634479 1175 -0.025522 0.999674 0.000000
-7.605513 -6.834232 -0.631320 1169 -0.025522 0.999674 0.000000
-7.605376 -6.834112 -0.628151 1169 -0.025522 0.999674 0.000000
-7.605142 -6.833905 -0.624983 1171 -0.025522 0.999674 0.000000
-7.605225 -6.833976 -0.621842 1171 -0.025522 0.999674 0.000000
-7.604982 -6.833763 -0.618674 1179 -0.025522 0.999674 0.000000
-7.604145 -6.833011 -0.615452 1169 -0.025522 0.999674 0.000000
-7.604006 -6.832876 -0.612293 1181 -0.025522 0.999674 0.000000
-7.604684 -6.833488 -0.609197 1185 -0.025522 0.999674 0.000000
-7.605695 -6.834403 -0.606127 1183 -0.025522 0.999674 0.000000
-7.605884 -6.834566 -0.602986 1181 -0.025522 0.999674 0.000000
-7.605201 -6.833957 -0.599782 1175 -0.025522 0.999674 0.000000
-7.604950 -6.833737 -0.596614 1171 -0.025522 0.999674 0.000000
-7.604862 -6.833654 -0.593455 1175 -0.025522 0.999674 0.000000
-7.605057 -6.833823 -0.590323 1169 -0.025522 0.999674 0.000000
-7.605450 -6.834181 -0.587199 1175 -0.025522 0.999674 0.000000
-7.605696 -6.834401 -0.584067 1179 -0.025522 0.999674 0.000000
-7.606429 -6.835054 -0.580970 1189 -0.025522 0.999674 0.000000
-7.605789 -6.834489 -0.577776 1179 -0.025522 0.999674 0.000000
-7.604936 -6.833724 -0.574564 1169 -0.025522 0.999674 0.000000
-7.605287 -6.834038 -0.571440 1169 -0.025522 0.999674 0.000000
-7.606061 -6.834734 -0.568353 1169 -0.025522 0.999674 0.000000
-7.605972 -6.834651 -0.565194 1171 -0.025522 0.999674 0.000000
-7.605502 -6.834227 -0.562008 1169 -0.025522 0.999674 0.000000
-7.605299 -6.834044 -0.558850 1175 -0.025522 0.999674 0.000000
-7.605097 -6.833861 -0.555682 1181 -0.025522 0.999674 0.000000
-7.605547 -6.834275 -0.552567 1181 -0.025522 0.999674 0.000000
-7.605883 -6.834576 -0.549444 1185 -0.025522 0.999674 0.000000
-7.605191 -6.833946 -0.546241 1165 -0.025522 0.999674 0.000000
-7.605583 -6.834303 -0.543117 1165 -0.025522 0.999674 0.000000
-7.606854 -6.835440 -0.540065 1185 -0.025522 0.999674 0.000000
-7.606856 -6.835450 -0.536915 1187 -0.025522 0.999674 0.000000
-7.606109 -6.834778 -0.533712 1173 -0.025522 0.999674 0.000000
-7.605686 -6.834391 -0.530536 1173 -0.025522 0.999674 0.000000
-7.605907 -6.834592 -0.527404 1179 -0.025522 0.999674 0.000000
-7.606234 -6.834887 -0.524280 1187 -0.025522 0.999674 0.000000
-7.605381 -6.834122 -0.521068 1189 -0.025522 0.999674 0.000000
-7.605064 -6.833827 -0.517901 1181 -0.025522 0.999674 0.000000
-7.605611 -6.834327 -0.514786 1183 -0.025522 0.999674 0.000000
-7.605556 -6.834282 -0.511636 1185 -0.025522 0.999674 0.000000
-7.605679 -6.834383 -0.508495 1181 -0.025522 0.999674 0.000000
-7.606055 -6.834728 -0.505372 1181 -0.025522 0.999674 0.000000
-7.606332 -6.834972 -0.502249 1183 -0.025522 0.999674 0.000000
-7.606441 -6.835076 -0.499108 1185 -0.025522 0.999674 0.000000
-7.606336 -6.834980 -0.495949 1191 -0.025522 0.999674 0.000000
-7.605409 -6.834147 -0.492747 1189 -0.025522 0.999674 0.000000
-7.604915 -6.833705 -0.489572 1179 -0.025522 0.999674 0.000000
-7.605745 -6.834444 -0.486474 1187 -0.025522 0.999674 0.000000
-7.606928 -6.835515 -0.483403 1203 -0.025522 0.999674 0.000000
-7.607255 -6.835809 -0.480270 1199 -0.025522 0.999674 0.000000
-7.606539 -6.835161 -0.477077 1189 -0.025522 0.999674 0.000000
-7.605457 -6.834186 -0.473866 1179 -0.025522 0.999674 0.000000
-7.605394 -6.834133 -0.470717 1191 -0.025522 0.999674 0.000000
-7.605663 -6.834372 -0.467584 1171 -0.025522 0.999674 0.000000
-7.605983 -6.834660 -0.464461 1187 -0.025522 0.999674 0.000000
-7.605706 -6.834409 -0.461294 1167 -0.025522 0.999674 0.000000
-7.605799 -6.834501 -0.458153 1167 -0.025522 0.999674 0.000000
-7.606508 -6.835136 -0.455056 1173 -0.025522 0.999674 0.000000
-7.606387 -6.835028 -0.451897 1167 -0.025522 0.999674 0.000000
-7.605835 -6.834529 -0.448722 1163 -0.025522 0.999674 0.000000
-7.605827 -6.834519 -0.445572 1159 -0.025522 0.999674 0.000000
-7.605544 -6.834263 -0.442415 1169 -0.025522 0.999674 0.000000
-7.605523 -6.834255 -0.439265 1177 -0.025522 0.999674 0.000000
-7.605897 -6.834586 -0.436141 1169 -0.025522 0.999674 0.000000
-7.605882 -6.834570 -0.432992 1157 -0.025522 0.999674 0.000000
-7.605925 -6.834612 -0.429851 1171 -0.025522 0.999674 0.000000
-7.605413 -6.834157 -0.426676 1165 -0.025522 0.999674 0.000000
-7.605626 -6.834340 -0.423544 1171 -0.025522 0.999674 0.000000
-7.606155 -6.834813 -0.420429 1189 -0.025522 0.999674 0.000000
-7.606140 -6.834798 -0.417279 1183 -0.025522 0.999674 0.000000
-7.605629 -6.834343 -0.414113 1183 -0.025522 0.999674 0.000000
-7.605614 -6.834328 -0.410964 1181 -0.025522 0.999674 0.000000
-7.606136 -6.834796 -0.407849 1179 -0.025522 0.999674 0.000000
-7.606611 -6.835227 -0.404724 1167 -0.025522 0.999674 0.000000
-7.606637 -6.835257 -0.401584 1179 -0.025522 0.999674 0.000000
-7.606019 -6.834695 -0.398409 1181 -0.025522 0.999674 0.000000
-7.605940 -6.834631 -0.395260 1173 -0.025522 0.999674 0.000000
-7.606144 -6.834807 -0.392118 1167 -0.025522 0.999674 0.000000
-7.606332 -6.834971 -0.388986 1177 -0.025522 0.999674 0.000000
-7.606089 -6.834758 -0.385828 1169 -0.025522 0.999674 0.000000
-7.605911 -6.834594 -0.382680 1183 -0.025522 0.999674 0.000000
-7.606093 -6.834766 -0.379538 1189 -0.025522 0.999674 0.000000
-7.606339 -6.834986 -0.376406 1177 -0.025522 0.999674 0.000000
-7.605883 -6.834574 -0.373240 1167 -0.025522 0.999674 0.000000
-7.606724 -6.835334 -0.370142 1183 -0.025522 0.999674 0.000000
-7.607025 -6.835596 -0.367009 1185 -0.025522 0.999674 0.000000
-7.605635 -6.834349 -0.363802 1167 -0.025522 0.999674 0.000000
-7.605058 -6.833831 -0.360627 1155 -0.025522 0.999674 0.000000
-7.605630 -6.834350 -0.357512 1163 -0.025522 0.999674 0.000000
-7.605931 -6.834612 -0.354379 1153 -0.025522 0.999674 0.000000
-7.606169 -6.834826 -0.351247 1165 -0.025522 0.999674 0.000000
-7.606464 -6.835097 -0.348114 1173 -0.025522 0.999674 0.000000
-7.606262 -6.834914 -0.344966 1159 -0.025522 0.999674 0.000000
-7.606173 -6.834830 -0.341817 1163 -0.025522 0.999674 0.000000
-7.606150 -6.834809 -0.338677 1173 -0.025522 0.999674 0.000000
-7.605942 -6.834635 -0.335519 1171 -0.025522 0.999674 0.000000
-7.606227 -6.834885 -0.332386 1163 -0.025522 0.999674 0.000000
-7.606245 -6.834908 -0.329246 1173 -0.025522 0.999674 0.000000
-7.605830 -6.834526 -0.326090 1153 -0.025522 0.999674 0.000000
-7.606558 -6.835187 -0.322973 1159 -0.025522 0.999674 0.000000
-7.606843 -6.835437 -0.319840 1155 -0.025522 0.999674 0.000000
-7.606095 -6.834766 -0.316667 1147 -0.025522 0.999674 0.000000
-7.605673 -6.834392 -0.313511 1155 -0.025522 0.999674 0.000000
-7.605804 -6.834499 -0.310369 1157 -0.025522 0.999674 0.000000
-7.605594 -6.834311 -0.307221 1141 -0.025522 0.999674 0.000000
-7.609750 -6.833771 -0.704033 1169 -0.025522 0.999674 0.000000
-7.610507 -6.834442 -0.700946 1167 -0.025522 0.999674 0.000000
-7.610280 -6.834241 -0.697768 1173 -0.025522 0.999674 0.000000
-7.609459 -6.833501 -0.694536 1173 -0.025522 0.999674 0.000000
-7.609282 -6.833350 -0.691367 1171 -0.025522 0.999674 0.000000
-7.609169 -6.833248 -0.688208 1175 -0.025522 0.999674 0.000000
-7.608999 -6.833090 -0.685030 1177 -0.025522 0.999674 0.000000
-7.609750 -6.833769 -0.681943 1169 -0.025522 0.999674 0.000000
-7.609961 -6.833951 -0.678811 1185 -0.025522 0.999674 0.000000
-7.609126 -6.833212 -0.675578 1173 -0.025522 0.999674 0.000000
-7.608842 -6.832955 -0.672401 1173 -0.025522 0.999674 0.000000
-7.608509 -6.832648 -0.669224 1171 -0.025522 0.999674 0.000000
-7.608812 -6.832924 -0.666091 1177 -0.025522 0.999674 0.000000
-7.609122 -6.833207 -0.662968 1173 -0.025522 0.999674 0.000000
-7.608789 -6.832900 -0.659781 1167 -0.025522 0.999674 0.000000
-7.608929 -6.833027 -0.656650 1161 -0.025522 0.999674 0.000000
-7.609681 -6.833706 -0.653553 1181 -0.025522 0.999674 0.000000
-7.609820 -6.833834 -0.650411 1185 -0.025522 0.999674 0.000000
-7.609422 -6.833478 -0.647225 1171 -0.025522 0.999674 0.000000
-7.608748 -6.832874 -0.644021 1163 -0.025522 0.999674 0.000000
-7.608847 -6.832958 -0.640870 1155 -0.025522 0.999674 0.000000
-7.609206 -6.833276 -0.637747 1179 -0.025522 0.999674 0.000000
-7.609728 -6.833745 -0.634642 1173 -0.025522 0.999674 0.000000
-7.609981 -6.833971 -0.631509 1169 -0.025522 0.999674 0.000000
-7.609958 -6.833949 -0.628349 1173 -0.025522 0.999674 0.000000
-7.609489 -6.833539 -0.625164 1163 -0.025522 0.999674 0.000000
-7.609197 -6.833276 -0.621986 1179 -0.025522 0.999674 0.000000
-7.609230 -6.833297 -0.618836 1181 -0.025522 0.999674 0.000000
-7.608874 -6.832985 -0.615659 1171 -0.025522 0.999674 0.000000
-7.609388 -6.833447 -0.612544 1189 -0.025522 0.999674 0.000000
-7.609642 -6.833673 -0.609422 1185 -0.025522 0.999674 0.000000
-7.609724 -6.833744 -0.606271 1179 -0.025522 0.999674 0.000000
-7.610239 -6.834206 -0.603156 1179 -0.025522 0.999674 0.000000
-7.610207 -6.834179 -0.600007 1183 -0.025522 0.999674 0.000000
-7.609581 -6.833611 -0.596802 1165 -0.025522 0.999674 0.000000
-7.609655 -6.833677 -0.593661 1165 -0.025522 0.999674 0.000000
-7.609568 -6.833606 -0.590502 1167 -0.025522 0.999674 0.000000
-7.609869 -6.833869 -0.587379 1171 -0.025522 0.999674 0.000000
-7.610001 -6.833991 -0.584238 1183 -0.025522 0.999674 0.000000
-7.610288 -6.834255 -0.581105 1175 -0.025522 0.999674 0.000000
-7.610526 -6.834469 -0.577973 1173 -0.025522 0.999674 0.000000
-7.610437 -6.834385 -0.574814 1181 -0.025522 0.999674 0.000000
-7.610674 -6.834599 -0.571681 1183 -0.025522 0.999674 0.000000
-7.610635 -6.834566 -0.568532 1183 -0.025522 0.999674 0.000000
-7.610164 -6.834141 -0.565346 1179 -0.025522 0.999674 0.000000
-7.610076 -6.834058 -0.562187 1181 -0.025522 0.999674 0.000000
-7.610149 -6.834123 -0.559046 1189 -0.025522 0.999674 0.000000
-7.610153 -6.834134 -0.555896 1175 -0.025522 0.999674 0.000000
-7.611268 -6.835127 -0.552816 1183 -0.025522 0.999674 0.000000
-7.611107 -6.834989 -0.549657 1179 -0.025522 0.999674 0.000000
-7.610359 -6.834317 -0.546454 1181 -0.025522 0.999674 0.000000
-7.610107 -6.834085 -0.543286 1169 -0.025522 0.999674 0.000000
-7.610825 -6.834725 -0.540189 1167 -0.025522 0.999674 0.000000
-7.610940 -6.834835 -0.537048 1181 -0.025522 0.999674 0.000000
-7.610250 -6.834219 -0.533855 1175 -0.025522 0.999674 0.000000
-7.610464 -6.834415 -0.530712 1177 -0.025522 0.999674 0.000000
-7.610367 -6.834325 -0.527563 1183 -0.025522 0.999674 0.000000
-7.609839 -6.833845 -0.524378 1179 -0.025522 0.999674 0.000000
-7.610556 -6.834486 -0.521271 1193 -0.025522 0.999674 0.000000
-7.611478 -6.835320 -0.518183 1183 -0.025522 0.999674 0.000000
-7.611495 -6.835329 -0.515033 1193 -0.025522 0.999674 0.000000
-7.611553 -6.835382 -0.511892 1211 -0.025522 0.999674 0.000000
-7.611548 -6.835386 -0.508742 1199 -0.025522 0.999674 0.000000
-7.611011 -6.834899 -0.505557 1193 -0.025522 0.999674 0.000000
-7.610680 -6.834607 -0.502390 1191 -0.025522 0.999674 0.000000
-7.610639 -6.834559 -0.499240 1189 -0.025522 0.999674 0.000000
-7.610805 -6.834718 -0.496099 1189 -0.025522 0.999674 0.000000
-7.611179 -6.835049 -0.492975 1195 -0.025522 0.999674 0.000000
-7.611238 -6.835103 -0.489834 1195 -0.025522 0.999674 0.000000
-7.611288 -6.835150 -0.486684 1205 -0.025522 0.999674 0.000000
-7.611020 -6.834904 -0.483516 1189 -0.025522 0.999674 0.000000
-7.610575 -6.834512 -0.480350 1179 -0.025522 0.999674 0.000000
-7.610902 -6.834807 -0.477217 1179 -0.025522 0.999674 0.000000
-7.611277 -6.835138 -0.474094 1177 -0.025522 0.999674 0.000000
-7.611117 -6.835000 -0.470935 1189 -0.025522 0.999674 0.000000
-7.610619 -6.834543 -0.467760 1189 -0.025522 0.999674 0.000000
-7.610394 -6.834343 -0.464592 1187 -0.025522 0.999674 0.000000
-7.610770 -6.834688 -0.461468 1187 -0.025522 0.999674 0.000000
-7.610818 -6.834720 -0.458328 1179 -0.025522 0.999674 0.000000
-7.610910 -6.834812 -0.455187 1163 -0.025522 0.999674 0.000000
-7.611293 -6.835149 -0.452063 1181 -0.025522 0.999674 0.000000
-7.611336 -6.835190 -0.448913 1169 -0.025522 0.999674 0.000000
-7.611436 -6.835288 -0.445772 1169 -0.025522 0.999674 0.000000
-7.611039 -6.834931 -0.442605 1159 -0.025522 0.999674 0.000000
-7.610868 -6.834774 -0.439447 1169 -0.025522 0.999674 0.000000
-7.610861 -6.834764 -0.436297 1171 -0.025522 0.999674 0.000000
-7.611009 -6.834897 -0.433165 1171 -0.025522 0.999674 0.000000
-7.610888 -6.834789 -0.430006 1165 -0.025522 0.999674 0.000000
-7.610873 -6.834774 -0.426856 1151 -0.025522 0.999674 0.000000
-7.611176 -6.835050 -0.423733 1157 -0.025522 0.999674 0.000000
-7.611332 -6.835190 -0.420592 1169 -0.025522 0.999674 0.000000
-7.610445 -6.834387 -0.417400 1167 -0.025522 0.999674 0.000000
-7.610529 -6.834472 -0.414259 1177 -0.025522 0.999674 0.000000
-7.611166 -6.835039 -0.411143 1167 -0.025522 0.999674 0.000000
-7.611094 -6.834981 -0.407994 1167 -0.025522 0.999674 0.000000
-7.610695 -6.834611 -0.404827 1173 -0.025522 0.999674 0.000000
-7.610942 -6.834846 -0.401695 1189 -0.025522 0.999674 0.000000
-7.611145 -6.835021 -0.398553 1193 -0.025522 0.999674 0.000000
-7.611336 -6.835199 -0.395421 1179 -0.025522 0.999674 0.000000
-7.611751 -6.835561 -0.392297 1187 -0.025522 0.999674 0.000000
-7.611182 -6.835050 -0.389122 1189 -0.025522 0.999674 0.000000
-7.611330 -6.835183 -0.385981 1187 -0.025522 0.999674 0.000000
-7.612398 -6.836141 -0.382891 1191 -0.025522 0.999674 0.000000
-7.612311 -6.836071 -0.379742 1193 -0.025522 0.999674 0.000000
-7.611742 -6.835560 -0.376567 1189 -0.025522 0.999674 0.000000
-7.611498 -6.835334 -0.373409 1183 -0.025522 0.999674 0.000000
-7.611411 -6.835263 -0.370260 1175 -0.025522 0.999674 0.000000
-7.611493 -6.835334 -0.367119 1173 -0.025522 0.999674 0.000000
-7.611030 -6.834917 -0.363953 1179 -0.025522 0.999674 0.000000
-7.610999 -6.834888 -0.360803 1169 -0.025522 0.999674 0.000000
-7.611189 -6.835067 -0.357672 1167 -0.025522 0.999674 0.000000
-7.611369 -6.835225 -0.354530 1171 -0.025522 0.999674 0.000000
-7.612152 -6.835928 -0.351423 1183 -0.025522 0.999674 0.000000
-7.612511 -6.836247 -0.348289 1179 -0.025522 0.999674 0.000000
-7.611926 -6.835724 -0.345115 1163 -0.025522 0.999674 0.000000
-7.611740 -6.835554 -0.341966 1161 -0.025522 0.999674 0.000000
-7.612082 -6.835860 -0.338833 1169 -0.025522 0.999674 0.000000
-7.611662 -6.835486 -0.335677 1165 -0.025522 0.999674 0.000000
-7.611517 -6.835361 -0.332518 1167 -0.025522 0.999674 0.000000
-7.611102 -6.834978 -0.329362 1153 -0.025522 0.999674 0.000000
-7.611170 -6.835052 -0.326221 1149 -0.025522 0.999674 0.000000
-7.610649 -6.834577 -0.323056 1153 -0.025522 0.999674 0.000000
-7.610276 -6.834239 -0.319889 1155 -0.025522 0.999674 0.000000
-7.610840 -6.834752 -0.316774 1151 -0.025522 0.999674 0.000000
-7.611338 -6.835201 -0.313649 1163 -0.025522 0.999674 0.000000
-7.611022 -6.834920 -0.310492 1157 -0.025522 0.999674 0.000000
-7.610876 -6.834780 -0.307343 1153 -0.025522 0.999674 0.000000
-7.614862 -6.833986 -0.704297 1175 -0.025522 0.999674 0.000000
-7.615231 -6.834324 -0.701174 1183 -0.025522 0.999674 0.000000
-7.615004 -6.834123 -0.697996 1179 -0.025522 0.999674 0.000000
-7.614573 -6.833730 -0.694800 1171 -0.025522 0.999674 0.000000
-7.614233 -6.833430 -0.691613 1173 -0.025522 0.999674 0.000000
-7.614331 -6.833513 -0.688472 1169 -0.025522 0.999674 0.000000
-7.613722 -6.832972 -0.685257 1159 -0.025522 0.999674 0.000000
-7.614472 -6.833638 -0.682170 1181 -0.025522 0.999674 0.000000
-7.615442 -6.834508 -0.679101 1191 -0.025522 0.999674 0.000000
-7.614997 -6.834116 -0.675905 1179 -0.025522 0.999674 0.000000
-7.614868 -6.834002 -0.672737 1171 -0.025522 0.999674 0.000000
-7.614534 -6.833694 -0.669560 1177 -0.025522 0.999674 0.000000
-7.613763 -6.833004 -0.666337 1181 -0.025522 0.999674 0.000000
-7.614179 -6.833379 -0.663213 1187 -0.025522 0.999674 0.000000
-7.614058 -6.833272 -0.660054 1177 -0.025522 0.999674 0.000000
-7.613334 -6.832618 -0.656830 1171 -0.025522 0.999674 0.000000
-7.613751 -6.832993 -0.653716 1189 -0.025522 0.999674 0.000000
-7.614168 -6.833368 -0.650593 1175 -0.025522 0.999674 0.000000
-7.614698 -6.833842 -0.647488 1187 -0.025522 0.999674 0.000000
-7.614951 -6.834068 -0.644355 1183 -0.025522 0.999674 0.000000
-7.614978 -6.834097 -0.641205 1179 -0.025522 0.999674 0.000000
-7.614303 -6.833493 -0.637991 1163 -0.025522 0.999674 0.000000
-7.614020 -6.833236 -0.634813 1167 -0.025522 0.999674 0.000000
-7.614265 -6.833456 -0.631681 1165 -0.025522 0.999674 0.000000
-7.613810 -6.833044 -0.628495 1173 -0.025522 0.999674 0.000000
-7.613355 -6.832633 -0.625299 1169 -0.025522 0.999674 0.000000
-7.613927 -6.833150 -0.622194 1167 -0.025522 0.999674 0.000000
-7.614491 -6.833663 -0.619089 1183 -0.025522 0.999674 0.000000
-7.615077 -6.834178 -0.615983 1187 -0.025522 0.999674 0.000000
-7.614721 -6.833868 -0.612796 1183 -0.025522 0.999674 0.000000
-7.614364 -6.833542 -0.609620 1167 -0.025522 0.999674 0.000000
-7.614453 -6.833619 -0.606469 1169 -0.025522 0.999674 0.000000
-7.614040 -6.833251 -0.603293 1179 -0.025522 0.999674 0.000000
-7.614058 -6.833274 -0.600132 1173 -0.025522 0.999674 0.000000
-7.614573 -6.833736 -0.597027 1167 -0.025522 0.999674 0.000000
-7.614769 -6.833905 -0.593886 1187 -0.025522 0.999674 0.000000
-7.614575 -6.833729 -0.590717 1187 -0.025522 0.999674 0.000000
-7.614316 -6.833504 -0.587550 1175 -0.025522 0.999674 0.000000
-7.614830 -6.833965 -0.584435 1181 -0.025522 0.999674 0.000000
-7.615295 -6.834377 -0.581320 1177 -0.025522 0.999674 0.000000
-7.615035 -6.834139 -0.578143 1167 -0.025522 0.999674 0.000000
-7.614735 -6.833869 -0.574976 1165 -0.025522 0.999674 0.000000
-7.614696 -6.833836 -0.571816 1181 -0.025522 0.999674 0.000000
-7.614762 -6.833895 -0.568675 1169 -0.025522 0.999674 0.000000
-7.615440 -6.834506 -0.565569 1181 -0.025522 0.999674 0.000000
-7.615018 -6.834132 -0.562383 1181 -0.025522 0.999674 0.000000
-7.614328 -6.833516 -0.559189 1175 -0.025522 0.999674 0.000000
-7.614395 -6.833575 -0.556038 1181 -0.025522 0.999674 0.000000
-7.614525 -6.833683 -0.552897 1167 -0.025522 0.999674 0.000000
-7.615194 -6.834287 -0.549791 1171 -0.025522 0.999674 0.000000
-7.615911 -6.834929 -0.546694 1169 -0.025522 0.999674 0.000000
-7.615913 -6.834939 -0.543544 1185 -0.025522 0.999674 0.000000
-7.615003 -6.834118 -0.540332 1183 -0.025522 0.999674 0.000000
-7.614687 -6.833837 -0.537155 1171 -0.025522 0.999674 0.000000
-7.615242 -6.834329 -0.534040 1177 -0.025522 0.999674 0.000000
-7.615520 -6.834587 -0.530917 1183 -0.025522 0.999674 0.000000
-7.615211 -6.834298 -0.527740 1187 -0.025522 0.999674 0.000000
-7.615270 -6.834351 -0.524599 1187 -0.025522 0.999674 0.000000
-7.615548 -6.834610 -0.521467 1187 -0.025522 0.999674 0.000000
-7.615499 -6.834556 -0.518307 1183 -0.025522 0.999674 0.000000
-7.615510 -6.834572 -0.515157 1185 -0.025522 0.999674 0.000000
-7.615463 -6.834533 -0.512007 1193 -0.025522 0.999674 0.000000
-7.614699 -6.833849 -0.508804 1183 -0.025522 0.999674 0.000000
-7.614382 -6.833553 -0.505637 1187 -0.025522 0.999674 0.000000
-7.615035 -6.834146 -0.502531 1191 -0.025522 0.999674 0.000000
-7.615581 -6.834632 -0.499416 1195 -0.025522 0.999674 0.000000
-7.615689 -6.834735 -0.496275 1205 -0.025522 0.999674 0.000000
-7.615966 -6.834980 -0.493142 1201 -0.025522 0.999674 0.000000
-7.616179 -6.835176 -0.490000 1193 -0.025522 0.999674 0.000000
-7.616133 -6.835137 -0.486851 1201 -0.025522 0.999674 0.000000
-7.616344 -6.835318 -0.483718 1185 -0.025522 0.999674 0.000000
-7.616348 -6.835329 -0.480568 1185 -0.025522 0.999674 0.000000
-7.615900 -6.834922 -0.477392 1173 -0.025522 0.999674 0.000000
-7.616006 -6.835012 -0.474251 1175 -0.025522 0.999674 0.000000
-7.615901 -6.834916 -0.471092 1185 -0.025522 0.999674 0.000000
-7.615783 -6.834822 -0.467933 1191 -0.025522 0.999674 0.000000
-7.616158 -6.835153 -0.464810 1191 -0.025522 0.999674 0.000000
-7.616364 -6.835343 -0.461678 1193 -0.025522 0.999674 0.000000
-7.615492 -6.834552 -0.458476 1183 -0.025522 0.999674 0.000000
-7.615592 -6.834650 -0.455335 1171 -0.025522 0.999674 0.000000
-7.616789 -6.835717 -0.452254 1189 -0.025522 0.999674 0.000000
-7.616442 -6.835413 -0.449087 1173 -0.025522 0.999674 0.000000
-7.616108 -6.835104 -0.445920 1175 -0.025522 0.999674 0.000000
-7.616095 -6.835104 -0.442770 1187 -0.025522 0.999674 0.000000
-7.615379 -6.834455 -0.439576 1175 -0.025522 0.999674 0.000000
-7.615804 -6.834837 -0.436452 1169 -0.025522 0.999674 0.000000
-7.616439 -6.835403 -0.433336 1169 -0.025522 0.999674 0.000000
-7.616163 -6.835153 -0.430179 1177 -0.025522 0.999674 0.000000
-7.615384 -6.834456 -0.426986 1163 -0.025522 0.999674 0.000000
-7.615750 -6.834782 -0.423863 1169 -0.025522 0.999674 0.000000
-7.615671 -6.834718 -0.420713 1183 -0.025522 0.999674 0.000000
-7.615169 -6.834270 -0.417538 1175 -0.025522 0.999674 0.000000
-7.615373 -6.834445 -0.414396 1179 -0.025522 0.999674 0.000000
-7.615520 -6.834579 -0.411254 1179 -0.025522 0.999674 0.000000
-7.615937 -6.834954 -0.408130 1173 -0.025522 0.999674 0.000000
-7.616296 -6.835273 -0.405007 1171 -0.025522 0.999674 0.000000
-7.616330 -6.835308 -0.401857 1181 -0.025522 0.999674 0.000000
-7.616307 -6.835287 -0.398707 1185 -0.025522 0.999674 0.000000
-7.616179 -6.835172 -0.395558 1179 -0.025522 0.999674 0.000000
-7.616000 -6.835008 -0.392399 1173 -0.025522 0.999674 0.000000
-7.616295 -6.835278 -0.389267 1187 -0.025522 0.999674 0.000000
-7.616549 -6.835505 -0.386134 1191 -0.025522 0.999674 0.000000
-7.616518 -6.835477 -0.382985 1177 -0.025522 0.999674 0.000000
-7.616170 -6.835171 -0.379818 1177 -0.025522 0.999674 0.000000
-7.616416 -6.835392 -0.376685 1179 -0.025522 0.999674 0.000000
-7.616930 -6.835853 -0.373560 1179 -0.025522 0.999674 0.000000
-7.616085 -6.835095 -0.370378 1161 -0.025522 0.999674 0.000000
-7.615899 -6.834925 -0.367220 1173 -0.025522 0.999674 0.000000
-7.616900 -6.835820 -0.364120 1185 -0.025522 0.999674 0.000000
-7.616714 -6.835649 -0.360962 1177 -0.025522 0.999674 0.000000
-7.615968 -6.834991 -0.357789 1173 -0.025522 0.999674 0.000000
-7.616163 -6.835161 -0.354647 1175 -0.025522 0.999674 0.000000
-7.616402 -6.835375 -0.351515 1173 -0.025522 0.999674 0.000000
-7.616639 -6.835589 -0.348373 1177 -0.025522 0.999674 0.000000
-7.616664 -6.835604 -0.345232 1165 -0.025522 0.999674 0.000000
-7.616356 -6.835329 -0.342075 1157 -0.025522 0.999674 0.000000
-7.616643 -6.835594 -0.338942 1157 -0.025522 0.999674 0.000000
-7.616391 -6.835361 -0.335785 1167 -0.025522 0.999674 0.000000
-7.616027 -6.835043 -0.332618 1159 -0.025522 0.999674 0.000000
-7.616434 -6.835398 -0.329494 1155 -0.025522 0.999674 0.000000
-7.616395 -6.835364 -0.326344 1161 -0.025522 0.999674 0.000000
-7.616569 -6.835530 -0.323202 1169 -0.025522 0.999674 0.000000
-7.616807 -6.835744 -0.320070 1163 -0.025522 0.999674 0.000000
-7.616815 -6.835747 -0.316920 1159 -0.025522 0.999674 0.000000
-7.616288 -6.835280 -0.313755 1145 -0.025522 0.999674 0.000000
-7.616028 -6.835042 -0.310607 1143 -0.025522 0.999674 0.000000
-7.616258 -6.835250 -0.307465 1139 -0.025522 0.999674 0.000000
-7.618763 -6.833131 -0.704453 1163 -0.025522 0.999674 0.000000
-7.619196 -6.833519 -0.701339 1175 -0.025522 0.999674 0.000000
-7.619133 -6.833467 -0.698179 1163 -0.025522 0.999674 0.000000
-7.619068 -6.833401 -0.695010 1159 -0.025522 0.999674 0.000000
-7.618842 -6.833200 -0.691832 1161 -0.025522 0.999674 0.000000
-7.618778 -6.833148 -0.688672 1161 -0.025522 0.999674 0.000000
-7.619749 -6.834019 -0.685603 1171 -0.025522 0.999674 0.000000
-7.620179 -6.834392 -0.682479 1189 -0.025522 0.999674 0.000000
-7.619896 -6.834149 -0.679302 1181 -0.025522 0.999674 0.000000
-7.620214 -6.834424 -0.676169 1177 -0.025522 0.999674 0.000000
-7.619005 -6.833351 -0.672910 1167 -0.025522 0.999674 0.000000
-7.618662 -6.833037 -0.669723 1173 -0.025522 0.999674 0.000000
-7.619137 -6.833468 -0.666608 1179 -0.025522 0.999674 0.000000
-7.619008 -6.833354 -0.663440 1191 -0.025522 0.999674 0.000000
-7.618675 -6.833047 -0.660263 1173 -0.025522 0.999674 0.000000
-7.619255 -6.833571 -0.657157 1185 -0.025522 0.999674 0.000000
-7.620322 -6.834528 -0.654087 1205 -0.025522 0.999674 0.000000
-7.619761 -6.834024 -0.650882 1185 -0.025522 0.999674 0.000000
-7.618990 -6.833334 -0.647659 1175 -0.025522 0.999674 0.000000
-7.619236 -6.833554 -0.644527 1173 -0.025522 0.999674 0.000000
-7.619984 -6.834219 -0.641440 1183 -0.025522 0.999674 0.000000
-7.619685 -6.833950 -0.638253 1171 -0.025522 0.999674 0.000000
-7.619068 -6.833403 -0.635048 1157 -0.025522 0.999674 0.000000
-7.618931 -6.833282 -0.631889 1163 -0.025522 0.999674 0.000000
-7.618803 -6.833168 -0.628721 1165 -0.025522 0.999674 0.000000
-7.618948 -6.833288 -0.625579 1161 -0.025522 0.999674 0.000000
-7.618601 -6.832982 -0.622392 1157 -0.025522 0.999674 0.000000
-7.618351 -6.832764 -0.619224 1157 -0.025522 0.999674 0.000000
-7.619041 -6.833372 -0.616118 1169 -0.025522 0.999674 0.000000
-7.619556 -6.833834 -0.613013 1189 -0.025522 0.999674 0.000000
-7.620070 -6.834296 -0.609898 1193 -0.025522 0.999674 0.000000
-7.619878 -6.834134 -0.606730 1183 -0.025522 0.999674 0.000000
-7.619634 -6.833907 -0.603552 1181 -0.025522 0.999674 0.000000
-7.619879 -6.834127 -0.600420 1185 -0.025522 0.999674 0.000000
-7.619361 -6.833666 -0.597225 1177 -0.025522 0.999674 0.000000
-7.619329 -6.833639 -0.594065 1173 -0.025522 0.999674 0.000000
-7.619298 -6.833611 -0.590915 1175 -0.025522 0.999674 0.000000
-7.619267 -6.833584 -0.587755 1177 -0.025522 0.999674 0.000000
-7.619886 -6.834138 -0.584650 1193 -0.025522 0.999674 0.000000
-7.619961 -6.834203 -0.581509 1177 -0.025522 0.999674 0.000000
-7.619653 -6.833928 -0.578332 1165 -0.025522 0.999674 0.000000
-7.619728 -6.833993 -0.575181 1167 -0.025522 0.999674 0.000000
-7.619638 -6.833909 -0.572022 1179 -0.025522 0.999674 0.000000
-7.618843 -6.833200 -0.568809 1163 -0.025522 0.999674 0.000000
-7.618640 -6.833018 -0.565641 1157 -0.025522 0.999674 0.000000
-7.619748 -6.834006 -0.562570 1175 -0.025522 0.999674 0.000000
-7.619922 -6.834172 -0.559429 1187 -0.025522 0.999674 0.000000
-7.619393 -6.833691 -0.556243 1187 -0.025522 0.999674 0.000000
-7.619793 -6.834054 -0.553120 1173 -0.025522 0.999674 0.000000
-7.620016 -6.834256 -0.549987 1169 -0.025522 0.999674 0.000000
-7.619276 -6.833590 -0.546774 1173 -0.025522 0.999674 0.000000
-7.619179 -6.833501 -0.543625 1177 -0.025522 0.999674 0.000000
-7.619409 -6.833708 -0.540483 1183 -0.025522 0.999674 0.000000
-7.619262 -6.833568 -0.537324 1171 -0.025522 0.999674 0.000000
-7.619752 -6.834012 -0.534210 1171 -0.025522 0.999674 0.000000
-7.619982 -6.834220 -0.531067 1179 -0.025522 0.999674 0.000000
-7.619771 -6.834031 -0.527899 1177 -0.025522 0.999674 0.000000
-7.619520 -6.833798 -0.524732 1183 -0.025522 0.999674 0.000000
-7.619464 -6.833752 -0.521582 1183 -0.025522 0.999674 0.000000
-7.619686 -6.833955 -0.518440 1185 -0.025522 0.999674 0.000000
-7.619857 -6.834106 -0.515308 1183 -0.025522 0.999674 0.000000
-7.620298 -6.834500 -0.512184 1187 -0.025522 0.999674 0.000000
-7.620470 -6.834652 -0.509042 1189 -0.025522 0.999674 0.000000
-7.620578 -6.834754 -0.505901 1183 -0.025522 0.999674 0.000000
-7.620686 -6.834858 -0.502750 1197 -0.025522 0.999674 0.000000
-7.620361 -6.834557 -0.499583 1191 -0.025522 0.999674 0.000000
-7.619931 -6.834177 -0.496407 1197 -0.025522 0.999674 0.000000
-7.619713 -6.833982 -0.493239 1193 -0.025522 0.999674 0.000000
-7.619664 -6.833929 -0.490089 1195 -0.025522 0.999674 0.000000
-7.619877 -6.834125 -0.486947 1187 -0.025522 0.999674 0.000000
-7.620204 -6.834419 -0.483824 1181 -0.025522 0.999674 0.000000
-7.620524 -6.834708 -0.480691 1189 -0.025522 0.999674 0.000000
-7.620793 -6.834946 -0.477559 1191 -0.025522 0.999674 0.000000
-7.620632 -6.834808 -0.474400 1191 -0.025522 0.999674 0.000000
-7.620357 -6.834557 -0.471233 1183 -0.025522 0.999674 0.000000
-7.620073 -6.834300 -0.468065 1183 -0.025522 0.999674 0.000000
-7.620074 -6.834297 -0.464915 1173 -0.025522 0.999674 0.000000
-7.620500 -6.834692 -0.461791 1191 -0.025522 0.999674 0.000000
-7.620279 -6.834483 -0.458623 1191 -0.025522 0.999674 0.000000
-7.620380 -6.834580 -0.455482 1181 -0.025522 0.999674 0.000000
-7.620146 -6.834373 -0.452324 1175 -0.025522 0.999674 0.000000
-7.619861 -6.834116 -0.449157 1179 -0.025522 0.999674 0.000000
-7.620123 -6.834349 -0.446024 1181 -0.025522 0.999674 0.000000
-7.620010 -6.834247 -0.442865 1173 -0.025522 0.999674 0.000000
-7.619670 -6.833947 -0.439698 1159 -0.025522 0.999674 0.000000
-7.620257 -6.834464 -0.436583 1161 -0.025522 0.999674 0.000000
-7.620795 -6.834944 -0.433458 1171 -0.025522 0.999674 0.000000
-7.621211 -6.835319 -0.430334 1183 -0.025522 0.999674 0.000000
-7.621035 -6.835168 -0.427175 1177 -0.025522 0.999674 0.000000
-7.620369 -6.834571 -0.423991 1179 -0.025522 0.999674 0.000000
-7.620240 -6.834456 -0.420842 1171 -0.025522 0.999674 0.000000
-7.620338 -6.834540 -0.417691 1181 -0.025522 0.999674 0.000000
-7.620697 -6.834859 -0.414568 1181 -0.025522 0.999674 0.000000
-7.620837 -6.834986 -0.411427 1185 -0.025522 0.999674 0.000000
-7.620335 -6.834538 -0.408251 1169 -0.025522 0.999674 0.000000
-7.620424 -6.834615 -0.405100 1169 -0.025522 0.999674 0.000000
-7.620622 -6.834799 -0.401968 1175 -0.025522 0.999674 0.000000
-7.620435 -6.834629 -0.398810 1171 -0.025522 0.999674 0.000000
-7.620307 -6.834514 -0.395651 1169 -0.025522 0.999674 0.000000
-7.620829 -6.834982 -0.392536 1179 -0.025522 0.999674 0.000000
-7.620424 -6.834621 -0.389370 1175 -0.025522 0.999674 0.000000
-7.620010 -6.834253 -0.386194 1169 -0.025522 0.999674 0.000000
-7.620491 -6.834676 -0.383069 1181 -0.025522 0.999674 0.000000
-7.620404 -6.834607 -0.379920 1177 -0.025522 0.999674 0.000000
-7.620331 -6.834535 -0.376770 1173 -0.025522 0.999674 0.000000
-7.620194 -6.834414 -0.373612 1173 -0.025522 0.999674 0.000000
-7.620545 -6.834728 -0.370488 1167 -0.025522 0.999674 0.000000
-7.621718 -6.835777 -0.367387 1173 -0.025522 0.999674 0.000000
-7.621574 -6.835651 -0.364239 1183 -0.025522 0.999674 0.000000
-7.620133 -6.834353 -0.361022 1179 -0.025522 0.999674 0.000000
-7.619884 -6.834134 -0.357864 1167 -0.025522 0.999674 0.000000
-7.620447 -6.834646 -0.354749 1165 -0.025522 0.999674 0.000000
-7.620585 -6.834759 -0.351608 1161 -0.025522 0.999674 0.000000
-7.620768 -6.834932 -0.348466 1163 -0.025522 0.999674 0.000000
-7.620841 -6.834997 -0.345325 1159 -0.025522 0.999674 0.000000
-7.620647 -6.834820 -0.342167 1153 -0.025522 0.999674 0.000000
-7.620616 -6.834793 -0.339017 1151 -0.025522 0.999674 0.000000
-7.620195 -6.834419 -0.335851 1157 -0.025522 0.999674 0.000000
-7.619943 -6.834186 -0.332693 1157 -0.025522 0.999674 0.000000
-7.620775 -6.834939 -0.329585 1159 -0.025522 0.999674 0.000000
-7.621232 -6.835345 -0.326451 1163 -0.025522 0.999674 0.000000
-7.620702 -6.834864 -0.323286 1159 -0.025522 0.999674 0.000000
-7.620226 -6.834448 -0.320120 1151 -0.025522 0.999674 0.000000
-7.619747 -6.834018 -0.316954 1151 -0.025522 0.999674 0.000000
-7.619984 -6.834232 -0.313822 1147 -0.025522 0.999674 0.000000
-7.621084 -6.835214 -0.310712 1159 -0.025522 0.999674 0.000000
-7.621369 -6.835464 -0.307579 1155 -0.025522 0.999674 0.000000
-7.625258 -6.834420 -0.704845 1175 -0.025522 0.999674 0.000000
-7.626067 -6.835156 -0.701757 1179 -0.025522 0.999674 0.000000
-7.625896 -6.834998 -0.698579 1181 -0.025522 0.999674 0.000000
-7.625188 -6.834356 -0.695355 1163 -0.025522 0.999674 0.000000
-7.625070 -6.834262 -0.692186 1167 -0.025522 0.999674 0.000000
-7.624508 -6.833756 -0.688982 1169 -0.025522 0.999674 0.000000
-7.623906 -6.833208 -0.685767 1175 -0.025522 0.999674 0.000000
-7.624111 -6.833397 -0.682635 1177 -0.025522 0.999674 0.000000
-7.624487 -6.833729 -0.679502 1167 -0.025522 0.999674 0.000000
-7.624798 -6.834011 -0.676379 1167 -0.025522 0.999674 0.000000
-7.625059 -6.834243 -0.673236 1173 -0.025522 0.999674 0.000000
-7.625207 -6.834377 -0.670095 1177 -0.025522 0.999674 0.000000
-7.625200 -6.834367 -0.666935 1183 -0.025522 0.999674 0.000000
-7.624144 -6.833424 -0.663694 1175 -0.025522 0.999674 0.000000
-7.623804 -6.833124 -0.660507 1165 -0.025522 0.999674 0.000000
-7.624822 -6.834031 -0.657438 1167 -0.025522 0.999674 0.000000
-7.625133 -6.834313 -0.654305 1181 -0.025522 0.999674 0.000000
-7.625223 -6.834391 -0.651154 1167 -0.025522 0.999674 0.000000
-7.625257 -6.834425 -0.648004 1173 -0.025522 0.999674 0.000000
-7.624477 -6.833729 -0.644781 1171 -0.025522 0.999674 0.000000
-7.624299 -6.833565 -0.641602 1155 -0.025522 0.999674 0.000000
-7.624495 -6.833735 -0.638470 1165 -0.025522 0.999674 0.000000
-7.624856 -6.834067 -0.635337 1167 -0.025522 0.999674 0.000000
-7.625547 -6.834677 -0.632241 1171 -0.025522 0.999674 0.000000
-7.624866 -6.834067 -0.629027 1177 -0.025522 0.999674 0.000000
-7.624022 -6.833322 -0.625805 1165 -0.025522 0.999674 0.000000
-7.624868 -6.834074 -0.622717 1175 -0.025522 0.999674 0.000000
-7.625561 -6.834697 -0.619620 1181 -0.025522 0.999674 0.000000
-7.625417 -6.834571 -0.616451 1179 -0.025522 0.999674 0.000000
-7.625230 -6.834400 -0.613283 1189 -0.025522 0.999674 0.000000
-7.625525 -6.834671 -0.610150 1193 -0.025522 0.999674 0.000000
-7.625721 -6.834841 -0.607008 1185 -0.025522 0.999674 0.000000
-7.625527 -6.834664 -0.603840 1181 -0.025522 0.999674 0.000000
-7.625495 -6.834637 -0.600680 1189 -0.025522 0.999674 0.000000
-7.625148 -6.834331 -0.597493 1179 -0.025522 0.999674 0.000000
-7.625597 -6.834731 -0.594379 1179 -0.025522 0.999674 0.000000
-7.626338 -6.835390 -0.591282 1173 -0.025522 0.999674 0.000000
-7.625867 -6.834966 -0.588087 1167 -0.025522 0.999674 0.000000
-7.625674 -6.834803 -0.584918 1187 -0.025522 0.999674 0.000000
-7.626073 -6.835152 -0.581795 1187 -0.025522 0.999674 0.000000
-7.625659 -6.834784 -0.578608 1169 -0.025522 0.999674 0.000000
-7.625247 -6.834416 -0.575422 1165 -0.025522 0.999674 0.000000
-7.625540 -6.834673 -0.572289 1177 -0.025522 0.999674 0.000000
-7.625387 -6.834541 -0.569121 1171 -0.025522 0.999674 0.000000
-7.624371 -6.833627 -0.565900 1163 -0.025522 0.999674 0.000000
-7.624063 -6.833352 -0.562723 1173 -0.025522 0.999674 0.000000
-7.624187 -6.833467 -0.559581 1179 -0.025522 0.999674 0.000000
-7.624529 -6.833774 -0.556448 1179 -0.025522 0.999674 0.000000
-7.625092 -6.834272 -0.553333 1179 -0.025522 0.999674 0.000000
-7.625711 -6.834826 -0.550227 1175 -0.025522 0.999674 0.000000
-7.625828 -6.834936 -0.547076 1183 -0.025522 0.999674 0.000000
-7.625462 -6.834604 -0.543899 1189 -0.025522 0.999674 0.000000
-7.625301 -6.834466 -0.540741 1183 -0.025522 0.999674 0.000000
-7.625750 -6.834865 -0.537616 1185 -0.025522 0.999674 0.000000
-7.625221 -6.834384 -0.534421 1173 -0.025522 0.999674 0.000000
-7.624296 -6.833566 -0.531210 1185 -0.025522 0.999674 0.000000
-7.625077 -6.834255 -0.528112 1189 -0.025522 0.999674 0.000000
-7.625512 -6.834657 -0.524988 1193 -0.025522 0.999674 0.000000
-7.625088 -6.834269 -0.521802 1183 -0.025522 0.999674 0.000000
-7.624983 -6.834172 -0.518643 1189 -0.025522 0.999674 0.000000
-7.624994 -6.834189 -0.515493 1171 -0.025522 0.999674 0.000000
-7.625377 -6.834526 -0.512369 1177 -0.025522 0.999674 0.000000
-7.625166 -6.834337 -0.509201 1171 -0.025522 0.999674 0.000000
-7.625225 -6.834390 -0.506051 1181 -0.025522 0.999674 0.000000
-7.625496 -6.834643 -0.502918 1181 -0.025522 0.999674 0.000000
-7.625497 -6.834640 -0.499768 1185 -0.025522 0.999674 0.000000
-7.625611 -6.834734 -0.496627 1193 -0.025522 0.999674 0.000000
-7.625777 -6.834894 -0.493485 1195 -0.025522 0.999674 0.000000
-7.625452 -6.834593 -0.490308 1203 -0.025522 0.999674 0.000000
-7.625177 -6.834356 -0.487141 1195 -0.025522 0.999674 0.000000
-7.624851 -6.834054 -0.483974 1171 -0.025522 0.999674 0.000000
-7.625065 -6.834250 -0.480831 1171 -0.025522 0.999674 0.000000
-7.624838 -6.834050 -0.477664 1183 -0.025522 0.999674 0.000000
-7.625061 -6.834252 -0.474531 1189 -0.025522 0.999674 0.000000
-7.624671 -6.833902 -0.471355 1175 -0.025522 0.999674 0.000000
-7.624614 -6.833843 -0.468205 1179 -0.025522 0.999674 0.000000
-7.625536 -6.834677 -0.465107 1177 -0.025522 0.999674 0.000000
-7.625585 -6.834710 -0.461956 1173 -0.025522 0.999674 0.000000
-7.625026 -6.834219 -0.458771 1175 -0.025522 0.999674 0.000000
-7.624424 -6.833671 -0.455587 1171 -0.025522 0.999674 0.000000
-7.625061 -6.834250 -0.452471 1179 -0.025522 0.999674 0.000000
-7.625485 -6.834632 -0.449347 1185 -0.025522 0.999674 0.000000
-7.624551 -6.833793 -0.446145 1165 -0.025522 0.999674 0.000000
-7.624325 -6.833592 -0.442987 1147 -0.025522 0.999674 0.000000
-7.625563 -6.834704 -0.439906 1157 -0.025522 0.999674 0.000000
-7.626320 -6.835375 -0.436799 1169 -0.025522 0.999674 0.000000
-7.626305 -6.835360 -0.433639 1181 -0.025522 0.999674 0.000000
-7.626298 -6.835351 -0.430489 1187 -0.025522 0.999674 0.000000
-7.626113 -6.835195 -0.427330 1179 -0.025522 0.999674 0.000000
-7.625129 -6.834305 -0.424130 1159 -0.025522 0.999674 0.000000
-7.624668 -6.833900 -0.420954 1163 -0.025522 0.999674 0.000000
-7.625034 -6.834226 -0.417820 1169 -0.025522 0.999674 0.000000
-7.625834 -6.834941 -0.414713 1179 -0.025522 0.999674 0.000000
-7.626201 -6.835266 -0.411589 1173 -0.025522 0.999674 0.000000
-7.625363 -6.834514 -0.408397 1165 -0.025522 0.999674 0.000000
-7.624641 -6.833875 -0.405204 1169 -0.025522 0.999674 0.000000
-7.624505 -6.833754 -0.402055 1169 -0.025522 0.999674 0.000000
-7.624969 -6.834166 -0.398930 1173 -0.025522 0.999674 0.000000
-7.625549 -6.834690 -0.395805 1187 -0.025522 0.999674 0.000000
-7.625312 -6.834469 -0.392647 1183 -0.025522 0.999674 0.000000
-7.625348 -6.834504 -0.389497 1189 -0.025522 0.999674 0.000000
-7.625479 -6.834625 -0.386355 1183 -0.025522 0.999674 0.000000
-7.625733 -6.834852 -0.383223 1181 -0.025522 0.999674 0.000000
-7.626142 -6.835221 -0.380089 1187 -0.025522 0.999674 0.000000
-7.625515 -6.834653 -0.376915 1179 -0.025522 0.999674 0.000000
-7.625874 -6.834972 -0.373781 1183 -0.025522 0.999674 0.000000
-7.626828 -6.835831 -0.370673 1191 -0.025522 0.999674 0.000000
-7.626365 -6.835413 -0.367507 1181 -0.025522 0.999674 0.000000
-7.625627 -6.834761 -0.364323 1175 -0.025522 0.999674 0.000000
-7.625546 -6.834683 -0.361164 1177 -0.025522 0.999674 0.000000
-7.625670 -6.834798 -0.358023 1179 -0.025522 0.999674 0.000000
-7.625866 -6.834969 -0.354891 1175 -0.025522 0.999674 0.000000
-7.625941 -6.835034 -0.351740 1171 -0.025522 0.999674 0.000000
-7.626236 -6.835304 -0.348608 1157 -0.025522 0.999674 0.000000
-7.626423 -6.835467 -0.345466 1161 -0.025522 0.999674 0.000000
-7.626221 -6.835285 -0.342308 1169 -0.025522 0.999674 0.000000
-7.625758 -6.834867 -0.339142 1161 -0.025522 0.999674 0.000000
-7.625337 -6.834494 -0.335976 1147 -0.025522 0.999674 0.000000
-7.625519 -6.834665 -0.332834 1153 -0.025522 0.999674 0.000000
-7.625641 -6.834766 -0.329693 1159 -0.025522 0.999674 0.000000
-7.625992 -6.835079 -0.326559 1151 -0.025522 0.999674 0.000000
-7.625621 -6.834756 -0.323393 1143 -0.025522 0.999674 0.000000
-7.625418 -6.834573 -0.320244 1149 -0.025522 0.999674 0.000000
-7.625053 -6.834242 -0.317078 1145 -0.025522 0.999674 0.000000
-7.625501 -6.834641 -0.313954 1157 -0.025522 0.999674 0.000000
-7.626552 -6.835586 -0.310844 1161 -0.025522 0.999674 0.000000
-7.626400 -6.835454 -0.307685 1145 -0.025522 0.999674 0.000000
-7.629479 -6.833757 -0.705028 1165 -0.025522 0.999674 0.000000
-7.629472 -6.833748 -0.701868 1161 -0.025522 0.999674 0.000000
-7.629741 -6.833987 -0.698725 1155 -0.025522 0.999674 0.000000
-7.629686 -6.833941 -0.695566 1149 -0.025522 0.999674 0.000000
-7.629182 -6.833492 -0.692360 1151 -0.025522 0.999674 0.000000
-7.629395 -6.833674 -0.689218 1151 -0.025522 0.999674 0.000000
-7.629664 -6.833912 -0.686086 1165 -0.025522 0.999674 0.000000
-7.629975 -6.834196 -0.682953 1177 -0.025522 0.999674 0.000000
-7.630237 -6.834427 -0.679810 1177 -0.025522 0.999674 0.000000
-7.629897 -6.834128 -0.676623 1171 -0.025522 0.999674 0.000000
-7.629776 -6.834020 -0.673454 1167 -0.025522 0.999674 0.000000
-7.630256 -6.834444 -0.670340 1169 -0.025522 0.999674 0.000000
-7.629803 -6.834045 -0.667144 1165 -0.025522 0.999674 0.000000
-7.629292 -6.833591 -0.663939 1161 -0.025522 0.999674 0.000000
-7.629121 -6.833432 -0.660770 1163 -0.025522 0.999674 0.000000
-7.629920 -6.834147 -0.657673 1185 -0.025522 0.999674 0.000000
-7.630833 -6.834962 -0.654594 1189 -0.025522 0.999674 0.000000
-7.630272 -6.834457 -0.651389 1175 -0.025522 0.999674 0.000000
-7.629597 -6.833854 -0.648175 1177 -0.025522 0.999674 0.000000
