92
-28.943346 -27.958406 -0.668752 1023 -0.252766 0.967527 0.000000
-28.943491 -27.958536 -0.656401 1023 -0.252766 0.967527 0.000000
-28.943119 -27.958176 -0.644034 1019 -0.252766 0.967527 0.000000
-28.942564 -27.957649 -0.631659 1011 -0.252766 0.967527 0.000000
-28.942648 -27.957729 -0.619298 1015 -0.252766 0.967527 0.000000
-28.941778 -27.956892 -0.606916 1017 -0.252766 0.967527 0.000000
-28.941753 -27.956869 -0.594556 1031 -0.252766 0.967527 0.000000
-28.942204 -27.957304 -0.582211 1023 -0.252766 0.967527 0.000000
-28.941061 -27.956203 -0.569822 1021 -0.252766 0.967527 0.000000
-28.940863 -27.956011 -0.557463 1023 -0.252766 0.967527 0.000000
-28.942104 -27.957203 -0.545121 1023 -0.252766 0.967527 0.000000
-28.940485 -27.955641 -0.532736 1031 -0.252766 0.967527 0.000000
-28.940702 -27.955858 -0.520384 1017 -0.252766 0.967527 0.000000
-28.940714 -27.955868 -0.508024 1015 -0.252766 0.967527 0.000000
-28.940355 -27.955528 -0.495657 1019 -0.252766 0.967527 0.000000
-28.941032 -27.956177 -0.483310 1019 -0.252766 0.967527 0.000000
-28.941818 -27.956944 -0.470962 1007 -0.252766 0.967527 0.000000
-28.942226 -27.957342 -0.458608 1013 -0.252766 0.967527 0.000000
-28.940754 -27.955914 -0.446232 1021 -0.252766 0.967527 0.000000
-28.938444 -27.953678 -0.433833 1025 -0.252766 0.967527 0.000000
-28.938005 -27.953264 -0.421477 1029 -0.252766 0.967527 0.000000
-28.938503 -27.953751 -0.409122 1023 -0.252766 0.967527 0.000000
-28.937397 -27.952679 -0.396752 1009 -0.252766 0.967527 0.000000
-28.937372 -27.952656 -0.384392 1025 -0.252766 0.967527 0.000000
-28.937607 -27.952888 -0.372040 1023 -0.252766 0.967527 0.000000
-28.936588 -27.951900 -0.359669 1029 -0.252766 0.967527 0.000000
-28.936132 -27.951456 -0.347313 1011 -0.252766 0.967527 0.000000
-28.935951 -27.951290 -0.334955 1029 -0.252766 0.967527 0.000000
-28.935816 -27.951151 -0.322596 1043 -0.252766 0.967527 0.000000
-28.936981 -27.952280 -0.310254 1025 -0.252766 0.967527 0.000000
-28.938581 -27.953835 -0.297909 1037 -0.252766 0.967527 0.000000
-28.936649 -27.951962 -0.285537 1033 -0.252766 0.967527 0.000000
-28.971533 -27.968174 -0.669212 1033 -0.252766 0.967527 0.000000
-28.970469 -27.967152 -0.656822 1043 -0.252766 0.967527 0.000000
-28.970411 -27.967089 -0.644452 1041 -0.252766 0.967527 0.000000
-28.970449 -27.967131 -0.632082 1041 -0.252766 0.967527 0.000000
-28.970322 -27.967010 -0.619712 1043 -0.252766 0.967527 0.000000
-28.971500 -27.968153 -0.607361 1035 -0.252766 0.967527 0.000000
-28.969162 -27.965893 -0.594943 1027 -0.252766 0.967527 0.000000
-28.968664 -27.965414 -0.582567 1031 -0.252766 0.967527 0.000000
-28.969164 -27.965889 -0.570212 1025 -0.252766 0.967527 0.000000
-28.969383 -27.966108 -0.557850 1001 -0.252766 0.967527 0.000000
-28.970131 -27.966827 -0.545493 1001 -0.252766 0.967527 0.000000
-28.967571 -27.964359 -0.533077 1021 -0.252766 0.967527 0.000000
-28.967415 -27.964214 -0.520708 1023 -0.252766 0.967527 0.000000
-28.968117 -27.964897 -0.508351 1013 -0.252766 0.967527 0.000000
-28.967489 -27.964285 -0.495976 1025 -0.252766 0.967527 0.000000
-28.967541 -27.964340 -0.483616 1019 -0.252766 0.967527 0.000000
-28.968124 -27.964897 -0.471260 1035 -0.252766 0.967527 0.000000
-28.968546 -27.965309 -0.458895 1021 -0.252766 0.967527 0.000000
-28.968372 -27.965149 -0.446527 1021 -0.252766 0.967527 0.000000
-28.967104 -27.963919 -0.434139 1021 -0.252766 0.967527 0.000000
-28.965452 -27.962330 -0.421754 1011 -0.252766 0.967527 0.000000
-28.966547 -27.963388 -0.409403 1025 -0.252766 0.967527 0.000000
-28.966335 -27.963184 -0.397035 1015 -0.252766 0.967527 0.000000
-28.965616 -27.962486 -0.384662 1023 -0.252766 0.967527 0.000000
-28.965591 -27.962463 -0.372292 1007 -0.252766 0.967527 0.000000
-28.965261 -27.962151 -0.359924 1007 -0.252766 0.967527 0.000000
-28.964439 -27.961349 -0.347552 1025 -0.252766 0.967527 0.000000
-28.965103 -27.962000 -0.335195 1011 -0.252766 0.967527 0.000000
-28.967377 -27.964190 -0.322853 1027 -0.252766 0.967527 0.000000
-28.967655 -27.964457 -0.310490 1033 -0.252766 0.967527 0.000000
-28.965513 -27.962397 -0.298100 1027 -0.252766 0.967527 0.000000
-28.964783 -27.961687 -0.285737 1019 -0.252766 0.967527 0.000000
-28.992535 -27.971680 -0.657136 1035 -0.252766 0.967527 0.000000
-28.991524 -27.970699 -0.644736 1033 -0.252766 0.967527 0.000000
-28.992044 -27.971205 -0.632371 1039 -0.252766 0.967527 0.000000
-28.992002 -27.971165 -0.607620 1053 -0.252766 0.967527 0.000000
-28.992025 -27.971182 -0.595250 1025 -0.252766 0.967527 0.000000
-28.992369 -27.971516 -0.582886 1031 -0.252766 0.967527 0.000000
-28.991999 -27.971169 -0.570500 1051 -0.252766 0.967527 0.000000
-28.990530 -27.969755 -0.533353 1013 -0.252766 0.967527 0.000000
-28.989332 -27.968594 -0.520954 1017 -0.252766 0.967527 0.000000
-28.989401 -27.968660 -0.508583 1031 -0.252766 0.967527 0.000000
-28.989662 -27.968914 -0.496220 1015 -0.252766 0.967527 0.000000
-28.991562 -27.970757 -0.483882 1019 -0.252766 0.967527 0.000000
-28.992031 -27.971207 -0.471517 1031 -0.252766 0.967527 0.000000
-28.988869 -27.968163 -0.459087 1027 -0.252766 0.967527 0.000000
-28.986601 -27.965973 -0.446678 1027 -0.252766 0.967527 0.000000
-28.986864 -27.966227 -0.434315 1005 -0.252766 0.967527 0.000000
-28.988956 -27.968243 -0.421975 1011 -0.252766 0.967527 0.000000
-28.991365 -27.970568 -0.409642 1031 -0.252766 0.967527 0.000000
-28.991293 -27.970505 -0.397262 1027 -0.252766 0.967527 0.000000
-28.989061 -27.968348 -0.384863 1019 -0.252766 0.967527 0.000000
-28.988255 -27.967575 -0.372480 1021 -0.252766 0.967527 0.000000
-28.988430 -27.967745 -0.360108 1029 -0.252766 0.967527 0.000000
-28.988297 -27.967619 -0.347739 1017 -0.252766 0.967527 0.000000
-28.988319 -27.967634 -0.335369 1011 -0.252766 0.967527 0.000000
-28.988495 -27.967804 -0.322997 1009 -0.252766 0.967527 0.000000
-28.989244 -27.968527 -0.310640 1027 -0.252766 0.967527 0.000000
-28.990736 -27.969976 -0.298285 1021 -0.252766 0.967527 0.000000
-28.991383 -27.970600 -0.285919 1019 -0.252766 0.967527 0.000000
