774
-7.650264 -7.110916 -0.355627 373 -0.181116 0.983462 0.000000
-7.650178 -7.110829 -0.352408 395 -0.181116 0.983462 0.000000
-7.649666 -7.110360 -0.349173 399 -0.181116 0.983462 0.000000
-7.649517 -7.110223 -0.345964 395 -0.181116 0.983462 0.000000
-7.649549 -7.110245 -0.342754 379 -0.181116 0.983462 0.000000
-7.649511 -7.110211 -0.339544 349 -0.181116 0.983462 0.000000
-7.650017 -7.110680 -0.336349 379 -0.181116 0.983462 0.000000
-7.650514 -7.111143 -0.333165 383 -0.181116 0.983462 0.000000
-7.650208 -7.110866 -0.329937 387 -0.181116 0.983462 0.000000
-7.651243 -7.111827 -0.326768 391 -0.181116 0.983462 0.000000
-7.651101 -7.111696 -0.323549 375 -0.181116 0.983462 0.000000
-7.649233 -7.109963 -0.320266 347 -0.181116 0.983462 0.000000
-7.650481 -7.111123 -0.317104 357 -0.181116 0.983462 0.000000
-7.651467 -7.112031 -0.313935 369 -0.181116 0.983462 0.000000
-7.649811 -7.110497 -0.310660 377 -0.181116 0.983462 0.000000
-7.649883 -7.110564 -0.307450 369 -0.181116 0.983462 0.000000
-7.650965 -7.111563 -0.304280 361 -0.181116 0.983462 0.000000
-7.650713 -7.111330 -0.301062 357 -0.181116 0.983462 0.000000
-7.655059 -7.110854 -0.703153 405 -0.181116 0.983462 0.000000
-7.656007 -7.111732 -0.700014 393 -0.181116 0.983462 0.000000
-7.655526 -7.111289 -0.696749 391 -0.181116 0.983462 0.000000
-7.653642 -7.109543 -0.693356 385 -0.181116 0.983462 0.000000
-7.653848 -7.109731 -0.690154 387 -0.181116 0.983462 0.000000
-7.654218 -7.110065 -0.686971 369 -0.181116 0.983462 0.000000
-7.654157 -7.110012 -0.683741 385 -0.181116 0.983462 0.000000
-7.654410 -7.110252 -0.680539 401 -0.181116 0.983462 0.000000
-7.654781 -7.110586 -0.677355 389 -0.181116 0.983462 0.000000
-7.655185 -7.110973 -0.674161 365 -0.181116 0.983462 0.000000
-7.654003 -7.109872 -0.670842 359 -0.181116 0.983462 0.000000
-7.653615 -7.109504 -0.667586 337 -0.181116 0.983462 0.000000
-7.654295 -7.110140 -0.664430 341 -0.181116 0.983462 0.000000
-7.654501 -7.110328 -0.661218 365 -0.181116 0.983462 0.000000
-7.654376 -7.110209 -0.657989 377 -0.181116 0.983462 0.000000
-7.653556 -7.109454 -0.654706 355 -0.181116 0.983462 0.000000
-7.652943 -7.108890 -0.651432 351 -0.181116 0.983462 0.000000
-7.653361 -7.109276 -0.648248 337 -0.181116 0.983462 0.000000
-7.654252 -7.110095 -0.645099 343 -0.181116 0.983462 0.000000
-7.654981 -7.110783 -0.641943 371 -0.181116 0.983462 0.000000
-7.654902 -7.110703 -0.638713 355 -0.181116 0.983462 0.000000
-7.655210 -7.110987 -0.635520 357 -0.181116 0.983462 0.000000
-7.655559 -7.111316 -0.632327 353 -0.181116 0.983462 0.000000
-7.654684 -7.110502 -0.629035 351 -0.181116 0.983462 0.000000
-7.656214 -7.111916 -0.625941 347 -0.181116 0.983462 0.000000
-7.657156 -7.112801 -0.622792 365 -0.181116 0.983462 0.000000
-7.656327 -7.112025 -0.619510 361 -0.181116 0.983462 0.000000
-7.654805 -7.110611 -0.616164 355 -0.181116 0.983462 0.000000
-7.653811 -7.109688 -0.612873 361 -0.181116 0.983462 0.000000
-7.654697 -7.110516 -0.609724 387 -0.181116 0.983462 0.000000
-7.655801 -7.111534 -0.606584 397 -0.181116 0.983462 0.000000
-7.655771 -7.111505 -0.603364 397 -0.181116 0.983462 0.000000
-7.654289 -7.110136 -0.600028 379 -0.181116 0.983462 0.000000
-7.653998 -7.109858 -0.596791 385 -0.181116 0.983462 0.000000
-7.653809 -7.109689 -0.593562 393 -0.181116 0.983462 0.000000
-7.654631 -7.110452 -0.590405 389 -0.181116 0.983462 0.000000
-7.655088 -7.110870 -0.587220 405 -0.181116 0.983462 0.000000
-7.654624 -7.110439 -0.583965 411 -0.181116 0.983462 0.000000
-7.654965 -7.110763 -0.580771 409 -0.181116 0.983462 0.000000
-7.653695 -7.109578 -0.577463 381 -0.181116 0.983462 0.000000
-7.654146 -7.110003 -0.574279 383 -0.181116 0.983462 0.000000
-7.655394 -7.111162 -0.571147 387 -0.181116 0.983462 0.000000
-7.656325 -7.112027 -0.567998 407 -0.181116 0.983462 0.000000
-7.656066 -7.111788 -0.564761 425 -0.181116 0.983462 0.000000
-7.655079 -7.110858 -0.561470 425 -0.181116 0.983462 0.000000
-7.655617 -7.111366 -0.558295 393 -0.181116 0.983462 0.000000
-7.655902 -7.111631 -0.555102 383 -0.181116 0.983462 0.000000
-7.655761 -7.111501 -0.551873 401 -0.181116 0.983462 0.000000
-7.655399 -7.111166 -0.548626 411 -0.181116 0.983462 0.000000
-7.654666 -7.110479 -0.545363 395 -0.181116 0.983462 0.000000
-7.654998 -7.110783 -0.542170 387 -0.181116 0.983462 0.000000
-7.655598 -7.111341 -0.538994 393 -0.181116 0.983462 0.000000
-7.654535 -7.110362 -0.535704 385 -0.181116 0.983462 0.000000
-7.653629 -7.109523 -0.532423 383 -0.181116 0.983462 0.000000
-7.654448 -7.110271 -0.529265 393 -0.181116 0.983462 0.000000
-7.654671 -7.110487 -0.526063 393 -0.181116 0.983462 0.000000
-7.655643 -7.111384 -0.522914 407 -0.181116 0.983462 0.000000
-7.656820 -7.112486 -0.519773 401 -0.181116 0.983462 0.000000
-7.656132 -7.111836 -0.516509 421 -0.181116 0.983462 0.000000
-7.655337 -7.111099 -0.513236 423 -0.181116 0.983462 0.000000
-7.655339 -7.111110 -0.510026 417 -0.181116 0.983462 0.000000
-7.655189 -7.110959 -0.506798 411 -0.181116 0.983462 0.000000
-7.655396 -7.111161 -0.503595 419 -0.181116 0.983462 0.000000
-7.655459 -7.111222 -0.500385 413 -0.181116 0.983462 0.000000
-7.655838 -7.111563 -0.497191 413 -0.181116 0.983462 0.000000
-7.655722 -7.111465 -0.493972 407 -0.181116 0.983462 0.000000
-7.655043 -7.110822 -0.490709 415 -0.181116 0.983462 0.000000
-7.655889 -7.111619 -0.487550 423 -0.181116 0.983462 0.000000
-7.656797 -7.112464 -0.484392 425 -0.181116 0.983462 0.000000
-7.655725 -7.111465 -0.481112 391 -0.181116 0.983462 0.000000
-7.655567 -7.111308 -0.477883 397 -0.181116 0.983462 0.000000
-7.656098 -7.111810 -0.474698 403 -0.181116 0.983462 0.000000
-7.656682 -7.112357 -0.471523 401 -0.181116 0.983462 0.000000
-7.656675 -7.112347 -0.468303 423 -0.181116 0.983462 0.000000
-7.655981 -7.111691 -0.465049 429 -0.181116 0.983462 0.000000
-7.656447 -7.112130 -0.461855 409 -0.181116 0.983462 0.000000
-7.656983 -7.112624 -0.458670 413 -0.181116 0.983462 0.000000
-7.655313 -7.111076 -0.455365 401 -0.181116 0.983462 0.000000
-7.654818 -7.110621 -0.452120 377 -0.181116 0.983462 0.000000
-7.655079 -7.110867 -0.448917 389 -0.181116 0.983462 0.000000
-7.655339 -7.111099 -0.445725 417 -0.181116 0.983462 0.000000
-7.656240 -7.111939 -0.442556 403 -0.181116 0.983462 0.000000
-7.655957 -7.111681 -0.439329 403 -0.181116 0.983462 0.000000
-7.655357 -7.111115 -0.436084 407 -0.181116 0.983462 0.000000
-7.655398 -7.111157 -0.432864 405 -0.181116 0.983462 0.000000
-7.655976 -7.111698 -0.429688 403 -0.181116 0.983462 0.000000
-7.656071 -7.111784 -0.426477 403 -0.181116 0.983462 0.000000
-7.655148 -7.110918 -0.423216 399 -0.181116 0.983462 0.000000
-7.655118 -7.110903 -0.419996 401 -0.181116 0.983462 0.000000
-7.654953 -7.110740 -0.416778 375 -0.181116 0.983462 0.000000
-7.654985 -7.110775 -0.413567 363 -0.181116 0.983462 0.000000
-7.656682 -7.112350 -0.410441 369 -0.181116 0.983462 0.000000
-7.656178 -7.111887 -0.407196 373 -0.181116 0.983462 0.000000
-7.655358 -7.111117 -0.403944 383 -0.181116 0.983462 0.000000
-7.655879 -7.111598 -0.400759 405 -0.181116 0.983462 0.000000
-7.655857 -7.111577 -0.397539 375 -0.181116 0.983462 0.000000
-7.656426 -7.112111 -0.394353 373 -0.181116 0.983462 0.000000
-7.657043 -7.112682 -0.391178 399 -0.181116 0.983462 0.000000
-7.656696 -7.112360 -0.387941 395 -0.181116 0.983462 0.000000
-7.656357 -7.112043 -0.384714 379 -0.181116 0.983462 0.000000
-7.657510 -7.113113 -0.381553 387 -0.181116 0.983462 0.000000
-7.657322 -7.112944 -0.378335 371 -0.181116 0.983462 0.000000
-7.657189 -7.112820 -0.375116 379 -0.181116 0.983462 0.000000
-7.657537 -7.113149 -0.371912 355 -0.181116 0.983462 0.000000
-7.657246 -7.112872 -0.368685 339 -0.181116 0.983462 0.000000
-7.655978 -7.111701 -0.365417 351 -0.181116 0.983462 0.000000
-7.655796 -7.111525 -0.362198 371 -0.181116 0.983462 0.000000
-7.656673 -7.112346 -0.359020 383 -0.181116 0.983462 0.000000
-7.657068 -7.112712 -0.355826 373 -0.181116 0.983462 0.000000
-7.657038 -7.112684 -0.352617 379 -0.181116 0.983462 0.000000
-7.657275 -7.112897 -0.349414 415 -0.181116 0.983462 0.000000
-7.658365 -7.113916 -0.346244 393 -0.181116 0.983462 0.000000
-7.658073 -7.113638 -0.343017 405 -0.181116 0.983462 0.000000
-7.656157 -7.111867 -0.339725 373 -0.181116 0.983462 0.000000
-7.655535 -7.111283 -0.336490 371 -0.181116 0.983462 0.000000
-7.656041 -7.111753 -0.333295 377 -0.181116 0.983462 0.000000
-7.655954 -7.111666 -0.330086 377 -0.181116 0.983462 0.000000
-7.656240 -7.111931 -0.326884 361 -0.181116 0.983462 0.000000
-7.656839 -7.112490 -0.323698 355 -0.181116 0.983462 0.000000
-7.656644 -7.112315 -0.320469 349 -0.181116 0.983462 0.000000
-7.657347 -7.112970 -0.317293 363 -0.181116 0.983462 0.000000
-7.657899 -7.113477 -0.314098 387 -0.181116 0.983462 0.000000
-7.657594 -7.113200 -0.310870 377 -0.181116 0.983462 0.000000
-7.657389 -7.113005 -0.307652 371 -0.181116 0.983462 0.000000
-7.657240 -7.112867 -0.304434 349 -0.181116 0.983462 0.000000
-7.657304 -7.112929 -0.301223 357 -0.181116 0.983462 0.000000
-7.662672 -7.113485 -0.703644 409 -0.181116 0.983462 0.000000
-7.662931 -7.113717 -0.700442 411 -0.181116 0.983462 0.000000
-7.662444 -7.113267 -0.697166 397 -0.181116 0.983462 0.000000
-7.662169 -7.113015 -0.693919 391 -0.181116 0.983462 0.000000
-7.661309 -7.112214 -0.690617 403 -0.181116 0.983462 0.000000
-7.661301 -7.112204 -0.687397 407 -0.181116 0.983462 0.000000
-7.661453 -7.112348 -0.684185 401 -0.181116 0.983462 0.000000
-7.661486 -7.112384 -0.680965 401 -0.181116 0.983462 0.000000
-7.661430 -7.112322 -0.677735 363 -0.181116 0.983462 0.000000
-7.661738 -7.112606 -0.674542 359 -0.181116 0.983462 0.000000
-7.663011 -7.113798 -0.671430 383 -0.181116 0.983462 0.000000
-7.662996 -7.113782 -0.668200 353 -0.181116 0.983462 0.000000
-7.662506 -7.113318 -0.664935 365 -0.181116 0.983462 0.000000
-7.661743 -7.112620 -0.661652 363 -0.181116 0.983462 0.000000
-7.660923 -7.111851 -0.658360 357 -0.181116 0.983462 0.000000
-7.660419 -7.111389 -0.655094 349 -0.181116 0.983462 0.000000
-7.661263 -7.112170 -0.651936 333 -0.181116 0.983462 0.000000
-7.661723 -7.112601 -0.648752 327 -0.181116 0.983462 0.000000
-7.660903 -7.111832 -0.645470 345 -0.181116 0.983462 0.000000
-7.662008 -7.112863 -0.642329 337 -0.181116 0.983462 0.000000
-7.662309 -7.113141 -0.639136 349 -0.181116 0.983462 0.000000
-7.660857 -7.111784 -0.635800 343 -0.181116 0.983462 0.000000
-7.661150 -7.112069 -0.632597 347 -0.181116 0.983462 0.000000
-7.661767 -7.112640 -0.629431 347 -0.181116 0.983462 0.000000
-7.660512 -7.111468 -0.626103 347 -0.181116 0.983462 0.000000
-7.660387 -7.111350 -0.622874 335 -0.181116 0.983462 0.000000
-7.660901 -7.111826 -0.619689 357 -0.181116 0.983462 0.000000
-7.661242 -7.112149 -0.616496 359 -0.181116 0.983462 0.000000
-7.661706 -7.112573 -0.613311 371 -0.181116 0.983462 0.000000
-7.662907 -7.113694 -0.610190 395 -0.181116 0.983462 0.000000
-7.661922 -7.112778 -0.606889 397 -0.181116 0.983462 0.000000
-7.660447 -7.111401 -0.603553 389 -0.181116 0.983462 0.000000
-7.661695 -7.112575 -0.600431 381 -0.181116 0.983462 0.000000
-7.661878 -7.112743 -0.597219 393 -0.181116 0.983462 0.000000
-7.661799 -7.112663 -0.594000 391 -0.181116 0.983462 0.000000
-7.662092 -7.112935 -0.590797 411 -0.181116 0.983462 0.000000
-7.662273 -7.113104 -0.587595 417 -0.181116 0.983462 0.000000
-7.663309 -7.114065 -0.584446 403 -0.181116 0.983462 0.000000
-7.663175 -7.113941 -0.581217 403 -0.181116 0.983462 0.000000
-7.662608 -7.113414 -0.577952 395 -0.181116 0.983462 0.000000
-7.662459 -7.113277 -0.574723 395 -0.181116 0.983462 0.000000
-7.662269 -7.113094 -0.571485 381 -0.181116 0.983462 0.000000
-7.661379 -7.112267 -0.568203 397 -0.181116 0.983462 0.000000
-7.660267 -7.111237 -0.564904 409 -0.181116 0.983462 0.000000
-7.661088 -7.112000 -0.561746 409 -0.181116 0.983462 0.000000
-7.662984 -7.113759 -0.558658 415 -0.181116 0.983462 0.000000
-7.662244 -7.113080 -0.555395 401 -0.181116 0.983462 0.000000
-7.662473 -7.113287 -0.552183 411 -0.181116 0.983462 0.000000
-7.663074 -7.113846 -0.549007 415 -0.181116 0.983462 0.000000
-7.661741 -7.112611 -0.545699 405 -0.181116 0.983462 0.000000
-7.662191 -7.113023 -0.542505 387 -0.181116 0.983462 0.000000
-7.662414 -7.113237 -0.539303 373 -0.181116 0.983462 0.000000
-7.662319 -7.113144 -0.536084 389 -0.181116 0.983462 0.000000
-7.663133 -7.113901 -0.532916 397 -0.181116 0.983462 0.000000
-7.662653 -7.113458 -0.529670 387 -0.181116 0.983462 0.000000
-7.661967 -7.112822 -0.526397 401 -0.181116 0.983462 0.000000
-7.662677 -7.113470 -0.523230 419 -0.181116 0.983462 0.000000
-7.663380 -7.114124 -0.520054 425 -0.181116 0.983462 0.000000
-7.663547 -7.114281 -0.516852 423 -0.181116 0.983462 0.000000
-7.662806 -7.113588 -0.513579 415 -0.181116 0.983462 0.000000
-7.661844 -7.112704 -0.510308 419 -0.181116 0.983462 0.000000
-7.663077 -7.113851 -0.507166 409 -0.181116 0.983462 0.000000
-7.663724 -7.114448 -0.503990 415 -0.181116 0.983462 0.000000
-7.663299 -7.114048 -0.500744 411 -0.181116 0.983462 0.000000
-7.663622 -7.114345 -0.497541 415 -0.181116 0.983462 0.000000
-7.663142 -7.113902 -0.494295 437 -0.181116 0.983462 0.000000
-7.662923 -7.113708 -0.491067 407 -0.181116 0.983462 0.000000
-7.663309 -7.114055 -0.487873 431 -0.181116 0.983462 0.000000
-7.663997 -7.114697 -0.484697 431 -0.181116 0.983462 0.000000
-7.662010 -7.112856 -0.481355 401 -0.181116 0.983462 0.000000
-7.660835 -7.111760 -0.478066 391 -0.181116 0.983462 0.000000
-7.662596 -7.113399 -0.474960 395 -0.181116 0.983462 0.000000
-7.663448 -7.114187 -0.471792 385 -0.181116 0.983462 0.000000
-7.663820 -7.114535 -0.468598 403 -0.181116 0.983462 0.000000
-7.663868 -7.114583 -0.465378 405 -0.181116 0.983462 0.000000
-7.662472 -7.113285 -0.462081 393 -0.181116 0.983462 0.000000
-7.661605 -7.112476 -0.458819 423 -0.181116 0.983462 0.000000
-7.661867 -7.112723 -0.455616 429 -0.181116 0.983462 0.000000
-7.661749 -7.112610 -0.452387 405 -0.181116 0.983462 0.000000
-7.661798 -7.112659 -0.449177 403 -0.181116 0.983462 0.000000
-7.662264 -7.113097 -0.445992 403 -0.181116 0.983462 0.000000
-7.662951 -7.113725 -0.442806 403 -0.181116 0.983462 0.000000
-7.663369 -7.114111 -0.439622 405 -0.181116 0.983462 0.000000
-7.662819 -7.113611 -0.436367 401 -0.181116 0.983462 0.000000
-7.663025 -7.113800 -0.433165 399 -0.181116 0.983462 0.000000
-7.663814 -7.114523 -0.429987 395 -0.181116 0.983462 0.000000
-7.663634 -7.114361 -0.426769 407 -0.181116 0.983462 0.000000
-7.663249 -7.114007 -0.423532 409 -0.181116 0.983462 0.000000
-7.662752 -7.113537 -0.420287 403 -0.181116 0.983462 0.000000
-7.662035 -7.112877 -0.417034 399 -0.181116 0.983462 0.000000
-7.662502 -7.113316 -0.413839 397 -0.181116 0.983462 0.000000
-7.662975 -7.113745 -0.410655 373 -0.181116 0.983462 0.000000
-7.662574 -7.113379 -0.407418 367 -0.181116 0.983462 0.000000
-7.662023 -7.112865 -0.404173 379 -0.181116 0.983462 0.000000
-7.662055 -7.112901 -0.400953 365 -0.181116 0.983462 0.000000
-7.663105 -7.113874 -0.397793 365 -0.181116 0.983462 0.000000
-7.663509 -7.114248 -0.394599 363 -0.181116 0.983462 0.000000
-7.663281 -7.114034 -0.391371 389 -0.181116 0.983462 0.000000
-7.663147 -7.113910 -0.388153 371 -0.181116 0.983462 0.000000
-7.663874 -7.114583 -0.384976 373 -0.181116 0.983462 0.000000
-7.663101 -7.113865 -0.381723 367 -0.181116 0.983462 0.000000
-7.662321 -7.113140 -0.378470 359 -0.181116 0.983462 0.000000
-7.662567 -7.113375 -0.375268 357 -0.181116 0.983462 0.000000
-7.662812 -7.113594 -0.372065 351 -0.181116 0.983462 0.000000
-7.663373 -7.114121 -0.368870 353 -0.181116 0.983462 0.000000
-7.662648 -7.113441 -0.365627 347 -0.181116 0.983462 0.000000
-7.662452 -7.113266 -0.362399 369 -0.181116 0.983462 0.000000
-7.663659 -7.114379 -0.359237 373 -0.181116 0.983462 0.000000
-7.664111 -7.114805 -0.356043 381 -0.181116 0.983462 0.000000
-7.663117 -7.113882 -0.352782 389 -0.181116 0.983462 0.000000
-7.662124 -7.112960 -0.349531 385 -0.181116 0.983462 0.000000
-7.661975 -7.112823 -0.346313 371 -0.181116 0.983462 0.000000
-7.663017 -7.113791 -0.343143 369 -0.181116 0.983462 0.000000
-7.664596 -7.115255 -0.339988 369 -0.181116 0.983462 0.000000
-7.664399 -7.115067 -0.336770 377 -0.181116 0.983462 0.000000
-7.664045 -7.114738 -0.333543 369 -0.181116 0.983462 0.000000
-7.664440 -7.115106 -0.330339 371 -0.181116 0.983462 0.000000
-7.664189 -7.114873 -0.327121 397 -0.181116 0.983462 0.000000
-7.664356 -7.115029 -0.323910 391 -0.181116 0.983462 0.000000
-7.664325 -7.115001 -0.320690 377 -0.181116 0.983462 0.000000
-7.663481 -7.114212 -0.317448 369 -0.181116 0.983462 0.000000
-7.663229 -7.113979 -0.314220 375 -0.181116 0.983462 0.000000
-7.664580 -7.115234 -0.311057 363 -0.181116 0.983462 0.000000
-7.664691 -7.115346 -0.307846 363 -0.181116 0.983462 0.000000
-7.664014 -7.114718 -0.304613 375 -0.181116 0.983462 0.000000
-7.664834 -7.115468 -0.301425 391 -0.181116 0.983462 0.000000
-7.668068 -7.114209 -0.703935 391 -0.181116 0.983462 0.000000
-7.667209 -7.113407 -0.700633 387 -0.181116 0.983462 0.000000
-7.667416 -7.113609 -0.697421 405 -0.181116 0.983462 0.000000
-7.667786 -7.113944 -0.694228 413 -0.181116 0.983462 0.000000
-7.669326 -7.115377 -0.691143 433 -0.181116 0.983462 0.000000
-7.669477 -7.115521 -0.687932 427 -0.181116 0.983462 0.000000
-7.668135 -7.114265 -0.684584 393 -0.181116 0.983462 0.000000
-7.667262 -7.113466 -0.681282 379 -0.181116 0.983462 0.000000
-7.666931 -7.113156 -0.678025 387 -0.181116 0.983462 0.000000
-7.667989 -7.114136 -0.674895 375 -0.181116 0.983462 0.000000
-7.669109 -7.115166 -0.671765 353 -0.181116 0.983462 0.000000
-7.668764 -7.114857 -0.668508 335 -0.181116 0.983462 0.000000
-7.668172 -7.114298 -0.665233 379 -0.181116 0.983462 0.000000
-7.667841 -7.113988 -0.661987 373 -0.181116 0.983462 0.000000
-7.667014 -7.113226 -0.658694 347 -0.181116 0.983462 0.000000
-7.667055 -7.113268 -0.655474 333 -0.181116 0.983462 0.000000
-7.668965 -7.115040 -0.652406 329 -0.181116 0.983462 0.000000
-7.668524 -7.114628 -0.649140 323 -0.181116 0.983462 0.000000
-7.666363 -7.112620 -0.645740 317 -0.181116 0.983462 0.000000
-7.666663 -7.112898 -0.642537 315 -0.181116 0.983462 0.000000
-7.667610 -7.113775 -0.639398 335 -0.181116 0.983462 0.000000
-7.667635 -7.113804 -0.636178 367 -0.181116 0.983462 0.000000
-7.667613 -7.113782 -0.632948 345 -0.181116 0.983462 0.000000
-7.667748 -7.113914 -0.629737 321 -0.181116 0.983462 0.000000
-7.668909 -7.114990 -0.626606 327 -0.181116 0.983462 0.000000
-7.668996 -7.115069 -0.623385 341 -0.181116 0.983462 0.000000
-7.668113 -7.114249 -0.620093 325 -0.181116 0.983462 0.000000
-7.666481 -7.112732 -0.616748 339 -0.181116 0.983462 0.000000
-7.666299 -7.112556 -0.613510 363 -0.181116 0.983462 0.000000
-7.668628 -7.114717 -0.610468 405 -0.181116 0.983462 0.000000
-7.669189 -7.115245 -0.607283 415 -0.181116 0.983462 0.000000
-7.668732 -7.114820 -0.604027 401 -0.181116 0.983462 0.000000
-7.669506 -7.115532 -0.600870 419 -0.181116 0.983462 0.000000
-7.669744 -7.115759 -0.597657 411 -0.181116 0.983462 0.000000
-7.668214 -7.114338 -0.594321 415 -0.181116 0.983462 0.000000
-7.667766 -7.113921 -0.591066 405 -0.181116 0.983462 0.000000
-7.668422 -7.114537 -0.587889 397 -0.181116 0.983462 0.000000
-7.668768 -7.114853 -0.584696 403 -0.181116 0.983462 0.000000
-7.669006 -7.115067 -0.581494 413 -0.181116 0.983462 0.000000
-7.668913 -7.114988 -0.578265 393 -0.181116 0.983462 0.000000
-7.668723 -7.114805 -0.575026 385 -0.181116 0.983462 0.000000
-7.668204 -7.114330 -0.571771 391 -0.181116 0.983462 0.000000
-7.667794 -7.113944 -0.568515 407 -0.181116 0.983462 0.000000
-7.668182 -7.114305 -0.565321 399 -0.181116 0.983462 0.000000
-7.669272 -7.115324 -0.562181 397 -0.181116 0.983462 0.000000
-7.669288 -7.115333 -0.558961 391 -0.181116 0.983462 0.000000
-7.669195 -7.115253 -0.555731 381 -0.181116 0.983462 0.000000
-7.669589 -7.115607 -0.552538 397 -0.181116 0.983462 0.000000
-7.669488 -7.115521 -0.549308 397 -0.181116 0.983462 0.000000
-7.669024 -7.115091 -0.546053 387 -0.181116 0.983462 0.000000
-7.668662 -7.114756 -0.542806 383 -0.181116 0.983462 0.000000
-7.669262 -7.115315 -0.539630 375 -0.181116 0.983462 0.000000
-7.669057 -7.115119 -0.536392 375 -0.181116 0.983462 0.000000
-7.667677 -7.113833 -0.533085 397 -0.181116 0.983462 0.000000
-7.667631 -7.113791 -0.529855 397 -0.181116 0.983462 0.000000
-7.668342 -7.114453 -0.526689 407 -0.181116 0.983462 0.000000
-7.668824 -7.114902 -0.523494 427 -0.181116 0.983462 0.000000
-7.668455 -7.114562 -0.520257 433 -0.181116 0.983462 0.000000
-7.669102 -7.115158 -0.517071 437 -0.181116 0.983462 0.000000
-7.668842 -7.114919 -0.513844 423 -0.181116 0.983462 0.000000
-7.668101 -7.114226 -0.510571 431 -0.181116 0.983462 0.000000
-7.668583 -7.114676 -0.507386 407 -0.181116 0.983462 0.000000
-7.668805 -7.114878 -0.504174 421 -0.181116 0.983462 0.000000
-7.669012 -7.115079 -0.500972 419 -0.181116 0.983462 0.000000
-7.668863 -7.114942 -0.497743 429 -0.181116 0.983462 0.000000
-7.668279 -7.114389 -0.494489 427 -0.181116 0.983462 0.000000
-7.668060 -7.114196 -0.491250 405 -0.181116 0.983462 0.000000
-7.668430 -7.114530 -0.488057 405 -0.181116 0.983462 0.000000
-7.668645 -7.114739 -0.484855 417 -0.181116 0.983462 0.000000
-7.668378 -7.114493 -0.481617 405 -0.181116 0.983462 0.000000
-7.667953 -7.114094 -0.478371 401 -0.181116 0.983462 0.000000
-7.668640 -7.114736 -0.475195 403 -0.181116 0.983462 0.000000
-7.667938 -7.114074 -0.471931 385 -0.181116 0.983462 0.000000
-7.666859 -7.113082 -0.468651 409 -0.181116 0.983462 0.000000
-7.668302 -7.114413 -0.465518 433 -0.181116 0.983462 0.000000
-7.668728 -7.114805 -0.462324 431 -0.181116 0.983462 0.000000
-7.668880 -7.114950 -0.459112 431 -0.181116 0.983462 0.000000
-7.670215 -7.116191 -0.455970 417 -0.181116 0.983462 0.000000
-7.670420 -7.116380 -0.452768 411 -0.181116 0.983462 0.000000
-7.669822 -7.115828 -0.449513 411 -0.181116 0.983462 0.000000
-7.669759 -7.115760 -0.446294 421 -0.181116 0.983462 0.000000
-7.669594 -7.115611 -0.443065 421 -0.181116 0.983462 0.000000
-7.669468 -7.115493 -0.439836 409 -0.181116 0.983462 0.000000
-7.668547 -7.114641 -0.436565 401 -0.181116 0.983462 0.000000
-7.667783 -7.113929 -0.433312 381 -0.181116 0.983462 0.000000
-7.668036 -7.114169 -0.430109 379 -0.181116 0.983462 0.000000
-7.668558 -7.114651 -0.426914 413 -0.181116 0.983462 0.000000
-7.669347 -7.115388 -0.423737 417 -0.181116 0.983462 0.000000
-7.669497 -7.115519 -0.420535 409 -0.181116 0.983462 0.000000
-7.669261 -7.115298 -0.417298 399 -0.181116 0.983462 0.000000
-7.669515 -7.115538 -0.414095 371 -0.181116 0.983462 0.000000
-7.669335 -7.115376 -0.410867 361 -0.181116 0.983462 0.000000
-7.668514 -7.114606 -0.407614 351 -0.181116 0.983462 0.000000
-7.668437 -7.114540 -0.404395 391 -0.181116 0.983462 0.000000
-7.668794 -7.114876 -0.401191 395 -0.181116 0.983462 0.000000
-7.669631 -7.115652 -0.398014 367 -0.181116 0.983462 0.000000
-7.669244 -7.115284 -0.394777 371 -0.181116 0.983462 0.000000
-7.667762 -7.113915 -0.391491 347 -0.181116 0.983462 0.000000
-7.668710 -7.114793 -0.388322 349 -0.181116 0.983462 0.000000
-7.669112 -7.115166 -0.385118 359 -0.181116 0.983462 0.000000
-7.669737 -7.115745 -0.381932 363 -0.181116 0.983462 0.000000
-7.669660 -7.115678 -0.378713 371 -0.181116 0.983462 0.000000
-7.668446 -7.114552 -0.375444 363 -0.181116 0.983462 0.000000
-7.668643 -7.114733 -0.372232 363 -0.181116 0.983462 0.000000
-7.670166 -7.116140 -0.369088 361 -0.181116 0.983462 0.000000
-7.670838 -7.116769 -0.365902 347 -0.181116 0.983462 0.000000
-7.671241 -7.117144 -0.362708 353 -0.181116 0.983462 0.000000
-7.670674 -7.116617 -0.359463 365 -0.181116 0.983462 0.000000
-7.669838 -7.115834 -0.356211 373 -0.181116 0.983462 0.000000
-7.669697 -7.115704 -0.352982 371 -0.181116 0.983462 0.000000
-7.670305 -7.116269 -0.349796 357 -0.181116 0.983462 0.000000
-7.671031 -7.116942 -0.346609 373 -0.181116 0.983462 0.000000
-7.669661 -7.115676 -0.343332 373 -0.181116 0.983462 0.000000
-7.670000 -7.115985 -0.340129 369 -0.181116 0.983462 0.000000
-7.670182 -7.116154 -0.336927 357 -0.181116 0.983462 0.000000
-7.669718 -7.115724 -0.333691 375 -0.181116 0.983462 0.000000
-7.670264 -7.116239 -0.330496 387 -0.181116 0.983462 0.000000
-7.670074 -7.116056 -0.327268 373 -0.181116 0.983462 0.000000
-7.670675 -7.116615 -0.324082 371 -0.181116 0.983462 0.000000
-7.671440 -7.117319 -0.320895 391 -0.181116 0.983462 0.000000
-7.671947 -7.117789 -0.317700 385 -0.181116 0.983462 0.000000
-7.671845 -7.117703 -0.314481 385 -0.181116 0.983462 0.000000
-7.671484 -7.117369 -0.311244 377 -0.181116 0.983462 0.000000
-7.670475 -7.116434 -0.307994 353 -0.181116 0.983462 0.000000
-7.669528 -7.115549 -0.304742 361 -0.181116 0.983462 0.000000
-7.670019 -7.116006 -0.301538 361 -0.181116 0.983462 0.000000
-7.674531 -7.115936 -0.704326 379 -0.181116 0.983462 0.000000
-7.674421 -7.115830 -0.701087 387 -0.181116 0.983462 0.000000
-7.674999 -7.116370 -0.697912 405 -0.181116 0.983462 0.000000
-7.675261 -7.116617 -0.694709 399 -0.181116 0.983462 0.000000
-7.675790 -7.117105 -0.691524 397 -0.181116 0.983462 0.000000
-7.675624 -7.116941 -0.688286 391 -0.181116 0.983462 0.000000
-7.674860 -7.116244 -0.684983 387 -0.181116 0.983462 0.000000
-7.674371 -7.115780 -0.681717 357 -0.181116 0.983462 0.000000
-7.673457 -7.114934 -0.678406 371 -0.181116 0.983462 0.000000
-7.672212 -7.113782 -0.675077 357 -0.181116 0.983462 0.000000
-7.672781 -7.114316 -0.671902 341 -0.181116 0.983462 0.000000
-7.674225 -7.115646 -0.668798 373 -0.181116 0.983462 0.000000
-7.674635 -7.116026 -0.665604 393 -0.181116 0.983462 0.000000
-7.674890 -7.116266 -0.662402 369 -0.181116 0.983462 0.000000
-7.675513 -7.116844 -0.659226 343 -0.181116 0.983462 0.000000
-7.675120 -7.116483 -0.655970 327 -0.181116 0.983462 0.000000
-7.674418 -7.115822 -0.652676 305 -0.181116 0.983462 0.000000
-7.674766 -7.116151 -0.649483 317 -0.181116 0.983462 0.000000
-7.675287 -7.116633 -0.646298 333 -0.181116 0.983462 0.000000
-7.675478 -7.116808 -0.643086 311 -0.181116 0.983462 0.000000
-7.675462 -7.116792 -0.639866 297 -0.181116 0.983462 0.000000
-7.675172 -7.116528 -0.636609 351 -0.181116 0.983462 0.000000
-7.674186 -7.115612 -0.633308 345 -0.181116 0.983462 0.000000
-7.673573 -7.115048 -0.630034 313 -0.181116 0.983462 0.000000
-7.674197 -7.115625 -0.626858 311 -0.181116 0.983462 0.000000
-7.673850 -7.115303 -0.623611 313 -0.181116 0.983462 0.000000
-7.673669 -7.115127 -0.620372 331 -0.181116 0.983462 0.000000
-7.673756 -7.115207 -0.617152 357 -0.181116 0.983462 0.000000
-7.673946 -7.115382 -0.613940 377 -0.181116 0.983462 0.000000
-7.674397 -7.115807 -0.610755 397 -0.181116 0.983462 0.000000
-7.675337 -7.116678 -0.607597 405 -0.181116 0.983462 0.000000
-7.676805 -7.118042 -0.604483 413 -0.181116 0.983462 0.000000
-7.676135 -7.117420 -0.601209 403 -0.181116 0.983462 0.000000
-7.675142 -7.116497 -0.597908 403 -0.181116 0.983462 0.000000
-7.675009 -7.116373 -0.594679 427 -0.181116 0.983462 0.000000
-7.674922 -7.116286 -0.591440 419 -0.181116 0.983462 0.000000
-7.675743 -7.117049 -0.588282 401 -0.181116 0.983462 0.000000
-7.676146 -7.117422 -0.585088 405 -0.181116 0.983462 0.000000
-7.675256 -7.116596 -0.581797 397 -0.181116 0.983462 0.000000
-7.674736 -7.116121 -0.578532 399 -0.181116 0.983462 0.000000
-7.675509 -7.116832 -0.575364 411 -0.181116 0.983462 0.000000
-7.675582 -7.116899 -0.572153 415 -0.181116 0.983462 0.000000
-7.675063 -7.116425 -0.568888 421 -0.181116 0.983462 0.000000
-7.674432 -7.115834 -0.565624 401 -0.181116 0.983462 0.000000
-7.675041 -7.116399 -0.562438 385 -0.181116 0.983462 0.000000
-7.675436 -7.116766 -0.559245 391 -0.181116 0.983462 0.000000
-7.675184 -7.116533 -0.556007 397 -0.181116 0.983462 0.000000
-7.675200 -7.116542 -0.552787 379 -0.181116 0.983462 0.000000
-7.675910 -7.117203 -0.549610 379 -0.181116 0.983462 0.000000
-7.675707 -7.117022 -0.546372 385 -0.181116 0.983462 0.000000
-7.674809 -7.116189 -0.543090 389 -0.181116 0.983462 0.000000
-7.674982 -7.116338 -0.539878 359 -0.181116 0.983462 0.000000
-7.676483 -7.117740 -0.536754 371 -0.181116 0.983462 0.000000
-7.676870 -7.118102 -0.533561 377 -0.181116 0.983462 0.000000
-7.676461 -7.117715 -0.530314 389 -0.181116 0.983462 0.000000
-7.675333 -7.116672 -0.527015 411 -0.181116 0.983462 0.000000
-7.674860 -7.116234 -0.523759 429 -0.181116 0.983462 0.000000
-7.674979 -7.116339 -0.520548 413 -0.181116 0.983462 0.000000
-7.675634 -7.116942 -0.517362 393 -0.181116 0.983462 0.000000
-7.676062 -7.117348 -0.514168 397 -0.181116 0.983462 0.000000
-7.675046 -7.116407 -0.510887 413 -0.181116 0.983462 0.000000
-7.674787 -7.116168 -0.507649 413 -0.181116 0.983462 0.000000
-7.674952 -7.116311 -0.504438 407 -0.181116 0.983462 0.000000
-7.674898 -7.116263 -0.501208 415 -0.181116 0.983462 0.000000
-7.674418 -7.115820 -0.497963 405 -0.181116 0.983462 0.000000
-7.675389 -7.116717 -0.494794 423 -0.181116 0.983462 0.000000
-7.676462 -7.117709 -0.491643 429 -0.181116 0.983462 0.000000
-7.675973 -7.117259 -0.488388 403 -0.181116 0.983462 0.000000
-7.676195 -7.117460 -0.485186 397 -0.181116 0.983462 0.000000
-7.675858 -7.117158 -0.481939 399 -0.181116 0.983462 0.000000
-7.675330 -7.116663 -0.478694 411 -0.181116 0.983462 0.000000
-7.675117 -7.116461 -0.475456 427 -0.181116 0.983462 0.000000
-7.675915 -7.117206 -0.472278 421 -0.181116 0.983462 0.000000
-7.676492 -7.117746 -0.469093 415 -0.181116 0.983462 0.000000
-7.675034 -7.116396 -0.465786 401 -0.181116 0.983462 0.000000
-7.675681 -7.116992 -0.462610 407 -0.181116 0.983462 0.000000
-7.675839 -7.117129 -0.459399 411 -0.181116 0.983462 0.000000
-7.675289 -7.116629 -0.456143 405 -0.181116 0.983462 0.000000
-7.675446 -7.116765 -0.452932 413 -0.181116 0.983462 0.000000
-7.674738 -7.116112 -0.449669 391 -0.181116 0.983462 0.000000
-7.674676 -7.116058 -0.446449 377 -0.181116 0.983462 0.000000
-7.676380 -7.117637 -0.443323 393 -0.181116 0.983462 0.000000
-7.676745 -7.117980 -0.440120 417 -0.181116 0.983462 0.000000
-7.676840 -7.118066 -0.436909 401 -0.181116 0.983462 0.000000
-7.676501 -7.117750 -0.433672 399 -0.181116 0.983462 0.000000
-7.675421 -7.116744 -0.430392 409 -0.181116 0.983462 0.000000
-7.675508 -7.116824 -0.427181 413 -0.181116 0.983462 0.000000
-7.675495 -7.116822 -0.423961 405 -0.181116 0.983462 0.000000
-7.675857 -7.117150 -0.420757 401 -0.181116 0.983462 0.000000
-7.675203 -7.116540 -0.417503 385 -0.181116 0.983462 0.000000
-7.675986 -7.117272 -0.414326 369 -0.181116 0.983462 0.000000
-7.676127 -7.117395 -0.411115 371 -0.181116 0.983462 0.000000
-7.676429 -7.117687 -0.407912 381 -0.181116 0.983462 0.000000
-7.676627 -7.117869 -0.404700 399 -0.181116 0.983462 0.000000
-7.675594 -7.116901 -0.401429 379 -0.181116 0.983462 0.000000
-7.676376 -7.117633 -0.398252 389 -0.181116 0.983462 0.000000
-7.676566 -7.117808 -0.395040 379 -0.181116 0.983462 0.000000
-7.676228 -7.117492 -0.391803 367 -0.181116 0.983462 0.000000
-7.676631 -7.117866 -0.388599 369 -0.181116 0.983462 0.000000
-7.676395 -7.117645 -0.385372 363 -0.181116 0.983462 0.000000
-7.676254 -7.117515 -0.382143 365 -0.181116 0.983462 0.000000
-7.677737 -7.118891 -0.378999 377 -0.181116 0.983462 0.000000
-7.677178 -7.118371 -0.375754 383 -0.181116 0.983462 0.000000
-7.676233 -7.117500 -0.372493 369 -0.181116 0.983462 0.000000
-7.676485 -7.117725 -0.369280 371 -0.181116 0.983462 0.000000
-7.676125 -7.117404 -0.366044 365 -0.181116 0.983462 0.000000
-7.676426 -7.117682 -0.362841 365 -0.181116 0.983462 0.000000
-7.675590 -7.116900 -0.359588 365 -0.181116 0.983462 0.000000
-7.675132 -7.116475 -0.356353 365 -0.181116 0.983462 0.000000
-7.676333 -7.117597 -0.353181 367 -0.181116 0.983462 0.000000
-7.676081 -7.117363 -0.349954 369 -0.181116 0.983462 0.000000
-7.675790 -7.117085 -0.346726 381 -0.181116 0.983462 0.000000
-7.676722 -7.117951 -0.343547 375 -0.181116 0.983462 0.000000
-7.676793 -7.118018 -0.340327 371 -0.181116 0.983462 0.000000
-7.676108 -7.117383 -0.337083 371 -0.181116 0.983462 0.000000
-7.675976 -7.117259 -0.333864 373 -0.181116 0.983462 0.000000
-7.675889 -7.117172 -0.330635 369 -0.181116 0.983462 0.000000
-7.676488 -7.117730 -0.327449 375 -0.181116 0.983462 0.000000
-7.677256 -7.118449 -0.324262 403 -0.181116 0.983462 0.000000
-7.677643 -7.118810 -0.321058 399 -0.181116 0.983462 0.000000
-7.677130 -7.118328 -0.317823 385 -0.181116 0.983462 0.000000
-7.675855 -7.117151 -0.314555 369 -0.181116 0.983462 0.000000
-7.675973 -7.117257 -0.311334 353 -0.181116 0.983462 0.000000
-7.676250 -7.117515 -0.308131 355 -0.181116 0.983462 0.000000
-7.676101 -7.117378 -0.304912 351 -0.181116 0.983462 0.000000
-7.676489 -7.117739 -0.301709 367 -0.181116 0.983462 0.000000
-7.680926 -7.117415 -0.704699 377 -0.181116 0.983462 0.000000
-7.681353 -7.117807 -0.701505 393 -0.181116 0.983462 0.000000
-7.681552 -7.118003 -0.698303 413 -0.181116 0.983462 0.000000
-7.680644 -7.117150 -0.694991 403 -0.181116 0.983462 0.000000
-7.681434 -7.117888 -0.691824 403 -0.181116 0.983462 0.000000
-7.682555 -7.118918 -0.688693 425 -0.181116 0.983462 0.000000
-7.682493 -7.118865 -0.685464 391 -0.181116 0.983462 0.000000
-7.681571 -7.118012 -0.682152 373 -0.181116 0.983462 0.000000
-7.680388 -7.116911 -0.678823 361 -0.181116 0.983462 0.000000
-7.680799 -7.117290 -0.675629 363 -0.181116 0.983462 0.000000
-7.681534 -7.117984 -0.672462 379 -0.181116 0.983462 0.000000
-7.681250 -7.117712 -0.669205 369 -0.181116 0.983462 0.000000
-7.681029 -7.117504 -0.665957 369 -0.181116 0.983462 0.000000
-7.681063 -7.117540 -0.662737 359 -0.181116 0.983462 0.000000
-7.681268 -7.117728 -0.659525 335 -0.181116 0.983462 0.000000
-7.682043 -7.118454 -0.656357 309 -0.181116 0.983462 0.000000
-7.681979 -7.118385 -0.653128 291 -0.181116 0.983462 0.000000
-7.681910 -7.118326 -0.649888 297 -0.181116 0.983462 0.000000
-7.681571 -7.118010 -0.646641 309 -0.181116 0.983462 0.000000
-7.681232 -7.117693 -0.643385 329 -0.181116 0.983462 0.000000
-7.680950 -7.117436 -0.640127 329 -0.181116 0.983462 0.000000
-7.681086 -7.117567 -0.636916 357 -0.181116 0.983462 0.000000
-7.682031 -7.118431 -0.633767 351 -0.181116 0.983462 0.000000
-7.682009 -7.118408 -0.630537 321 -0.181116 0.983462 0.000000
-7.681553 -7.117998 -0.627271 337 -0.181116 0.983462 0.000000
-7.681585 -7.118020 -0.624041 367 -0.181116 0.983462 0.000000
-7.682154 -7.118553 -0.620865 375 -0.181116 0.983462 0.000000
-7.681595 -7.118033 -0.617591 373 -0.181116 0.983462 0.000000
-7.681089 -7.117557 -0.614325 405 -0.181116 0.983462 0.000000
-7.681754 -7.118180 -0.611149 409 -0.181116 0.983462 0.000000
-7.681888 -7.118297 -0.607938 405 -0.181116 0.983462 0.000000
-7.682135 -7.118531 -0.604725 407 -0.181116 0.983462 0.000000
-7.683279 -7.119594 -0.601584 403 -0.181116 0.983462 0.000000
-7.681962 -7.118371 -0.598257 417 -0.181116 0.983462 0.000000
-7.681238 -7.117705 -0.594983 429 -0.181116 0.983462 0.000000
-7.681852 -7.118262 -0.591798 425 -0.181116 0.983462 0.000000
-7.681334 -7.117788 -0.588532 415 -0.181116 0.983462 0.000000
-7.680561 -7.117069 -0.585249 397 -0.181116 0.983462 0.000000
-7.680412 -7.116932 -0.582021 379 -0.181116 0.983462 0.000000
-7.680761 -7.117262 -0.578817 395 -0.181116 0.983462 0.000000
-7.680137 -7.116677 -0.575543 407 -0.181116 0.983462 0.000000
-7.680532 -7.117043 -0.572349 419 -0.181116 0.983462 0.000000
-7.681883 -7.118299 -0.569227 393 -0.181116 0.983462 0.000000
-7.682279 -7.118667 -0.566023 407 -0.181116 0.983462 0.000000
-7.682776 -7.119129 -0.562838 395 -0.181116 0.983462 0.000000
-7.681829 -7.118245 -0.559547 375 -0.181116 0.983462 0.000000
-7.680939 -7.117418 -0.556255 349 -0.181116 0.983462 0.000000
-7.681807 -7.118218 -0.553087 357 -0.181116 0.983462 0.000000
-7.681714 -7.118140 -0.549858 373 -0.181116 0.983462 0.000000
-7.680918 -7.117402 -0.546585 379 -0.181116 0.983462 0.000000
-7.682220 -7.118606 -0.543443 363 -0.181116 0.983462 0.000000
-7.682820 -7.119164 -0.540267 347 -0.181116 0.983462 0.000000
-7.682513 -7.118874 -0.537020 353 -0.181116 0.983462 0.000000
-7.683003 -7.119330 -0.533826 381 -0.181116 0.983462 0.000000
-7.682428 -7.118797 -0.530561 385 -0.181116 0.983462 0.000000
-7.682760 -7.119100 -0.527358 409 -0.181116 0.983462 0.000000
-7.682280 -7.118657 -0.524102 431 -0.181116 0.983462 0.000000
-7.681484 -7.117919 -0.520829 399 -0.181116 0.983462 0.000000
-7.681597 -7.118032 -0.517608 403 -0.181116 0.983462 0.000000
-7.682244 -7.118629 -0.514432 413 -0.181116 0.983462 0.000000
-7.683537 -7.119826 -0.511290 423 -0.181116 0.983462 0.000000
-7.682473 -7.118833 -0.508000 407 -0.181116 0.983462 0.000000
-7.680701 -7.117203 -0.504656 401 -0.181116 0.983462 0.000000
-7.681884 -7.118298 -0.501515 419 -0.181116 0.983462 0.000000
-7.681838 -7.118257 -0.498286 403 -0.181116 0.983462 0.000000
-7.681679 -7.118099 -0.495057 431 -0.181116 0.983462 0.000000
-7.681571 -7.118008 -0.491828 427 -0.181116 0.983462 0.000000
-7.682211 -7.118598 -0.488642 399 -0.181116 0.983462 0.000000
-7.682850 -7.119188 -0.485456 411 -0.181116 0.983462 0.000000
-7.681518 -7.117953 -0.482148 401 -0.181116 0.983462 0.000000
-7.682096 -7.118493 -0.478963 417 -0.181116 0.983462 0.000000
-7.682899 -7.119229 -0.475795 425 -0.181116 0.983462 0.000000
-7.682096 -7.118486 -0.472523 415 -0.181116 0.983462 0.000000
-7.681222 -7.117686 -0.469251 397 -0.181116 0.983462 0.000000
-7.682248 -7.118627 -0.466081 413 -0.181116 0.983462 0.000000
-7.682832 -7.119173 -0.462895 417 -0.181116 0.983462 0.000000
-7.681531 -7.117963 -0.459598 403 -0.181116 0.983462 0.000000
-7.681634 -7.118055 -0.456387 407 -0.181116 0.983462 0.000000
-7.681518 -7.117958 -0.453157 397 -0.181116 0.983462 0.000000
-7.681778 -7.118190 -0.449945 399 -0.181116 0.983462 0.000000
-7.682094 -7.118481 -0.446742 385 -0.181116 0.983462 0.000000
-7.682183 -7.118574 -0.443531 387 -0.181116 0.983462 0.000000
-7.681702 -7.118116 -0.440276 387 -0.181116 0.983462 0.000000
-7.681033 -7.117508 -0.437022 381 -0.181116 0.983462 0.000000
-7.680977 -7.117446 -0.433792 379 -0.181116 0.983462 0.000000
-7.681334 -7.117783 -0.430589 393 -0.181116 0.983462 0.000000
-7.681753 -7.118168 -0.427395 395 -0.181116 0.983462 0.000000
-7.681470 -7.117910 -0.424157 379 -0.181116 0.983462 0.000000
-7.682583 -7.118935 -0.420997 379 -0.181116 0.983462 0.000000
-7.683632 -7.119908 -0.417827 391 -0.181116 0.983462 0.000000
-7.682654 -7.118998 -0.414556 389 -0.181116 0.983462 0.000000
-7.681134 -7.117598 -0.411260 395 -0.181116 0.983462 0.000000
-7.680637 -7.117128 -0.408015 385 -0.181116 0.983462 0.000000
-7.681412 -7.117854 -0.404827 387 -0.181116 0.983462 0.000000
-7.682311 -7.118680 -0.401659 381 -0.181116 0.983462 0.000000
-7.683259 -7.119557 -0.398480 385 -0.181116 0.983462 0.000000
-7.682913 -7.119249 -0.395243 375 -0.181116 0.983462 0.000000
-7.681706 -7.118128 -0.391964 349 -0.181116 0.983462 0.000000
-7.682331 -7.118706 -0.388778 363 -0.181116 0.983462 0.000000
-7.683009 -7.119328 -0.385582 373 -0.181116 0.983462 0.000000
-7.682285 -7.118662 -0.382329 373 -0.181116 0.983462 0.000000
-7.681877 -7.118289 -0.379092 357 -0.181116 0.983462 0.000000
-7.681805 -7.118215 -0.375863 353 -0.181116 0.983462 0.000000
-7.682098 -7.118486 -0.372660 349 -0.181116 0.983462 0.000000
-7.681854 -7.118259 -0.369432 349 -0.181116 0.983462 0.000000
-7.682692 -7.119035 -0.366245 357 -0.181116 0.983462 0.000000
-7.683458 -7.119755 -0.363067 359 -0.181116 0.983462 0.000000
-7.683269 -7.119572 -0.359839 371 -0.181116 0.983462 0.000000
-7.682812 -7.119147 -0.356593 367 -0.181116 0.983462 0.000000
-7.682301 -7.118679 -0.353348 363 -0.181116 0.983462 0.000000
-7.683123 -7.119442 -0.350170 389 -0.181116 0.983462 0.000000
-7.683202 -7.119515 -0.346949 381 -0.181116 0.983462 0.000000
-7.682209 -7.118593 -0.343688 377 -0.181116 0.983462 0.000000
-7.682604 -7.118960 -0.340485 373 -0.181116 0.983462 0.000000
-7.683054 -7.119371 -0.337281 371 -0.181116 0.983462 0.000000
-7.683929 -7.120178 -0.334102 371 -0.181116 0.983462 0.000000
-7.683837 -7.120099 -0.330873 387 -0.181116 0.983462 0.000000
-7.682787 -7.119119 -0.327613 399 -0.181116 0.983462 0.000000
-7.683224 -7.119532 -0.324409 403 -0.181116 0.983462 0.000000
-7.683721 -7.119995 -0.321214 397 -0.181116 0.983462 0.000000
-7.683793 -7.120062 -0.317993 389 -0.181116 0.983462 0.000000
-7.683059 -7.119375 -0.314750 387 -0.181116 0.983462 0.000000
-7.682635 -7.118990 -0.311514 379 -0.181116 0.983462 0.000000
-7.683188 -7.119497 -0.308318 391 -0.181116 0.983462 0.000000
-7.682999 -7.119315 -0.305090 395 -0.181116 0.983462 0.000000
-7.683591 -7.119867 -0.301895 413 -0.181116 0.983462 0.000000
-7.686233 -7.118027 -0.704991 355 -0.181116 0.983462 0.000000
-7.686921 -7.118670 -0.701814 411 -0.181116 0.983462 0.000000
-7.687126 -7.118858 -0.698602 415 -0.181116 0.983462 0.000000
-7.687711 -7.119404 -0.695427 421 -0.181116 0.983462 0.000000
-7.687758 -7.119438 -0.692196 395 -0.181116 0.983462 0.000000
-7.687318 -7.119040 -0.688930 409 -0.181116 0.983462 0.000000
-7.686885 -7.118635 -0.685654 399 -0.181116 0.983462 0.000000
-7.686767 -7.118523 -0.682415 377 -0.181116 0.983462 0.000000
-7.687185 -7.118908 -0.679221 383 -0.181116 0.983462 0.000000
-7.686752 -7.118503 -0.675955 383 -0.181116 0.983462 0.000000
-7.687376 -7.119081 -0.672779 385 -0.181116 0.983462 0.000000
-7.688537 -7.120157 -0.669649 383 -0.181116 0.983462 0.000000
-7.688372 -7.120007 -0.666400 381 -0.181116 0.983462 0.000000
-7.686692 -7.118453 -0.663026 349 -0.181116 0.983462 0.000000
-7.685447 -7.117301 -0.659697 331 -0.181116 0.983462 0.000000
-7.686182 -7.117980 -0.656530 335 -0.181116 0.983462 0.000000
-7.688249 -7.119892 -0.653471 321 -0.181116 0.983462 0.000000
-7.689094 -7.120674 -0.650313 317 -0.181116 0.983462 0.000000
-7.688480 -7.120110 -0.647029 331 -0.181116 0.983462 0.000000
-7.688734 -7.120350 -0.643816 339 -0.181116 0.983462 0.000000
-7.688978 -7.120570 -0.640614 351 -0.181116 0.983462 0.000000
-7.688647 -7.120260 -0.637357 391 -0.181116 0.983462 0.000000
-7.687985 -7.119643 -0.634073 379 -0.181116 0.983462 0.000000
-7.688285 -7.119921 -0.630870 351 -0.181116 0.983462 0.000000
-7.688311 -7.119951 -0.627640 349 -0.181116 0.983462 0.000000
-7.686734 -7.118492 -0.624284 357 -0.181116 0.983462 0.000000
-7.686601 -7.118368 -0.621045 369 -0.181116 0.983462 0.000000
-7.688393 -7.120031 -0.617959 389 -0.181116 0.983462 0.000000
-7.689497 -7.121048 -0.614818 415 -0.181116 0.983462 0.000000
-7.688827 -7.120426 -0.611534 423 -0.181116 0.983462 0.000000
-7.687520 -7.119224 -0.608207 421 -0.181116 0.983462 0.000000
-7.687592 -7.119291 -0.604986 399 -0.181116 0.983462 0.000000
-7.688648 -7.120256 -0.601836 425 -0.181116 0.983462 0.000000
-7.688555 -7.120178 -0.598597 441 -0.181116 0.983462 0.000000
-7.688476 -7.120097 -0.595367 461 -0.181116 0.983462 0.000000
-7.689242 -7.120816 -0.592200 465 -0.181116 0.983462 0.000000
-7.688951 -7.120538 -0.588943 441 -0.181116 0.983462 0.000000
-7.687517 -7.119221 -0.585616 429 -0.181116 0.983462 0.000000
-7.687115 -7.118841 -0.582350 397 -0.181116 0.983462 0.000000
-7.687407 -7.119112 -0.579147 399 -0.181116 0.983462 0.000000
-7.687803 -7.119479 -0.575953 403 -0.181116 0.983462 0.000000
-7.687543 -7.119240 -0.572706 383 -0.181116 0.983462 0.000000
-7.687356 -7.119071 -0.569467 393 -0.181116 0.983462 0.000000
-7.687482 -7.119183 -0.566246 393 -0.181116 0.983462 0.000000
-7.687980 -7.119646 -0.563051 375 -0.181116 0.983462 0.000000
-7.687831 -7.119509 -0.559822 359 -0.181116 0.983462 0.000000
-7.688542 -7.120170 -0.556646 371 -0.181116 0.983462 0.000000
-7.688070 -7.119733 -0.553380 377 -0.181116 0.983462 0.000000
-7.687447 -7.119148 -0.550116 373 -0.181116 0.983462 0.000000
-7.687890 -7.119567 -0.546922 367 -0.181116 0.983462 0.000000
-7.688545 -7.120170 -0.543736 359 -0.181116 0.983462 0.000000
-7.688987 -7.120574 -0.540541 363 -0.181116 0.983462 0.000000
-7.687814 -7.119493 -0.537232 371 -0.181116 0.983462 0.000000
-7.687238 -7.118960 -0.533967 383 -0.181116 0.983462 0.000000
-7.687886 -7.119557 -0.530791 381 -0.181116 0.983462 0.000000
-7.689236 -7.120812 -0.527649 403 -0.181116 0.983462 0.000000
-7.688653 -7.120273 -0.524384 427 -0.181116 0.983462 0.000000
-7.688723 -7.120326 -0.521163 407 -0.181116 0.983462 0.000000
-7.688883 -7.120476 -0.517952 401 -0.181116 0.983462 0.000000
-7.687385 -7.119095 -0.514626 409 -0.181116 0.983462 0.000000
-7.687449 -7.119155 -0.511405 409 -0.181116 0.983462 0.000000
-7.688310 -7.119950 -0.508237 403 -0.181116 0.983462 0.000000
-7.689169 -7.120745 -0.505069 405 -0.181116 0.983462 0.000000
-7.689115 -7.120697 -0.501839 417 -0.181116 0.983462 0.000000
-7.688635 -7.120254 -0.498584 399 -0.181116 0.983462 0.000000
-7.687681 -7.119363 -0.495292 415 -0.181116 0.983462 0.000000
-7.687463 -7.119169 -0.492054 411 -0.181116 0.983462 0.000000
-7.689450 -7.121004 -0.488956 403 -0.181116 0.983462 0.000000
-7.690089 -7.121594 -0.485770 419 -0.181116 0.983462 0.000000
-7.688851 -7.120448 -0.482471 427 -0.181116 0.983462 0.000000
-7.688261 -7.119903 -0.479207 421 -0.181116 0.983462 0.000000
-7.689493 -7.121049 -0.476055 447 -0.181116 0.983462 0.000000
-7.688903 -7.120504 -0.472800 419 -0.181116 0.983462 0.000000
-7.687871 -7.119550 -0.469510 405 -0.181116 0.983462 0.000000
-7.688785 -7.120389 -0.466341 421 -0.181116 0.983462 0.000000
-7.687966 -7.119632 -0.463069 419 -0.181116 0.983462 0.000000
-7.687052 -7.118787 -0.459797 439 -0.181116 0.983462 0.000000
-7.687306 -7.119027 -0.456585 423 -0.181116 0.983462 0.000000
-7.688166 -7.119822 -0.453417 423 -0.181116 0.983462 0.000000
-7.689286 -7.120852 -0.450256 429 -0.181116 0.983462 0.000000
-7.689382 -7.120938 -0.447035 397 -0.181116 0.983462 0.000000
-7.689209 -7.120782 -0.443797 409 -0.181116 0.983462 0.000000
-7.689029 -7.120619 -0.440569 411 -0.181116 0.983462 0.000000
-7.688493 -7.120118 -0.437313 401 -0.181116 0.983462 0.000000
-7.688264 -7.119904 -0.434076 379 -0.181116 0.983462 0.000000
-7.689481 -7.121038 -0.430924 385 -0.181116 0.983462 0.000000
-7.690326 -7.121820 -0.427746 389 -0.181116 0.983462 0.000000
-7.688962 -7.120560 -0.424449 385 -0.181116 0.983462 0.000000
-7.688473 -7.120096 -0.421193 397 -0.181116 0.983462 0.000000
-7.689428 -7.120980 -0.418024 405 -0.181116 0.983462 0.000000
-7.688917 -7.120512 -0.414769 403 -0.181116 0.983462 0.000000
-7.688958 -7.120553 -0.411549 405 -0.181116 0.983462 0.000000
-7.688673 -7.120282 -0.408311 389 -0.181116 0.983462 0.000000
-7.688390 -7.120023 -0.405074 395 -0.181116 0.983462 0.000000
-7.689591 -7.121145 -0.401912 395 -0.181116 0.983462 0.000000
-7.689789 -7.121326 -0.398700 375 -0.181116 0.983462 0.000000
-7.689554 -7.121106 -0.395473 391 -0.181116 0.983462 0.000000
-7.688891 -7.120490 -0.392209 383 -0.181116 0.983462 0.000000
-7.688278 -7.119926 -0.388964 381 -0.181116 0.983462 0.000000
-7.688207 -7.119852 -0.385735 375 -0.181116 0.983462 0.000000
-7.688011 -7.119677 -0.382507 383 -0.181116 0.983462 0.000000
-7.688050 -7.119705 -0.379286 383 -0.181116 0.983462 0.000000
-7.688068 -7.119729 -0.376066 399 -0.181116 0.983462 0.000000
-7.688470 -7.120101 -0.372862 395 -0.181116 0.983462 0.000000
-7.688614 -7.120239 -0.369641 375 -0.181116 0.983462 0.000000
-7.689015 -7.120598 -0.366437 379 -0.181116 0.983462 0.000000
-7.689569 -7.121120 -0.363242 383 -0.181116 0.983462 0.000000
-7.689491 -7.121039 -0.360022 411 -0.181116 0.983462 0.000000
-7.689681 -7.121215 -0.356801 407 -0.181116 0.983462 0.000000
-7.690234 -7.121736 -0.353605 399 -0.181116 0.983462 0.000000
-7.690897 -7.122345 -0.350409 409 -0.181116 0.983462 0.000000
-7.690063 -7.121577 -0.347157 395 -0.181116 0.983462 0.000000
-7.689922 -7.121446 -0.343928 395 -0.181116 0.983462 0.000000
-7.690269 -7.121762 -0.340725 395 -0.181116 0.983462 0.000000
-7.689804 -7.121331 -0.337479 405 -0.181116 0.983462 0.000000
-7.689924 -7.121449 -0.334258 403 -0.181116 0.983462 0.000000
-7.689198 -7.120769 -0.331014 411 -0.181116 0.983462 0.000000
-7.688892 -7.120492 -0.327777 403 -0.181116 0.983462 0.000000
-7.689596 -7.121147 -0.324581 391 -0.181116 0.983462 0.000000
-7.690266 -7.121763 -0.321394 401 -0.181116 0.983462 0.000000
-7.689203 -7.120783 -0.318124 391 -0.181116 0.983462 0.000000
-7.689432 -7.120990 -0.314912 397 -0.181116 0.983462 0.000000
-7.689984 -7.121497 -0.311717 401 -0.181116 0.983462 0.000000
-7.688385 -7.120020 -0.308432 403 -0.181116 0.983462 0.000000
-7.688883 -7.120484 -0.305227 417 -0.181116 0.983462 0.000000
-7.690343 -7.121840 -0.302063 421 -0.181116 0.983462 0.000000
