150
-21.738388 -21.087662 -0.649934 829 -0.245312 0.969444 0.000000
-21.738003 -21.087292 -0.640617 819 -0.245312 0.969444 0.000000
-21.737719 -21.087017 -0.631310 833 -0.245312 0.969444 0.000000
-21.737135 -21.086443 -0.621985 843 -0.245312 0.969444 0.000000
-21.736742 -21.086067 -0.612669 845 -0.245312 0.969444 0.000000
-21.735502 -21.084873 -0.603331 827 -0.245312 0.969444 0.000000
-21.736162 -21.085512 -0.594054 831 -0.245312 0.969444 0.000000
-21.736542 -21.085882 -0.584760 833 -0.245312 0.969444 0.000000
-21.736109 -21.085459 -0.575444 825 -0.245312 0.969444 0.000000
-21.735907 -21.085270 -0.566136 841 -0.245312 0.969444 0.000000
-21.735991 -21.085352 -0.556835 835 -0.245312 0.969444 0.000000
-21.736633 -21.085964 -0.547548 809 -0.245312 0.969444 0.000000
-21.737011 -21.086334 -0.538254 817 -0.245312 0.969444 0.000000
-21.737125 -21.086456 -0.528953 825 -0.245312 0.969444 0.000000
-21.736504 -21.085852 -0.519629 829 -0.245312 0.969444 0.000000
-21.735468 -21.084852 -0.510309 825 -0.245312 0.969444 0.000000
-21.734848 -21.084248 -0.500994 817 -0.245312 0.969444 0.000000
-21.735950 -21.085323 -0.491713 823 -0.245312 0.969444 0.000000
-21.735571 -21.084957 -0.482407 819 -0.245312 0.969444 0.000000
-21.735577 -21.084963 -0.473097 823 -0.245312 0.969444 0.000000
-21.736265 -21.085629 -0.463810 835 -0.245312 0.969444 0.000000
-21.735840 -21.085211 -0.454504 829 -0.245312 0.969444 0.000000
-21.735203 -21.084593 -0.445190 831 -0.245312 0.969444 0.000000
-21.735613 -21.085003 -0.435895 837 -0.245312 0.969444 0.000000
-21.734970 -21.084379 -0.426581 829 -0.245312 0.969444 0.000000
-21.734644 -21.084059 -0.417274 823 -0.245312 0.969444 0.000000
-21.736631 -21.085983 -0.408015 839 -0.245312 0.969444 0.000000
-21.736658 -21.086021 -0.398714 829 -0.245312 0.969444 0.000000
-21.734547 -21.083973 -0.389375 815 -0.245312 0.969444 0.000000
-21.733839 -21.083282 -0.380061 815 -0.245312 0.969444 0.000000
-21.735498 -21.084896 -0.370785 827 -0.245312 0.969444 0.000000
-21.734589 -21.084011 -0.361473 833 -0.245312 0.969444 0.000000
-21.734444 -21.083879 -0.352165 835 -0.245312 0.969444 0.000000
-21.736259 -21.085638 -0.342897 835 -0.245312 0.969444 0.000000
-21.735849 -21.085247 -0.333591 821 -0.245312 0.969444 0.000000
-21.735821 -21.085211 -0.324291 815 -0.245312 0.969444 0.000000
-21.734949 -21.084375 -0.314979 827 -0.245312 0.969444 0.000000
-21.733234 -21.082706 -0.305645 793 -0.245312 0.969444 0.000000
-21.733444 -21.082920 -0.296353 811 -0.245312 0.969444 0.000000
-21.733313 -21.082788 -0.287054 809 -0.245312 0.969444 0.000000
-21.733059 -21.082541 -0.277746 799 -0.245312 0.969444 0.000000
-21.754303 -21.089949 -0.650217 827 -0.245312 0.969444 0.000000
-21.753340 -21.089020 -0.640886 813 -0.245312 0.969444 0.000000
-21.754316 -21.089964 -0.631607 813 -0.245312 0.969444 0.000000
-21.755133 -21.090761 -0.622319 827 -0.245312 0.969444 0.000000
-21.755112 -21.090731 -0.613009 823 -0.245312 0.969444 0.000000
-21.755466 -21.091082 -0.603705 805 -0.245312 0.969444 0.000000
-21.755175 -21.090801 -0.594397 809 -0.245312 0.969444 0.000000
-21.754984 -21.090618 -0.585079 815 -0.245312 0.969444 0.000000
-21.754175 -21.089832 -0.575747 823 -0.245312 0.969444 0.000000
-21.754871 -21.090504 -0.566460 839 -0.245312 0.969444 0.000000
-21.756311 -21.091911 -0.557186 825 -0.245312 0.969444 0.000000
-21.754803 -21.090450 -0.547840 821 -0.245312 0.969444 0.000000
-21.754398 -21.090054 -0.538524 827 -0.245312 0.969444 0.000000
-21.753675 -21.089352 -0.529200 813 -0.245312 0.969444 0.000000
-21.753944 -21.089615 -0.519897 821 -0.245312 0.969444 0.000000
-21.754791 -21.090437 -0.510609 821 -0.245312 0.969444 0.000000
-21.754013 -21.089689 -0.501286 833 -0.245312 0.969444 0.000000
-21.753908 -21.089592 -0.491977 831 -0.245312 0.969444 0.000000
-21.754745 -21.090395 -0.482689 827 -0.245312 0.969444 0.000000
-21.755491 -21.091120 -0.473391 825 -0.245312 0.969444 0.000000
-21.754801 -21.090456 -0.464078 831 -0.245312 0.969444 0.000000
-21.754063 -21.089741 -0.454755 837 -0.245312 0.969444 0.000000
-21.753996 -21.089674 -0.445445 821 -0.245312 0.969444 0.000000
-21.754257 -21.089933 -0.436142 819 -0.245312 0.969444 0.000000
-21.754410 -21.090088 -0.426841 819 -0.245312 0.969444 0.000000
-21.754131 -21.089806 -0.417523 819 -0.245312 0.969444 0.000000
-21.754166 -21.089851 -0.408223 819 -0.245312 0.969444 0.000000
-21.754576 -21.090244 -0.398918 825 -0.245312 0.969444 0.000000
-21.753448 -21.089155 -0.389599 811 -0.245312 0.969444 0.000000
-21.752226 -21.087973 -0.380271 813 -0.245312 0.969444 0.000000
-21.752668 -21.088408 -0.370966 821 -0.245312 0.969444 0.000000
-21.752640 -21.088371 -0.361666 835 -0.245312 0.969444 0.000000
-21.752714 -21.088449 -0.352355 843 -0.245312 0.969444 0.000000
-21.752748 -21.088478 -0.343055 837 -0.245312 0.969444 0.000000
-21.752714 -21.088453 -0.333745 831 -0.245312 0.969444 0.000000
-21.752054 -21.087816 -0.324431 817 -0.245312 0.969444 0.000000
-21.752331 -21.088087 -0.315138 823 -0.245312 0.969444 0.000000
-21.754072 -21.089769 -0.305851 805 -0.245312 0.969444 0.000000
-21.753670 -21.089386 -0.296545 765 -0.245312 0.969444 0.000000
-21.753941 -21.089653 -0.287242 793 -0.245312 0.969444 0.000000
-21.755379 -21.091043 -0.277958 809 -0.245312 0.969444 0.000000
-21.775040 -21.096395 -0.650637 825 -0.245312 0.969444 0.000000
-21.774599 -21.095980 -0.641311 817 -0.245312 0.969444 0.000000
-21.774790 -21.096167 -0.631999 803 -0.245312 0.969444 0.000000
-21.774723 -21.096100 -0.622689 803 -0.245312 0.969444 0.000000
-21.774702 -21.096073 -0.613369 811 -0.245312 0.969444 0.000000
-21.775938 -21.097271 -0.604087 817 -0.245312 0.969444 0.000000
-21.775225 -21.096588 -0.594753 803 -0.245312 0.969444 0.000000
-21.775095 -21.096457 -0.585445 815 -0.245312 0.969444 0.000000
-21.775747 -21.097092 -0.576138 821 -0.245312 0.969444 0.000000
-21.775290 -21.096647 -0.566812 829 -0.245312 0.969444 0.000000
-21.775785 -21.097128 -0.557517 815 -0.245312 0.969444 0.000000
-21.776272 -21.097612 -0.548212 817 -0.245312 0.969444 0.000000
-21.776705 -21.098024 -0.538908 825 -0.245312 0.969444 0.000000
-21.775406 -21.096766 -0.529560 821 -0.245312 0.969444 0.000000
-21.774216 -21.095610 -0.520221 827 -0.245312 0.969444 0.000000
-21.774384 -21.095778 -0.510909 821 -0.245312 0.969444 0.000000
-21.773542 -21.094965 -0.501577 811 -0.245312 0.969444 0.000000
-21.773602 -21.095030 -0.492267 819 -0.245312 0.969444 0.000000
-21.774797 -21.096182 -0.482985 821 -0.245312 0.969444 0.000000
-21.775324 -21.096699 -0.473679 805 -0.245312 0.969444 0.000000
-21.774017 -21.095432 -0.464342 801 -0.245312 0.969444 0.000000
-21.771650 -21.093143 -0.454974 811 -0.245312 0.969444 0.000000
-21.771223 -21.092726 -0.445658 827 -0.245312 0.969444 0.000000
-21.771898 -21.093382 -0.436362 821 -0.245312 0.969444 0.000000
-21.773983 -21.095402 -0.427091 821 -0.245312 0.969444 0.000000
-21.775234 -21.096611 -0.417799 815 -0.245312 0.969444 0.000000
-21.772385 -21.093857 -0.408436 797 -0.245312 0.969444 0.000000
-21.771740 -21.093231 -0.399112 775 -0.245312 0.969444 0.000000
-21.773243 -21.094688 -0.389828 783 -0.245312 0.969444 0.000000
-21.772808 -21.094267 -0.380512 795 -0.245312 0.969444 0.000000
-21.772352 -21.093838 -0.371196 801 -0.245312 0.969444 0.000000
-21.771912 -21.093409 -0.361870 809 -0.245312 0.969444 0.000000
-21.772562 -21.094042 -0.352573 805 -0.245312 0.969444 0.000000
-21.772745 -21.094221 -0.343271 807 -0.245312 0.969444 0.000000
-21.773239 -21.094702 -0.333966 793 -0.245312 0.969444 0.000000
-21.773945 -21.095379 -0.324659 793 -0.245312 0.969444 0.000000
-21.773863 -21.095299 -0.315350 793 -0.245312 0.969444 0.000000
-21.772930 -21.094397 -0.306028 799 -0.245312 0.969444 0.000000
-21.772684 -21.094156 -0.296711 783 -0.245312 0.969444 0.000000
-21.772484 -21.093966 -0.287402 793 -0.245312 0.969444 0.000000
-21.772495 -21.093979 -0.278092 785 -0.245312 0.969444 0.000000
-21.793253 -21.099888 -0.604382 797 -0.245312 0.969444 0.000000
-21.793489 -21.100117 -0.576429 787 -0.245312 0.969444 0.000000
-21.794170 -21.100775 -0.511211 795 -0.245312 0.969444 0.000000
-21.792698 -21.099360 -0.501865 807 -0.245312 0.969444 0.000000
-21.793076 -21.099728 -0.492551 799 -0.245312 0.969444 0.000000
-21.793390 -21.100031 -0.483238 801 -0.245312 0.969444 0.000000
-21.794283 -21.100891 -0.473949 807 -0.245312 0.969444 0.000000
-21.794012 -21.100628 -0.464621 805 -0.245312 0.969444 0.000000
-21.792910 -21.099571 -0.455281 795 -0.245312 0.969444 0.000000
-21.792540 -21.099213 -0.445955 781 -0.245312 0.969444 0.000000
-21.793112 -21.099771 -0.436649 787 -0.245312 0.969444 0.000000
-21.793623 -21.100262 -0.427344 793 -0.245312 0.969444 0.000000
-21.794142 -21.100760 -0.418039 793 -0.245312 0.969444 0.000000
-21.793285 -21.099934 -0.408697 801 -0.245312 0.969444 0.000000
-21.790997 -21.097721 -0.399339 773 -0.245312 0.969444 0.000000
-21.791773 -21.098473 -0.390041 789 -0.245312 0.969444 0.000000
-21.793173 -21.099833 -0.380747 811 -0.245312 0.969444 0.000000
-21.792154 -21.098846 -0.371417 809 -0.245312 0.969444 0.000000
-21.793125 -21.099785 -0.362117 813 -0.245312 0.969444 0.000000
-21.793627 -21.100267 -0.352802 803 -0.245312 0.969444 0.000000
-21.791862 -21.098570 -0.343459 799 -0.245312 0.969444 0.000000
-21.792933 -21.099604 -0.334158 791 -0.245312 0.969444 0.000000
-21.794052 -21.100693 -0.324857 787 -0.245312 0.969444 0.000000
-21.792707 -21.099396 -0.315520 771 -0.245312 0.969444 0.000000
-21.793404 -21.100067 -0.306213 777 -0.245312 0.969444 0.000000
-21.793955 -21.100594 -0.287597 769 -0.245312 0.969444 0.000000
-21.792337 -21.099030 -0.278253 763 -0.245312 0.969444 0.000000
