761
-7.419387 -7.052017 -0.556642 1067 -0.181116 0.983462 0.000000
-7.419870 -7.052482 -0.553528 1075 -0.181116 0.983462 0.000000
-7.419674 -7.052293 -0.550359 1085 -0.181116 0.983462 0.000000
-7.419737 -7.052354 -0.547209 1081 -0.181116 0.983462 0.000000
-7.420601 -7.053177 -0.544120 1083 -0.181116 0.983462 0.000000
-7.419813 -7.052433 -0.540908 1079 -0.181116 0.983462 0.000000
-7.419244 -7.051893 -0.537723 1081 -0.181116 0.983462 0.000000
-7.419253 -7.051896 -0.534563 1079 -0.181116 0.983462 0.000000
-7.419476 -7.052111 -0.531431 1071 -0.181116 0.983462 0.000000
-7.419699 -7.052326 -0.528299 1077 -0.181116 0.983462 0.000000
-7.419708 -7.052330 -0.525148 1081 -0.181116 0.983462 0.000000
-7.419502 -7.052135 -0.521980 1077 -0.181116 0.983462 0.000000
-7.419400 -7.052035 -0.518821 1081 -0.181116 0.983462 0.000000
-7.419568 -7.052192 -0.515680 1083 -0.181116 0.983462 0.000000
-7.418723 -7.051390 -0.512477 1071 -0.181116 0.983462 0.000000
-7.418345 -7.051043 -0.509301 1065 -0.181116 0.983462 0.000000
-7.419366 -7.052005 -0.506211 1073 -0.181116 0.983462 0.000000
-7.420055 -7.052662 -0.503105 1079 -0.181116 0.983462 0.000000
-7.419693 -7.052314 -0.499938 1077 -0.181116 0.983462 0.000000
-7.419583 -7.052208 -0.496779 1081 -0.181116 0.983462 0.000000
-7.419529 -7.052161 -0.493619 1083 -0.181116 0.983462 0.000000
-7.419634 -7.052268 -0.490478 1073 -0.181116 0.983462 0.000000
-7.420117 -7.052719 -0.487364 1065 -0.181116 0.983462 0.000000
-7.419746 -7.052364 -0.484187 1063 -0.181116 0.983462 0.000000
-7.419162 -7.051811 -0.481003 1067 -0.181116 0.983462 0.000000
-7.419203 -7.051854 -0.477852 1071 -0.181116 0.983462 0.000000
-7.419101 -7.051754 -0.474693 1069 -0.181116 0.983462 0.000000
-7.419624 -7.052251 -0.471578 1071 -0.181116 0.983462 0.000000
-7.419886 -7.052497 -0.468445 1071 -0.181116 0.983462 0.000000
-7.419454 -7.052093 -0.465269 1069 -0.181116 0.983462 0.000000
-7.419289 -7.051943 -0.462111 1061 -0.181116 0.983462 0.000000
-7.419495 -7.052132 -0.458969 1067 -0.181116 0.983462 0.000000
-7.420548 -7.053133 -0.455879 1077 -0.181116 0.983462 0.000000
-7.420644 -7.053220 -0.452738 1073 -0.181116 0.983462 0.000000
-7.419728 -7.052360 -0.449536 1077 -0.181116 0.983462 0.000000
-7.419350 -7.051999 -0.446360 1075 -0.181116 0.983462 0.000000
-7.419604 -7.052239 -0.443227 1059 -0.181116 0.983462 0.000000
-7.419439 -7.052076 -0.440069 1051 -0.181116 0.983462 0.000000
-7.419639 -7.052273 -0.436937 1045 -0.181116 0.983462 0.000000
-7.419734 -7.052359 -0.433786 1049 -0.181116 0.983462 0.000000
-7.419719 -7.052343 -0.430636 1057 -0.181116 0.983462 0.000000
-7.419808 -7.052437 -0.427495 1063 -0.181116 0.983462 0.000000
-7.420434 -7.053030 -0.424379 1065 -0.181116 0.983462 0.000000
-7.420529 -7.053116 -0.421238 1055 -0.181116 0.983462 0.000000
-7.420714 -7.053300 -0.418096 1059 -0.181116 0.983462 0.000000
-7.420960 -7.053534 -0.414964 1069 -0.181116 0.983462 0.000000
-7.420043 -7.052661 -0.411763 1071 -0.181116 0.983462 0.000000
-7.419554 -7.052197 -0.408587 1067 -0.181116 0.983462 0.000000
-7.419691 -7.052330 -0.405446 1059 -0.181116 0.983462 0.000000
-7.419778 -7.052409 -0.402305 1069 -0.181116 0.983462 0.000000
-7.419914 -7.052542 -0.399163 1067 -0.181116 0.983462 0.000000
-7.418887 -7.051566 -0.395963 1065 -0.181116 0.983462 0.000000
-7.419401 -7.052042 -0.392838 1073 -0.181116 0.983462 0.000000
-7.420328 -7.052929 -0.389739 1073 -0.181116 0.983462 0.000000
-7.420093 -7.052710 -0.386581 1055 -0.181116 0.983462 0.000000
-7.420442 -7.053040 -0.383448 1071 -0.181116 0.983462 0.000000
-7.421052 -7.053619 -0.380332 1071 -0.181116 0.983462 0.000000
-7.421401 -7.053949 -0.377199 1071 -0.181116 0.983462 0.000000
-7.421165 -7.053729 -0.374041 1085 -0.181116 0.983462 0.000000
-7.420605 -7.053195 -0.370866 1083 -0.181116 0.983462 0.000000
-7.420092 -7.052712 -0.367691 1061 -0.181116 0.983462 0.000000
-7.420654 -7.053240 -0.364576 1077 -0.181116 0.983462 0.000000
-7.420474 -7.053064 -0.361417 1073 -0.181116 0.983462 0.000000
-7.420174 -7.052780 -0.358260 1057 -0.181116 0.983462 0.000000
-7.420722 -7.053309 -0.355135 1069 -0.181116 0.983462 0.000000
-7.420588 -7.053185 -0.351986 1065 -0.181116 0.983462 0.000000
-7.421033 -7.053605 -0.348852 1053 -0.181116 0.983462 0.000000
-7.421374 -7.053928 -0.345718 1061 -0.181116 0.983462 0.000000
-7.420331 -7.052940 -0.342528 1043 -0.181116 0.983462 0.000000
-7.419984 -7.052605 -0.339361 1027 -0.181116 0.983462 0.000000
-7.420215 -7.052826 -0.336229 1043 -0.181116 0.983462 0.000000
-7.420225 -7.052843 -0.333079 1047 -0.181116 0.983462 0.000000
-7.420036 -7.052661 -0.329931 1043 -0.181116 0.983462 0.000000
-7.420053 -7.052670 -0.326780 1033 -0.181116 0.983462 0.000000
-7.420805 -7.053391 -0.323663 1037 -0.181116 0.983462 0.000000
-7.421036 -7.053613 -0.320531 1037 -0.181116 0.983462 0.000000
-7.420784 -7.053367 -0.317373 1043 -0.181116 0.983462 0.000000
-7.420595 -7.053184 -0.314215 1053 -0.181116 0.983462 0.000000
-7.420549 -7.053144 -0.311065 1049 -0.181116 0.983462 0.000000
-7.420772 -7.053359 -0.307933 1037 -0.181116 0.983462 0.000000
-7.421207 -7.053771 -0.304799 1043 -0.181116 0.983462 0.000000
-7.421011 -7.053583 -0.301641 1047 -0.181116 0.983462 0.000000
-7.424237 -7.052139 -0.705172 1051 -0.181116 0.983462 0.000000
-7.424348 -7.052238 -0.702021 1049 -0.181116 0.983462 0.000000
-7.424658 -7.052536 -0.698898 1047 -0.181116 0.983462 0.000000
-7.424492 -7.052373 -0.695720 1051 -0.181116 0.983462 0.000000
-7.425007 -7.052863 -0.692605 1053 -0.181116 0.983462 0.000000
-7.424898 -7.052758 -0.689436 1037 -0.181116 0.983462 0.000000
-7.425517 -7.053357 -0.686340 1049 -0.181116 0.983462 0.000000
-7.425669 -7.053502 -0.683188 1049 -0.181116 0.983462 0.000000
-7.425241 -7.053089 -0.679992 1061 -0.181116 0.983462 0.000000
-7.425014 -7.052876 -0.676814 1061 -0.181116 0.983462 0.000000
-7.425055 -7.052918 -0.673664 1055 -0.181116 0.983462 0.000000
-7.425040 -7.052902 -0.670504 1051 -0.181116 0.983462 0.000000
-7.425184 -7.053040 -0.667352 1053 -0.181116 0.983462 0.000000
-7.425010 -7.052871 -0.664184 1063 -0.181116 0.983462 0.000000
-7.424521 -7.052407 -0.660989 1061 -0.181116 0.983462 0.000000
-7.425147 -7.052999 -0.657883 1059 -0.181116 0.983462 0.000000
-7.425331 -7.053183 -0.654741 1055 -0.181116 0.983462 0.000000
-7.424422 -7.052316 -0.651499 1055 -0.181116 0.983462 0.000000
-7.424716 -7.052602 -0.648376 1051 -0.181116 0.983462 0.000000
-7.425871 -7.053686 -0.645315 1053 -0.181116 0.983462 0.000000
-7.425795 -7.053620 -0.642146 1061 -0.181116 0.983462 0.000000
-7.425669 -7.053502 -0.638977 1053 -0.181116 0.983462 0.000000
-7.425859 -7.053678 -0.635845 1061 -0.181116 0.983462 0.000000
-7.425947 -7.053758 -0.632694 1061 -0.181116 0.983462 0.000000
-7.425918 -7.053743 -0.629535 1063 -0.181116 0.983462 0.000000
-7.425696 -7.053522 -0.626357 1051 -0.181116 0.983462 0.000000
-7.425137 -7.053002 -0.623152 1057 -0.181116 0.983462 0.000000
-7.424370 -7.052263 -0.619939 1057 -0.181116 0.983462 0.000000
-7.424885 -7.052752 -0.616824 1063 -0.181116 0.983462 0.000000
-7.425646 -7.053480 -0.613727 1075 -0.181116 0.983462 0.000000
-7.425775 -7.053605 -0.610586 1053 -0.181116 0.983462 0.000000
-7.425964 -7.053781 -0.607444 1063 -0.181116 0.983462 0.000000
-7.426093 -7.053906 -0.604292 1073 -0.181116 0.983462 0.000000
-7.425643 -7.053475 -0.601107 1067 -0.181116 0.983462 0.000000
-7.425090 -7.052947 -0.597902 1053 -0.181116 0.983462 0.000000
-7.425797 -7.053630 -0.594805 1057 -0.181116 0.983462 0.000000
-7.425980 -7.053800 -0.591663 1063 -0.181116 0.983462 0.000000
-7.426272 -7.054072 -0.588530 1063 -0.181116 0.983462 0.000000
-7.426923 -7.054697 -0.585424 1073 -0.181116 0.983462 0.000000
-7.426623 -7.054412 -0.582247 1077 -0.181116 0.983462 0.000000
-7.426283 -7.054082 -0.579070 1071 -0.181116 0.983462 0.000000
-7.426183 -7.053998 -0.575901 1075 -0.181116 0.983462 0.000000
-7.426151 -7.053955 -0.572741 1085 -0.181116 0.983462 0.000000
-7.425908 -7.053729 -0.569573 1077 -0.181116 0.983462 0.000000
-7.425498 -7.053342 -0.566387 1067 -0.181116 0.983462 0.000000
-7.425831 -7.053660 -0.563254 1079 -0.181116 0.983462 0.000000
-7.426592 -7.054387 -0.560157 1091 -0.181116 0.983462 0.000000
-7.426023 -7.053846 -0.556962 1073 -0.181116 0.983462 0.000000
-7.426301 -7.054106 -0.553829 1075 -0.181116 0.983462 0.000000
-7.427219 -7.054973 -0.550741 1081 -0.181116 0.983462 0.000000
-7.426430 -7.054228 -0.547528 1071 -0.181116 0.983462 0.000000
-7.426179 -7.053996 -0.544360 1079 -0.181116 0.983462 0.000000
-7.426615 -7.054409 -0.541236 1079 -0.181116 0.983462 0.000000
-7.426836 -7.054610 -0.538094 1079 -0.181116 0.983462 0.000000
-7.426427 -7.054224 -0.534918 1085 -0.181116 0.983462 0.000000
-7.426120 -7.053933 -0.531740 1083 -0.181116 0.983462 0.000000
-7.426445 -7.054244 -0.528607 1079 -0.181116 0.983462 0.000000
-7.427032 -7.054804 -0.525492 1085 -0.181116 0.983462 0.000000
-7.426456 -7.054258 -0.522307 1077 -0.181116 0.983462 0.000000
-7.425729 -7.053564 -0.519104 1065 -0.181116 0.983462 0.000000
-7.425517 -7.053363 -0.515936 1053 -0.181116 0.983462 0.000000
-7.425092 -7.052964 -0.512750 1063 -0.181116 0.983462 0.000000
-7.425259 -7.053121 -0.509608 1069 -0.181116 0.983462 0.000000
-7.425686 -7.053527 -0.506484 1061 -0.181116 0.983462 0.000000
-7.426218 -7.054030 -0.503369 1063 -0.181116 0.983462 0.000000
-7.426694 -7.054489 -0.500244 1071 -0.181116 0.983462 0.000000
-7.426124 -7.053934 -0.497060 1073 -0.181116 0.983462 0.000000
-7.425858 -7.053689 -0.493892 1063 -0.181116 0.983462 0.000000
-7.426332 -7.054133 -0.490767 1055 -0.181116 0.983462 0.000000
-7.426596 -7.054394 -0.487635 1061 -0.181116 0.983462 0.000000
-7.425434 -7.053284 -0.484406 1049 -0.181116 0.983462 0.000000
-7.425435 -7.053281 -0.481256 1061 -0.181116 0.983462 0.000000
-7.426425 -7.054233 -0.478166 1073 -0.181116 0.983462 0.000000
-7.426797 -7.054581 -0.475033 1071 -0.181116 0.983462 0.000000
-7.426426 -7.054226 -0.471856 1071 -0.181116 0.983462 0.000000
-7.426207 -7.054019 -0.468698 1067 -0.181116 0.983462 0.000000
-7.426627 -7.054420 -0.465564 1077 -0.181116 0.983462 0.000000
-7.426455 -7.054264 -0.462406 1065 -0.181116 0.983462 0.000000
-7.426455 -7.054260 -0.459255 1069 -0.181116 0.983462 0.000000
-7.427130 -7.054905 -0.456139 1063 -0.181116 0.983462 0.000000
-7.426910 -7.054698 -0.452981 1061 -0.181116 0.983462 0.000000
-7.426063 -7.053881 -0.449779 1059 -0.181116 0.983462 0.000000
-7.426152 -7.053975 -0.446628 1045 -0.181116 0.983462 0.000000
-7.425774 -7.053614 -0.443462 1039 -0.181116 0.983462 0.000000
-7.425126 -7.052997 -0.440268 1029 -0.181116 0.983462 0.000000
-7.425752 -7.053589 -0.437152 1043 -0.181116 0.983462 0.000000
-7.426157 -7.053977 -0.434028 1041 -0.181116 0.983462 0.000000
-7.426087 -7.053917 -0.430868 1055 -0.181116 0.983462 0.000000
-7.426080 -7.053907 -0.427718 1059 -0.181116 0.983462 0.000000
-7.426494 -7.054302 -0.424594 1051 -0.181116 0.983462 0.000000
-7.427001 -7.054785 -0.421469 1049 -0.181116 0.983462 0.000000
-7.427153 -7.054930 -0.418328 1051 -0.181116 0.983462 0.000000
-7.426551 -7.054350 -0.415144 1061 -0.181116 0.983462 0.000000
-7.426585 -7.054387 -0.411993 1053 -0.181116 0.983462 0.000000
-7.426618 -7.054423 -0.408853 1049 -0.181116 0.983462 0.000000
-7.426919 -7.054700 -0.405710 1057 -0.181116 0.983462 0.000000
-7.426731 -7.054533 -0.402552 1061 -0.181116 0.983462 0.000000
-7.426353 -7.054172 -0.399385 1067 -0.181116 0.983462 0.000000
-7.426646 -7.054443 -0.396252 1063 -0.181116 0.983462 0.000000
-7.426251 -7.054070 -0.393076 1059 -0.181116 0.983462 0.000000
-7.425905 -7.053747 -0.389909 1057 -0.181116 0.983462 0.000000
-7.425732 -7.053577 -0.386751 1049 -0.181116 0.983462 0.000000
-7.426073 -7.053901 -0.383617 1055 -0.181116 0.983462 0.000000
-7.427111 -7.054891 -0.380527 1073 -0.181116 0.983462 0.000000
-7.427142 -7.054913 -0.377377 1067 -0.181116 0.983462 0.000000
-7.427334 -7.055102 -0.374235 1079 -0.181116 0.983462 0.000000
-7.426933 -7.054723 -0.371069 1069 -0.181116 0.983462 0.000000
-7.426159 -7.053991 -0.367876 1061 -0.181116 0.983462 0.000000
-7.425921 -7.053757 -0.364718 1061 -0.181116 0.983462 0.000000
-7.426691 -7.054490 -0.361601 1065 -0.181116 0.983462 0.000000
-7.427293 -7.055064 -0.358485 1057 -0.181116 0.983462 0.000000
-7.426843 -7.054632 -0.355309 1059 -0.181116 0.983462 0.000000
-7.426551 -7.054354 -0.352152 1045 -0.181116 0.983462 0.000000
-7.426513 -7.054319 -0.349002 1043 -0.181116 0.983462 0.000000
-7.426428 -7.054247 -0.345843 1045 -0.181116 0.983462 0.000000
-7.426824 -7.054615 -0.342719 1043 -0.181116 0.983462 0.000000
-7.427054 -7.054836 -0.339577 1045 -0.181116 0.983462 0.000000
-7.426322 -7.054149 -0.336394 1043 -0.181116 0.983462 0.000000
-7.425918 -7.053755 -0.333228 1037 -0.181116 0.983462 0.000000
-7.426418 -7.054233 -0.330103 1043 -0.181116 0.983462 0.000000
-7.427433 -7.055203 -0.326993 1041 -0.181116 0.983462 0.000000
-7.427456 -7.055219 -0.323853 1033 -0.181116 0.983462 0.000000
-7.427206 -7.054987 -0.320695 1041 -0.181116 0.983462 0.000000
-7.427167 -7.054952 -0.317545 1035 -0.181116 0.983462 0.000000
-7.426330 -7.054156 -0.314363 1039 -0.181116 0.983462 0.000000
-7.426188 -7.054012 -0.311205 1033 -0.181116 0.983462 0.000000
-7.426672 -7.054476 -0.308080 1041 -0.181116 0.983462 0.000000
-7.426214 -7.054038 -0.304904 1023 -0.181116 0.983462 0.000000
-7.426224 -7.054055 -0.301764 1039 -0.181116 0.983462 0.000000
-7.431052 -7.054289 -0.702449 1049 -0.181116 0.983462 0.000000
-7.431632 -7.054843 -0.699334 1053 -0.181116 0.983462 0.000000
-7.431094 -7.054328 -0.696129 1057 -0.181116 0.983462 0.000000
-7.430723 -7.053973 -0.692932 1041 -0.181116 0.983462 0.000000
-7.430440 -7.053715 -0.689745 1035 -0.181116 0.983462 0.000000
-7.430694 -7.053955 -0.686612 1035 -0.181116 0.983462 0.000000
-7.431107 -7.054350 -0.683488 1043 -0.181116 0.983462 0.000000
-7.430893 -7.054134 -0.680310 1047 -0.181116 0.983462 0.000000
-7.431726 -7.054932 -0.677222 1053 -0.181116 0.983462 0.000000
-7.431980 -7.055173 -0.674090 1057 -0.181116 0.983462 0.000000
-7.431119 -7.054358 -0.670848 1049 -0.181116 0.983462 0.000000
-7.431428 -7.054642 -0.667715 1055 -0.181116 0.983462 0.000000
-7.431889 -7.055088 -0.664601 1057 -0.181116 0.983462 0.000000
-7.432033 -7.055226 -0.661449 1057 -0.181116 0.983462 0.000000
-7.431479 -7.054698 -0.658244 1059 -0.181116 0.983462 0.000000
-7.431093 -7.054330 -0.655048 1057 -0.181116 0.983462 0.000000
-7.431134 -7.054373 -0.651897 1055 -0.181116 0.983462 0.000000
-7.430802 -7.054049 -0.648711 1045 -0.181116 0.983462 0.000000
-7.430883 -7.054137 -0.645560 1055 -0.181116 0.983462 0.000000
-7.431399 -7.054627 -0.642445 1055 -0.181116 0.983462 0.000000
-7.431699 -7.054905 -0.639312 1055 -0.181116 0.983462 0.000000
-7.431464 -7.054685 -0.636134 1057 -0.181116 0.983462 0.000000
-7.431229 -7.054465 -0.632956 1055 -0.181116 0.983462 0.000000
-7.431736 -7.054949 -0.629831 1057 -0.181116 0.983462 0.000000
-7.432188 -7.055375 -0.626717 1061 -0.181116 0.983462 0.000000
-7.431531 -7.054751 -0.623503 1055 -0.181116 0.983462 0.000000
-7.430979 -7.054224 -0.620298 1053 -0.181116 0.983462 0.000000
-7.431265 -7.054502 -0.617165 1051 -0.181116 0.983462 0.000000
-7.431566 -7.054780 -0.614033 1053 -0.181116 0.983462 0.000000
-7.431592 -7.054810 -0.610872 1057 -0.181116 0.983462 0.000000
-7.431933 -7.055134 -0.607749 1059 -0.181116 0.983462 0.000000
-7.432124 -7.055310 -0.604607 1057 -0.181116 0.983462 0.000000
-7.431666 -7.054886 -0.601411 1057 -0.181116 0.983462 0.000000
-7.431691 -7.054902 -0.598251 1067 -0.181116 0.983462 0.000000
-7.432619 -7.055789 -0.595172 1063 -0.181116 0.983462 0.000000
-7.433165 -7.056304 -0.592057 1069 -0.181116 0.983462 0.000000
-7.432604 -7.055770 -0.588852 1067 -0.181116 0.983462 0.000000
-7.431942 -7.055140 -0.585648 1061 -0.181116 0.983462 0.000000
-7.431278 -7.054511 -0.582434 1057 -0.181116 0.983462 0.000000
-7.431770 -7.054982 -0.579320 1075 -0.181116 0.983462 0.000000
-7.431691 -7.054901 -0.576160 1063 -0.181116 0.983462 0.000000
-7.431756 -7.054963 -0.573010 1071 -0.181116 0.983462 0.000000
-7.431986 -7.055184 -0.569867 1073 -0.181116 0.983462 0.000000
-7.431679 -7.054893 -0.566690 1069 -0.181116 0.983462 0.000000
-7.431428 -7.054661 -0.563513 1079 -0.181116 0.983462 0.000000
-7.432085 -7.055278 -0.560406 1085 -0.181116 0.983462 0.000000
-7.432102 -7.055301 -0.557256 1077 -0.181116 0.983462 0.000000
-7.431368 -7.054601 -0.554043 1075 -0.181116 0.983462 0.000000
-7.431812 -7.055020 -0.550919 1081 -0.181116 0.983462 0.000000
-7.431986 -7.055183 -0.547777 1091 -0.181116 0.983462 0.000000
-7.432258 -7.055451 -0.544644 1083 -0.181116 0.983462 0.000000
-7.432859 -7.056010 -0.541529 1081 -0.181116 0.983462 0.000000
-7.432551 -7.055719 -0.538351 1081 -0.181116 0.983462 0.000000
-7.432451 -7.055634 -0.535182 1075 -0.181116 0.983462 0.000000
-7.432887 -7.056047 -0.532058 1085 -0.181116 0.983462 0.000000
-7.432468 -7.055641 -0.528872 1073 -0.181116 0.983462 0.000000
-7.431948 -7.055152 -0.525687 1065 -0.181116 0.983462 0.000000
-7.431687 -7.054899 -0.522509 1067 -0.181116 0.983462 0.000000
-7.431697 -7.054916 -0.519359 1065 -0.181116 0.983462 0.000000
-7.431816 -7.055022 -0.516208 1057 -0.181116 0.983462 0.000000
-7.432292 -7.055480 -0.513093 1073 -0.181116 0.983462 0.000000
-7.431716 -7.054934 -0.509899 1061 -0.181116 0.983462 0.000000
-7.431607 -7.054829 -0.506740 1059 -0.181116 0.983462 0.000000
-7.432462 -7.055645 -0.503641 1061 -0.181116 0.983462 0.000000
-7.432250 -7.055444 -0.500473 1061 -0.181116 0.983462 0.000000
-7.431720 -7.054935 -0.497278 1049 -0.181116 0.983462 0.000000
-7.431619 -7.054837 -0.494119 1041 -0.181116 0.983462 0.000000
-7.431242 -7.054490 -0.490943 1043 -0.181116 0.983462 0.000000
-7.431835 -7.055042 -0.487827 1075 -0.181116 0.983462 0.000000
-7.432572 -7.055751 -0.484720 1071 -0.181116 0.983462 0.000000
-7.432525 -7.055696 -0.481560 1073 -0.181116 0.983462 0.000000
-7.432781 -7.055950 -0.478428 1077 -0.181116 0.983462 0.000000
-7.433468 -7.056592 -0.475311 1077 -0.181116 0.983462 0.000000
-7.433566 -7.056693 -0.472170 1077 -0.181116 0.983462 0.000000
-7.433669 -7.056786 -0.469019 1069 -0.181116 0.983462 0.000000
-7.433607 -7.056732 -0.465860 1071 -0.181116 0.983462 0.000000
-7.433498 -7.056627 -0.462701 1077 -0.181116 0.983462 0.000000
-7.433230 -7.056368 -0.459533 1059 -0.181116 0.983462 0.000000
-7.433168 -7.056314 -0.456374 1057 -0.181116 0.983462 0.000000
-7.432837 -7.056005 -0.453197 1059 -0.181116 0.983462 0.000000
-7.432513 -7.055687 -0.450030 1051 -0.181116 0.983462 0.000000
-7.433092 -7.056242 -0.446914 1051 -0.181116 0.983462 0.000000
-7.433125 -7.056278 -0.443764 1049 -0.181116 0.983462 0.000000
-7.432691 -7.055859 -0.440578 1045 -0.181116 0.983462 0.000000
-7.432147 -7.055351 -0.437393 1047 -0.181116 0.983462 0.000000
-7.431871 -7.055085 -0.434225 1047 -0.181116 0.983462 0.000000
-7.432394 -7.055582 -0.431110 1057 -0.181116 0.983462 0.000000
-7.433012 -7.056168 -0.427984 1061 -0.181116 0.983462 0.000000
-7.432729 -7.055896 -0.424817 1047 -0.181116 0.983462 0.000000
-7.432026 -7.055235 -0.421634 1031 -0.181116 0.983462 0.000000
-7.432170 -7.055373 -0.418482 1045 -0.181116 0.983462 0.000000
-7.432788 -7.055959 -0.415366 1051 -0.181116 0.983462 0.000000
-7.433303 -7.056449 -0.412241 1053 -0.181116 0.983462 0.000000
-7.433440 -7.056581 -0.409100 1051 -0.181116 0.983462 0.000000
-7.432681 -7.055861 -0.405907 1055 -0.181116 0.983462 0.000000
-7.432928 -7.056096 -0.402765 1055 -0.181116 0.983462 0.000000
-7.433339 -7.056476 -0.399631 1063 -0.181116 0.983462 0.000000
-7.432573 -7.055750 -0.396448 1053 -0.181116 0.983462 0.000000
-7.433081 -7.056234 -0.393313 1057 -0.181116 0.983462 0.000000
-7.433217 -7.056365 -0.390172 1067 -0.181116 0.983462 0.000000
-7.433194 -7.056344 -0.387022 1077 -0.181116 0.983462 0.000000
-7.432800 -7.055970 -0.383845 1061 -0.181116 0.983462 0.000000
-7.433307 -7.056453 -0.380720 1067 -0.181116 0.983462 0.000000
-7.433600 -7.056726 -0.377588 1067 -0.181116 0.983462 0.000000
-7.433096 -7.056249 -0.374412 1067 -0.181116 0.983462 0.000000
-7.432908 -7.056081 -0.371254 1057 -0.181116 0.983462 0.000000
-7.433091 -7.056251 -0.368102 1053 -0.181116 0.983462 0.000000
-7.433012 -7.056171 -0.364953 1049 -0.181116 0.983462 0.000000
-7.433560 -7.056700 -0.361828 1065 -0.181116 0.983462 0.000000
-7.433379 -7.056524 -0.358669 1057 -0.181116 0.983462 0.000000
-7.433238 -7.056394 -0.355511 1053 -0.181116 0.983462 0.000000
-7.434013 -7.057119 -0.352393 1047 -0.181116 0.983462 0.000000
-7.433611 -7.056739 -0.349227 1039 -0.181116 0.983462 0.000000
-7.432768 -7.055951 -0.346035 1021 -0.181116 0.983462 0.000000
-7.432909 -7.056075 -0.342893 1033 -0.181116 0.983462 0.000000
-7.432817 -7.055996 -0.339734 1031 -0.181116 0.983462 0.000000
-7.432943 -7.056108 -0.336593 1041 -0.181116 0.983462 0.000000
-7.432962 -7.056132 -0.333443 1035 -0.181116 0.983462 0.000000
-7.433136 -7.056295 -0.330301 1033 -0.181116 0.983462 0.000000
-7.433043 -7.056202 -0.327142 1035 -0.181116 0.983462 0.000000
-7.433330 -7.056482 -0.324009 1029 -0.181116 0.983462 0.000000
-7.433243 -7.056396 -0.320850 1023 -0.181116 0.983462 0.000000
-7.432929 -7.056099 -0.317693 1025 -0.181116 0.983462 0.000000
-7.432470 -7.055660 -0.314517 1031 -0.181116 0.983462 0.000000
-7.432852 -7.056029 -0.311383 1047 -0.181116 0.983462 0.000000
-7.433344 -7.056500 -0.308258 1041 -0.181116 0.983462 0.000000
-7.433463 -7.056606 -0.305107 1027 -0.181116 0.983462 0.000000
-7.433685 -7.056821 -0.301965 1035 -0.181116 0.983462 0.000000
-7.437355 -7.056040 -0.702831 1045 -0.181116 0.983462 0.000000
-7.437829 -7.056486 -0.699717 1059 -0.181116 0.983462 0.000000
-7.437871 -7.056528 -0.696556 1053 -0.181116 0.983462 0.000000
-7.437753 -7.056416 -0.693387 1041 -0.181116 0.983462 0.000000
-7.437272 -7.055959 -0.690181 1037 -0.181116 0.983462 0.000000
-7.437361 -7.056053 -0.687021 1053 -0.181116 0.983462 0.000000
-7.436934 -7.055640 -0.683825 1045 -0.181116 0.983462 0.000000
-7.437244 -7.055938 -0.680692 1037 -0.181116 0.983462 0.000000
-7.438029 -7.056684 -0.677594 1053 -0.181116 0.983462 0.000000
-7.437222 -7.055913 -0.674362 1047 -0.181116 0.983462 0.000000
-7.437524 -7.056205 -0.671229 1051 -0.181116 0.983462 0.000000
-7.438094 -7.056739 -0.668113 1059 -0.181116 0.983462 0.000000
-7.437866 -7.056526 -0.664935 1051 -0.181116 0.983462 0.000000
-7.437962 -7.056612 -0.661784 1055 -0.181116 0.983462 0.000000
-7.438313 -7.056956 -0.658651 1057 -0.181116 0.983462 0.000000
-7.438028 -7.056684 -0.655464 1057 -0.181116 0.983462 0.000000
-7.437594 -7.056264 -0.652268 1061 -0.181116 0.983462 0.000000
-7.437097 -7.055795 -0.649062 1039 -0.181116 0.983462 0.000000
-7.437351 -7.056035 -0.645930 1035 -0.181116 0.983462 0.000000
-7.437535 -7.056219 -0.642778 1037 -0.181116 0.983462 0.000000
-7.437567 -7.056241 -0.639628 1027 -0.181116 0.983462 0.000000
-7.438184 -7.056827 -0.636512 1047 -0.181116 0.983462 0.000000
-7.437956 -7.056612 -0.633334 1069 -0.181116 0.983462 0.000000
-7.436930 -7.055637 -0.630093 1045 -0.181116 0.983462 0.000000
-7.437176 -7.055871 -0.626951 1049 -0.181116 0.983462 0.000000
-7.437193 -7.055895 -0.623791 1043 -0.181116 0.983462 0.000000
-7.437384 -7.056070 -0.620649 1049 -0.181116 0.983462 0.000000
-7.437306 -7.056005 -0.617489 1053 -0.181116 0.983462 0.000000
-7.437235 -7.055931 -0.614320 1043 -0.181116 0.983462 0.000000
-7.437736 -7.056408 -0.611205 1049 -0.181116 0.983462 0.000000
-7.438028 -7.056680 -0.608062 1041 -0.181116 0.983462 0.000000
-7.438205 -7.056858 -0.604921 1051 -0.181116 0.983462 0.000000
-7.437976 -7.056630 -0.601743 1059 -0.181116 0.983462 0.000000
-7.438255 -7.056903 -0.598610 1045 -0.181116 0.983462 0.000000
-7.438658 -7.057277 -0.595476 1055 -0.181116 0.983462 0.000000
-7.438786 -7.057402 -0.592325 1053 -0.181116 0.983462 0.000000
-7.438163 -7.056818 -0.589121 1041 -0.181116 0.983462 0.000000
-7.438187 -7.056834 -0.585960 1041 -0.181116 0.983462 0.000000
-7.438474 -7.057113 -0.582828 1049 -0.181116 0.983462 0.000000
-7.438547 -7.057181 -0.579677 1069 -0.181116 0.983462 0.000000
-7.437985 -7.056646 -0.576472 1059 -0.181116 0.983462 0.000000
-7.437583 -7.056266 -0.573286 1061 -0.181116 0.983462 0.000000
-7.438130 -7.056782 -0.570171 1067 -0.181116 0.983462 0.000000
-7.438202 -7.056849 -0.567020 1077 -0.181116 0.983462 0.000000
-7.437895 -7.056558 -0.563833 1077 -0.181116 0.983462 0.000000
-7.438284 -7.056933 -0.560709 1091 -0.181116 0.983462 0.000000
-7.438562 -7.057193 -0.557566 1089 -0.181116 0.983462 0.000000
-7.438311 -7.056960 -0.554398 1079 -0.181116 0.983462 0.000000
-7.438596 -7.057226 -0.551256 1079 -0.181116 0.983462 0.000000
-7.438399 -7.057037 -0.548088 1069 -0.181116 0.983462 0.000000
-7.437981 -7.056644 -0.544901 1071 -0.181116 0.983462 0.000000
-7.438520 -7.057153 -0.541776 1083 -0.181116 0.983462 0.000000
-7.438221 -7.056869 -0.538599 1069 -0.181116 0.983462 0.000000
-7.438229 -7.056872 -0.535439 1065 -0.181116 0.983462 0.000000
-7.438293 -7.056933 -0.532288 1065 -0.181116 0.983462 0.000000
-7.438083 -7.056747 -0.529120 1055 -0.181116 0.983462 0.000000
-7.438835 -7.057453 -0.526013 1067 -0.181116 0.983462 0.000000
-7.438581 -7.057206 -0.522845 1069 -0.181116 0.983462 0.000000
-7.437840 -7.056514 -0.519632 1061 -0.181116 0.983462 0.000000
-7.437580 -7.056262 -0.516464 1057 -0.181116 0.983462 0.000000
-7.437693 -7.056375 -0.513313 1063 -0.181116 0.983462 0.000000
-7.438547 -7.057176 -0.510215 1047 -0.181116 0.983462 0.000000
-7.439190 -7.057796 -0.507099 1045 -0.181116 0.983462 0.000000
-7.438289 -7.056934 -0.503888 1045 -0.181116 0.983462 0.000000
-7.438022 -7.056690 -0.500710 1045 -0.181116 0.983462 0.000000
-7.438979 -7.057588 -0.497621 1041 -0.181116 0.983462 0.000000
-7.439304 -7.057899 -0.494478 1051 -0.181116 0.983462 0.000000
-7.438349 -7.056994 -0.491267 1057 -0.181116 0.983462 0.000000
-7.438239 -7.056889 -0.488098 1059 -0.181116 0.983462 0.000000
-7.438557 -7.057194 -0.484965 1053 -0.181116 0.983462 0.000000
-7.437814 -7.056487 -0.481761 1047 -0.181116 0.983462 0.000000
-7.438022 -7.056689 -0.478619 1051 -0.181116 0.983462 0.000000
-7.439075 -7.057692 -0.475529 1077 -0.181116 0.983462 0.000000
-7.439234 -7.057842 -0.472388 1063 -0.181116 0.983462 0.000000
-7.439497 -7.058089 -0.469245 1061 -0.181116 0.983462 0.000000
-7.439442 -7.058028 -0.466086 1063 -0.181116 0.983462 0.000000
-7.439008 -7.057622 -0.462910 1059 -0.181116 0.983462 0.000000
-7.438630 -7.057261 -0.459733 1063 -0.181116 0.983462 0.000000
-7.438781 -7.057405 -0.456582 1045 -0.181116 0.983462 0.000000
-7.438878 -7.057506 -0.453431 1055 -0.181116 0.983462 0.000000
-7.438292 -7.056939 -0.450246 1043 -0.181116 0.983462 0.000000
-7.438546 -7.057179 -0.447104 1035 -0.181116 0.983462 0.000000
-7.438794 -7.057427 -0.443961 1027 -0.181116 0.983462 0.000000
-7.438739 -7.057366 -0.440812 1031 -0.181116 0.983462 0.000000
-7.438622 -7.057255 -0.437643 1031 -0.181116 0.983462 0.000000
-7.438711 -7.057349 -0.434502 1039 -0.181116 0.983462 0.000000
-7.438807 -7.057436 -0.431351 1045 -0.181116 0.983462 0.000000
-7.438682 -7.057318 -0.428182 1055 -0.181116 0.983462 0.000000
-7.439038 -7.057654 -0.425049 1063 -0.181116 0.983462 0.000000
-7.439237 -7.057836 -0.421907 1053 -0.181116 0.983462 0.000000
-7.438265 -7.056918 -0.418706 1045 -0.181116 0.983462 0.000000
-7.437990 -7.056653 -0.415538 1045 -0.181116 0.983462 0.000000
-7.438711 -7.057349 -0.412421 1047 -0.181116 0.983462 0.000000
-7.438640 -7.057275 -0.409262 1049 -0.181116 0.983462 0.000000
-7.438825 -7.057459 -0.406120 1035 -0.181116 0.983462 0.000000
-7.439552 -7.058146 -0.403003 1059 -0.181116 0.983462 0.000000
-7.439269 -7.057874 -0.399836 1055 -0.181116 0.983462 0.000000
-7.438716 -7.057347 -0.396651 1049 -0.181116 0.983462 0.000000
-7.438061 -7.056724 -0.393467 1045 -0.181116 0.983462 0.000000
-7.438245 -7.056907 -0.390325 1043 -0.181116 0.983462 0.000000
-7.439124 -7.057743 -0.387217 1063 -0.181116 0.983462 0.000000
-7.439212 -7.057823 -0.384066 1057 -0.181116 0.983462 0.000000
-7.439505 -7.058095 -0.380923 1061 -0.181116 0.983462 0.000000
-7.438946 -7.057575 -0.377748 1059 -0.181116 0.983462 0.000000
-7.438124 -7.056791 -0.374556 1045 -0.181116 0.983462 0.000000
-7.438473 -7.057121 -0.371413 1043 -0.181116 0.983462 0.000000
-7.438712 -7.057349 -0.368270 1057 -0.181116 0.983462 0.000000
-7.438681 -7.057321 -0.365120 1051 -0.181116 0.983462 0.000000
-7.438602 -7.057240 -0.361961 1041 -0.181116 0.983462 0.000000
-7.438249 -7.056912 -0.358794 1041 -0.181116 0.983462 0.000000
-7.438067 -7.056736 -0.355636 1035 -0.181116 0.983462 0.000000
-7.438616 -7.057265 -0.352511 1029 -0.181116 0.983462 0.000000
-7.439224 -7.057830 -0.349385 1027 -0.181116 0.983462 0.000000
-7.439559 -7.058162 -0.346242 1041 -0.181116 0.983462 0.000000
-7.439101 -7.057724 -0.343076 1019 -0.181116 0.983462 0.000000
-7.439394 -7.057996 -0.339933 1035 -0.181116 0.983462 0.000000
-7.439997 -7.058569 -0.336807 1039 -0.181116 0.983462 0.000000
-7.439958 -7.058534 -0.333648 1039 -0.181116 0.983462 0.000000
-7.439019 -7.057642 -0.330456 1031 -0.181116 0.983462 0.000000
-7.438719 -7.057358 -0.327299 1031 -0.181116 0.983462 0.000000
-7.438886 -7.057515 -0.324148 1035 -0.181116 0.983462 0.000000
-7.438856 -7.057487 -0.320998 1033 -0.181116 0.983462 0.000000
-7.439498 -7.058105 -0.317872 1029 -0.181116 0.983462 0.000000
-7.439728 -7.058312 -0.314729 1043 -0.181116 0.983462 0.000000
-7.439002 -7.057632 -0.311546 1027 -0.181116 0.983462 0.000000
-7.438909 -7.057540 -0.308387 1025 -0.181116 0.983462 0.000000
-7.439605 -7.058203 -0.305270 1035 -0.181116 0.983462 0.000000
-7.439828 -7.058418 -0.302128 1021 -0.181116 0.983462 0.000000
-7.443693 -7.057732 -0.703223 1039 -0.181116 0.983462 0.000000
-7.443158 -7.057230 -0.700008 1037 -0.181116 0.983462 0.000000
-7.443040 -7.057119 -0.696839 1047 -0.181116 0.983462 0.000000
-7.443886 -7.057915 -0.693751 1041 -0.181116 0.983462 0.000000
-7.443825 -7.057862 -0.690581 1029 -0.181116 0.983462 0.000000
-7.443392 -7.057456 -0.687375 1031 -0.181116 0.983462 0.000000
-7.443638 -7.057690 -0.684233 1021 -0.181116 0.983462 0.000000
-7.443054 -7.057137 -0.681018 1031 -0.181116 0.983462 0.000000
-7.443038 -7.057122 -0.677848 1037 -0.181116 0.983462 0.000000
-7.443293 -7.057362 -0.674716 1035 -0.181116 0.983462 0.000000
-7.443601 -7.057646 -0.671573 1045 -0.181116 0.983462 0.000000
-7.444125 -7.058143 -0.668458 1045 -0.181116 0.983462 0.000000
-7.443463 -7.057527 -0.665234 1031 -0.181116 0.983462 0.000000
-7.443661 -7.057709 -0.662092 1057 -0.181116 0.983462 0.000000
-7.443282 -7.057347 -0.658896 1055 -0.181116 0.983462 0.000000
-7.443741 -7.057779 -0.655771 1051 -0.181116 0.983462 0.000000
-7.444518 -7.058519 -0.652684 1059 -0.181116 0.983462 0.000000
-7.443547 -7.057601 -0.649433 1041 -0.181116 0.983462 0.000000
-7.443002 -7.057080 -0.646228 1037 -0.181116 0.983462 0.000000
-7.443296 -7.057366 -0.643085 1037 -0.181116 0.983462 0.000000
-7.443336 -7.057395 -0.639925 1043 -0.181116 0.983462 0.000000
-7.443370 -7.057431 -0.636774 1041 -0.181116 0.983462 0.000000
-7.443395 -7.057460 -0.633614 1039 -0.181116 0.983462 0.000000
-7.444013 -7.058046 -0.630498 1051 -0.181116 0.983462 0.000000
-7.444093 -7.058120 -0.627347 1041 -0.181116 0.983462 0.000000
-7.443279 -7.057342 -0.624115 1037 -0.181116 0.983462 0.000000
-7.443305 -7.057372 -0.620955 1029 -0.181116 0.983462 0.000000
-7.443701 -7.057754 -0.617831 1039 -0.181116 0.983462 0.000000
-7.443679 -7.057732 -0.614671 1039 -0.181116 0.983462 0.000000
-7.444184 -7.058201 -0.611546 1035 -0.181116 0.983462 0.000000
-7.444479 -7.058487 -0.608413 1043 -0.181116 0.983462 0.000000
-7.443919 -7.057953 -0.605198 1049 -0.181116 0.983462 0.000000
-7.443462 -7.057528 -0.602003 1057 -0.181116 0.983462 0.000000
-7.443494 -7.057550 -0.598852 1047 -0.181116 0.983462 0.000000
-7.444309 -7.058322 -0.595754 1053 -0.181116 0.983462 0.000000
-7.444540 -7.058543 -0.592612 1041 -0.181116 0.983462 0.000000
-7.444194 -7.058221 -0.589425 1039 -0.181116 0.983462 0.000000
-7.443854 -7.057892 -0.586239 1049 -0.181116 0.983462 0.000000
-7.443864 -7.057909 -0.583078 1037 -0.181116 0.983462 0.000000
-7.443675 -7.057726 -0.579900 1045 -0.181116 0.983462 0.000000
-7.444119 -7.058146 -0.576776 1057 -0.181116 0.983462 0.000000
-7.444673 -7.058667 -0.573660 1057 -0.181116 0.983462 0.000000
-7.444635 -7.058632 -0.570491 1063 -0.181116 0.983462 0.000000
-7.444914 -7.058906 -0.567358 1073 -0.181116 0.983462 0.000000
-7.444407 -7.058415 -0.564163 1067 -0.181116 0.983462 0.000000
-7.444149 -7.058177 -0.560975 1067 -0.181116 0.983462 0.000000
-7.444641 -7.058648 -0.557860 1069 -0.181116 0.983462 0.000000
-7.444498 -7.058503 -0.554692 1063 -0.181116 0.983462 0.000000
-7.443930 -7.057963 -0.551487 1063 -0.181116 0.983462 0.000000
-7.443204 -7.057283 -0.548274 1053 -0.181116 0.983462 0.000000
-7.443640 -7.057696 -0.545150 1067 -0.181116 0.983462 0.000000
-7.444338 -7.058359 -0.542043 1067 -0.181116 0.983462 0.000000
-7.445199 -7.059168 -0.538945 1051 -0.181116 0.983462 0.000000
-7.445525 -7.059479 -0.535802 1049 -0.181116 0.983462 0.000000
-7.444151 -7.058185 -0.532554 1051 -0.181116 0.983462 0.000000
-7.443796 -7.057842 -0.529368 1049 -0.181116 0.983462 0.000000
-7.443591 -7.057647 -0.526200 1041 -0.181116 0.983462 0.000000
-7.443601 -7.057664 -0.523039 1049 -0.181116 0.983462 0.000000
-7.444297 -7.058313 -0.519923 1045 -0.181116 0.983462 0.000000
-7.444243 -7.058266 -0.516763 1043 -0.181116 0.983462 0.000000
-7.444095 -7.058129 -0.513595 1045 -0.181116 0.983462 0.000000
-7.444356 -7.058375 -0.510462 1049 -0.181116 0.983462 0.000000
-7.445108 -7.059082 -0.507345 1051 -0.181116 0.983462 0.000000
-7.444898 -7.058896 -0.504177 1043 -0.181116 0.983462 0.000000
-7.444314 -7.058342 -0.500982 1039 -0.181116 0.983462 0.000000
-7.444322 -7.058345 -0.497822 1047 -0.181116 0.983462 0.000000
-7.444694 -7.058694 -0.494688 1043 -0.181116 0.983462 0.000000
-7.444861 -7.058851 -0.491547 1049 -0.181116 0.983462 0.000000
-7.444008 -7.058042 -0.488335 1049 -0.181116 0.983462 0.000000
-7.444318 -7.058341 -0.485192 1059 -0.181116 0.983462 0.000000
-7.444424 -7.058447 -0.482041 1055 -0.181116 0.983462 0.000000
-7.443633 -7.057689 -0.478838 1041 -0.181116 0.983462 0.000000
-7.443572 -7.057636 -0.475679 1045 -0.181116 0.983462 0.000000
-7.443992 -7.058036 -0.472544 1049 -0.181116 0.983462 0.000000
-7.444569 -7.058576 -0.469429 1061 -0.181116 0.983462 0.000000
-7.444831 -7.058823 -0.466286 1051 -0.181116 0.983462 0.000000
-7.445362 -7.059325 -0.463161 1051 -0.181116 0.983462 0.000000
-7.445182 -7.059163 -0.459993 1055 -0.181116 0.983462 0.000000
-7.444709 -7.058713 -0.456807 1049 -0.181116 0.983462 0.000000
-7.444481 -7.058499 -0.453639 1035 -0.181116 0.983462 0.000000
-7.444150 -7.058190 -0.450462 1029 -0.181116 0.983462 0.000000
-7.443993 -7.058033 -0.447294 1025 -0.181116 0.983462 0.000000
-7.444294 -7.058324 -0.444161 1017 -0.181116 0.983462 0.000000
-7.445030 -7.059019 -0.441044 1013 -0.181116 0.983462 0.000000
-7.444858 -7.058849 -0.437876 1027 -0.181116 0.983462 0.000000
-7.444527 -7.058540 -0.434709 1025 -0.181116 0.983462 0.000000
-7.445153 -7.059132 -0.431583 1039 -0.181116 0.983462 0.000000
-7.445296 -7.059270 -0.428431 1049 -0.181116 0.983462 0.000000
-7.445124 -7.059114 -0.425273 1047 -0.181116 0.983462 0.000000
-7.444682 -7.058689 -0.422087 1031 -0.181116 0.983462 0.000000
-7.444502 -7.058527 -0.418928 1033 -0.181116 0.983462 0.000000
-7.444921 -7.058913 -0.415794 1045 -0.181116 0.983462 0.000000
-7.445168 -7.059148 -0.412652 1055 -0.181116 0.983462 0.000000
-7.444932 -7.058928 -0.409484 1049 -0.181116 0.983462 0.000000
-7.444862 -7.058868 -0.406325 1051 -0.181116 0.983462 0.000000
-7.444579 -7.058596 -0.403157 1043 -0.181116 0.983462 0.000000
-7.444508 -7.058522 -0.399998 1033 -0.181116 0.983462 0.000000
-7.445594 -7.059564 -0.396898 1047 -0.181116 0.983462 0.000000
-7.446053 -7.059995 -0.393763 1053 -0.181116 0.983462 0.000000
-7.445342 -7.059314 -0.390570 1045 -0.181116 0.983462 0.000000
-7.445424 -7.059402 -0.387419 1047 -0.181116 0.983462 0.000000
-7.445393 -7.059373 -0.384269 1043 -0.181116 0.983462 0.000000
-7.445631 -7.059601 -0.381117 1047 -0.181116 0.983462 0.000000
-7.445458 -7.059431 -0.377958 1039 -0.181116 0.983462 0.000000
-7.445214 -7.059205 -0.374791 1033 -0.181116 0.983462 0.000000
-7.445184 -7.059177 -0.371631 1031 -0.181116 0.983462 0.000000
-7.445533 -7.059506 -0.368497 1047 -0.181116 0.983462 0.000000
-7.445455 -7.059426 -0.365338 1049 -0.181116 0.983462 0.000000
-7.444942 -7.058944 -0.362163 1037 -0.181116 0.983462 0.000000
-7.444602 -7.058615 -0.358986 1021 -0.181116 0.983462 0.000000
-7.444841 -7.058842 -0.355844 1043 -0.181116 0.983462 0.000000
-7.445017 -7.059020 -0.352702 1043 -0.181116 0.983462 0.000000
-7.444987 -7.058991 -0.349542 1029 -0.181116 0.983462 0.000000
-7.445059 -7.059059 -0.346391 1021 -0.181116 0.983462 0.000000
-7.444450 -7.058473 -0.343217 1025 -0.181116 0.983462 0.000000
-7.444729 -7.058747 -0.340074 1043 -0.181116 0.983462 0.000000
-7.445173 -7.059166 -0.336940 1039 -0.181116 0.983462 0.000000
-7.444874 -7.058882 -0.333773 1023 -0.181116 0.983462 0.000000
-7.444946 -7.058949 -0.330622 1027 -0.181116 0.983462 0.000000
-7.445595 -7.059560 -0.327496 1045 -0.181116 0.983462 0.000000
-7.446204 -7.060139 -0.324370 1043 -0.181116 0.983462 0.000000
-7.445518 -7.059491 -0.321186 1035 -0.181116 0.983462 0.000000
-7.444847 -7.058855 -0.318003 1033 -0.181116 0.983462 0.000000
-7.444698 -7.058718 -0.314844 1031 -0.181116 0.983462 0.000000
-7.444874 -7.058881 -0.311692 1025 -0.181116 0.983462 0.000000
-7.445207 -7.059198 -0.308559 1021 -0.181116 0.983462 0.000000
-7.445430 -7.059413 -0.305407 1009 -0.181116 0.983462 0.000000
-7.445659 -7.059621 -0.302265 1019 -0.181116 0.983462 0.000000
-7.450395 -7.059690 -0.703642 1023 -0.181116 0.983462 0.000000
-7.451083 -7.060333 -0.700535 1045 -0.181116 0.983462 0.000000
-7.450862 -7.060125 -0.697347 1043 -0.181116 0.983462 0.000000
-7.450271 -7.059566 -0.694133 1037 -0.181116 0.983462 0.000000
-7.449789 -7.059109 -0.690917 1031 -0.181116 0.983462 0.000000
-7.449886 -7.059209 -0.687766 1035 -0.181116 0.983462 0.000000
-7.449926 -7.059238 -0.684606 1045 -0.181116 0.983462 0.000000
-7.449541 -7.058884 -0.681399 1023 -0.181116 0.983462 0.000000
-7.449960 -7.059270 -0.678275 1035 -0.181116 0.983462 0.000000
-7.450160 -7.059467 -0.675123 1037 -0.181116 0.983462 0.000000
-7.449724 -7.059047 -0.671927 1029 -0.181116 0.983462 0.000000
-7.449703 -7.059039 -0.668757 1037 -0.181116 0.983462 0.000000
-7.449957 -7.059279 -0.665615 1037 -0.181116 0.983462 0.000000
-7.450053 -7.059366 -0.662464 1035 -0.181116 0.983462 0.000000
-7.450458 -7.059754 -0.659330 1039 -0.181116 0.983462 0.000000
-7.450656 -7.059936 -0.656178 1039 -0.181116 0.983462 0.000000
-7.450215 -7.059524 -0.652982 1033 -0.181116 0.983462 0.000000
-7.450311 -7.059610 -0.649821 1043 -0.181116 0.983462 0.000000
-7.450130 -7.059434 -0.646643 1035 -0.181116 0.983462 0.000000
-7.449949 -7.059272 -0.643464 1021 -0.181116 0.983462 0.000000
-7.450194 -7.059492 -0.640322 1033 -0.181116 0.983462 0.000000
-7.449753 -7.059081 -0.637126 1023 -0.181116 0.983462 0.000000
-7.449359 -7.058707 -0.633930 1035 -0.181116 0.983462 0.000000
-7.449345 -7.058691 -0.630760 1041 -0.181116 0.983462 0.000000
-7.450057 -7.059366 -0.627653 1033 -0.181116 0.983462 0.000000
-7.450675 -7.059953 -0.624547 1025 -0.181116 0.983462 0.000000
-7.450170 -7.059476 -0.621342 1033 -0.181116 0.983462 0.000000
-7.449452 -7.058802 -0.618118 1025 -0.181116 0.983462 0.000000
-7.449484 -7.058824 -0.614958 1033 -0.181116 0.983462 0.000000
-7.449771 -7.059104 -0.611815 1035 -0.181116 0.983462 0.000000
-7.450333 -7.059632 -0.608700 1027 -0.181116 0.983462 0.000000
-7.450833 -7.060109 -0.605575 1041 -0.181116 0.983462 0.000000
-7.450754 -7.060029 -0.602406 1039 -0.181116 0.983462 0.000000
-7.450573 -7.059853 -0.599227 1041 -0.181116 0.983462 0.000000
-7.450970 -7.060235 -0.596104 1049 -0.181116 0.983462 0.000000
-7.451255 -7.060501 -0.592961 1049 -0.181116 0.983462 0.000000
-7.451114 -7.060369 -0.589792 1051 -0.181116 0.983462 0.000000
-7.450760 -7.060041 -0.586595 1047 -0.181116 0.983462 0.000000
-7.450730 -7.060013 -0.583436 1051 -0.181116 0.983462 0.000000
-7.451332 -7.060586 -0.580320 1061 -0.181116 0.983462 0.000000
-7.451467 -7.060704 -0.577168 1055 -0.181116 0.983462 0.000000
-7.450693 -7.059972 -0.573946 1039 -0.181116 0.983462 0.000000
-7.450545 -7.059835 -0.570777 1049 -0.181116 0.983462 0.000000
-7.450665 -7.059955 -0.567616 1051 -0.181116 0.983462 0.000000
-7.450840 -7.060118 -0.564474 1059 -0.181116 0.983462 0.000000
-7.450966 -7.060229 -0.561323 1053 -0.181116 0.983462 0.000000
-7.450984 -7.060253 -0.558163 1047 -0.181116 0.983462 0.000000
-7.450629 -7.059911 -0.554976 1051 -0.181116 0.983462 0.000000
-7.450591 -7.059876 -0.551806 1051 -0.181116 0.983462 0.000000
-7.451344 -7.060597 -0.548699 1059 -0.181116 0.983462 0.000000
-7.451242 -7.060498 -0.545530 1051 -0.181116 0.983462 0.000000
-7.450729 -7.060016 -0.542334 1037 -0.181116 0.983462 0.000000
-7.450533 -7.059827 -0.539166 1033 -0.181116 0.983462 0.000000
-7.450541 -7.059830 -0.536006 1049 -0.181116 0.983462 0.000000
-7.450867 -7.060141 -0.532863 1033 -0.181116 0.983462 0.000000
-7.451192 -7.060452 -0.529730 1045 -0.181116 0.983462 0.000000
-7.449927 -7.059246 -0.526482 1035 -0.181116 0.983462 0.000000
-7.450522 -7.059812 -0.523356 1045 -0.181116 0.983462 0.000000
-7.450998 -7.060271 -0.520231 1039 -0.181116 0.983462 0.000000
-7.450422 -7.059724 -0.517037 1035 -0.181116 0.983462 0.000000
-7.450692 -7.059978 -0.513894 1037 -0.181116 0.983462 0.000000
-7.450810 -7.060082 -0.510743 1041 -0.181116 0.983462 0.000000
-7.451025 -7.060291 -0.507601 1051 -0.181116 0.983462 0.000000
-7.450972 -7.060244 -0.504431 1041 -0.181116 0.983462 0.000000
-7.451241 -7.060497 -0.501289 1059 -0.181116 0.983462 0.000000
-7.451029 -7.060296 -0.498121 1051 -0.181116 0.983462 0.000000
-7.450975 -7.060249 -0.494951 1047 -0.181116 0.983462 0.000000
-7.450763 -7.060048 -0.491783 1053 -0.181116 0.983462 0.000000
-7.450709 -7.060000 -0.488623 1035 -0.181116 0.983462 0.000000
-7.450979 -7.060253 -0.485481 1039 -0.181116 0.983462 0.000000
-7.450600 -7.059892 -0.482294 1047 -0.181116 0.983462 0.000000
-7.450815 -7.060101 -0.479152 1057 -0.181116 0.983462 0.000000
-7.450698 -7.059989 -0.475983 1055 -0.181116 0.983462 0.000000
-7.450857 -7.060140 -0.472832 1043 -0.181116 0.983462 0.000000
-7.451442 -7.060687 -0.469716 1047 -0.181116 0.983462 0.000000
-7.451325 -7.060575 -0.466547 1035 -0.181116 0.983462 0.000000
-7.450948 -7.060228 -0.463361 1037 -0.181116 0.983462 0.000000
-7.450631 -7.059917 -0.460184 1023 -0.181116 0.983462 0.000000
-7.451305 -7.060561 -0.457067 1035 -0.181116 0.983462 0.000000
-7.451670 -7.060903 -0.453934 1031 -0.181116 0.983462 0.000000
-7.451339 -7.060594 -0.450757 1031 -0.181116 0.983462 0.000000
-7.450969 -7.060239 -0.447580 1031 -0.181116 0.983462 0.000000
-7.450954 -7.060223 -0.444420 1023 -0.181116 0.983462 0.000000
-7.451312 -7.060573 -0.441277 1029 -0.181116 0.983462 0.000000
-7.451091 -7.060365 -0.438109 1029 -0.181116 0.983462 0.000000
-7.451076 -7.060349 -0.434949 1021 -0.181116 0.983462 0.000000
-7.452018 -7.061236 -0.431850 1035 -0.181116 0.983462 0.000000
-7.451584 -7.060830 -0.428664 1041 -0.181116 0.983462 0.000000
-7.450399 -7.059701 -0.425445 1035 -0.181116 0.983462 0.000000
-7.450702 -7.059994 -0.422302 1021 -0.181116 0.983462 0.000000
-7.451107 -7.060381 -0.419168 1023 -0.181116 0.983462 0.000000
-7.450830 -7.060116 -0.415991 1033 -0.181116 0.983462 0.000000
-7.451187 -7.060452 -0.412857 1041 -0.181116 0.983462 0.000000
-7.451592 -7.060840 -0.409723 1053 -0.181116 0.983462 0.000000
-7.451727 -7.060972 -0.406572 1045 -0.181116 0.983462 0.000000
-7.451870 -7.061096 -0.403421 1041 -0.181116 0.983462 0.000000
-7.452172 -7.061388 -0.400278 1051 -0.181116 0.983462 0.000000
-7.452473 -7.061666 -0.397135 1045 -0.181116 0.983462 0.000000
-7.451486 -7.060736 -0.393924 1043 -0.181116 0.983462 0.000000
-7.451307 -7.060574 -0.390765 1029 -0.181116 0.983462 0.000000
-7.451869 -7.061102 -0.387630 1017 -0.181116 0.983462 0.000000
-7.452851 -7.062033 -0.384531 1039 -0.181116 0.983462 0.000000
-7.453159 -7.062317 -0.381388 1047 -0.181116 0.983462 0.000000
-7.451746 -7.060992 -0.378161 1035 -0.181116 0.983462 0.000000
-7.451035 -7.060309 -0.374968 1035 -0.181116 0.983462 0.000000
-7.451796 -7.061037 -0.371850 1033 -0.181116 0.983462 0.000000
-7.451876 -7.061111 -0.368700 1039 -0.181116 0.983462 0.000000
-7.451165 -7.060430 -0.365506 1025 -0.181116 0.983462 0.000000
-7.451554 -7.060804 -0.362363 1041 -0.181116 0.983462 0.000000
-7.451745 -7.060981 -0.359221 1041 -0.181116 0.983462 0.000000
-7.451232 -7.060499 -0.356035 1039 -0.181116 0.983462 0.000000
-7.451146 -7.060412 -0.352876 1021 -0.181116 0.983462 0.000000
-7.451866 -7.061093 -0.349759 1025 -0.181116 0.983462 0.000000
-7.451504 -7.060759 -0.346583 1015 -0.181116 0.983462 0.000000
-7.451735 -7.060980 -0.343440 1023 -0.181116 0.983462 0.000000
-7.451554 -7.060805 -0.340272 1037 -0.181116 0.983462 0.000000
-7.451516 -7.060770 -0.337122 1035 -0.181116 0.983462 0.000000
-7.451636 -7.060889 -0.333971 1023 -0.181116 0.983462 0.000000
-7.451558 -7.060809 -0.330812 1019 -0.181116 0.983462 0.000000
-7.451353 -7.060614 -0.327644 1027 -0.181116 0.983462 0.000000
-7.452003 -7.061239 -0.324517 1021 -0.181116 0.983462 0.000000
-7.452708 -7.061908 -0.321391 1031 -0.181116 0.983462 0.000000
-7.451982 -7.061215 -0.318207 1021 -0.181116 0.983462 0.000000
-7.451421 -7.060680 -0.315023 1013 -0.181116 0.983462 0.000000
-7.451217 -7.060485 -0.311864 1007 -0.181116 0.983462 0.000000
-7.451550 -7.060802 -0.308721 1013 -0.181116 0.983462 0.000000
-7.451663 -7.060916 -0.305570 995 -0.181116 0.983462 0.000000
-7.451245 -7.060523 -0.302404 1007 -0.181116 0.983462 0.000000
-7.456414 -7.060982 -0.703997 1021 -0.181116 0.983462 0.000000
-7.457150 -7.061676 -0.700890 1027 -0.181116 0.983462 0.000000
-7.456875 -7.061424 -0.697702 1037 -0.181116 0.983462 0.000000
-7.457137 -7.061671 -0.694560 1031 -0.181116 0.983462 0.000000
-7.456861 -7.061406 -0.691362 1041 -0.181116 0.983462 0.000000
-7.455746 -7.060346 -0.688093 1035 -0.181116 0.983462 0.000000
-7.455362 -7.059993 -0.684896 1033 -0.181116 0.983462 0.000000
-7.455719 -7.060329 -0.681763 1033 -0.181116 0.983462 0.000000
-7.456295 -7.060869 -0.678647 1051 -0.181116 0.983462 0.000000
-7.456178 -7.060758 -0.675468 1033 -0.181116 0.983462 0.000000
-7.456109 -7.060698 -0.672299 1027 -0.181116 0.983462 0.000000
-7.456150 -7.060740 -0.669128 1021 -0.181116 0.983462 0.000000
-7.456135 -7.060724 -0.665968 1019 -0.181116 0.983462 0.000000
-7.456071 -7.060657 -0.662789 1011 -0.181116 0.983462 0.000000
-7.456375 -7.060949 -0.659656 1021 -0.181116 0.983462 0.000000
-7.456517 -7.061087 -0.656495 1029 -0.181116 0.983462 0.000000
-7.456874 -7.061423 -0.653361 1033 -0.181116 0.983462 0.000000
-7.457223 -7.061752 -0.650228 1035 -0.181116 0.983462 0.000000
-7.456782 -7.061341 -0.647022 1031 -0.181116 0.983462 0.000000
-7.456768 -7.061325 -0.643852 1021 -0.181116 0.983462 0.000000
-7.456635 -7.061201 -0.640683 1027 -0.181116 0.983462 0.000000
-7.455930 -7.060526 -0.637450 1023 -0.181116 0.983462 0.000000
-7.456336 -7.060914 -0.634326 1029 -0.181116 0.983462 0.000000
-7.456739 -7.061287 -0.631192 1043 -0.181116 0.983462 0.000000
-7.456132 -7.060716 -0.627978 1027 -0.181116 0.983462 0.000000
-7.455895 -7.060495 -0.624790 1019 -0.181116 0.983462 0.000000
-7.455715 -7.060319 -0.621611 1013 -0.181116 0.983462 0.000000
-7.455788 -7.060401 -0.618451 1021 -0.181116 0.983462 0.000000
-7.456674 -7.061229 -0.615362 1023 -0.181116 0.983462 0.000000
-7.457284 -7.061808 -0.612246 1021 -0.181116 0.983462 0.000000
-7.456993 -7.061531 -0.609059 1025 -0.181116 0.983462 0.000000
-7.456701 -7.061253 -0.605872 1037 -0.181116 0.983462 0.000000
-7.456567 -7.061128 -0.602693 1031 -0.181116 0.983462 0.000000
-7.457178 -7.061707 -0.599577 1035 -0.181116 0.983462 0.000000
-7.457567 -7.062083 -0.596443 1039 -0.181116 0.983462 0.000000
-7.457702 -7.062201 -0.593292 1057 -0.181116 0.983462 0.000000
-7.457608 -7.062122 -0.590123 1047 -0.181116 0.983462 0.000000
-7.457365 -7.061896 -0.586935 1043 -0.181116 0.983462 0.000000
