786
-7.669683 -6.923975 -0.902162 559 0.604730 0.796430 0.000000
-7.669827 -6.924099 -0.898991 569 0.604730 0.796430 0.000000
-7.669472 -6.923787 -0.895784 559 0.604730 0.796430 0.000000
-7.669181 -6.923524 -0.892577 577 0.604730 0.796430 0.000000
-7.668176 -6.922615 -0.889306 593 0.604730 0.796430 0.000000
-7.668962 -6.923329 -0.886188 601 0.604730 0.796430 0.000000
-7.670125 -6.924370 -0.883098 587 0.604730 0.796430 0.000000
-7.669501 -6.923803 -0.879863 575 0.604730 0.796430 0.000000
-7.669201 -6.923534 -0.876656 571 0.604730 0.796430 0.000000
-7.669170 -6.923506 -0.873476 559 0.604730 0.796430 0.000000
-7.668863 -6.923231 -0.870269 565 0.604730 0.796430 0.000000
-7.668176 -6.922613 -0.867035 593 0.604730 0.796430 0.000000
-7.668208 -6.922635 -0.863855 567 0.604730 0.796430 0.000000
-7.669745 -6.924026 -0.860781 573 0.604730 0.796430 0.000000
-7.670309 -6.924537 -0.857645 591 0.604730 0.796430 0.000000
-7.669787 -6.924065 -0.854420 577 0.604730 0.796430 0.000000
-7.669472 -6.923784 -0.851213 595 0.604730 0.796430 0.000000
-7.669765 -6.924040 -0.848050 609 0.604730 0.796430 0.000000
-7.670217 -6.924449 -0.844906 615 0.604730 0.796430 0.000000
-7.669205 -6.923533 -0.841645 595 0.604730 0.796430 0.000000
-7.668952 -6.923302 -0.838448 609 0.604730 0.796430 0.000000
-7.669557 -6.923858 -0.835312 595 0.604730 0.796430 0.000000
-7.669898 -6.924165 -0.832149 601 0.604730 0.796430 0.000000
-7.670674 -6.924859 -0.829021 601 0.604730 0.796430 0.000000
-7.670145 -6.924380 -0.825806 593 0.604730 0.796430 0.000000
-7.669236 -6.923560 -0.822564 623 0.604730 0.796430 0.000000
-7.669141 -6.923468 -0.819375 629 0.604730 0.796430 0.000000
-7.668502 -6.922903 -0.816151 591 0.604730 0.796430 0.000000
-7.668836 -6.923204 -0.812988 585 0.604730 0.796430 0.000000
-7.670094 -6.924335 -0.809896 601 0.604730 0.796430 0.000000
-7.669620 -6.923900 -0.806681 597 0.604730 0.796430 0.000000
-7.669029 -6.923372 -0.803456 613 0.604730 0.796430 0.000000
-7.669195 -6.923514 -0.800294 597 0.604730 0.796430 0.000000
-7.669585 -6.923873 -0.797141 615 0.604730 0.796430 0.000000
-7.670352 -6.924560 -0.794004 603 0.604730 0.796430 0.000000
-7.669864 -6.924127 -0.790788 587 0.604730 0.796430 0.000000
-7.669319 -6.923636 -0.787573 627 0.604730 0.796430 0.000000
-7.669597 -6.923880 -0.784410 611 0.604730 0.796430 0.000000
-7.669123 -6.923446 -0.781205 607 0.604730 0.796430 0.000000
-7.668577 -6.922955 -0.777990 615 0.604730 0.796430 0.000000
-7.668849 -6.923206 -0.774827 613 0.604730 0.796430 0.000000
-7.669823 -6.924084 -0.771708 623 0.604730 0.796430 0.000000
-7.670970 -6.925113 -0.768597 613 0.604730 0.796430 0.000000
-7.670957 -6.925111 -0.765417 623 0.604730 0.796430 0.000000
-7.669984 -6.924227 -0.762176 619 0.604730 0.796430 0.000000
-7.669882 -6.924129 -0.758987 605 0.604730 0.796430 0.000000
-7.669868 -6.924126 -0.755807 619 0.604730 0.796430 0.000000
-7.669821 -6.924072 -0.752628 611 0.604730 0.796430 0.000000
-7.669427 -6.923728 -0.749431 575 0.604730 0.796430 0.000000
-7.669206 -6.923522 -0.746233 569 0.604730 0.796430 0.000000
-7.669421 -6.923716 -0.743071 619 0.604730 0.796430 0.000000
-7.668979 -6.923320 -0.739865 613 0.604730 0.796430 0.000000
-7.668544 -6.922917 -0.736659 607 0.604730 0.796430 0.000000
-7.669504 -6.923796 -0.733540 595 0.604730 0.796430 0.000000
-7.669172 -6.923488 -0.730333 587 0.604730 0.796430 0.000000
-7.669061 -6.923383 -0.727154 583 0.604730 0.796430 0.000000
-7.670353 -6.924553 -0.724042 603 0.604730 0.796430 0.000000
-7.670007 -6.924247 -0.720845 617 0.604730 0.796430 0.000000
-7.669620 -6.923895 -0.717649 615 0.604730 0.796430 0.000000
-7.669605 -6.923879 -0.714469 619 0.604730 0.796430 0.000000
-7.668561 -6.922939 -0.711238 601 0.604730 0.796430 0.000000
-7.669314 -6.923613 -0.708091 599 0.604730 0.796430 0.000000
-7.670162 -6.924377 -0.704963 601 0.604730 0.796430 0.000000
-7.669878 -6.924120 -0.701766 613 0.604730 0.796430 0.000000
-7.669483 -6.923762 -0.698569 621 0.604730 0.796430 0.000000
-7.669240 -6.923552 -0.695382 615 0.604730 0.796430 0.000000
-7.669399 -6.923687 -0.692210 589 0.604730 0.796430 0.000000
-7.669590 -6.923862 -0.689038 577 0.604730 0.796430 0.000000
-7.669513 -6.923797 -0.685859 579 0.604730 0.796430 0.000000
-7.669062 -6.923381 -0.682663 587 0.604730 0.796430 0.000000
-7.670345 -6.924544 -0.679551 601 0.604730 0.796430 0.000000
-7.670496 -6.924674 -0.676380 593 0.604730 0.796430 0.000000
-7.670362 -6.924550 -0.673191 583 0.604730 0.796430 0.000000
-7.670230 -6.924441 -0.670012 595 0.604730 0.796430 0.000000
-7.669557 -6.923821 -0.666798 599 0.604730 0.796430 0.000000
-7.669314 -6.923611 -0.663610 595 0.604730 0.796430 0.000000
-7.669132 -6.923436 -0.660422 581 0.604730 0.796430 0.000000
-7.669483 -6.923764 -0.657258 579 0.604730 0.796430 0.000000
-7.669618 -6.923881 -0.654097 579 0.604730 0.796430 0.000000
-7.670023 -6.924252 -0.650933 599 0.604730 0.796430 0.000000
-7.670863 -6.925009 -0.647796 603 0.604730 0.796430 0.000000
-7.670681 -6.924834 -0.644607 599 0.604730 0.796430 0.000000
-7.669289 -6.923577 -0.641370 577 0.604730 0.796430 0.000000
-7.669149 -6.923461 -0.638191 581 0.604730 0.796430 0.000000
-7.669442 -6.923717 -0.635028 585 0.604730 0.796430 0.000000
-7.668929 -6.923252 -0.631823 575 0.604730 0.796430 0.000000
-7.669333 -6.923623 -0.628669 579 0.604730 0.796430 0.000000
-7.670760 -6.924913 -0.625556 597 0.604730 0.796430 0.000000
-7.670025 -6.924244 -0.622343 567 0.604730 0.796430 0.000000
-7.669938 -6.924159 -0.619163 571 0.604730 0.796430 0.000000
-7.670769 -6.924909 -0.616026 583 0.604730 0.796430 0.000000
-7.670132 -6.924344 -0.612821 563 0.604730 0.796430 0.000000
-7.670044 -6.924258 -0.609642 589 0.604730 0.796430 0.000000
-7.670932 -6.925066 -0.606494 591 0.604730 0.796430 0.000000
-7.670624 -6.924778 -0.603307 607 0.604730 0.796430 0.000000
-7.670254 -6.924453 -0.600120 583 0.604730 0.796430 0.000000
-7.670650 -6.924804 -0.596956 561 0.604730 0.796430 0.000000
-7.669473 -6.923744 -0.593737 571 0.604730 0.796430 0.000000
-7.669220 -6.923512 -0.590549 563 0.604730 0.796430 0.000000
-7.671249 -6.921001 -0.975381 589 0.604730 0.796430 0.000000
-7.671513 -6.921247 -0.972219 561 0.604730 0.796430 0.000000
-7.672100 -6.921775 -0.969083 567 0.604730 0.796430 0.000000
-7.672852 -6.922451 -0.965966 577 0.604730 0.796430 0.000000
-7.671927 -6.921618 -0.962695 573 0.604730 0.796430 0.000000
-7.672078 -6.921747 -0.959523 561 0.604730 0.796430 0.000000
-7.672768 -6.922372 -0.956397 579 0.604730 0.796430 0.000000
-7.672484 -6.922115 -0.953179 577 0.604730 0.796430 0.000000
-7.672581 -6.922201 -0.950009 585 0.604730 0.796430 0.000000
-7.671916 -6.921602 -0.946765 587 0.604730 0.796430 0.000000
-7.671522 -6.921245 -0.943538 559 0.604730 0.796430 0.000000
-7.671349 -6.921090 -0.940340 561 0.604730 0.796430 0.000000
-7.671817 -6.921511 -0.937195 567 0.604730 0.796430 0.000000
-7.673204 -6.922770 -0.934122 575 0.604730 0.796430 0.000000
-7.673734 -6.923242 -0.930987 561 0.604730 0.796430 0.000000
-7.672740 -6.922353 -0.927716 559 0.604730 0.796430 0.000000
-7.671694 -6.921398 -0.924446 555 0.604730 0.796430 0.000000
-7.671134 -6.920896 -0.921211 561 0.604730 0.796430 0.000000
-7.671119 -6.920880 -0.918031 583 0.604730 0.796430 0.000000
-7.671476 -6.921199 -0.914868 569 0.604730 0.796430 0.000000
-7.672316 -6.921957 -0.911760 565 0.604730 0.796430 0.000000
-7.672729 -6.922334 -0.908606 589 0.604730 0.796430 0.000000
-7.672161 -6.921825 -0.905371 573 0.604730 0.796430 0.000000
-7.671979 -6.921663 -0.902173 571 0.604730 0.796430 0.000000
-7.672059 -6.921722 -0.898992 581 0.604730 0.796430 0.000000
-7.671927 -6.921613 -0.895803 575 0.604730 0.796430 0.000000
-7.671848 -6.921534 -0.892614 575 0.604730 0.796430 0.000000
-7.672253 -6.921905 -0.889460 605 0.604730 0.796430 0.000000
-7.672285 -6.921926 -0.886280 611 0.604730 0.796430 0.000000
-7.672365 -6.921999 -0.883099 597 0.604730 0.796430 0.000000
-7.672114 -6.921782 -0.879901 599 0.604730 0.796430 0.000000
-7.671482 -6.921209 -0.876667 581 0.604730 0.796430 0.000000
-7.671942 -6.921624 -0.873523 601 0.604730 0.796430 0.000000
-7.671863 -6.921545 -0.870333 571 0.604730 0.796430 0.000000
-7.672157 -6.921814 -0.867170 583 0.604730 0.796430 0.000000
-7.671368 -6.921103 -0.863928 599 0.604730 0.796430 0.000000
-7.671225 -6.920972 -0.860729 611 0.604730 0.796430 0.000000
-7.672058 -6.921723 -0.857611 585 0.604730 0.796430 0.000000
-7.672565 -6.922176 -0.854466 577 0.604730 0.796430 0.000000
-7.672852 -6.922440 -0.851304 599 0.604730 0.796430 0.000000
-7.672925 -6.922507 -0.848123 607 0.604730 0.796430 0.000000
-7.673051 -6.922618 -0.844952 601 0.604730 0.796430 0.000000
-7.672475 -6.922102 -0.841727 629 0.604730 0.796430 0.000000
-7.672000 -6.921668 -0.838511 605 0.604730 0.796430 0.000000
-7.673048 -6.922616 -0.835402 601 0.604730 0.796430 0.000000
-7.673174 -6.922726 -0.832230 585 0.604730 0.796430 0.000000
-7.671823 -6.921514 -0.828953 587 0.604730 0.796430 0.000000
-7.670969 -6.920738 -0.825710 587 0.604730 0.796430 0.000000
-7.672015 -6.921686 -0.822601 591 0.604730 0.796430 0.000000
-7.673060 -6.922620 -0.819491 605 0.604730 0.796430 0.000000
-7.672745 -6.922338 -0.816294 587 0.604730 0.796430 0.000000
-7.672381 -6.922005 -0.813087 577 0.604730 0.796430 0.000000
-7.672825 -6.922408 -0.809933 597 0.604730 0.796430 0.000000
-7.672448 -6.922077 -0.806726 587 0.604730 0.796430 0.000000
-7.671966 -6.921636 -0.803511 577 0.604730 0.796430 0.000000
-7.672402 -6.922032 -0.800357 591 0.604730 0.796430 0.000000
-7.672585 -6.922187 -0.797195 617 0.604730 0.796430 0.000000
-7.672096 -6.921754 -0.793979 615 0.604730 0.796430 0.000000
-7.672484 -6.922099 -0.790826 601 0.604730 0.796430 0.000000
-7.673024 -6.922591 -0.787681 643 0.604730 0.796430 0.000000
-7.672439 -6.922055 -0.784456 611 0.604730 0.796430 0.000000
-7.672875 -6.922451 -0.781302 601 0.604730 0.796430 0.000000
-7.673035 -6.922601 -0.778130 635 0.604730 0.796430 0.000000
-7.672338 -6.921964 -0.774907 613 0.604730 0.796430 0.000000
-7.671518 -6.921227 -0.771684 605 0.604730 0.796430 0.000000
-7.672231 -6.921870 -0.768548 603 0.604730 0.796430 0.000000
-7.672763 -6.922355 -0.765393 615 0.604730 0.796430 0.000000
-7.671624 -6.921326 -0.762143 599 0.604730 0.796430 0.000000
-7.671625 -6.921323 -0.758963 599 0.604730 0.796430 0.000000
-7.671350 -6.921073 -0.755775 597 0.604730 0.796430 0.000000
-7.671398 -6.921121 -0.752595 587 0.604730 0.796430 0.000000
-7.671440 -6.921163 -0.749414 563 0.604730 0.796430 0.000000
-7.670681 -6.920475 -0.746191 579 0.604730 0.796430 0.000000
-7.671164 -6.920909 -0.743047 595 0.604730 0.796430 0.000000
-7.672027 -6.921685 -0.739919 621 0.604730 0.796430 0.000000
-7.671586 -6.921290 -0.736713 611 0.604730 0.796430 0.000000
-7.672235 -6.921870 -0.733567 599 0.604730 0.796430 0.000000
-7.672767 -6.922355 -0.730422 599 0.604730 0.796430 0.000000
-7.672546 -6.922149 -0.727224 617 0.604730 0.796430 0.000000
-7.672642 -6.922234 -0.724053 609 0.604730 0.796430 0.000000
-7.672897 -6.922473 -0.720890 609 0.604730 0.796430 0.000000
-7.672454 -6.922063 -0.717684 619 0.604730 0.796430 0.000000
-7.671680 -6.921364 -0.714461 615 0.604730 0.796430 0.000000
-7.672480 -6.922090 -0.711334 603 0.604730 0.796430 0.000000
-7.672411 -6.922030 -0.708144 599 0.604730 0.796430 0.000000
-7.672230 -6.921869 -0.704956 597 0.604730 0.796430 0.000000
-7.673687 -6.923184 -0.701863 613 0.604730 0.796430 0.000000
-7.673450 -6.922966 -0.698665 637 0.604730 0.796430 0.000000
-7.672676 -6.922266 -0.695452 611 0.604730 0.796430 0.000000
-7.671839 -6.921516 -0.692229 575 0.604730 0.796430 0.000000
-7.671499 -6.921202 -0.689032 595 0.604730 0.796430 0.000000
-7.672568 -6.922168 -0.685903 593 0.604730 0.796430 0.000000
-7.673251 -6.922787 -0.682766 603 0.604730 0.796430 0.000000
-7.672579 -6.922182 -0.679552 591 0.604730 0.796430 0.000000
-7.672343 -6.921963 -0.676364 587 0.604730 0.796430 0.000000
-7.672976 -6.922530 -0.673218 613 0.604730 0.796430 0.000000
-7.673009 -6.922565 -0.670038 637 0.604730 0.796430 0.000000
-7.672710 -6.922297 -0.666851 627 0.604730 0.796430 0.000000
-7.672522 -6.922130 -0.663662 611 0.604730 0.796430 0.000000
-7.672008 -6.921664 -0.660457 595 0.604730 0.796430 0.000000
-7.672254 -6.921882 -0.657295 615 0.604730 0.796430 0.000000
-7.672825 -6.922399 -0.654139 603 0.604730 0.796430 0.000000
-7.672857 -6.922421 -0.650969 613 0.604730 0.796430 0.000000
-7.672661 -6.922247 -0.647781 585 0.604730 0.796430 0.000000
-7.672852 -6.922422 -0.644609 601 0.604730 0.796430 0.000000
-7.672987 -6.922539 -0.641438 595 0.604730 0.796430 0.000000
-7.672903 -6.922467 -0.638258 579 0.604730 0.796430 0.000000
-7.672277 -6.921900 -0.635054 599 0.604730 0.796430 0.000000
-7.671433 -6.921144 -0.631842 579 0.604730 0.796430 0.000000
-7.671560 -6.921255 -0.628670 585 0.604730 0.796430 0.000000
-7.672668 -6.922252 -0.625540 617 0.604730 0.796430 0.000000
-7.673287 -6.922807 -0.622394 589 0.604730 0.796430 0.000000
-7.673256 -6.922779 -0.619215 581 0.604730 0.796430 0.000000
-7.672569 -6.922162 -0.616011 563 0.604730 0.796430 0.000000
-7.672476 -6.922083 -0.612822 593 0.604730 0.796430 0.000000
-7.672873 -6.922435 -0.609668 577 0.604730 0.796430 0.000000
-7.673650 -6.923141 -0.606521 591 0.604730 0.796430 0.000000
-7.672472 -6.922081 -0.603302 581 0.604730 0.796430 0.000000
-7.672274 -6.921894 -0.600113 591 0.604730 0.796430 0.000000
-7.673265 -6.922797 -0.596974 587 0.604730 0.796430 0.000000
-7.673109 -6.922655 -0.593795 581 0.604730 0.796430 0.000000
-7.671985 -6.921638 -0.590576 587 0.604730 0.796430 0.000000
-7.674569 -6.920711 -0.975527 575 0.604730 0.796430 0.000000
-7.674452 -6.920613 -0.972338 563 0.604730 0.796430 0.000000
-7.674383 -6.920554 -0.969139 577 0.604730 0.796430 0.000000
-7.674860 -6.920995 -0.965994 563 0.604730 0.796430 0.000000
-7.675121 -6.921227 -0.962832 571 0.604730 0.796430 0.000000
-7.674895 -6.921029 -0.959624 585 0.604730 0.796430 0.000000
-7.674500 -6.920670 -0.956407 595 0.604730 0.796430 0.000000
-7.674050 -6.920269 -0.953181 577 0.604730 0.796430 0.000000
-7.674423 -6.920601 -0.950028 565 0.604730 0.796430 0.000000
-7.675492 -6.921568 -0.946928 577 0.604730 0.796430 0.000000
-7.675429 -6.921500 -0.943738 577 0.604730 0.796430 0.000000
-7.674654 -6.920801 -0.940485 545 0.604730 0.796430 0.000000
-7.674094 -6.920298 -0.937250 553 0.604730 0.796430 0.000000
-7.674838 -6.920965 -0.934124 575 0.604730 0.796430 0.000000
-7.675631 -6.921685 -0.931006 595 0.604730 0.796430 0.000000
-7.674525 -6.920695 -0.927726 551 0.604730 0.796430 0.000000
-7.673806 -6.920039 -0.924483 559 0.604730 0.796430 0.000000
-7.673460 -6.919733 -0.921276 579 0.604730 0.796430 0.000000
-7.673816 -6.920052 -0.918113 565 0.604730 0.796430 0.000000
-7.674395 -6.920576 -0.914977 553 0.604730 0.796430 0.000000
-7.674103 -6.920313 -0.911770 539 0.604730 0.796430 0.000000
-7.674412 -6.920582 -0.908607 553 0.604730 0.796430 0.000000
-7.674112 -6.920312 -0.905400 555 0.604730 0.796430 0.000000
-7.673496 -6.919752 -0.902165 579 0.604730 0.796430 0.000000
-7.673142 -6.919439 -0.898958 575 0.604730 0.796430 0.000000
-7.673284 -6.919562 -0.895787 565 0.604730 0.796430 0.000000
-7.673468 -6.919731 -0.892615 569 0.604730 0.796430 0.000000
-7.674204 -6.920392 -0.889488 579 0.604730 0.796430 0.000000
-7.675425 -6.921492 -0.886397 593 0.604730 0.796430 0.000000
-7.675394 -6.921463 -0.883207 597 0.604730 0.796430 0.000000
-7.674004 -6.920220 -0.879920 581 0.604730 0.796430 0.000000
-7.673718 -6.919950 -0.876713 585 0.604730 0.796430 0.000000
-7.673799 -6.920023 -0.873532 609 0.604730 0.796430 0.000000
-7.673705 -6.919945 -0.870343 599 0.604730 0.796430 0.000000
-7.674600 -6.920746 -0.867234 629 0.604730 0.796430 0.000000
-7.675101 -6.921206 -0.864080 631 0.604730 0.796430 0.000000
-7.675070 -6.921178 -0.860900 597 0.604730 0.796430 0.000000
-7.674881 -6.920997 -0.857701 577 0.604730 0.796430 0.000000
-7.675221 -6.921304 -0.854538 571 0.604730 0.796430 0.000000
-7.675183 -6.921269 -0.851359 591 0.604730 0.796430 0.000000
-7.674227 -6.920412 -0.848107 599 0.604730 0.796430 0.000000
-7.675281 -6.921366 -0.844997 609 0.604730 0.796430 0.000000
-7.675504 -6.921566 -0.841825 609 0.604730 0.796430 0.000000
-7.674008 -6.920213 -0.838539 589 0.604730 0.796430 0.000000
-7.674239 -6.920419 -0.835377 583 0.604730 0.796430 0.000000
-7.675451 -6.921512 -0.832276 583 0.604730 0.796430 0.000000
-7.674591 -6.920744 -0.829033 565 0.604730 0.796430 0.000000
-7.673467 -6.919726 -0.825774 571 0.604730 0.796430 0.000000
-7.673594 -6.919837 -0.822603 571 0.604730 0.796430 0.000000
-7.674846 -6.920962 -0.819511 593 0.604730 0.796430 0.000000
-7.675236 -6.921321 -0.816347 601 0.604730 0.796430 0.000000
-7.674541 -6.920697 -0.813124 567 0.604730 0.796430 0.000000
-7.674066 -6.920263 -0.809908 597 0.604730 0.796430 0.000000
-7.674123 -6.920317 -0.806727 591 0.604730 0.796430 0.000000
-7.674457 -6.920619 -0.803574 587 0.604730 0.796430 0.000000
-7.674362 -6.920527 -0.800385 603 0.604730 0.796430 0.000000
-7.674205 -6.920384 -0.797196 599 0.604730 0.796430 0.000000
-7.673882 -6.920097 -0.793989 595 0.604730 0.796430 0.000000
-7.674484 -6.920638 -0.790844 591 0.604730 0.796430 0.000000
-7.674652 -6.920794 -0.787682 615 0.604730 0.796430 0.000000
-7.674108 -6.920304 -0.784467 615 0.604730 0.796430 0.000000
-7.674116 -6.920307 -0.781287 627 0.604730 0.796430 0.000000
-7.674718 -6.920848 -0.778141 633 0.604730 0.796430 0.000000
-7.674664 -6.920801 -0.774952 607 0.604730 0.796430 0.000000
-7.674231 -6.920412 -0.771745 603 0.604730 0.796430 0.000000
-7.673906 -6.920110 -0.768548 613 0.604730 0.796430 0.000000
-7.673900 -6.920115 -0.765368 615 0.604730 0.796430 0.000000
-7.674660 -6.920796 -0.762231 609 0.604730 0.796430 0.000000
-7.674661 -6.920793 -0.759051 609 0.604730 0.796430 0.000000
-7.673785 -6.920012 -0.755819 605 0.604730 0.796430 0.000000
-7.674324 -6.920489 -0.752674 605 0.604730 0.796430 0.000000
-7.674815 -6.920929 -0.749520 599 0.604730 0.796430 0.000000
-7.674691 -6.920826 -0.746341 587 0.604730 0.796430 0.000000
-7.675776 -6.921805 -0.743221 629 0.604730 0.796430 0.000000
-7.675285 -6.921358 -0.740015 621 0.604730 0.796430 0.000000
-7.674510 -6.920658 -0.736782 597 0.604730 0.796430 0.000000
-7.675051 -6.921151 -0.733637 619 0.604730 0.796430 0.000000
-7.674822 -6.920938 -0.730449 615 0.604730 0.796430 0.000000
-7.674711 -6.920833 -0.727260 617 0.604730 0.796430 0.000000
-7.673985 -6.920184 -0.724037 613 0.604730 0.796430 0.000000
-7.673108 -6.919390 -0.720815 593 0.604730 0.796430 0.000000
-7.672770 -6.919089 -0.717618 611 0.604730 0.796430 0.000000
-7.672486 -6.918834 -0.714420 581 0.604730 0.796430 0.000000
-7.673396 -6.919647 -0.711292 601 0.604730 0.796430 0.000000
-7.674473 -6.920619 -0.708172 599 0.604730 0.796430 0.000000
-7.675005 -6.921104 -0.705017 603 0.604730 0.796430 0.000000
-7.674768 -6.920886 -0.701829 625 0.604730 0.796430 0.000000
-7.673503 -6.919743 -0.698581 607 0.604730 0.796430 0.000000
-7.674304 -6.920469 -0.695453 627 0.604730 0.796430 0.000000
-7.675152 -6.921232 -0.692315 609 0.604730 0.796430 0.000000
-7.673783 -6.919993 -0.689068 599 0.604730 0.796430 0.000000
-7.673264 -6.919536 -0.685862 603 0.604730 0.796430 0.000000
-7.675258 -6.921332 -0.682784 613 0.604730 0.796430 0.000000
-7.675829 -6.921848 -0.679639 603 0.604730 0.796430 0.000000
-7.674833 -6.920946 -0.676408 583 0.604730 0.796430 0.000000
-7.674162 -6.920341 -0.673194 567 0.604730 0.796430 0.000000
-7.673491 -6.919737 -0.669980 571 0.604730 0.796430 0.000000
-7.674393 -6.920544 -0.666852 599 0.604730 0.796430 0.000000
-7.674093 -6.920275 -0.663654 591 0.604730 0.796430 0.000000
-7.673960 -6.920152 -0.660475 605 0.604730 0.796430 0.000000
-7.674366 -6.920523 -0.657322 601 0.604730 0.796430 0.000000
-7.673749 -6.919962 -0.654107 585 0.604730 0.796430 0.000000
-7.674857 -6.920960 -0.650987 607 0.604730 0.796430 0.000000
-7.675214 -6.921280 -0.647824 573 0.604730 0.796430 0.000000
-7.674535 -6.920669 -0.644620 581 0.604730 0.796430 0.000000
-7.674773 -6.920881 -0.641448 609 0.604730 0.796430 0.000000
-7.674363 -6.920511 -0.638251 593 0.604730 0.796430 0.000000
-7.674768 -6.920882 -0.635097 591 0.604730 0.796430 0.000000
-7.674572 -6.920709 -0.631909 589 0.604730 0.796430 0.000000
-7.673235 -6.919496 -0.628671 587 0.604730 0.796430 0.000000
-7.674083 -6.920259 -0.625533 599 0.604730 0.796430 0.000000
-7.675018 -6.921105 -0.622395 583 0.604730 0.796430 0.000000
-7.674228 -6.920393 -0.619182 559 0.604730 0.796430 0.000000
-7.673265 -6.919529 -0.615971 579 0.604730 0.796430 0.000000
-7.674048 -6.920229 -0.612823 575 0.604730 0.796430 0.000000
-7.674175 -6.920340 -0.609652 585 0.604730 0.796430 0.000000
-7.673323 -6.919577 -0.606440 553 0.604730 0.796430 0.000000
-7.674367 -6.920510 -0.603310 577 0.604730 0.796430 0.000000
-7.674336 -6.920482 -0.600131 569 0.604730 0.796430 0.000000
-7.673048 -6.919320 -0.596902 573 0.604730 0.796430 0.000000
-7.673113 -6.919382 -0.593732 563 0.604730 0.796430 0.000000
-7.674048 -6.920228 -0.590593 571 0.604730 0.796430 0.000000
-7.676660 -6.917517 -0.975493 549 0.604730 0.796430 0.000000
-7.676330 -6.917223 -0.972276 557 0.604730 0.796430 0.000000
-7.675175 -6.916182 -0.968987 547 0.604730 0.796430 0.000000
-7.676577 -6.917439 -0.965924 581 0.604730 0.796430 0.000000
-7.677710 -6.918469 -0.962833 601 0.604730 0.796430 0.000000
-7.677481 -6.918257 -0.959635 605 0.604730 0.796430 0.000000
-7.676548 -6.917418 -0.956364 589 0.604730 0.796430 0.000000
-7.676644 -6.917503 -0.953183 557 0.604730 0.796430 0.000000
-7.678363 -6.919053 -0.950147 567 0.604730 0.796430 0.000000
-7.678252 -6.918948 -0.946948 563 0.604730 0.796430 0.000000
-7.677209 -6.918007 -0.943677 571 0.604730 0.796430 0.000000
-7.677083 -6.917890 -0.940479 559 0.604730 0.796430 0.000000
-7.676571 -6.917439 -0.937253 555 0.604730 0.796430 0.000000
-7.676667 -6.917524 -0.934072 549 0.604730 0.796430 0.000000
-7.677300 -6.918090 -0.930936 561 0.604730 0.796430 0.000000
-7.676194 -6.917100 -0.927656 539 0.604730 0.796430 0.000000
-7.675151 -6.916160 -0.924386 543 0.604730 0.796430 0.000000
-7.674804 -6.915840 -0.921179 561 0.604730 0.796430 0.000000
-7.675976 -6.916901 -0.918088 565 0.604730 0.796430 0.000000
-7.676878 -6.917709 -0.914980 565 0.604730 0.796430 0.000000
-7.676587 -6.917446 -0.911762 551 0.604730 0.796430 0.000000
-7.675971 -6.916885 -0.908528 545 0.604730 0.796430 0.000000
-7.675948 -6.916862 -0.905348 553 0.604730 0.796430 0.000000
-7.676305 -6.917183 -0.902195 563 0.604730 0.796430 0.000000
-7.676821 -6.917656 -0.899050 565 0.604730 0.796430 0.000000
-7.677004 -6.917825 -0.895878 581 0.604730 0.796430 0.000000
-7.675359 -6.916339 -0.892563 555 0.604730 0.796430 0.000000
-7.675218 -6.916209 -0.889374 565 0.604730 0.796430 0.000000
-7.676929 -6.917752 -0.886319 609 0.604730 0.796430 0.000000
-7.677719 -6.918458 -0.883191 621 0.604730 0.796430 0.000000
-7.677358 -6.918139 -0.879985 601 0.604730 0.796430 0.000000
-7.676796 -6.917622 -0.876760 611 0.604730 0.796430 0.000000
-7.676813 -6.917645 -0.873569 609 0.604730 0.796430 0.000000
-7.677542 -6.918301 -0.870443 597 0.604730 0.796430 0.000000
-7.677788 -6.918519 -0.867280 627 0.604730 0.796430 0.000000
-7.676887 -6.917705 -0.864029 617 0.604730 0.796430 0.000000
-7.676200 -6.917089 -0.860795 599 0.604730 0.796430 0.000000
-7.676756 -6.917593 -0.857650 591 0.604730 0.796430 0.000000
-7.676725 -6.917564 -0.854470 593 0.604730 0.796430 0.000000
-7.676798 -6.917632 -0.851289 611 0.604730 0.796430 0.000000
-7.677305 -6.918084 -0.848144 579 0.604730 0.796430 0.000000
-7.677977 -6.918682 -0.845008 617 0.604730 0.796430 0.000000
-7.677719 -6.918458 -0.841810 607 0.604730 0.796430 0.000000
-7.677031 -6.917828 -0.838577 591 0.604730 0.796430 0.000000
-7.676937 -6.917749 -0.835387 605 0.604730 0.796430 0.000000
-7.676574 -6.917417 -0.832181 613 0.604730 0.796430 0.000000
-7.676646 -6.917483 -0.829000 579 0.604730 0.796430 0.000000
-7.676980 -6.917785 -0.825847 579 0.604730 0.796430 0.000000
-7.677052 -6.917851 -0.822666 589 0.604730 0.796430 0.000000
-7.676350 -6.917222 -0.819442 595 0.604730 0.796430 0.000000
-7.676200 -6.917086 -0.816244 615 0.604730 0.796430 0.000000
-7.677190 -6.917975 -0.813135 613 0.604730 0.796430 0.000000
-7.676875 -6.917695 -0.809927 617 0.604730 0.796430 0.000000
-7.676781 -6.917603 -0.806738 591 0.604730 0.796430 0.000000
-7.677707 -6.918442 -0.803620 603 0.604730 0.796430 0.000000
-7.677502 -6.918248 -0.800421 617 0.604730 0.796430 0.000000
-7.676254 -6.917132 -0.797163 599 0.604730 0.796430 0.000000
-7.677022 -6.917819 -0.794036 613 0.604730 0.796430 0.000000
-7.678218 -6.918899 -0.790925 617 0.604730 0.796430 0.000000
-7.678544 -6.919194 -0.787772 615 0.604730 0.796430 0.000000
-7.678283 -6.918956 -0.784564 609 0.604730 0.796430 0.000000
-7.677042 -6.917832 -0.781305 615 0.604730 0.796430 0.000000
-7.676877 -6.917683 -0.778117 617 0.604730 0.796430 0.000000
-7.676934 -6.917738 -0.774936 593 0.604730 0.796430 0.000000
-7.677418 -6.918172 -0.771792 619 0.604730 0.796430 0.000000
-7.677038 -6.917826 -0.768585 599 0.604730 0.796430 0.000000
-7.676169 -6.917051 -0.765353 613 0.604730 0.796430 0.000000
-7.676005 -6.916903 -0.762164 625 0.604730 0.796430 0.000000
-7.676440 -6.917286 -0.759010 567 0.604730 0.796430 0.000000
-7.677526 -6.918264 -0.755890 575 0.604730 0.796430 0.000000
-7.677732 -6.918451 -0.752728 605 0.604730 0.796430 0.000000
-7.677781 -6.918500 -0.749548 593 0.604730 0.796430 0.000000
-7.677727 -6.918453 -0.746368 607 0.604730 0.796430 0.000000
-7.677451 -6.918203 -0.743171 589 0.604730 0.796430 0.000000
-7.677602 -6.918332 -0.739999 615 0.604730 0.796430 0.000000
-7.677603 -6.918329 -0.736819 595 0.604730 0.796430 0.000000
-7.677375 -6.918130 -0.733631 577 0.604730 0.796430 0.000000
-7.676443 -6.917292 -0.730400 567 0.604730 0.796430 0.000000
-7.676435 -6.917282 -0.727220 587 0.604730 0.796430 0.000000
-7.677513 -6.918255 -0.724100 613 0.604730 0.796430 0.000000
-7.678043 -6.918726 -0.720945 643 0.604730 0.796430 0.000000
-7.677428 -6.918180 -0.717730 613 0.604730 0.796430 0.000000
-7.678021 -6.918701 -0.714585 613 0.604730 0.796430 0.000000
-7.678228 -6.918888 -0.711423 609 0.604730 0.796430 0.000000
-7.677066 -6.917840 -0.708173 595 0.604730 0.796430 0.000000
-7.676893 -6.917685 -0.704985 597 0.604730 0.796430 0.000000
-7.677639 -6.918367 -0.701848 609 0.604730 0.796430 0.000000
-7.677126 -6.917902 -0.698643 613 0.604730 0.796430 0.000000
-7.676462 -6.917304 -0.695429 621 0.604730 0.796430 0.000000
-7.676559 -6.917389 -0.692258 591 0.604730 0.796430 0.000000
-7.677461 -6.918197 -0.689129 609 0.604730 0.796430 0.000000
-7.677169 -6.917934 -0.685932 599 0.604730 0.796430 0.000000
-7.676553 -6.917373 -0.682728 589 0.604730 0.796430 0.000000
-7.676475 -6.917307 -0.679538 561 0.604730 0.796430 0.000000
-7.677000 -6.917787 -0.676393 571 0.604730 0.796430 0.000000
-7.676977 -6.917765 -0.673213 575 0.604730 0.796430 0.000000
-7.675981 -6.916862 -0.669982 581 0.604730 0.796430 0.000000
-7.676283 -6.917139 -0.666820 587 0.604730 0.796430 0.000000
-7.677123 -6.917896 -0.663682 603 0.604730 0.796430 0.000000
-7.677700 -6.918404 -0.660536 591 0.604730 0.796430 0.000000
-7.678927 -6.919510 -0.657415 599 0.604730 0.796430 0.000000
-7.678462 -6.919096 -0.654219 603 0.604730 0.796430 0.000000
-7.677126 -6.917896 -0.650971 585 0.604730 0.796430 0.000000
-7.677595 -6.918318 -0.647817 571 0.604730 0.796430 0.000000
-7.677453 -6.918188 -0.644638 567 0.604730 0.796430 0.000000
-7.676614 -6.917424 -0.641416 571 0.604730 0.796430 0.000000
-7.676854 -6.917650 -0.638254 577 0.604730 0.796430 0.000000
-7.677914 -6.918597 -0.635124 569 0.604730 0.796430 0.000000
-7.678470 -6.919101 -0.631969 595 0.604730 0.796430 0.000000
-7.677625 -6.918345 -0.628756 593 0.604730 0.796430 0.000000
-7.677111 -6.917879 -0.625561 585 0.604730 0.796430 0.000000
-7.676963 -6.917744 -0.622372 561 0.604730 0.796430 0.000000
-7.676766 -6.917570 -0.619184 585 0.604730 0.796430 0.000000
-7.677225 -6.917972 -0.616030 597 0.604730 0.796430 0.000000
-7.678381 -6.919020 -0.612899 603 0.604730 0.796430 0.000000
-7.678026 -6.918694 -0.609712 587 0.604730 0.796430 0.000000
-7.677496 -6.918216 -0.606507 575 0.604730 0.796430 0.000000
-7.678107 -6.918764 -0.603361 567 0.604730 0.796430 0.000000
-7.678836 -6.919419 -0.600215 581 0.604730 0.796430 0.000000
-7.678632 -6.919240 -0.597026 591 0.604730 0.796430 0.000000
-7.677669 -6.918375 -0.593815 597 0.604730 0.796430 0.000000
-7.676974 -6.917753 -0.590611 589 0.604730 0.796430 0.000000
-7.678216 -6.914690 -0.975450 557 0.604730 0.796430 0.000000
-7.678866 -6.915269 -0.972314 561 0.604730 0.796430 0.000000
-7.679515 -6.915848 -0.969188 577 0.604730 0.796430 0.000000
-7.679342 -6.915694 -0.965989 595 0.604730 0.796430 0.000000
-7.680095 -6.916368 -0.962862 589 0.604730 0.796430 0.000000
-7.680832 -6.917044 -0.959745 595 0.604730 0.796430 0.000000
-7.680936 -6.917136 -0.956564 573 0.604730 0.796430 0.000000
-7.680170 -6.916442 -0.953311 575 0.604730 0.796430 0.000000
-7.679767 -6.916079 -0.950085 575 0.604730 0.796430 0.000000
-7.679545 -6.915872 -0.946877 561 0.604730 0.796430 0.000000
-7.679199 -6.915566 -0.943670 565 0.604730 0.796430 0.000000
-7.679840 -6.916138 -0.940534 555 0.604730 0.796430 0.000000
-7.679335 -6.915679 -0.937309 543 0.604730 0.796430 0.000000
-7.679051 -6.915423 -0.934091 545 0.604730 0.796430 0.000000
-7.679575 -6.915902 -0.930956 547 0.604730 0.796430 0.000000
-7.679070 -6.915442 -0.927721 511 0.604730 0.796430 0.000000
-7.678343 -6.914794 -0.924478 559 0.604730 0.796430 0.000000
-7.679142 -6.915506 -0.921360 559 0.604730 0.796430 0.000000
-7.680363 -6.916605 -0.918279 551 0.604730 0.796430 0.000000
-7.680885 -6.917071 -0.915134 563 0.604730 0.796430 0.000000
-7.680104 -6.916378 -0.911881 565 0.604730 0.796430 0.000000
-7.679702 -6.916015 -0.908665 571 0.604730 0.796430 0.000000
-7.679947 -6.916233 -0.905502 569 0.604730 0.796430 0.000000
-7.678579 -6.914994 -0.902205 549 0.604730 0.796430 0.000000
-7.678328 -6.914776 -0.898997 555 0.604730 0.796430 0.000000
-7.679500 -6.915825 -0.895906 587 0.604730 0.796430 0.000000
-7.679422 -6.915759 -0.892717 575 0.604730 0.796430 0.000000
-7.679668 -6.915977 -0.889555 577 0.604730 0.796430 0.000000
-7.679423 -6.915752 -0.886347 581 0.604730 0.796430 0.000000
-7.678847 -6.915236 -0.883122 589 0.604730 0.796430 0.000000
-7.679639 -6.915943 -0.879995 589 0.604730 0.796430 0.000000
-7.679933 -6.916213 -0.876832 599 0.604730 0.796430 0.000000
-7.679965 -6.916234 -0.873652 607 0.604730 0.796430 0.000000
-7.679768 -6.916060 -0.870453 605 0.604730 0.796430 0.000000
-7.680275 -6.916513 -0.867309 601 0.604730 0.796430 0.000000
-7.680895 -6.917081 -0.864173 581 0.604730 0.796430 0.000000
-7.679669 -6.915969 -0.860894 589 0.604730 0.796430 0.000000
-7.679258 -6.915599 -0.857688 597 0.604730 0.796430 0.000000
-7.680091 -6.916350 -0.854560 591 0.604730 0.796430 0.000000
-7.679941 -6.916214 -0.851371 605 0.604730 0.796430 0.000000
-7.679040 -6.915400 -0.848119 595 0.604730 0.796430 0.000000
-7.679872 -6.916151 -0.844992 591 0.604730 0.796430 0.000000
-7.680862 -6.917041 -0.841883 597 0.604730 0.796430 0.000000
-7.679961 -6.916227 -0.838641 595 0.604730 0.796430 0.000000
-7.680137 -6.916389 -0.835469 607 0.604730 0.796430 0.000000
-7.680809 -6.916987 -0.832333 593 0.604730 0.796430 0.000000
-7.680494 -6.916706 -0.829126 607 0.604730 0.796430 0.000000
-7.680345 -6.916570 -0.825937 601 0.604730 0.796430 0.000000
-7.679864 -6.916143 -0.822721 593 0.604730 0.796430 0.000000
-7.678790 -6.915178 -0.819461 591 0.604730 0.796430 0.000000
-7.679454 -6.915770 -0.816325 609 0.604730 0.796430 0.000000
-7.681204 -6.917344 -0.813259 601 0.604730 0.796430 0.000000
-7.680225 -6.916468 -0.810018 613 0.604730 0.796430 0.000000
-7.679150 -6.915502 -0.806757 609 0.604730 0.796430 0.000000
-7.679435 -6.915751 -0.803595 605 0.604730 0.796430 0.000000
-7.679215 -6.915560 -0.800397 613 0.604730 0.796430 0.000000
-7.679232 -6.915569 -0.797217 615 0.604730 0.796430 0.000000
-7.679296 -6.915630 -0.794046 609 0.604730 0.796430 0.000000
-7.678695 -6.915081 -0.790821 603 0.604730 0.796430 0.000000
-7.679409 -6.915724 -0.787685 595 0.604730 0.796430 0.000000
-7.681096 -6.917249 -0.784619 639 0.604730 0.796430 0.000000
-7.680939 -6.917106 -0.781420 643 0.604730 0.796430 0.000000
-7.679745 -6.916033 -0.778171 595 0.604730 0.796430 0.000000
-7.679580 -6.915884 -0.774973 623 0.604730 0.796430 0.000000
-7.679533 -6.915830 -0.771793 605 0.604730 0.796430 0.000000
-7.680024 -6.916270 -0.768639 611 0.604730 0.796430 0.000000
-7.680295 -6.916521 -0.765476 621 0.604730 0.796430 0.000000
-7.679853 -6.916126 -0.762270 599 0.604730 0.796430 0.000000
-7.679252 -6.915577 -0.759055 585 0.604730 0.796430 0.000000
-7.679640 -6.915922 -0.755892 597 0.604730 0.796430 0.000000
-7.680235 -6.916458 -0.752756 621 0.604730 0.796430 0.000000
-7.680387 -6.916602 -0.749585 627 0.604730 0.796430 0.000000
-7.680380 -6.916593 -0.746405 603 0.604730 0.796430 0.000000
-7.680215 -6.916443 -0.743206 611 0.604730 0.796430 0.000000
-7.679663 -6.915947 -0.740001 599 0.604730 0.796430 0.000000
-7.680091 -6.916337 -0.736847 603 0.604730 0.796430 0.000000
-7.680408 -6.916611 -0.733684 607 0.604730 0.796430 0.000000
-7.679752 -6.916019 -0.730460 595 0.604730 0.796430 0.000000
-7.679579 -6.915864 -0.727272 613 0.604730 0.796430 0.000000
-7.679019 -6.915362 -0.724067 625 0.604730 0.796430 0.000000
-7.679281 -6.915606 -0.720904 619 0.604730 0.796430 0.000000
-7.679115 -6.915444 -0.717716 621 0.604730 0.796430 0.000000
-7.679315 -6.915625 -0.714544 613 0.604730 0.796430 0.000000
-7.680503 -6.916699 -0.711433 609 0.604730 0.796430 0.000000
-7.679997 -6.916240 -0.708228 605 0.604730 0.796430 0.000000
-7.679865 -6.916131 -0.705039 607 0.604730 0.796430 0.000000
-7.680458 -6.916652 -0.701893 603 0.604730 0.796430 0.000000
-7.680223 -6.916447 -0.698695 615 0.604730 0.796430 0.000000
-7.680151 -6.916374 -0.695516 623 0.604730 0.796430 0.000000
-7.680027 -6.916270 -0.692327 585 0.604730 0.796430 0.000000
-7.680384 -6.916590 -0.689174 567 0.604730 0.796430 0.000000
-7.680583 -6.916772 -0.686002 593 0.604730 0.796430 0.000000
-7.680561 -6.916749 -0.682822 601 0.604730 0.796430 0.000000
-7.680759 -6.916930 -0.679650 593 0.604730 0.796430 0.000000
-7.680577 -6.916755 -0.676461 589 0.604730 0.796430 0.000000
-7.680285 -6.916492 -0.673274 591 0.604730 0.796430 0.000000
-7.680485 -6.916674 -0.670102 607 0.604730 0.796430 0.000000
-7.680351 -6.916550 -0.666913 595 0.604730 0.796430 0.000000
-7.680543 -6.916725 -0.663751 597 0.604730 0.796430 0.000000
-7.681280 -6.917387 -0.660605 579 0.604730 0.796430 0.000000
-7.681036 -6.917175 -0.657417 589 0.604730 0.796430 0.000000
-7.680577 -6.916754 -0.654221 609 0.604730 0.796430 0.000000
-7.681251 -6.917366 -0.651065 585 0.604730 0.796430 0.000000
-7.681609 -6.917686 -0.647911 583 0.604730 0.796430 0.000000
-7.681412 -6.917512 -0.644723 585 0.604730 0.796430 0.000000
-7.680408 -6.916603 -0.641492 589 0.604730 0.796430 0.000000
-7.679721 -6.915987 -0.638288 591 0.604730 0.796430 0.000000
-7.680624 -6.916794 -0.635150 579 0.604730 0.796430 0.000000
-7.681132 -6.917260 -0.631995 615 0.604730 0.796430 0.000000
-7.680231 -6.916447 -0.628784 591 0.604730 0.796430 0.000000
-7.680800 -6.916949 -0.625628 591 0.604730 0.796430 0.000000
-7.681412 -6.917511 -0.622473 581 0.604730 0.796430 0.000000
-7.680503 -6.916691 -0.619261 595 0.604730 0.796430 0.000000
-7.680417 -6.916605 -0.616082 603 0.604730 0.796430 0.000000
-7.680877 -6.917020 -0.612917 597 0.604730 0.796430 0.000000
-7.680293 -6.916498 -0.609723 597 0.604730 0.796430 0.000000
-7.680531 -6.916711 -0.606550 591 0.604730 0.796430 0.000000
-7.680002 -6.916233 -0.603355 585 0.604730 0.796430 0.000000
-7.679861 -6.916103 -0.600166 613 0.604730 0.796430 0.000000
-7.680471 -6.916651 -0.597021 593 0.604730 0.796430 0.000000
-7.680425 -6.916610 -0.593841 607 0.604730 0.796430 0.000000
-7.681146 -6.917260 -0.590694 607 0.604730 0.796430 0.000000
-7.682468 -6.914018 -0.975633 561 0.604730 0.796430 0.000000
-7.683275 -6.914736 -0.972516 579 0.604730 0.796430 0.000000
-7.682399 -6.913955 -0.969244 565 0.604730 0.796430 0.000000
-7.682177 -6.913748 -0.966036 573 0.604730 0.796430 0.000000
-7.682266 -6.913828 -0.962865 579 0.604730 0.796430 0.000000
-7.683025 -6.914508 -0.959738 557 0.604730 0.796430 0.000000
-7.684095 -6.915475 -0.956648 583 0.604730 0.796430 0.000000
-7.682507 -6.914047 -0.953322 571 0.604730 0.796430 0.000000
-7.681843 -6.913449 -0.950078 559 0.604730 0.796430 0.000000
-7.681828 -6.913433 -0.946888 547 0.604730 0.796430 0.000000
-7.681441 -6.913081 -0.943672 575 0.604730 0.796430 0.000000
-7.682724 -6.914245 -0.940590 563 0.604730 0.796430 0.000000
-7.682821 -6.914331 -0.937409 559 0.604730 0.796430 0.000000
-7.681659 -6.913282 -0.934130 541 0.604730 0.796430 0.000000
-7.682238 -6.913805 -0.930994 539 0.604730 0.796430 0.000000
-7.682450 -6.913985 -0.927822 553 0.604730 0.796430 0.000000
-7.681828 -6.913432 -0.924588 559 0.604730 0.796430 0.000000
-7.680831 -6.912529 -0.921317 561 0.604730 0.796430 0.000000
-7.681141 -6.912811 -0.918154 565 0.604730 0.796430 0.000000
-7.682201 -6.913757 -0.915054 563 0.604730 0.796430 0.000000
-7.682994 -6.914477 -0.911937 585 0.604730 0.796430 0.000000
-7.683297 -6.914753 -0.908774 573 0.604730 0.796430 0.000000
-7.682894 -6.914390 -0.905558 563 0.604730 0.796430 0.000000
-7.682009 -6.913588 -0.902306 561 0.604730 0.796430 0.000000
-7.681544 -6.913174 -0.899080 563 0.604730 0.796430 0.000000
-7.681893 -6.913487 -0.895927 571 0.604730 0.796430 0.000000
-7.681545 -6.913167 -0.892710 581 0.604730 0.796430 0.000000
-7.680003 -6.911777 -0.889404 573 0.604730 0.796430 0.000000
-7.680359 -6.912097 -0.886251 559 0.604730 0.796430 0.000000
-7.681145 -6.912810 -0.883123 587 0.604730 0.796430 0.000000
-7.681334 -6.912971 -0.879961 595 0.604730 0.796430 0.000000
-7.682216 -6.913774 -0.876843 607 0.604730 0.796430 0.000000
-7.682793 -6.914282 -0.873698 625 0.604730 0.796430 0.000000
-7.682162 -6.913723 -0.870474 599 0.604730 0.796430 0.000000
-7.682297 -6.913840 -0.867292 603 0.604730 0.796430 0.000000
-7.682860 -6.914351 -0.864157 611 0.604730 0.796430 0.000000
-7.682719 -6.914221 -0.860958 605 0.604730 0.796430 0.000000
-7.681921 -6.913503 -0.857716 587 0.604730 0.796430 0.000000
-7.681890 -6.913474 -0.854536 581 0.604730 0.796430 0.000000
-7.682065 -6.913636 -0.851364 595 0.604730 0.796430 0.000000
-7.682304 -6.913848 -0.848192 589 0.604730 0.796430 0.000000
-7.682051 -6.913617 -0.844994 581 0.604730 0.796430 0.000000
-7.681736 -6.913336 -0.841787 599 0.604730 0.796430 0.000000
-7.681863 -6.913446 -0.838616 627 0.604730 0.796430 0.000000
-7.682427 -6.913957 -0.835470 587 0.604730 0.796430 0.000000
-7.683859 -6.915239 -0.832387 623 0.604730 0.796430 0.000000
-7.682343 -6.913882 -0.829101 623 0.604730 0.796430 0.000000
-7.680571 -6.912282 -0.825797 599 0.604730 0.796430 0.000000
-7.681884 -6.913456 -0.822705 591 0.604730 0.796430 0.000000
-7.682757 -6.914253 -0.819577 591 0.604730 0.796430 0.000000
-7.682884 -6.914363 -0.816406 587 0.604730 0.796430 0.000000
-7.683280 -6.914715 -0.813252 601 0.604730 0.796430 0.000000
-7.682743 -6.914230 -0.810037 605 0.604730 0.796430 0.000000
-7.682428 -6.913949 -0.806830 627 0.604730 0.796430 0.000000
-7.682761 -6.914250 -0.803667 631 0.604730 0.796430 0.000000
-7.683039 -6.914494 -0.800504 633 0.604730 0.796430 0.000000
-7.683483 -6.914896 -0.797350 643 0.604730 0.796430 0.000000
-7.682504 -6.914020 -0.794109 611 0.604730 0.796430 0.000000
-7.682402 -6.913922 -0.790920 589 0.604730 0.796430 0.000000
-7.683929 -6.915292 -0.787836 581 0.604730 0.796430 0.000000
-7.683448 -6.914866 -0.784620 589 0.604730 0.796430 0.000000
-7.682199 -6.913734 -0.781361 619 0.604730 0.796430 0.000000
-7.681931 -6.913491 -0.778164 617 0.604730 0.796430 0.000000
-7.683292 -6.914717 -0.775071 621 0.604730 0.796430 0.000000
-7.682859 -6.914329 -0.771865 609 0.604730 0.796430 0.000000
-7.682037 -6.913591 -0.768633 595 0.604730 0.796430 0.000000
-7.682957 -6.914424 -0.765504 619 0.604730 0.796430 0.000000
-7.682743 -6.914224 -0.762316 623 0.604730 0.796430 0.000000
-7.682255 -6.913792 -0.759100 633 0.604730 0.796430 0.000000
-7.682414 -6.913928 -0.755929 617 0.604730 0.796430 0.000000
-7.683111 -6.914558 -0.752792 637 0.604730 0.796430 0.000000
-7.682733 -6.914213 -0.749586 619 0.604730 0.796430 0.000000
-7.681420 -6.913032 -0.746328 595 0.604730 0.796430 0.000000
-7.681524 -6.913124 -0.743157 583 0.604730 0.796430 0.000000
-7.682276 -6.913798 -0.740020 605 0.604730 0.796430 0.000000
-7.682816 -6.914290 -0.736875 597 0.604730 0.796430 0.000000
-7.682809 -6.914280 -0.733695 607 0.604730 0.796430 0.000000
-7.682153 -6.913689 -0.730471 601 0.604730 0.796430 0.000000
-7.681861 -6.913426 -0.727283 637 0.604730 0.796430 0.000000
-7.681862 -6.913423 -0.724103 617 0.604730 0.796430 0.000000
-7.682227 -6.913749 -0.720940 607 0.604730 0.796430 0.000000
-7.683138 -6.914576 -0.717811 625 0.604730 0.796430 0.000000
-7.683511 -6.914909 -0.714648 611 0.604730 0.796430 0.000000
-7.683441 -6.914849 -0.711468 627 0.604730 0.796430 0.000000
-7.683158 -6.914593 -0.708271 619 0.604730 0.796430 0.000000
-7.681616 -6.913203 -0.705015 599 0.604730 0.796430 0.000000
-7.680787 -6.912459 -0.701792 577 0.604730 0.796430 0.000000
-7.681752 -6.913317 -0.698664 577 0.604730 0.796430 0.000000
-7.682932 -6.914384 -0.695543 575 0.604730 0.796430 0.000000
-7.683235 -6.914661 -0.692380 597 0.604730 0.796430 0.000000
-7.682246 -6.913764 -0.689149 589 0.604730 0.796430 0.000000
-7.682334 -6.913844 -0.685978 591 0.604730 0.796430 0.000000
-7.682968 -6.914410 -0.682832 585 0.604730 0.796430 0.000000
-7.682456 -6.913959 -0.679627 571 0.604730 0.796430 0.000000
-7.682487 -6.913980 -0.676446 575 0.604730 0.796430 0.000000
-7.683661 -6.915042 -0.673325 605 0.604730 0.796430 0.000000
-7.683527 -6.914918 -0.670147 599 0.604730 0.796430 0.000000
-7.682420 -6.913915 -0.666917 581 0.604730 0.796430 0.000000
-7.681471 -6.913063 -0.663685 585 0.604730 0.796430 0.000000
-7.681497 -6.913093 -0.660515 593 0.604730 0.796430 0.000000
-7.682565 -6.914045 -0.657385 607 0.604730 0.796430 0.000000
-7.683136 -6.914562 -0.654230 613 0.604730 0.796430 0.000000
-7.683659 -6.915027 -0.651075 589 0.604730 0.796430 0.000000
-7.682980 -6.914416 -0.647871 583 0.604730 0.796430 0.000000
-7.682618 -6.914097 -0.644674 595 0.604730 0.796430 0.000000
-7.681939 -6.913487 -0.641470 591 0.604730 0.796430 0.000000
-7.681908 -6.913459 -0.638291 585 0.604730 0.796430 0.000000
-7.683673 -6.915045 -0.635184 619 0.604730 0.796430 0.000000
-7.683697 -6.915061 -0.632014 621 0.604730 0.796430 0.000000
-7.682845 -6.914298 -0.628802 597 0.604730 0.796430 0.000000
-7.682434 -6.913928 -0.625606 613 0.604730 0.796430 0.000000
-7.681747 -6.913311 -0.622392 609 0.604730 0.796430 0.000000
-7.682910 -6.914352 -0.619271 615 0.604730 0.796430 0.000000
-7.683964 -6.915306 -0.616131 627 0.604730 0.796430 0.000000
-7.682842 -6.914289 -0.612912 605 0.604730 0.796430 0.000000
-7.683571 -6.914946 -0.609765 597 0.604730 0.796430 0.000000
-7.683849 -6.915203 -0.606592 597 0.604730 0.796430 0.000000
-7.682409 -6.913894 -0.603365 587 0.604730 0.796430 0.000000
-7.681438 -6.913024 -0.600144 599 0.604730 0.796430 0.000000
-7.681836 -6.913389 -0.596980 601 0.604730 0.796430 0.000000
-7.682826 -6.914279 -0.593851 611 0.604730 0.796430 0.000000
-7.682953 -6.914390 -0.590680 581 0.604730 0.796430 0.000000
-7.684542 -6.911502 -0.975626 557 0.604730 0.796430 0.000000
-7.685018 -6.911930 -0.972471 575 0.604730 0.796430 0.000000
-7.685019 -6.911927 -0.969291 583 0.604730 0.796430 0.000000
-7.684569 -6.911525 -0.966055 559 0.604730 0.796430 0.000000
-7.684348 -6.911319 -0.962857 575 0.604730 0.796430 0.000000
-7.684984 -6.911900 -0.959722 567 0.604730 0.796430 0.000000
-7.685894 -6.912713 -0.956613 579 0.604730 0.796430 0.000000
-7.685927 -6.912749 -0.953433 571 0.604730 0.796430 0.000000
-7.685105 -6.912011 -0.950170 541 0.604730 0.796430 0.000000
-7.685098 -6.912001 -0.946980 537 0.604730 0.796430 0.000000
-7.684704 -6.911644 -0.943764 563 0.604730 0.796430 0.000000
-7.684957 -6.911869 -0.940601 583 0.604730 0.796430 0.000000
-7.685379 -6.912253 -0.937447 559 0.604730 0.796430 0.000000
-7.684761 -6.911691 -0.934203 531 0.604730 0.796430 0.000000
-7.685286 -6.912171 -0.931068 539 0.604730 0.796430 0.000000
-7.685602 -6.912446 -0.927905 537 0.604730 0.796430 0.000000
-7.684599 -6.911550 -0.924634 535 0.604730 0.796430 0.000000
-7.684956 -6.911870 -0.921481 561 0.604730 0.796430 0.000000
-7.684727 -6.911657 -0.918273 563 0.604730 0.796430 0.000000
-7.683787 -6.910812 -0.915011 547 0.604730 0.796430 0.000000
-7.685172 -6.912057 -0.911939 567 0.604730 0.796430 0.000000
-7.685364 -6.912232 -0.908767 571 0.604730 0.796430 0.000000
-7.684209 -6.911190 -0.905487 551 0.604730 0.796430 0.000000
-7.684346 -6.911321 -0.902316 539 0.604730 0.796430 0.000000
-7.685074 -6.911977 -0.899189 551 0.604730 0.796430 0.000000
-7.685543 -6.912398 -0.896045 577 0.604730 0.796430 0.000000
-7.685401 -6.912269 -0.892846 581 0.604730 0.796430 0.000000
-7.684833 -6.911759 -0.889611 595 0.604730 0.796430 0.000000
-7.683939 -6.910951 -0.886359 597 0.604730 0.796430 0.000000
-7.684234 -6.911222 -0.883197 595 0.604730 0.796430 0.000000
-7.685619 -6.912466 -0.880124 595 0.604730 0.796430 0.000000
-7.685541 -6.912386 -0.876935 597 0.604730 0.796430 0.000000
-7.684205 -6.911186 -0.873647 601 0.604730 0.796430 0.000000
-7.683526 -6.910576 -0.870413 607 0.604730 0.796430 0.000000
-7.684357 -6.911326 -0.867285 617 0.604730 0.796430 0.000000
-7.684865 -6.911779 -0.864140 601 0.604730 0.796430 0.000000
-7.685538 -6.912391 -0.861004 609 0.604730 0.796430 0.000000
-7.684859 -6.911780 -0.857770 589 0.604730 0.796430 0.000000
-7.684385 -6.911346 -0.854555 579 0.604730 0.796430 0.000000
-7.685279 -6.912147 -0.851436 599 0.604730 0.796430 0.000000
-7.685456 -6.912309 -0.848265 593 0.604730 0.796430 0.000000
-7.685313 -6.912179 -0.845076 607 0.604730 0.796430 0.000000
-7.684944 -6.911855 -0.841859 579 0.604730 0.796430 0.000000
-7.684691 -6.911623 -0.838661 587 0.604730 0.796430 0.000000
-7.685136 -6.912025 -0.835507 587 0.604730 0.796430 0.000000
-7.685706 -6.912529 -0.832372 617 0.604730 0.796430 0.000000
-7.685170 -6.912058 -0.829147 615 0.604730 0.796430 0.000000
-7.684807 -6.911726 -0.825940 597 0.604730 0.796430 0.000000
-7.684926 -6.911829 -0.822769 587 0.604730 0.796430 0.000000
-7.685205 -6.912087 -0.819606 573 0.604730 0.796430 0.000000
-7.685213 -6.912090 -0.816416 577 0.604730 0.796430 0.000000
-7.685823 -6.912638 -0.813280 591 0.604730 0.796430 0.000000
-7.686157 -6.912939 -0.810117 589 0.604730 0.796430 0.000000
-7.685082 -6.911974 -0.806867 611 0.604730 0.796430 0.000000
-7.684822 -6.911736 -0.803669 625 0.604730 0.796430 0.000000
-7.685259 -6.912133 -0.800515 617 0.604730 0.796430 0.000000
-7.685433 -6.912282 -0.797344 599 0.604730 0.796430 0.000000
-7.684786 -6.911709 -0.794119 603 0.604730 0.796430 0.000000
-7.685009 -6.911909 -0.790947 599 0.604730 0.796430 0.000000
-7.684803 -6.911715 -0.787759 607 0.604730 0.796430 0.000000
-7.685184 -6.912054 -0.784596 635 0.604730 0.796430 0.000000
-7.685937 -6.912743 -0.781469 639 0.604730 0.796430 0.000000
-7.685401 -6.912258 -0.778254 611 0.604730 0.796430 0.000000
-7.685410 -6.912261 -0.775073 601 0.604730 0.796430 0.000000
-7.685410 -6.912258 -0.771883 615 0.604730 0.796430 0.000000
-7.684485 -6.911425 -0.768652 609 0.604730 0.796430 0.000000
-7.684803 -6.911714 -0.765489 607 0.604730 0.796430 0.000000
-7.685240 -6.912110 -0.762335 609 0.604730 0.796430 0.000000
-7.685019 -6.911904 -0.759137 611 0.604730 0.796430 0.000000
-7.685076 -6.911959 -0.755966 611 0.604730 0.796430 0.000000
-7.684903 -6.911804 -0.752768 609 0.604730 0.796430 0.000000
-7.684461 -6.911408 -0.749561 609 0.604730 0.796430 0.000000
-7.684082 -6.911063 -0.746365 605 0.604730 0.796430 0.000000
-7.684338 -6.911302 -0.743202 623 0.604730 0.796430 0.000000
-7.684441 -6.911394 -0.740021 639 0.604730 0.796430 0.000000
-7.685202 -6.912075 -0.736884 627 0.604730 0.796430 0.000000
-7.686223 -6.912990 -0.733765 625 0.604730 0.796430 0.000000
