774
-7.493361 -7.052242 -0.959826 1345 0.604730 0.796430 0.000000
-7.492973 -7.051877 -0.956620 1325 0.604730 0.796430 0.000000
-7.493188 -7.052071 -0.953468 1329 0.604730 0.796430 0.000000
-7.493755 -7.052609 -0.950342 1345 0.604730 0.796430 0.000000
-7.493255 -7.052143 -0.947127 1331 0.604730 0.796430 0.000000
-7.493399 -7.052279 -0.943966 1343 0.604730 0.796430 0.000000
-7.493869 -7.052715 -0.940831 1339 0.604730 0.796430 0.000000
-7.494070 -7.052910 -0.937679 1339 0.604730 0.796430 0.000000
-7.493625 -7.052486 -0.934463 1333 0.604730 0.796430 0.000000
-7.493451 -7.052318 -0.931275 1331 0.604730 0.796430 0.000000
-7.493587 -7.052449 -0.928114 1339 0.604730 0.796430 0.000000
-7.493359 -7.052236 -0.924926 1343 0.604730 0.796430 0.000000
-7.493130 -7.052024 -0.921738 1345 0.604730 0.796430 0.000000
-7.493106 -7.052001 -0.918558 1333 0.604730 0.796430 0.000000
-7.493195 -7.052081 -0.915397 1349 0.604730 0.796430 0.000000
-7.493228 -7.052117 -0.912227 1339 0.604730 0.796430 0.000000
-7.493579 -7.052445 -0.909083 1337 0.604730 0.796430 0.000000
-7.493708 -7.052570 -0.905922 1349 0.604730 0.796430 0.000000
-7.493485 -7.052349 -0.902734 1345 0.604730 0.796430 0.000000
-7.493717 -7.052570 -0.899582 1347 0.604730 0.796430 0.000000
-7.494173 -7.053007 -0.896447 1351 0.604730 0.796430 0.000000
-7.494040 -7.052884 -0.893269 1339 0.604730 0.796430 0.000000
-7.494016 -7.052861 -0.890089 1351 0.604730 0.796430 0.000000
-7.494040 -7.052876 -0.886928 1347 0.604730 0.796430 0.000000
-7.493804 -7.052658 -0.883730 1339 0.604730 0.796430 0.000000
-7.493725 -7.052578 -0.880561 1337 0.604730 0.796430 0.000000
-7.494116 -7.052951 -0.877417 1345 0.604730 0.796430 0.000000
-7.493982 -7.052828 -0.874239 1347 0.604730 0.796430 0.000000
-7.494166 -7.052996 -0.871077 1345 0.604730 0.796430 0.000000
-7.494287 -7.053114 -0.867916 1355 0.604730 0.796430 0.000000
-7.493986 -7.052832 -0.864728 1345 0.604730 0.796430 0.000000
-7.494018 -7.052854 -0.861558 1341 0.604730 0.796430 0.000000
-7.494298 -7.053125 -0.858415 1353 0.604730 0.796430 0.000000
-7.494434 -7.053242 -0.855254 1359 0.604730 0.796430 0.000000
-7.494395 -7.053207 -0.852074 1355 0.604730 0.796430 0.000000
-7.494357 -7.053174 -0.848904 1351 0.604730 0.796430 0.000000
-7.494430 -7.053240 -0.845744 1347 0.604730 0.796430 0.000000
-7.494764 -7.053555 -0.842591 1361 0.604730 0.796430 0.000000
-7.494456 -7.053267 -0.839403 1353 0.604730 0.796430 0.000000
-7.494363 -7.053188 -0.836224 1351 0.604730 0.796430 0.000000
-7.494053 -7.052899 -0.833037 1349 0.604730 0.796430 0.000000
-7.494126 -7.052967 -0.829876 1357 0.604730 0.796430 0.000000
-7.494724 -7.053530 -0.826740 1365 0.604730 0.796430 0.000000
-7.494256 -7.053088 -0.823545 1353 0.604730 0.796430 0.000000
-7.493588 -7.052447 -0.820331 1353 0.604730 0.796430 0.000000
-7.494020 -7.052866 -0.817187 1353 0.604730 0.796430 0.000000
-7.494188 -7.053022 -0.814035 1353 0.604730 0.796430 0.000000
-7.494253 -7.053083 -0.810865 1349 0.604730 0.796430 0.000000
-7.494835 -7.053634 -0.807739 1353 0.604730 0.796430 0.000000
-7.495010 -7.053796 -0.804587 1351 0.604730 0.796430 0.000000
-7.494321 -7.053152 -0.801364 1353 0.604730 0.796430 0.000000
-7.493637 -7.052498 -0.798150 1347 0.604730 0.796430 0.000000
-7.493964 -7.052808 -0.795007 1339 0.604730 0.796430 0.000000
-7.494506 -7.053313 -0.791872 1345 0.604730 0.796430 0.000000
-7.494659 -7.053471 -0.788720 1351 0.604730 0.796430 0.000000
-7.494454 -7.053277 -0.785532 1369 0.604730 0.796430 0.000000
-7.494089 -7.052930 -0.782345 1357 0.604730 0.796430 0.000000
-7.494089 -7.052927 -0.779175 1359 0.604730 0.796430 0.000000
-7.494035 -7.052880 -0.776006 1345 0.604730 0.796430 0.000000
-7.494092 -7.052935 -0.772845 1347 0.604730 0.796430 0.000000
-7.494626 -7.053434 -0.769710 1343 0.604730 0.796430 0.000000
-7.495319 -7.054087 -0.766584 1355 0.604730 0.796430 0.000000
-7.494890 -7.053676 -0.763388 1353 0.604730 0.796430 0.000000
-7.494407 -7.053222 -0.760192 1345 0.604730 0.796430 0.000000
-7.495148 -7.053926 -0.757075 1361 0.604730 0.796430 0.000000
-7.494823 -7.053624 -0.753888 1363 0.604730 0.796430 0.000000
-7.493917 -7.052768 -0.750666 1353 0.604730 0.796430 0.000000
-7.493967 -7.052817 -0.747496 1353 0.604730 0.796430 0.000000
-7.494071 -7.052909 -0.744345 1349 0.604730 0.796430 0.000000
-7.494064 -7.052899 -0.741175 1341 0.604730 0.796430 0.000000
-7.494584 -7.053400 -0.738040 1341 0.604730 0.796430 0.000000
-7.494950 -7.053741 -0.734896 1345 0.604730 0.796430 0.000000
-7.494466 -7.053286 -0.731701 1343 0.604730 0.796430 0.000000
-7.494237 -7.053073 -0.728523 1353 0.604730 0.796430 0.000000
-7.494501 -7.053319 -0.725370 1357 0.604730 0.796430 0.000000
-7.494326 -7.053150 -0.722192 1351 0.604730 0.796430 0.000000
-7.493994 -7.052842 -0.719005 1357 0.604730 0.796430 0.000000
-7.494146 -7.052985 -0.715853 1349 0.604730 0.796430 0.000000
-7.494028 -7.052874 -0.712674 1335 0.604730 0.796430 0.000000
-7.494062 -7.052910 -0.709514 1331 0.604730 0.796430 0.000000
-7.494475 -7.053288 -0.706370 1341 0.604730 0.796430 0.000000
-7.494565 -7.053382 -0.703209 1339 0.604730 0.796430 0.000000
-7.494599 -7.053418 -0.700049 1337 0.604730 0.796430 0.000000
-7.494908 -7.053700 -0.696896 1347 0.604730 0.796430 0.000000
-7.495426 -7.054187 -0.693761 1351 0.604730 0.796430 0.000000
-7.494983 -7.053778 -0.690575 1337 0.604730 0.796430 0.000000
-7.494531 -7.053349 -0.687379 1341 0.604730 0.796430 0.000000
-7.494834 -7.053638 -0.684236 1351 0.604730 0.796430 0.000000
-7.494812 -7.053617 -0.681066 1357 0.604730 0.796430 0.000000
-7.494367 -7.053194 -0.677880 1351 0.604730 0.796430 0.000000
-7.493709 -7.052574 -0.674676 1353 0.604730 0.796430 0.000000
-7.493161 -7.052055 -0.671492 1339 0.604730 0.796430 0.000000
-7.494142 -7.052989 -0.668372 1347 0.604730 0.796430 0.000000
-7.494492 -7.053317 -0.665229 1349 0.604730 0.796430 0.000000
-7.494040 -7.052887 -0.662033 1337 0.604730 0.796430 0.000000
-7.494709 -7.053520 -0.658907 1349 0.604730 0.796430 0.000000
-7.494678 -7.053492 -0.655737 1341 0.604730 0.796430 0.000000
-7.494234 -7.053070 -0.652551 1343 0.604730 0.796430 0.000000
-7.493941 -7.052793 -0.649374 1339 0.604730 0.796430 0.000000
-7.494021 -7.052866 -0.646213 1353 0.604730 0.796430 0.000000
-7.494206 -7.053049 -0.643061 1361 0.604730 0.796430 0.000000
-7.494439 -7.053269 -0.639909 1345 0.604730 0.796430 0.000000
-7.494249 -7.053087 -0.636730 1335 0.604730 0.796430 0.000000
-7.493740 -7.052600 -0.633545 1329 0.604730 0.796430 0.000000
-7.494187 -7.053031 -0.630401 1339 0.604730 0.796430 0.000000
-7.495008 -7.053798 -0.627273 1337 0.604730 0.796430 0.000000
-7.494500 -7.053325 -0.624088 1331 0.604730 0.796430 0.000000
-7.493618 -7.052487 -0.620886 1331 0.604730 0.796430 0.000000
-7.493476 -7.052358 -0.617717 1333 0.604730 0.796430 0.000000
-7.493224 -7.052126 -0.614540 1329 0.604730 0.796430 0.000000
-7.493297 -7.052193 -0.611389 1329 0.604730 0.796430 0.000000
-7.493529 -7.052413 -0.608227 1329 0.604730 0.796430 0.000000
-7.493483 -7.052373 -0.605067 1331 0.604730 0.796430 0.000000
-7.493826 -7.052695 -0.601914 1337 0.604730 0.796430 0.000000
-7.494104 -7.052952 -0.598761 1327 0.604730 0.796430 0.000000
-7.493853 -7.052722 -0.595593 1331 0.604730 0.796430 0.000000
-7.493279 -7.052170 -0.592409 1331 0.604730 0.796430 0.000000
-7.496164 -7.050303 -0.975743 1337 0.604730 0.796430 0.000000
-7.496373 -7.050504 -0.972591 1349 0.604730 0.796430 0.000000
-7.496095 -7.050240 -0.969394 1341 0.604730 0.796430 0.000000
-7.495293 -7.049479 -0.966141 1339 0.604730 0.796430 0.000000
-7.494960 -7.049171 -0.962944 1329 0.604730 0.796430 0.000000
-7.495694 -7.049870 -0.959837 1339 0.604730 0.796430 0.000000
-7.496004 -7.050152 -0.956684 1331 0.604730 0.796430 0.000000
-7.495942 -7.050098 -0.953505 1337 0.604730 0.796430 0.000000
-7.495976 -7.050135 -0.950334 1343 0.604730 0.796430 0.000000
-7.495595 -7.049776 -0.947128 1329 0.604730 0.796430 0.000000
-7.495207 -7.049409 -0.943921 1321 0.604730 0.796430 0.000000
-7.495192 -7.049394 -0.940751 1335 0.604730 0.796430 0.000000
-7.495924 -7.050077 -0.937645 1343 0.604730 0.796430 0.000000
-7.496490 -7.050616 -0.934519 1353 0.604730 0.796430 0.000000
-7.495934 -7.050091 -0.931294 1345 0.604730 0.796430 0.000000
-7.495132 -7.049331 -0.928052 1331 0.604730 0.796430 0.000000
-7.495007 -7.049214 -0.924873 1327 0.604730 0.796430 0.000000
-7.495461 -7.049650 -0.921739 1333 0.604730 0.796430 0.000000
-7.495764 -7.049927 -0.918596 1339 0.604730 0.796430 0.000000
-7.495471 -7.049651 -0.915398 1327 0.604730 0.796430 0.000000
-7.495664 -7.049839 -0.912246 1331 0.604730 0.796430 0.000000
-7.496229 -7.050364 -0.909121 1351 0.604730 0.796430 0.000000
-7.496476 -7.050596 -0.905969 1355 0.604730 0.796430 0.000000
-7.496662 -7.050779 -0.902807 1349 0.604730 0.796430 0.000000
-7.497115 -7.051202 -0.899673 1351 0.604730 0.796430 0.000000
-7.497252 -7.051333 -0.896511 1345 0.604730 0.796430 0.000000
-7.496648 -7.050756 -0.893297 1337 0.604730 0.796430 0.000000
-7.496092 -7.050232 -0.890082 1333 0.604730 0.796430 0.000000
-7.495896 -7.050058 -0.886894 1337 0.604730 0.796430 0.000000
-7.496398 -7.050533 -0.883759 1339 0.604730 0.796430 0.000000
-7.496955 -7.051051 -0.880634 1339 0.604730 0.796430 0.000000
-7.496822 -7.050928 -0.877455 1347 0.604730 0.796430 0.000000
-7.496266 -7.050403 -0.874240 1339 0.604730 0.796430 0.000000
-7.496490 -7.050617 -0.871088 1339 0.604730 0.796430 0.000000
-7.496571 -7.050690 -0.867917 1341 0.604730 0.796430 0.000000
-7.496540 -7.050662 -0.864747 1339 0.604730 0.796430 0.000000
-7.496621 -7.050735 -0.861586 1335 0.604730 0.796430 0.000000
-7.496955 -7.051050 -0.858443 1337 0.604730 0.796430 0.000000
-7.497561 -7.051620 -0.855317 1351 0.604730 0.796430 0.000000
-7.497158 -7.051242 -0.852111 1349 0.604730 0.796430 0.000000
-7.496634 -7.050756 -0.848906 1347 0.604730 0.796430 0.000000
-7.496339 -7.050466 -0.845719 1343 0.604730 0.796430 0.000000
-7.496302 -7.050432 -0.842539 1351 0.604730 0.796430 0.000000
-7.496899 -7.050995 -0.839413 1361 0.604730 0.796430 0.000000
-7.497504 -7.051565 -0.836287 1367 0.604730 0.796430 0.000000
-7.496497 -7.050628 -0.833047 1343 0.604730 0.796430 0.000000
-7.495988 -7.050140 -0.829841 1347 0.604730 0.796430 0.000000
-7.496579 -7.050698 -0.826716 1361 0.604730 0.796430 0.000000
-7.496913 -7.051013 -0.823573 1363 0.604730 0.796430 0.000000
-7.496659 -7.050768 -0.820385 1349 0.604730 0.796430 0.000000
-7.496670 -7.050785 -0.817215 1349 0.604730 0.796430 0.000000
-7.496948 -7.051042 -0.814062 1361 0.604730 0.796430 0.000000
-7.496640 -7.050754 -0.810875 1349 0.604730 0.796430 0.000000
-7.496434 -7.050560 -0.807697 1337 0.604730 0.796430 0.000000
-7.496444 -7.050577 -0.804527 1327 0.604730 0.796430 0.000000
-7.496716 -7.050828 -0.801374 1327 0.604730 0.796430 0.000000
-7.497097 -7.051180 -0.798230 1347 0.604730 0.796430 0.000000
-7.496559 -7.050683 -0.795025 1343 0.604730 0.796430 0.000000
-7.496140 -7.050292 -0.791839 1339 0.604730 0.796430 0.000000
-7.496570 -7.050696 -0.788695 1335 0.604730 0.796430 0.000000
-7.497436 -7.051501 -0.785587 1351 0.604730 0.796430 0.000000
-7.497597 -7.051651 -0.782425 1351 0.604730 0.796430 0.000000
-7.497120 -7.051202 -0.779230 1343 0.604730 0.796430 0.000000
-7.497115 -7.051206 -0.776060 1341 0.604730 0.796430 0.000000
-7.497061 -7.051159 -0.772890 1347 0.604730 0.796430 0.000000
-7.496585 -7.050711 -0.769694 1343 0.604730 0.796430 0.000000
-7.496426 -7.050555 -0.766516 1351 0.604730 0.796430 0.000000
-7.496635 -7.050756 -0.763364 1349 0.604730 0.796430 0.000000
-7.496254 -7.050397 -0.760167 1343 0.604730 0.796430 0.000000
-7.496366 -7.050495 -0.757006 1343 0.604730 0.796430 0.000000
-7.497583 -7.051644 -0.753915 1345 0.604730 0.796430 0.000000
-7.497370 -7.051445 -0.750737 1347 0.604730 0.796430 0.000000
-7.496990 -7.051085 -0.747550 1361 0.604730 0.796430 0.000000
-7.496880 -7.050981 -0.744371 1353 0.604730 0.796430 0.000000
-7.496769 -7.050875 -0.741202 1341 0.604730 0.796430 0.000000
-7.496652 -7.050765 -0.738023 1333 0.604730 0.796430 0.000000
-7.497226 -7.051310 -0.734898 1351 0.604730 0.796430 0.000000
-7.497705 -7.051765 -0.731753 1343 0.604730 0.796430 0.000000
-7.497489 -7.051551 -0.728575 1345 0.604730 0.796430 0.000000
-7.497468 -7.051543 -0.725405 1351 0.604730 0.796430 0.000000
-7.497406 -7.051476 -0.722236 1347 0.604730 0.796430 0.000000
-7.496651 -7.050767 -0.719033 1345 0.604730 0.796430 0.000000
-7.496907 -7.051006 -0.715880 1357 0.604730 0.796430 0.000000
-7.497481 -7.051551 -0.712745 1347 0.604730 0.796430 0.000000
-7.497252 -7.051338 -0.709567 1337 0.604730 0.796430 0.000000
-7.497459 -7.051526 -0.706415 1337 0.604730 0.796430 0.000000
-7.497382 -7.051460 -0.703245 1331 0.604730 0.796430 0.000000
-7.497047 -7.051138 -0.700058 1335 0.604730 0.796430 0.000000
-7.497503 -7.051575 -0.696914 1343 0.604730 0.796430 0.000000
-7.497869 -7.051915 -0.693771 1359 0.604730 0.796430 0.000000
-7.496575 -7.050697 -0.690533 1335 0.604730 0.796430 0.000000
-7.496116 -7.050275 -0.687347 1317 0.604730 0.796430 0.000000
-7.497007 -7.051113 -0.684228 1355 0.604730 0.796430 0.000000
-7.496985 -7.051091 -0.681059 1349 0.604730 0.796430 0.000000
-7.497129 -7.051228 -0.677907 1345 0.604730 0.796430 0.000000
-7.497272 -7.051351 -0.674746 1355 0.604730 0.796430 0.000000
-7.497036 -7.051132 -0.671568 1345 0.604730 0.796430 0.000000
-7.496799 -7.050914 -0.668390 1333 0.604730 0.796430 0.000000
-7.496935 -7.051045 -0.665239 1339 0.604730 0.796430 0.000000
-7.497389 -7.051468 -0.662094 1345 0.604730 0.796430 0.000000
-7.498051 -7.052095 -0.658958 1353 0.604730 0.796430 0.000000
-7.497447 -7.051519 -0.655764 1341 0.604730 0.796430 0.000000
-7.496940 -7.051046 -0.652578 1331 0.604730 0.796430 0.000000
-7.497553 -7.051622 -0.649442 1347 0.604730 0.796430 0.000000
-7.497038 -7.051142 -0.646247 1343 0.604730 0.796430 0.000000
-7.497015 -7.051121 -0.643087 1345 0.604730 0.796430 0.000000
-7.497255 -7.051347 -0.639935 1349 0.604730 0.796430 0.000000
-7.497176 -7.051267 -0.636766 1349 0.604730 0.796430 0.000000
-7.497027 -7.051131 -0.633597 1339 0.604730 0.796430 0.000000
-7.496631 -7.050760 -0.630411 1333 0.604730 0.796430 0.000000
-7.497180 -7.051271 -0.627275 1333 0.604730 0.796430 0.000000
-7.497953 -7.052001 -0.624138 1337 0.604730 0.796430 0.000000
-7.497492 -7.051565 -0.620962 1339 0.604730 0.796430 0.000000
-7.496770 -7.050881 -0.617759 1341 0.604730 0.796430 0.000000
-7.496836 -7.050956 -0.614598 1343 0.604730 0.796430 0.000000
-7.496049 -7.050208 -0.611406 1333 0.604730 0.796430 0.000000
-7.495328 -7.049538 -0.608212 1329 0.604730 0.796430 0.000000
-7.495932 -7.050094 -0.605077 1333 0.604730 0.796430 0.000000
-7.496529 -7.050657 -0.601931 1331 0.604730 0.796430 0.000000
-7.496872 -7.050979 -0.598788 1335 0.604730 0.796430 0.000000
-7.497416 -7.051499 -0.595643 1333 0.604730 0.796430 0.000000
-7.497480 -7.051559 -0.592482 1335 0.604730 0.796430 0.000000
-7.498981 -7.048381 -0.975790 1353 0.604730 0.796430 0.000000
-7.498386 -7.047825 -0.972565 1337 0.604730 0.796430 0.000000
-7.498108 -7.047560 -0.969368 1329 0.604730 0.796430 0.000000
-7.498095 -7.047559 -0.966188 1339 0.604730 0.796430 0.000000
-7.498040 -7.047498 -0.963008 1323 0.604730 0.796430 0.000000
-7.498503 -7.047941 -0.959884 1329 0.604730 0.796430 0.000000
-7.499083 -7.048478 -0.956758 1353 0.604730 0.796430 0.000000
-7.499076 -7.048469 -0.953588 1339 0.604730 0.796430 0.000000
-7.498584 -7.048007 -0.950363 1335 0.604730 0.796430 0.000000
-7.498085 -7.047541 -0.947147 1331 0.604730 0.796430 0.000000
-7.498127 -7.047583 -0.943977 1331 0.604730 0.796430 0.000000
-7.498970 -7.048368 -0.940879 1335 0.604730 0.796430 0.000000
-7.499577 -7.048953 -0.937763 1349 0.604730 0.796430 0.000000
-7.498934 -7.048345 -0.934529 1345 0.604730 0.796430 0.000000
-7.498164 -7.047623 -0.931296 1337 0.604730 0.796430 0.000000
-7.497830 -7.047301 -0.928089 1335 0.604730 0.796430 0.000000
-7.497602 -7.047089 -0.924901 1345 0.604730 0.796430 0.000000
-7.498008 -7.047475 -0.921767 1335 0.604730 0.796430 0.000000
-7.499058 -7.048450 -0.918678 1345 0.604730 0.796430 0.000000
-7.499243 -7.048633 -0.915526 1349 0.604730 0.796430 0.000000
-7.499172 -7.048560 -0.912346 1349 0.604730 0.796430 0.000000
-7.499046 -7.048442 -0.909167 1347 0.604730 0.796430 0.000000
-7.498705 -7.048128 -0.905960 1337 0.604730 0.796430 0.000000
-7.498737 -7.048150 -0.902790 1337 0.604730 0.796430 0.000000
-7.499026 -7.048428 -0.899647 1343 0.604730 0.796430 0.000000
-7.498949 -7.048362 -0.896468 1341 0.604730 0.796430 0.000000
-7.498550 -7.047976 -0.893262 1343 0.604730 0.796430 0.000000
-7.498679 -7.048101 -0.890100 1329 0.604730 0.796430 0.000000
-7.499030 -7.048429 -0.886957 1337 0.604730 0.796430 0.000000
-7.499215 -7.048611 -0.883805 1341 0.604730 0.796430 0.000000
-7.499399 -7.048779 -0.880643 1335 0.604730 0.796430 0.000000
-7.499058 -7.048451 -0.877446 1349 0.604730 0.796430 0.000000
-7.498542 -7.047972 -0.874241 1343 0.604730 0.796430 0.000000
-7.499259 -7.048643 -0.871124 1347 0.604730 0.796430 0.000000
-7.499339 -7.048717 -0.867964 1345 0.604730 0.796430 0.000000
-7.499086 -7.048485 -0.864766 1331 0.604730 0.796430 0.000000
-7.500169 -7.049500 -0.861686 1351 0.604730 0.796430 0.000000
-7.500298 -7.049625 -0.858524 1353 0.604730 0.796430 0.000000
-7.500259 -7.049591 -0.855345 1359 0.604730 0.796430 0.000000
-7.500021 -7.049358 -0.852157 1357 0.604730 0.796430 0.000000
-7.499658 -7.049025 -0.848960 1355 0.604730 0.796430 0.000000
-7.499094 -7.048494 -0.845745 1347 0.604730 0.796430 0.000000
-7.499118 -7.048509 -0.842585 1355 0.604730 0.796430 0.000000
-7.499819 -7.049169 -0.839468 1365 0.604730 0.796430 0.000000
-7.500210 -7.049541 -0.836325 1353 0.604730 0.796430 0.000000
-7.500012 -7.049354 -0.833136 1357 0.604730 0.796430 0.000000
-7.499171 -7.048562 -0.829904 1353 0.604730 0.796430 0.000000
-7.499395 -7.048776 -0.826752 1349 0.604730 0.796430 0.000000
-7.499944 -7.049288 -0.823627 1351 0.604730 0.796430 0.000000
-7.500057 -7.049400 -0.820466 1343 0.604730 0.796430 0.000000
-7.500011 -7.049359 -0.817296 1351 0.604730 0.796430 0.000000
-7.499551 -7.048924 -0.814090 1353 0.604730 0.796430 0.000000
-7.499609 -7.048978 -0.810930 1355 0.604730 0.796430 0.000000
-7.499935 -7.049287 -0.807777 1357 0.604730 0.796430 0.000000
-7.499579 -7.048947 -0.804590 1343 0.604730 0.796430 0.000000
-7.499572 -7.048951 -0.801420 1339 0.604730 0.796430 0.000000
-7.499638 -7.049012 -0.798249 1349 0.604730 0.796430 0.000000
-7.499805 -7.049169 -0.795097 1339 0.604730 0.796430 0.000000
-7.499758 -7.049114 -0.791928 1339 0.604730 0.796430 0.000000
-7.499228 -7.048622 -0.788723 1325 0.604730 0.796430 0.000000
-7.499236 -7.048624 -0.785553 1341 0.604730 0.796430 0.000000
-7.499022 -7.048424 -0.782375 1345 0.604730 0.796430 0.000000
-7.499501 -7.048880 -0.779240 1347 0.604730 0.796430 0.000000
-7.499717 -7.049088 -0.776078 1333 0.604730 0.796430 0.000000
-7.499670 -7.049033 -0.772908 1337 0.604730 0.796430 0.000000
-7.499719 -7.049081 -0.769748 1337 0.604730 0.796430 0.000000
-7.499554 -7.048933 -0.766569 1335 0.604730 0.796430 0.000000
-7.499133 -7.048528 -0.763373 1347 0.604730 0.796430 0.000000
-7.498857 -7.048278 -0.760186 1335 0.604730 0.796430 0.000000
-7.500089 -7.049426 -0.757094 1343 0.604730 0.796430 0.000000
-7.500457 -7.049780 -0.753950 1355 0.604730 0.796430 0.000000
-7.499440 -7.048822 -0.750720 1351 0.604730 0.796430 0.000000
-7.499108 -7.048515 -0.747543 1333 0.604730 0.796430 0.000000
-7.499212 -7.048607 -0.744382 1341 0.604730 0.796430 0.000000
-7.499475 -7.048853 -0.741229 1347 0.604730 0.796430 0.000000
-7.500112 -7.049447 -0.738093 1343 0.604730 0.796430 0.000000
-7.500576 -7.049891 -0.734959 1351 0.604730 0.796430 0.000000
-7.500514 -7.049837 -0.731789 1353 0.604730 0.796430 0.000000
-7.499973 -7.049325 -0.728584 1333 0.604730 0.796430 0.000000
-7.499482 -7.048864 -0.725399 1331 0.604730 0.796430 0.000000
-7.499364 -7.048754 -0.722220 1329 0.604730 0.796430 0.000000
-7.499357 -7.048744 -0.719050 1327 0.604730 0.796430 0.000000
-7.499763 -7.049129 -0.715916 1337 0.604730 0.796430 0.000000
-7.500339 -7.049674 -0.712781 1345 0.604730 0.796430 0.000000
-7.500331 -7.049664 -0.709611 1339 0.604730 0.796430 0.000000
-7.500371 -7.049693 -0.706450 1343 0.604730 0.796430 0.000000
-7.500198 -7.049538 -0.703272 1337 0.604730 0.796430 0.000000
-7.499865 -7.049216 -0.700085 1343 0.604730 0.796430 0.000000
-7.499898 -7.049252 -0.696924 1337 0.604730 0.796430 0.000000
-7.499829 -7.049192 -0.693755 1343 0.604730 0.796430 0.000000
-7.499321 -7.048719 -0.690560 1335 0.604730 0.796430 0.000000
-7.499258 -7.048652 -0.687390 1343 0.604730 0.796430 0.000000
-7.499982 -7.049329 -0.684263 1343 0.604730 0.796430 0.000000
-7.500127 -7.049468 -0.681102 1339 0.604730 0.796430 0.000000
-7.499779 -7.049147 -0.677925 1343 0.604730 0.796430 0.000000
-7.500670 -7.049984 -0.674807 1355 0.604730 0.796430 0.000000
-7.500807 -7.050115 -0.671645 1337 0.604730 0.796430 0.000000
-7.500411 -7.049743 -0.668459 1345 0.604730 0.796430 0.000000
-7.499799 -7.049160 -0.665265 1337 0.604730 0.796430 0.000000
-7.499833 -7.049197 -0.662104 1337 0.604730 0.796430 0.000000
-7.500501 -7.049816 -0.658968 1351 0.604730 0.796430 0.000000
-7.500096 -7.049438 -0.655782 1341 0.604730 0.796430 0.000000
-7.499645 -7.049023 -0.652596 1329 0.604730 0.796430 0.000000
-7.500211 -7.049547 -0.649460 1349 0.604730 0.796430 0.000000
-7.500554 -7.049869 -0.646307 1355 0.604730 0.796430 0.000000
-7.500357 -7.049695 -0.643139 1349 0.604730 0.796430 0.000000
-7.500230 -7.049564 -0.639970 1349 0.604730 0.796430 0.000000
-7.499986 -7.049339 -0.636792 1341 0.604730 0.796430 0.000000
-7.499152 -7.048554 -0.633590 1327 0.604730 0.796430 0.000000
-7.499129 -7.048532 -0.630420 1327 0.604730 0.796430 0.000000
-7.499409 -7.048803 -0.627267 1325 0.604730 0.796430 0.000000
-7.499434 -7.048819 -0.624107 1325 0.604730 0.796430 0.000000
-7.499713 -7.049090 -0.620954 1337 0.604730 0.796430 0.000000
-7.499676 -7.049056 -0.617795 1329 0.604730 0.796430 0.000000
-7.499970 -7.049325 -0.614642 1339 0.604730 0.796430 0.000000
-7.499932 -7.049291 -0.611472 1333 0.604730 0.796430 0.000000
-7.500053 -7.049410 -0.608321 1345 0.604730 0.796430 0.000000
-7.500396 -7.049732 -0.605168 1337 0.604730 0.796430 0.000000
-7.500626 -7.049938 -0.602015 1343 0.604730 0.796430 0.000000
-7.499787 -7.049160 -0.598813 1343 0.604730 0.796430 0.000000
-7.499318 -7.048717 -0.595627 1333 0.604730 0.796430 0.000000
-7.499446 -7.048829 -0.592476 1335 0.604730 0.796430 0.000000
-7.502548 -7.047251 -0.975918 1343 0.604730 0.796430 0.000000
-7.501905 -7.046644 -0.972684 1339 0.604730 0.796430 0.000000
-7.501151 -7.045934 -0.969441 1331 0.604730 0.796430 0.000000
-7.501295 -7.046071 -0.966280 1339 0.604730 0.796430 0.000000
-7.501558 -7.046317 -0.963127 1329 0.604730 0.796430 0.000000
-7.502022 -7.046760 -0.959993 1333 0.604730 0.796430 0.000000
-7.502118 -7.046846 -0.956832 1341 0.604730 0.796430 0.000000
-7.501793 -7.046544 -0.953625 1337 0.604730 0.796430 0.000000
-7.501142 -7.045930 -0.950401 1329 0.604730 0.796430 0.000000
-7.500484 -7.045310 -0.947167 1337 0.604730 0.796430 0.000000
-7.500842 -7.045644 -0.944024 1327 0.604730 0.796430 0.000000
-7.502156 -7.046883 -0.940961 1337 0.604730 0.796430 0.000000
-7.501934 -7.046676 -0.937773 1351 0.604730 0.796430 0.000000
-7.500902 -7.045706 -0.934513 1331 0.604730 0.796430 0.000000
-7.500935 -7.045742 -0.931342 1333 0.604730 0.796430 0.000000
-7.500920 -7.045726 -0.928162 1327 0.604730 0.796430 0.000000
-7.501009 -7.045805 -0.925002 1331 0.604730 0.796430 0.000000
-7.501145 -7.045937 -0.921840 1341 0.604730 0.796430 0.000000
-7.500970 -7.045767 -0.918652 1331 0.604730 0.796430 0.000000
-7.500894 -7.045702 -0.915472 1329 0.604730 0.796430 0.000000
-7.501403 -7.046183 -0.912348 1331 0.604730 0.796430 0.000000
-7.501920 -7.046656 -0.909213 1335 0.604730 0.796430 0.000000
-7.501897 -7.046634 -0.906043 1343 0.604730 0.796430 0.000000
-7.502670 -7.047363 -0.902936 1347 0.604730 0.796430 0.000000
-7.502759 -7.047443 -0.899765 1347 0.604730 0.796430 0.000000
-7.501981 -7.046715 -0.896532 1327 0.604730 0.796430 0.000000
-7.501801 -7.046554 -0.893343 1331 0.604730 0.796430 0.000000
-7.501237 -7.046023 -0.890129 1337 0.604730 0.796430 0.000000
-7.501206 -7.045995 -0.886959 1335 0.604730 0.796430 0.000000
-7.501564 -7.046328 -0.883815 1337 0.604730 0.796430 0.000000
-7.501637 -7.046395 -0.880645 1337 0.604730 0.796430 0.000000
-7.501503 -7.046272 -0.877466 1353 0.604730 0.796430 0.000000
-7.501528 -7.046288 -0.874296 1349 0.604730 0.796430 0.000000
-7.502030 -7.046762 -0.871171 1343 0.604730 0.796430 0.000000
-7.501945 -7.046690 -0.867991 1323 0.604730 0.796430 0.000000
-7.502280 -7.047005 -0.864848 1343 0.604730 0.796430 0.000000
-7.502789 -7.047472 -0.861713 1363 0.604730 0.796430 0.000000
-7.502647 -7.047343 -0.858535 1347 0.604730 0.796430 0.000000
-7.502243 -7.046965 -0.855328 1347 0.604730 0.796430 0.000000
-7.502156 -7.046879 -0.852149 1347 0.604730 0.796430 0.000000
-7.502056 -7.046794 -0.848980 1339 0.604730 0.796430 0.000000
-7.502017 -7.046760 -0.845800 1341 0.604730 0.796430 0.000000
-7.502090 -7.046827 -0.842640 1345 0.604730 0.796430 0.000000
-7.502266 -7.046989 -0.839478 1351 0.604730 0.796430 0.000000
-7.502387 -7.047108 -0.836317 1349 0.604730 0.796430 0.000000
-7.502140 -7.046868 -0.833129 1347 0.604730 0.796430 0.000000
-7.502262 -7.046987 -0.829968 1349 0.604730 0.796430 0.000000
-7.502486 -7.047201 -0.826815 1353 0.604730 0.796430 0.000000
-7.502232 -7.046956 -0.823628 1351 0.604730 0.796430 0.000000
-7.502344 -7.047068 -0.820467 1349 0.604730 0.796430 0.000000
-7.502464 -7.047172 -0.817305 1349 0.604730 0.796430 0.000000
-7.502426 -7.047138 -0.814136 1353 0.604730 0.796430 0.000000
-7.502435 -7.047141 -0.810966 1347 0.604730 0.796430 0.000000
-7.502707 -7.047406 -0.807813 1353 0.604730 0.796430 0.000000
-7.502716 -7.047409 -0.804653 1355 0.604730 0.796430 0.000000
-7.502780 -7.047470 -0.801482 1361 0.604730 0.796430 0.000000
-7.503314 -7.047970 -0.798347 1339 0.604730 0.796430 0.000000
-7.503744 -7.048374 -0.795213 1357 0.604730 0.796430 0.000000
-7.503325 -7.047984 -0.792017 1345 0.604730 0.796430 0.000000
-7.502697 -7.047388 -0.788803 1339 0.604730 0.796430 0.000000
-7.502167 -7.046896 -0.785597 1341 0.604730 0.796430 0.000000
-7.501904 -7.046644 -0.782410 1333 0.604730 0.796430 0.000000
-7.502065 -7.046794 -0.779258 1333 0.604730 0.796430 0.000000
-7.502704 -7.047403 -0.776132 1341 0.604730 0.796430 0.000000
-7.502656 -7.047348 -0.772963 1355 0.604730 0.796430 0.000000
-7.501958 -7.046697 -0.769749 1337 0.604730 0.796430 0.000000
-7.502166 -7.046899 -0.766597 1343 0.604730 0.796430 0.000000
-7.502438 -7.047150 -0.763444 1349 0.604730 0.796430 0.000000
-7.502589 -7.047293 -0.760283 1353 0.604730 0.796430 0.000000
-7.502687 -7.047393 -0.757122 1347 0.604730 0.796430 0.000000
-7.502910 -7.047593 -0.753970 1351 0.604730 0.796430 0.000000
-7.502848 -7.047540 -0.750800 1355 0.604730 0.796430 0.000000
-7.502897 -7.047588 -0.747630 1345 0.604730 0.796430 0.000000
-7.503049 -7.047732 -0.744478 1343 0.604730 0.796430 0.000000
-7.502558 -7.047271 -0.741283 1339 0.604730 0.796430 0.000000
-7.502129 -7.046860 -0.738087 1327 0.604730 0.796430 0.000000
-7.502448 -7.047163 -0.734934 1345 0.604730 0.796430 0.000000
-7.502752 -7.047453 -0.731791 1357 0.604730 0.796430 0.000000
-7.503016 -7.047698 -0.728638 1363 0.604730 0.796430 0.000000
-7.502578 -7.047281 -0.725442 1347 0.604730 0.796430 0.000000
-7.501554 -7.046318 -0.722222 1313 0.604730 0.796430 0.000000
-7.501858 -7.046608 -0.719069 1325 0.604730 0.796430 0.000000
-7.502758 -7.047451 -0.715950 1337 0.604730 0.796430 0.000000
-7.502577 -7.047290 -0.712782 1333 0.604730 0.796430 0.000000
-7.502410 -7.047127 -0.709603 1335 0.604730 0.796430 0.000000
-7.502666 -7.047366 -0.706451 1339 0.604730 0.796430 0.000000
-7.502962 -7.047651 -0.703298 1341 0.604730 0.796430 0.000000
-7.503805 -7.048436 -0.700180 1355 0.604730 0.796430 0.000000
-7.504109 -7.048726 -0.697027 1353 0.604730 0.796430 0.000000
-7.503880 -7.048513 -0.693849 1351 0.604730 0.796430 0.000000
-7.503649 -7.048287 -0.690671 1353 0.604730 0.796430 0.000000
-7.502825 -7.047522 -0.687459 1341 0.604730 0.796430 0.000000
-7.501801 -7.046558 -0.684248 1325 0.604730 0.796430 0.000000
-7.501778 -7.046536 -0.681079 1333 0.604730 0.796430 0.000000
-7.502502 -7.047215 -0.677952 1345 0.604730 0.796430 0.000000
-7.503013 -7.047695 -0.674807 1359 0.604730 0.796430 0.000000
-7.502727 -7.047425 -0.671630 1353 0.604730 0.796430 0.000000
-7.502117 -7.046856 -0.668435 1339 0.604730 0.796430 0.000000
-7.501880 -7.046638 -0.665257 1327 0.604730 0.796430 0.000000
-7.502715 -7.047416 -0.662129 1331 0.604730 0.796430 0.000000
-7.503377 -7.048044 -0.659003 1345 0.604730 0.796430 0.000000
-7.503138 -7.047811 -0.655825 1345 0.604730 0.796430 0.000000
-7.502417 -7.047141 -0.652622 1339 0.604730 0.796430 0.000000
-7.502124 -7.046865 -0.649445 1349 0.604730 0.796430 0.000000
-7.502418 -7.047134 -0.646292 1333 0.604730 0.796430 0.000000
-7.502969 -7.047660 -0.643157 1341 0.604730 0.796430 0.000000
-7.503209 -7.047887 -0.640004 1349 0.604730 0.796430 0.000000
-7.502812 -7.047502 -0.636818 1337 0.604730 0.796430 0.000000
-7.502250 -7.046985 -0.633633 1335 0.604730 0.796430 0.000000
-7.502585 -7.047300 -0.630480 1347 0.604730 0.796430 0.000000
-7.502617 -7.047321 -0.627320 1335 0.604730 0.796430 0.000000
-7.502254 -7.046989 -0.624133 1329 0.604730 0.796430 0.000000
-7.501952 -7.046706 -0.620956 1323 0.604730 0.796430 0.000000
-7.501874 -7.046627 -0.617786 1323 0.604730 0.796430 0.000000
-7.502741 -7.047444 -0.614668 1329 0.604730 0.796430 0.000000
-7.502655 -7.047359 -0.611499 1329 0.604730 0.796430 0.000000
-7.501607 -7.046376 -0.608289 1333 0.604730 0.796430 0.000000
-7.501671 -7.046437 -0.605128 1325 0.604730 0.796430 0.000000
-7.501642 -7.046409 -0.601958 1327 0.604730 0.796430 0.000000
-7.501914 -7.046674 -0.598805 1333 0.604730 0.796430 0.000000
-7.502566 -7.047281 -0.595669 1323 0.604730 0.796430 0.000000
-7.502320 -7.047043 -0.592502 1325 0.604730 0.796430 0.000000
-7.503303 -7.043566 -0.975783 1315 0.604730 0.796430 0.000000
-7.503829 -7.044059 -0.972658 1327 0.604730 0.796430 0.000000
-7.503774 -7.043998 -0.969479 1323 0.604730 0.796430 0.000000
-7.503282 -7.043538 -0.966263 1317 0.604730 0.796430 0.000000
-7.504008 -7.044229 -0.963156 1319 0.604730 0.796430 0.000000
-7.504325 -7.044518 -0.960003 1335 0.604730 0.796430 0.000000
-7.503780 -7.044013 -0.956788 1323 0.604730 0.796430 0.000000
-7.503559 -7.043807 -0.953590 1321 0.604730 0.796430 0.000000
-7.503495 -7.043740 -0.950411 1323 0.604730 0.796430 0.000000
-7.503639 -7.043877 -0.947249 1333 0.604730 0.796430 0.000000
-7.503784 -7.044014 -0.944088 1331 0.604730 0.796430 0.000000
-7.504088 -7.044304 -0.940945 1335 0.604730 0.796430 0.000000
-7.504335 -7.044537 -0.937792 1329 0.604730 0.796430 0.000000
-7.504432 -7.044623 -0.934622 1329 0.604730 0.796430 0.000000
-7.504520 -7.044703 -0.931461 1337 0.604730 0.796430 0.000000
-7.504235 -7.044432 -0.928263 1335 0.604730 0.796430 0.000000
-7.503410 -7.043666 -0.925021 1321 0.604730 0.796430 0.000000
-7.503720 -7.043949 -0.921878 1329 0.604730 0.796430 0.000000
-7.503857 -7.044081 -0.918717 1323 0.604730 0.796430 0.000000
-7.504050 -7.044269 -0.915555 1323 0.604730 0.796430 0.000000
-7.504401 -7.044597 -0.912411 1341 0.604730 0.796430 0.000000
-7.504378 -7.044575 -0.909241 1335 0.604730 0.796430 0.000000
-7.504839 -7.045004 -0.906107 1333 0.604730 0.796430 0.000000
-7.504817 -7.044983 -0.902927 1343 0.604730 0.796430 0.000000
-7.504095 -7.044312 -0.899704 1335 0.604730 0.796430 0.000000
-7.504128 -7.044334 -0.896534 1333 0.604730 0.796430 0.000000
-7.503945 -7.044159 -0.893345 1317 0.604730 0.796430 0.000000
-7.503971 -7.044188 -0.890175 1331 0.604730 0.796430 0.000000
-7.504425 -7.044611 -0.887040 1341 0.604730 0.796430 0.000000
-7.504339 -7.044539 -0.883861 1345 0.604730 0.796430 0.000000
-7.504475 -7.044656 -0.880700 1333 0.604730 0.796430 0.000000
-7.504874 -7.045036 -0.877556 1337 0.604730 0.796430 0.000000
-7.504788 -7.044963 -0.874387 1343 0.604730 0.796430 0.000000
-7.504599 -7.044783 -0.871198 1331 0.604730 0.796430 0.000000
-7.504623 -7.044798 -0.868028 1329 0.604730 0.796430 0.000000
-7.504632 -7.044815 -0.864858 1333 0.604730 0.796430 0.000000
-7.504665 -7.044837 -0.861688 1341 0.604730 0.796430 0.000000
-7.504310 -7.044511 -0.858491 1339 0.604730 0.796430 0.000000
-7.504858 -7.045022 -0.855366 1343 0.604730 0.796430 0.000000
-7.505623 -7.045745 -0.852248 1357 0.604730 0.796430 0.000000
-7.505586 -7.045711 -0.849079 1347 0.604730 0.796430 0.000000
-7.505387 -7.045523 -0.845891 1357 0.604730 0.796430 0.000000
-7.504935 -7.045094 -0.842685 1349 0.604730 0.796430 0.000000
-7.504523 -7.044709 -0.839489 1347 0.604730 0.796430 0.000000
-7.503944 -7.044166 -0.836274 1323 0.604730 0.796430 0.000000
-7.504065 -7.044284 -0.833113 1317 0.604730 0.796430 0.000000
-7.504884 -7.045051 -0.830005 1341 0.604730 0.796430 0.000000
-7.505267 -7.045404 -0.826861 1349 0.604730 0.796430 0.000000
-7.504800 -7.044976 -0.823655 1341 0.604730 0.796430 0.000000
-7.504013 -7.044227 -0.820433 1333 0.604730 0.796430 0.000000
-7.504023 -7.044244 -0.817263 1333 0.604730 0.796430 0.000000
-7.504994 -7.045158 -0.814163 1349 0.604730 0.796430 0.000000
-7.504954 -7.045110 -0.810994 1355 0.604730 0.796430 0.000000
-7.504853 -7.045025 -0.807815 1357 0.604730 0.796430 0.000000
-7.505116 -7.045270 -0.804662 1349 0.604730 0.796430 0.000000
-7.505079 -7.045236 -0.801492 1343 0.604730 0.796430 0.000000
-7.504927 -7.045085 -0.798314 1329 0.604730 0.796430 0.000000
-7.505192 -7.045344 -0.795161 1321 0.604730 0.796430 0.000000
-7.505423 -7.045551 -0.792009 1335 0.604730 0.796430 0.000000
-7.505369 -7.045504 -0.788839 1351 0.604730 0.796430 0.000000
-7.504622 -7.044801 -0.785616 1347 0.604730 0.796430 0.000000
-7.504520 -7.044703 -0.782447 1345 0.604730 0.796430 0.000000
-7.504785 -7.044962 -0.779295 1341 0.604730 0.796430 0.000000
-7.504468 -7.044667 -0.776107 1351 0.604730 0.796430 0.000000
-7.504310 -7.044510 -0.772929 1349 0.604730 0.796430 0.000000
-7.504526 -7.044717 -0.769777 1341 0.604730 0.796430 0.000000
-7.504844 -7.045006 -0.766624 1347 0.604730 0.796430 0.000000
-7.505109 -7.045265 -0.763471 1339 0.604730 0.796430 0.000000
-7.505158 -7.045314 -0.760311 1341 0.604730 0.796430 0.000000
-7.505047 -7.045209 -0.757132 1347 0.604730 0.796430 0.000000
-7.505097 -7.045258 -0.753971 1349 0.604730 0.796430 0.000000
-7.505360 -7.045503 -0.750819 1339 0.604730 0.796430 0.000000
-7.505624 -7.045748 -0.747666 1337 0.604730 0.796430 0.000000
-7.505291 -7.045440 -0.744479 1331 0.604730 0.796430 0.000000
-7.504981 -7.045136 -0.741292 1333 0.604730 0.796430 0.000000
-7.505977 -7.046082 -0.738182 1339 0.604730 0.796430 0.000000
-7.506557 -7.046620 -0.735047 1351 0.604730 0.796430 0.000000
-7.505638 -7.045766 -0.731825 1339 0.604730 0.796430 0.000000
-7.504939 -7.045100 -0.728622 1329 0.604730 0.796430 0.000000
-7.504988 -7.045148 -0.725461 1351 0.604730 0.796430 0.000000
-7.505028 -7.045190 -0.722291 1331 0.604730 0.796430 0.000000
-7.505436 -7.045577 -0.719147 1331 0.604730 0.796430 0.000000
-7.505962 -7.046070 -0.716012 1347 0.604730 0.796430 0.000000
-7.505684 -7.045805 -0.712835 1339 0.604730 0.796430 0.000000
-7.504930 -7.045096 -0.709622 1329 0.604730 0.796430 0.000000
-7.505122 -7.045271 -0.706470 1335 0.604730 0.796430 0.000000
-7.505274 -7.045415 -0.703308 1339 0.604730 0.796430 0.000000
-7.504989 -7.045145 -0.700131 1341 0.604730 0.796430 0.000000
-7.505236 -7.045377 -0.696978 1325 0.604730 0.796430 0.000000
-7.505477 -7.045618 -0.693816 1331 0.604730 0.796430 0.000000
-7.505526 -7.045652 -0.690656 1353 0.604730 0.796430 0.000000
-7.505448 -7.045586 -0.687486 1339 0.604730 0.796430 0.000000
-7.504851 -7.045016 -0.684292 1327 0.604730 0.796430 0.000000
-7.504615 -7.044797 -0.681114 1319 0.604730 0.796430 0.000000
-7.505174 -7.045330 -0.677979 1345 0.604730 0.796430 0.000000
-7.505262 -7.045409 -0.674818 1357 0.604730 0.796430 0.000000
-7.505287 -7.045438 -0.671647 1345 0.604730 0.796430 0.000000
-7.504794 -7.044964 -0.668462 1343 0.604730 0.796430 0.000000
-7.504447 -7.044644 -0.665275 1329 0.604730 0.796430 0.000000
-7.505171 -7.045321 -0.662148 1349 0.604730 0.796430 0.000000
-7.505467 -7.045606 -0.658995 1351 0.604730 0.796430 0.000000
-7.505333 -7.045482 -0.655827 1347 0.604730 0.796430 0.000000
-7.505414 -7.045555 -0.652666 1347 0.604730 0.796430 0.000000
-7.505232 -7.045380 -0.649487 1357 0.604730 0.796430 0.000000
-7.504931 -7.045097 -0.646310 1335 0.604730 0.796430 0.000000
-7.505393 -7.045527 -0.643166 1339 0.604730 0.796430 0.000000
-7.505888 -7.045995 -0.640021 1351 0.604730 0.796430 0.000000
-7.505594 -7.045719 -0.636844 1339 0.604730 0.796430 0.000000
-7.504976 -7.045144 -0.633649 1333 0.604730 0.796430 0.000000
-7.505056 -7.045217 -0.630489 1327 0.604730 0.796430 0.000000
-7.505613 -7.045735 -0.627353 1331 0.604730 0.796430 0.000000
-7.505036 -7.045207 -0.624159 1319 0.604730 0.796430 0.000000
-7.504527 -7.044718 -0.620973 1317 0.604730 0.796430 0.000000
-7.505665 -7.045791 -0.617863 1339 0.604730 0.796430 0.000000
-7.505357 -7.045503 -0.614685 1327 0.604730 0.796430 0.000000
-7.504801 -7.044978 -0.611490 1325 0.604730 0.796430 0.000000
-7.504874 -7.045045 -0.608330 1325 0.604730 0.796430 0.000000
-7.505042 -7.045201 -0.605178 1325 0.604730 0.796430 0.000000
-7.505585 -7.045720 -0.602033 1327 0.604730 0.796430 0.000000
-7.505982 -7.046085 -0.598889 1341 0.604730 0.796430 0.000000
-7.505673 -7.045797 -0.595712 1335 0.604730 0.796430 0.000000
-7.505421 -7.045565 -0.592534 1331 0.604730 0.796430 0.000000
-7.506103 -7.041874 -0.975848 1327 0.604730 0.796430 0.000000
-7.506256 -7.042017 -0.972687 1327 0.604730 0.796430 0.000000
-7.505812 -7.041608 -0.969471 1321 0.604730 0.796430 0.000000
-7.505917 -7.041700 -0.966310 1319 0.604730 0.796430 0.000000
-7.505901 -7.041684 -0.963130 1331 0.604730 0.796430 0.000000
-7.505623 -7.041420 -0.959932 1343 0.604730 0.796430 0.000000
-7.505881 -7.041673 -0.956780 1327 0.604730 0.796430 0.000000
-7.505866 -7.041657 -0.953610 1325 0.604730 0.796430 0.000000
-7.505914 -7.041691 -0.950440 1331 0.604730 0.796430 0.000000
-7.506639 -7.042383 -0.947323 1333 0.604730 0.796430 0.000000
-7.507108 -7.042819 -0.944188 1345 0.604730 0.796430 0.000000
-7.506769 -7.042505 -0.940991 1331 0.604730 0.796430 0.000000
-7.506753 -7.042489 -0.937811 1327 0.604730 0.796430 0.000000
-7.506422 -7.042181 -0.934614 1321 0.604730 0.796430 0.000000
-7.505825 -7.041611 -0.931390 1329 0.604730 0.796430 0.000000
-7.505485 -7.041296 -0.928183 1317 0.604730 0.796430 0.000000
-7.505782 -7.041581 -0.925040 1319 0.604730 0.796430 0.000000
-7.506035 -7.041806 -0.921888 1319 0.604730 0.796430 0.000000
-7.506442 -7.042191 -0.918754 1321 0.604730 0.796430 0.000000
-7.506793 -7.042520 -0.915610 1323 0.604730 0.796430 0.000000
-7.506716 -7.042453 -0.912431 1323 0.604730 0.796430 0.000000
-7.507122 -7.042825 -0.909287 1333 0.604730 0.796430 0.000000
-7.507155 -7.042861 -0.906117 1331 0.604730 0.796430 0.000000
-7.506536 -7.042286 -0.902893 1327 0.604730 0.796430 0.000000
-7.506999 -7.042716 -0.899758 1329 0.604730 0.796430 0.000000
-7.507452 -7.043139 -0.896624 1333 0.604730 0.796430 0.000000
-7.506890 -7.042621 -0.893409 1321 0.604730 0.796430 0.000000
-7.506334 -7.042097 -0.890194 1317 0.604730 0.796430 0.000000
-7.506358 -7.042112 -0.887024 1321 0.604730 0.796430 0.000000
-7.506758 -7.042491 -0.883880 1333 0.604730 0.796430 0.000000
-7.506576 -7.042316 -0.880702 1339 0.604730 0.796430 0.000000
-7.506593 -7.042339 -0.877531 1349 0.604730 0.796430 0.000000
-7.507151 -7.042858 -0.874396 1337 0.604730 0.796430 0.000000
-7.507440 -7.043136 -0.871253 1341 0.604730 0.796430 0.000000
-7.506931 -7.042648 -0.868038 1331 0.604730 0.796430 0.000000
-7.506948 -7.042672 -0.864868 1339 0.604730 0.796430 0.000000
-7.506655 -7.042395 -0.861680 1335 0.604730 0.796430 0.000000
-7.506671 -7.042404 -0.858510 1335 0.604730 0.796430 0.000000
-7.507071 -7.042783 -0.855366 1337 0.604730 0.796430 0.000000
-7.507081 -7.042800 -0.852196 1333 0.604730 0.796430 0.000000
-7.507097 -7.042809 -0.849026 1337 0.604730 0.796430 0.000000
-7.506963 -7.042686 -0.845847 1329 0.604730 0.796430 0.000000
-7.506655 -7.042397 -0.842660 1325 0.604730 0.796430 0.000000
-7.506941 -7.042661 -0.839507 1347 0.604730 0.796430 0.000000
-7.506951 -7.042678 -0.836337 1335 0.604730 0.796430 0.000000
-7.507016 -7.042739 -0.833176 1341 0.604730 0.796430 0.000000
-7.507040 -7.042754 -0.830006 1337 0.604730 0.796430 0.000000
-7.507042 -7.042765 -0.826836 1343 0.604730 0.796430 0.000000
-7.506845 -7.042578 -0.823648 1343 0.604730 0.796430 0.000000
-7.507173 -7.042887 -0.820505 1347 0.604730 0.796430 0.000000
-7.507776 -7.043443 -0.817379 1335 0.604730 0.796430 0.000000
-7.507889 -7.043555 -0.814218 1343 0.604730 0.796430 0.000000
-7.507795 -7.043463 -0.811039 1353 0.604730 0.796430 0.000000
-7.507963 -7.043619 -0.807877 1353 0.604730 0.796430 0.000000
-7.507813 -7.043483 -0.804698 1341 0.604730 0.796430 0.000000
-7.507234 -7.042939 -0.801494 1335 0.604730 0.796430 0.000000
-7.507132 -7.042840 -0.798315 1337 0.604730 0.796430 0.000000
-7.507459 -7.043149 -0.795171 1337 0.604730 0.796430 0.000000
-7.507573 -7.043262 -0.792010 1335 0.604730 0.796430 0.000000
-7.507359 -7.043062 -0.788822 1335 0.604730 0.796430 0.000000
-7.507208 -7.042912 -0.785644 1335 0.604730 0.796430 0.000000
-7.507528 -7.043215 -0.782500 1335 0.604730 0.796430 0.000000
-7.507744 -7.043423 -0.779348 1337 0.604730 0.796430 0.000000
-7.507744 -7.043419 -0.776178 1343 0.604730 0.796430 0.000000
-7.507793 -7.043468 -0.773008 1355 0.604730 0.796430 0.000000
-7.507104 -7.042822 -0.769804 1333 0.604730 0.796430 0.000000
-7.506731 -7.042470 -0.766608 1341 0.604730 0.796430 0.000000
-7.506835 -7.042562 -0.763446 1337 0.604730 0.796430 0.000000
-7.507465 -7.043164 -0.760320 1351 0.604730 0.796430 0.000000
-7.507363 -7.043065 -0.757141 1343 0.604730 0.796430 0.000000
-7.507627 -7.043311 -0.753989 1343 0.604730 0.796430 0.000000
-7.507779 -7.043454 -0.750837 1335 0.604730 0.796430 0.000000
-7.507192 -7.042904 -0.747633 1339 0.604730 0.796430 0.000000
-7.506970 -7.042698 -0.744455 1341 0.604730 0.796430 0.000000
-7.507074 -7.042790 -0.741294 1331 0.604730 0.796430 0.000000
-7.507918 -7.043589 -0.738176 1325 0.604730 0.796430 0.000000
-7.507698 -7.043384 -0.734998 1323 0.604730 0.796430 0.000000
-7.507158 -7.042871 -0.731793 1331 0.604730 0.796430 0.000000
-7.507199 -7.042913 -0.728632 1331 0.604730 0.796430 0.000000
-7.507717 -7.043400 -0.725497 1343 0.604730 0.796430 0.000000
-7.508194 -7.043842 -0.722353 1327 0.604730 0.796430 0.000000
-7.508290 -7.043928 -0.719192 1329 0.604730 0.796430 0.000000
-7.508006 -7.043671 -0.716004 1337 0.604730 0.796430 0.000000
-7.507618 -7.043306 -0.712818 1327 0.604730 0.796430 0.000000
-7.507563 -7.043245 -0.709648 1331 0.604730 0.796430 0.000000
-7.507334 -7.043033 -0.706470 1329 0.604730 0.796430 0.000000
-7.507478 -7.043169 -0.703309 1341 0.604730 0.796430 0.000000
-7.507837 -7.043504 -0.700166 1349 0.604730 0.796430 0.000000
-7.508466 -7.044092 -0.697030 1345 0.604730 0.796430 0.000000
-7.508437 -7.044078 -0.693870 1363 0.604730 0.796430 0.000000
-7.507031 -7.042758 -0.690623 1339 0.604730 0.796430 0.000000
-7.506906 -7.042642 -0.687454 1337 0.604730 0.796430 0.000000
-7.507367 -7.043070 -0.684310 1341 0.604730 0.796430 0.000000
-7.508147 -7.043806 -0.681182 1339 0.604730 0.796430 0.000000
-7.508720 -7.044337 -0.678047 1345 0.604730 0.796430 0.000000
-7.508324 -7.043965 -0.674860 1353 0.604730 0.796430 0.000000
-7.507555 -7.043243 -0.671658 1339 0.604730 0.796430 0.000000
-7.506999 -7.042719 -0.668463 1331 0.604730 0.796430 0.000000
-7.507025 -7.042748 -0.665302 1331 0.604730 0.796430 0.000000
-7.507486 -7.043177 -0.662158 1345 0.604730 0.796430 0.000000
-7.507726 -7.043404 -0.659006 1343 0.604730 0.796430 0.000000
-7.507067 -7.042784 -0.655802 1319 0.604730 0.796430 0.000000
-7.507729 -7.043412 -0.652676 1327 0.604730 0.796430 0.000000
-7.508175 -7.043829 -0.649531 1335 0.604730 0.796430 0.000000
-7.507730 -7.043406 -0.646345 1331 0.604730 0.796430 0.000000
-7.508233 -7.043880 -0.643201 1339 0.604730 0.796430 0.000000
-7.507718 -7.043400 -0.640015 1333 0.604730 0.796430 0.000000
-7.507743 -7.043430 -0.636845 1341 0.604730 0.796430 0.000000
-7.507775 -7.043452 -0.633685 1323 0.604730 0.796430 0.000000
-7.507204 -7.042914 -0.630490 1321 0.604730 0.796430 0.000000
-7.507333 -7.043039 -0.627339 1325 0.604730 0.796430 0.000000
-7.507406 -7.043107 -0.624178 1323 0.604730 0.796430 0.000000
-7.507479 -7.043173 -0.621007 1325 0.604730 0.796430 0.000000
-7.507821 -7.043495 -0.617864 1331 0.604730 0.796430 0.000000
-7.507458 -7.043162 -0.614687 1329 0.604730 0.796430 0.000000
-7.507904 -7.043579 -0.611533 1339 0.604730 0.796430 0.000000
-7.508301 -7.043944 -0.608389 1327 0.604730 0.796430 0.000000
-7.508471 -7.044115 -0.605227 1341 0.604730 0.796430 0.000000
-7.508114 -7.043774 -0.602051 1337 0.604730 0.796430 0.000000
-7.508132 -7.043797 -0.598890 1347 0.604730 0.796430 0.000000
-7.507823 -7.043508 -0.595713 1329 0.604730 0.796430 0.000000
-7.507364 -7.043073 -0.592528 1323 0.604730 0.796430 0.000000
-7.508405 -7.039732 -0.975858 1315 0.604730 0.796430 0.000000
-7.508660 -7.039971 -0.972706 1313 0.604730 0.796430 0.000000
-7.508390 -7.039713 -0.969508 1323 0.604730 0.796430 0.000000
-7.508646 -7.039951 -0.966356 1315 0.604730 0.796430 0.000000
-7.509171 -7.040444 -0.963231 1317 0.604730 0.796430 0.000000
-7.508624 -7.039927 -0.960006 1327 0.604730 0.796430 0.000000
-7.508776 -7.040070 -0.956844 1337 0.604730 0.796430 0.000000
-7.508452 -7.039769 -0.953647 1333 0.604730 0.796430 0.000000
-7.507890 -7.039251 -0.950422 1325 0.604730 0.796430 0.000000
-7.508359 -7.039687 -0.947288 1325 0.604730 0.796430 0.000000
-7.508988 -7.040276 -0.944172 1331 0.604730 0.796430 0.000000
-7.508918 -7.040216 -0.940992 1331 0.604730 0.796430 0.000000
-7.508744 -7.040048 -0.937804 1327 0.604730 0.796430 0.000000
-7.508729 -7.040032 -0.934624 1315 0.604730 0.796430 0.000000
-7.508134 -7.039475 -0.931400 1313 0.604730 0.796430 0.000000
-7.508429 -7.039745 -0.928257 1319 0.604730 0.796430 0.000000
-7.509265 -7.040538 -0.925149 1325 0.604730 0.796430 0.000000
-7.509617 -7.040866 -0.922006 1329 0.604730 0.796430 0.000000
-7.509761 -7.041003 -0.918844 1331 0.604730 0.796430 0.000000
-7.509689 -7.040930 -0.915665 1337 0.604730 0.796430 0.000000
-7.509397 -7.040654 -0.912477 1335 0.604730 0.796430 0.000000
-7.509113 -7.040398 -0.909280 1335 0.604730 0.796430 0.000000
-7.508612 -7.039916 -0.906065 1319 0.604730 0.796430 0.000000
-7.508686 -7.039997 -0.902894 1317 0.604730 0.796430 0.000000
-7.509521 -7.040777 -0.899796 1329 0.604730 0.796430 0.000000
-7.509442 -7.040696 -0.896617 1323 0.604730 0.796430 0.000000
-7.508992 -7.040281 -0.893411 1321 0.604730 0.796430 0.000000
-7.509389 -7.040647 -0.890267 1319 0.604730 0.796430 0.000000
-7.509740 -7.040974 -0.887124 1329 0.604730 0.796430 0.000000
-7.509717 -7.040952 -0.883944 1335 0.604730 0.796430 0.000000
-7.509361 -7.040626 -0.880747 1331 0.604730 0.796430 0.000000
-7.509656 -7.040896 -0.877604 1343 0.604730 0.796430 0.000000
-7.509833 -7.041072 -0.874442 1335 0.604730 0.796430 0.000000
-7.509857 -7.041087 -0.871272 1337 0.604730 0.796430 0.000000
-7.509668 -7.040906 -0.868084 1329 0.604730 0.796430 0.000000
-7.509899 -7.041126 -0.864932 1341 0.604730 0.796430 0.000000
-7.510139 -7.041352 -0.861779 1329 0.604730 0.796430 0.000000
-7.509949 -7.041171 -0.858591 1331 0.604730 0.796430 0.000000
-7.509537 -7.040787 -0.855395 1327 0.604730 0.796430 0.000000
-7.509556 -7.040811 -0.852224 1345 0.604730 0.796430 0.000000
-7.509309 -7.040571 -0.849037 1339 0.604730 0.796430 0.000000
-7.509209 -7.040487 -0.845858 1333 0.604730 0.796430 0.000000
-7.509766 -7.041005 -0.842722 1341 0.604730 0.796430 0.000000
-7.509242 -7.040519 -0.839517 1331 0.604730 0.796430 0.000000
-7.508837 -7.040127 -0.836321 1325 0.604730 0.796430 0.000000
-7.509332 -7.040596 -0.833186 1345 0.604730 0.796430 0.000000
-7.509984 -7.041203 -0.830060 1355 0.604730 0.796430 0.000000
