301
-21.345415 -21.453960 -0.650197 1317 0.265426 0.964131 0.000000
-21.345819 -21.454374 -0.640912 1309 0.265426 0.964131 0.000000
-21.346062 -21.454607 -0.631620 1313 0.265426 0.964131 0.000000
-21.345472 -21.454016 -0.622305 1315 0.265426 0.964131 0.000000
-21.345909 -21.454468 -0.613021 1313 0.265426 0.964131 0.000000
-21.346098 -21.454655 -0.603729 1313 0.265426 0.964131 0.000000
-21.345400 -21.453959 -0.594415 1313 0.265426 0.964131 0.000000
-21.345011 -21.453562 -0.585109 1315 0.265426 0.964131 0.000000
-21.345186 -21.453737 -0.575807 1305 0.265426 0.964131 0.000000
-21.344957 -21.453505 -0.566509 1301 0.265426 0.964131 0.000000
-21.345232 -21.453779 -0.557216 1307 0.265426 0.964131 0.000000
-21.345299 -21.453850 -0.547925 1309 0.265426 0.964131 0.000000
-21.345100 -21.453659 -0.538617 1313 0.265426 0.964131 0.000000
-21.345375 -21.453934 -0.529334 1307 0.265426 0.964131 0.000000
-21.345224 -21.453779 -0.520035 1307 0.265426 0.964131 0.000000
-21.343996 -21.452549 -0.510707 1307 0.265426 0.964131 0.000000
-21.344009 -21.452560 -0.501407 1305 0.265426 0.964131 0.000000
-21.344683 -21.453243 -0.492130 1313 0.265426 0.964131 0.000000
-21.344687 -21.453247 -0.482830 1305 0.265426 0.964131 0.000000
-21.345200 -21.453764 -0.473544 1309 0.265426 0.964131 0.000000
-21.345503 -21.454065 -0.464261 1305 0.265426 0.964131 0.000000
-21.345400 -21.453966 -0.454962 1305 0.265426 0.964131 0.000000
-21.345598 -21.454163 -0.445670 1293 0.265426 0.964131 0.000000
-21.345177 -21.453741 -0.436364 1313 0.265426 0.964131 0.000000
-21.343981 -21.452547 -0.427045 1313 0.265426 0.964131 0.000000
-21.343613 -21.452171 -0.417739 1313 0.265426 0.964131 0.000000
-21.344158 -21.452730 -0.408463 1309 0.265426 0.964131 0.000000
-21.344408 -21.452971 -0.399170 1313 0.265426 0.964131 0.000000
-21.344128 -21.452692 -0.389873 1295 0.265426 0.964131 0.000000
-21.344471 -21.453039 -0.380579 1307 0.265426 0.964131 0.000000
-21.344498 -21.453064 -0.371289 1317 0.265426 0.964131 0.000000
-21.344364 -21.452938 -0.361990 1317 0.265426 0.964131 0.000000
-21.344908 -21.453484 -0.352704 1305 0.265426 0.964131 0.000000
-21.344982 -21.453558 -0.343413 1295 0.265426 0.964131 0.000000
-21.345316 -21.453899 -0.334120 1307 0.265426 0.964131 0.000000
-21.344772 -21.453346 -0.324815 1305 0.265426 0.964131 0.000000
-21.344584 -21.453161 -0.315516 1307 0.265426 0.964131 0.000000
-21.345051 -21.453640 -0.306232 1313 0.265426 0.964131 0.000000
-21.343422 -21.452000 -0.296917 1305 0.265426 0.964131 0.000000
-21.343122 -21.451694 -0.287620 1305 0.265426 0.964131 0.000000
-21.343390 -21.451963 -0.278327 1305 0.265426 0.964131 0.000000
-21.343542 -21.452120 -0.269036 1305 0.265426 0.964131 0.000000
-21.344223 -21.452810 -0.259749 1301 0.265426 0.964131 0.000000
-21.357803 -21.453821 -0.650390 1313 0.265426 0.964131 0.000000
-21.356699 -21.452723 -0.641051 1303 0.265426 0.964131 0.000000
-21.356123 -21.452139 -0.631736 1305 0.265426 0.964131 0.000000
-21.356146 -21.452171 -0.622436 1309 0.265426 0.964131 0.000000
-21.355499 -21.451519 -0.613122 1301 0.265426 0.964131 0.000000
-21.354757 -21.450781 -0.603799 1307 0.265426 0.964131 0.000000
-21.355249 -21.451279 -0.594514 1307 0.265426 0.964131 0.000000
-21.356661 -21.452698 -0.585250 1317 0.265426 0.964131 0.000000
-21.356434 -21.452465 -0.575952 1317 0.265426 0.964131 0.000000
-21.355415 -21.451452 -0.566622 1309 0.265426 0.964131 0.000000
-21.355371 -21.451418 -0.557322 1325 0.265426 0.964131 0.000000
-21.355492 -21.451534 -0.548030 1321 0.265426 0.964131 0.000000
-21.355612 -21.451666 -0.538729 1309 0.265426 0.964131 0.000000
-21.355370 -21.451420 -0.529431 1305 0.265426 0.964131 0.000000
-21.355013 -21.451063 -0.520124 1301 0.265426 0.964131 0.000000
-21.354662 -21.450712 -0.510818 1313 0.265426 0.964131 0.000000
-21.354767 -21.450830 -0.501516 1299 0.265426 0.964131 0.000000
-21.355541 -21.451612 -0.492238 1315 0.265426 0.964131 0.000000
-21.354820 -21.450893 -0.482925 1313 0.265426 0.964131 0.000000
-21.354717 -21.450781 -0.473626 1305 0.265426 0.964131 0.000000
-21.355070 -21.451147 -0.464332 1295 0.265426 0.964131 0.000000
-21.354965 -21.451048 -0.455033 1293 0.265426 0.964131 0.000000
-21.354702 -21.450783 -0.445735 1291 0.265426 0.964131 0.000000
-21.354073 -21.450157 -0.436421 1297 0.265426 0.964131 0.000000
-21.353954 -21.450045 -0.427122 1303 0.265426 0.964131 0.000000
-21.353790 -21.449877 -0.417824 1293 0.265426 0.964131 0.000000
-21.353361 -21.449450 -0.408518 1301 0.265426 0.964131 0.000000
-21.354792 -21.450895 -0.399253 1311 0.265426 0.964131 0.000000
-21.355907 -21.452019 -0.389972 1309 0.265426 0.964131 0.000000
-21.354692 -21.450802 -0.380654 1313 0.265426 0.964131 0.000000
-21.354774 -21.450884 -0.371363 1305 0.265426 0.964131 0.000000
-21.355366 -21.451481 -0.362077 1307 0.265426 0.964131 0.000000
-21.355083 -21.451204 -0.352769 1291 0.265426 0.964131 0.000000
-21.354794 -21.450920 -0.343472 1299 0.265426 0.964131 0.000000
-21.354597 -21.450727 -0.334174 1303 0.265426 0.964131 0.000000
-21.354471 -21.450592 -0.324875 1301 0.265426 0.964131 0.000000
-21.354391 -21.450512 -0.315575 1305 0.265426 0.964131 0.000000
-21.354565 -21.450689 -0.306283 1307 0.265426 0.964131 0.000000
-21.354670 -21.450808 -0.296982 1301 0.265426 0.964131 0.000000
-21.354883 -21.451029 -0.287690 1299 0.265426 0.964131 0.000000
-21.355047 -21.451197 -0.278398 1305 0.265426 0.964131 0.000000
-21.354429 -21.450579 -0.269094 1305 0.265426 0.964131 0.000000
-21.354130 -21.450275 -0.259796 1297 0.265426 0.964131 0.000000
-21.369295 -21.450323 -0.650516 1323 0.265426 0.964131 0.000000
-21.368242 -21.449270 -0.641176 1325 0.265426 0.964131 0.000000
-21.368078 -21.449104 -0.631877 1323 0.265426 0.964131 0.000000
-21.367796 -21.448828 -0.622560 1313 0.265426 0.964131 0.000000
-21.368349 -21.449377 -0.613274 1315 0.265426 0.964131 0.000000
-21.369354 -21.450380 -0.604004 1309 0.265426 0.964131 0.000000
-21.368811 -21.449841 -0.594689 1311 0.265426 0.964131 0.000000
-21.367498 -21.448524 -0.585352 1305 0.265426 0.964131 0.000000
-21.367262 -21.448284 -0.576044 1315 0.265426 0.964131 0.000000
-21.367590 -21.448618 -0.566750 1313 0.265426 0.964131 0.000000
-21.367203 -21.448223 -0.557434 1311 0.265426 0.964131 0.000000
-21.366898 -21.447926 -0.548127 1305 0.265426 0.964131 0.000000
-21.366501 -21.447521 -0.538820 1305 0.265426 0.964131 0.000000
-21.366358 -21.447388 -0.529522 1311 0.265426 0.964131 0.000000
-21.367195 -21.448223 -0.520233 1295 0.265426 0.964131 0.000000
-21.366991 -21.448025 -0.510935 1299 0.265426 0.964131 0.000000
-21.366787 -21.447826 -0.501627 1305 0.265426 0.964131 0.000000
-21.367270 -21.448303 -0.492342 1297 0.265426 0.964131 0.000000
-21.366896 -21.447933 -0.483035 1297 0.265426 0.964131 0.000000
-21.366697 -21.447727 -0.473727 1311 0.265426 0.964131 0.000000
-21.366850 -21.447884 -0.464435 1297 0.265426 0.964131 0.000000
-21.365967 -21.447002 -0.455114 1291 0.265426 0.964131 0.000000
-21.365501 -21.446539 -0.445808 1297 0.265426 0.964131 0.000000
-21.365906 -21.446938 -0.436514 1293 0.265426 0.964131 0.000000
-21.367235 -21.448273 -0.427240 1319 0.265426 0.964131 0.000000
-21.367323 -21.448362 -0.417939 1309 0.265426 0.964131 0.000000
-21.366642 -21.447678 -0.408636 1311 0.265426 0.964131 0.000000
-21.366360 -21.447399 -0.399328 1313 0.265426 0.964131 0.000000
-21.364702 -21.445734 -0.390004 1313 0.265426 0.964131 0.000000
-21.365614 -21.446648 -0.380715 1313 0.265426 0.964131 0.000000
-21.366766 -21.447817 -0.371444 1329 0.265426 0.964131 0.000000
-21.365707 -21.446754 -0.362124 1313 0.265426 0.964131 0.000000
-21.365988 -21.447035 -0.352831 1303 0.265426 0.964131 0.000000
-21.365976 -21.447014 -0.343531 1305 0.265426 0.964131 0.000000
-21.365728 -21.446777 -0.334233 1319 0.265426 0.964131 0.000000
-21.366316 -21.447361 -0.324937 1319 0.265426 0.964131 0.000000
-21.366955 -21.448009 -0.315651 1319 0.265426 0.964131 0.000000
-21.366302 -21.447350 -0.306347 1299 0.265426 0.964131 0.000000
-21.364920 -21.445961 -0.297030 1299 0.265426 0.964131 0.000000
-21.365194 -21.446236 -0.287737 1303 0.265426 0.964131 0.000000
-21.365404 -21.446457 -0.278445 1303 0.265426 0.964131 0.000000
-21.364853 -21.445896 -0.269140 1307 0.265426 0.964131 0.000000
-21.365368 -21.446415 -0.259845 1291 0.265426 0.964131 0.000000
-21.378588 -21.446016 -0.650595 1311 0.265426 0.964131 0.000000
-21.379084 -21.446520 -0.641300 1313 0.265426 0.964131 0.000000
-21.379272 -21.446709 -0.632008 1305 0.265426 0.964131 0.000000
-21.378485 -21.445919 -0.622676 1301 0.265426 0.964131 0.000000
-21.378458 -21.445898 -0.613376 1315 0.265426 0.964131 0.000000
-21.379057 -21.446503 -0.604090 1333 0.265426 0.964131 0.000000
-21.378311 -21.445749 -0.594767 1329 0.265426 0.964131 0.000000
-21.377968 -21.445406 -0.585450 1311 0.265426 0.964131 0.000000
-21.377058 -21.444498 -0.576128 1303 0.265426 0.964131 0.000000
-21.376352 -21.443790 -0.566805 1301 0.265426 0.964131 0.000000
-21.377773 -21.445215 -0.557541 1305 0.265426 0.964131 0.000000
-21.378410 -21.445852 -0.548255 1307 0.265426 0.964131 0.000000
-21.377806 -21.445248 -0.538940 1317 0.265426 0.964131 0.000000
-21.377346 -21.444792 -0.529625 1323 0.265426 0.964131 0.000000
-21.377302 -21.444742 -0.520325 1311 0.265426 0.964131 0.000000
-21.376900 -21.444347 -0.511009 1309 0.265426 0.964131 0.000000
-21.376858 -21.444300 -0.501709 1303 0.265426 0.964131 0.000000
-21.376961 -21.444403 -0.492407 1303 0.265426 0.964131 0.000000
-21.376303 -21.443735 -0.483094 1309 0.265426 0.964131 0.000000
-21.376915 -21.444366 -0.473807 1309 0.265426 0.964131 0.000000
-21.377945 -21.445391 -0.464527 1311 0.265426 0.964131 0.000000
-21.377951 -21.445396 -0.455227 1305 0.265426 0.964131 0.000000
-21.377829 -21.445284 -0.445928 1301 0.265426 0.964131 0.000000
-21.377617 -21.445063 -0.436620 1291 0.265426 0.964131 0.000000
-21.376991 -21.444437 -0.427306 1303 0.265426 0.964131 0.000000
-21.377388 -21.444845 -0.418011 1307 0.265426 0.964131 0.000000
-21.377584 -21.445040 -0.408719 1307 0.265426 0.964131 0.000000
-21.377512 -21.444967 -0.399410 1305 0.265426 0.964131 0.000000
-21.377138 -21.444595 -0.390103 1303 0.265426 0.964131 0.000000
-21.376488 -21.443935 -0.380789 1309 0.265426 0.964131 0.000000
-21.376268 -21.443726 -0.371491 1301 0.265426 0.964131 0.000000
-21.375732 -21.443178 -0.362186 1311 0.265426 0.964131 0.000000
-21.375191 -21.442635 -0.352871 1305 0.265426 0.964131 0.000000
-21.376188 -21.443647 -0.343591 1321 0.265426 0.964131 0.000000
-21.376524 -21.443974 -0.334298 1311 0.265426 0.964131 0.000000
-21.375664 -21.443125 -0.324986 1317 0.265426 0.964131 0.000000
-21.376352 -21.443808 -0.315699 1321 0.265426 0.964131 0.000000
-21.376413 -21.443871 -0.306398 1311 0.265426 0.964131 0.000000
-21.375761 -21.443211 -0.297084 1303 0.265426 0.964131 0.000000
-21.375866 -21.443329 -0.287793 1315 0.265426 0.964131 0.000000
-21.375771 -21.443237 -0.278494 1311 0.265426 0.964131 0.000000
-21.376102 -21.443560 -0.269190 1317 0.265426 0.964131 0.000000
-21.376471 -21.443928 -0.259897 1309 0.265426 0.964131 0.000000
-21.389290 -21.443398 -0.650720 1313 0.265426 0.964131 0.000000
-21.388502 -21.442608 -0.641387 1319 0.265426 0.964131 0.000000
-21.388180 -21.442284 -0.632080 1327 0.265426 0.964131 0.000000
-21.388155 -21.442261 -0.622770 1329 0.265426 0.964131 0.000000
-21.388760 -21.442858 -0.613484 1317 0.265426 0.964131 0.000000
-21.388887 -21.442995 -0.604183 1323 0.265426 0.964131 0.000000
-21.388042 -21.442144 -0.594851 1305 0.265426 0.964131 0.000000
-21.389048 -21.443148 -0.585581 1305 0.265426 0.964131 0.000000
-21.389376 -21.443481 -0.576277 1319 0.265426 0.964131 0.000000
-21.388357 -21.442469 -0.566947 1315 0.265426 0.964131 0.000000
-21.388531 -21.442646 -0.557655 1317 0.265426 0.964131 0.000000
-21.388350 -21.442453 -0.548347 1311 0.265426 0.964131 0.000000
-21.387836 -21.441950 -0.539021 1317 0.265426 0.964131 0.000000
-21.388002 -21.442106 -0.529730 1315 0.265426 0.964131 0.000000
-21.387915 -21.442020 -0.520420 1309 0.265426 0.964131 0.000000
-21.387932 -21.442038 -0.511120 1301 0.265426 0.964131 0.000000
-21.387674 -21.441778 -0.501812 1299 0.265426 0.964131 0.000000
-21.387619 -21.441732 -0.492502 1307 0.265426 0.964131 0.000000
-21.387514 -21.441631 -0.483203 1309 0.265426 0.964131 0.000000
-21.388042 -21.442163 -0.473908 1305 0.265426 0.964131 0.000000
-21.387938 -21.442049 -0.464599 1317 0.265426 0.964131 0.000000
-21.387512 -21.441633 -0.455292 1323 0.265426 0.964131 0.000000
-21.388548 -21.442663 -0.446012 1315 0.265426 0.964131 0.000000
-21.388382 -21.442499 -0.436704 1319 0.265426 0.964131 0.000000
-21.388062 -21.442188 -0.427396 1323 0.265426 0.964131 0.000000
-21.388468 -21.442587 -0.418102 1315 0.265426 0.964131 0.000000
-21.387823 -21.441946 -0.408788 1309 0.265426 0.964131 0.000000
-21.387814 -21.441940 -0.399488 1305 0.265426 0.964131 0.000000
-21.387686 -21.441807 -0.390179 1301 0.265426 0.964131 0.000000
-21.387413 -21.441534 -0.380872 1295 0.265426 0.964131 0.000000
-21.387287 -21.441414 -0.371573 1299 0.265426 0.964131 0.000000
-21.387165 -21.441288 -0.362264 1301 0.265426 0.964131 0.000000
-21.387341 -21.441463 -0.352972 1309 0.265426 0.964131 0.000000
-21.387932 -21.442062 -0.343676 1305 0.265426 0.964131 0.000000
-21.388365 -21.442499 -0.334381 1319 0.265426 0.964131 0.000000
-21.387245 -21.441374 -0.325062 1317 0.265426 0.964131 0.000000
-21.387001 -21.441130 -0.315754 1309 0.265426 0.964131 0.000000
-21.387276 -21.441404 -0.306461 1313 0.265426 0.964131 0.000000
-21.386681 -21.440804 -0.297147 1321 0.265426 0.964131 0.000000
-21.387260 -21.441393 -0.287861 1315 0.265426 0.964131 0.000000
-21.387627 -21.441759 -0.278557 1315 0.265426 0.964131 0.000000
-21.387167 -21.441305 -0.269251 1307 0.265426 0.964131 0.000000
-21.386856 -21.440989 -0.259954 1315 0.265426 0.964131 0.000000
-21.399460 -21.439970 -0.650821 1327 0.265426 0.964131 0.000000
-21.400003 -21.440514 -0.641535 1323 0.265426 0.964131 0.000000
-21.400711 -21.441223 -0.632248 1323 0.265426 0.964131 0.000000
-21.400745 -21.441269 -0.622948 1315 0.265426 0.964131 0.000000
-21.400265 -21.440781 -0.613622 1309 0.265426 0.964131 0.000000
-21.400030 -21.440554 -0.604304 1303 0.265426 0.964131 0.000000
-21.399441 -21.439960 -0.594990 1299 0.265426 0.964131 0.000000
-21.399059 -21.439571 -0.585673 1305 0.265426 0.964131 0.000000
-21.399231 -21.439747 -0.576371 1315 0.265426 0.964131 0.000000
-21.398836 -21.439358 -0.567055 1313 0.265426 0.964131 0.000000
-21.399319 -21.439837 -0.557760 1315 0.265426 0.964131 0.000000
-21.399235 -21.439754 -0.548451 1313 0.265426 0.964131 0.000000
-21.398680 -21.439201 -0.539136 1305 0.265426 0.964131 0.000000
-21.399252 -21.439770 -0.529840 1303 0.265426 0.964131 0.000000
-21.399063 -21.439585 -0.520532 1309 0.265426 0.964131 0.000000
-21.398296 -21.438814 -0.511209 1307 0.265426 0.964131 0.000000
-21.398046 -21.438562 -0.501901 1303 0.265426 0.964131 0.000000
-21.398205 -21.438725 -0.492599 1317 0.265426 0.964131 0.000000
-21.398663 -21.439184 -0.483305 1311 0.265426 0.964131 0.000000
-21.398306 -21.438828 -0.473988 1311 0.265426 0.964131 0.000000
-21.398657 -21.439180 -0.464694 1303 0.265426 0.964131 0.000000
-21.398445 -21.438976 -0.455386 1301 0.265426 0.964131 0.000000
-21.398396 -21.438921 -0.446076 1297 0.265426 0.964131 0.000000
-21.398031 -21.438559 -0.436770 1305 0.265426 0.964131 0.000000
-21.397348 -21.437874 -0.427446 1309 0.265426 0.964131 0.000000
-21.398823 -21.439358 -0.418171 1297 0.265426 0.964131 0.000000
-21.399744 -21.440277 -0.408892 1313 0.265426 0.964131 0.000000
-21.398123 -21.438656 -0.399558 1305 0.265426 0.964131 0.000000
-21.398420 -21.438951 -0.390255 1305 0.265426 0.964131 0.000000
-21.398916 -21.439457 -0.380960 1299 0.265426 0.964131 0.000000
-21.398335 -21.438868 -0.371645 1309 0.265426 0.964131 0.000000
-21.397839 -21.438368 -0.362340 1309 0.265426 0.964131 0.000000
-21.398281 -21.438812 -0.353035 1305 0.265426 0.964131 0.000000
-21.398302 -21.438845 -0.343735 1305 0.265426 0.964131 0.000000
-21.397596 -21.438141 -0.334421 1305 0.265426 0.964131 0.000000
-21.397608 -21.438150 -0.325121 1309 0.265426 0.964131 0.000000
-21.397335 -21.437866 -0.315814 1315 0.265426 0.964131 0.000000
-21.397030 -21.437569 -0.306506 1307 0.265426 0.964131 0.000000
-21.398022 -21.438560 -0.297216 1305 0.265426 0.964131 0.000000
-21.397985 -21.438530 -0.287916 1295 0.265426 0.964131 0.000000
-21.397221 -21.437761 -0.278604 1309 0.265426 0.964131 0.000000
-21.397133 -21.437674 -0.269294 1309 0.265426 0.964131 0.000000
-21.397806 -21.438343 -0.260008 1313 0.265426 0.964131 0.000000
-21.410057 -21.436722 -0.650939 1321 0.265426 0.964131 0.000000
-21.409529 -21.436195 -0.641614 1317 0.265426 0.964131 0.000000
-21.409618 -21.436283 -0.632313 1317 0.265426 0.964131 0.000000
-21.410061 -21.436716 -0.623018 1315 0.265426 0.964131 0.000000
-21.409781 -21.436440 -0.613701 1311 0.265426 0.964131 0.000000
-21.409761 -21.436424 -0.604391 1311 0.265426 0.964131 0.000000
-21.409994 -21.436651 -0.595088 1313 0.265426 0.964131 0.000000
-21.409969 -21.436630 -0.585778 1311 0.265426 0.964131 0.000000
-21.408749 -21.435406 -0.576440 1309 0.265426 0.964131 0.000000
-21.409330 -21.435997 -0.567154 1315 0.265426 0.964131 0.000000
-21.410383 -21.437054 -0.557874 1307 0.265426 0.964131 0.000000
-21.410202 -21.436859 -0.548555 1305 0.265426 0.964131 0.000000
-21.409689 -21.436359 -0.539240 1303 0.265426 0.964131 0.000000
-21.409964 -21.436634 -0.529937 1315 0.265426 0.964131 0.000000
-21.409252 -21.435923 -0.520614 1317 0.265426 0.964131 0.000000
-21.409101 -21.435770 -0.511305 1309 0.265426 0.964131 0.000000
-21.409220 -21.435884 -0.502004 1309 0.265426 0.964131 0.000000
-21.408655 -21.435328 -0.492679 1309 0.265426 0.964131 0.000000
-21.409637 -21.436312 -0.483399 1309 0.265426 0.964131 0.000000
-21.409693 -21.436359 -0.474088 1309 0.265426 0.964131 0.000000
-21.408390 -21.435064 -0.464761 1299 0.265426 0.964131 0.000000
-21.407614 -21.434286 -0.455438 1291 0.265426 0.964131 0.000000
-21.408382 -21.435062 -0.446150 1311 0.265426 0.964131 0.000000
-21.408672 -21.435349 -0.436847 1299 0.265426 0.964131 0.000000
-21.408306 -21.434986 -0.427531 1311 0.265426 0.964131 0.000000
-21.407948 -21.434616 -0.418224 1313 0.265426 0.964131 0.000000
-21.408083 -21.434759 -0.408923 1307 0.265426 0.964131 0.000000
-21.408485 -21.435156 -0.399618 1305 0.265426 0.964131 0.000000
-21.409130 -21.435814 -0.390332 1305 0.265426 0.964131 0.000000
-21.409836 -21.436508 -0.381035 1307 0.265426 0.964131 0.000000
-21.409239 -21.435923 -0.371720 1313 0.265426 0.964131 0.000000
-21.408396 -21.435072 -0.362398 1303 0.265426 0.964131 0.000000
-21.408213 -21.434893 -0.353090 1297 0.265426 0.964131 0.000000
-21.408342 -21.435017 -0.343789 1317 0.265426 0.964131 0.000000
-21.408209 -21.434891 -0.334480 1311 0.265426 0.964131 0.000000
-21.408688 -21.435369 -0.325185 1315 0.265426 0.964131 0.000000
-21.408962 -21.435642 -0.315882 1311 0.265426 0.964131 0.000000
-21.409290 -21.435976 -0.306588 1311 0.265426 0.964131 0.000000
-21.408884 -21.435566 -0.297272 1305 0.265426 0.964131 0.000000
-21.408846 -21.435534 -0.287972 1311 0.265426 0.964131 0.000000
-21.408909 -21.435602 -0.278671 1321 0.265426 0.964131 0.000000
-21.408552 -21.435247 -0.269355 1295 0.265426 0.964131 0.000000
-21.408363 -21.435047 -0.260056 1299 0.265426 0.964131 0.000000
