776
-7.589665 -7.002835 -0.428132 1041 0.458372 0.888760 0.000000
-7.589174 -7.002373 -0.424927 1039 0.458372 0.888760 0.000000
-7.589105 -7.002314 -0.421747 1035 0.458372 0.888760 0.000000
-7.588551 -7.001802 -0.418543 1045 0.458372 0.888760 0.000000
-7.588425 -7.001685 -0.415364 1041 0.458372 0.888760 0.000000
-7.589647 -7.002814 -0.412252 1059 0.458372 0.888760 0.000000
-7.590321 -7.003441 -0.409106 1053 0.458372 0.888760 0.000000
-7.590734 -7.003820 -0.405952 1059 0.458372 0.888760 0.000000
-7.590077 -7.003212 -0.402748 1063 0.458372 0.888760 0.000000
-7.589295 -7.002492 -0.399525 1049 0.458372 0.888760 0.000000
-7.589604 -7.002775 -0.396372 1037 0.458372 0.888760 0.000000
-7.590271 -7.003395 -0.393226 1039 0.458372 0.888760 0.000000
-7.590035 -7.003177 -0.390038 1043 0.458372 0.888760 0.000000
-7.589537 -7.002709 -0.386843 1033 0.458372 0.888760 0.000000
-7.589403 -7.002585 -0.383654 1029 0.458372 0.888760 0.000000
-7.588890 -7.002119 -0.380458 1033 0.458372 0.888760 0.000000
-7.588978 -7.002199 -0.377288 1035 0.458372 0.888760 0.000000
-7.589549 -7.002717 -0.374142 1037 0.458372 0.888760 0.000000
-7.589891 -7.003038 -0.370979 1045 0.458372 0.888760 0.000000
-7.589806 -7.002966 -0.367800 1041 0.458372 0.888760 0.000000
-7.589410 -7.002594 -0.364603 1023 0.458372 0.888760 0.000000
-7.588944 -7.002165 -0.361408 991 0.458372 0.888760 0.000000
-7.588549 -7.001793 -0.358221 981 0.458372 0.888760 0.000000
-7.588194 -7.001467 -0.355024 979 0.458372 0.888760 0.000000
-7.588909 -7.002139 -0.351888 985 0.458372 0.888760 0.000000
-7.589409 -7.002600 -0.348733 987 0.458372 0.888760 0.000000
-7.589917 -7.003068 -0.345578 1003 0.458372 0.888760 0.000000
-7.589513 -7.002689 -0.342392 989 0.458372 0.888760 0.000000
-7.589047 -7.002260 -0.339196 993 0.458372 0.888760 0.000000
-7.589713 -7.002867 -0.336050 1009 0.458372 0.888760 0.000000
-7.589896 -7.003036 -0.332878 1001 0.458372 0.888760 0.000000
-7.589969 -7.003103 -0.329707 1003 0.458372 0.888760 0.000000
-7.589868 -7.003019 -0.326528 995 0.458372 0.888760 0.000000
-7.589670 -7.002831 -0.323350 1001 0.458372 0.888760 0.000000
-7.589799 -7.002955 -0.320179 999 0.458372 0.888760 0.000000
-7.589918 -7.003060 -0.317007 989 0.458372 0.888760 0.000000
-7.589659 -7.002823 -0.313830 985 0.458372 0.888760 0.000000
-7.589468 -7.002641 -0.310642 981 0.458372 0.888760 0.000000
-7.591360 -6.999954 -0.701625 1029 0.458372 0.888760 0.000000
-7.591836 -7.000396 -0.698481 1027 0.458372 0.888760 0.000000
-7.591504 -7.000088 -0.695264 1027 0.458372 0.888760 0.000000
-7.591021 -6.999632 -0.692038 1017 0.458372 0.888760 0.000000
-7.591276 -6.999872 -0.688876 1033 0.458372 0.888760 0.000000
-7.591207 -6.999813 -0.685686 1029 0.458372 0.888760 0.000000
-7.591040 -6.999650 -0.682488 1021 0.458372 0.888760 0.000000
-7.590924 -6.999552 -0.679289 1027 0.458372 0.888760 0.000000
-7.591882 -7.000433 -0.676190 1025 0.458372 0.888760 0.000000
-7.593261 -7.001701 -0.673127 1021 0.458372 0.888760 0.000000
-7.592875 -7.001349 -0.669910 1021 0.458372 0.888760 0.000000
-7.591624 -7.000188 -0.666612 1023 0.458372 0.888760 0.000000
-7.591506 -7.000078 -0.663423 1025 0.458372 0.888760 0.000000
-7.591539 -7.000113 -0.660242 1007 0.458372 0.888760 0.000000
-7.592333 -7.000848 -0.657125 1013 0.458372 0.888760 0.000000
-7.593125 -7.001569 -0.654008 1025 0.458372 0.888760 0.000000
-7.592834 -7.001306 -0.650800 1041 0.458372 0.888760 0.000000
-7.591860 -7.000407 -0.647529 1007 0.458372 0.888760 0.000000
-7.592211 -7.000735 -0.644376 1015 0.458372 0.888760 0.000000
-7.592678 -7.001157 -0.641231 1033 0.458372 0.888760 0.000000
-7.591959 -7.000500 -0.637988 1025 0.458372 0.888760 0.000000
-7.592096 -7.000631 -0.634817 1017 0.458372 0.888760 0.000000
-7.592777 -7.001251 -0.631690 1039 0.458372 0.888760 0.000000
-7.591408 -6.999996 -0.628393 1019 0.458372 0.888760 0.000000
-7.591061 -6.999675 -0.625186 1007 0.458372 0.888760 0.000000
-7.591734 -7.000288 -0.622060 1019 0.458372 0.888760 0.000000
-7.591657 -7.000222 -0.618870 1039 0.458372 0.888760 0.000000
-7.592070 -7.000601 -0.615716 1045 0.458372 0.888760 0.000000
-7.592364 -7.000872 -0.612564 1037 0.458372 0.888760 0.000000
-7.592120 -7.000647 -0.609356 1037 0.458372 0.888760 0.000000
-7.591716 -7.000268 -0.606150 1043 0.458372 0.888760 0.000000
-7.591804 -7.000347 -0.602969 1037 0.458372 0.888760 0.000000
-7.591608 -7.000173 -0.599770 1035 0.458372 0.888760 0.000000
-7.591791 -7.000342 -0.596609 1043 0.458372 0.888760 0.000000
-7.592561 -7.001059 -0.593481 1047 0.458372 0.888760 0.000000
-7.592426 -7.000921 -0.590293 1029 0.458372 0.888760 0.000000
-7.592666 -7.001147 -0.587130 1019 0.458372 0.888760 0.000000
-7.592367 -7.000879 -0.583923 1021 0.458372 0.888760 0.000000
-7.592017 -7.000543 -0.580716 1043 0.458372 0.888760 0.000000
-7.592139 -7.000663 -0.577545 1063 0.458372 0.888760 0.000000
-7.591887 -7.000431 -0.574347 1037 0.458372 0.888760 0.000000
-7.591586 -7.000147 -0.571140 1031 0.458372 0.888760 0.000000
-7.590906 -6.999522 -0.567916 1021 0.458372 0.888760 0.000000
-7.591192 -6.999786 -0.564753 1027 0.458372 0.888760 0.000000
-7.591478 -7.000050 -0.561591 1025 0.458372 0.888760 0.000000
-7.592295 -7.000804 -0.558473 1027 0.458372 0.888760 0.000000
-7.592852 -7.001323 -0.555338 1023 0.458372 0.888760 0.000000
-7.592115 -7.000639 -0.552105 1023 0.458372 0.888760 0.000000
-7.591104 -6.999709 -0.548854 1013 0.458372 0.888760 0.000000
-7.590851 -6.999477 -0.545656 1027 0.458372 0.888760 0.000000
-7.591344 -6.999932 -0.542511 1043 0.458372 0.888760 0.000000
-7.591414 -6.999985 -0.539331 1025 0.458372 0.888760 0.000000
-7.591955 -7.000492 -0.536186 1019 0.458372 0.888760 0.000000
-7.592288 -7.000794 -0.533033 1037 0.458372 0.888760 0.000000
-7.592678 -7.001153 -0.529879 1033 0.458372 0.888760 0.000000
-7.593535 -7.001953 -0.526761 1023 0.458372 0.888760 0.000000
-7.592957 -7.001408 -0.523536 1039 0.458372 0.888760 0.000000
-7.592744 -7.001222 -0.520348 1049 0.458372 0.888760 0.000000
-7.592810 -7.001283 -0.517167 1049 0.458372 0.888760 0.000000
-7.592556 -7.001038 -0.513970 1065 0.458372 0.888760 0.000000
-7.592336 -7.000844 -0.510782 1051 0.458372 0.888760 0.000000
-7.592345 -7.000848 -0.507601 1047 0.458372 0.888760 0.000000
-7.592132 -7.000647 -0.504413 1045 0.458372 0.888760 0.000000
-7.591539 -7.000104 -0.501199 1025 0.458372 0.888760 0.000000
-7.591650 -7.000203 -0.498028 1029 0.458372 0.888760 0.000000
-7.591818 -7.000359 -0.494856 1047 0.458372 0.888760 0.000000
-7.591764 -7.000312 -0.491676 1041 0.458372 0.888760 0.000000
-7.591924 -7.000463 -0.488505 1037 0.458372 0.888760 0.000000
-7.591973 -7.000511 -0.485334 1043 0.458372 0.888760 0.000000
-7.592085 -7.000609 -0.482163 1037 0.458372 0.888760 0.000000
-7.592450 -7.000950 -0.479000 1031 0.458372 0.888760 0.000000
-7.592720 -7.001188 -0.475837 1041 0.458372 0.888760 0.000000
-7.592563 -7.001045 -0.472659 1027 0.458372 0.888760 0.000000
-7.592715 -7.001189 -0.469487 1035 0.458372 0.888760 0.000000
-7.592708 -7.001179 -0.466307 1013 0.458372 0.888760 0.000000
-7.592867 -7.001329 -0.463136 1037 0.458372 0.888760 0.000000
-7.592695 -7.001175 -0.459947 1049 0.458372 0.888760 0.000000
-7.592039 -7.000568 -0.456733 1039 0.458372 0.888760 0.000000
-7.592205 -7.000710 -0.453572 1031 0.458372 0.888760 0.000000
-7.592508 -7.001001 -0.450409 1053 0.458372 0.888760 0.000000
-7.592288 -7.000794 -0.447221 1025 0.458372 0.888760 0.000000
-7.592756 -7.001230 -0.444066 1035 0.458372 0.888760 0.000000
-7.592424 -7.000922 -0.440869 1037 0.458372 0.888760 0.000000
-7.592258 -7.000760 -0.437681 1029 0.458372 0.888760 0.000000
-7.592299 -7.000802 -0.434510 1023 0.458372 0.888760 0.000000
-7.592608 -7.001084 -0.431347 1035 0.458372 0.888760 0.000000
-7.592484 -7.000967 -0.428168 1039 0.458372 0.888760 0.000000
-7.591986 -7.000514 -0.424963 1037 0.458372 0.888760 0.000000
-7.592399 -7.000892 -0.421809 1033 0.458372 0.888760 0.000000
-7.592067 -7.000584 -0.418612 1041 0.458372 0.888760 0.000000
-7.591624 -7.000174 -0.415416 1041 0.458372 0.888760 0.000000
-7.592085 -7.000604 -0.412262 1031 0.458372 0.888760 0.000000
-7.591960 -7.000487 -0.409083 1043 0.458372 0.888760 0.000000
-7.592364 -7.000858 -0.405929 1045 0.458372 0.888760 0.000000
-7.592453 -7.000938 -0.402758 1051 0.458372 0.888760 0.000000
-7.591893 -7.000435 -0.399553 1043 0.458372 0.888760 0.000000
-7.591394 -6.999967 -0.396348 1017 0.458372 0.888760 0.000000
-7.592282 -7.000791 -0.393219 1035 0.458372 0.888760 0.000000
-7.592909 -7.001367 -0.390073 1029 0.458372 0.888760 0.000000
-7.592292 -7.000791 -0.386869 1011 0.458372 0.888760 0.000000
-7.592539 -7.001024 -0.383707 1035 0.458372 0.888760 0.000000
-7.592890 -7.001352 -0.380543 1033 0.458372 0.888760 0.000000
-7.592811 -7.001272 -0.377364 1035 0.458372 0.888760 0.000000
-7.593058 -7.001505 -0.374202 1019 0.458372 0.888760 0.000000
-7.592868 -7.001324 -0.371013 1025 0.458372 0.888760 0.000000
-7.592569 -7.001055 -0.367826 1015 0.458372 0.888760 0.000000
-7.593402 -7.001821 -0.364688 1015 0.458372 0.888760 0.000000
-7.593379 -7.001799 -0.361508 1017 0.458372 0.888760 0.000000
-7.592216 -7.000721 -0.358289 1003 0.458372 0.888760 0.000000
-7.592502 -7.000986 -0.355127 1015 0.458372 0.888760 0.000000
-7.592527 -7.001015 -0.351946 1021 0.458372 0.888760 0.000000
-7.592227 -7.000732 -0.348759 1001 0.458372 0.888760 0.000000
-7.592307 -7.000805 -0.345588 991 0.458372 0.888760 0.000000
-7.591944 -7.000473 -0.342401 995 0.458372 0.888760 0.000000
-7.593102 -7.001537 -0.339271 1005 0.458372 0.888760 0.000000
-7.593546 -7.001955 -0.336116 1019 0.458372 0.888760 0.000000
-7.592058 -7.000578 -0.332880 999 0.458372 0.888760 0.000000
-7.592021 -7.000544 -0.329700 983 0.458372 0.888760 0.000000
-7.592693 -7.001157 -0.326554 973 0.458372 0.888760 0.000000
-7.592917 -7.001371 -0.323392 997 0.458372 0.888760 0.000000
-7.593369 -7.001781 -0.320238 1001 0.458372 0.888760 0.000000
-7.593482 -7.001893 -0.317067 1001 0.458372 0.888760 0.000000
-7.593016 -7.001465 -0.313871 1011 0.458372 0.888760 0.000000
-7.592321 -7.000826 -0.310667 995 0.458372 0.888760 0.000000
-7.595127 -6.998886 -0.701763 1037 0.458372 0.888760 0.000000
-7.595174 -6.998920 -0.698582 1011 0.458372 0.888760 0.000000
-7.595596 -6.999318 -0.695428 1017 0.458372 0.888760 0.000000
-7.595533 -6.999251 -0.692239 1043 0.458372 0.888760 0.000000
-7.594884 -6.998650 -0.688995 1039 0.458372 0.888760 0.000000
-7.594498 -6.998299 -0.685778 1021 0.458372 0.888760 0.000000
-7.594387 -6.998193 -0.682579 1021 0.458372 0.888760 0.000000
-7.593883 -6.997733 -0.679354 1011 0.458372 0.888760 0.000000
-7.594311 -6.998124 -0.676210 1029 0.458372 0.888760 0.000000
-7.594455 -6.998262 -0.673038 1019 0.458372 0.888760 0.000000
-7.594757 -6.998538 -0.669875 1017 0.458372 0.888760 0.000000
-7.595288 -6.999025 -0.666740 1029 0.458372 0.888760 0.000000
-7.595163 -6.998908 -0.663541 1005 0.458372 0.888760 0.000000
-7.595259 -6.998993 -0.660360 1015 0.458372 0.888760 0.000000
-7.594975 -6.998736 -0.657153 1019 0.458372 0.888760 0.000000
-7.595112 -6.998868 -0.653982 1009 0.458372 0.888760 0.000000
-7.595421 -6.999151 -0.650829 1027 0.458372 0.888760 0.000000
-7.595143 -6.998886 -0.647621 1031 0.458372 0.888760 0.000000
-7.594798 -6.998580 -0.644404 1027 0.458372 0.888760 0.000000
-7.595044 -6.998798 -0.641242 1029 0.458372 0.888760 0.000000
-7.595180 -6.998930 -0.638071 1021 0.458372 0.888760 0.000000
-7.595323 -6.999053 -0.634899 1025 0.458372 0.888760 0.000000
-7.595364 -6.999095 -0.631719 1023 0.458372 0.888760 0.000000
-7.594692 -6.998476 -0.628485 1003 0.458372 0.888760 0.000000
-7.594290 -6.998111 -0.625269 1011 0.458372 0.888760 0.000000
-7.595241 -6.998985 -0.622160 1025 0.458372 0.888760 0.000000
-7.596342 -6.999993 -0.619060 1043 0.458372 0.888760 0.000000
-7.596422 -7.000066 -0.615889 1043 0.458372 0.888760 0.000000
-7.595647 -6.999351 -0.612646 1029 0.458372 0.888760 0.000000
-7.595299 -6.999031 -0.609429 1025 0.458372 0.888760 0.000000
-7.595111 -6.998863 -0.606241 1033 0.458372 0.888760 0.000000
-7.594431 -6.998237 -0.603007 1033 0.458372 0.888760 0.000000
-7.594360 -6.998163 -0.599817 1041 0.458372 0.888760 0.000000
-7.594054 -6.997888 -0.596610 1041 0.458372 0.888760 0.000000
-7.594024 -6.997860 -0.593430 1041 0.458372 0.888760 0.000000
-7.594428 -6.998232 -0.590277 1043 0.458372 0.888760 0.000000
-7.594983 -6.998737 -0.587131 1027 0.458372 0.888760 0.000000
-7.595650 -6.999358 -0.584005 1021 0.458372 0.888760 0.000000
-7.594970 -6.998732 -0.580771 1013 0.458372 0.888760 0.000000
-7.594566 -6.998353 -0.577565 1041 0.458372 0.888760 0.000000
-7.594695 -6.998478 -0.574384 1033 0.458372 0.888760 0.000000
-7.594759 -6.998539 -0.571213 1023 0.458372 0.888760 0.000000
-7.594673 -6.998454 -0.568024 1025 0.458372 0.888760 0.000000
-7.594689 -6.998463 -0.564844 1019 0.458372 0.888760 0.000000
-7.594975 -6.998726 -0.561681 1015 0.458372 0.888760 0.000000
-7.595800 -6.999487 -0.558563 1005 0.458372 0.888760 0.000000
-7.595865 -6.999548 -0.555393 1019 0.458372 0.888760 0.000000
-7.594695 -6.998477 -0.552123 1011 0.458372 0.888760 0.000000
-7.595464 -6.999180 -0.548996 1013 0.458372 0.888760 0.000000
-7.596123 -6.999795 -0.545860 1041 0.458372 0.888760 0.000000
-7.595006 -6.998755 -0.542610 1037 0.458372 0.888760 0.000000
-7.594856 -6.998618 -0.539411 1021 0.458372 0.888760 0.000000
-7.595451 -6.999168 -0.536276 1017 0.458372 0.888760 0.000000
-7.595565 -6.999281 -0.533105 1021 0.458372 0.888760 0.000000
-7.595154 -6.998896 -0.529898 1025 0.458372 0.888760 0.000000
-7.595590 -6.999293 -0.526744 1029 0.458372 0.888760 0.000000
-7.596406 -7.000047 -0.523617 1029 0.458372 0.888760 0.000000
-7.596472 -7.000108 -0.520446 1033 0.458372 0.888760 0.000000
-7.595839 -6.999520 -0.517222 1037 0.458372 0.888760 0.000000
-7.595294 -6.999028 -0.514007 1035 0.458372 0.888760 0.000000
-7.595682 -6.999374 -0.510853 1021 0.458372 0.888760 0.000000
-7.596064 -6.999728 -0.507699 1037 0.458372 0.888760 0.000000
-7.595360 -6.999083 -0.504476 1037 0.458372 0.888760 0.000000
-7.595212 -6.998947 -0.501287 1039 0.458372 0.888760 0.000000
-7.595585 -6.999294 -0.498134 1041 0.458372 0.888760 0.000000
-7.595688 -6.999386 -0.494963 1047 0.458372 0.888760 0.000000
-7.595421 -6.999142 -0.491765 1031 0.458372 0.888760 0.000000
-7.595692 -6.999393 -0.488602 1007 0.458372 0.888760 0.000000
-7.596016 -6.999689 -0.485439 1029 0.458372 0.888760 0.000000
-7.595417 -6.999140 -0.482225 1023 0.458372 0.888760 0.000000
-7.595417 -6.999137 -0.479045 1025 0.458372 0.888760 0.000000
-7.595030 -6.998785 -0.475848 1003 0.458372 0.888760 0.000000
-7.595253 -6.998985 -0.472686 1019 0.458372 0.888760 0.000000
-7.595302 -6.999033 -0.469506 1017 0.458372 0.888760 0.000000
-7.594646 -6.998426 -0.466292 1011 0.458372 0.888760 0.000000
-7.594695 -6.998475 -0.463111 1007 0.458372 0.888760 0.000000
-7.595447 -6.999165 -0.459984 1023 0.458372 0.888760 0.000000
-7.596026 -6.999702 -0.456839 1033 0.458372 0.888760 0.000000
-7.596186 -6.999839 -0.453667 1031 0.458372 0.888760 0.000000
-7.596075 -6.999733 -0.450488 1049 0.458372 0.888760 0.000000
-7.594985 -6.998740 -0.447248 1029 0.458372 0.888760 0.000000
-7.594700 -6.998470 -0.444051 1023 0.458372 0.888760 0.000000
-7.595120 -6.998854 -0.440897 1021 0.458372 0.888760 0.000000
-7.594837 -6.998598 -0.437709 1029 0.458372 0.888760 0.000000
-7.595472 -6.999179 -0.434563 1037 0.458372 0.888760 0.000000
-7.596210 -6.999871 -0.431426 1029 0.458372 0.888760 0.000000
-7.596306 -6.999957 -0.428255 1041 0.458372 0.888760 0.000000
-7.595974 -6.999648 -0.425058 1043 0.458372 0.888760 0.000000
-7.594826 -6.998583 -0.421819 1009 0.458372 0.888760 0.000000
-7.595612 -6.999312 -0.418682 1025 0.458372 0.888760 0.000000
-7.596571 -7.000192 -0.415563 1043 0.458372 0.888760 0.000000
-7.595528 -6.999237 -0.412322 1025 0.458372 0.888760 0.000000
-7.596100 -6.999768 -0.409177 1031 0.458372 0.888760 0.000000
-7.596726 -7.000343 -0.406031 1037 0.458372 0.888760 0.000000
-7.595848 -6.999534 -0.402809 1021 0.458372 0.888760 0.000000
-7.595612 -6.999315 -0.399621 1027 0.458372 0.888760 0.000000
-7.594788 -6.998548 -0.396409 1017 0.458372 0.888760 0.000000
-7.595304 -6.999022 -0.393254 1017 0.458372 0.888760 0.000000
-7.596406 -7.000043 -0.390134 1017 0.458372 0.888760 0.000000
-7.596970 -7.000568 -0.386988 1045 0.458372 0.888760 0.000000
-7.596955 -7.000553 -0.383808 1039 0.458372 0.888760 0.000000
-7.596394 -7.000034 -0.380603 1023 0.458372 0.888760 0.000000
-7.596578 -7.000204 -0.377442 1033 0.458372 0.888760 0.000000
-7.596555 -7.000182 -0.374262 1025 0.458372 0.888760 0.000000
-7.595883 -6.999562 -0.371048 1021 0.458372 0.888760 0.000000
-7.595535 -6.999242 -0.367861 1001 0.458372 0.888760 0.000000
-7.595829 -6.999512 -0.364698 997 0.458372 0.888760 0.000000
-7.596281 -6.999922 -0.361544 999 0.458372 0.888760 0.000000
-7.596473 -7.000097 -0.358372 1005 0.458372 0.888760 0.000000
-7.596229 -6.999872 -0.355184 987 0.458372 0.888760 0.000000
-7.597054 -7.000645 -0.352047 1009 0.458372 0.888760 0.000000
-7.596539 -7.000165 -0.348851 987 0.458372 0.888760 0.000000
-7.595108 -6.998847 -0.345615 989 0.458372 0.888760 0.000000
-7.595070 -6.998813 -0.342435 979 0.458372 0.888760 0.000000
-7.595957 -6.999623 -0.339297 995 0.458372 0.888760 0.000000
-7.596300 -6.999945 -0.336143 993 0.458372 0.888760 0.000000
-7.596150 -6.999808 -0.332955 997 0.458372 0.888760 0.000000
-7.596387 -7.000021 -0.329792 995 0.458372 0.888760 0.000000
-7.597157 -7.000737 -0.326645 989 0.458372 0.888760 0.000000
-7.597072 -7.000651 -0.323466 1001 0.458372 0.888760 0.000000
-7.596272 -6.999918 -0.320263 1001 0.458372 0.888760 0.000000
-7.596235 -6.999883 -0.317083 1013 0.458372 0.888760 0.000000
-7.596735 -7.000344 -0.313929 1005 0.458372 0.888760 0.000000
-7.596743 -7.000347 -0.310759 987 0.458372 0.888760 0.000000
-7.598048 -6.997113 -0.701828 1025 0.458372 0.888760 0.000000
-7.597123 -6.996265 -0.698556 1029 0.458372 0.888760 0.000000
-7.597116 -6.996256 -0.695366 1019 0.458372 0.888760 0.000000
-7.598075 -6.997137 -0.692267 1047 0.458372 0.888760 0.000000
-7.597806 -6.996892 -0.689060 1021 0.458372 0.888760 0.000000
-7.597744 -6.996825 -0.685870 1019 0.458372 0.888760 0.000000
-7.597674 -6.996765 -0.682681 1015 0.458372 0.888760 0.000000
-7.598356 -6.997398 -0.679554 1033 0.458372 0.888760 0.000000
-7.599156 -6.998126 -0.676437 1029 0.458372 0.888760 0.000000
-7.598239 -6.997284 -0.673165 1015 0.458372 0.888760 0.000000
-7.597362 -6.996473 -0.669913 1015 0.458372 0.888760 0.000000
-7.598098 -6.997150 -0.666786 1013 0.458372 0.888760 0.000000
-7.598782 -6.997785 -0.663660 1015 0.458372 0.888760 0.000000
-7.598822 -6.997826 -0.660479 1017 0.458372 0.888760 0.000000
-7.598973 -6.997956 -0.657308 1037 0.458372 0.888760 0.000000
-7.598522 -6.997540 -0.654082 1017 0.458372 0.888760 0.000000
-7.598618 -6.997626 -0.650911 1019 0.458372 0.888760 0.000000
-7.598486 -6.997516 -0.647712 1013 0.458372 0.888760 0.000000
-7.598463 -6.997494 -0.644522 1019 0.458372 0.888760 0.000000
-7.598835 -6.997827 -0.641369 1025 0.458372 0.888760 0.000000
-7.598647 -6.997660 -0.638171 1011 0.458372 0.888760 0.000000
-7.599329 -6.998279 -0.635044 1005 0.458372 0.888760 0.000000
-7.600003 -6.998906 -0.631918 1019 0.458372 0.888760 0.000000
-7.598841 -6.997842 -0.628639 1017 0.458372 0.888760 0.000000
-7.598129 -6.997177 -0.625395 1019 0.458372 0.888760 0.000000
-7.597940 -6.997010 -0.622197 993 0.458372 0.888760 0.000000
-7.598835 -6.997826 -0.619088 1017 0.458372 0.888760 0.000000
-7.599351 -6.998300 -0.615944 1015 0.458372 0.888760 0.000000
-7.599052 -6.998031 -0.612736 1027 0.458372 0.888760 0.000000
-7.598918 -6.997907 -0.609547 1033 0.458372 0.888760 0.000000
-7.598618 -6.997624 -0.606340 1025 0.458372 0.888760 0.000000
-7.598167 -6.997208 -0.603124 1035 0.458372 0.888760 0.000000
-7.597544 -6.996640 -0.599890 1023 0.458372 0.888760 0.000000
-7.597734 -6.996815 -0.596718 1039 0.458372 0.888760 0.000000
-7.598400 -6.997422 -0.593592 1049 0.458372 0.888760 0.000000
-7.598094 -6.997146 -0.590385 1039 0.458372 0.888760 0.000000
-7.598119 -6.997176 -0.587204 1021 0.458372 0.888760 0.000000
-7.598468 -6.997490 -0.584051 1029 0.458372 0.888760 0.000000
-7.598319 -6.997354 -0.580852 1013 0.458372 0.888760 0.000000
-7.598399 -6.997427 -0.577682 1019 0.458372 0.888760 0.000000
-7.598796 -6.997793 -0.574528 1015 0.458372 0.888760 0.000000
-7.599082 -6.998058 -0.571365 1017 0.458372 0.888760 0.000000
-7.598616 -6.997629 -0.568149 1025 0.458372 0.888760 0.000000
-7.598205 -6.997244 -0.564943 999 0.458372 0.888760 0.000000
-7.598436 -6.997464 -0.561781 1019 0.458372 0.888760 0.000000
-7.598667 -6.997671 -0.558609 1021 0.458372 0.888760 0.000000
-7.598525 -6.997540 -0.555420 1023 0.458372 0.888760 0.000000
-7.598209 -6.997245 -0.552213 1011 0.458372 0.888760 0.000000
-7.598931 -6.997910 -0.549086 1019 0.458372 0.888760 0.000000
-7.598885 -6.997869 -0.545906 1019 0.458372 0.888760 0.000000
-7.598411 -6.997434 -0.542691 1027 0.458372 0.888760 0.000000
-7.598261 -6.997298 -0.539502 1033 0.458372 0.888760 0.000000
-7.598064 -6.997110 -0.536304 1033 0.458372 0.888760 0.000000
-7.598176 -6.997222 -0.533133 1031 0.458372 0.888760 0.000000
-7.598234 -6.997277 -0.529952 1037 0.458372 0.888760 0.000000
-7.598029 -6.997083 -0.526764 1031 0.458372 0.888760 0.000000
-7.598045 -6.997093 -0.523584 1023 0.458372 0.888760 0.000000
-7.598316 -6.997344 -0.520421 1015 0.458372 0.888760 0.000000
-7.598372 -6.997398 -0.517240 1015 0.458372 0.888760 0.000000
-7.598009 -6.997066 -0.514044 1015 0.458372 0.888760 0.000000
-7.597845 -6.996917 -0.510855 1005 0.458372 0.888760 0.000000
-7.598392 -6.997416 -0.507710 1015 0.458372 0.888760 0.000000
-7.598979 -6.997960 -0.504564 1025 0.458372 0.888760 0.000000
-7.598773 -6.997766 -0.501376 1017 0.458372 0.888760 0.000000
-7.598505 -6.997521 -0.498179 1031 0.458372 0.888760 0.000000
-7.598776 -6.997773 -0.495016 1035 0.458372 0.888760 0.000000
-7.598460 -6.997478 -0.491819 1023 0.458372 0.888760 0.000000
-7.598612 -6.997622 -0.488647 1023 0.458372 0.888760 0.000000
-7.599207 -6.998172 -0.485502 1035 0.458372 0.888760 0.000000
-7.598986 -6.997965 -0.482314 1043 0.458372 0.888760 0.000000
-7.598608 -6.997620 -0.479107 1007 0.458372 0.888760 0.000000
-7.598925 -6.997909 -0.475954 1039 0.458372 0.888760 0.000000
-7.598769 -6.997766 -0.472766 1035 0.458372 0.888760 0.000000
-7.598499 -6.997508 -0.469568 1007 0.458372 0.888760 0.000000
-7.598486 -6.997507 -0.466388 1009 0.458372 0.888760 0.000000
-7.598700 -6.997700 -0.463226 1029 0.458372 0.888760 0.000000
-7.598639 -6.997647 -0.460037 1035 0.458372 0.888760 0.000000
-7.599113 -6.998075 -0.456892 1039 0.458372 0.888760 0.000000
-7.599052 -6.998022 -0.453703 1021 0.458372 0.888760 0.000000
-7.598554 -6.997568 -0.450497 1029 0.458372 0.888760 0.000000
-7.598071 -6.997113 -0.447292 1033 0.458372 0.888760 0.000000
-7.597948 -6.997010 -0.444113 1027 0.458372 0.888760 0.000000
-7.598146 -6.997191 -0.440941 1035 0.458372 0.888760 0.000000
-7.598621 -6.997620 -0.437796 1037 0.458372 0.888760 0.000000
-7.598711 -6.997714 -0.434615 1035 0.458372 0.888760 0.000000
-7.598117 -6.997157 -0.431411 1025 0.458372 0.888760 0.000000
-7.598205 -6.997236 -0.428240 1035 0.458372 0.888760 0.000000
-7.598682 -6.997679 -0.425085 1035 0.458372 0.888760 0.000000
-7.598880 -6.997860 -0.421924 1023 0.458372 0.888760 0.000000
-7.599182 -6.998137 -0.418761 1035 0.458372 0.888760 0.000000
-7.599334 -6.998281 -0.415589 1021 0.458372 0.888760 0.000000
-7.599099 -6.998062 -0.412401 1005 0.458372 0.888760 0.000000
-7.598909 -6.997894 -0.409213 997 0.458372 0.888760 0.000000
-7.599433 -6.998374 -0.406058 1033 0.458372 0.888760 0.000000
-7.599315 -6.998263 -0.402879 1039 0.458372 0.888760 0.000000
-7.599244 -6.998189 -0.399700 1037 0.458372 0.888760 0.000000
-7.598732 -6.997724 -0.396494 1017 0.458372 0.888760 0.000000
-7.598170 -6.997206 -0.393289 1003 0.458372 0.888760 0.000000
-7.599272 -6.998227 -0.390169 1035 0.458372 0.888760 0.000000
-7.599796 -6.998707 -0.387014 1033 0.458372 0.888760 0.000000
-7.599606 -6.998525 -0.383836 1035 0.458372 0.888760 0.000000
-7.598831 -6.997810 -0.380613 1023 0.458372 0.888760 0.000000
-7.598430 -6.997446 -0.377417 1031 0.458372 0.888760 0.000000
-7.598780 -6.997774 -0.374263 1027 0.458372 0.888760 0.000000
-7.598701 -6.997695 -0.371084 1013 0.458372 0.888760 0.000000
-7.598940 -6.997921 -0.367922 997 0.458372 0.888760 0.000000
-7.599448 -6.998388 -0.364767 991 0.458372 0.888760 0.000000
-7.599845 -6.998755 -0.361603 991 0.458372 0.888760 0.000000
-7.599276 -6.998230 -0.358408 993 0.458372 0.888760 0.000000
-7.599356 -6.998304 -0.355228 1003 0.458372 0.888760 0.000000
-7.600300 -6.999172 -0.352099 1003 0.458372 0.888760 0.000000
-7.599896 -6.998793 -0.348902 987 0.458372 0.888760 0.000000
-7.598830 -6.997819 -0.345682 1001 0.458372 0.888760 0.000000
-7.598372 -6.997397 -0.342486 987 0.458372 0.888760 0.000000
-7.598982 -6.997960 -0.339341 987 0.458372 0.888760 0.000000
-7.599379 -6.998325 -0.336177 997 0.458372 0.888760 0.000000
-7.599823 -6.998729 -0.333023 1005 0.458372 0.888760 0.000000
-7.599951 -6.998840 -0.329852 1003 0.458372 0.888760 0.000000
-7.599381 -6.998315 -0.326647 981 0.458372 0.888760 0.000000
-7.599130 -6.998084 -0.323469 985 0.458372 0.888760 0.000000
-7.599037 -6.998006 -0.320290 975 0.458372 0.888760 0.000000
-7.599204 -6.998162 -0.317118 995 0.458372 0.888760 0.000000
-7.599277 -6.998230 -0.313947 991 0.458372 0.888760 0.000000
-7.600361 -6.999224 -0.310807 997 0.458372 0.888760 0.000000
-7.600914 -6.995617 -0.701902 1029 0.458372 0.888760 0.000000
-7.600638 -6.995367 -0.698684 1025 0.458372 0.888760 0.000000
-7.600307 -6.995059 -0.695467 1001 0.458372 0.888760 0.000000
-7.600838 -6.995545 -0.692332 1023 0.458372 0.888760 0.000000
-7.601147 -6.995828 -0.689179 1033 0.458372 0.888760 0.000000
-7.601031 -6.995730 -0.685980 1025 0.458372 0.888760 0.000000
-7.601127 -6.995816 -0.682799 1035 0.458372 0.888760 0.000000
-7.600740 -6.995465 -0.679583 1005 0.458372 0.888760 0.000000
-7.600788 -6.995499 -0.676402 1017 0.458372 0.888760 0.000000
-7.600132 -6.994892 -0.673158 995 0.458372 0.888760 0.000000
-7.600283 -6.995036 -0.669987 1007 0.458372 0.888760 0.000000
-7.599992 -6.994773 -0.666779 995 0.458372 0.888760 0.000000
-7.600413 -6.995157 -0.663625 1009 0.458372 0.888760 0.000000
-7.601689 -6.996330 -0.660553 1021 0.458372 0.888760 0.000000
-7.601674 -6.996315 -0.657364 1017 0.458372 0.888760 0.000000
-7.601271 -6.995950 -0.654147 1003 0.458372 0.888760 0.000000
-7.601692 -6.996335 -0.650993 1017 0.458372 0.888760 0.000000
-7.601677 -6.996319 -0.647813 1013 0.458372 0.888760 0.000000
-7.600909 -6.995610 -0.644560 1003 0.458372 0.888760 0.000000
-7.601371 -6.996040 -0.641416 1013 0.458372 0.888760 0.000000
-7.601665 -6.996311 -0.638253 1009 0.458372 0.888760 0.000000
-7.601277 -6.995945 -0.635037 995 0.458372 0.888760 0.000000
-7.601200 -6.995879 -0.631847 1017 0.458372 0.888760 0.000000
-7.600852 -6.995558 -0.628640 1031 0.458372 0.888760 0.000000
-7.600885 -6.995594 -0.625460 1029 0.458372 0.888760 0.000000
-7.601345 -6.996009 -0.622306 1019 0.458372 0.888760 0.000000
-7.601219 -6.995892 -0.619117 1021 0.458372 0.888760 0.000000
-7.601078 -6.995762 -0.615918 1019 0.458372 0.888760 0.000000
-7.601111 -6.995798 -0.612738 1011 0.458372 0.888760 0.000000
-7.600493 -6.995222 -0.609503 1013 0.458372 0.888760 0.000000
-7.600574 -6.995296 -0.606333 1025 0.458372 0.888760 0.000000
-7.601241 -6.995917 -0.603196 1019 0.458372 0.888760 0.000000
-7.601646 -6.996289 -0.600052 1027 0.458372 0.888760 0.000000
-7.600974 -6.995669 -0.596819 1023 0.458372 0.888760 0.000000
-7.600571 -6.995291 -0.593602 1027 0.458372 0.888760 0.000000
-7.601230 -6.995905 -0.590466 1035 0.458372 0.888760 0.000000
-7.600929 -6.995622 -0.587259 1021 0.458372 0.888760 0.000000
-7.600519 -6.995251 -0.584053 1021 0.458372 0.888760 0.000000
-7.601130 -6.995814 -0.580917 1015 0.458372 0.888760 0.000000
-7.601803 -6.996427 -0.577780 1009 0.458372 0.888760 0.000000
-7.602249 -6.996845 -0.574636 1011 0.458372 0.888760 0.000000
-7.603184 -6.997706 -0.571518 1021 0.458372 0.888760 0.000000
-7.602497 -6.997075 -0.568284 1023 0.458372 0.888760 0.000000
-7.601492 -6.996150 -0.565033 1003 0.458372 0.888760 0.000000
-7.601565 -6.996217 -0.561852 1005 0.458372 0.888760 0.000000
-7.601644 -6.996276 -0.558682 1011 0.458372 0.888760 0.000000
-7.600417 -6.995149 -0.555413 1001 0.458372 0.888760 0.000000
-7.599675 -6.994473 -0.552180 1017 0.458372 0.888760 0.000000
-7.601141 -6.995824 -0.549096 1019 0.458372 0.888760 0.000000
-7.602283 -6.996876 -0.545995 1035 0.458372 0.888760 0.000000
-7.602085 -6.996688 -0.542807 1027 0.458372 0.888760 0.000000
-7.602418 -6.996990 -0.539644 1013 0.458372 0.888760 0.000000
-7.601993 -6.996607 -0.536438 1021 0.458372 0.888760 0.000000
-7.601581 -6.996222 -0.533221 1033 0.458372 0.888760 0.000000
-7.601211 -6.995883 -0.530015 1019 0.458372 0.888760 0.000000
-7.601330 -6.995987 -0.526844 1005 0.458372 0.888760 0.000000
-7.601546 -6.996195 -0.523682 1033 0.458372 0.888760 0.000000
-7.601389 -6.996053 -0.520493 1025 0.458372 0.888760 0.000000
-7.601611 -6.996253 -0.517321 1031 0.458372 0.888760 0.000000
-7.601413 -6.996065 -0.514133 1035 0.458372 0.888760 0.000000
-7.601835 -6.996464 -0.510979 1039 0.458372 0.888760 0.000000
-7.601844 -6.996467 -0.507798 1031 0.458372 0.888760 0.000000
-7.600824 -6.995530 -0.504558 1023 0.458372 0.888760 0.000000
-7.600825 -6.995527 -0.501378 1005 0.458372 0.888760 0.000000
-7.601696 -6.996325 -0.498250 1029 0.458372 0.888760 0.000000
-7.600725 -6.995439 -0.495009 1013 0.458372 0.888760 0.000000
-7.600566 -6.995283 -0.491820 1029 0.458372 0.888760 0.000000
-7.601535 -6.996183 -0.488701 1033 0.458372 0.888760 0.000000
-7.601852 -6.996473 -0.485538 1035 0.458372 0.888760 0.000000
-7.602391 -6.996965 -0.482393 1023 0.458372 0.888760 0.000000
-7.602226 -6.996816 -0.479204 1031 0.458372 0.888760 0.000000
-7.602164 -6.996763 -0.476025 1039 0.458372 0.888760 0.000000
-7.602655 -6.997204 -0.472870 1047 0.458372 0.888760 0.000000
-7.601889 -6.996510 -0.469647 1029 0.458372 0.888760 0.000000
-7.601565 -6.996208 -0.466450 1019 0.458372 0.888760 0.000000
-7.601290 -6.995957 -0.463253 1025 0.458372 0.888760 0.000000
-7.601124 -6.995794 -0.460064 1013 0.458372 0.888760 0.000000
-7.601870 -6.996492 -0.456927 1017 0.458372 0.888760 0.000000
-7.601214 -6.995885 -0.453713 1013 0.458372 0.888760 0.000000
-7.600455 -6.995183 -0.450490 1017 0.458372 0.888760 0.000000
-7.600606 -6.995327 -0.447319 1001 0.458372 0.888760 0.000000
-7.600861 -6.995565 -0.444156 1017 0.458372 0.888760 0.000000
-7.601337 -6.995994 -0.441012 1015 0.458372 0.888760 0.000000
-7.601805 -6.996430 -0.437857 1023 0.458372 0.888760 0.000000
-7.601799 -6.996421 -0.434677 1027 0.458372 0.888760 0.000000
-7.600865 -6.995566 -0.431446 1015 0.458372 0.888760 0.000000
-7.601238 -6.995900 -0.428292 1033 0.458372 0.888760 0.000000
-7.602134 -6.996730 -0.425164 1023 0.458372 0.888760 0.000000
-7.601851 -6.996473 -0.421966 1023 0.458372 0.888760 0.000000
-7.601242 -6.995904 -0.418762 1019 0.458372 0.888760 0.000000
-7.601710 -6.996340 -0.415608 1011 0.458372 0.888760 0.000000
-7.602226 -6.996814 -0.412453 1023 0.458372 0.888760 0.000000
-7.602219 -6.996805 -0.409283 1035 0.458372 0.888760 0.000000
-7.602307 -6.996884 -0.406102 1033 0.458372 0.888760 0.000000
-7.602118 -6.996717 -0.402914 1025 0.458372 0.888760 0.000000
-7.601937 -6.996542 -0.399735 1025 0.458372 0.888760 0.000000
-7.601218 -6.995885 -0.396522 1011 0.458372 0.888760 0.000000
-7.600871 -6.995564 -0.393325 995 0.458372 0.888760 0.000000
-7.601229 -6.995899 -0.390161 1007 0.458372 0.888760 0.000000
-7.601585 -6.996219 -0.387008 1005 0.458372 0.888760 0.000000
-7.601611 -6.996249 -0.383828 1005 0.458372 0.888760 0.000000
-7.601374 -6.996029 -0.380640 997 0.458372 0.888760 0.000000
-7.601668 -6.996300 -0.377477 1003 0.458372 0.888760 0.000000
-7.602074 -6.996673 -0.374323 1021 0.458372 0.888760 0.000000
-7.602264 -6.996847 -0.371151 1021 0.458372 0.888760 0.000000
-7.603049 -6.997562 -0.368014 1021 0.458372 0.888760 0.000000
-7.602211 -6.996798 -0.364802 993 0.458372 0.888760 0.000000
-7.601151 -6.995829 -0.361571 981 0.458372 0.888760 0.000000
-7.601184 -6.995851 -0.358401 999 0.458372 0.888760 0.000000
-7.601202 -6.995874 -0.355221 987 0.458372 0.888760 0.000000
-7.601386 -6.996043 -0.352059 979 0.458372 0.888760 0.000000
-7.601465 -6.996116 -0.348878 971 0.458372 0.888760 0.000000
-7.601641 -6.996279 -0.345717 987 0.458372 0.888760 0.000000
-7.601285 -6.995952 -0.342520 979 0.458372 0.888760 0.000000
-7.601524 -6.996165 -0.339358 967 0.458372 0.888760 0.000000
-7.602459 -6.997026 -0.336219 989 0.458372 0.888760 0.000000
-7.602911 -6.997436 -0.333065 995 0.458372 0.888760 0.000000
-7.602983 -6.997503 -0.329894 981 0.458372 0.888760 0.000000
-7.602566 -6.997126 -0.326698 987 0.458372 0.888760 0.000000
-7.602051 -6.996646 -0.323502 995 0.458372 0.888760 0.000000
-7.601467 -6.996109 -0.320298 987 0.458372 0.888760 0.000000
-7.601049 -6.995732 -0.317111 987 0.458372 0.888760 0.000000
-7.601390 -6.996040 -0.313948 987 0.458372 0.888760 0.000000
-7.601723 -6.996342 -0.310785 995 0.458372 0.888760 0.000000
-7.602691 -6.993145 -0.701875 1001 0.458372 0.888760 0.000000
-7.603119 -6.993536 -0.698731 1011 0.458372 0.888760 0.000000
-7.603429 -6.993819 -0.695569 1009 0.458372 0.888760 0.000000
-7.604008 -6.994357 -0.692433 1001 0.458372 0.888760 0.000000
-7.604326 -6.994647 -0.689280 1025 0.458372 0.888760 0.000000
-7.603677 -6.994046 -0.686036 1017 0.458372 0.888760 0.000000
-7.604098 -6.994430 -0.682882 1019 0.458372 0.888760 0.000000
-7.604504 -6.994817 -0.679728 1009 0.458372 0.888760 0.000000
-7.604559 -6.994857 -0.676548 1021 0.458372 0.888760 0.000000
-7.604339 -6.994650 -0.673350 1013 0.458372 0.888760 0.000000
-7.603834 -6.994191 -0.670114 1023 0.458372 0.888760 0.000000
-7.603826 -6.994181 -0.666924 1021 0.458372 0.888760 0.000000
-7.604231 -6.994553 -0.663780 1011 0.458372 0.888760 0.000000
-7.604431 -6.994748 -0.660608 1013 0.458372 0.888760 0.000000
-7.603726 -6.994090 -0.657365 991 0.458372 0.888760 0.000000
-7.603165 -6.993572 -0.654130 991 0.458372 0.888760 0.000000
-7.603309 -6.993709 -0.650959 985 0.458372 0.888760 0.000000
-7.604260 -6.994584 -0.647850 997 0.458372 0.888760 0.000000
-7.604397 -6.994715 -0.644678 1013 0.458372 0.888760 0.000000
-7.603844 -6.994203 -0.641453 1027 0.458372 0.888760 0.000000
-7.604311 -6.994626 -0.638309 1011 0.458372 0.888760 0.000000
-7.604661 -6.994954 -0.635146 1001 0.458372 0.888760 0.000000
-7.603942 -6.994297 -0.631902 983 0.458372 0.888760 0.000000
-7.603982 -6.994325 -0.628722 1019 0.458372 0.888760 0.000000
-7.603959 -6.994303 -0.625542 1011 0.458372 0.888760 0.000000
-7.604095 -6.994434 -0.622371 1013 0.458372 0.888760 0.000000
-7.603914 -6.994259 -0.619162 1015 0.458372 0.888760 0.000000
-7.603985 -6.994326 -0.615992 1005 0.458372 0.888760 0.000000
-7.604233 -6.994559 -0.612829 1015 0.458372 0.888760 0.000000
-7.604203 -6.994531 -0.609639 1031 0.458372 0.888760 0.000000
-7.604131 -6.994457 -0.606450 1009 0.458372 0.888760 0.000000
-7.604425 -6.994727 -0.603287 1025 0.458372 0.888760 0.000000
-7.604284 -6.994597 -0.600098 1009 0.458372 0.888760 0.000000
-7.604253 -6.994569 -0.596909 1017 0.458372 0.888760 0.000000
-7.605032 -6.995292 -0.593781 1045 0.458372 0.888760 0.000000
-7.605112 -6.995365 -0.590611 1019 0.458372 0.888760 0.000000
-7.604432 -6.994739 -0.587377 1015 0.458372 0.888760 0.000000
-7.604512 -6.994813 -0.584196 1013 0.458372 0.888760 0.000000
-7.604259 -6.994581 -0.580998 1009 0.458372 0.888760 0.000000
-7.603737 -6.994094 -0.577773 1009 0.458372 0.888760 0.000000
-7.604459 -6.994759 -0.574646 1015 0.458372 0.888760 0.000000
-7.605016 -6.995278 -0.571501 1017 0.458372 0.888760 0.000000
-7.605089 -6.995346 -0.568330 1013 0.458372 0.888760 0.000000
-7.605587 -6.995792 -0.565186 1023 0.458372 0.888760 0.000000
-7.605605 -6.995816 -0.561995 1005 0.458372 0.888760 0.000000
-7.605455 -6.995679 -0.558807 1019 0.458372 0.888760 0.000000
-7.604887 -6.995156 -0.555582 1013 0.458372 0.888760 0.000000
-7.604364 -6.994669 -0.552367 1017 0.458372 0.888760 0.000000
-7.604698 -6.994985 -0.549203 1025 0.458372 0.888760 0.000000
-7.605245 -6.995483 -0.546058 1021 0.458372 0.888760 0.000000
-7.605532 -6.995748 -0.542906 1037 0.458372 0.888760 0.000000
-7.605811 -6.996006 -0.539743 1031 0.458372 0.888760 0.000000
-7.605653 -6.995863 -0.536544 1023 0.458372 0.888760 0.000000
-7.604592 -6.994881 -0.533294 1013 0.458372 0.888760 0.000000
-7.604174 -6.994490 -0.530078 1025 0.458372 0.888760 0.000000
-7.604500 -6.994800 -0.526925 1029 0.458372 0.888760 0.000000
-7.604240 -6.994561 -0.523727 1025 0.458372 0.888760 0.000000
-7.604519 -6.994820 -0.520564 1017 0.458372 0.888760 0.000000
-7.605169 -6.995414 -0.517428 1017 0.458372 0.888760 0.000000
-7.605337 -6.995570 -0.514257 1031 0.458372 0.888760 0.000000
-7.605186 -6.995420 -0.511068 1021 0.458372 0.888760 0.000000
-7.605077 -6.995329 -0.507879 1021 0.458372 0.888760 0.000000
-7.604982 -6.995237 -0.504690 1021 0.458372 0.888760 0.000000
-7.605031 -6.995286 -0.501509 1019 0.458372 0.888760 0.000000
-7.605302 -6.995537 -0.498347 1025 0.458372 0.888760 0.000000
-7.605089 -6.995337 -0.495159 1043 0.458372 0.888760 0.000000
-7.604932 -6.995194 -0.491970 1039 0.458372 0.888760 0.000000
-7.604815 -6.995083 -0.488781 1021 0.458372 0.888760 0.000000
-7.604016 -6.994349 -0.485548 1013 0.458372 0.888760 0.000000
-7.604493 -6.994792 -0.482404 1013 0.458372 0.888760 0.000000
-7.605031 -6.995285 -0.479249 1023 0.458372 0.888760 0.000000
-7.604494 -6.994785 -0.476044 1031 0.458372 0.888760 0.000000
-7.604383 -6.994680 -0.472855 1027 0.458372 0.888760 0.000000
-7.604694 -6.994977 -0.469692 1019 0.458372 0.888760 0.000000
-7.604964 -6.995215 -0.466529 1027 0.458372 0.888760 0.000000
-7.605386 -6.995614 -0.463375 1013 0.458372 0.888760 0.000000
-7.606075 -6.996239 -0.460239 1021 0.458372 0.888760 0.000000
-7.604992 -6.995253 -0.456999 1013 0.458372 0.888760 0.000000
-7.604074 -6.994397 -0.453767 1015 0.458372 0.888760 0.000000
-7.604115 -6.994439 -0.450587 1013 0.458372 0.888760 0.000000
-7.604378 -6.994684 -0.447424 1019 0.458372 0.888760 0.000000
-7.604901 -6.995164 -0.444269 1023 0.458372 0.888760 0.000000
-7.604997 -6.995250 -0.441098 1003 0.458372 0.888760 0.000000
-7.605149 -6.995394 -0.437927 1021 0.458372 0.888760 0.000000
-7.605410 -6.995625 -0.434764 1037 0.458372 0.888760 0.000000
-7.604970 -6.995230 -0.431558 1023 0.458372 0.888760 0.000000
-7.604146 -6.994463 -0.428336 1027 0.458372 0.888760 0.000000
-7.603973 -6.994308 -0.425157 1005 0.458372 0.888760 0.000000
-7.604489 -6.994782 -0.422002 1011 0.458372 0.888760 0.000000
-7.605234 -6.995465 -0.418865 1031 0.458372 0.888760 0.000000
-7.605584 -6.995793 -0.415702 1025 0.458372 0.888760 0.000000
-7.606059 -6.996222 -0.412548 1029 0.458372 0.888760 0.000000
-7.606521 -6.996653 -0.409393 1035 0.458372 0.888760 0.000000
-7.605968 -6.996141 -0.406188 1029 0.458372 0.888760 0.000000
-7.605351 -6.995579 -0.402984 1025 0.458372 0.888760 0.000000
-7.605066 -6.995308 -0.399787 1033 0.458372 0.888760 0.000000
-7.605044 -6.995287 -0.396607 1023 0.458372 0.888760 0.000000
-7.604753 -6.995024 -0.393419 1011 0.458372 0.888760 0.000000
-7.604405 -6.994703 -0.390222 991 0.458372 0.888760 0.000000
-7.604494 -6.994782 -0.387052 999 0.458372 0.888760 0.000000
-7.604574 -6.994856 -0.383881 997 0.458372 0.888760 0.000000
-7.604986 -6.995234 -0.380717 1003 0.458372 0.888760 0.000000
-7.605391 -6.995606 -0.377563 1019 0.458372 0.888760 0.000000
-7.605796 -6.995979 -0.374399 1013 0.458372 0.888760 0.000000
-7.605338 -6.995556 -0.371203 1007 0.458372 0.888760 0.000000
-7.605205 -6.995433 -0.368025 999 0.458372 0.888760 0.000000
-7.605009 -6.995259 -0.364836 989 0.458372 0.888760 0.000000
-7.603854 -6.994201 -0.361607 981 0.458372 0.888760 0.000000
-7.603711 -6.994057 -0.358418 991 0.458372 0.888760 0.000000
-7.604497 -6.994786 -0.355281 979 0.458372 0.888760 0.000000
-7.605273 -6.995494 -0.352134 983 0.458372 0.888760 0.000000
-7.605345 -6.995562 -0.348963 985 0.458372 0.888760 0.000000
-7.605261 -6.995490 -0.345783 985 0.458372 0.888760 0.000000
-7.605009 -6.995258 -0.342596 981 0.458372 0.888760 0.000000
-7.604597 -6.994874 -0.339399 987 0.458372 0.888760 0.000000
-7.605154 -6.995392 -0.336254 993 0.458372 0.888760 0.000000
-7.604901 -6.995161 -0.333067 973 0.458372 0.888760 0.000000
-7.604490 -6.994776 -0.329870 971 0.458372 0.888760 0.000000
-7.604722 -6.994997 -0.326708 981 0.458372 0.888760 0.000000
-7.605008 -6.995261 -0.323535 1011 0.458372 0.888760 0.000000
-7.604699 -6.994971 -0.320348 995 0.458372 0.888760 0.000000
-7.604558 -6.994842 -0.317169 983 0.458372 0.888760 0.000000
-7.604678 -6.994946 -0.313998 973 0.458372 0.888760 0.000000
-7.605337 -6.995561 -0.310852 993 0.458372 0.888760 0.000000
-7.608137 -6.993693 -0.702167 1019 0.458372 0.888760 0.000000
-7.607965 -6.993537 -0.698969 1031 0.458372 0.888760 0.000000
-7.607475 -6.993091 -0.695733 1015 0.458372 0.888760 0.000000
-7.607524 -6.993139 -0.692553 1003 0.458372 0.888760 0.000000
-7.606922 -6.992575 -0.689308 979 0.458372 0.888760 0.000000
-7.606971 -6.992624 -0.686128 997 0.458372 0.888760 0.000000
-7.607868 -6.993454 -0.683019 1019 0.458372 0.888760 0.000000
-7.607646 -6.993248 -0.679811 1011 0.458372 0.888760 0.000000
-7.607260 -6.992895 -0.676595 997 0.458372 0.888760 0.000000
-7.607459 -6.993076 -0.673423 1007 0.458372 0.888760 0.000000
-7.607341 -6.992965 -0.670224 1015 0.458372 0.888760 0.000000
-7.607001 -6.992651 -0.667017 1015 0.458372 0.888760 0.000000
-7.606932 -6.992591 -0.663817 997 0.458372 0.888760 0.000000
-7.606917 -6.992576 -0.660637 997 0.458372 0.888760 0.000000
-7.607765 -6.993354 -0.657520 1007 0.458372 0.888760 0.000000
-7.608131 -6.993695 -0.654366 1003 0.458372 0.888760 0.000000
-7.607521 -6.993126 -0.651132 985 0.458372 0.888760 0.000000
-7.607127 -6.992768 -0.647905 977 0.458372 0.888760 0.000000
-7.607050 -6.992702 -0.644716 1009 0.458372 0.888760 0.000000
-7.606599 -6.992286 -0.641500 985 0.458372 0.888760 0.000000
-7.606853 -6.992511 -0.638338 999 0.458372 0.888760 0.000000
-7.606838 -6.992495 -0.635148 991 0.458372 0.888760 0.000000
-7.607251 -6.992873 -0.631994 993 0.458372 0.888760 0.000000
-7.607434 -6.993042 -0.628822 1025 0.458372 0.888760 0.000000
-7.606763 -6.992437 -0.625588 1013 0.458372 0.888760 0.000000
-7.606852 -6.992517 -0.622407 997 0.458372 0.888760 0.000000
-7.607573 -6.993180 -0.619280 1003 0.458372 0.888760 0.000000
-7.607613 -6.993209 -0.616100 1011 0.458372 0.888760 0.000000
-7.607203 -6.992838 -0.612884 1029 0.458372 0.888760 0.000000
-7.607283 -6.992911 -0.609713 1017 0.458372 0.888760 0.000000
-7.607528 -6.993130 -0.606541 1001 0.458372 0.888760 0.000000
-7.607926 -6.993496 -0.603387 1007 0.458372 0.888760 0.000000
-7.607635 -6.993234 -0.600179 1005 0.458372 0.888760 0.000000
-7.607658 -6.993249 -0.596999 1007 0.458372 0.888760 0.000000
-7.608222 -6.993774 -0.593864 1015 0.458372 0.888760 0.000000
-7.608452 -6.993980 -0.590692 1007 0.458372 0.888760 0.000000
-7.608533 -6.994054 -0.587521 1007 0.458372 0.888760 0.000000
-7.608288 -6.993829 -0.584313 1019 0.458372 0.888760 0.000000
-7.607498 -6.993102 -0.581070 1017 0.458372 0.888760 0.000000
-7.607784 -6.993366 -0.577908 1027 0.458372 0.888760 0.000000
-7.608458 -6.993979 -0.574781 1039 0.458372 0.888760 0.000000
-7.607936 -6.993506 -0.571556 1023 0.458372 0.888760 0.000000
-7.607788 -6.993370 -0.568367 1005 0.458372 0.888760 0.000000
-7.607811 -6.993385 -0.565187 1003 0.458372 0.888760 0.000000
-7.607883 -6.993453 -0.562006 1007 0.458372 0.888760 0.000000
-7.607577 -6.993176 -0.558799 1009 0.458372 0.888760 0.000000
-7.606945 -6.992589 -0.555575 991 0.458372 0.888760 0.000000
-7.607223 -6.992846 -0.552412 997 0.458372 0.888760 0.000000
-7.607563 -6.993155 -0.549249 1013 0.458372 0.888760 0.000000
-7.607517 -6.993114 -0.546069 1019 0.458372 0.888760 0.000000
-7.608025 -6.993582 -0.542925 1009 0.458372 0.888760 0.000000
-7.608731 -6.994233 -0.539788 1019 0.458372 0.888760 0.000000
-7.608471 -6.993996 -0.536590 1021 0.458372 0.888760 0.000000
-7.607783 -6.993363 -0.533357 1025 0.458372 0.888760 0.000000
-7.607475 -6.993074 -0.530159 1027 0.458372 0.888760 0.000000
-7.608119 -6.993676 -0.527023 1025 0.458372 0.888760 0.000000
-7.608404 -6.993927 -0.523861 1031 0.458372 0.888760 0.000000
-7.607431 -6.993041 -0.520609 999 0.458372 0.888760 0.000000
-7.607227 -6.992847 -0.517411 1001 0.458372 0.888760 0.000000
-7.607553 -6.993156 -0.514258 997 0.458372 0.888760 0.000000
-7.607942 -6.993502 -0.511105 997 0.458372 0.888760 0.000000
-7.607832 -6.993411 -0.507915 1003 0.458372 0.888760 0.000000
-7.607674 -6.993255 -0.504727 999 0.458372 0.888760 0.000000
-7.608167 -6.993710 -0.501572 1019 0.458372 0.888760 0.000000
-7.608540 -6.994057 -0.498419 1021 0.458372 0.888760 0.000000
-7.608438 -6.993958 -0.495230 1019 0.458372 0.888760 0.000000
-7.608384 -6.993911 -0.492050 1019 0.458372 0.888760 0.000000
-7.607846 -6.993412 -0.488835 1007 0.458372 0.888760 0.000000
-7.606715 -6.992373 -0.485585 997 0.458372 0.888760 0.000000
-7.607524 -6.993121 -0.482448 1005 0.458372 0.888760 0.000000
-7.608325 -6.993862 -0.479320 1019 0.458372 0.888760 0.000000
-7.607574 -6.993166 -0.476097 1005 0.458372 0.888760 0.000000
-7.607622 -6.993214 -0.472917 1003 0.458372 0.888760 0.000000
-7.607830 -6.993402 -0.469755 1009 0.458372 0.888760 0.000000
-7.608044 -6.993596 -0.466583 1027 0.458372 0.888760 0.000000
-7.607982 -6.993543 -0.463403 1017 0.458372 0.888760 0.000000
-7.607872 -6.993438 -0.460214 1011 0.458372 0.888760 0.000000
-7.607913 -6.993480 -0.457034 1017 0.458372 0.888760 0.000000
-7.608009 -6.993566 -0.453863 1013 0.458372 0.888760 0.000000
-7.607195 -6.992820 -0.450640 1003 0.458372 0.888760 0.000000
-7.607028 -6.992657 -0.447452 1015 0.458372 0.888760 0.000000
-7.607016 -6.992655 -0.444272 1021 0.458372 0.888760 0.000000
-7.607277 -6.992887 -0.441109 1009 0.458372 0.888760 0.000000
-7.607642 -6.993227 -0.437946 1005 0.458372 0.888760 0.000000
-7.607730 -6.993307 -0.434775 1009 0.458372 0.888760 0.000000
-7.608849 -6.994341 -0.431654 1021 0.458372 0.888760 0.000000
-7.608841 -6.994331 -0.428474 1015 0.458372 0.888760 0.000000
-7.608343 -6.993864 -0.425269 1017 0.458372 0.888760 0.000000
-7.607948 -6.993505 -0.422072 1013 0.458372 0.888760 0.000000
-7.607720 -6.993292 -0.418875 1021 0.458372 0.888760 0.000000
-7.607918 -6.993474 -0.415713 1003 0.458372 0.888760 0.000000
-7.608490 -6.994006 -0.412567 993 0.458372 0.888760 0.000000
-7.608372 -6.993894 -0.409378 991 0.458372 0.888760 0.000000
-7.608026 -6.993574 -0.406181 997 0.458372 0.888760 0.000000
-7.608162 -6.993705 -0.403010 1011 0.458372 0.888760 0.000000
-7.607981 -6.993544 -0.399822 1013 0.458372 0.888760 0.000000
-7.607261 -6.992873 -0.396608 989 0.458372 0.888760 0.000000
-7.607785 -6.993353 -0.393463 993 0.458372 0.888760 0.000000
-7.607873 -6.993433 -0.390282 1013 0.458372 0.888760 0.000000
-7.606773 -6.992419 -0.387053 999 0.458372 0.888760 0.000000
-7.606466 -6.992143 -0.383865 995 0.458372 0.888760 0.000000
-7.607955 -6.993513 -0.380751 1011 0.458372 0.888760 0.000000
-7.609548 -6.994978 -0.377657 1009 0.458372 0.888760 0.000000
-7.609359 -6.994797 -0.374468 1013 0.458372 0.888760 0.000000
-7.608472 -6.993981 -0.371246 1003 0.458372 0.888760 0.000000
-7.608553 -6.994055 -0.368076 1023 0.458372 0.888760 0.000000
-7.608468 -6.993982 -0.364896 1009 0.458372 0.888760 0.000000
-7.607417 -6.993020 -0.361666 977 0.458372 0.888760 0.000000
-7.607662 -6.993239 -0.358504 1001 0.458372 0.888760 0.000000
-7.608535 -6.994051 -0.355365 995 0.458372 0.888760 0.000000
-7.608457 -6.993971 -0.352186 981 0.458372 0.888760 0.000000
-7.608474 -6.993994 -0.349006 967 0.458372 0.888760 0.000000
-7.609091 -6.994549 -0.345860 981 0.458372 0.888760 0.000000
-7.608199 -6.993741 -0.342638 979 0.458372 0.888760 0.000000
-7.607298 -6.992912 -0.339427 961 0.458372 0.888760 0.000000
-7.608129 -6.993664 -0.336289 975 0.458372 0.888760 0.000000
-7.608098 -6.993636 -0.333109 977 0.458372 0.888760 0.000000
-7.607411 -6.993004 -0.329905 953 0.458372 0.888760 0.000000
