774
-7.329760 -7.114154 -0.612193 1491 0.282458 0.959280 0.000000
-7.330052 -7.114426 -0.609061 1497 0.282458 0.959280 0.000000
-7.330546 -7.114911 -0.605956 1501 0.282458 0.959280 0.000000
-7.330475 -7.114837 -0.602806 1501 0.282458 0.959280 0.000000
-7.330541 -7.114913 -0.599665 1505 0.282458 0.959280 0.000000
-7.330462 -7.114831 -0.596506 1503 0.282458 0.959280 0.000000
-7.330384 -7.114752 -0.593357 1509 0.282458 0.959280 0.000000
-7.330401 -7.114775 -0.590207 1501 0.282458 0.959279 0.000000
-7.330110 -7.114497 -0.587039 1497 0.282458 0.959280 0.000000
-7.330244 -7.114614 -0.583898 1503 0.282458 0.959280 0.000000
-7.330729 -7.115093 -0.580793 1503 0.282458 0.959280 0.000000
-7.330802 -7.115161 -0.577652 1511 0.282458 0.959280 0.000000
-7.330661 -7.115029 -0.574494 1507 0.282458 0.959280 0.000000
-7.330464 -7.114841 -0.571335 1505 0.282458 0.959280 0.000000
-7.330480 -7.114851 -0.568185 1501 0.282458 0.959280 0.000000
-7.330600 -7.114969 -0.565044 1499 0.282458 0.959280 0.000000
-7.330102 -7.114486 -0.561869 1499 0.282458 0.959280 0.000000
-7.330056 -7.114445 -0.558719 1499 0.282458 0.959280 0.000000
-7.330548 -7.114916 -0.555604 1495 0.282458 0.959280 0.000000
-7.330614 -7.114991 -0.552464 1499 0.282458 0.959279 0.000000
-7.330415 -7.114788 -0.549305 1503 0.282458 0.959280 0.000000
-7.330218 -7.114600 -0.546147 1493 0.282458 0.959280 0.000000
-7.330228 -7.114617 -0.542997 1491 0.282458 0.959280 0.000000
-7.330236 -7.114620 -0.539857 1497 0.282458 0.959280 0.000000
-7.330032 -7.114425 -0.536699 1495 0.282458 0.959280 0.000000
-7.330049 -7.114434 -0.533549 1501 0.282458 0.959280 0.000000
-7.330898 -7.115258 -0.530460 1503 0.282458 0.959280 0.000000
-7.331161 -7.115518 -0.527338 1495 0.282458 0.959280 0.000000
-7.330489 -7.114868 -0.524144 1497 0.282458 0.959280 0.000000
-7.330704 -7.115077 -0.521012 1495 0.282458 0.959280 0.000000
-7.331292 -7.115651 -0.517916 1495 0.282458 0.959280 0.000000
-7.331349 -7.115706 -0.514776 1501 0.282458 0.959280 0.000000
-7.331199 -7.115555 -0.511617 1501 0.282458 0.959280 0.000000
-7.330779 -7.115148 -0.508441 1497 0.282458 0.959280 0.000000
-7.330575 -7.114954 -0.505283 1493 0.282458 0.959280 0.000000
-7.330575 -7.114950 -0.502143 1493 0.282458 0.959280 0.000000
-7.330895 -7.115269 -0.499020 1497 0.282458 0.959279 0.000000
-7.331157 -7.115515 -0.495887 1503 0.282458 0.959280 0.000000
-7.331205 -7.115563 -0.492746 1503 0.282458 0.959280 0.000000
-7.330993 -7.115362 -0.489588 1501 0.282458 0.959280 0.000000
-7.330843 -7.115211 -0.486440 1489 0.282458 0.959280 0.000000
-7.331099 -7.115466 -0.483307 1493 0.282458 0.959280 0.000000
-7.330671 -7.115052 -0.480141 1489 0.282458 0.959280 0.000000
-7.330308 -7.114704 -0.476975 1493 0.282458 0.959280 0.000000
-7.330411 -7.114796 -0.473834 1489 0.282458 0.959280 0.000000
-7.330667 -7.115050 -0.470701 1489 0.282458 0.959280 0.000000
-7.330818 -7.115194 -0.467570 1487 0.282458 0.959280 0.000000
-7.331018 -7.115390 -0.464438 1493 0.282458 0.959280 0.000000
-7.331336 -7.115695 -0.461314 1501 0.282458 0.959280 0.000000
-7.331068 -7.115436 -0.458157 1501 0.282458 0.959280 0.000000
-7.331053 -7.115420 -0.455017 1501 0.282458 0.959280 0.000000
-7.330991 -7.115366 -0.451868 1499 0.282458 0.959280 0.000000
-7.330508 -7.114894 -0.448692 1499 0.282458 0.959280 0.000000
-7.330660 -7.115039 -0.445561 1501 0.282458 0.959280 0.000000
-7.330692 -7.115075 -0.442420 1499 0.282458 0.959280 0.000000
-7.330472 -7.114868 -0.439262 1495 0.282458 0.959280 0.000000
-7.330513 -7.114910 -0.436122 1491 0.282458 0.959280 0.000000
-7.330768 -7.115150 -0.432999 1499 0.282458 0.959280 0.000000
-7.331118 -7.115493 -0.429876 1505 0.282458 0.959280 0.000000
-7.331262 -7.115632 -0.426734 1503 0.282458 0.959280 0.000000
-7.331144 -7.115520 -0.423585 1497 0.282458 0.959280 0.000000
-7.331439 -7.115806 -0.420462 1503 0.282458 0.959280 0.000000
-7.331376 -7.115737 -0.417313 1501 0.282458 0.959280 0.000000
-7.331147 -7.115524 -0.414165 1501 0.282458 0.959280 0.000000
-7.330918 -7.115297 -0.411007 1499 0.282458 0.959280 0.000000
-7.331110 -7.115486 -0.407875 1501 0.282458 0.959280 0.000000
-7.331192 -7.115574 -0.404734 1499 0.282458 0.959280 0.000000
-7.330859 -7.115250 -0.401577 1489 0.282458 0.959280 0.000000
-7.330740 -7.115124 -0.398429 1499 0.282458 0.959280 0.000000
-7.330400 -7.114795 -0.395272 1501 0.282458 0.959280 0.000000
-7.330474 -7.114876 -0.392131 1501 0.282458 0.959280 0.000000
-7.331252 -7.115630 -0.389033 1507 0.282458 0.959280 0.000000
-7.331222 -7.115602 -0.385884 1507 0.282458 0.959280 0.000000
-7.330564 -7.114964 -0.382710 1499 0.282458 0.959280 0.000000
-7.330700 -7.115096 -0.379578 1503 0.282458 0.959280 0.000000
-7.330408 -7.114817 -0.376421 1499 0.282458 0.959280 0.000000
-7.330020 -7.114436 -0.373265 1501 0.282458 0.959280 0.000000
-7.330728 -7.115119 -0.370158 1501 0.282458 0.959280 0.000000
-7.331490 -7.115859 -0.367051 1499 0.282458 0.959280 0.000000
-7.331508 -7.115882 -0.363910 1507 0.282458 0.959280 0.000000
-7.331484 -7.115860 -0.360770 1503 0.282458 0.959280 0.000000
-7.331406 -7.115780 -0.357621 1507 0.282458 0.959280 0.000000
-7.331163 -7.115554 -0.354473 1505 0.282458 0.959280 0.000000
-7.330710 -7.115108 -0.351308 1499 0.282458 0.959280 0.000000
-7.330473 -7.114874 -0.348160 1501 0.282458 0.959280 0.000000
-7.330856 -7.115256 -0.345036 1497 0.282458 0.959280 0.000000
-7.331136 -7.115530 -0.341903 1501 0.282458 0.959280 0.000000
-7.331159 -7.115545 -0.338763 1499 0.282458 0.959280 0.000000
-7.331438 -7.115818 -0.335640 1505 0.282458 0.959280 0.000000
-7.331139 -7.115533 -0.332483 1499 0.282458 0.959280 0.000000
-7.330948 -7.115337 -0.329335 1493 0.282458 0.959280 0.000000
-7.331014 -7.115413 -0.326204 1501 0.282458 0.959280 0.000000
-7.330817 -7.115224 -0.323046 1495 0.282458 0.959279 0.000000
-7.330993 -7.115387 -0.319914 1497 0.282458 0.959280 0.000000
-7.330795 -7.115198 -0.316766 1501 0.282458 0.959280 0.000000
-7.330860 -7.115260 -0.313635 1491 0.282458 0.959280 0.000000
-7.333421 -7.113409 -0.706812 1503 0.282458 0.959280 0.000000
-7.333152 -7.113150 -0.703644 1499 0.282458 0.959280 0.000000
-7.333153 -7.113146 -0.700484 1497 0.282458 0.959280 0.000000
-7.332718 -7.112727 -0.697299 1495 0.282458 0.959280 0.000000
-7.332512 -7.112518 -0.694120 1499 0.282458 0.959280 0.000000
-7.333021 -7.113015 -0.691025 1491 0.282458 0.959280 0.000000
-7.333641 -7.113615 -0.687929 1499 0.282458 0.959280 0.000000
-7.334103 -7.114074 -0.684815 1503 0.282458 0.959280 0.000000
-7.333509 -7.113502 -0.681610 1503 0.282458 0.959280 0.000000
-7.332979 -7.112979 -0.678416 1503 0.282458 0.959280 0.000000
-7.333385 -7.113380 -0.675301 1505 0.282458 0.959280 0.000000
-7.333488 -7.113472 -0.672161 1511 0.282458 0.959279 0.000000
-7.333156 -7.113149 -0.668974 1501 0.282458 0.959280 0.000000
-7.333189 -7.113184 -0.665833 1493 0.282458 0.959280 0.000000
-7.333333 -7.113323 -0.662692 1499 0.282458 0.959279 0.000000
-7.333263 -7.113263 -0.659542 1501 0.282458 0.959280 0.000000
-7.333406 -7.113401 -0.656401 1497 0.282458 0.959280 0.000000
-7.333392 -7.113385 -0.653251 1501 0.282458 0.959280 0.000000
-7.333624 -7.113620 -0.650119 1499 0.282458 0.959280 0.000000
-7.333720 -7.113706 -0.646978 1505 0.282458 0.959280 0.000000
-7.333444 -7.113441 -0.643800 1505 0.282458 0.959280 0.000000
-7.333420 -7.113418 -0.640650 1497 0.282458 0.959280 0.000000
-7.333247 -7.113249 -0.637492 1495 0.282458 0.959280 0.000000
-7.333803 -7.113784 -0.634386 1501 0.282458 0.959279 0.000000
-7.333884 -7.113872 -0.631246 1497 0.282458 0.959280 0.000000
-7.332966 -7.112984 -0.628014 1491 0.282458 0.959280 0.000000
-7.333252 -7.113263 -0.624892 1499 0.282458 0.959280 0.000000
-7.333388 -7.113396 -0.621760 1505 0.282458 0.959280 0.000000
-7.333731 -7.113733 -0.618637 1511 0.282458 0.959280 0.000000
-7.333652 -7.113652 -0.615477 1503 0.282458 0.959280 0.000000
-7.332892 -7.112919 -0.612275 1493 0.282458 0.959280 0.000000
-7.333028 -7.113050 -0.609133 1499 0.282458 0.959280 0.000000
-7.333370 -7.113374 -0.606010 1503 0.282458 0.959280 0.000000
-7.333395 -7.113403 -0.602870 1503 0.282458 0.959280 0.000000
-7.333365 -7.113375 -0.599720 1505 0.282458 0.959280 0.000000
-7.333651 -7.113654 -0.596587 1511 0.282458 0.959280 0.000000
-7.333621 -7.113626 -0.593437 1505 0.282458 0.959280 0.000000
-7.333590 -7.113597 -0.590287 1495 0.282458 0.959280 0.000000
-7.333504 -7.113511 -0.587138 1491 0.282458 0.959280 0.000000
-7.333623 -7.113629 -0.583997 1511 0.282458 0.959280 0.000000
-7.333545 -7.113550 -0.580848 1503 0.282458 0.959279 0.000000
-7.333302 -7.113323 -0.577680 1499 0.282458 0.959280 0.000000
-7.333374 -7.113390 -0.574539 1495 0.282458 0.959280 0.000000
-7.333542 -7.113561 -0.571407 1493 0.282458 0.959280 0.000000
-7.333669 -7.113673 -0.568266 1485 0.282458 0.959280 0.000000
-7.333417 -7.113440 -0.565098 1495 0.282458 0.959280 0.000000
-7.333696 -7.113713 -0.561976 1503 0.282458 0.959280 0.000000
-7.334030 -7.114030 -0.558852 1501 0.282458 0.959280 0.000000
-7.334040 -7.114047 -0.555712 1509 0.282458 0.959280 0.000000
-7.333905 -7.113909 -0.552553 1499 0.282458 0.959280 0.000000
-7.333327 -7.113348 -0.549359 1491 0.282458 0.959280 0.000000
-7.332980 -7.113012 -0.546192 1499 0.282458 0.959280 0.000000
-7.333409 -7.113432 -0.543078 1499 0.282458 0.959280 0.000000
-7.333315 -7.113340 -0.539919 1495 0.282458 0.959280 0.000000
-7.333483 -7.113510 -0.536787 1501 0.282458 0.959280 0.000000
-7.334070 -7.114070 -0.533681 1507 0.282458 0.959280 0.000000
-7.334025 -7.114030 -0.530532 1509 0.282458 0.959280 0.000000
-7.333979 -7.113989 -0.527392 1507 0.282458 0.959280 0.000000
-7.334146 -7.114146 -0.524250 1497 0.282458 0.959280 0.000000
-7.334306 -7.114310 -0.521119 1501 0.282458 0.959280 0.000000
-7.334314 -7.114313 -0.517969 1499 0.282458 0.959280 0.000000
-7.334475 -7.114478 -0.514837 1501 0.282458 0.959280 0.000000
-7.334270 -7.114283 -0.511679 1503 0.282458 0.959280 0.000000
-7.333596 -7.113619 -0.508485 1501 0.282458 0.959280 0.000000
-7.333591 -7.113623 -0.505345 1499 0.282458 0.959280 0.000000
-7.333488 -7.113524 -0.502196 1495 0.282458 0.959280 0.000000
-7.333600 -7.113623 -0.499055 1491 0.282458 0.959280 0.000000
-7.333967 -7.113993 -0.495931 1497 0.282458 0.959280 0.000000
-7.333705 -7.113726 -0.492774 1499 0.282458 0.959280 0.000000
-7.333500 -7.113531 -0.489616 1485 0.282458 0.959280 0.000000
-7.333858 -7.113881 -0.486492 1487 0.282458 0.959280 0.000000
-7.333963 -7.113988 -0.483351 1485 0.282458 0.959280 0.000000
-7.333853 -7.113882 -0.480202 1493 0.282458 0.959280 0.000000
-7.334110 -7.114136 -0.477080 1493 0.282458 0.959280 0.000000
-7.334166 -7.114192 -0.473939 1497 0.282458 0.959280 0.000000
-7.333683 -7.113720 -0.470763 1497 0.282458 0.959280 0.000000
-7.333414 -7.113461 -0.467606 1497 0.282458 0.959280 0.000000
-7.333456 -7.113503 -0.464465 1499 0.282458 0.959280 0.000000
-7.333822 -7.113860 -0.461342 1497 0.282458 0.959280 0.000000
-7.334029 -7.114061 -0.458210 1503 0.282458 0.959280 0.000000
-7.333910 -7.113936 -0.455061 1501 0.282458 0.959279 0.000000
-7.333959 -7.113985 -0.451920 1501 0.282458 0.959280 0.000000
-7.334048 -7.114078 -0.448779 1497 0.282458 0.959280 0.000000
-7.334097 -7.114127 -0.445639 1495 0.282458 0.959280 0.000000
-7.334082 -7.114111 -0.442489 1499 0.282458 0.959280 0.000000
-7.334013 -7.114051 -0.439349 1499 0.282458 0.959280 0.000000
-7.333640 -7.113682 -0.436183 1501 0.282458 0.959280 0.000000
-7.333791 -7.113826 -0.433052 1491 0.282458 0.959280 0.000000
-7.334292 -7.114317 -0.429937 1503 0.282458 0.959280 0.000000
-7.334278 -7.114301 -0.426787 1505 0.282458 0.959280 0.000000
-7.333899 -7.113940 -0.423620 1501 0.282458 0.959280 0.000000
-7.333671 -7.113727 -0.420472 1501 0.282458 0.959280 0.000000
-7.334124 -7.114166 -0.417348 1501 0.282458 0.959280 0.000000
-7.334419 -7.114451 -0.414225 1499 0.282458 0.959279 0.000000
-7.334355 -7.114384 -0.411075 1489 0.282458 0.959280 0.000000
-7.334389 -7.114419 -0.407935 1503 0.282458 0.959280 0.000000
-7.334422 -7.114455 -0.404795 1503 0.282458 0.959280 0.000000
-7.334130 -7.114177 -0.401637 1503 0.282458 0.959280 0.000000
-7.333909 -7.113956 -0.398489 1501 0.282458 0.959280 0.000000
-7.333776 -7.113832 -0.395341 1499 0.282458 0.959280 0.000000
-7.333753 -7.113810 -0.392191 1499 0.282458 0.959280 0.000000
-7.334316 -7.114351 -0.389075 1497 0.282458 0.959280 0.000000
-7.334341 -7.114380 -0.385935 1505 0.282458 0.959280 0.000000
-7.333899 -7.113955 -0.382779 1489 0.282458 0.959280 0.000000
-7.334186 -7.114234 -0.379646 1495 0.282458 0.959280 0.000000
-7.334631 -7.114667 -0.376532 1505 0.282458 0.959279 0.000000
-7.334926 -7.114953 -0.373399 1511 0.282458 0.959280 0.000000
-7.334737 -7.114771 -0.370251 1505 0.282458 0.959279 0.000000
-7.334341 -7.114383 -0.367085 1501 0.282458 0.959280 0.000000
-7.334311 -7.114354 -0.363945 1505 0.282458 0.959280 0.000000
-7.333971 -7.114025 -0.360788 1495 0.282458 0.959280 0.000000
-7.334202 -7.114260 -0.357656 1493 0.282458 0.959280 0.000000
-7.334433 -7.114480 -0.354523 1495 0.282458 0.959280 0.000000
-7.334085 -7.114144 -0.351367 1491 0.282458 0.959280 0.000000
-7.334324 -7.114372 -0.348234 1493 0.282458 0.959280 0.000000
-7.334135 -7.114190 -0.345086 1499 0.282458 0.959280 0.000000
-7.334256 -7.114309 -0.341955 1495 0.282458 0.959280 0.000000
-7.334376 -7.114428 -0.338813 1495 0.282458 0.959280 0.000000
-7.334028 -7.114092 -0.335657 1491 0.282458 0.959280 0.000000
-7.334044 -7.114102 -0.332516 1499 0.282458 0.959280 0.000000
-7.334428 -7.114484 -0.329393 1499 0.282458 0.959280 0.000000
-7.334500 -7.114552 -0.326262 1501 0.282458 0.959280 0.000000
-7.334405 -7.114459 -0.323113 1507 0.282458 0.959280 0.000000
-7.334740 -7.114789 -0.319989 1499 0.282458 0.959280 0.000000
-7.334805 -7.114851 -0.316849 1497 0.282458 0.959280 0.000000
-7.334821 -7.114860 -0.313709 1497 0.282458 0.959280 0.000000
-7.337313 -7.112761 -0.706977 1507 0.282458 0.959280 0.000000
-7.336728 -7.112194 -0.703772 1499 0.282458 0.959280 0.000000
-7.336610 -7.112082 -0.700603 1485 0.282458 0.959280 0.000000
-7.336977 -7.112439 -0.697490 1499 0.282458 0.959280 0.000000
-7.336858 -7.112327 -0.694321 1495 0.282458 0.959280 0.000000
-7.336803 -7.112266 -0.691171 1489 0.282458 0.959280 0.000000
-7.337320 -7.112769 -0.688066 1497 0.282458 0.959280 0.000000
-7.337202 -7.112657 -0.684897 1507 0.282458 0.959280 0.000000
-7.336617 -7.112091 -0.681693 1499 0.282458 0.959280 0.000000
-7.336808 -7.112280 -0.678561 1501 0.282458 0.959280 0.000000
-7.337482 -7.112924 -0.675474 1501 0.282458 0.959280 0.000000
-7.337620 -7.113070 -0.672333 1503 0.282458 0.959280 0.000000
-7.337089 -7.112546 -0.669128 1489 0.282458 0.959280 0.000000
-7.337027 -7.112493 -0.665978 1493 0.282458 0.959280 0.000000
-7.336749 -7.112213 -0.662801 1497 0.282458 0.959280 0.000000
-7.336728 -7.112205 -0.659651 1505 0.282458 0.959280 0.000000
-7.336872 -7.112343 -0.656510 1509 0.282458 0.959280 0.000000
-7.337167 -7.112629 -0.653387 1501 0.282458 0.959280 0.000000
-7.337524 -7.112978 -0.650263 1497 0.282458 0.959280 0.000000
-7.337445 -7.112898 -0.647114 1503 0.282458 0.959279 0.000000
-7.336653 -7.112125 -0.643892 1501 0.282458 0.959280 0.000000
-7.336472 -7.111950 -0.640723 1499 0.282458 0.959280 0.000000
-7.336925 -7.112389 -0.637619 1495 0.282458 0.959280 0.000000
-7.337219 -7.112674 -0.634486 1503 0.282458 0.959280 0.000000
-7.337404 -7.112858 -0.631354 1499 0.282458 0.959280 0.000000
-7.337174 -7.112630 -0.628186 1497 0.282458 0.959280 0.000000
-7.336780 -7.112256 -0.625000 1497 0.282458 0.959280 0.000000
-7.337335 -7.112791 -0.621904 1497 0.282458 0.959280 0.000000
-7.337780 -7.113225 -0.618790 1503 0.282458 0.959280 0.000000
-7.337235 -7.112703 -0.615595 1499 0.282458 0.959280 0.000000
-7.336632 -7.112109 -0.612391 1499 0.282458 0.959280 0.000000
-7.336658 -7.112139 -0.609251 1493 0.282458 0.959280 0.000000
-7.337103 -7.112572 -0.606136 1501 0.282458 0.959280 0.000000
-7.337390 -7.112851 -0.603013 1503 0.282458 0.959280 0.000000
-7.337677 -7.113130 -0.599881 1509 0.282458 0.959280 0.000000
-7.337700 -7.113146 -0.596740 1501 0.282458 0.959280 0.000000
-7.337718 -7.113170 -0.593590 1499 0.282458 0.959280 0.000000
-7.337902 -7.113353 -0.590458 1497 0.282458 0.959280 0.000000
-7.337768 -7.113214 -0.587299 1497 0.282458 0.959280 0.000000
-7.337372 -7.112826 -0.584113 1503 0.282458 0.959280 0.000000
-7.337072 -7.112542 -0.580946 1501 0.282458 0.959280 0.000000
-7.337193 -7.112661 -0.577805 1493 0.282458 0.959280 0.000000
-7.337423 -7.112883 -0.574682 1493 0.282458 0.959280 0.000000
-7.337234 -7.112700 -0.571514 1489 0.282458 0.959280 0.000000
-7.337086 -7.112564 -0.568356 1497 0.282458 0.959280 0.000000
-7.337158 -7.112630 -0.565215 1503 0.282458 0.959280 0.000000
-7.337174 -7.112640 -0.562075 1495 0.282458 0.959280 0.000000
-7.337557 -7.113023 -0.558951 1491 0.282458 0.959280 0.000000
-7.337415 -7.112878 -0.555792 1493 0.282458 0.959280 0.000000
-7.337368 -7.112837 -0.552642 1489 0.282458 0.959280 0.000000
-7.337393 -7.112853 -0.549502 1497 0.282458 0.959280 0.000000
-7.336768 -7.112254 -0.546308 1501 0.282458 0.959280 0.000000
-7.336626 -7.112110 -0.543149 1501 0.282458 0.959280 0.000000
-7.336745 -7.112228 -0.540008 1499 0.282458 0.959280 0.000000
-7.336961 -7.112437 -0.536876 1497 0.282458 0.959280 0.000000
-7.336915 -7.112396 -0.533726 1499 0.282458 0.959280 0.000000
-7.337242 -7.112721 -0.530603 1509 0.282458 0.959280 0.000000
-7.337662 -7.113121 -0.527489 1507 0.282458 0.959280 0.000000
-7.337568 -7.113029 -0.524340 1497 0.282458 0.959280 0.000000
-7.337681 -7.113141 -0.521199 1503 0.282458 0.959280 0.000000
-7.337998 -7.113445 -0.518076 1503 0.282458 0.959280 0.000000
-7.337739 -7.113206 -0.514908 1495 0.282458 0.959280 0.000000
-7.337487 -7.112960 -0.511750 1495 0.282458 0.959280 0.000000
-7.337646 -7.113111 -0.508609 1501 0.282458 0.959280 0.000000
-7.337751 -7.113217 -0.505478 1499 0.282458 0.959280 0.000000
-7.337339 -7.112816 -0.502301 1503 0.282458 0.959280 0.000000
-7.337133 -7.112607 -0.499143 1499 0.282458 0.959280 0.000000
-7.337444 -7.112919 -0.496020 1497 0.282458 0.959280 0.000000
-7.337604 -7.113070 -0.492879 1491 0.282458 0.959280 0.000000
-7.337391 -7.112869 -0.489721 1489 0.282458 0.959280 0.000000
-7.337075 -7.112558 -0.486564 1491 0.282458 0.959280 0.000000
-7.337131 -7.112612 -0.483413 1493 0.282458 0.959280 0.000000
-7.337338 -7.112815 -0.480281 1493 0.282458 0.959280 0.000000
-7.337126 -7.112614 -0.477123 1489 0.282458 0.959280 0.000000
-7.337009 -7.112503 -0.473974 1491 0.282458 0.959280 0.000000
-7.337430 -7.112903 -0.470860 1493 0.282458 0.959280 0.000000
-7.337319 -7.112797 -0.467711 1493 0.282458 0.959280 0.000000
-7.337153 -7.112634 -0.464552 1493 0.282458 0.959280 0.000000
-7.337251 -7.112734 -0.461411 1499 0.282458 0.959280 0.000000
-7.337189 -7.112680 -0.458262 1505 0.282458 0.959280 0.000000
-7.337395 -7.112869 -0.455130 1503 0.282458 0.959280 0.000000
-7.337175 -7.112661 -0.451972 1501 0.282458 0.959280 0.000000
-7.336954 -7.112453 -0.448824 1491 0.282458 0.959280 0.000000
-7.336995 -7.112496 -0.445683 1491 0.282458 0.959280 0.000000
-7.337051 -7.112536 -0.442533 1499 0.282458 0.959280 0.000000
-7.337393 -7.112874 -0.439409 1495 0.282458 0.959280 0.000000
-7.337545 -7.113018 -0.436278 1495 0.282458 0.959280 0.000000
-7.337325 -7.112811 -0.433120 1493 0.282458 0.959280 0.000000
-7.337667 -7.113148 -0.429996 1497 0.282458 0.959280 0.000000
-7.337715 -7.113183 -0.426856 1497 0.282458 0.959280 0.000000
-7.337487 -7.112969 -0.423698 1499 0.282458 0.959280 0.000000
-7.337154 -7.112645 -0.420541 1493 0.282458 0.959280 0.000000
-7.336720 -7.112226 -0.417375 1493 0.282458 0.959280 0.000000
-7.337387 -7.112877 -0.414269 1499 0.282458 0.959280 0.000000
-7.337998 -7.113470 -0.411153 1501 0.282458 0.959280 0.000000
-7.337873 -7.113352 -0.408004 1495 0.282458 0.959280 0.000000
-7.337645 -7.113125 -0.404846 1493 0.282458 0.959280 0.000000
-7.337312 -7.112801 -0.401689 1497 0.282458 0.959280 0.000000
-7.337655 -7.113139 -0.398566 1495 0.282458 0.959280 0.000000
-7.338425 -7.113885 -0.395458 1503 0.282458 0.959280 0.000000
-7.338712 -7.114164 -0.392335 1499 0.282458 0.959280 0.000000
-7.338221 -7.113688 -0.389170 1501 0.282458 0.959280 0.000000
-7.337833 -7.113306 -0.386004 1503 0.282458 0.959280 0.000000
-7.337811 -7.113284 -0.382864 1491 0.282458 0.959280 0.000000
-7.337725 -7.113212 -0.379715 1491 0.282458 0.959280 0.000000
-7.337496 -7.112983 -0.376557 1489 0.282458 0.959280 0.000000
-7.337575 -7.113057 -0.373426 1491 0.282458 0.959280 0.000000
-7.338172 -7.113638 -0.370310 1505 0.282458 0.959280 0.000000
-7.338197 -7.113667 -0.367170 1511 0.282458 0.959280 0.000000
-7.338016 -7.113491 -0.364012 1503 0.282458 0.959280 0.000000
-7.337779 -7.113257 -0.360864 1489 0.282458 0.959280 0.000000
-7.337852 -7.113339 -0.357723 1497 0.282458 0.959279 0.000000
-7.337718 -7.113200 -0.354574 1495 0.282458 0.959280 0.000000
-7.337307 -7.112814 -0.351418 1495 0.282458 0.959280 0.000000
-7.337388 -7.112888 -0.348277 1487 0.282458 0.959280 0.000000
-7.337833 -7.113321 -0.345153 1489 0.282458 0.959280 0.000000
-7.338223 -7.113696 -0.342029 1493 0.282458 0.959279 0.000000
-7.338343 -7.113814 -0.338898 1505 0.282458 0.959280 0.000000
-7.337987 -7.113472 -0.335741 1507 0.282458 0.959280 0.000000
-7.338116 -7.113598 -0.332600 1503 0.282458 0.959280 0.000000
-7.338242 -7.113709 -0.329468 1499 0.282458 0.959280 0.000000
-7.338204 -7.113674 -0.326319 1501 0.282458 0.959280 0.000000
-7.338103 -7.113589 -0.323180 1509 0.282458 0.959280 0.000000
-7.338175 -7.113657 -0.320039 1511 0.282458 0.959280 0.000000
-7.338192 -7.113666 -0.316899 1509 0.282458 0.959280 0.000000
-7.337947 -7.113426 -0.313741 1497 0.282458 0.959280 0.000000
-7.340795 -7.111794 -0.707105 1509 0.282458 0.959280 0.000000
-7.340732 -7.111726 -0.703946 1503 0.282458 0.959280 0.000000
-7.340519 -7.111525 -0.700768 1507 0.282458 0.959280 0.000000
-7.340560 -7.111567 -0.697617 1507 0.282458 0.959280 0.000000
-7.340870 -7.111865 -0.694494 1505 0.282458 0.959279 0.000000
-7.340761 -7.111760 -0.691335 1505 0.282458 0.959280 0.000000
-7.340952 -7.111949 -0.688193 1505 0.282458 0.959280 0.000000
-7.341152 -7.112146 -0.685061 1511 0.282458 0.959280 0.000000
-7.340249 -7.111271 -0.681830 1509 0.282458 0.959280 0.000000
-7.340083 -7.111107 -0.678661 1499 0.282458 0.959280 0.000000
-7.340861 -7.111861 -0.675584 1497 0.282458 0.959280 0.000000
-7.340854 -7.111851 -0.672424 1501 0.282458 0.959280 0.000000
-7.340467 -7.111484 -0.669237 1497 0.282458 0.959280 0.000000
-7.340405 -7.111416 -0.666088 1491 0.282458 0.959280 0.000000
-7.340231 -7.111247 -0.662920 1499 0.282458 0.959280 0.000000
-7.340113 -7.111134 -0.659761 1499 0.282458 0.959280 0.000000
-7.340257 -7.111273 -0.656619 1497 0.282458 0.959280 0.000000
-7.340449 -7.111462 -0.653487 1497 0.282458 0.959280 0.000000
-7.340378 -7.111388 -0.650328 1495 0.282458 0.959279 0.000000
-7.340411 -7.111424 -0.647177 1491 0.282458 0.959280 0.000000
-7.340285 -7.111306 -0.644018 1495 0.282458 0.959280 0.000000
-7.340214 -7.111232 -0.640859 1505 0.282458 0.959280 0.000000
-7.340350 -7.111363 -0.637718 1497 0.282458 0.959280 0.000000
-7.340432 -7.111451 -0.634577 1499 0.282458 0.959280 0.000000
-7.340781 -7.111782 -0.631453 1503 0.282458 0.959280 0.000000
-7.340917 -7.111913 -0.628322 1503 0.282458 0.959280 0.000000
-7.340570 -7.111590 -0.625135 1499 0.282458 0.959280 0.000000
-7.340142 -7.111164 -0.621949 1497 0.282458 0.959280 0.000000
-7.340588 -7.111597 -0.618845 1501 0.282458 0.959280 0.000000
-7.340923 -7.111928 -0.615722 1505 0.282458 0.959280 0.000000
-7.340273 -7.111296 -0.612518 1493 0.282458 0.959280 0.000000
-7.340401 -7.111422 -0.609377 1497 0.282458 0.959280 0.000000
-7.340902 -7.111913 -0.606272 1503 0.282458 0.959280 0.000000
-7.340816 -7.111826 -0.603112 1503 0.282458 0.959280 0.000000
-7.341000 -7.112010 -0.599980 1499 0.282458 0.959280 0.000000
-7.340555 -7.111570 -0.596795 1501 0.282458 0.959280 0.000000
-7.340312 -7.111343 -0.593627 1499 0.282458 0.959280 0.000000
-7.340645 -7.111660 -0.590504 1499 0.282458 0.959280 0.000000
-7.340883 -7.111887 -0.587371 1497 0.282458 0.959280 0.000000
-7.341163 -7.112161 -0.584249 1499 0.282458 0.959280 0.000000
-7.340664 -7.111677 -0.581053 1499 0.282458 0.959280 0.000000
-7.340467 -7.111489 -0.577895 1493 0.282458 0.959280 0.000000
-7.340747 -7.111762 -0.574772 1499 0.282458 0.959280 0.000000
-7.340770 -7.111777 -0.571622 1497 0.282458 0.959280 0.000000
-7.340994 -7.112006 -0.568490 1501 0.282458 0.959280 0.000000
-7.341011 -7.112015 -0.565340 1511 0.282458 0.959280 0.000000
-7.340443 -7.111475 -0.562155 1501 0.282458 0.959280 0.000000
-7.340727 -7.111740 -0.559022 1505 0.282458 0.959280 0.000000
-7.340999 -7.112007 -0.555899 1503 0.282458 0.959280 0.000000
-7.341229 -7.112228 -0.552767 1505 0.282458 0.959280 0.000000
-7.341239 -7.112245 -0.549617 1495 0.282458 0.959280 0.000000
-7.341035 -7.112050 -0.546459 1501 0.282458 0.959280 0.000000
-7.341002 -7.112008 -0.543309 1505 0.282458 0.959280 0.000000
-7.340902 -7.111922 -0.540150 1501 0.282458 0.959280 0.000000
-7.341179 -7.112181 -0.537027 1503 0.282458 0.959280 0.000000
-7.341134 -7.112140 -0.533878 1509 0.282458 0.959280 0.000000
-7.340620 -7.111644 -0.530692 1499 0.282458 0.959280 0.000000
-7.340786 -7.111801 -0.527561 1497 0.282458 0.959280 0.000000
-7.341209 -7.112216 -0.524437 1495 0.282458 0.959280 0.000000
-7.340638 -7.111660 -0.521252 1497 0.282458 0.959280 0.000000
-7.340591 -7.111619 -0.518102 1503 0.282458 0.959280 0.000000
-7.341331 -7.112341 -0.515005 1507 0.282458 0.959280 0.000000
-7.340974 -7.111985 -0.511839 1503 0.282458 0.959280 0.000000
-7.340493 -7.111528 -0.508663 1505 0.282458 0.959280 0.000000
-7.341025 -7.112044 -0.505548 1497 0.282458 0.959279 0.000000
-7.341089 -7.112105 -0.502407 1497 0.282458 0.959280 0.000000
-7.340773 -7.111794 -0.499240 1495 0.282458 0.959280 0.000000
-7.340830 -7.111849 -0.496100 1497 0.282458 0.959280 0.000000
-7.340934 -7.111955 -0.492958 1497 0.282458 0.959280 0.000000
-7.341292 -7.112305 -0.489835 1495 0.282458 0.959280 0.000000
-7.340983 -7.112000 -0.486668 1495 0.282458 0.959280 0.000000
-7.340455 -7.111492 -0.483493 1493 0.282458 0.959280 0.000000
-7.340605 -7.111636 -0.480351 1491 0.282458 0.959280 0.000000
-7.340820 -7.111845 -0.477219 1493 0.282458 0.959280 0.000000
-7.340655 -7.111681 -0.474071 1493 0.282458 0.959280 0.000000
-7.340276 -7.111320 -0.470904 1491 0.282458 0.959280 0.000000
-7.340594 -7.111624 -0.467771 1493 0.282458 0.959280 0.000000
-7.340745 -7.111768 -0.464640 1497 0.282458 0.959280 0.000000
-7.340573 -7.111613 -0.461481 1499 0.282458 0.959280 0.000000
-7.340676 -7.111705 -0.458350 1499 0.282458 0.959280 0.000000
-7.341034 -7.112055 -0.455227 1497 0.282458 0.959280 0.000000
-7.340973 -7.112001 -0.452077 1489 0.282458 0.959279 0.000000
-7.340546 -7.111589 -0.448901 1493 0.282458 0.959280 0.000000
-7.340222 -7.111272 -0.445744 1493 0.282458 0.959280 0.000000
-7.340683 -7.111717 -0.442620 1497 0.282458 0.959280 0.000000
-7.341192 -7.112215 -0.439505 1493 0.282458 0.959279 0.000000
-7.340978 -7.111999 -0.436357 1493 0.282458 0.959280 0.000000
-7.340750 -7.111786 -0.433199 1491 0.282458 0.959280 0.000000
-7.340846 -7.111872 -0.430058 1495 0.282458 0.959280 0.000000
-7.341141 -7.112171 -0.426925 1497 0.282458 0.959280 0.000000
-7.341126 -7.112155 -0.423785 1497 0.282458 0.959280 0.000000
-7.340953 -7.111986 -0.420627 1499 0.282458 0.959280 0.000000
-7.340731 -7.111764 -0.417479 1495 0.282458 0.959280 0.000000
-7.340558 -7.111595 -0.414320 1489 0.282458 0.959280 0.000000
-7.340750 -7.111784 -0.411188 1489 0.282458 0.959280 0.000000
-7.341251 -7.112276 -0.408073 1487 0.282458 0.959280 0.000000
-7.341228 -7.112253 -0.404923 1489 0.282458 0.959280 0.000000
-7.340952 -7.111988 -0.401766 1493 0.282458 0.959280 0.000000
-7.341714 -7.112728 -0.398669 1501 0.282458 0.959280 0.000000
-7.342120 -7.113116 -0.395545 1505 0.282458 0.959280 0.000000
-7.341414 -7.112427 -0.392361 1501 0.282458 0.959279 0.000000
-7.341130 -7.112155 -0.389204 1497 0.282458 0.959280 0.000000
-7.340894 -7.111935 -0.386046 1501 0.282458 0.959280 0.000000
-7.340816 -7.111855 -0.382907 1503 0.282458 0.959280 0.000000
-7.340848 -7.111890 -0.379757 1495 0.282458 0.959280 0.000000
-7.340977 -7.112016 -0.376625 1505 0.282458 0.959279 0.000000
-7.341056 -7.112090 -0.373484 1503 0.282458 0.959280 0.000000
-7.341034 -7.112067 -0.370345 1499 0.282458 0.959280 0.000000
-7.341211 -7.112245 -0.367213 1497 0.282458 0.959280 0.000000
-7.341346 -7.112376 -0.364071 1493 0.282458 0.959280 0.000000
-7.341521 -7.112540 -0.360940 1495 0.282458 0.959280 0.000000
-7.341388 -7.112415 -0.357791 1493 0.282458 0.959280 0.000000
-7.341151 -7.112181 -0.354633 1493 0.282458 0.959280 0.000000
-7.341327 -7.112358 -0.351501 1497 0.282458 0.959280 0.000000
-7.340931 -7.111970 -0.348345 1497 0.282458 0.959280 0.000000
-7.340853 -7.111890 -0.345196 1491 0.282458 0.959280 0.000000
-7.341282 -7.112310 -0.342071 1493 0.282458 0.959280 0.000000
-7.341671 -7.112685 -0.338948 1503 0.282458 0.959280 0.000000
-7.341531 -7.112556 -0.335799 1503 0.282458 0.959280 0.000000
-7.341493 -7.112521 -0.332659 1503 0.282458 0.959280 0.000000
-7.341565 -7.112587 -0.329518 1509 0.282458 0.959280 0.000000
-7.341320 -7.112348 -0.326361 1503 0.282458 0.959280 0.000000
-7.341599 -7.112621 -0.323228 1507 0.282458 0.959280 0.000000
-7.341450 -7.112484 -0.320089 1511 0.282458 0.959280 0.000000
-7.340998 -7.112038 -0.316923 1509 0.282458 0.959280 0.000000
-7.341008 -7.112055 -0.313783 1501 0.282458 0.959280 0.000000
-7.344227 -7.110761 -0.707224 1511 0.282458 0.959280 0.000000
-7.344276 -7.110810 -0.704073 1505 0.282458 0.959280 0.000000
-7.343945 -7.110500 -0.700886 1503 0.282458 0.959280 0.000000
-7.343787 -7.110343 -0.697718 1497 0.282458 0.959280 0.000000
-7.343669 -7.110231 -0.694559 1495 0.282458 0.959280 0.000000
-7.343979 -7.110529 -0.691426 1497 0.282458 0.959280 0.000000
-7.344392 -7.110923 -0.688312 1505 0.282458 0.959280 0.000000
-7.343965 -7.110510 -0.685126 1499 0.282458 0.959280 0.000000
-7.343634 -7.110200 -0.681939 1497 0.282458 0.959280 0.000000
-7.343302 -7.109877 -0.678762 1489 0.282458 0.959280 0.000000
-7.343612 -7.110175 -0.675629 1493 0.282458 0.959280 0.000000
-7.344232 -7.110775 -0.672533 1493 0.282458 0.959280 0.000000
-7.344114 -7.110663 -0.669374 1489 0.282458 0.959280 0.000000
-7.343472 -7.110037 -0.666160 1495 0.282458 0.959280 0.000000
-7.343298 -7.109868 -0.663002 1497 0.282458 0.959280 0.000000
-7.343388 -7.109962 -0.659851 1499 0.282458 0.959280 0.000000
-7.343532 -7.110100 -0.656709 1497 0.282458 0.959280 0.000000
-7.344087 -7.110635 -0.653614 1505 0.282458 0.959280 0.000000
-7.344018 -7.110575 -0.650455 1501 0.282458 0.959280 0.000000
-7.343527 -7.110098 -0.647259 1499 0.282458 0.959280 0.000000
-7.343622 -7.110184 -0.644118 1503 0.282458 0.959280 0.000000
-7.343696 -7.110265 -0.640977 1501 0.282458 0.959280 0.000000
-7.343625 -7.110191 -0.637818 1499 0.282458 0.959280 0.000000
-7.343712 -7.110271 -0.634677 1497 0.282458 0.959279 0.000000
-7.343857 -7.110409 -0.631536 1493 0.282458 0.959280 0.000000
-7.343827 -7.110394 -0.628376 1499 0.282458 0.959280 0.000000
-7.343701 -7.110263 -0.625217 1501 0.282458 0.959280 0.000000
-7.343465 -7.110042 -0.622049 1497 0.282458 0.959280 0.000000
-7.343544 -7.110116 -0.618908 1491 0.282458 0.959280 0.000000
-7.344046 -7.110607 -0.615793 1503 0.282458 0.959280 0.000000
-7.343911 -7.110469 -0.612635 1493 0.282458 0.959280 0.000000
-7.344103 -7.110658 -0.609503 1507 0.282458 0.959280 0.000000
-7.344286 -7.110827 -0.606371 1497 0.282458 0.959280 0.000000
-7.344097 -7.110646 -0.603203 1505 0.282458 0.959280 0.000000
-7.344224 -7.110771 -0.600061 1505 0.282458 0.959280 0.000000
-7.344092 -7.110647 -0.596903 1497 0.282458 0.959280 0.000000
-7.343640 -7.110214 -0.593717 1489 0.282458 0.959280 0.000000
-7.343452 -7.110033 -0.590549 1499 0.282458 0.959280 0.000000
-7.343373 -7.109952 -0.587399 1495 0.282458 0.959279 0.000000
-7.343596 -7.110167 -0.584267 1493 0.282458 0.959280 0.000000
-7.344090 -7.110652 -0.581152 1501 0.282458 0.959280 0.000000
-7.344059 -7.110623 -0.578002 1503 0.282458 0.959280 0.000000
-7.343290 -7.109870 -0.574800 1491 0.282458 0.959280 0.000000
-7.343356 -7.109945 -0.571649 1487 0.282458 0.959280 0.000000
-7.343896 -7.110467 -0.568544 1495 0.282458 0.959280 0.000000
-7.343761 -7.110329 -0.565385 1503 0.282458 0.959280 0.000000
-7.344040 -7.110602 -0.562262 1495 0.282458 0.959280 0.000000
-7.344209 -7.110773 -0.559120 1499 0.282458 0.959280 0.000000
-7.344177 -7.110731 -0.555971 1497 0.282458 0.959280 0.000000
-7.344497 -7.111049 -0.552848 1497 0.282458 0.959280 0.000000
-7.344520 -7.111064 -0.549697 1503 0.282458 0.959280 0.000000
-7.343793 -7.110370 -0.546504 1499 0.282458 0.959280 0.000000
-7.344008 -7.110579 -0.543372 1503 0.282458 0.959280 0.000000
-7.344183 -7.110742 -0.540230 1503 0.282458 0.959280 0.000000
-7.343875 -7.110451 -0.537063 1497 0.282458 0.959280 0.000000
-7.344201 -7.110762 -0.533940 1499 0.282458 0.959280 0.000000
-7.344376 -7.110925 -0.530808 1509 0.282458 0.959280 0.000000
-7.344687 -7.111237 -0.527675 1513 0.282458 0.959280 0.000000
-7.344434 -7.110991 -0.524518 1501 0.282458 0.959280 0.000000
-7.343762 -7.110341 -0.521324 1501 0.282458 0.959280 0.000000
-7.343660 -7.110241 -0.518165 1503 0.282458 0.959280 0.000000
-7.343668 -7.110244 -0.515025 1497 0.282458 0.959280 0.000000
-7.343773 -7.110351 -0.511884 1493 0.282458 0.959280 0.000000
-7.344091 -7.110655 -0.508760 1491 0.282458 0.959280 0.000000
-7.344203 -7.110768 -0.505619 1495 0.282458 0.959280 0.000000
-7.343784 -7.110361 -0.502443 1491 0.282458 0.959280 0.000000
-7.343999 -7.110569 -0.499311 1499 0.282458 0.959280 0.000000
-7.344731 -7.111285 -0.496214 1507 0.282458 0.959280 0.000000
-7.344621 -7.111180 -0.493055 1493 0.282458 0.959280 0.000000
-7.344520 -7.111081 -0.489906 1493 0.282458 0.959280 0.000000
-7.344678 -7.111231 -0.486774 1495 0.282458 0.959280 0.000000
-7.344259 -7.110825 -0.483598 1491 0.282458 0.959280 0.000000
-7.343783 -7.110360 -0.480423 1487 0.282458 0.959280 0.000000
-7.343515 -7.110100 -0.477255 1491 0.282458 0.959280 0.000000
-7.343930 -7.110508 -0.474141 1493 0.282458 0.959280 0.000000
-7.344186 -7.110763 -0.471009 1493 0.282458 0.959280 0.000000
-7.343971 -7.110548 -0.467851 1505 0.282458 0.959280 0.000000
-7.343910 -7.110493 -0.464701 1501 0.282458 0.959280 0.000000
-7.343958 -7.110542 -0.461560 1497 0.282458 0.959279 0.000000
-7.344481 -7.111038 -0.458445 1501 0.282458 0.959280 0.000000
-7.344785 -7.111344 -0.455322 1503 0.282458 0.959280 0.000000
-7.344254 -7.110821 -0.452137 1495 0.282458 0.959280 0.000000
-7.344144 -7.110715 -0.448988 1495 0.282458 0.959280 0.000000
-7.343979 -7.110552 -0.445830 1493 0.282458 0.959279 0.000000
-7.344068 -7.110646 -0.442699 1489 0.282458 0.959280 0.000000
-7.344736 -7.111298 -0.439592 1481 0.282458 0.959280 0.000000
-7.344942 -7.111485 -0.436450 1503 0.282458 0.959280 0.000000
-7.344294 -7.110869 -0.433277 1499 0.282458 0.959280 0.000000
-7.344120 -7.110699 -0.430118 1497 0.282458 0.959279 0.000000
-7.344161 -7.110741 -0.426978 1505 0.282458 0.959280 0.000000
-7.344146 -7.110725 -0.423828 1501 0.282458 0.959280 0.000000
-7.344338 -7.110915 -0.420696 1505 0.282458 0.959280 0.000000
-7.344164 -7.110745 -0.417547 1507 0.282458 0.959280 0.000000
-7.344356 -7.110935 -0.414415 1501 0.282458 0.959280 0.000000
-7.344444 -7.111015 -0.411275 1493 0.282458 0.959280 0.000000
-7.344318 -7.110897 -0.408116 1491 0.282458 0.959280 0.000000
-7.344621 -7.111188 -0.404993 1491 0.282458 0.959280 0.000000
-7.344337 -7.110917 -0.401835 1493 0.282458 0.959280 0.000000
-7.344155 -7.110741 -0.398677 1497 0.282458 0.959280 0.000000
-7.344663 -7.111225 -0.395562 1499 0.282458 0.959280 0.000000
-7.344737 -7.111305 -0.392421 1497 0.282458 0.959280 0.000000
-7.344294 -7.110880 -0.389255 1499 0.282458 0.959280 0.000000
-7.344223 -7.110806 -0.386106 1493 0.282458 0.959280 0.000000
-7.344152 -7.110732 -0.382957 1503 0.282458 0.959280 0.000000
-7.344129 -7.110710 -0.379817 1505 0.282458 0.959280 0.000000
-7.344203 -7.110792 -0.376676 1513 0.282458 0.959280 0.000000
-7.344125 -7.110711 -0.373527 1503 0.282458 0.959279 0.000000
-7.344205 -7.110785 -0.370396 1487 0.282458 0.959280 0.000000
-7.344698 -7.111269 -0.367271 1491 0.282458 0.959280 0.000000
-7.344676 -7.111248 -0.364131 1485 0.282458 0.959280 0.000000
-7.344121 -7.110705 -0.360956 1489 0.282458 0.959280 0.000000
-7.344353 -7.110941 -0.357824 1495 0.282458 0.959279 0.000000
-7.344742 -7.111316 -0.354700 1491 0.282458 0.959280 0.000000
-7.344974 -7.111537 -0.351568 1499 0.282458 0.959280 0.000000
-7.345371 -7.111919 -0.348444 1507 0.282458 0.959280 0.000000
-7.345173 -7.111729 -0.345296 1513 0.282458 0.959280 0.000000
-7.344509 -7.111086 -0.342122 1501 0.282458 0.959280 0.000000
-7.344161 -7.110750 -0.338966 1499 0.282458 0.959280 0.000000
-7.344020 -7.110620 -0.335817 1497 0.282458 0.959280 0.000000
-7.344409 -7.110994 -0.332683 1499 0.282458 0.959280 0.000000
-7.344688 -7.111268 -0.329560 1503 0.282458 0.959280 0.000000
-7.344546 -7.111123 -0.326412 1499 0.282458 0.959279 0.000000
-7.344453 -7.111044 -0.323262 1493 0.282458 0.959280 0.000000
-7.344628 -7.111207 -0.320131 1507 0.282458 0.959279 0.000000
-7.344962 -7.111525 -0.316997 1509 0.282458 0.959280 0.000000
-7.344813 -7.111387 -0.313849 1513 0.282458 0.959280 0.000000
-7.346915 -7.109025 -0.707270 1501 0.282458 0.959280 0.000000
-7.346757 -7.108868 -0.704102 1499 0.282458 0.959280 0.000000
-7.346965 -7.109070 -0.700969 1495 0.282458 0.959280 0.000000
-7.347315 -7.109414 -0.697846 1499 0.282458 0.959280 0.000000
-7.347372 -7.109468 -0.694695 1499 0.282458 0.959280 0.000000
-7.347364 -7.109458 -0.691545 1507 0.282458 0.959280 0.000000
-7.347357 -7.109449 -0.688385 1507 0.282458 0.959280 0.000000
-7.347081 -7.109183 -0.685208 1499 0.282458 0.959280 0.000000
-7.346592 -7.108720 -0.682012 1495 0.282458 0.959280 0.000000
-7.346577 -7.108705 -0.678863 1497 0.282458 0.959280 0.000000
-7.346728 -7.108848 -0.675721 1495 0.282458 0.959280 0.000000
-7.346872 -7.108986 -0.672580 1495 0.282458 0.959280 0.000000
-7.346961 -7.109080 -0.669439 1509 0.282458 0.959280 0.000000
-7.346746 -7.108865 -0.666261 1505 0.282458 0.959280 0.000000
-7.347097 -7.109209 -0.663137 1499 0.282458 0.959280 0.000000
-7.347035 -7.109141 -0.659988 1507 0.282458 0.959280 0.000000
-7.346702 -7.108817 -0.656801 1499 0.282458 0.959280 0.000000
-7.347149 -7.109264 -0.653686 1497 0.282458 0.959280 0.000000
-7.347664 -7.109754 -0.650581 1507 0.282458 0.959280 0.000000
-7.347531 -7.109630 -0.647423 1509 0.282458 0.959280 0.000000
-7.347572 -7.109673 -0.644272 1499 0.282458 0.959280 0.000000
-7.347708 -7.109804 -0.641131 1501 0.282458 0.959280 0.000000
-7.347265 -7.109378 -0.637945 1507 0.282458 0.959280 0.000000
-7.347401 -7.109509 -0.634804 1505 0.282458 0.959280 0.000000
-7.347179 -7.109288 -0.631636 1499 0.282458 0.959280 0.000000
-7.347308 -7.109414 -0.628494 1499 0.282458 0.959280 0.000000
-7.347705 -7.109795 -0.625370 1507 0.282458 0.959280 0.000000
-7.347469 -7.109575 -0.622203 1505 0.282458 0.959280 0.000000
-7.347764 -7.109860 -0.619080 1509 0.282458 0.959280 0.000000
-7.347486 -7.109581 -0.615902 1507 0.282458 0.959280 0.000000
-7.347345 -7.109450 -0.612744 1511 0.282458 0.959280 0.000000
-7.347371 -7.109479 -0.609593 1505 0.282458 0.959280 0.000000
-7.346769 -7.108900 -0.606389 1495 0.282458 0.959280 0.000000
-7.346951 -7.109069 -0.603257 1497 0.282458 0.959280 0.000000
-7.347286 -7.109400 -0.600134 1499 0.282458 0.959280 0.000000
-7.347159 -7.109268 -0.596975 1493 0.282458 0.959280 0.000000
-7.347233 -7.109350 -0.593834 1489 0.282458 0.959280 0.000000
-7.347456 -7.109565 -0.590702 1491 0.282458 0.959280 0.000000
-7.347425 -7.109536 -0.587542 1491 0.282458 0.959280 0.000000
-7.347506 -7.109610 -0.584401 1493 0.282458 0.959280 0.000000
-7.347516 -7.109627 -0.581251 1505 0.282458 0.959280 0.000000
-7.347168 -7.109291 -0.578074 1507 0.282458 0.959280 0.000000
-7.347453 -7.109556 -0.574952 1507 0.282458 0.959280 0.000000
-7.347836 -7.109939 -0.571828 1505 0.282458 0.959280 0.000000
-7.347916 -7.110012 -0.568687 1499 0.282458 0.959280 0.000000
-7.347878 -7.109978 -0.565537 1495 0.282458 0.959280 0.000000
-7.347894 -7.109987 -0.562387 1493 0.282458 0.959280 0.000000
-7.347745 -7.109850 -0.559228 1493 0.282458 0.959280 0.000000
-7.347769 -7.109865 -0.556078 1495 0.282458 0.959280 0.000000
-7.347666 -7.109766 -0.552919 1497 0.282458 0.959280 0.000000
-7.347368 -7.109482 -0.549752 1499 0.282458 0.959280 0.000000
-7.347281 -7.109395 -0.546593 1493 0.282458 0.959280 0.000000
-7.347600 -7.109713 -0.543469 1501 0.282458 0.959280 0.000000
-7.347925 -7.110024 -0.540346 1499 0.282458 0.959280 0.000000
-7.347991 -7.110085 -0.537205 1509 0.282458 0.959280 0.000000
-7.347317 -7.109435 -0.534012 1501 0.282458 0.959280 0.000000
-7.347272 -7.109395 -0.530852 1499 0.282458 0.959280 0.000000
-7.347335 -7.109456 -0.527712 1501 0.282458 0.959280 0.000000
-7.346765 -7.108901 -0.524527 1499 0.282458 0.959280 0.000000
-7.346878 -7.109014 -0.521386 1503 0.282458 0.959280 0.000000
-7.347147 -7.109266 -0.518263 1495 0.282458 0.959280 0.000000
-7.347102 -7.109225 -0.515104 1501 0.282458 0.959280 0.000000
-7.346841 -7.108973 -0.511946 1485 0.282458 0.959280 0.000000
-7.346843 -7.108983 -0.508796 1491 0.282458 0.959280 0.000000
-7.347319 -7.109441 -0.505681 1505 0.282458 0.959280 0.000000
-7.347479 -7.109592 -0.502550 1501 0.282458 0.959280 0.000000
-7.347693 -7.109800 -0.499407 1501 0.282458 0.959280 0.000000
-7.348267 -7.110362 -0.496302 1499 0.282458 0.959280 0.000000
-7.348219 -7.110307 -0.493152 1495 0.282458 0.959280 0.000000
-7.347586 -7.109702 -0.489968 1495 0.282458 0.959280 0.000000
-7.347119 -7.109244 -0.486783 1491 0.282458 0.959280 0.000000
-7.346947 -7.109088 -0.483634 1493 0.282458 0.959280 0.000000
-7.347115 -7.109245 -0.480492 1495 0.282458 0.959280 0.000000
-7.347156 -7.109287 -0.477352 1489 0.282458 0.959280 0.000000
-7.347576 -7.109687 -0.474228 1497 0.282458 0.959280 0.000000
-7.347880 -7.109993 -0.471105 1503 0.282458 0.959280 0.000000
-7.347412 -7.109535 -0.467929 1501 0.282458 0.959280 0.000000
-7.346984 -7.109121 -0.464753 1495 0.282458 0.959280 0.000000
-7.347445 -7.109567 -0.461639 1497 0.282458 0.959280 0.000000
-7.348019 -7.110129 -0.458533 1489 0.282458 0.959280 0.000000
-7.348122 -7.110221 -0.455392 1499 0.282458 0.959280 0.000000
-7.347894 -7.110007 -0.452224 1497 0.282458 0.959280 0.000000
-7.347838 -7.109946 -0.449085 1497 0.282458 0.959280 0.000000
-7.347770 -7.109887 -0.445935 1503 0.282458 0.959280 0.000000
-7.347445 -7.109569 -0.442768 1501 0.282458 0.959280 0.000000
-7.347596 -7.109714 -0.439627 1501 0.282458 0.959280 0.000000
-7.347898 -7.110005 -0.436504 1495 0.282458 0.959279 0.000000
-7.347940 -7.110047 -0.433353 1499 0.282458 0.959280 0.000000
-7.347712 -7.109833 -0.430196 1493 0.282458 0.959280 0.000000
-7.347807 -7.109920 -0.427065 1499 0.282458 0.959280 0.000000
-7.348047 -7.110161 -0.423932 1501 0.282458 0.959280 0.000000
-7.347769 -7.109881 -0.420765 1501 0.282458 0.959280 0.000000
-7.347915 -7.110034 -0.417633 1499 0.282458 0.959279 0.000000
-7.348368 -7.110473 -0.414509 1499 0.282458 0.959280 0.000000
-7.348455 -7.110553 -0.411368 1499 0.282458 0.959279 0.000000
-7.347964 -7.110075 -0.408203 1485 0.282458 0.959280 0.000000
-7.347681 -7.109804 -0.405045 1489 0.282458 0.959280 0.000000
-7.347610 -7.109730 -0.401896 1497 0.282458 0.959280 0.000000
-7.347906 -7.110030 -0.398763 1489 0.282458 0.959280 0.000000
-7.348303 -7.110411 -0.395639 1499 0.282458 0.959280 0.000000
-7.348020 -7.110139 -0.392482 1495 0.282458 0.959279 0.000000
-7.347892 -7.110007 -0.389333 1499 0.282458 0.959280 0.000000
-7.347711 -7.109831 -0.386174 1501 0.282458 0.959280 0.000000
-7.347427 -7.109560 -0.383017 1495 0.282458 0.959280 0.000000
-7.347713 -7.109838 -0.379884 1497 0.282458 0.959280 0.000000
-7.347739 -7.109868 -0.376744 1505 0.282458 0.959280 0.000000
-7.347550 -7.109685 -0.373596 1493 0.282458 0.959280 0.000000
-7.347638 -7.109766 -0.370455 1499 0.282458 0.959280 0.000000
-7.347559 -7.109685 -0.367305 1499 0.282458 0.959280 0.000000
-7.348004 -7.110118 -0.364181 1493 0.282458 0.959280 0.000000
-7.348078 -7.110200 -0.361040 1495 0.282458 0.959280 0.000000
-7.348000 -7.110120 -0.357891 1503 0.282458 0.959280 0.000000
-7.347763 -7.109886 -0.354743 1507 0.282458 0.959280 0.000000
-7.347565 -7.109697 -0.351585 1503 0.282458 0.959280 0.000000
-7.347852 -7.109976 -0.348462 1501 0.282458 0.959280 0.000000
-7.348028 -7.110154 -0.345320 1505 0.282458 0.959280 0.000000
-7.347625 -7.109759 -0.342164 1497 0.282458 0.959280 0.000000
-7.347379 -7.109519 -0.339006 1493 0.282458 0.959280 0.000000
-7.347825 -7.109952 -0.335882 1493 0.282458 0.959280 0.000000
-7.348634 -7.110731 -0.332774 1501 0.282458 0.959280 0.000000
-7.348588 -7.110690 -0.329635 1493 0.282458 0.959280 0.000000
-7.348089 -7.110206 -0.326469 1495 0.282458 0.959280 0.000000
-7.348471 -7.110574 -0.323336 1503 0.282458 0.959280 0.000000
-7.348433 -7.110540 -0.320196 1501 0.282458 0.959280 0.000000
-7.347856 -7.109993 -0.317031 1501 0.282458 0.959280 0.000000
-7.347722 -7.109855 -0.313883 1501 0.282458 0.959280 0.000000
-7.350029 -7.107606 -0.707352 1499 0.282458 0.959280 0.000000
-7.350387 -7.107957 -0.704239 1499 0.282458 0.959280 0.000000
-7.350649 -7.108202 -0.701106 1505 0.282458 0.959280 0.000000
-7.350214 -7.107783 -0.697910 1501 0.282458 0.959280 0.000000
-7.350421 -7.107985 -0.694778 1507 0.282458 0.959280 0.000000
-7.350573 -7.108130 -0.691637 1503 0.282458 0.959280 0.000000
-7.350662 -7.108223 -0.688486 1505 0.282458 0.959280 0.000000
-7.350655 -7.108214 -0.685336 1497 0.282458 0.959280 0.000000
-7.350490 -7.108051 -0.682167 1501 0.282458 0.959280 0.000000
-7.350530 -7.108093 -0.679017 1507 0.282458 0.959280 0.000000
-7.351093 -7.108634 -0.675911 1503 0.282458 0.959280 0.000000
-7.350873 -7.108427 -0.672743 1503 0.282458 0.959280 0.000000
-7.350073 -7.107648 -0.669511 1499 0.282458 0.959280 0.000000
-7.350052 -7.107640 -0.666361 1493 0.282458 0.959280 0.000000
-7.350575 -7.108136 -0.663256 1499 0.282458 0.959280 0.000000
-7.350657 -7.108223 -0.660105 1505 0.282458 0.959280 0.000000
-7.350380 -7.107957 -0.656928 1497 0.282458 0.959280 0.000000
-7.350737 -7.108294 -0.653814 1497 0.282458 0.959280 0.000000
-7.351190 -7.108733 -0.650700 1503 0.282458 0.959280 0.000000
-7.351167 -7.108710 -0.647540 1497 0.282458 0.959280 0.000000
-7.350939 -7.108497 -0.644372 1499 0.282458 0.959280 0.000000
-7.350924 -7.108480 -0.641212 1503 0.282458 0.959280 0.000000
-7.350901 -7.108459 -0.638062 1503 0.282458 0.959280 0.000000
-7.350679 -7.108237 -0.634894 1505 0.282458 0.959280 0.000000
-7.350650 -7.108223 -0.631734 1497 0.282458 0.959280 0.000000
-7.350786 -7.108354 -0.628593 1493 0.282458 0.959280 0.000000
-7.351176 -7.108729 -0.625479 1503 0.282458 0.959280 0.000000
-7.351312 -7.108861 -0.622338 1503 0.282458 0.959280 0.000000
-7.350923 -7.108479 -0.619152 1503 0.282458 0.959280 0.000000
-7.351170 -7.108713 -0.616019 1505 0.282458 0.959280 0.000000
-7.351187 -7.108736 -0.612869 1503 0.282458 0.959280 0.000000
-7.351116 -7.108662 -0.609720 1501 0.282458 0.959280 0.000000
-7.350922 -7.108488 -0.606551 1501 0.282458 0.959280 0.000000
-7.350375 -7.107953 -0.603357 1495 0.282458 0.959280 0.000000
-7.350446 -7.108019 -0.600206 1487 0.282458 0.959280 0.000000
-7.351050 -7.108606 -0.597110 1495 0.282458 0.959280 0.000000
-7.351289 -7.108834 -0.593978 1493 0.282458 0.959280 0.000000
-7.351258 -7.108805 -0.590818 1497 0.282458 0.959280 0.000000
-7.351331 -7.108873 -0.587677 1499 0.282458 0.959280 0.000000
-7.351555 -7.109102 -0.584545 1509 0.282458 0.959280 0.000000
-7.351579 -7.109117 -0.581394 1501 0.282458 0.959280 0.000000
-7.351651 -7.109185 -0.578254 1507 0.282458 0.959280 0.000000
-7.351717 -7.109260 -0.575103 1499 0.282458 0.959280 0.000000
-7.351843 -7.109371 -0.571962 1499 0.282458 0.959280 0.000000
-7.351917 -7.109452 -0.568821 1505 0.282458 0.959280 0.000000
-7.351664 -7.109205 -0.565653 1503 0.282458 0.959280 0.000000
-7.351101 -7.108657 -0.562459 1493 0.282458 0.959280 0.000000
-7.351009 -7.108578 -0.559309 1491 0.282458 0.959280 0.000000
