563
-14.652635 -14.006762 -0.667225 999 0.137801 0.990460 0.000000
-14.651826 -14.005992 -0.660952 989 0.137801 0.990460 0.000000
-14.651665 -14.005839 -0.654714 989 0.137801 0.990460 0.000000
-14.651966 -14.006129 -0.648501 1013 0.137801 0.990460 0.000000
-14.651631 -14.005810 -0.642254 1015 0.137801 0.990460 0.000000
-14.651507 -14.005688 -0.636015 995 0.137801 0.990460 0.000000
-14.651281 -14.005470 -0.629777 1019 0.137801 0.990460 0.000000
-14.651837 -14.006005 -0.623571 1017 0.137801 0.990460 0.000000
-14.652240 -14.006392 -0.617357 1009 0.137801 0.990460 0.000000
-14.651480 -14.005661 -0.611094 1011 0.137801 0.990460 0.000000
-14.650923 -14.005135 -0.604840 999 0.137801 0.990460 0.000000
-14.650691 -14.004912 -0.598602 997 0.137801 0.990460 0.000000
-14.650983 -14.005181 -0.592379 999 0.137801 0.990460 0.000000
-14.652388 -14.006524 -0.586205 1009 0.137801 0.990460 0.000000
-14.652456 -14.006598 -0.579984 1009 0.137801 0.990460 0.000000
-14.652056 -14.006213 -0.573738 1015 0.137801 0.990460 0.000000
-14.651657 -14.005829 -0.567492 993 0.137801 0.990460 0.000000
-14.651778 -14.005945 -0.561270 999 0.137801 0.990460 0.000000
-14.651483 -14.005671 -0.555023 997 0.137801 0.990460 0.000000
-14.650178 -14.004419 -0.548745 989 0.137801 0.990460 0.000000
-14.649880 -14.004131 -0.542508 997 0.137801 0.990460 0.000000
-14.650049 -14.004299 -0.536286 1001 0.137801 0.990460 0.000000
-14.650322 -14.004564 -0.530063 1005 0.137801 0.990460 0.000000
-14.650913 -14.005130 -0.523858 1011 0.137801 0.990460 0.000000
-14.650822 -14.005034 -0.517628 1013 0.137801 0.990460 0.000000
-14.649926 -14.004181 -0.511367 1019 0.137801 0.990460 0.000000
-14.650458 -14.004698 -0.505162 1013 0.137801 0.990460 0.000000
-14.650626 -14.004852 -0.498940 1009 0.137801 0.990460 0.000000
-14.650369 -14.004609 -0.492702 1009 0.137801 0.990460 0.000000
-14.650426 -14.004662 -0.486471 1005 0.137801 0.990460 0.000000
-14.650004 -14.004258 -0.480235 1005 0.137801 0.990460 0.000000
-14.650425 -14.004657 -0.474021 1019 0.137801 0.990460 0.000000
-14.651372 -14.005565 -0.467822 1011 0.137801 0.990460 0.000000
-14.651164 -14.005374 -0.461584 1033 0.137801 0.990460 0.000000
-14.650678 -14.004906 -0.455348 1035 0.137801 0.990460 0.000000
-14.650932 -14.005143 -0.449126 1019 0.137801 0.990460 0.000000
-14.651038 -14.005248 -0.442905 1017 0.137801 0.990460 0.000000
-14.650718 -14.004940 -0.436668 1031 0.137801 0.990460 0.000000
-14.650232 -14.004472 -0.430422 1009 0.137801 0.990460 0.000000
-14.650000 -14.004263 -0.424194 1009 0.137801 0.990460 0.000000
-14.649672 -14.003949 -0.417957 995 0.137801 0.990460 0.000000
-14.649975 -14.004240 -0.411734 1003 0.137801 0.990460 0.000000
-14.650181 -14.004425 -0.405512 995 0.137801 0.990460 0.000000
-14.649893 -14.004158 -0.399284 1003 0.137801 0.990460 0.000000
-14.650352 -14.004601 -0.393070 1009 0.137801 0.990460 0.000000
-14.650813 -14.005034 -0.386855 1007 0.137801 0.990460 0.000000
-14.650421 -14.004656 -0.380619 1015 0.137801 0.990460 0.000000
-14.650661 -14.004895 -0.374397 1017 0.137801 0.990460 0.000000
-14.650160 -14.004415 -0.368161 1013 0.137801 0.990460 0.000000
-14.649077 -14.003382 -0.361901 1017 0.137801 0.990460 0.000000
-14.648732 -14.003055 -0.355674 1023 0.137801 0.990460 0.000000
-14.649396 -14.003677 -0.349458 1019 0.137801 0.990460 0.000000
-14.649304 -14.003596 -0.343239 1009 0.137801 0.990460 0.000000
-14.648922 -14.003225 -0.337002 997 0.137801 0.990460 0.000000
-14.649249 -14.003549 -0.330779 985 0.137801 0.990460 0.000000
-14.648842 -14.003157 -0.324553 1001 0.137801 0.990460 0.000000
-14.647434 -14.001809 -0.318296 991 0.137801 0.990460 0.000000
-14.647083 -14.001476 -0.312059 983 0.137801 0.990460 0.000000
-14.648363 -14.002705 -0.305867 979 0.137801 0.990460 0.000000
-14.648483 -14.002821 -0.299645 981 0.137801 0.990460 0.000000
-14.648281 -14.002623 -0.293417 989 0.137801 0.990460 0.000000
-14.649041 -14.003350 -0.287200 999 0.137801 0.990460 0.000000
-14.659400 -14.004651 -0.667334 987 0.137801 0.990460 0.000000
-14.659868 -14.005103 -0.661129 991 0.137801 0.990460 0.000000
-14.660699 -14.005901 -0.654931 999 0.137801 0.990460 0.000000
-14.661370 -14.006544 -0.648725 1003 0.137801 0.990460 0.000000
-14.660666 -14.005871 -0.642461 1019 0.137801 0.990460 0.000000
-14.659439 -14.004697 -0.636173 1003 0.137801 0.990460 0.000000
-14.659623 -14.004877 -0.629951 1005 0.137801 0.990460 0.000000
-14.660241 -14.005464 -0.623745 1003 0.137801 0.990460 0.000000
-14.660063 -14.005299 -0.617506 1003 0.137801 0.990460 0.000000
-14.659623 -14.004868 -0.611260 1009 0.137801 0.990460 0.000000
-14.659698 -14.004947 -0.605030 1003 0.137801 0.990460 0.000000
-14.659622 -14.004877 -0.598790 1001 0.137801 0.990460 0.000000
-14.658805 -14.004087 -0.592528 979 0.137801 0.990460 0.000000
-14.658461 -14.003760 -0.586281 997 0.137801 0.990460 0.000000
-14.658487 -14.003787 -0.580051 1009 0.137801 0.990460 0.000000
-14.658925 -14.004213 -0.573836 991 0.137801 0.990460 0.000000
-14.659949 -14.005184 -0.567646 999 0.137801 0.990460 0.000000
-14.660606 -14.005815 -0.561440 1023 0.137801 0.990460 0.000000
-14.659304 -14.004578 -0.555162 1013 0.137801 0.990460 0.000000
-14.658952 -14.004230 -0.548915 999 0.137801 0.990460 0.000000
-14.659759 -14.005010 -0.542718 1009 0.137801 0.990460 0.000000
-14.658871 -14.004162 -0.536456 1001 0.137801 0.990460 0.000000
-14.658676 -14.003970 -0.530218 981 0.137801 0.990460 0.000000
-14.659317 -14.004588 -0.524011 1001 0.137801 0.990460 0.000000
-14.659171 -14.004447 -0.517772 1009 0.137801 0.990460 0.000000
-14.658811 -14.004095 -0.511536 1019 0.137801 0.990460 0.000000
-14.658924 -14.004206 -0.505305 1009 0.137801 0.990460 0.000000
-14.659345 -14.004619 -0.499090 1017 0.137801 0.990460 0.000000
-14.658985 -14.004266 -0.492854 1013 0.137801 0.990460 0.000000
-14.659255 -14.004531 -0.486631 1007 0.137801 0.990460 0.000000
-14.659046 -14.004326 -0.480393 1009 0.137801 0.990460 0.000000
-14.657774 -14.003114 -0.474125 1009 0.137801 0.990460 0.000000
-14.657974 -14.003308 -0.467903 1029 0.137801 0.990460 0.000000
-14.658780 -14.004074 -0.461695 1029 0.137801 0.990460 0.000000
-14.658499 -14.003811 -0.455457 1025 0.137801 0.990460 0.000000
-14.658707 -14.004011 -0.449235 1021 0.137801 0.990460 0.000000
-14.659229 -14.004507 -0.443020 1019 0.137801 0.990460 0.000000
-14.658861 -14.004148 -0.436784 999 0.137801 0.990460 0.000000
-14.658793 -14.004085 -0.430554 1003 0.137801 0.990460 0.000000
-14.658836 -14.004125 -0.424324 1005 0.137801 0.990460 0.000000
-14.658555 -14.003862 -0.418086 1009 0.137801 0.990460 0.000000
-14.658913 -14.004211 -0.411872 1011 0.137801 0.990460 0.000000
-14.658853 -14.004141 -0.405643 999 0.137801 0.990460 0.000000
-14.658509 -14.003815 -0.399406 1001 0.137801 0.990460 0.000000
-14.658600 -14.003906 -0.393175 1025 0.137801 0.990460 0.000000
-14.658263 -14.003586 -0.386938 1013 0.137801 0.990460 0.000000
-14.658188 -14.003516 -0.380709 1005 0.137801 0.990460 0.000000
-14.657845 -14.003190 -0.374472 1015 0.137801 0.990460 0.000000
-14.657673 -14.003017 -0.368243 1021 0.137801 0.990460 0.000000
-14.658441 -14.003751 -0.362036 1023 0.137801 0.990460 0.000000
-14.658405 -14.003728 -0.355806 1019 0.137801 0.990460 0.000000
-14.657595 -14.002943 -0.349563 1007 0.137801 0.990460 0.000000
-14.657450 -14.002817 -0.343325 1001 0.137801 0.990460 0.000000
-14.658319 -14.003647 -0.337126 1007 0.137801 0.990460 0.000000
-14.658391 -14.003712 -0.330895 1005 0.137801 0.990460 0.000000
-14.657041 -14.002422 -0.324638 1003 0.137801 0.990460 0.000000
-14.656531 -14.001935 -0.318403 991 0.137801 0.990460 0.000000
-14.657070 -14.002457 -0.312188 991 0.137801 0.990460 0.000000
-14.657190 -14.002574 -0.305966 983 0.137801 0.990460 0.000000
-14.657526 -14.002890 -0.299743 997 0.137801 0.990460 0.000000
-14.658118 -14.003455 -0.293527 987 0.137801 0.990460 0.000000
-14.658184 -14.003515 -0.287306 993 0.137801 0.990460 0.000000
-14.669340 -14.005582 -0.667603 997 0.137801 0.990460 0.000000
-14.669848 -14.006078 -0.661388 1003 0.137801 0.990460 0.000000
-14.669683 -14.005911 -0.655139 1009 0.137801 0.990460 0.000000
-14.669349 -14.005590 -0.648892 1007 0.137801 0.990460 0.000000
-14.669596 -14.005837 -0.642670 1007 0.137801 0.990460 0.000000
-14.668158 -14.004463 -0.636373 999 0.137801 0.990460 0.000000
-14.667609 -14.003930 -0.630118 999 0.137801 0.990460 0.000000
-14.668118 -14.004428 -0.623903 999 0.137801 0.990460 0.000000
-14.668575 -14.004858 -0.617689 999 0.137801 0.990460 0.000000
-14.668651 -14.004937 -0.611458 1003 0.137801 0.990460 0.000000
-14.667897 -14.004212 -0.605195 997 0.137801 0.990460 0.000000
-14.668034 -14.004341 -0.598964 999 0.137801 0.990460 0.000000
-14.667736 -14.004052 -0.592716 989 0.137801 0.990460 0.000000
-14.667078 -14.003431 -0.586462 981 0.137801 0.990460 0.000000
-14.667254 -14.003606 -0.580231 1001 0.137801 0.990460 0.000000
-14.667548 -14.003876 -0.574008 1005 0.137801 0.990460 0.000000
-14.668040 -14.004348 -0.567803 997 0.137801 0.990460 0.000000
-14.667477 -14.003816 -0.561548 1001 0.137801 0.990460 0.000000
-14.666755 -14.003130 -0.555285 1003 0.137801 0.990460 0.000000
-14.667411 -14.003747 -0.549078 1001 0.137801 0.990460 0.000000
-14.668375 -14.004666 -0.542879 1007 0.137801 0.990460 0.000000
-14.667913 -14.004231 -0.536633 1013 0.137801 0.990460 0.000000
-14.667339 -14.003678 -0.530379 1001 0.137801 0.990460 0.000000
-14.667460 -14.003795 -0.524147 1021 0.137801 0.990460 0.000000
-14.667575 -14.003905 -0.517926 1023 0.137801 0.990460 0.000000
-14.667374 -14.003722 -0.511688 1005 0.137801 0.990460 0.000000
-14.666423 -14.002810 -0.505417 1001 0.137801 0.990460 0.000000
-14.666331 -14.002715 -0.499187 1001 0.137801 0.990460 0.000000
-14.666753 -14.003128 -0.492973 1011 0.137801 0.990460 0.000000
-14.666542 -14.002923 -0.486735 1007 0.137801 0.990460 0.000000
-14.666806 -14.003181 -0.480512 1009 0.137801 0.990460 0.000000
-14.667177 -14.003529 -0.474289 1015 0.137801 0.990460 0.000000
-14.666968 -14.003337 -0.468051 1011 0.137801 0.990460 0.000000
-14.666813 -14.003177 -0.461812 1023 0.137801 0.990460 0.000000
-14.666745 -14.003115 -0.455582 1023 0.137801 0.990460 0.000000
-14.667008 -14.003374 -0.449360 1009 0.137801 0.990460 0.000000
-14.666633 -14.003008 -0.443123 995 0.137801 0.990460 0.000000
-14.666572 -14.002951 -0.436884 995 0.137801 0.990460 0.000000
-14.666985 -14.003344 -0.430670 1013 0.137801 0.990460 0.000000
-14.666918 -14.003281 -0.424440 1011 0.137801 0.990460 0.000000
-14.667014 -14.003378 -0.418209 1005 0.137801 0.990460 0.000000
-14.666578 -14.002964 -0.411973 1011 0.137801 0.990460 0.000000
-14.666988 -14.003355 -0.405749 1009 0.137801 0.990460 0.000000
-14.667025 -14.003389 -0.399518 1005 0.137801 0.990460 0.000000
-14.666318 -14.002715 -0.393275 999 0.137801 0.990460 0.000000
-14.666296 -14.002690 -0.387045 1003 0.137801 0.990460 0.000000
-14.665797 -14.002224 -0.380800 1005 0.137801 0.990460 0.000000
-14.666304 -14.002707 -0.374585 1007 0.137801 0.990460 0.000000
-14.666811 -14.003189 -0.368370 1011 0.137801 0.990460 0.000000
-14.666735 -14.003120 -0.362140 1011 0.137801 0.990460 0.000000
-14.666445 -14.002838 -0.355903 1015 0.137801 0.990460 0.000000
-14.666415 -14.002807 -0.349673 997 0.137801 0.990460 0.000000
-14.666175 -14.002576 -0.343435 1005 0.137801 0.990460 0.000000
-14.665453 -14.001890 -0.337192 1007 0.137801 0.990460 0.000000
-14.665953 -14.002367 -0.330977 1005 0.137801 0.990460 0.000000
-14.665979 -14.002394 -0.324747 973 0.137801 0.990460 0.000000
-14.665195 -14.001643 -0.318494 999 0.137801 0.990460 0.000000
-14.665001 -14.001464 -0.312266 991 0.137801 0.990460 0.000000
-14.666021 -14.002444 -0.306056 997 0.137801 0.990460 0.000000
-14.665669 -14.002097 -0.299829 995 0.137801 0.990460 0.000000
-14.664892 -14.001353 -0.293576 977 0.137801 0.990460 0.000000
-14.665382 -14.001822 -0.287361 983 0.137801 0.990460 0.000000
-14.677772 -14.004894 -0.667787 1001 0.137801 0.990460 0.000000
-14.676657 -14.003837 -0.661497 997 0.137801 0.990460 0.000000
-14.676369 -14.003568 -0.655250 991 0.137801 0.990460 0.000000
-14.677262 -14.004416 -0.649051 995 0.137801 0.990460 0.000000
-14.676499 -14.003684 -0.642779 999 0.137801 0.990460 0.000000
-14.676701 -14.003880 -0.636556 1007 0.137801 0.990460 0.000000
-14.677576 -14.004715 -0.630358 1009 0.137801 0.990460 0.000000
-14.676138 -14.003342 -0.624062 999 0.137801 0.990460 0.000000
-14.675055 -14.002308 -0.617782 991 0.137801 0.990460 0.000000
-14.675930 -14.003144 -0.611583 1003 0.137801 0.990460 0.000000
-14.676698 -14.003878 -0.605376 991 0.137801 0.990460 0.000000
-14.676575 -14.003757 -0.599137 1001 0.137801 0.990460 0.000000
-14.675540 -14.002776 -0.592856 1007 0.137801 0.990460 0.000000
-14.675297 -14.002545 -0.586619 997 0.137801 0.990460 0.000000
-14.676332 -14.003522 -0.580419 1005 0.137801 0.990460 0.000000
-14.676139 -14.003345 -0.574180 997 0.137801 0.990460 0.000000
-14.675787 -14.003011 -0.567933 995 0.137801 0.990460 0.000000
-14.675806 -14.003033 -0.561703 997 0.137801 0.990460 0.000000
-14.675029 -14.002289 -0.555440 993 0.137801 0.990460 0.000000
-14.674788 -14.002058 -0.549192 991 0.137801 0.990460 0.000000
-14.676019 -14.003235 -0.543001 1009 0.137801 0.990460 0.000000
-14.675824 -14.003042 -0.536762 1001 0.137801 0.990460 0.000000
-14.674984 -14.002247 -0.530500 1003 0.137801 0.990460 0.000000
-14.675153 -14.002402 -0.524269 1007 0.137801 0.990460 0.000000
-14.674424 -14.001710 -0.518015 1011 0.137801 0.990460 0.000000
-14.673798 -14.001114 -0.511761 997 0.137801 0.990460 0.000000
-14.674806 -14.002070 -0.505561 1013 0.137801 0.990460 0.000000
-14.675827 -14.003050 -0.499361 1011 0.137801 0.990460 0.000000
-14.675664 -14.002896 -0.493123 1009 0.137801 0.990460 0.000000
-14.675297 -14.002551 -0.486876 1001 0.137801 0.990460 0.000000
-14.675355 -14.002604 -0.480646 1009 0.137801 0.990460 0.000000
-14.675034 -14.002295 -0.474408 993 0.137801 0.990460 0.000000
-14.674714 -14.001987 -0.468161 1005 0.137801 0.990460 0.000000
-14.674874 -14.002137 -0.461940 1011 0.137801 0.990460 0.000000
-14.674870 -14.002138 -0.455700 1007 0.137801 0.990460 0.000000
-14.674919 -14.002183 -0.449469 1011 0.137801 0.990460 0.000000
-14.675073 -14.002328 -0.443247 1005 0.137801 0.990460 0.000000
-14.674634 -14.001911 -0.437001 1003 0.137801 0.990460 0.000000
-14.674953 -14.002213 -0.430778 1003 0.137801 0.990460 0.000000
-14.675941 -14.003166 -0.424579 1003 0.137801 0.990460 0.000000
-14.675667 -14.002896 -0.418331 987 0.137801 0.990460 0.000000
-14.674796 -14.002077 -0.412079 989 0.137801 0.990460 0.000000
-14.675098 -14.002367 -0.405856 987 0.137801 0.990460 0.000000
-14.674722 -14.002001 -0.399610 993 0.137801 0.990460 0.000000
-14.673907 -14.001225 -0.393357 981 0.137801 0.990460 0.000000
-14.673572 -14.000906 -0.387120 997 0.137801 0.990460 0.000000
-14.673495 -14.000836 -0.380891 1005 0.137801 0.990460 0.000000
-14.673521 -14.000863 -0.374660 1009 0.137801 0.990460 0.000000
-14.674193 -14.001493 -0.368444 997 0.137801 0.990460 0.000000
-14.674590 -14.001873 -0.362220 1009 0.137801 0.990460 0.000000
-14.674356 -14.001649 -0.355992 1013 0.137801 0.990460 0.000000
-14.674383 -14.001676 -0.349762 1023 0.137801 0.990460 0.000000
-14.675142 -14.002402 -0.343544 997 0.137801 0.990460 0.000000
-14.675320 -14.002579 -0.337322 1003 0.137801 0.990460 0.000000
-14.674660 -14.001943 -0.331069 1001 0.137801 0.990460 0.000000
-14.674568 -14.001861 -0.324839 997 0.137801 0.990460 0.000000
-14.673532 -14.000866 -0.318589 985 0.137801 0.990460 0.000000
-14.673119 -14.000483 -0.312353 991 0.137801 0.990460 0.000000
-14.673033 -14.000393 -0.306113 987 0.137801 0.990460 0.000000
-14.673092 -14.000459 -0.299893 985 0.137801 0.990460 0.000000
-14.673111 -14.000466 -0.293662 981 0.137801 0.990460 0.000000
-14.673382 -14.000731 -0.287440 993 0.137801 0.990460 0.000000
-14.686822 -14.004635 -0.667996 989 0.137801 0.990460 0.000000
-14.685274 -14.003158 -0.661691 987 0.137801 0.990460 0.000000
-14.684789 -14.002690 -0.655425 985 0.137801 0.990460 0.000000
-14.685517 -14.003393 -0.649228 995 0.137801 0.990460 0.000000
-14.685604 -14.003469 -0.642987 997 0.137801 0.990460 0.000000
-14.685326 -14.003208 -0.636740 987 0.137801 0.990460 0.000000
-14.685359 -14.003241 -0.630499 1003 0.137801 0.990460 0.000000
-14.684543 -14.002465 -0.624227 991 0.137801 0.990460 0.000000
-14.684421 -14.002344 -0.617988 979 0.137801 0.990460 0.000000
-14.684770 -14.002673 -0.611764 991 0.137801 0.990460 0.000000
-14.684536 -14.002449 -0.605516 993 0.137801 0.990460 0.000000
-14.684351 -14.002276 -0.599278 993 0.137801 0.990460 0.000000
-14.684368 -14.002296 -0.593038 993 0.137801 0.990460 0.000000
-14.684404 -14.002331 -0.586807 999 0.137801 0.990460 0.000000
-14.684264 -14.002196 -0.580568 1011 0.137801 0.990460 0.000000
-14.684125 -14.002062 -0.574320 993 0.137801 0.990460 0.000000
-14.683623 -14.001580 -0.568064 995 0.137801 0.990460 0.000000
-14.683690 -14.001654 -0.561833 993 0.137801 0.990460 0.000000
-14.683442 -14.001418 -0.555586 989 0.137801 0.990460 0.000000
-14.683562 -14.001535 -0.549354 1001 0.137801 0.990460 0.000000
-14.683896 -14.001850 -0.543131 1007 0.137801 0.990460 0.000000
-14.684559 -14.002474 -0.536925 995 0.137801 0.990460 0.000000
-14.684830 -14.002738 -0.530702 1007 0.137801 0.990460 0.000000
-14.683882 -14.001842 -0.524431 1019 0.137801 0.990460 0.000000
-14.684427 -14.002356 -0.518215 1011 0.137801 0.990460 0.000000
-14.684430 -14.002363 -0.511975 1009 0.137801 0.990460 0.000000
-14.684126 -14.002069 -0.505728 1019 0.137801 0.990460 0.000000
-14.685081 -14.002982 -0.499529 1005 0.137801 0.990460 0.000000
-14.684446 -14.002380 -0.493275 985 0.137801 0.990460 0.000000
-14.682702 -14.000717 -0.486981 987 0.137801 0.990460 0.000000
-14.683499 -14.001476 -0.480773 997 0.137801 0.990460 0.000000
-14.684195 -14.002138 -0.474557 1003 0.137801 0.990460 0.000000
-14.684135 -14.002082 -0.468327 1001 0.137801 0.990460 0.000000
-14.684296 -14.002231 -0.462095 995 0.137801 0.990460 0.000000
-14.683811 -14.001777 -0.455850 987 0.137801 0.990460 0.000000
-14.683695 -14.001661 -0.449611 1001 0.137801 0.990460 0.000000
-14.683486 -14.001457 -0.443372 997 0.137801 0.990460 0.000000
-14.683259 -14.001240 -0.437125 999 0.137801 0.990460 0.000000
-14.682885 -14.000888 -0.430888 989 0.137801 0.990460 0.000000
-14.682666 -14.000676 -0.424640 997 0.137801 0.990460 0.000000
-14.682276 -14.000312 -0.418403 995 0.137801 0.990460 0.000000
-14.681940 -13.999992 -0.412156 983 0.137801 0.990460 0.000000
-14.682092 -14.000134 -0.405925 985 0.137801 0.990460 0.000000
-14.682175 -14.000219 -0.399704 985 0.137801 0.990460 0.000000
-14.682162 -14.000200 -0.393464 985 0.137801 0.990460 0.000000
-14.682354 -14.000388 -0.387242 993 0.137801 0.990460 0.000000
-14.682916 -14.000916 -0.381016 991 0.137801 0.990460 0.000000
-14.683421 -14.001399 -0.374802 997 0.137801 0.990460 0.000000
-14.682921 -14.000931 -0.368556 991 0.137801 0.990460 0.000000
-14.682899 -14.000906 -0.362326 997 0.137801 0.990460 0.000000
-14.681864 -13.999911 -0.356066 1003 0.137801 0.990460 0.000000
-14.681787 -13.999842 -0.349836 1001 0.137801 0.990460 0.000000
-14.682656 -14.000671 -0.343618 997 0.137801 0.990460 0.000000
-14.682362 -14.000398 -0.337381 993 0.137801 0.990460 0.000000
-14.682591 -14.000617 -0.331158 989 0.137801 0.990460 0.000000
-14.682233 -14.000278 -0.324912 983 0.137801 0.990460 0.000000
-14.682265 -14.000297 -0.318681 987 0.137801 0.990460 0.000000
-14.681907 -13.999958 -0.312444 981 0.137801 0.990460 0.000000
-14.680706 -13.998816 -0.306186 977 0.137801 0.990460 0.000000
-14.680512 -13.998625 -0.299957 979 0.137801 0.990460 0.000000
-14.680940 -13.999043 -0.293733 973 0.137801 0.990460 0.000000
-14.682233 -14.000270 -0.287521 987 0.137801 0.990460 0.000000
-14.682228 -14.000272 -0.281291 987 0.137801 0.990460 0.000000
-14.693732 -14.002475 -0.668115 995 0.137801 0.990460 0.000000
-14.693192 -14.001962 -0.661850 979 0.137801 0.990460 0.000000
-14.692596 -14.001391 -0.655585 985 0.137801 0.990460 0.000000
-14.692369 -14.001173 -0.649337 989 0.137801 0.990460 0.000000
-14.692508 -14.001317 -0.643106 993 0.137801 0.990460 0.000000
-14.692502 -14.001305 -0.636866 981 0.137801 0.990460 0.000000
-14.692010 -14.000831 -0.630600 981 0.137801 0.990460 0.000000
-14.691822 -14.000658 -0.624362 973 0.137801 0.990460 0.000000
-14.692858 -14.001649 -0.618162 989 0.137801 0.990460 0.000000
-14.692947 -14.001727 -0.611931 997 0.137801 0.990460 0.000000
-14.692604 -14.001401 -0.605674 997 0.137801 0.990460 0.000000
-14.692204 -14.001029 -0.599418 983 0.137801 0.990460 0.000000
-14.692972 -14.001762 -0.593210 1007 0.137801 0.990460 0.000000
-14.693635 -14.002386 -0.587004 1001 0.137801 0.990460 0.000000
-14.692764 -14.001552 -0.580732 1009 0.137801 0.990460 0.000000
-14.691823 -14.000661 -0.574451 979 0.137801 0.990460 0.000000
-14.691850 -14.000689 -0.568220 979 0.137801 0.990460 0.000000
-14.692348 -14.001163 -0.561995 983 0.137801 0.990460 0.000000
-14.692154 -14.000973 -0.555757 1005 0.137801 0.990460 0.000000
-14.691794 -14.000634 -0.549500 1011 0.137801 0.990460 0.000000
-14.691766 -14.000603 -0.543271 1003 0.137801 0.990460 0.000000
-14.691507 -14.000359 -0.537023 1013 0.137801 0.990460 0.000000
-14.692056 -14.000888 -0.530807 1003 0.137801 0.990460 0.000000
-14.692382 -14.001197 -0.524574 1007 0.137801 0.990460 0.000000
-14.693028 -14.001806 -0.518368 1021 0.137801 0.990460 0.000000
-14.692979 -14.001771 -0.512128 1019 0.137801 0.990460 0.000000
-14.692083 -14.000917 -0.505857 997 0.137801 0.990460 0.000000
-14.691669 -14.000521 -0.499610 983 0.137801 0.990460 0.000000
-14.691143 -14.000020 -0.493355 995 0.137801 0.990460 0.000000
-14.690517 -13.999425 -0.487101 981 0.137801 0.990460 0.000000
-14.691196 -14.000074 -0.480884 993 0.137801 0.990460 0.000000
-14.691894 -14.000738 -0.474668 995 0.137801 0.990460 0.000000
-14.691360 -14.000232 -0.468423 989 0.137801 0.990460 0.000000
-14.691102 -13.999974 -0.462175 983 0.137801 0.990460 0.000000
-14.691522 -14.000373 -0.455951 977 0.137801 0.990460 0.000000
-14.691510 -14.000369 -0.449721 993 0.137801 0.990460 0.000000
-14.691401 -14.000259 -0.443482 989 0.137801 0.990460 0.000000
-14.690698 -13.999600 -0.437218 993 0.137801 0.990460 0.000000
-14.690589 -13.999492 -0.430989 993 0.137801 0.990460 0.000000
-14.690845 -13.999730 -0.424756 999 0.137801 0.990460 0.000000
-14.690027 -13.998954 -0.418504 997 0.137801 0.990460 0.000000
-14.689866 -13.998801 -0.412255 991 0.137801 0.990460 0.000000
-14.690372 -13.999285 -0.406040 993 0.137801 0.990460 0.000000
-14.690675 -13.999575 -0.399817 983 0.137801 0.990460 0.000000
-14.690387 -13.999307 -0.393570 977 0.137801 0.990460 0.000000
-14.690634 -13.999538 -0.387348 983 0.137801 0.990460 0.000000
-14.691471 -14.000329 -0.381130 987 0.137801 0.990460 0.000000
-14.691072 -13.999959 -0.374883 1003 0.137801 0.990460 0.000000
-14.689720 -13.998668 -0.368616 979 0.137801 0.990460 0.000000
-14.689809 -13.998745 -0.362385 981 0.137801 0.990460 0.000000
-14.690042 -13.998980 -0.356162 993 0.137801 0.990460 0.000000
-14.690596 -13.999500 -0.349937 989 0.137801 0.990460 0.000000
-14.690567 -13.999469 -0.343707 993 0.137801 0.990460 0.000000
-14.689484 -13.998437 -0.337447 993 0.137801 0.990460 0.000000
-14.688919 -13.997905 -0.331202 995 0.137801 0.990460 0.000000
-14.688993 -13.997983 -0.324972 975 0.137801 0.990460 0.000000
-14.689382 -13.998343 -0.318748 977 0.137801 0.990460 0.000000
-14.689188 -13.998165 -0.312509 983 0.137801 0.990460 0.000000
-14.689672 -13.998628 -0.306285 967 0.137801 0.990460 0.000000
-14.691176 -14.000054 -0.300080 979 0.137801 0.990460 0.000000
-14.690866 -13.999767 -0.293843 989 0.137801 0.990460 0.000000
-14.689451 -13.998414 -0.287586 979 0.137801 0.990460 0.000000
-14.688667 -13.997663 -0.281334 961 0.137801 0.990460 0.000000
-14.700490 -14.000359 -0.668234 983 0.137801 0.990460 0.000000
-14.700642 -14.000501 -0.662002 985 0.137801 0.990460 0.000000
-14.700999 -14.000835 -0.655769 987 0.137801 0.990460 0.000000
-14.701302 -14.001126 -0.649546 989 0.137801 0.990460 0.000000
-14.701185 -14.001011 -0.643297 983 0.137801 0.990460 0.000000
-14.700952 -14.000801 -0.637049 977 0.137801 0.990460 0.000000
-14.700884 -14.000725 -0.630799 989 0.137801 0.990460 0.000000
-14.700233 -14.000109 -0.624536 993 0.137801 0.990460 0.000000
-14.699732 -13.999628 -0.618280 981 0.137801 0.990460 0.000000
-14.700397 -14.000266 -0.612064 983 0.137801 0.990460 0.000000
-14.700533 -14.000394 -0.605832 993 0.137801 0.990460 0.000000
-14.699553 -13.999458 -0.599551 985 0.137801 0.990460 0.000000
-14.699476 -13.999389 -0.593302 993 0.137801 0.990460 0.000000
-14.699921 -13.999821 -0.587087 983 0.137801 0.990460 0.000000
-14.699631 -13.999538 -0.580830 995 0.137801 0.990460 0.000000
-14.699862 -13.999758 -0.574608 989 0.137801 0.990460 0.000000
-14.699882 -13.999779 -0.568367 981 0.137801 0.990460 0.000000
-14.700071 -13.999951 -0.562136 977 0.137801 0.990460 0.000000
-14.699919 -13.999819 -0.555887 991 0.137801 0.990460 0.000000
-14.699149 -13.999081 -0.549624 985 0.137801 0.990460 0.000000
-14.699484 -13.999398 -0.543401 1003 0.137801 0.990460 0.000000
-14.700495 -14.000370 -0.537191 1023 0.137801 0.990460 0.000000
-14.700150 -14.000029 -0.530944 1011 0.137801 0.990460 0.000000
-14.698618 -13.998580 -0.524648 977 0.137801 0.990460 0.000000
-14.698628 -13.998579 -0.518418 989 0.137801 0.990460 0.000000
-14.699427 -13.999352 -0.512200 989 0.137801 0.990460 0.000000
-14.700445 -14.000316 -0.506001 1003 0.137801 0.990460 0.000000
-14.700180 -14.000067 -0.499753 1003 0.137801 0.990460 0.000000
-14.699876 -13.999772 -0.493506 997 0.137801 0.990460 0.000000
-14.700139 -14.000031 -0.487273 993 0.137801 0.990460 0.000000
-14.699347 -13.999273 -0.481010 997 0.137801 0.990460 0.000000
-14.698876 -13.998818 -0.474765 987 0.137801 0.990460 0.000000
-14.699556 -13.999468 -0.468548 985 0.137801 0.990460 0.000000
-14.699975 -13.999866 -0.462324 993 0.137801 0.990460 0.000000
-14.699280 -13.999214 -0.456060 987 0.137801 0.990460 0.000000
-14.698748 -13.998709 -0.449815 989 0.137801 0.990460 0.000000
-14.698954 -13.998894 -0.443583 981 0.137801 0.990460 0.000000
-14.698729 -13.998691 -0.437335 985 0.137801 0.990460 0.000000
-14.698731 -13.998685 -0.431105 997 0.137801 0.990460 0.000000
-14.698924 -13.998873 -0.424873 989 0.137801 0.990460 0.000000
-14.699714 -13.999624 -0.418656 987 0.137801 0.990460 0.000000
-14.699701 -13.999607 -0.412416 981 0.137801 0.990460 0.000000
-14.699364 -13.999287 -0.406169 987 0.137801 0.990460 0.000000
-14.699926 -13.999827 -0.399953 991 0.137801 0.990460 0.000000
-14.699167 -13.999110 -0.393700 987 0.137801 0.990460 0.000000
-14.698885 -13.998834 -0.387453 991 0.137801 0.990460 0.000000
-14.699180 -13.999118 -0.381220 989 0.137801 0.990460 0.000000
-14.698789 -13.998739 -0.374973 983 0.137801 0.990460 0.000000
-14.698554 -13.998515 -0.368735 989 0.137801 0.990460 0.000000
-14.698049 -13.998043 -0.362490 987 0.137801 0.990460 0.000000
-14.698451 -13.998428 -0.356266 991 0.137801 0.990460 0.000000
-14.699170 -13.999111 -0.350049 997 0.137801 0.990460 0.000000
-14.699182 -13.999125 -0.343809 997 0.137801 0.990460 0.000000
-14.698570 -13.998542 -0.337564 983 0.137801 0.990460 0.000000
-14.697588 -13.997605 -0.331304 979 0.137801 0.990460 0.000000
-14.697924 -13.997921 -0.325080 975 0.137801 0.990460 0.000000
-14.698263 -13.998242 -0.318847 965 0.137801 0.990460 0.000000
-14.697591 -13.997609 -0.312603 971 0.137801 0.990460 0.000000
-14.697231 -13.997270 -0.306356 963 0.137801 0.990460 0.000000
-14.696935 -13.996982 -0.300119 955 0.137801 0.990460 0.000000
-14.697165 -13.997200 -0.293887 961 0.137801 0.990460 0.000000
-14.698019 -13.998017 -0.287668 967 0.137801 0.990460 0.000000
-14.698021 -13.998026 -0.281438 961 0.137801 0.990460 0.000000
-14.708990 -13.999715 -0.668418 967 0.137801 0.990460 0.000000
-14.709936 -14.000607 -0.662219 983 0.137801 0.990460 0.000000
-14.709806 -14.000494 -0.655970 993 0.137801 0.990460 0.000000
-14.708684 -13.999430 -0.649680 989 0.137801 0.990460 0.000000
-14.707190 -13.997997 -0.643374 965 0.137801 0.990460 0.000000
-14.707705 -13.998487 -0.637159 971 0.137801 0.990460 0.000000
-14.709117 -13.999837 -0.630976 987 0.137801 0.990460 0.000000
-14.708561 -13.999312 -0.624711 991 0.137801 0.990460 0.000000
-14.708116 -13.998889 -0.618445 979 0.137801 0.990460 0.000000
-14.708518 -13.999261 -0.612221 977 0.137801 0.990460 0.000000
-14.708499 -13.999250 -0.605981 965 0.137801 0.990460 0.000000
-14.708950 -13.999675 -0.599756 973 0.137801 0.990460 0.000000
-14.709079 -13.999798 -0.593525 979 0.137801 0.990460 0.000000
-14.708523 -13.999273 -0.587260 961 0.137801 0.990460 0.000000
-14.708022 -13.998792 -0.580995 985 0.137801 0.990460 0.000000
-14.708199 -13.998967 -0.574763 983 0.137801 0.990460 0.000000
-14.708854 -13.999584 -0.568547 993 0.137801 0.990460 0.000000
-14.708659 -13.999405 -0.562298 991 0.137801 0.990460 0.000000
-14.708741 -13.999477 -0.556057 987 0.137801 0.990460 0.000000
-14.708059 -13.998836 -0.549794 991 0.137801 0.990460 0.000000
-14.707543 -13.998343 -0.543538 975 0.137801 0.990460 0.000000
-14.707082 -13.997908 -0.537283 977 0.137801 0.990460 0.000000
-14.706729 -13.997561 -0.531026 983 0.137801 0.990460 0.000000
-14.707007 -13.997832 -0.524793 973 0.137801 0.990460 0.000000
-14.707065 -13.997885 -0.518562 967 0.137801 0.990460 0.000000
-14.708241 -13.999003 -0.512361 985 0.137801 0.990460 0.000000
-14.707828 -13.998606 -0.506105 989 0.137801 0.990460 0.000000
-14.706241 -13.997098 -0.499820 983 0.137801 0.990460 0.000000
-14.706298 -13.997150 -0.493579 985 0.137801 0.990460 0.000000
-14.706624 -13.997459 -0.487346 991 0.137801 0.990460 0.000000
-14.705824 -13.996710 -0.481083 979 0.137801 0.990460 0.000000
-14.705663 -13.996557 -0.474845 981 0.137801 0.990460 0.000000
-14.706459 -13.997315 -0.468627 981 0.137801 0.990460 0.000000
-14.706572 -13.997412 -0.462396 987 0.137801 0.990460 0.000000
-14.707464 -13.998261 -0.456187 987 0.137801 0.990460 0.000000
-14.708144 -13.998912 -0.449971 997 0.137801 0.990460 0.000000
-14.707029 -13.997852 -0.443691 993 0.137801 0.990460 0.000000
-14.707128 -13.997951 -0.437460 989 0.137801 0.990460 0.000000
-14.707232 -13.998040 -0.431229 997 0.137801 0.990460 0.000000
-14.707361 -13.998178 -0.424987 993 0.137801 0.990460 0.000000
-14.707198 -13.998011 -0.418749 973 0.137801 0.990460 0.000000
-14.706918 -13.997749 -0.412501 973 0.137801 0.990460 0.000000
-14.707063 -13.997885 -0.406270 973 0.137801 0.990460 0.000000
-14.706624 -13.997468 -0.400014 983 0.137801 0.990460 0.000000
-14.706707 -13.997554 -0.393783 987 0.137801 0.990460 0.000000
-14.706212 -13.997078 -0.387537 989 0.137801 0.990460 0.000000
-14.706349 -13.997209 -0.381296 995 0.137801 0.990460 0.000000
-14.706644 -13.997493 -0.375073 991 0.137801 0.990460 0.000000
-14.706630 -13.997474 -0.368833 999 0.137801 0.990460 0.000000
-14.706759 -13.997598 -0.362602 993 0.137801 0.990460 0.000000
-14.706999 -13.997823 -0.356369 991 0.137801 0.990460 0.000000
-14.706922 -13.997753 -0.350130 985 0.137801 0.990460 0.000000
-14.706148 -13.997024 -0.343877 985 0.137801 0.990460 0.000000
-14.706431 -13.997287 -0.337644 983 0.137801 0.990460 0.000000
-14.706302 -13.997159 -0.331405 977 0.137801 0.990460 0.000000
-14.705620 -13.996519 -0.325151 973 0.137801 0.990460 0.000000
-14.705536 -13.996443 -0.318912 983 0.137801 0.990460 0.000000
-14.705239 -13.996154 -0.312675 967 0.137801 0.990460 0.000000
-14.705203 -13.996118 -0.306435 969 0.137801 0.990460 0.000000
-14.705213 -13.996131 -0.300205 969 0.137801 0.990460 0.000000
-14.705705 -13.996602 -0.293970 971 0.137801 0.990460 0.000000
-14.705558 -13.996461 -0.287731 969 0.137801 0.990460 0.000000
-14.705310 -13.996225 -0.281493 963 0.137801 0.990460 0.000000
-14.716735 -13.998351 -0.668578 975 0.137801 0.990460 0.000000
-14.716563 -13.998192 -0.662330 971 0.137801 0.990460 0.000000
-14.716187 -13.997826 -0.656063 959 0.137801 0.990460 0.000000
-14.715483 -13.997153 -0.649790 973 0.137801 0.990460 0.000000
-14.716471 -13.998105 -0.643590 979 0.137801 0.990460 0.000000
-14.716135 -13.997786 -0.637333 969 0.137801 0.990460 0.000000
-14.716342 -13.997972 -0.631101 975 0.137801 0.990460 0.000000
-14.717587 -13.999161 -0.624909 983 0.137801 0.990460 0.000000
-14.716661 -13.998282 -0.618628 973 0.137801 0.990460 0.000000
-14.716594 -13.998219 -0.612378 965 0.137801 0.990460 0.000000
-14.716936 -13.998542 -0.606155 965 0.137801 0.990460 0.000000
-14.716072 -13.997714 -0.599873 971 0.137801 0.990460 0.000000
-14.715610 -13.997278 -0.593607 965 0.137801 0.990460 0.000000
-14.715904 -13.997562 -0.587384 957 0.137801 0.990460 0.000000
-14.715985 -13.997633 -0.581143 965 0.137801 0.990460 0.000000
-14.715901 -13.997558 -0.574894 979 0.137801 0.990460 0.000000
-14.715709 -13.997379 -0.568646 989 0.137801 0.990460 0.000000
-14.715569 -13.997245 -0.562397 977 0.137801 0.990460 0.000000
-14.716273 -13.997914 -0.556180 973 0.137801 0.990460 0.000000
-14.715977 -13.997625 -0.549933 991 0.137801 0.990460 0.000000
-14.715356 -13.997036 -0.543669 975 0.137801 0.990460 0.000000
-14.716006 -13.997662 -0.537452 999 0.137801 0.990460 0.000000
-14.717024 -13.998625 -0.531242 987 0.137801 0.990460 0.000000
-14.716351 -13.997992 -0.524979 981 0.137801 0.990460 0.000000
-14.715456 -13.997138 -0.518707 977 0.137801 0.990460 0.000000
-14.715891 -13.997549 -0.512483 985 0.137801 0.990460 0.000000
-14.715894 -13.997557 -0.506243 987 0.137801 0.990460 0.000000
-14.715739 -13.997411 -0.499994 971 0.137801 0.990460 0.000000
-14.715688 -13.997361 -0.493754 967 0.137801 0.990460 0.000000
-14.715486 -13.997162 -0.487506 963 0.137801 0.990460 0.000000
-14.715968 -13.997625 -0.481281 979 0.137801 0.990460 0.000000
-14.715594 -13.997274 -0.475025 977 0.137801 0.990460 0.000000
-14.714793 -13.996511 -0.468762 969 0.137801 0.990460 0.000000
-14.715371 -13.997064 -0.462536 981 0.137801 0.990460 0.000000
-14.715689 -13.997367 -0.456303 981 0.137801 0.990460 0.000000
-14.715424 -13.997104 -0.450056 993 0.137801 0.990460 0.000000
-14.715733 -13.997400 -0.443833 985 0.137801 0.990460 0.000000
-14.715509 -13.997197 -0.437585 989 0.137801 0.990460 0.000000
-14.714811 -13.996531 -0.431321 983 0.137801 0.990460 0.000000
-14.715436 -13.997123 -0.425105 981 0.137801 0.990460 0.000000
-14.716114 -13.997771 -0.418878 981 0.137801 0.990460 0.000000
-14.715150 -13.996847 -0.412617 975 0.137801 0.990460 0.000000
-14.714129 -13.995879 -0.406347 975 0.137801 0.990460 0.000000
-14.714062 -13.995816 -0.400107 975 0.137801 0.990460 0.000000
-14.714150 -13.995894 -0.393866 971 0.137801 0.990460 0.000000
-14.715082 -13.996788 -0.387657 969 0.137801 0.990460 0.000000
-14.715377 -13.997072 -0.381424 973 0.137801 0.990460 0.000000
-14.715254 -13.996950 -0.375186 989 0.137801 0.990460 0.000000
-14.714697 -13.996425 -0.368931 979 0.137801 0.990460 0.000000
-14.714087 -13.995842 -0.362676 985 0.137801 0.990460 0.000000
-14.714806 -13.996524 -0.356449 983 0.137801 0.990460 0.000000
-14.714250 -13.995998 -0.350204 985 0.137801 0.990460 0.000000
-14.713961 -13.995717 -0.343957 987 0.137801 0.990460 0.000000
-14.714082 -13.995833 -0.337726 973 0.137801 0.990460 0.000000
-14.714210 -13.995956 -0.331484 993 0.137801 0.990460 0.000000
-14.713639 -13.995419 -0.325240 979 0.137801 0.990460 0.000000
-14.713241 -13.995034 -0.318993 969 0.137801 0.990460 0.000000
-14.714321 -13.996062 -0.312773 983 0.137801 0.990460 0.000000
-14.714285 -13.996025 -0.306533 975 0.137801 0.990460 0.000000
-14.713604 -13.995384 -0.300289 959 0.137801 0.990460 0.000000
-14.713984 -13.995751 -0.294056 947 0.137801 0.990460 0.000000
-14.714050 -13.995811 -0.287815 957 0.137801 0.990460 0.000000
-14.714013 -13.995773 -0.281585 967 0.137801 0.990460 0.000000
