749
-14.612797 -14.107410 -0.630908 1117 0.597191 0.802099 0.000000
-14.612776 -14.107385 -0.624668 1133 0.597191 0.802099 0.000000
-14.613070 -14.107670 -0.618435 1123 0.597191 0.802099 0.000000
-14.613675 -14.108265 -0.612219 1117 0.597191 0.802099 0.000000
-14.614235 -14.108794 -0.605993 1129 0.597191 0.802099 0.000000
-14.613791 -14.108369 -0.599737 1115 0.597191 0.802099 0.000000
-14.612499 -14.107119 -0.593440 1113 0.597191 0.802099 0.000000
-14.612731 -14.107353 -0.587207 1113 0.597191 0.802099 0.000000
-14.613753 -14.108341 -0.581007 1127 0.597191 0.802099 0.000000
-14.613246 -14.107851 -0.574742 1115 0.597191 0.802099 0.000000
-14.613061 -14.107664 -0.568494 1125 0.597191 0.802099 0.000000
-14.612773 -14.107381 -0.562236 1109 0.597191 0.802099 0.000000
-14.612729 -14.107351 -0.555996 1111 0.597191 0.802099 0.000000
-14.613218 -14.107822 -0.549772 1127 0.597191 0.802099 0.000000
-14.613026 -14.107630 -0.543523 1115 0.597191 0.802099 0.000000
-14.612047 -14.106688 -0.537243 1113 0.597191 0.802099 0.000000
-14.611791 -14.106444 -0.530995 1113 0.597191 0.802099 0.000000
-14.612334 -14.106960 -0.524770 1121 0.597191 0.802099 0.000000
-14.612556 -14.107174 -0.518537 1119 0.597191 0.802099 0.000000
-14.612506 -14.107137 -0.512288 1121 0.597191 0.802099 0.000000
-14.611929 -14.106577 -0.506033 1111 0.597191 0.802099 0.000000
-14.611892 -14.106540 -0.499783 1119 0.597191 0.802099 0.000000
-14.611997 -14.106644 -0.493552 1121 0.597191 0.802099 0.000000
-14.612204 -14.106844 -0.487320 1125 0.597191 0.802099 0.000000
-14.612058 -14.106704 -0.481071 1117 0.597191 0.802099 0.000000
-14.611472 -14.106136 -0.474807 1123 0.597191 0.802099 0.000000
-14.611372 -14.106033 -0.468567 1103 0.597191 0.802099 0.000000
-14.611736 -14.106391 -0.462344 1131 0.597191 0.802099 0.000000
-14.612093 -14.106741 -0.456110 1125 0.597191 0.802099 0.000000
-14.611931 -14.106586 -0.449861 1143 0.597191 0.802099 0.000000
-14.611872 -14.106529 -0.443622 1145 0.597191 0.802099 0.000000
-14.611608 -14.106265 -0.437374 1119 0.597191 0.802099 0.000000
-14.611806 -14.106460 -0.431142 1121 0.597191 0.802099 0.000000
-14.612163 -14.106810 -0.424909 1121 0.597191 0.802099 0.000000
-14.611577 -14.106242 -0.418654 1121 0.597191 0.802099 0.000000
-14.611406 -14.106069 -0.412406 1119 0.597191 0.802099 0.000000
-14.611700 -14.106354 -0.406183 1121 0.597191 0.802099 0.000000
-14.611106 -14.105781 -0.399918 1113 0.597191 0.802099 0.000000
-14.610248 -14.104961 -0.393656 1109 0.597191 0.802099 0.000000
-14.610225 -14.104937 -0.387416 1103 0.597191 0.802099 0.000000
-14.611107 -14.105783 -0.381208 1119 0.597191 0.802099 0.000000
-14.611346 -14.106023 -0.374975 1117 0.597191 0.802099 0.000000
-14.610893 -14.105579 -0.368720 1117 0.597191 0.802099 0.000000
-14.611138 -14.105812 -0.362487 1109 0.597191 0.802099 0.000000
-14.611165 -14.105838 -0.356247 1127 0.597191 0.802099 0.000000
-14.610402 -14.105111 -0.349994 1111 0.597191 0.802099 0.000000
-14.609893 -14.104621 -0.343738 1105 0.597191 0.802099 0.000000
-14.610282 -14.104998 -0.337515 1109 0.597191 0.802099 0.000000
-14.611515 -14.106185 -0.331303 1119 0.597191 0.802099 0.000000
-14.611643 -14.106308 -0.325071 1105 0.597191 0.802099 0.000000
-14.611765 -14.106427 -0.318830 1133 0.597191 0.802099 0.000000
-14.611477 -14.106142 -0.312583 1115 0.597191 0.802099 0.000000
-14.610749 -14.105446 -0.306329 1109 0.597191 0.802099 0.000000
-14.610502 -14.105209 -0.300092 1091 0.597191 0.802099 0.000000
-14.610677 -14.105371 -0.293860 1101 0.597191 0.802099 0.000000
-14.610522 -14.105225 -0.287611 1101 0.597191 0.802099 0.000000
-14.610643 -14.105341 -0.281380 1087 0.597191 0.802099 0.000000
-14.611494 -14.106161 -0.275162 1107 0.597191 0.802099 0.000000
-14.619506 -14.105257 -0.668488 1121 0.597191 0.802099 0.000000
-14.618284 -14.104076 -0.662190 1113 0.597191 0.802099 0.000000
-14.618169 -14.103961 -0.655941 1109 0.597191 0.802099 0.000000
-14.618519 -14.104305 -0.649707 1121 0.597191 0.802099 0.000000
-14.618662 -14.104442 -0.643466 1119 0.597191 0.802099 0.000000
-14.619120 -14.104888 -0.637241 1109 0.597191 0.802099 0.000000
-14.618471 -14.104255 -0.630977 1121 0.597191 0.802099 0.000000
-14.618975 -14.104740 -0.624752 1131 0.597191 0.802099 0.000000
-14.619379 -14.105129 -0.618518 1127 0.597191 0.802099 0.000000
-14.618246 -14.104047 -0.612229 1113 0.597191 0.802099 0.000000
-14.617863 -14.103672 -0.605972 1109 0.597191 0.802099 0.000000
-14.618469 -14.104254 -0.599757 1117 0.597191 0.802099 0.000000
-14.619077 -14.104836 -0.593531 1143 0.597191 0.802099 0.000000
-14.617839 -14.103642 -0.587242 1121 0.597191 0.802099 0.000000
-14.617231 -14.103056 -0.580968 1129 0.597191 0.802099 0.000000
-14.617728 -14.103535 -0.574753 1133 0.597191 0.802099 0.000000
-14.617794 -14.103607 -0.568512 1129 0.597191 0.802099 0.000000
-14.617397 -14.103222 -0.562256 1125 0.597191 0.802099 0.000000
-14.617517 -14.103339 -0.556015 1125 0.597191 0.802099 0.000000
-14.618162 -14.103965 -0.549798 1133 0.597191 0.802099 0.000000
-14.618338 -14.104127 -0.543557 1123 0.597191 0.802099 0.000000
-14.617880 -14.103689 -0.537301 1125 0.597191 0.802099 0.000000
-14.617999 -14.103806 -0.531059 1127 0.597191 0.802099 0.000000
-14.617689 -14.103505 -0.524812 1121 0.597191 0.802099 0.000000
-14.617393 -14.103215 -0.518555 1109 0.597191 0.802099 0.000000
-14.617820 -14.103636 -0.512331 1107 0.597191 0.802099 0.000000
-14.617829 -14.103635 -0.506090 1111 0.597191 0.802099 0.000000
-14.617935 -14.103740 -0.499849 1123 0.597191 0.802099 0.000000
-14.618362 -14.104162 -0.493625 1133 0.597191 0.802099 0.000000
-14.617627 -14.103446 -0.487352 1133 0.597191 0.802099 0.000000
-14.617418 -14.103240 -0.481104 1125 0.597191 0.802099 0.000000
-14.617727 -14.103551 -0.474881 1149 0.597191 0.802099 0.000000
-14.616781 -14.102635 -0.468610 1137 0.597191 0.802099 0.000000
-14.616414 -14.102275 -0.462353 1123 0.597191 0.802099 0.000000
-14.616511 -14.102373 -0.456112 1133 0.597191 0.802099 0.000000
-14.616092 -14.101967 -0.449866 1131 0.597191 0.802099 0.000000
-14.616720 -14.102567 -0.443640 1131 0.597191 0.802099 0.000000
-14.616968 -14.102815 -0.437407 1131 0.597191 0.802099 0.000000
-14.617229 -14.103061 -0.431174 1135 0.597191 0.802099 0.000000
-14.617004 -14.102842 -0.424926 1129 0.597191 0.802099 0.000000
-14.616098 -14.101972 -0.418665 1103 0.597191 0.802099 0.000000
-14.616030 -14.101908 -0.412425 1111 0.597191 0.802099 0.000000
-14.615383 -14.101291 -0.406161 1115 0.597191 0.802099 0.000000
-14.615840 -14.101724 -0.399937 1109 0.597191 0.802099 0.000000
-14.616243 -14.102112 -0.393703 1123 0.597191 0.802099 0.000000
-14.615697 -14.101589 -0.387458 1105 0.597191 0.802099 0.000000
-14.615676 -14.101565 -0.381218 1115 0.597191 0.802099 0.000000
-14.615656 -14.101553 -0.374978 1111 0.597191 0.802099 0.000000
-14.615745 -14.101631 -0.368737 1095 0.597191 0.802099 0.000000
-14.616030 -14.101911 -0.362504 1115 0.597191 0.802099 0.000000
-14.616684 -14.102544 -0.356278 1133 0.597191 0.802099 0.000000
-14.615967 -14.101854 -0.350024 1125 0.597191 0.802099 0.000000
-14.615098 -14.101017 -0.343763 1101 0.597191 0.802099 0.000000
-14.615861 -14.101753 -0.337545 1103 0.597191 0.802099 0.000000
-14.616570 -14.102431 -0.331318 1113 0.597191 0.802099 0.000000
-14.615961 -14.101846 -0.325074 1109 0.597191 0.802099 0.000000
-14.615188 -14.101097 -0.318811 1105 0.597191 0.802099 0.000000
-14.616044 -14.101923 -0.312593 1111 0.597191 0.802099 0.000000
-14.616951 -14.102803 -0.306374 1117 0.597191 0.802099 0.000000
-14.617228 -14.103075 -0.300141 1125 0.597191 0.802099 0.000000
-14.617035 -14.102882 -0.293903 1109 0.597191 0.802099 0.000000
-14.616103 -14.101979 -0.287642 1101 0.597191 0.802099 0.000000
-14.615636 -14.101536 -0.281396 1107 0.597191 0.802099 0.000000
-14.616220 -14.102098 -0.275170 1107 0.597191 0.802099 0.000000
-14.625888 -14.102959 -0.668590 1121 0.597191 0.802099 0.000000
-14.624511 -14.101624 -0.662283 1107 0.597191 0.802099 0.000000
-14.623713 -14.100857 -0.656001 1099 0.597191 0.802099 0.000000
-14.624117 -14.101244 -0.649767 1113 0.597191 0.802099 0.000000
-14.624575 -14.101690 -0.643542 1125 0.597191 0.802099 0.000000
-14.624718 -14.101827 -0.637311 1125 0.597191 0.802099 0.000000
-14.624007 -14.101145 -0.631027 1129 0.597191 0.802099 0.000000
-14.623784 -14.100925 -0.624779 1125 0.597191 0.802099 0.000000
-14.623714 -14.100862 -0.618530 1111 0.597191 0.802099 0.000000
-14.623585 -14.100734 -0.612281 1119 0.597191 0.802099 0.000000
-14.623195 -14.100354 -0.606025 1129 0.597191 0.802099 0.000000
-14.623488 -14.100639 -0.599792 1131 0.597191 0.802099 0.000000
-14.624033 -14.101170 -0.593566 1127 0.597191 0.802099 0.000000
-14.623322 -14.100486 -0.587293 1131 0.597191 0.802099 0.000000
-14.623246 -14.100403 -0.581044 1125 0.597191 0.802099 0.000000
-14.623162 -14.100327 -0.574804 1123 0.597191 0.802099 0.000000
-14.623448 -14.100606 -0.568571 1135 0.597191 0.802099 0.000000
-14.624196 -14.101330 -0.562354 1127 0.597191 0.802099 0.000000
-14.624216 -14.101350 -0.556114 1121 0.597191 0.802099 0.000000
-14.623505 -14.100654 -0.549840 1139 0.597191 0.802099 0.000000
-14.622934 -14.100113 -0.543576 1137 0.597191 0.802099 0.000000
-14.623314 -14.100481 -0.537352 1137 0.597191 0.802099 0.000000
-14.622860 -14.100036 -0.531086 1131 0.597191 0.802099 0.000000
-14.622339 -14.099535 -0.524831 1121 0.597191 0.802099 0.000000
-14.622710 -14.099896 -0.518597 1125 0.597191 0.802099 0.000000
-14.622148 -14.099349 -0.512332 1113 0.597191 0.802099 0.000000
-14.622104 -14.099304 -0.506093 1127 0.597191 0.802099 0.000000
-14.622422 -14.099623 -0.499859 1127 0.597191 0.802099 0.000000
-14.622540 -14.099725 -0.493628 1131 0.597191 0.802099 0.000000
-14.623013 -14.100184 -0.487394 1127 0.597191 0.802099 0.000000
-14.623010 -14.100186 -0.481153 1123 0.597191 0.802099 0.000000
-14.622110 -14.099322 -0.474882 1119 0.597191 0.802099 0.000000
-14.621486 -14.098710 -0.468628 1127 0.597191 0.802099 0.000000
-14.621638 -14.098866 -0.462386 1131 0.597191 0.802099 0.000000
-14.621577 -14.098809 -0.456146 1133 0.597191 0.802099 0.000000
-14.622365 -14.099566 -0.449929 1131 0.597191 0.802099 0.000000
-14.622729 -14.099921 -0.443695 1133 0.597191 0.802099 0.000000
-14.621986 -14.099198 -0.437432 1119 0.597191 0.802099 0.000000
-14.622085 -14.099298 -0.431201 1131 0.597191 0.802099 0.000000
-14.621914 -14.099124 -0.424953 1123 0.597191 0.802099 0.000000
-14.621321 -14.098564 -0.418698 1123 0.597191 0.802099 0.000000
-14.621778 -14.098995 -0.412464 1117 0.597191 0.802099 0.000000
-14.621867 -14.099088 -0.406232 1127 0.597191 0.802099 0.000000
-14.622272 -14.099476 -0.399998 1127 0.597191 0.802099 0.000000
-14.621725 -14.098955 -0.393744 1131 0.597191 0.802099 0.000000
-14.620558 -14.097819 -0.387475 1129 0.597191 0.802099 0.000000
-14.621056 -14.098311 -0.381250 1113 0.597191 0.802099 0.000000
-14.621098 -14.098338 -0.375009 1115 0.597191 0.802099 0.000000
-14.621063 -14.098314 -0.368769 1115 0.597191 0.802099 0.000000
-14.621097 -14.098347 -0.362529 1107 0.597191 0.802099 0.000000
-14.620910 -14.098160 -0.356280 1115 0.597191 0.802099 0.000000
-14.620936 -14.098186 -0.350050 1099 0.597191 0.802099 0.000000
-14.621700 -14.098924 -0.343823 1109 0.597191 0.802099 0.000000
-14.622135 -14.099351 -0.337598 1123 0.597191 0.802099 0.000000
-14.621588 -14.098815 -0.331343 1125 0.597191 0.802099 0.000000
-14.620870 -14.098126 -0.325090 1121 0.597191 0.802099 0.000000
-14.620144 -14.097431 -0.318837 1113 0.597191 0.802099 0.000000
-14.620642 -14.097909 -0.312602 1125 0.597191 0.802099 0.000000
-14.621021 -14.098279 -0.306378 1117 0.597191 0.802099 0.000000
-14.620615 -14.097885 -0.300132 1109 0.597191 0.802099 0.000000
-14.620782 -14.098041 -0.293890 1111 0.597191 0.802099 0.000000
-14.621531 -14.098765 -0.287673 1121 0.597191 0.802099 0.000000
-14.621652 -14.098883 -0.281432 1121 0.597191 0.802099 0.000000
-14.619922 -14.097219 -0.275158 1103 0.597191 0.802099 0.000000
-14.628798 -14.097311 -0.668536 1107 0.597191 0.802099 0.000000
-14.628683 -14.097196 -0.662277 1107 0.597191 0.802099 0.000000
-14.629510 -14.097997 -0.656069 1111 0.597191 0.802099 0.000000
-14.629654 -14.098133 -0.649837 1127 0.597191 0.802099 0.000000
-14.629374 -14.097870 -0.643579 1123 0.597191 0.802099 0.000000
-14.628678 -14.097199 -0.637296 1111 0.597191 0.802099 0.000000
-14.629026 -14.097529 -0.631073 1127 0.597191 0.802099 0.000000
-14.629210 -14.097712 -0.624831 1139 0.597191 0.802099 0.000000
-14.628139 -14.096680 -0.618541 1123 0.597191 0.802099 0.000000
-14.628016 -14.096558 -0.612292 1115 0.597191 0.802099 0.000000
-14.627359 -14.095920 -0.606018 1121 0.597191 0.802099 0.000000
-14.626649 -14.095236 -0.599744 1119 0.597191 0.802099 0.000000
-14.627358 -14.095928 -0.593538 1115 0.597191 0.802099 0.000000
-14.628176 -14.096709 -0.587320 1125 0.597191 0.802099 0.000000
-14.627676 -14.096226 -0.581054 1111 0.597191 0.802099 0.000000
-14.627279 -14.095840 -0.574798 1125 0.597191 0.802099 0.000000
-14.628035 -14.096570 -0.568581 1131 0.597191 0.802099 0.000000
-14.627630 -14.096190 -0.562324 1111 0.597191 0.802099 0.000000
-14.626857 -14.095444 -0.556051 1115 0.597191 0.802099 0.000000
-14.627347 -14.095916 -0.549827 1121 0.597191 0.802099 0.000000
-14.627843 -14.096394 -0.543602 1129 0.597191 0.802099 0.000000
-14.627383 -14.095943 -0.537346 1125 0.597191 0.802099 0.000000
-14.627182 -14.095757 -0.531098 1133 0.597191 0.802099 0.000000
-14.627090 -14.095660 -0.524849 1141 0.597191 0.802099 0.000000
-14.627941 -14.096481 -0.518640 1127 0.597191 0.802099 0.000000
-14.628053 -14.096591 -0.512399 1133 0.597191 0.802099 0.000000
-14.627586 -14.096148 -0.506143 1129 0.597191 0.802099 0.000000
-14.628129 -14.096665 -0.499918 1117 0.597191 0.802099 0.000000
-14.627969 -14.096511 -0.493669 1127 0.597191 0.802099 0.000000
-14.627077 -14.095654 -0.487398 1117 0.597191 0.802099 0.000000
-14.627551 -14.096113 -0.481173 1109 0.597191 0.802099 0.000000
-14.627655 -14.096217 -0.474932 1131 0.597191 0.802099 0.000000
-14.627438 -14.096004 -0.468684 1135 0.597191 0.802099 0.000000
-14.626862 -14.095445 -0.462419 1123 0.597191 0.802099 0.000000
-14.626698 -14.095291 -0.456171 1123 0.597191 0.802099 0.000000
-14.627337 -14.095899 -0.449954 1133 0.597191 0.802099 0.000000
-14.627527 -14.096087 -0.443722 1135 0.597191 0.802099 0.000000
-14.627414 -14.095984 -0.437473 1139 0.597191 0.802099 0.000000
-14.627353 -14.095926 -0.431234 1125 0.597191 0.802099 0.000000
-14.628031 -14.096580 -0.425007 1127 0.597191 0.802099 0.000000
-14.628065 -14.096613 -0.418767 1133 0.597191 0.802099 0.000000
-14.627002 -14.095589 -0.412497 1129 0.597191 0.802099 0.000000
-14.625993 -14.094608 -0.406226 1127 0.597191 0.802099 0.000000
-14.626333 -14.094945 -0.400003 1117 0.597191 0.802099 0.000000
-14.626429 -14.095029 -0.393762 1115 0.597191 0.802099 0.000000
-14.626197 -14.094805 -0.387514 1119 0.597191 0.802099 0.000000
-14.626758 -14.095348 -0.381288 1121 0.597191 0.802099 0.000000
-14.626681 -14.095278 -0.375049 1129 0.597191 0.802099 0.000000
-14.626864 -14.095459 -0.368807 1137 0.597191 0.802099 0.000000
-14.627165 -14.095737 -0.362574 1127 0.597191 0.802099 0.000000
-14.627396 -14.095971 -0.356342 1131 0.597191 0.802099 0.000000
-14.626631 -14.095231 -0.350089 1111 0.597191 0.802099 0.000000
-14.626029 -14.094650 -0.343834 1119 0.597191 0.802099 0.000000
-14.626259 -14.094871 -0.337592 1113 0.597191 0.802099 0.000000
-14.626804 -14.095402 -0.331367 1113 0.597191 0.802099 0.000000
-14.626933 -14.095525 -0.325135 1115 0.597191 0.802099 0.000000
-14.626260 -14.094873 -0.318881 1107 0.597191 0.802099 0.000000
-14.626231 -14.094842 -0.312642 1109 0.597191 0.802099 0.000000
-14.626667 -14.095270 -0.306407 1111 0.597191 0.802099 0.000000
-14.627210 -14.095786 -0.300182 1137 0.597191 0.802099 0.000000
-14.626688 -14.095284 -0.293927 1113 0.597191 0.802099 0.000000
-14.626022 -14.094639 -0.287673 1107 0.597191 0.802099 0.000000
-14.626968 -14.095564 -0.281454 1129 0.597191 0.802099 0.000000
-14.627034 -14.095624 -0.275213 1117 0.597191 0.802099 0.000000
-14.634125 -14.093664 -0.668579 1107 0.597191 0.802099 0.000000
-14.633908 -14.093452 -0.662321 1101 0.597191 0.802099 0.000000
-14.633582 -14.093138 -0.656064 1111 0.597191 0.802099 0.000000
-14.633883 -14.093429 -0.649831 1121 0.597191 0.802099 0.000000
-14.635242 -14.094733 -0.643638 1123 0.597191 0.802099 0.000000
-14.634909 -14.094412 -0.637381 1119 0.597191 0.802099 0.000000
-14.634512 -14.094039 -0.631115 1107 0.597191 0.802099 0.000000
-14.635283 -14.094782 -0.624907 1125 0.597191 0.802099 0.000000
-14.634165 -14.093699 -0.618618 1117 0.597191 0.802099 0.000000
-14.633085 -14.092660 -0.612318 1103 0.597191 0.802099 0.000000
-14.634114 -14.093654 -0.606118 1123 0.597191 0.802099 0.000000
-14.633098 -14.092668 -0.599838 1139 0.597191 0.802099 0.000000
-14.632748 -14.092334 -0.593581 1123 0.597191 0.802099 0.000000
-14.633464 -14.093018 -0.587364 1131 0.597191 0.802099 0.000000
-14.633060 -14.092639 -0.581097 1135 0.597191 0.802099 0.000000
-14.633550 -14.093112 -0.574873 1121 0.597191 0.802099 0.000000
-14.633788 -14.093338 -0.568640 1111 0.597191 0.802099 0.000000
-14.633546 -14.093106 -0.562382 1119 0.597191 0.802099 0.000000
-14.633619 -14.093172 -0.556142 1127 0.597191 0.802099 0.000000
-14.632895 -14.092476 -0.549878 1123 0.597191 0.802099 0.000000
-14.632387 -14.091987 -0.543613 1123 0.597191 0.802099 0.000000
-14.632828 -14.092406 -0.537389 1127 0.597191 0.802099 0.000000
-14.632573 -14.092163 -0.531131 1127 0.597191 0.802099 0.000000
-14.631845 -14.091466 -0.524868 1123 0.597191 0.802099 0.000000
-14.632225 -14.091835 -0.518634 1129 0.597191 0.802099 0.000000
-14.633287 -14.092855 -0.512434 1131 0.597191 0.802099 0.000000
-14.632285 -14.091895 -0.506153 1125 0.597191 0.802099 0.000000
-14.631975 -14.091593 -0.499896 1143 0.597191 0.802099 0.000000
-14.632827 -14.092414 -0.493688 1125 0.597191 0.802099 0.000000
-14.633471 -14.093026 -0.487461 1141 0.597191 0.802099 0.000000
-14.633725 -14.093280 -0.481229 1119 0.597191 0.802099 0.000000
-14.633673 -14.093229 -0.474989 1131 0.597191 0.802099 0.000000
-14.632672 -14.092270 -0.468708 1129 0.597191 0.802099 0.000000
-14.632046 -14.091656 -0.462444 1133 0.597191 0.802099 0.000000
-14.632246 -14.091850 -0.456212 1117 0.597191 0.802099 0.000000
-14.632452 -14.092052 -0.449980 1127 0.597191 0.802099 0.000000
-14.632714 -14.092299 -0.443748 1119 0.597191 0.802099 0.000000
-14.632483 -14.092087 -0.437500 1123 0.597191 0.802099 0.000000
-14.632006 -14.091622 -0.431244 1119 0.597191 0.802099 0.000000
-14.631789 -14.091411 -0.424996 1117 0.597191 0.802099 0.000000
-14.631456 -14.091089 -0.418739 1127 0.597191 0.802099 0.000000
-14.631913 -14.091536 -0.412514 1141 0.597191 0.802099 0.000000
-14.632113 -14.091731 -0.406282 1153 0.597191 0.802099 0.000000
-14.632092 -14.091704 -0.400042 1147 0.597191 0.802099 0.000000
-14.632345 -14.091945 -0.393800 1129 0.597191 0.802099 0.000000
-14.631580 -14.091217 -0.387547 1115 0.597191 0.802099 0.000000
-14.631772 -14.091406 -0.381305 1123 0.597191 0.802099 0.000000
-14.632707 -14.092296 -0.375086 1109 0.597191 0.802099 0.000000
-14.632623 -14.092219 -0.368847 1121 0.597191 0.802099 0.000000
-14.631756 -14.091381 -0.362585 1117 0.597191 0.802099 0.000000
-14.631265 -14.090905 -0.356329 1111 0.597191 0.802099 0.000000
-14.631598 -14.091236 -0.350106 1101 0.597191 0.802099 0.000000
-14.631468 -14.091108 -0.343857 1117 0.597191 0.802099 0.000000
-14.631016 -14.090676 -0.337611 1119 0.597191 0.802099 0.000000
-14.631667 -14.091295 -0.331385 1117 0.597191 0.802099 0.000000
-14.631586 -14.091220 -0.325145 1119 0.597191 0.802099 0.000000
-14.630600 -14.090273 -0.318875 1107 0.597191 0.802099 0.000000
-14.630038 -14.089725 -0.312630 1111 0.597191 0.802099 0.000000
-14.630166 -14.089848 -0.306389 1109 0.597191 0.802099 0.000000
-14.631330 -14.090979 -0.300177 1111 0.597191 0.802099 0.000000
-14.631874 -14.091496 -0.293952 1115 0.597191 0.802099 0.000000
-14.631674 -14.091311 -0.287704 1123 0.597191 0.802099 0.000000
-14.631151 -14.090808 -0.281459 1113 0.597191 0.802099 0.000000
-14.630479 -14.090158 -0.275205 1105 0.597191 0.802099 0.000000
-14.639765 -14.090132 -0.668631 1111 0.597191 0.802099 0.000000
-14.639438 -14.089816 -0.662374 1101 0.597191 0.802099 0.000000
-14.639527 -14.089908 -0.656133 1101 0.597191 0.802099 0.000000
-14.639882 -14.090244 -0.649900 1107 0.597191 0.802099 0.000000
-14.639186 -14.089573 -0.643626 1117 0.597191 0.802099 0.000000
-14.637847 -14.088284 -0.637319 1113 0.597191 0.802099 0.000000
-14.637568 -14.088020 -0.631061 1107 0.597191 0.802099 0.000000
-14.638552 -14.088964 -0.624862 1115 0.597191 0.802099 0.000000
-14.638641 -14.089055 -0.618621 1125 0.597191 0.802099 0.000000
-14.637617 -14.088061 -0.612330 1113 0.597191 0.802099 0.000000
-14.638012 -14.088444 -0.606096 1117 0.597191 0.802099 0.000000
-14.639144 -14.089535 -0.599905 1133 0.597191 0.802099 0.000000
-14.638700 -14.089110 -0.593640 1115 0.597191 0.802099 0.000000
-14.638091 -14.088525 -0.587365 1111 0.597191 0.802099 0.000000
-14.638651 -14.089054 -0.581150 1123 0.597191 0.802099 0.000000
-14.639343 -14.089733 -0.574933 1123 0.597191 0.802099 0.000000
-14.639370 -14.089759 -0.568682 1125 0.597191 0.802099 0.000000
-14.638707 -14.089115 -0.562419 1121 0.597191 0.802099 0.000000
-14.638457 -14.088877 -0.556161 1119 0.597191 0.802099 0.000000
-14.639002 -14.089395 -0.549936 1115 0.597191 0.802099 0.000000
-14.638968 -14.089370 -0.543696 1111 0.597191 0.802099 0.000000
-14.639031 -14.089429 -0.537455 1129 0.597191 0.802099 0.000000
-14.639419 -14.089804 -0.531221 1143 0.597191 0.802099 0.000000
-14.638638 -14.089050 -0.524948 1119 0.597191 0.802099 0.000000
-14.638702 -14.089109 -0.518708 1119 0.597191 0.802099 0.000000
-14.639505 -14.089878 -0.512490 1139 0.597191 0.802099 0.000000
-14.638341 -14.088770 -0.506211 1147 0.597191 0.802099 0.000000
-14.637511 -14.087963 -0.499939 1133 0.597191 0.802099 0.000000
-14.637726 -14.088171 -0.493706 1129 0.597191 0.802099 0.000000
-14.637148 -14.087610 -0.487442 1107 0.597191 0.802099 0.000000
-14.637362 -14.087817 -0.481210 1117 0.597191 0.802099 0.000000
-14.638314 -14.088735 -0.474990 1141 0.597191 0.802099 0.000000
-14.638100 -14.088536 -0.468742 1129 0.597191 0.802099 0.000000
-14.637834 -14.088272 -0.462495 1117 0.597191 0.802099 0.000000
-14.637728 -14.088176 -0.456246 1121 0.597191 0.802099 0.000000
-14.637243 -14.087706 -0.449990 1121 0.597191 0.802099 0.000000
-14.636917 -14.087391 -0.443743 1117 0.597191 0.802099 0.000000
-14.637235 -14.087695 -0.437510 1119 0.597191 0.802099 0.000000
-14.637481 -14.087942 -0.431277 1121 0.597191 0.802099 0.000000
-14.636949 -14.087419 -0.425012 1109 0.597191 0.802099 0.000000
-14.636459 -14.086956 -0.418757 1105 0.597191 0.802099 0.000000
-14.636022 -14.086538 -0.412511 1103 0.597191 0.802099 0.000000
-14.636589 -14.087073 -0.406285 1107 0.597191 0.802099 0.000000
-14.637566 -14.088024 -0.400066 1127 0.597191 0.802099 0.000000
-14.637034 -14.087501 -0.393811 1115 0.597191 0.802099 0.000000
-14.637642 -14.088097 -0.387585 1121 0.597191 0.802099 0.000000
-14.637300 -14.087769 -0.381338 1119 0.597191 0.802099 0.000000
-14.636699 -14.087189 -0.375083 1133 0.597191 0.802099 0.000000
-14.636097 -14.086609 -0.368829 1117 0.597191 0.802099 0.000000
-14.635756 -14.086282 -0.362572 1123 0.597191 0.802099 0.000000
-14.636942 -14.087417 -0.356361 1119 0.597191 0.802099 0.000000
-14.636607 -14.087095 -0.350114 1117 0.597191 0.802099 0.000000
-14.635835 -14.086362 -0.343861 1107 0.597191 0.802099 0.000000
-14.636175 -14.086686 -0.337627 1117 0.597191 0.802099 0.000000
-14.636562 -14.087060 -0.331394 1109 0.597191 0.802099 0.000000
-14.636793 -14.087281 -0.325161 1109 0.597191 0.802099 0.000000
-14.636708 -14.087191 -0.318922 1103 0.597191 0.802099 0.000000
-14.636725 -14.087211 -0.312682 1109 0.597191 0.802099 0.000000
-14.636370 -14.086871 -0.306435 1099 0.597191 0.802099 0.000000
-14.636914 -14.087401 -0.300200 1109 0.597191 0.802099 0.000000
-14.636930 -14.087406 -0.293959 1105 0.597191 0.802099 0.000000
-14.636307 -14.086808 -0.287715 1095 0.597191 0.802099 0.000000
-14.636836 -14.087326 -0.281480 1105 0.597191 0.802099 0.000000
-14.636965 -14.087437 -0.275239 1103 0.597191 0.802099 0.000000
-14.644754 -14.086312 -0.668667 1109 0.597191 0.802099 0.000000
-14.643739 -14.085339 -0.662377 1099 0.597191 0.802099 0.000000
-14.643632 -14.085231 -0.656128 1101 0.597191 0.802099 0.000000
-14.643565 -14.085168 -0.649878 1105 0.597191 0.802099 0.000000
-14.644022 -14.085613 -0.643644 1101 0.597191 0.802099 0.000000
-14.644479 -14.086046 -0.637419 1107 0.597191 0.802099 0.000000
-14.644200 -14.085783 -0.631162 1111 0.597191 0.802099 0.000000
-14.643543 -14.085145 -0.624888 1105 0.597191 0.802099 0.000000
-14.642521 -14.084167 -0.618597 1093 0.597191 0.802099 0.000000
-14.643291 -14.084909 -0.612390 1105 0.597191 0.802099 0.000000
-14.644226 -14.085799 -0.606181 1125 0.597191 0.802099 0.000000
-14.644450 -14.086027 -0.599949 1125 0.597191 0.802099 0.000000
-14.644956 -14.086513 -0.593724 1127 0.597191 0.802099 0.000000
-14.644455 -14.086028 -0.587458 1135 0.597191 0.802099 0.000000
-14.644324 -14.085899 -0.581199 1121 0.597191 0.802099 0.000000
-14.644296 -14.085868 -0.574960 1115 0.597191 0.802099 0.000000
-14.643885 -14.085483 -0.568693 1123 0.597191 0.802099 0.000000
-14.643486 -14.085096 -0.562437 1123 0.597191 0.802099 0.000000
-14.643404 -14.085021 -0.556188 1137 0.597191 0.802099 0.000000
-14.643366 -14.084982 -0.549948 1115 0.597191 0.802099 0.000000
-14.643173 -14.084789 -0.543690 1109 0.597191 0.802099 0.000000
-14.642855 -14.084494 -0.537432 1109 0.597191 0.802099 0.000000
-14.642888 -14.084513 -0.531192 1129 0.597191 0.802099 0.000000
-14.642838 -14.084477 -0.524952 1139 0.597191 0.802099 0.000000
-14.643215 -14.084831 -0.518719 1123 0.597191 0.802099 0.000000
-14.642701 -14.084335 -0.512453 1113 0.597191 0.802099 0.000000
-14.642288 -14.083936 -0.506197 1123 0.597191 0.802099 0.000000
-14.643186 -14.084809 -0.499988 1117 0.597191 0.802099 0.000000
-14.643768 -14.085371 -0.493763 1123 0.597191 0.802099 0.000000
-14.643411 -14.085017 -0.487506 1119 0.597191 0.802099 0.000000
-14.642879 -14.084508 -0.481251 1137 0.597191 0.802099 0.000000
-14.643353 -14.084967 -0.475016 1139 0.597191 0.802099 0.000000
-14.643200 -14.084820 -0.468778 1135 0.597191 0.802099 0.000000
-14.642402 -14.084053 -0.462505 1125 0.597191 0.802099 0.000000
-14.642296 -14.083944 -0.456256 1121 0.597191 0.802099 0.000000
-14.642919 -14.084552 -0.450040 1113 0.597191 0.802099 0.000000
-14.642757 -14.084399 -0.443791 1115 0.597191 0.802099 0.000000
-14.641850 -14.083529 -0.437520 1115 0.597191 0.802099 0.000000
-14.642732 -14.084375 -0.431301 1131 0.597191 0.802099 0.000000
-14.642097 -14.083755 -0.425047 1117 0.597191 0.802099 0.000000
-14.641232 -14.082931 -0.418775 1101 0.597191 0.802099 0.000000
-14.641596 -14.083275 -0.412541 1105 0.597191 0.802099 0.000000
-14.641841 -14.083521 -0.406309 1121 0.597191 0.802099 0.000000
-14.642148 -14.083805 -0.400076 1127 0.597191 0.802099 0.000000
-14.642231 -14.083890 -0.393835 1115 0.597191 0.802099 0.000000
-14.642423 -14.084079 -0.387603 1117 0.597191 0.802099 0.000000
-14.642346 -14.084008 -0.381363 1113 0.597191 0.802099 0.000000
-14.642114 -14.083783 -0.375116 1107 0.597191 0.802099 0.000000
-14.642045 -14.083707 -0.368866 1125 0.597191 0.802099 0.000000
-14.641908 -14.083586 -0.362627 1129 0.597191 0.802099 0.000000
-14.642775 -14.084420 -0.356409 1125 0.597191 0.802099 0.000000
-14.642691 -14.084329 -0.350160 1119 0.597191 0.802099 0.000000
-14.641721 -14.083407 -0.343899 1093 0.597191 0.802099 0.000000
-14.641685 -14.083370 -0.337659 1117 0.597191 0.802099 0.000000
-14.641396 -14.083087 -0.331411 1099 0.597191 0.802099 0.000000
-14.641831 -14.083513 -0.325177 1101 0.597191 0.802099 0.000000
-14.641693 -14.083379 -0.318938 1103 0.597191 0.802099 0.000000
-14.640818 -14.082535 -0.312676 1091 0.597191 0.802099 0.000000
-14.641150 -14.082852 -0.306443 1107 0.597191 0.802099 0.000000
-14.641692 -14.083368 -0.300218 1101 0.597191 0.802099 0.000000
-14.642873 -14.084512 -0.293996 1107 0.597191 0.802099 0.000000
-14.642780 -14.084416 -0.287757 1111 0.597191 0.802099 0.000000
-14.641249 -14.082953 -0.281482 1115 0.597191 0.802099 0.000000
-14.641157 -14.082857 -0.275242 1115 0.597191 0.802099 0.000000
-14.649855 -14.082284 -0.668694 1121 0.597191 0.802099 0.000000
-14.649583 -14.082014 -0.662437 1109 0.597191 0.802099 0.000000
-14.649364 -14.081801 -0.656179 1119 0.597191 0.802099 0.000000
-14.649446 -14.081886 -0.649938 1103 0.597191 0.802099 0.000000
-14.650068 -14.082480 -0.643722 1101 0.597191 0.802099 0.000000
-14.650478 -14.082875 -0.637488 1111 0.597191 0.802099 0.000000
-14.649981 -14.082406 -0.631222 1121 0.597191 0.802099 0.000000
-14.649599 -14.082032 -0.624956 1113 0.597191 0.802099 0.000000
-14.649679 -14.082103 -0.618715 1099 0.597191 0.802099 0.000000
-14.649550 -14.081989 -0.612466 1103 0.597191 0.802099 0.000000
-14.649688 -14.082120 -0.606224 1111 0.597191 0.802099 0.000000
-14.649454 -14.081895 -0.599966 1121 0.597191 0.802099 0.000000
-14.648954 -14.081410 -0.593701 1117 0.597191 0.802099 0.000000
-14.648652 -14.081129 -0.587444 1101 0.597191 0.802099 0.000000
-14.648890 -14.081355 -0.581211 1103 0.597191 0.802099 0.000000
-14.649183 -14.081627 -0.574978 1129 0.597191 0.802099 0.000000
-14.649310 -14.081750 -0.568737 1129 0.597191 0.802099 0.000000
-14.649532 -14.081963 -0.562505 1117 0.597191 0.802099 0.000000
-14.649607 -14.082042 -0.556254 1133 0.597191 0.802099 0.000000
-14.648520 -14.080999 -0.549974 1103 0.597191 0.802099 0.000000
-14.648005 -14.080502 -0.543709 1113 0.597191 0.802099 0.000000
-14.648078 -14.080567 -0.537468 1117 0.597191 0.802099 0.000000
-14.647924 -14.080420 -0.531219 1127 0.597191 0.802099 0.000000
-14.648632 -14.081098 -0.525003 1131 0.597191 0.802099 0.000000
-14.648956 -14.081409 -0.518769 1129 0.597191 0.802099 0.000000
-14.648639 -14.081115 -0.512512 1135 0.597191 0.802099 0.000000
-14.648069 -14.080560 -0.506247 1129 0.597191 0.802099 0.000000
-14.648134 -14.080618 -0.500007 1113 0.597191 0.802099 0.000000
-14.648238 -14.080722 -0.493766 1113 0.597191 0.802099 0.000000
-14.647874 -14.080376 -0.487509 1115 0.597191 0.802099 0.000000
-14.647869 -14.080377 -0.481269 1113 0.597191 0.802099 0.000000
-14.647292 -14.079817 -0.475004 1101 0.597191 0.802099 0.000000
-14.647192 -14.079713 -0.468765 1099 0.597191 0.802099 0.000000
-14.648082 -14.080579 -0.462546 1115 0.597191 0.802099 0.000000
-14.647809 -14.080309 -0.456299 1113 0.597191 0.802099 0.000000
-14.647655 -14.080161 -0.450050 1117 0.597191 0.802099 0.000000
-14.648476 -14.080956 -0.443832 1117 0.597191 0.802099 0.000000
-14.648422 -14.080906 -0.437582 1117 0.597191 0.802099 0.000000
-14.647892 -14.080398 -0.431327 1107 0.597191 0.802099 0.000000
-14.647988 -14.080482 -0.425086 1119 0.597191 0.802099 0.000000
-14.648030 -14.080522 -0.418846 1107 0.597191 0.802099 0.000000
-14.648221 -14.080709 -0.412614 1115 0.597191 0.802099 0.000000
-14.648107 -14.080593 -0.406365 1105 0.597191 0.802099 0.000000
-14.647977 -14.080480 -0.400116 1109 0.597191 0.802099 0.000000
-14.648332 -14.080815 -0.393882 1107 0.597191 0.802099 0.000000
-14.647898 -14.080399 -0.387636 1107 0.597191 0.802099 0.000000
-14.647138 -14.079662 -0.381373 1111 0.597191 0.802099 0.000000
-14.646954 -14.079490 -0.375125 1129 0.597191 0.802099 0.000000
-14.646876 -14.079419 -0.368886 1103 0.597191 0.802099 0.000000
-14.647163 -14.079699 -0.362643 1119 0.597191 0.802099 0.000000
-14.647190 -14.079725 -0.356402 1121 0.597191 0.802099 0.000000
-14.647749 -14.080255 -0.350177 1123 0.597191 0.802099 0.000000
-14.648355 -14.080835 -0.343951 1133 0.597191 0.802099 0.000000
-14.647582 -14.080102 -0.337688 1115 0.597191 0.802099 0.000000
-14.647029 -14.079561 -0.331443 1095 0.597191 0.802099 0.000000
-14.647367 -14.079885 -0.325210 1105 0.597191 0.802099 0.000000
-14.647592 -14.080112 -0.318967 1101 0.597191 0.802099 0.000000
-14.647609 -14.080117 -0.312727 1109 0.597191 0.802099 0.000000
-14.647095 -14.079637 -0.306482 1097 0.597191 0.802099 0.000000
-14.646736 -14.079282 -0.300225 1111 0.597191 0.802099 0.000000
-14.647180 -14.079716 -0.294001 1123 0.597191 0.802099 0.000000
-14.647455 -14.079974 -0.287758 1107 0.597191 0.802099 0.000000
-14.647247 -14.079782 -0.281520 1117 0.597191 0.802099 0.000000
-14.647305 -14.079834 -0.275279 1109 0.597191 0.802099 0.000000
-14.655389 -14.078640 -0.668747 1103 0.597191 0.802099 0.000000
-14.654748 -14.078014 -0.662473 1107 0.597191 0.802099 0.000000
-14.653991 -14.077294 -0.656190 1093 0.597191 0.802099 0.000000
-14.653711 -14.077029 -0.649933 1087 0.597191 0.802099 0.000000
-14.654333 -14.077623 -0.643717 1091 0.597191 0.802099 0.000000
-14.654955 -14.078218 -0.637490 1087 0.597191 0.802099 0.000000
-14.654465 -14.077742 -0.631225 1093 0.597191 0.802099 0.000000
-14.654012 -14.077311 -0.624959 1087 0.597191 0.802099 0.000000
-14.654422 -14.077704 -0.618735 1117 0.597191 0.802099 0.000000
-14.654449 -14.077731 -0.612485 1125 0.597191 0.802099 0.000000
-14.655112 -14.078372 -0.606268 1113 0.597191 0.802099 0.000000
-14.656298 -14.079507 -0.600067 1119 0.597191 0.802099 0.000000
-14.655901 -14.079135 -0.593810 1103 0.597191 0.802099 0.000000
-14.654085 -14.077387 -0.587488 1093 0.597191 0.802099 0.000000
-14.653687 -14.077002 -0.581231 1087 0.597191 0.802099 0.000000
-14.654294 -14.077582 -0.575005 1119 0.597191 0.802099 0.000000
-14.654305 -14.077598 -0.568765 1121 0.597191 0.802099 0.000000
-14.653798 -14.077107 -0.562500 1107 0.597191 0.802099 0.000000
-14.654405 -14.077688 -0.556274 1113 0.597191 0.802099 0.000000
-14.654942 -14.078212 -0.550049 1111 0.597191 0.802099 0.000000
-14.654959 -14.078219 -0.543808 1105 0.597191 0.802099 0.000000
-14.655189 -14.078439 -0.537566 1123 0.597191 0.802099 0.000000
-14.654668 -14.077951 -0.531301 1127 0.597191 0.802099 0.000000
-14.654685 -14.077958 -0.525060 1119 0.597191 0.802099 0.000000
-14.654061 -14.077359 -0.518796 1125 0.597191 0.802099 0.000000
-14.653756 -14.077063 -0.512539 1129 0.597191 0.802099 0.000000
-14.654444 -14.077736 -0.506312 1121 0.597191 0.802099 0.000000
-14.654399 -14.077691 -0.500072 1115 0.597191 0.802099 0.000000
-14.653812 -14.077124 -0.493808 1107 0.597191 0.802099 0.000000
-14.653613 -14.076939 -0.487560 1105 0.597191 0.802099 0.000000
-14.653664 -14.076985 -0.481319 1103 0.597191 0.802099 0.000000
-14.653877 -14.077192 -0.475077 1115 0.597191 0.802099 0.000000
-14.654562 -14.077838 -0.468860 1111 0.597191 0.802099 0.000000
-14.654408 -14.077690 -0.462612 1109 0.597191 0.802099 0.000000
-14.654027 -14.077330 -0.456355 1119 0.597191 0.802099 0.000000
-14.653864 -14.077176 -0.450106 1119 0.597191 0.802099 0.000000
-14.653226 -14.076564 -0.443842 1115 0.597191 0.802099 0.000000
-14.652850 -14.076197 -0.437586 1103 0.597191 0.802099 0.000000
-14.653208 -14.076548 -0.431352 1113 0.597191 0.802099 0.000000
-14.653885 -14.077199 -0.425136 1119 0.597191 0.802099 0.000000
-14.654083 -14.077380 -0.418894 1109 0.597191 0.802099 0.000000
-14.654071 -14.077376 -0.412654 1125 0.597191 0.802099 0.000000
-14.654105 -14.077410 -0.406413 1115 0.597191 0.802099 0.000000
-14.653832 -14.077138 -0.400156 1125 0.597191 0.802099 0.000000
-14.652966 -14.076315 -0.393894 1105 0.597191 0.802099 0.000000
-14.652420 -14.075792 -0.387639 1105 0.597191 0.802099 0.000000
-14.652399 -14.075768 -0.381399 1113 0.597191 0.802099 0.000000
-14.652583 -14.075950 -0.375157 1115 0.597191 0.802099 0.000000
-14.652672 -14.076027 -0.368916 1115 0.597191 0.802099 0.000000
-14.652799 -14.076151 -0.362674 1099 0.597191 0.802099 0.000000
-14.653154 -14.076487 -0.356441 1119 0.597191 0.802099 0.000000
-14.653071 -14.076410 -0.350202 1109 0.597191 0.802099 0.000000
-14.653358 -14.076689 -0.343969 1125 0.597191 0.802099 0.000000
-14.652960 -14.076303 -0.337712 1111 0.597191 0.802099 0.000000
-14.652453 -14.075814 -0.331467 1103 0.597191 0.802099 0.000000
-14.653257 -14.076596 -0.325239 1123 0.597191 0.802099 0.000000
-14.652491 -14.075854 -0.318976 1113 0.597191 0.802099 0.000000
-14.652084 -14.075460 -0.312730 1093 0.597191 0.802099 0.000000
-14.652143 -14.075527 -0.306489 1093 0.597191 0.802099 0.000000
-14.651903 -14.075296 -0.300241 1099 0.597191 0.802099 0.000000
-14.651649 -14.075053 -0.294004 1109 0.597191 0.802099 0.000000
-14.651401 -14.074815 -0.287756 1103 0.597191 0.802099 0.000000
-14.651622 -14.075028 -0.281524 1103 0.597191 0.802099 0.000000
-14.652048 -14.075435 -0.275290 1101 0.597191 0.802099 0.000000
-14.660008 -14.074141 -0.668759 1103 0.597191 0.802099 0.000000
-14.659839 -14.073979 -0.662500 1105 0.597191 0.802099 0.000000
-14.660461 -14.074574 -0.656284 1105 0.597191 0.802099 0.000000
-14.660501 -14.074613 -0.650043 1087 0.597191 0.802099 0.000000
-14.661164 -14.075253 -0.643817 1089 0.597191 0.802099 0.000000
-14.661363 -14.075434 -0.637585 1097 0.597191 0.802099 0.000000
-14.660456 -14.074564 -0.631293 1117 0.597191 0.802099 0.000000
-14.660380 -14.074493 -0.625044 1099 0.597191 0.802099 0.000000
-14.659993 -14.074129 -0.618777 1105 0.597191 0.802099 0.000000
-14.659015 -14.073187 -0.612497 1111 0.597191 0.802099 0.000000
-14.658727 -14.072904 -0.606239 1103 0.597191 0.802099 0.000000
-14.659341 -14.073492 -0.600013 1099 0.597191 0.802099 0.000000
-14.660371 -14.074486 -0.593813 1109 0.597191 0.802099 0.000000
-14.660657 -14.074765 -0.587580 1109 0.597191 0.802099 0.000000
-14.659890 -14.074022 -0.581298 1107 0.597191 0.802099 0.000000
-14.659221 -14.073386 -0.575024 1113 0.597191 0.802099 0.000000
-14.659567 -14.073715 -0.568790 1109 0.597191 0.802099 0.000000
-14.659633 -14.073775 -0.562550 1111 0.597191 0.802099 0.000000
-14.660028 -14.074157 -0.556316 1113 0.597191 0.802099 0.000000
-14.658933 -14.073105 -0.550036 1117 0.597191 0.802099 0.000000
-14.656991 -14.071242 -0.543714 1111 0.597191 0.802099 0.000000
-14.658429 -14.072624 -0.537530 1101 0.597191 0.802099 0.000000
-14.660134 -14.074265 -0.531344 1101 0.597191 0.802099 0.000000
-14.659782 -14.073915 -0.525087 1107 0.597191 0.802099 0.000000
-14.658258 -14.072459 -0.518782 1113 0.597191 0.802099 0.000000
-14.658055 -14.072260 -0.512533 1129 0.597191 0.802099 0.000000
-14.659173 -14.073339 -0.506333 1133 0.597191 0.802099 0.000000
-14.659121 -14.073288 -0.500083 1129 0.597191 0.802099 0.000000
-14.658919 -14.073088 -0.493835 1117 0.597191 0.802099 0.000000
-14.659024 -14.073193 -0.487594 1099 0.597191 0.802099 0.000000
-14.658651 -14.072839 -0.481337 1105 0.597191 0.802099 0.000000
-14.658293 -14.072498 -0.475080 1095 0.597191 0.802099 0.000000
-14.658499 -14.072685 -0.468838 1109 0.597191 0.802099 0.000000
-14.658025 -14.072235 -0.462582 1101 0.597191 0.802099 0.000000
-14.657651 -14.071882 -0.456326 1095 0.597191 0.802099 0.000000
-14.658531 -14.072727 -0.450117 1107 0.597191 0.802099 0.000000
-14.658801 -14.072980 -0.443875 1103 0.597191 0.802099 0.000000
-14.658365 -14.072561 -0.437619 1097 0.597191 0.802099 0.000000
-14.658892 -14.073065 -0.431394 1091 0.597191 0.802099 0.000000
-14.658347 -14.072544 -0.425139 1095 0.597191 0.802099 0.000000
-14.657229 -14.071475 -0.418859 1099 0.597191 0.802099 0.000000
-14.657804 -14.072017 -0.412633 1103 0.597191 0.802099 0.000000
-14.658308 -14.072501 -0.406408 1115 0.597191 0.802099 0.000000
-14.658508 -14.072696 -0.400166 1109 0.597191 0.802099 0.000000
-14.658801 -14.072982 -0.393934 1123 0.597191 0.802099 0.000000
-14.658890 -14.073060 -0.387693 1119 0.597191 0.802099 0.000000
-14.658813 -14.072989 -0.381443 1099 0.597191 0.802099 0.000000
-14.658410 -14.072611 -0.375197 1101 0.597191 0.802099 0.000000
-14.658247 -14.072442 -0.368948 1087 0.597191 0.802099 0.000000
-14.658533 -14.072721 -0.362715 1115 0.597191 0.802099 0.000000
-14.658410 -14.072600 -0.356466 1119 0.597191 0.802099 0.000000
-14.658484 -14.072679 -0.350225 1103 0.597191 0.802099 0.000000
-14.658776 -14.072950 -0.343993 1109 0.597191 0.802099 0.000000
-14.658418 -14.072609 -0.337746 1111 0.597191 0.802099 0.000000
-14.657598 -14.071823 -0.331483 1085 0.597191 0.802099 0.000000
-14.657570 -14.071792 -0.325244 1095 0.597191 0.802099 0.000000
-14.657268 -14.071510 -0.318986 1097 0.597191 0.802099 0.000000
-14.656384 -14.070659 -0.312735 1085 0.597191 0.802099 0.000000
-14.656511 -14.070782 -0.306493 1097 0.597191 0.802099 0.000000
-14.657151 -14.071404 -0.300267 1099 0.597191 0.802099 0.000000
-14.656964 -14.071216 -0.294019 1101 0.597191 0.802099 0.000000
-14.656810 -14.071069 -0.287780 1111 0.597191 0.802099 0.000000
-14.657567 -14.071799 -0.281553 1089 0.597191 0.802099 0.000000
-14.658203 -14.072405 -0.275316 1103 0.597191 0.802099 0.000000
-14.665352 -14.070145 -0.668804 1113 0.597191 0.802099 0.000000
-14.665183 -14.069984 -0.662545 1087 0.597191 0.802099 0.000000
-14.664864 -14.069675 -0.656278 1089 0.597191 0.802099 0.000000
-14.664946 -14.069761 -0.650037 1081 0.597191 0.802099 0.000000
-14.665247 -14.070052 -0.643804 1091 0.597191 0.802099 0.000000
-14.664865 -14.069678 -0.637538 1093 0.597191 0.802099 0.000000
-14.664585 -14.069415 -0.631280 1091 0.597191 0.802099 0.000000
-14.665357 -14.070145 -0.625063 1097 0.597191 0.802099 0.000000
-14.665595 -14.070385 -0.618830 1103 0.597191 0.802099 0.000000
-14.665527 -14.070322 -0.612581 1103 0.597191 0.802099 0.000000
-14.665921 -14.070689 -0.606347 1107 0.597191 0.802099 0.000000
-14.664899 -14.069710 -0.600057 1103 0.597191 0.802099 0.000000
-14.664445 -14.069278 -0.593791 1091 0.597191 0.802099 0.000000
-14.665428 -14.070221 -0.587591 1093 0.597191 0.802099 0.000000
-14.665447 -14.070242 -0.581341 1103 0.597191 0.802099 0.000000
-14.665473 -14.070270 -0.575101 1107 0.597191 0.802099 0.000000
-14.665279 -14.070075 -0.568842 1113 0.597191 0.802099 0.000000
-14.665298 -14.070096 -0.562592 1105 0.597191 0.802099 0.000000
-14.665160 -14.069963 -0.556343 1109 0.597191 0.802099 0.000000
-14.664811 -14.069628 -0.550086 1095 0.597191 0.802099 0.000000
-14.664822 -14.069640 -0.543846 1111 0.597191 0.802099 0.000000
-14.664737 -14.069551 -0.537597 1109 0.597191 0.802099 0.000000
-14.665008 -14.069818 -0.531354 1119 0.597191 0.802099 0.000000
-14.664539 -14.069373 -0.525098 1115 0.597191 0.802099 0.000000
-14.664401 -14.069238 -0.518849 1115 0.597191 0.802099 0.000000
-14.663456 -14.068323 -0.512568 1095 0.597191 0.802099 0.000000
-14.663677 -14.068537 -0.506326 1085 0.597191 0.802099 0.000000
-14.664308 -14.069151 -0.500110 1099 0.597191 0.802099 0.000000
-14.664155 -14.069004 -0.493861 1095 0.597191 0.802099 0.000000
-14.664847 -14.069670 -0.487634 1121 0.597191 0.802099 0.000000
-14.665437 -14.070223 -0.481409 1115 0.597191 0.802099 0.000000
-14.664954 -14.069767 -0.475153 1109 0.597191 0.802099 0.000000
-14.664111 -14.068963 -0.468881 1117 0.597191 0.802099 0.000000
-14.663684 -14.068551 -0.462625 1111 0.597191 0.802099 0.000000
-14.663465 -14.068337 -0.456367 1099 0.597191 0.802099 0.000000
-14.664205 -14.069041 -0.450150 1107 0.597191 0.802099 0.000000
-14.664145 -14.068985 -0.443900 1095 0.597191 0.802099 0.000000
-14.663184 -14.068070 -0.437629 1091 0.597191 0.802099 0.000000
-14.663445 -14.068316 -0.431397 1099 0.597191 0.802099 0.000000
-14.663324 -14.068209 -0.425147 1119 0.597191 0.802099 0.000000
-14.662998 -14.067893 -0.418900 1099 0.597191 0.802099 0.000000
-14.663775 -14.068628 -0.412673 1113 0.597191 0.802099 0.000000
-14.663387 -14.068262 -0.406426 1099 0.597191 0.802099 0.000000
-14.663161 -14.068043 -0.400168 1093 0.597191 0.802099 0.000000
-14.663353 -14.068232 -0.393936 1101 0.597191 0.802099 0.000000
-14.662650 -14.067555 -0.387673 1091 0.597191 0.802099 0.000000
-14.662637 -14.067537 -0.381433 1081 0.597191 0.802099 0.000000
-14.663299 -14.068176 -0.375207 1093 0.597191 0.802099 0.000000
-14.663216 -14.068099 -0.368957 1103 0.597191 0.802099 0.000000
-14.662882 -14.067779 -0.362710 1093 0.597191 0.802099 0.000000
-14.663440 -14.068308 -0.356485 1085 0.597191 0.802099 0.000000
-14.663458 -14.068328 -0.350244 1101 0.597191 0.802099 0.000000
-14.662639 -14.067543 -0.343982 1099 0.597191 0.802099 0.000000
-14.661968 -14.066906 -0.337718 1087 0.597191 0.802099 0.000000
-14.662629 -14.067532 -0.331492 1099 0.597191 0.802099 0.000000
-14.663236 -14.068112 -0.325266 1103 0.597191 0.802099 0.000000
-14.662509 -14.067418 -0.319013 1095 0.597191 0.802099 0.000000
-14.662159 -14.067082 -0.312756 1083 0.597191 0.802099 0.000000
-14.662438 -14.067355 -0.306523 1097 0.597191 0.802099 0.000000
-14.661977 -14.066917 -0.300277 1091 0.597191 0.802099 0.000000
-14.661776 -14.066718 -0.294029 1099 0.597191 0.802099 0.000000
-14.662799 -14.067694 -0.287809 1103 0.597191 0.802099 0.000000
-14.662064 -14.066991 -0.281556 1085 0.597191 0.802099 0.000000
-14.661276 -14.066244 -0.275293 1089 0.597191 0.802099 0.000000
-14.670644 -14.066119 -0.668840 1101 0.597191 0.802099 0.000000
-14.671164 -14.066616 -0.662615 1103 0.597191 0.802099 0.000000
-14.671041 -14.066495 -0.656356 1097 0.597191 0.802099 0.000000
-14.670238 -14.065735 -0.650073 1085 0.597191 0.802099 0.000000
-14.670702 -14.066175 -0.643849 1091 0.597191 0.802099 0.000000
-14.670845 -14.066310 -0.637607 1083 0.597191 0.802099 0.000000
-14.670552 -14.066035 -0.631340 1069 0.597191 0.802099 0.000000
-14.670852 -14.066325 -0.625107 1091 0.597191 0.802099 0.000000
-14.670619 -14.066101 -0.618849 1091 0.597191 0.802099 0.000000
-14.670919 -14.066379 -0.612616 1095 0.597191 0.802099 0.000000
-14.671691 -14.067122 -0.606398 1097 0.597191 0.802099 0.000000
-14.671395 -14.066846 -0.600141 1095 0.597191 0.802099 0.000000
-14.670952 -14.066420 -0.593875 1087 0.597191 0.802099 0.000000
-14.671659 -14.067099 -0.587658 1103 0.597191 0.802099 0.000000
-14.671523 -14.066964 -0.581410 1107 0.597191 0.802099 0.000000
-14.671282 -14.066732 -0.575152 1101 0.597191 0.802099 0.000000
-14.670672 -14.066146 -0.568877 1103 0.597191 0.802099 0.000000
-14.670112 -14.065612 -0.562612 1101 0.597191 0.802099 0.000000
-14.669926 -14.065426 -0.556354 1097 0.597191 0.802099 0.000000
-14.669356 -14.064886 -0.550089 1097 0.597191 0.802099 0.000000
-14.669053 -14.064589 -0.543832 1091 0.597191 0.802099 0.000000
-14.669598 -14.065119 -0.537607 1109 0.597191 0.802099 0.000000
-14.669765 -14.065275 -0.531365 1109 0.597191 0.802099 0.000000
-14.670097 -14.065592 -0.525132 1099 0.597191 0.802099 0.000000
-14.670265 -14.065762 -0.518890 1107 0.597191 0.802099 0.000000
-14.669743 -14.065258 -0.512635 1091 0.597191 0.802099 0.000000
-14.669273 -14.064800 -0.506369 1101 0.597191 0.802099 0.000000
-14.669442 -14.064970 -0.500127 1101 0.597191 0.802099 0.000000
-14.670025 -14.065519 -0.493902 1105 0.597191 0.802099 0.000000
-14.669714 -14.065230 -0.487654 1103 0.597191 0.802099 0.000000
-14.669396 -14.064921 -0.481397 1109 0.597191 0.802099 0.000000
-14.669659 -14.065181 -0.475155 1109 0.597191 0.802099 0.000000
-14.669450 -14.064976 -0.468906 1107 0.597191 0.802099 0.000000
-14.668926 -14.064473 -0.462641 1091 0.597191 0.802099 0.000000
-14.669766 -14.065272 -0.456423 1101 0.597191 0.802099 0.000000
-14.669912 -14.065422 -0.450192 1101 0.597191 0.802099 0.000000
-14.669225 -14.064759 -0.443928 1097 0.597191 0.802099 0.000000
-14.669056 -14.064600 -0.437670 1101 0.597191 0.802099 0.000000
-14.669419 -14.064942 -0.431446 1101 0.597191 0.802099 0.000000
-14.668982 -14.064523 -0.425180 1105 0.597191 0.802099 0.000000
-14.669550 -14.065072 -0.418954 1085 0.597191 0.802099 0.000000
-14.670698 -14.066177 -0.412743 1105 0.597191 0.802099 0.000000
-14.669735 -14.065248 -0.406472 1093 0.597191 0.802099 0.000000
-14.667928 -14.063507 -0.400179 1089 0.597191 0.802099 0.000000
-14.667798 -14.063394 -0.393940 1093 0.597191 0.802099 0.000000
-14.668781 -14.064337 -0.387721 1087 0.597191 0.802099 0.000000
-14.668917 -14.064466 -0.381480 1093 0.597191 0.802099 0.000000
-14.668683 -14.064240 -0.375232 1099 0.597191 0.802099 0.000000
-14.668193 -14.063764 -0.368976 1105 0.597191 0.802099 0.000000
-14.667639 -14.063236 -0.362721 1095 0.597191 0.802099 0.000000
-14.667986 -14.063566 -0.356488 1091 0.597191 0.802099 0.000000
