114
-29.056196 -28.260015 -0.674354 197 -0.094930 0.995484 0.000000
-29.049797 -28.253788 -0.661755 165 -0.094930 0.995484 0.000000
-29.050734 -28.254704 -0.649336 155 -0.094930 0.995484 0.000000
-29.057064 -28.260859 -0.637025 165 -0.094930 0.995484 0.000000
-29.058664 -28.262409 -0.624610 145 -0.094930 0.995484 0.000000
-29.055864 -28.259689 -0.612096 91 -0.094930 0.995484 0.000000
-29.054119 -28.257999 -0.599612 123 -0.094930 0.995484 0.000000
-29.046907 -28.250982 -0.587011 105 -0.094930 0.995484 0.000000
-29.046883 -28.250959 -0.574571 143 -0.094930 0.995484 0.000000
-29.059315 -28.263052 -0.562362 187 -0.094930 0.995484 0.000000
-29.056250 -28.260067 -0.549851 169 -0.094930 0.995484 0.000000
-29.057566 -28.261353 -0.537428 155 -0.094930 0.995484 0.000000
-29.058935 -28.262688 -0.525005 195 -0.094930 0.995484 0.000000
-29.054544 -28.258406 -0.512476 159 -0.094930 0.995484 0.000000
-29.054560 -28.258430 -0.500026 167 -0.094930 0.995484 0.000000
-29.051144 -28.255102 -0.487518 235 -0.094930 0.995484 0.000000
-29.053188 -28.257093 -0.475108 237 -0.094930 0.995484 0.000000
-29.053713 -28.257612 -0.462673 207 -0.094930 0.995484 0.000000
-29.046471 -28.250568 -0.450112 201 -0.094930 0.995484 0.000000
-29.045734 -28.249855 -0.437658 177 -0.094930 0.995484 0.000000
-29.052063 -28.256008 -0.425298 223 -0.094930 0.995484 0.000000
-29.050682 -28.254663 -0.412831 205 -0.094930 0.995484 0.000000
-29.050936 -28.254913 -0.400388 219 -0.094930 0.995484 0.000000
-29.048700 -28.252745 -0.375469 143 -0.094930 0.995484 0.000000
-29.045311 -28.249449 -0.362981 157 -0.094930 0.995484 0.000000
-29.052322 -28.256268 -0.350623 161 -0.094930 0.995484 0.000000
-29.052280 -28.256231 -0.338174 169 -0.094930 0.995484 0.000000
-29.052837 -28.256762 -0.325738 181 -0.094930 0.995484 0.000000
-29.051121 -28.255096 -0.313274 163 -0.094930 0.995484 0.000000
-29.051397 -28.255365 -0.300831 143 -0.094930 0.995484 0.000000
-29.073727 -28.259098 -0.674558 217 -0.094930 0.995484 0.000000
-29.073927 -28.259293 -0.662106 197 -0.094930 0.995484 0.000000
-29.073605 -28.258980 -0.649649 109 -0.094930 0.995484 0.000000
-29.070496 -28.255959 -0.637128 161 -0.094930 0.995484 0.000000
-29.067694 -28.253239 -0.624614 99 -0.094930 0.995484 0.000000
-29.072716 -28.258108 -0.612266 141 -0.094930 0.995484 0.000000
-29.072210 -28.257629 -0.599801 147 -0.094930 0.995484 0.000000
-29.074911 -28.260250 -0.587405 151 -0.094930 0.995484 0.000000
-29.074144 -28.259512 -0.574932 227 -0.094930 0.995484 0.000000
-29.070438 -28.255903 -0.562407 175 -0.094930 0.995484 0.000000
-29.067623 -28.253168 -0.549903 237 -0.094930 0.995484 0.000000
-29.068377 -28.253904 -0.537466 191 -0.094930 0.995484 0.000000
-29.073215 -28.258610 -0.525109 179 -0.094930 0.995484 0.000000
-29.074060 -28.259436 -0.512671 221 -0.094930 0.995484 0.000000
-29.069920 -28.255402 -0.500140 181 -0.094930 0.995484 0.000000
-29.068785 -28.254303 -0.487671 251 -0.094930 0.995484 0.000000
-29.071455 -28.256899 -0.475265 281 -0.094930 0.995484 0.000000
-29.072237 -28.257658 -0.462827 251 -0.094930 0.995484 0.000000
-29.070980 -28.256443 -0.450359 169 -0.094930 0.995484 0.000000
-29.070179 -28.255665 -0.437896 225 -0.094930 0.995484 0.000000
-29.071424 -28.256880 -0.425464 231 -0.094930 0.995484 0.000000
-29.070942 -28.256405 -0.412999 183 -0.094930 0.995484 0.000000
-29.072767 -28.258173 -0.400571 227 -0.094930 0.995484 0.000000
-29.071171 -28.256634 -0.388106 207 -0.094930 0.995484 0.000000
-29.070734 -28.256199 -0.375650 187 -0.094930 0.995484 0.000000
-29.067188 -28.252760 -0.363153 115 -0.094930 0.995484 0.000000
-29.070141 -28.255629 -0.325834 153 -0.094930 0.995484 0.000000
-29.070583 -28.256063 -0.313390 135 -0.094930 0.995484 0.000000
-29.064348 -28.250000 -0.300879 169 -0.094930 0.995484 0.000000
-29.088938 -28.256262 -0.674713 205 -0.094930 0.995484 0.000000
-29.094696 -28.261856 -0.662387 217 -0.094930 0.995484 0.000000
-29.095469 -28.262608 -0.649950 137 -0.094930 0.995484 0.000000
-29.095926 -28.263054 -0.637495 151 -0.094930 0.995484 0.000000
-29.091339 -28.258598 -0.624938 121 -0.094930 0.995484 0.000000
-29.084291 -28.251745 -0.612335 155 -0.094930 0.995484 0.000000
-29.083633 -28.251112 -0.599861 185 -0.094930 0.995484 0.000000
-29.095312 -28.262451 -0.587650 147 -0.094930 0.995484 0.000000
-29.101101 -28.268087 -0.575304 183 -0.094930 0.995484 0.000000
-29.097502 -28.264587 -0.562768 203 -0.094930 0.995484 0.000000
-29.095001 -28.262159 -0.550262 185 -0.094930 0.995484 0.000000
-29.090078 -28.257381 -0.537708 229 -0.094930 0.995484 0.000000
-29.093027 -28.260250 -0.525310 179 -0.094930 0.995484 0.000000
-29.092840 -28.260063 -0.512852 155 -0.094930 0.995484 0.000000
-29.089691 -28.256996 -0.500341 225 -0.094930 0.995484 0.000000
-29.094114 -28.261301 -0.487959 205 -0.094930 0.995484 0.000000
-29.095369 -28.262522 -0.475517 197 -0.094930 0.995484 0.000000
-29.092955 -28.260178 -0.463019 189 -0.094930 0.995484 0.000000
-29.089533 -28.256859 -0.450512 241 -0.094930 0.995484 0.000000
-29.090990 -28.258274 -0.438077 219 -0.094930 0.995484 0.000000
-29.093025 -28.260244 -0.425648 221 -0.094930 0.995484 0.000000
-29.090807 -28.258093 -0.413169 243 -0.094930 0.995484 0.000000
-29.092314 -28.259554 -0.400724 195 -0.094930 0.995484 0.000000
-29.095036 -28.262203 -0.388308 163 -0.094930 0.995484 0.000000
-29.092852 -28.260080 -0.375818 199 -0.094930 0.995484 0.000000
-29.092255 -28.259497 -0.363364 243 -0.094930 0.995484 0.000000
-29.092957 -28.260189 -0.350907 185 -0.094930 0.995484 0.000000
-29.093140 -28.260368 -0.338455 185 -0.094930 0.995484 0.000000
-29.097153 -28.264261 -0.326046 207 -0.094930 0.995484 0.000000
-29.093710 -28.260921 -0.313549 199 -0.094930 0.995484 0.000000
-29.089165 -28.256498 -0.301052 135 -0.094930 0.995484 0.000000
-29.113651 -28.262983 -0.650164 113 -0.094930 0.995484 0.000000
-29.109549 -28.258997 -0.637613 157 -0.094930 0.995484 0.000000
-29.102757 -28.252399 -0.625007 127 -0.094930 0.995484 0.000000
-29.103420 -28.253048 -0.612561 149 -0.094930 0.995484 0.000000
-29.108063 -28.257561 -0.600196 173 -0.094930 0.995484 0.000000
-29.107107 -28.256624 -0.587715 213 -0.094930 0.995484 0.000000
-29.112623 -28.261990 -0.575362 199 -0.094930 0.995484 0.000000
-29.113808 -28.263142 -0.562921 179 -0.094930 0.995484 0.000000
-29.109680 -28.259132 -0.550380 175 -0.094930 0.995484 0.000000
-29.110159 -28.259600 -0.537925 211 -0.094930 0.995484 0.000000
-29.113022 -28.262381 -0.513057 157 -0.094930 0.995484 0.000000
-29.107941 -28.257444 -0.500505 197 -0.094930 0.995484 0.000000
-29.109497 -28.258959 -0.488070 217 -0.094930 0.995484 0.000000
-29.106770 -28.256308 -0.450655 213 -0.094930 0.995484 0.000000
-29.110596 -28.260033 -0.438248 189 -0.094930 0.995484 0.000000
-29.110794 -28.260220 -0.413326 219 -0.094930 0.995484 0.000000
-29.106993 -28.256527 -0.400822 175 -0.094930 0.995484 0.000000
-29.106985 -28.256517 -0.388361 175 -0.094930 0.995484 0.000000
-29.114136 -28.263466 -0.375993 227 -0.094930 0.995484 0.000000
-29.109535 -28.258995 -0.351016 177 -0.094930 0.995484 0.000000
-29.099897 -28.249640 -0.338438 141 -0.094930 0.995484 0.000000
-29.099602 -28.249363 -0.325980 151 -0.094930 0.995484 0.000000
-29.108118 -28.257627 -0.313619 135 -0.094930 0.995484 0.000000
-29.113224 -28.262585 -0.301210 207 -0.094930 0.995484 0.000000
