289
-0.000000 0.659088 0.339910
-0.000000 0.659088 0.388474
-0.000000 0.610386 0.388474
-0.000000 0.610386 0.339910
-0.000000 0.659088 -0.048621
-0.000000 0.659088 -0.000036
-0.000000 0.610386 -0.000036
-0.000000 0.610386 -0.048621
-0.000000 1.048702 -0.048621
-0.000000 1.048702 -0.000036
-0.000000 1.000000 -0.000036
-0.000000 1.000000 -0.048621
-0.000000 1.048702 0.339910
-0.000000 1.048702 0.388474
-0.000001 1.000000 0.388474
-0.000000 1.000000 0.339910
-0.000000 1.048702 0.145655
-0.000000 1.048702 0.194219
-0.000000 1.000000 0.194219
-0.000000 1.000000 0.145655
-0.000000 0.659088 0.145655
-0.000000 0.659088 0.194219
-0.000000 0.610386 0.194219
-0.000000 0.610386 0.145655
-0.000000 1.048702 -0.242855
-0.000000 1.048702 -0.194291
-0.000000 1.000000 -0.194291
-0.000000 1.000000 -0.242855
-0.000000 0.659088 -0.242855
-0.000000 0.659088 -0.194291
-0.000000 0.610386 -0.194291
-0.000000 0.610386 -0.242855
-0.000000 0.853895 -0.242855
-0.000000 0.853895 -0.194291
-0.000000 0.805193 -0.194291
-0.000000 0.805193 -0.242855
-0.000000 0.853895 0.145655
-0.000000 0.853895 0.194219
-0.000000 0.805193 0.194219
-0.000000 0.805193 0.145655
-0.000000 0.853895 -0.048621
-0.000000 0.853895 -0.000036
-0.000000 0.805193 -0.000036
-0.000000 0.805193 -0.048621
-0.000000 0.853895 0.339910
-0.000000 0.853895 0.388474
-0.000000 0.805193 0.388474
-0.000000 0.805193 0.339910
-0.000000 1.243509 -0.242855
-0.000000 1.243509 -0.194291
-0.000000 1.194807 -0.194291
-0.000000 1.194807 -0.242855
-0.000000 1.243509 0.145655
-0.000000 1.243509 0.194219
-0.000000 1.194807 0.194219
-0.000000 1.194807 0.145655
-0.000000 1.243509 0.339910
-0.000001 1.243509 0.388474
-0.000000 1.194807 0.388474
-0.000000 1.194807 0.339910
-0.000000 1.243509 -0.048621
-0.000000 1.243509 -0.000036
-0.000000 1.194807 -0.000036
-0.000000 1.194807 -0.048621
-0.000000 1.340912 -0.048621
-0.000000 1.340912 -0.000036
-0.000000 1.292211 -0.000036
-0.000000 1.292211 -0.048621
-0.000000 1.340912 0.339910
-0.000000 1.340912 0.388474
-0.000001 1.292211 0.388474
-0.000000 1.292211 0.339910
-0.000000 1.340912 0.145655
-0.000000 1.340912 0.194219
-0.000000 1.292211 0.194219
-0.000000 1.292211 0.145655
-0.000000 1.340912 -0.242855
-0.000000 1.340912 -0.194291
-0.000000 1.292211 -0.194291
-0.000000 1.292211 -0.242855
-0.000000 1.146105 -0.242855
-0.000000 1.146105 -0.194291
-0.000000 1.097403 -0.194291
-0.000000 1.097403 -0.242855
-0.000000 1.146105 0.145655
-0.000000 1.146105 0.194219
-0.000000 1.097403 0.194219
-0.000000 1.097403 0.145655
-0.000000 1.146105 0.339910
-0.000000 1.146105 0.388474
-0.000000 1.097403 0.388474
-0.000000 1.097403 0.339910
-0.000000 1.146105 -0.048621
-0.000000 1.146105 -0.000036
0.000000 1.097403 -0.000036
-0.000000 1.097403 -0.048621
-0.000000 0.951298 0.339910
-0.000000 0.951298 0.388474
-0.000000 0.902596 0.388474
-0.000000 0.902596 0.339910
-0.000000 0.951298 -0.048621
-0.000000 0.951298 -0.000036
-0.000000 0.902596 -0.000036
-0.000000 0.902596 -0.048621
-0.000000 0.951298 0.145655
-0.000000 0.951298 0.194219
-0.000000 0.902596 0.194219
-0.000000 0.902596 0.145655
-0.000000 0.951298 -0.242855
-0.000000 0.951298 -0.194291
-0.000000 0.902596 -0.194291
-0.000000 0.902596 -0.242855
-0.000000 0.756491 -0.242855
-0.000000 0.756491 -0.194291
-0.000000 0.707789 -0.194291
-0.000000 0.707789 -0.242855
-0.000000 0.756491 0.145655
-0.000000 0.756491 0.194219
-0.000000 0.707789 0.194219
-0.000000 0.707789 0.145655
-0.000000 0.756491 -0.048621
-0.000000 0.756491 -0.000036
-0.000000 0.707789 -0.000036
-0.000000 0.707789 -0.048621
-0.000000 0.756491 0.339910
-0.000000 0.756491 0.388474
-0.000000 0.707789 0.388474
-0.000000 0.707789 0.339910
-0.000000 0.756491 0.242783
-0.000000 0.756491 0.291347
-0.000000 0.707789 0.291347
-0.000000 0.707789 0.242783
-0.000000 0.951298 0.242783
-0.000000 0.951298 0.291347
-0.000000 0.902596 0.291347
-0.000000 0.902596 0.242783
-0.000000 1.146105 0.242783
0.000000 1.146105 0.291347
0.000000 1.097403 0.291347
-0.000000 1.097403 0.242783
-0.000000 1.340912 0.242783
-0.000000 1.340912 0.291347
-0.000000 1.292211 0.291347
-0.000000 1.292211 0.242783
-0.000000 1.243509 0.242783
-0.000000 1.243509 0.291347
-0.000000 1.194807 0.291347
-0.000000 1.194807 0.242783
-0.000000 0.853895 0.242783
-0.000000 0.853895 0.291347
-0.000000 0.805193 0.291347
-0.000000 0.805193 0.242783
-0.000000 1.048702 0.242783
-0.000000 1.048702 0.291347
-0.000000 1.000000 0.291347
-0.000000 1.000000 0.242783
-0.000000 0.659088 0.242783
-0.000000 0.659088 0.291347
-0.000000 0.610386 0.291347
-0.000000 0.610386 0.242783
-0.000000 0.756491 0.048528
-0.000000 0.756491 0.097092
-0.000000 0.707789 0.097092
-0.000000 0.707789 0.048528
-0.000000 0.951298 0.048528
-0.000000 0.951298 0.097092
-0.000000 0.902596 0.097092
-0.000000 0.902596 0.048528
-0.000000 1.146105 0.048528
-0.000000 1.146105 0.097092
-0.000000 1.097403 0.097092
-0.000000 1.097403 0.048528
-0.000000 1.340912 0.048528
-0.000000 1.340912 0.097092
-0.000000 1.292211 0.097092
-0.000000 1.292211 0.048528
-0.000000 1.243509 0.048528
-0.000000 1.243509 0.097092
-0.000000 1.194807 0.097092
-0.000000 1.194807 0.048528
-0.000000 0.853895 0.048528
-0.000000 0.853895 0.097092
-0.000000 0.805193 0.097092
-0.000000 0.805193 0.048528
-0.000000 0.659088 0.048528
-0.000000 0.659088 0.097092
-0.000000 0.610386 0.097092
-0.000000 0.610386 0.048528
-0.000000 1.048702 0.048528
-0.000000 1.048702 0.097092
-0.000000 1.000000 0.097092
-0.000000 1.000000 0.048528
-0.000000 0.756491 -0.145748
-0.000000 0.756491 -0.097206
-0.000000 0.707789 -0.097206
-0.000000 0.707789 -0.145748
-0.000000 0.951298 -0.145748
-0.000000 0.951298 -0.097206
-0.000000 0.902596 -0.097206
-0.000000 0.902596 -0.145748
-0.000000 1.146105 -0.145748
-0.000000 1.146105 -0.097206
-0.000000 1.097403 -0.097206
-0.000000 1.097403 -0.145748
-0.000000 1.340912 -0.145748
-0.000000 1.340912 -0.097206
-0.000000 1.292211 -0.097206
-0.000000 1.292211 -0.145748
-0.000000 1.243509 -0.145748
-0.000000 1.243509 -0.097206
-0.000000 1.194807 -0.097206
-0.000000 1.194807 -0.145748
-0.000000 0.853895 -0.145748
-0.000000 0.853895 -0.097206
-0.000000 0.805193 -0.097206
-0.000000 0.805193 -0.145748
-0.000000 1.048702 -0.145748
-0.000000 1.048702 -0.097206
-0.000000 1.000000 -0.097206
-0.000000 1.000000 -0.145748
-0.000000 0.659088 -0.145748
-0.000000 0.659088 -0.097206
-0.000000 0.610386 -0.097206
-0.000000 0.610386 -0.145748
-0.000000 0.756491 -0.339983
-0.000000 0.756491 -0.291419
-0.000000 0.707789 -0.291419
-0.000000 0.707789 -0.339983
-0.000000 0.951298 -0.339983
-0.000000 0.951298 -0.291419
-0.000000 0.902596 -0.291419
-0.000000 0.902596 -0.339983
-0.000000 1.146105 -0.339983
-0.000000 1.146105 -0.291419
-0.000000 1.097403 -0.291419
-0.000000 1.097403 -0.339983
-0.000000 1.340912 -0.339983
-0.000000 1.340912 -0.291419
-0.000000 1.292211 -0.291419
-0.000000 1.292211 -0.339983
-0.000000 1.243509 -0.339983
-0.000000 1.243509 -0.291419
-0.000000 1.194807 -0.291419
-0.000000 1.194807 -0.339983
-0.000000 0.853895 -0.339983
-0.000000 0.853895 -0.291419
-0.000000 0.805193 -0.291419
-0.000000 0.805193 -0.339983
-0.000000 0.659088 -0.339983
-0.000000 0.659088 -0.291419
-0.000000 0.610386 -0.291419
-0.000000 0.610386 -0.339983
-0.000000 1.048702 -0.339983
-0.000000 1.048702 -0.291419
-0.000000 1.000000 -0.291419
-0.000000 1.000000 -0.339983
-0.000000 1.194807 -0.388546
-0.000000 1.146105 -0.388546
-0.000000 1.048702 -0.388546
-0.000000 1.000000 -0.388546
-0.000000 0.659088 -0.388546
-0.000000 0.610386 -0.388546
-0.000000 0.853895 -0.388546
-0.000000 0.805193 -0.388546
-0.000000 1.243509 -0.388546
-0.000000 1.340912 -0.388546
-0.000000 1.292211 -0.388546
-0.000000 1.097403 -0.388546
-0.000000 0.951298 -0.388546
-0.000000 0.902596 -0.388546
-0.000000 0.756491 -0.388546
-0.000000 0.707789 -0.388546
-0.000000 1.389614 -0.388546
-0.000000 1.389614 -0.339983
-0.000000 1.389614 -0.291419
-0.000000 1.389614 -0.242855
-0.000000 1.389614 -0.194291
-0.000000 1.389614 -0.145748
-0.000000 1.389614 -0.097206
-0.000000 1.389614 -0.048621
-0.000000 1.389614 -0.000036
-0.000000 1.389614 0.048528
-0.000000 1.389614 0.097092
-0.000000 1.389614 0.145655
-0.000000 1.389614 0.194219
-0.000000 1.389614 0.242783
-0.000000 1.389614 0.291347
-0.000000 1.389614 0.339910
-0.000001 1.389614 0.388474
