786
-7.720290 -6.996505 -0.537540 553 0.120658 0.992694 0.000000
-7.718625 -6.994996 -0.534215 507 0.120658 0.992694 0.000000
-7.718745 -6.995100 -0.531024 483 0.120658 0.992694 0.000000
-7.718649 -6.995007 -0.527805 513 0.120658 0.992694 0.000000
-7.717517 -6.993987 -0.524525 519 0.120658 0.992694 0.000000
-7.718010 -6.994439 -0.521350 505 0.120658 0.992694 0.000000
-7.718288 -6.994682 -0.518158 531 0.120658 0.992694 0.000000
-7.718511 -6.994881 -0.514966 537 0.120658 0.992694 0.000000
-7.718679 -6.995037 -0.511774 513 0.120658 0.992694 0.000000
-7.718092 -6.994502 -0.508529 517 0.120658 0.992694 0.000000
-7.717118 -6.993619 -0.505258 505 0.120658 0.992694 0.000000
-7.717983 -6.994408 -0.502110 517 0.120658 0.992694 0.000000
-7.718858 -6.995203 -0.498962 517 0.120658 0.992694 0.000000
-7.718803 -6.995155 -0.495752 527 0.120658 0.992694 0.000000
-7.719241 -6.995551 -0.492568 531 0.120658 0.992694 0.000000
-7.719131 -6.995446 -0.489359 533 0.120658 0.992694 0.000000
-7.718965 -6.995297 -0.486141 555 0.120658 0.992694 0.000000
-7.718640 -6.994997 -0.482924 523 0.120658 0.992694 0.000000
-7.717879 -6.994310 -0.479671 477 0.120658 0.992694 0.000000
-7.717769 -6.994205 -0.476452 483 0.120658 0.992694 0.000000
-7.718095 -6.994500 -0.473268 501 0.120658 0.992694 0.000000
-7.718199 -6.994592 -0.470067 511 0.120658 0.992694 0.000000
-7.718519 -6.994894 -0.466884 509 0.120658 0.992694 0.000000
-7.719535 -6.995814 -0.463735 525 0.120658 0.992694 0.000000
-7.719694 -6.995950 -0.460543 529 0.120658 0.992694 0.000000
-7.719583 -6.995845 -0.457334 535 0.120658 0.992694 0.000000
-7.719957 -6.996191 -0.454151 529 0.120658 0.992694 0.000000
-7.720054 -6.996276 -0.450950 525 0.120658 0.992694 0.000000
-7.718904 -6.995228 -0.447680 535 0.120658 0.992694 0.000000
-7.718246 -6.994637 -0.444436 515 0.120658 0.992694 0.000000
-7.717796 -6.994236 -0.441210 509 0.120658 0.992694 0.000000
-7.718162 -6.994562 -0.438027 507 0.120658 0.992694 0.000000
-7.718749 -6.995090 -0.434852 529 0.120658 0.992694 0.000000
-7.718418 -6.994797 -0.431634 511 0.120658 0.992694 0.000000
-7.718672 -6.995020 -0.428442 507 0.120658 0.992694 0.000000
-7.718545 -6.994903 -0.425233 509 0.120658 0.992694 0.000000
-7.719507 -6.995780 -0.422074 525 0.120658 0.992694 0.000000
-7.720143 -6.996360 -0.418908 517 0.120658 0.992694 0.000000
-7.718390 -6.994768 -0.415614 489 0.120658 0.992694 0.000000
-7.717559 -6.994012 -0.412362 497 0.120658 0.992694 0.000000
-7.718575 -6.994933 -0.409213 477 0.120658 0.992694 0.000000
-7.718663 -6.995012 -0.406012 477 0.120658 0.992694 0.000000
-7.718212 -6.994597 -0.402786 501 0.120658 0.992694 0.000000
-7.718943 -6.995266 -0.399619 481 0.120658 0.992694 0.000000
-7.718714 -6.995053 -0.396401 471 0.120658 0.992694 0.000000
-7.717874 -6.994291 -0.393159 481 0.120658 0.992694 0.000000
-7.718890 -6.995212 -0.390009 489 0.120658 0.992694 0.000000
-7.718978 -6.995291 -0.386808 491 0.120658 0.992694 0.000000
-7.718131 -6.994523 -0.383566 501 0.120658 0.992694 0.000000
-7.718758 -6.995096 -0.380390 471 0.120658 0.992694 0.000000
-7.719005 -6.995313 -0.377198 463 0.120658 0.992694 0.000000
-7.719030 -6.995343 -0.373998 465 0.120658 0.992694 0.000000
-7.718785 -6.995118 -0.370780 441 0.120658 0.992694 0.000000
-7.719571 -6.995830 -0.367612 459 0.120658 0.992694 0.000000
-7.719271 -6.995562 -0.364405 479 0.120658 0.992694 0.000000
-7.717836 -6.994261 -0.361128 481 0.120658 0.992694 0.000000
-7.718678 -6.995017 -0.357970 487 0.120658 0.992694 0.000000
-7.718695 -6.995040 -0.354770 501 0.120658 0.992694 0.000000
-7.718554 -6.994911 -0.351561 501 0.120658 0.992694 0.000000
-7.718745 -6.995085 -0.348360 495 0.120658 0.992694 0.000000
-7.719087 -6.995391 -0.345176 499 0.120658 0.992694 0.000000
-7.720468 -6.996641 -0.342034 505 0.120658 0.992694 0.000000
-7.720215 -6.996410 -0.338816 493 0.120658 0.992694 0.000000
-7.719470 -6.995736 -0.335583 481 0.120658 0.992694 0.000000
-7.719377 -6.995658 -0.332383 477 0.120658 0.992694 0.000000
-7.719503 -6.995768 -0.329182 493 0.120658 0.992694 0.000000
-7.718608 -6.994948 -0.325940 471 0.120658 0.992694 0.000000
-7.719110 -6.995408 -0.322766 463 0.120658 0.992694 0.000000
-7.719125 -6.995417 -0.319565 477 0.120658 0.992694 0.000000
-7.717946 -6.994359 -0.316316 475 0.120658 0.992694 0.000000
-7.721205 -6.993049 -0.704386 473 0.120658 0.992694 0.000000
-7.722229 -6.993976 -0.701267 471 0.120658 0.992694 0.000000
-7.722984 -6.994663 -0.698120 487 0.120658 0.992694 0.000000
-7.722589 -6.994306 -0.694863 505 0.120658 0.992694 0.000000
-7.721557 -6.993365 -0.691563 495 0.120658 0.992694 0.000000
-7.721709 -6.993508 -0.688361 513 0.120658 0.992694 0.000000
-7.721965 -6.993746 -0.685169 509 0.120658 0.992694 0.000000
-7.721529 -6.993344 -0.681923 481 0.120658 0.992694 0.000000
-7.721244 -6.993088 -0.678685 463 0.120658 0.992694 0.000000
-7.721292 -6.993122 -0.675475 465 0.120658 0.992694 0.000000
-7.721659 -6.993461 -0.672301 483 0.120658 0.992694 0.000000
-7.722073 -6.993838 -0.669118 449 0.120658 0.992694 0.000000
-7.722714 -6.994410 -0.665962 465 0.120658 0.992694 0.000000
-7.722273 -6.994015 -0.662716 471 0.120658 0.992694 0.000000
-7.721766 -6.993556 -0.659460 455 0.120658 0.992694 0.000000
-7.722076 -6.993838 -0.656267 439 0.120658 0.992694 0.000000
-7.721735 -6.993525 -0.653030 435 0.120658 0.992694 0.000000
-7.722959 -6.994636 -0.649919 451 0.120658 0.992694 0.000000
-7.723967 -6.995551 -0.646790 443 0.120658 0.992694 0.000000
-7.723308 -6.994945 -0.643526 453 0.120658 0.992694 0.000000
-7.722255 -6.994000 -0.640225 451 0.120658 0.992694 0.000000
-7.721423 -6.993243 -0.636953 453 0.120658 0.992694 0.000000
-7.721725 -6.993519 -0.633760 453 0.120658 0.992694 0.000000
-7.722623 -6.994332 -0.630622 465 0.120658 0.992694 0.000000
-7.722551 -6.994259 -0.627412 447 0.120658 0.992694 0.000000
-7.722259 -6.993997 -0.624175 429 0.120658 0.992694 0.000000
-7.722070 -6.993830 -0.620946 443 0.120658 0.992694 0.000000
-7.721825 -6.993605 -0.617719 447 0.120658 0.992694 0.000000
-7.721159 -6.992993 -0.614455 471 0.120658 0.992694 0.000000
-7.721122 -6.992973 -0.611245 495 0.120658 0.992694 0.000000
-7.721368 -6.993190 -0.608053 521 0.120658 0.992694 0.000000
-7.721663 -6.993460 -0.604870 505 0.120658 0.992694 0.000000
-7.721632 -6.993432 -0.601660 509 0.120658 0.992694 0.000000
-7.722044 -6.993794 -0.598476 511 0.120658 0.992694 0.000000
-7.722720 -6.994405 -0.595320 511 0.120658 0.992694 0.000000
-7.723285 -6.994929 -0.592155 519 0.120658 0.992694 0.000000
-7.723793 -6.995380 -0.588980 519 0.120658 0.992694 0.000000
-7.722730 -6.994415 -0.585690 517 0.120658 0.992694 0.000000
-7.722042 -6.993799 -0.582426 503 0.120658 0.992694 0.000000
-7.721908 -6.993676 -0.579207 505 0.120658 0.992694 0.000000
-7.722353 -6.994077 -0.576033 489 0.120658 0.992694 0.000000
-7.722545 -6.994252 -0.572841 485 0.120658 0.992694 0.000000
-7.721045 -6.992887 -0.569525 477 0.120658 0.992694 0.000000
-7.721609 -6.993396 -0.566360 515 0.120658 0.992694 0.000000
-7.721571 -6.993362 -0.563140 497 0.120658 0.992694 0.000000
-7.721477 -6.993284 -0.559931 497 0.120658 0.992694 0.000000
-7.722080 -6.993824 -0.556765 505 0.120658 0.992694 0.000000
-7.722312 -6.994044 -0.553573 511 0.120658 0.992694 0.000000
-7.722281 -6.994002 -0.550363 517 0.120658 0.992694 0.000000
-7.720283 -6.992202 -0.547011 495 0.120658 0.992694 0.000000
-7.721435 -6.993244 -0.543891 485 0.120658 0.992694 0.000000
-7.723989 -6.995556 -0.540857 475 0.120658 0.992694 0.000000
-7.724331 -6.995863 -0.537664 487 0.120658 0.992694 0.000000
-7.723087 -6.994740 -0.534375 489 0.120658 0.992694 0.000000
-7.722343 -6.994066 -0.531122 501 0.120658 0.992694 0.000000
-7.723011 -6.994671 -0.527956 519 0.120658 0.992694 0.000000
-7.722741 -6.994427 -0.524728 517 0.120658 0.992694 0.000000
-7.721338 -6.993153 -0.521431 503 0.120658 0.992694 0.000000
-7.721783 -6.993554 -0.518257 527 0.120658 0.992694 0.000000
-7.723038 -6.994690 -0.515125 543 0.120658 0.992694 0.000000
-7.723965 -6.995528 -0.511976 531 0.120658 0.992694 0.000000
-7.724237 -6.995778 -0.508784 507 0.120658 0.992694 0.000000
-7.723103 -6.994743 -0.505504 493 0.120658 0.992694 0.000000
-7.722342 -6.994057 -0.502251 519 0.120658 0.992694 0.000000
-7.722351 -6.994060 -0.499051 525 0.120658 0.992694 0.000000
-7.722891 -6.994551 -0.495876 549 0.120658 0.992694 0.000000
-7.723329 -6.994946 -0.492692 535 0.120658 0.992694 0.000000
-7.722894 -6.994558 -0.489466 509 0.120658 0.992694 0.000000
-7.723054 -6.994707 -0.486264 525 0.120658 0.992694 0.000000
-7.723221 -6.994849 -0.483073 513 0.120658 0.992694 0.000000
-7.722024 -6.993763 -0.479794 511 0.120658 0.992694 0.000000
-7.721375 -6.993179 -0.476550 497 0.120658 0.992694 0.000000
-7.721582 -6.993365 -0.473348 493 0.120658 0.992694 0.000000
-7.721195 -6.993014 -0.470121 503 0.120658 0.992694 0.000000
-7.721037 -6.992872 -0.466913 501 0.120658 0.992694 0.000000
-7.722164 -6.993894 -0.463772 501 0.120658 0.992694 0.000000
-7.722648 -6.994328 -0.460588 535 0.120658 0.992694 0.000000
-7.722158 -6.993881 -0.457362 525 0.120658 0.992694 0.000000
-7.721984 -6.993727 -0.454143 515 0.120658 0.992694 0.000000
-7.721431 -6.993231 -0.450908 497 0.120658 0.992694 0.000000
-7.722295 -6.994005 -0.447750 497 0.120658 0.992694 0.000000
-7.724384 -6.995908 -0.444661 505 0.120658 0.992694 0.000000
-7.724059 -6.995606 -0.441434 525 0.120658 0.992694 0.000000
-7.722528 -6.994217 -0.438148 509 0.120658 0.992694 0.000000
-7.722735 -6.994404 -0.434956 499 0.120658 0.992694 0.000000
-7.723363 -6.994977 -0.431780 503 0.120658 0.992694 0.000000
-7.723460 -6.995063 -0.428579 509 0.120658 0.992694 0.000000
-7.723024 -6.994660 -0.425353 507 0.120658 0.992694 0.000000
-7.722400 -6.994109 -0.422119 511 0.120658 0.992694 0.000000
-7.722336 -6.994041 -0.418909 505 0.120658 0.992694 0.000000
-7.722812 -6.994468 -0.415725 489 0.120658 0.992694 0.000000
-7.723171 -6.994801 -0.412542 491 0.120658 0.992694 0.000000
-7.722823 -6.994481 -0.409325 491 0.120658 0.992694 0.000000
-7.722911 -6.994560 -0.406124 485 0.120658 0.992694 0.000000
-7.723110 -6.994740 -0.402922 513 0.120658 0.992694 0.000000
-7.722881 -6.994528 -0.399714 483 0.120658 0.992694 0.000000
-7.723017 -6.994659 -0.396513 481 0.120658 0.992694 0.000000
-7.723374 -6.994978 -0.393329 483 0.120658 0.992694 0.000000
-7.724003 -6.995552 -0.390153 497 0.120658 0.992694 0.000000
-7.723219 -6.994847 -0.386911 483 0.120658 0.992694 0.000000
-7.723029 -6.994666 -0.383702 489 0.120658 0.992694 0.000000
-7.723497 -6.995086 -0.380518 487 0.120658 0.992694 0.000000
-7.723799 -6.995361 -0.377325 471 0.120658 0.992694 0.000000
-7.724309 -6.995827 -0.374150 463 0.120658 0.992694 0.000000
-7.723960 -6.995507 -0.370923 483 0.120658 0.992694 0.000000
-7.722906 -6.994548 -0.367673 475 0.120658 0.992694 0.000000
-7.722003 -6.993736 -0.364431 471 0.120658 0.992694 0.000000
-7.722029 -6.993765 -0.361231 477 0.120658 0.992694 0.000000
-7.721624 -6.993388 -0.358005 453 0.120658 0.992694 0.000000
-7.722237 -6.993949 -0.354829 493 0.120658 0.992694 0.000000
-7.723506 -6.995097 -0.351687 479 0.120658 0.992694 0.000000
-7.723698 -6.995271 -0.348485 479 0.120658 0.992694 0.000000
-7.723771 -6.995338 -0.345285 491 0.120658 0.992694 0.000000
-7.723572 -6.995151 -0.342076 489 0.120658 0.992694 0.000000
-7.723272 -6.994883 -0.338859 499 0.120658 0.992694 0.000000
-7.724107 -6.995646 -0.335691 499 0.120658 0.992694 0.000000
-7.724235 -6.995756 -0.332490 489 0.120658 0.992694 0.000000
-7.724354 -6.995860 -0.329299 491 0.120658 0.992694 0.000000
-7.725458 -6.996863 -0.326138 495 0.120658 0.992694 0.000000
-7.724499 -6.995994 -0.322897 497 0.120658 0.992694 0.000000
-7.722946 -6.994586 -0.319631 495 0.120658 0.992694 0.000000
-7.723010 -6.994647 -0.316431 487 0.120658 0.992694 0.000000
-7.723899 -6.995453 -0.313263 503 0.120658 0.992694 0.000000
-7.725446 -6.992605 -0.704579 469 0.120658 0.992694 0.000000
-7.727606 -6.994564 -0.701549 473 0.120658 0.992694 0.000000
-7.727876 -6.994801 -0.698366 519 0.120658 0.992694 0.000000
-7.726132 -6.993229 -0.694992 521 0.120658 0.992694 0.000000
-7.725204 -6.992383 -0.691701 505 0.120658 0.992694 0.000000
-7.726068 -6.993158 -0.688563 497 0.120658 0.992694 0.000000
-7.727030 -6.994035 -0.685434 485 0.120658 0.992694 0.000000
-7.726968 -6.993982 -0.682214 459 0.120658 0.992694 0.000000
-7.726627 -6.993668 -0.678967 459 0.120658 0.992694 0.000000
-7.725645 -6.992779 -0.675666 477 0.120658 0.992694 0.000000
-7.725249 -6.992422 -0.672420 465 0.120658 0.992694 0.000000
-7.726266 -6.993343 -0.669300 433 0.120658 0.992694 0.000000
-7.726528 -6.993573 -0.666108 447 0.120658 0.992694 0.000000
-7.726887 -6.993907 -0.662924 485 0.120658 0.992694 0.000000
-7.726871 -6.993891 -0.659704 481 0.120658 0.992694 0.000000
-7.727728 -6.994658 -0.656567 463 0.120658 0.992694 0.000000
-7.727769 -6.994700 -0.653356 439 0.120658 0.992694 0.000000
-7.727540 -6.994488 -0.650128 433 0.120658 0.992694 0.000000
-7.726216 -6.993289 -0.646800 433 0.120658 0.992694 0.000000
-7.726139 -6.993223 -0.643581 441 0.120658 0.992694 0.000000
-7.726995 -6.993991 -0.640443 439 0.120658 0.992694 0.000000
-7.725616 -6.992749 -0.637115 463 0.120658 0.992694 0.000000
-7.726354 -6.993409 -0.633969 451 0.120658 0.992694 0.000000
-7.727363 -6.994324 -0.630839 419 0.120658 0.992694 0.000000
-7.727277 -6.994251 -0.627620 433 0.120658 0.992694 0.000000
-7.726873 -6.993888 -0.624374 429 0.120658 0.992694 0.000000
-7.726533 -6.993575 -0.621137 447 0.120658 0.992694 0.000000
-7.726447 -6.993502 -0.617917 451 0.120658 0.992694 0.000000
-7.725884 -6.992986 -0.614663 445 0.120658 0.992694 0.000000
-7.725695 -6.992819 -0.611434 479 0.120658 0.992694 0.000000
-7.726322 -6.993378 -0.608268 497 0.120658 0.992694 0.000000
-7.725919 -6.993015 -0.605032 517 0.120658 0.992694 0.000000
-7.725563 -6.992689 -0.601795 503 0.120658 0.992694 0.000000
-7.726120 -6.993205 -0.598630 501 0.120658 0.992694 0.000000
-7.726532 -6.993568 -0.595446 509 0.120658 0.992694 0.000000
-7.727470 -6.994427 -0.592307 525 0.120658 0.992694 0.000000
-7.726797 -6.993810 -0.589043 503 0.120658 0.992694 0.000000
-7.726710 -6.993737 -0.585824 505 0.120658 0.992694 0.000000
-7.726892 -6.993891 -0.582632 497 0.120658 0.992694 0.000000
-7.726315 -6.993376 -0.579378 493 0.120658 0.992694 0.000000
-7.726822 -6.993828 -0.576203 489 0.120658 0.992694 0.000000
-7.726904 -6.993901 -0.573002 483 0.120658 0.992694 0.000000
-7.726096 -6.993177 -0.569730 485 0.120658 0.992694 0.000000
-7.725470 -6.992611 -0.566475 511 0.120658 0.992694 0.000000
-7.725217 -6.992381 -0.563257 483 0.120658 0.992694 0.000000
-7.725615 -6.992731 -0.560074 495 0.120658 0.992694 0.000000
-7.726924 -6.993924 -0.556952 509 0.120658 0.992694 0.000000
-7.727695 -6.994624 -0.553804 503 0.120658 0.992694 0.000000
-7.726584 -6.993608 -0.550515 485 0.120658 0.992694 0.000000
-7.726214 -6.993283 -0.547278 483 0.120658 0.992694 0.000000
-7.726991 -6.993975 -0.544121 487 0.120658 0.992694 0.000000
-7.727865 -6.994769 -0.540973 485 0.120658 0.992694 0.000000
-7.728095 -6.994974 -0.537780 479 0.120658 0.992694 0.000000
-7.727074 -6.994054 -0.534500 489 0.120658 0.992694 0.000000
-7.726979 -6.993962 -0.531291 489 0.120658 0.992694 0.000000
-7.726878 -6.993878 -0.528071 507 0.120658 0.992694 0.000000
-7.726180 -6.993241 -0.524818 493 0.120658 0.992694 0.000000
-7.726894 -6.993883 -0.521651 505 0.120658 0.992694 0.000000
-7.726460 -6.993495 -0.518415 517 0.120658 0.992694 0.000000
-7.725984 -6.993061 -0.515179 525 0.120658 0.992694 0.000000
-7.726796 -6.993806 -0.512022 523 0.120658 0.992694 0.000000
-7.726803 -6.993809 -0.508822 493 0.120658 0.992694 0.000000
-7.726155 -6.993224 -0.505567 501 0.120658 0.992694 0.000000
-7.727027 -6.994004 -0.502419 537 0.120658 0.992694 0.000000
-7.726060 -6.993128 -0.499148 531 0.120658 0.992694 0.000000
-7.725403 -6.992537 -0.495904 531 0.120658 0.992694 0.000000
-7.725738 -6.992838 -0.492711 507 0.120658 0.992694 0.000000
-7.726650 -6.993663 -0.489563 499 0.120658 0.992694 0.000000
-7.728222 -6.995090 -0.486448 519 0.120658 0.992694 0.000000
-7.727683 -6.994593 -0.483213 527 0.120658 0.992694 0.000000
-7.726922 -6.993906 -0.479960 517 0.120658 0.992694 0.000000
-7.726599 -6.993619 -0.476733 507 0.120658 0.992694 0.000000
-7.725997 -6.993073 -0.473488 489 0.120658 0.992694 0.000000
-7.726370 -6.993404 -0.470305 499 0.120658 0.992694 0.000000
-7.727554 -6.994483 -0.467164 521 0.120658 0.992694 0.000000
-7.727277 -6.994234 -0.463946 521 0.120658 0.992694 0.000000
-7.726953 -6.993933 -0.460719 539 0.120658 0.992694 0.000000
-7.727700 -6.994614 -0.457552 527 0.120658 0.992694 0.000000
-7.727796 -6.994699 -0.454351 521 0.120658 0.992694 0.000000
-7.726924 -6.993912 -0.451099 493 0.120658 0.992694 0.000000
-7.726591 -6.993604 -0.447872 499 0.120658 0.992694 0.000000
-7.726847 -6.993843 -0.444680 503 0.120658 0.992694 0.000000
-7.726410 -6.993440 -0.441454 511 0.120658 0.992694 0.000000
-7.726998 -6.993968 -0.438278 511 0.120658 0.992694 0.000000
-7.726714 -6.993712 -0.435061 497 0.120658 0.992694 0.000000
-7.725129 -6.992280 -0.431765 485 0.120658 0.992694 0.000000
-7.726138 -6.993194 -0.428616 503 0.120658 0.992694 0.000000
-7.727430 -6.994361 -0.425474 509 0.120658 0.992694 0.000000
-7.727250 -6.994201 -0.422266 529 0.120658 0.992694 0.000000
-7.727019 -6.993988 -0.419048 519 0.120658 0.992694 0.000000
-7.726244 -6.993289 -0.415795 475 0.120658 0.992694 0.000000
-7.726381 -6.993420 -0.412603 471 0.120658 0.992694 0.000000
-7.727127 -6.994087 -0.409436 455 0.120658 0.992694 0.000000
-7.726785 -6.993773 -0.406209 471 0.120658 0.992694 0.000000
-7.726931 -6.993910 -0.403008 503 0.120658 0.992694 0.000000
-7.728050 -6.994925 -0.399868 493 0.120658 0.992694 0.000000
-7.727590 -6.994504 -0.396632 493 0.120658 0.992694 0.000000
-7.727512 -6.994439 -0.393422 485 0.120658 0.992694 0.000000
-7.727441 -6.994365 -0.390213 459 0.120658 0.992694 0.000000
-7.726229 -6.993268 -0.386954 463 0.120658 0.992694 0.000000
-7.727555 -6.994474 -0.383812 475 0.120658 0.992694 0.000000
-7.728729 -6.995533 -0.380661 475 0.120658 0.992694 0.000000
-7.728643 -6.995461 -0.377452 479 0.120658 0.992694 0.000000
-7.727589 -6.994503 -0.374201 487 0.120658 0.992694 0.000000
-7.727504 -6.994430 -0.370992 479 0.120658 0.992694 0.000000
-7.728344 -6.995186 -0.367824 473 0.120658 0.992694 0.000000
-7.728694 -6.995499 -0.364641 465 0.120658 0.992694 0.000000
-7.728076 -6.994939 -0.361407 475 0.120658 0.992694 0.000000
-7.726745 -6.993733 -0.358139 447 0.120658 0.992694 0.000000
-7.726659 -6.993662 -0.354929 467 0.120658 0.992694 0.000000
-7.726080 -6.993133 -0.351705 459 0.120658 0.992694 0.000000
-7.725996 -6.993062 -0.348495 465 0.120658 0.992694 0.000000
-7.727265 -6.994210 -0.345344 489 0.120658 0.992694 0.000000
-7.728098 -6.994959 -0.342176 495 0.120658 0.992694 0.000000
-7.728608 -6.995425 -0.338991 477 0.120658 0.992694 0.000000
-7.728465 -6.995295 -0.335782 493 0.120658 0.992694 0.000000
-7.727181 -6.994127 -0.332524 479 0.120658 0.992694 0.000000
-7.727580 -6.994492 -0.329340 489 0.120658 0.992694 0.000000
-7.728358 -6.995198 -0.326163 487 0.120658 0.992694 0.000000
-7.728366 -6.995200 -0.322963 485 0.120658 0.992694 0.000000
-7.728169 -6.995027 -0.319755 511 0.120658 0.992694 0.000000
-7.727702 -6.994599 -0.316529 503 0.120658 0.992694 0.000000
-7.726459 -6.993477 -0.313280 469 0.120658 0.992694 0.000000
-7.730252 -6.992738 -0.704815 455 0.120658 0.992694 0.000000
-7.731871 -6.994203 -0.701750 485 0.120658 0.992694 0.000000
-7.731595 -6.993953 -0.698503 511 0.120658 0.992694 0.000000
-7.731373 -6.993748 -0.695275 513 0.120658 0.992694 0.000000
-7.731476 -6.993838 -0.692064 501 0.120658 0.992694 0.000000
-7.730543 -6.993001 -0.688772 497 0.120658 0.992694 0.000000
-7.729829 -6.992352 -0.685489 487 0.120658 0.992694 0.000000
-7.730139 -6.992634 -0.682306 475 0.120658 0.992694 0.000000
-7.730672 -6.993119 -0.679131 457 0.120658 0.992694 0.000000
-7.731696 -6.994045 -0.676011 463 0.120658 0.992694 0.000000
-7.731410 -6.993776 -0.672774 447 0.120658 0.992694 0.000000
-7.730096 -6.992597 -0.669446 447 0.120658 0.992694 0.000000
-7.730081 -6.992581 -0.666226 477 0.120658 0.992694 0.000000
-7.730342 -6.992811 -0.663033 493 0.120658 0.992694 0.000000
-7.731185 -6.993581 -0.659896 463 0.120658 0.992694 0.000000
-7.731716 -6.994051 -0.656721 425 0.120658 0.992694 0.000000
-7.731480 -6.993846 -0.653493 417 0.120658 0.992694 0.000000
-7.731956 -6.994273 -0.650318 415 0.120658 0.992694 0.000000
-7.731290 -6.993662 -0.647044 425 0.120658 0.992694 0.000000
-7.730348 -6.992818 -0.643753 413 0.120658 0.992694 0.000000
-7.730492 -6.992941 -0.640552 409 0.120658 0.992694 0.000000
-7.730422 -6.992881 -0.637342 443 0.120658 0.992694 0.000000
-7.730564 -6.993004 -0.634141 443 0.120658 0.992694 0.000000
-7.731193 -6.993577 -0.630975 419 0.120658 0.992694 0.000000
-7.729703 -6.992234 -0.627639 401 0.120658 0.992694 0.000000
-7.729577 -6.992116 -0.624420 413 0.120658 0.992694 0.000000
-7.730743 -6.993170 -0.621299 445 0.120658 0.992694 0.000000
-7.729737 -6.992262 -0.618008 457 0.120658 0.992694 0.000000
-7.729548 -6.992095 -0.614780 479 0.120658 0.992694 0.000000
-7.729857 -6.992363 -0.611597 501 0.120658 0.992694 0.000000
-7.730318 -6.992777 -0.608422 509 0.120658 0.992694 0.000000
-7.731318 -6.993685 -0.605283 515 0.120658 0.992694 0.000000
-7.731177 -6.993556 -0.602064 493 0.120658 0.992694 0.000000
-7.730711 -6.993143 -0.598819 485 0.120658 0.992694 0.000000
-7.730743 -6.993164 -0.595608 513 0.120658 0.992694 0.000000
-7.731092 -6.993477 -0.592425 521 0.120658 0.992694 0.000000
-7.730032 -6.992526 -0.589135 503 0.120658 0.992694 0.000000
-7.728747 -6.991358 -0.585826 485 0.120658 0.992694 0.000000
-7.729802 -6.992310 -0.582697 491 0.120658 0.992694 0.000000
-7.730629 -6.993067 -0.579539 499 0.120658 0.992694 0.000000
-7.730161 -6.992639 -0.576293 485 0.120658 0.992694 0.000000
-7.730131 -6.992611 -0.573083 507 0.120658 0.992694 0.000000
-7.731281 -6.993651 -0.569953 525 0.120658 0.992694 0.000000
-7.732172 -6.994459 -0.566814 505 0.120658 0.992694 0.000000
-7.732298 -6.994569 -0.563603 485 0.120658 0.992694 0.000000
-7.731285 -6.993656 -0.560322 493 0.120658 0.992694 0.000000
-7.730651 -6.993083 -0.557068 487 0.120658 0.992694 0.000000
-7.730834 -6.993237 -0.553876 479 0.120658 0.992694 0.000000
-7.729812 -6.992318 -0.550596 469 0.120658 0.992694 0.000000
-7.729455 -6.991991 -0.547359 475 0.120658 0.992694 0.000000
-7.730003 -6.992488 -0.544184 475 0.120658 0.992694 0.000000
-7.730497 -6.992941 -0.541009 485 0.120658 0.992694 0.000000
-7.730728 -6.993147 -0.537817 471 0.120658 0.992694 0.000000
-7.730847 -6.993250 -0.534616 469 0.120658 0.992694 0.000000
-7.730960 -6.993362 -0.531415 503 0.120658 0.992694 0.000000
-7.731675 -6.994004 -0.528248 499 0.120658 0.992694 0.000000
-7.731525 -6.993868 -0.525029 497 0.120658 0.992694 0.000000
-7.732184 -6.994466 -0.521863 517 0.120658 0.992694 0.000000
-7.732842 -6.995050 -0.518697 509 0.120658 0.992694 0.000000
-7.731987 -6.994276 -0.515435 503 0.120658 0.992694 0.000000
-7.730466 -6.992907 -0.512129 501 0.120658 0.992694 0.000000
-7.730150 -6.992626 -0.508902 501 0.120658 0.992694 0.000000
-7.731402 -6.993748 -0.505770 513 0.120658 0.992694 0.000000
-7.730691 -6.993113 -0.502517 509 0.120658 0.992694 0.000000
-7.730208 -6.992673 -0.499281 505 0.120658 0.992694 0.000000
-7.731026 -6.993411 -0.496123 513 0.120658 0.992694 0.000000
-7.731843 -6.994147 -0.492966 519 0.120658 0.992694 0.000000
-7.732107 -6.994392 -0.489773 503 0.120658 0.992694 0.000000
-7.731893 -6.994192 -0.486545 503 0.120658 0.992694 0.000000
-7.731410 -6.993752 -0.483310 501 0.120658 0.992694 0.000000
-7.731458 -6.993799 -0.480109 495 0.120658 0.992694 0.000000
-7.730968 -6.993353 -0.476874 497 0.120658 0.992694 0.000000
-7.730422 -6.992864 -0.473628 495 0.120658 0.992694 0.000000
-7.730360 -6.992811 -0.470419 495 0.120658 0.992694 0.000000
-7.731280 -6.993642 -0.467260 509 0.120658 0.992694 0.000000
-7.731931 -6.994220 -0.464094 527 0.120658 0.992694 0.000000
-7.730567 -6.992990 -0.460807 539 0.120658 0.992694 0.000000
-7.729522 -6.992052 -0.457536 519 0.120658 0.992694 0.000000
-7.729841 -6.992340 -0.454353 519 0.120658 0.992694 0.000000
-7.730317 -6.992766 -0.451169 503 0.120658 0.992694 0.000000
-7.729772 -6.992277 -0.447934 501 0.120658 0.992694 0.000000
-7.729224 -6.991773 -0.444699 495 0.120658 0.992694 0.000000
-7.730781 -6.993188 -0.441574 495 0.120658 0.992694 0.000000
-7.730876 -6.993273 -0.438373 505 0.120658 0.992694 0.000000
-7.730378 -6.992821 -0.435138 499 0.120658 0.992694 0.000000
-7.731291 -6.993646 -0.431989 511 0.120658 0.992694 0.000000
-7.731227 -6.993579 -0.428780 507 0.120658 0.992694 0.000000
-7.731959 -6.994247 -0.425603 503 0.120658 0.992694 0.000000
-7.731626 -6.993940 -0.422386 519 0.120658 0.992694 0.000000
-7.731016 -6.993387 -0.419142 509 0.120658 0.992694 0.000000
-7.732516 -6.994743 -0.416018 491 0.120658 0.992694 0.000000
-7.732232 -6.994488 -0.412790 477 0.120658 0.992694 0.000000
-7.731551 -6.993878 -0.409557 469 0.120658 0.992694 0.000000
-7.731267 -6.993622 -0.406329 491 0.120658 0.992694 0.000000
-7.731569 -6.993898 -0.403146 495 0.120658 0.992694 0.000000
-7.731658 -6.993977 -0.399935 495 0.120658 0.992694 0.000000
-7.732015 -6.994296 -0.396752 501 0.120658 0.992694 0.000000
-7.731991 -6.994274 -0.393542 503 0.120658 0.992694 0.000000
-7.731319 -6.993670 -0.390308 483 0.120658 0.992694 0.000000
-7.732168 -6.994432 -0.387140 477 0.120658 0.992694 0.000000
-7.732360 -6.994606 -0.383948 487 0.120658 0.992694 0.000000
-7.731417 -6.993749 -0.380697 495 0.120658 0.992694 0.000000
-7.731545 -6.993874 -0.377496 483 0.120658 0.992694 0.000000
-7.732172 -6.994432 -0.374320 493 0.120658 0.992694 0.000000
-7.732316 -6.994569 -0.371119 491 0.120658 0.992694 0.000000
-7.733212 -6.995368 -0.367950 479 0.120658 0.992694 0.000000
-7.733507 -6.995638 -0.364758 485 0.120658 0.992694 0.000000
-7.732929 -6.995123 -0.361533 487 0.120658 0.992694 0.000000
-7.731487 -6.993817 -0.358256 483 0.120658 0.992694 0.000000
-7.730647 -6.993054 -0.355014 493 0.120658 0.992694 0.000000
-7.730348 -6.992786 -0.351796 485 0.120658 0.992694 0.000000
-7.730205 -6.992656 -0.348588 485 0.120658 0.992694 0.000000
-7.730983 -6.993361 -0.345420 489 0.120658 0.992694 0.000000
-7.731333 -6.993675 -0.342227 487 0.120658 0.992694 0.000000
-7.731135 -6.993488 -0.339019 483 0.120658 0.992694 0.000000
-7.731810 -6.994098 -0.335842 477 0.120658 0.992694 0.000000
-7.733612 -6.995734 -0.332706 503 0.120658 0.992694 0.000000
-7.733899 -6.995997 -0.329513 503 0.120658 0.992694 0.000000
-7.733266 -6.995425 -0.326279 501 0.120658 0.992694 0.000000
-7.733456 -6.995585 -0.323087 519 0.120658 0.992694 0.000000
-7.733085 -6.995260 -0.319860 509 0.120658 0.992694 0.000000
-7.732396 -6.994631 -0.316637 485 0.120658 0.992694 0.000000
-7.732419 -6.994646 -0.313426 477 0.120658 0.992694 0.000000
-7.733536 -6.991506 -0.704926 483 0.120658 0.992694 0.000000
-7.734552 -6.992426 -0.701796 505 0.120658 0.992694 0.000000
-7.735147 -6.992961 -0.698641 505 0.120658 0.992694 0.000000
-7.733784 -6.991731 -0.695303 487 0.120658 0.992694 0.000000
-7.733508 -6.991480 -0.692066 507 0.120658 0.992694 0.000000
-7.734261 -6.992154 -0.688909 499 0.120658 0.992694 0.000000
-7.733112 -6.991120 -0.685599 493 0.120658 0.992694 0.000000
-7.732939 -6.990965 -0.682371 453 0.120658 0.992694 0.000000
-7.734280 -6.992170 -0.679268 449 0.120658 0.992694 0.000000
-7.734758 -6.992610 -0.676094 449 0.120658 0.992694 0.000000
-7.735566 -6.993327 -0.672946 469 0.120658 0.992694 0.000000
-7.734243 -6.992142 -0.669618 465 0.120658 0.992694 0.000000
-7.734236 -6.992132 -0.666409 459 0.120658 0.992694 0.000000
-7.734324 -6.992212 -0.663198 471 0.120658 0.992694 0.000000
-7.733611 -6.991563 -0.659924 421 0.120658 0.992694 0.000000
-7.733810 -6.991743 -0.656722 425 0.120658 0.992694 0.000000
-7.734175 -6.992068 -0.653539 409 0.120658 0.992694 0.000000
-7.735130 -6.992940 -0.650410 415 0.120658 0.992694 0.000000
-7.735820 -6.993563 -0.647253 409 0.120658 0.992694 0.000000
-7.736226 -6.993933 -0.644070 421 0.120658 0.992694 0.000000
-7.735242 -6.993031 -0.640769 417 0.120658 0.992694 0.000000
-7.735275 -6.993066 -0.637558 433 0.120658 0.992694 0.000000
-7.734547 -6.992405 -0.634285 463 0.120658 0.992694 0.000000
-7.734365 -6.992244 -0.631067 443 0.120658 0.992694 0.000000
-7.734619 -6.992467 -0.627864 425 0.120658 0.992694 0.000000
-7.733662 -6.991611 -0.624583 463 0.120658 0.992694 0.000000
-7.734027 -6.991937 -0.621399 455 0.120658 0.992694 0.000000
-7.734916 -6.992744 -0.618251 451 0.120658 0.992694 0.000000
-7.735108 -6.992918 -0.615059 483 0.120658 0.992694 0.000000
-7.734442 -6.992307 -0.611785 491 0.120658 0.992694 0.000000
-7.735054 -6.992867 -0.608620 493 0.120658 0.992694 0.000000
-7.736767 -6.994408 -0.605544 505 0.120658 0.992694 0.000000
-7.736141 -6.993841 -0.602280 517 0.120658 0.992694 0.000000
-7.735080 -6.992890 -0.598989 493 0.120658 0.992694 0.000000
-7.735216 -6.993007 -0.595788 517 0.120658 0.992694 0.000000
-7.735248 -6.993028 -0.592578 523 0.120658 0.992694 0.000000
-7.735853 -6.993583 -0.589412 517 0.120658 0.992694 0.000000
-7.735933 -6.993656 -0.586201 503 0.120658 0.992694 0.000000
-7.735473 -6.993235 -0.582955 493 0.120658 0.992694 0.000000
-7.734674 -6.992517 -0.579683 499 0.120658 0.992694 0.000000
-7.733888 -6.991798 -0.576420 491 0.120658 0.992694 0.000000
-7.734389 -6.992258 -0.573245 513 0.120658 0.992694 0.000000
-7.734351 -6.992223 -0.570025 513 0.120658 0.992694 0.000000
-7.733829 -6.991752 -0.566780 505 0.120658 0.992694 0.000000
-7.733852 -6.991767 -0.563570 521 0.120658 0.992694 0.000000
-7.734195 -6.992074 -0.560387 493 0.120658 0.992694 0.000000
-7.734370 -6.992235 -0.557185 459 0.120658 0.992694 0.000000
-7.735252 -6.993036 -0.554037 467 0.120658 0.992694 0.000000
-7.735428 -6.993198 -0.550835 479 0.120658 0.992694 0.000000
-7.734800 -6.992618 -0.547581 485 0.120658 0.992694 0.000000
-7.735349 -6.993115 -0.544416 493 0.120658 0.992694 0.000000
-7.735794 -6.993516 -0.541231 471 0.120658 0.992694 0.000000
-7.736018 -6.993730 -0.538039 471 0.120658 0.992694 0.000000
-7.735654 -6.993398 -0.534802 485 0.120658 0.992694 0.000000
-7.734901 -6.992717 -0.531539 479 0.120658 0.992694 0.000000
-7.734363 -6.992234 -0.528294 479 0.120658 0.992694 0.000000
-7.734760 -6.992584 -0.525110 499 0.120658 0.992694 0.000000
-7.734983 -6.992784 -0.521918 497 0.120658 0.992694 0.000000
-7.734667 -6.992503 -0.518681 503 0.120658 0.992694 0.000000
-7.733478 -6.991423 -0.515402 499 0.120658 0.992694 0.000000
-7.735002 -6.992799 -0.512288 501 0.120658 0.992694 0.000000
-7.735273 -6.993050 -0.509095 513 0.120658 0.992694 0.000000
-7.733323 -6.991289 -0.505763 517 0.120658 0.992694 0.000000
-7.733601 -6.991532 -0.502571 497 0.120658 0.992694 0.000000
-7.734578 -6.992421 -0.499422 499 0.120658 0.992694 0.000000
-7.734967 -6.992765 -0.496238 519 0.120658 0.992694 0.000000
-7.735991 -6.993692 -0.493088 511 0.120658 0.992694 0.000000
-7.735833 -6.993550 -0.489870 499 0.120658 0.992694 0.000000
-7.735501 -6.993256 -0.486643 487 0.120658 0.992694 0.000000
-7.735772 -6.993493 -0.483450 485 0.120658 0.992694 0.000000
-7.735502 -6.993249 -0.480223 493 0.120658 0.992694 0.000000
-7.735171 -6.992957 -0.476996 501 0.120658 0.992694 0.000000
-7.735601 -6.993346 -0.473812 521 0.120658 0.992694 0.000000
-7.735054 -6.992842 -0.470577 515 0.120658 0.992694 0.000000
-7.734730 -6.992555 -0.467349 509 0.120658 0.992694 0.000000
-7.735269 -6.993031 -0.464164 523 0.120658 0.992694 0.000000
-7.734501 -6.992339 -0.460911 519 0.120658 0.992694 0.000000
-7.735359 -6.993121 -0.457753 521 0.120658 0.992694 0.000000
-7.735463 -6.993213 -0.454552 497 0.120658 0.992694 0.000000
-7.735504 -6.993255 -0.451352 487 0.120658 0.992694 0.000000
-7.735386 -6.993143 -0.448133 483 0.120658 0.992694 0.000000
-7.734569 -6.992400 -0.444880 495 0.120658 0.992694 0.000000
-7.735634 -6.993372 -0.441730 485 0.120658 0.992694 0.000000
-7.736553 -6.994190 -0.438572 499 0.120658 0.992694 0.000000
-7.736380 -6.994035 -0.435354 487 0.120658 0.992694 0.000000
-7.736414 -6.994071 -0.432153 501 0.120658 0.992694 0.000000
-7.736510 -6.994156 -0.428952 501 0.120658 0.992694 0.000000
-7.735519 -6.993261 -0.425691 499 0.120658 0.992694 0.000000
-7.734203 -6.992069 -0.422413 503 0.120658 0.992694 0.000000
-7.734348 -6.992205 -0.419212 483 0.120658 0.992694 0.000000
-7.734444 -6.992290 -0.416011 475 0.120658 0.992694 0.000000
-7.735189 -6.992958 -0.412844 473 0.120658 0.992694 0.000000
-7.736260 -6.993922 -0.409684 499 0.120658 0.992694 0.000000
-7.736397 -6.994052 -0.406493 501 0.120658 0.992694 0.000000
-7.736811 -6.994429 -0.403299 503 0.120658 0.992694 0.000000
-7.736953 -6.994552 -0.400097 499 0.120658 0.992694 0.000000
-7.735353 -6.993107 -0.396812 505 0.120658 0.992694 0.000000
-7.734901 -6.992692 -0.393586 489 0.120658 0.992694 0.000000
-7.735100 -6.992872 -0.390384 473 0.120658 0.992694 0.000000
-7.735078 -6.992850 -0.387184 479 0.120658 0.992694 0.000000
-7.734834 -6.992640 -0.383967 469 0.120658 0.992694 0.000000
-7.734320 -6.992175 -0.380731 485 0.120658 0.992694 0.000000
-7.734463 -6.992298 -0.377530 497 0.120658 0.992694 0.000000
-7.735406 -6.993148 -0.374371 487 0.120658 0.992694 0.000000
-7.736684 -6.994303 -0.371229 481 0.120658 0.992694 0.000000
-7.735195 -6.992959 -0.367953 461 0.120658 0.992694 0.000000
-7.734618 -6.992444 -0.364718 459 0.120658 0.992694 0.000000
-7.735467 -6.993206 -0.361550 483 0.120658 0.992694 0.000000
-7.736300 -6.993955 -0.358382 479 0.120658 0.992694 0.000000
-7.736595 -6.994225 -0.355190 475 0.120658 0.992694 0.000000
-7.734938 -6.992722 -0.351905 473 0.120658 0.992694 0.000000
-7.733870 -6.991765 -0.348655 481 0.120658 0.992694 0.000000
-7.735090 -6.992861 -0.345503 497 0.120658 0.992694 0.000000
-7.736242 -6.993903 -0.342353 473 0.120658 0.992694 0.000000
-7.735672 -6.993394 -0.339118 487 0.120658 0.992694 0.000000
-7.735197 -6.992960 -0.335892 479 0.120658 0.992694 0.000000
-7.735713 -6.993418 -0.332707 493 0.120658 0.992694 0.000000
-7.736863 -6.994459 -0.329547 491 0.120658 0.992694 0.000000
-7.736936 -6.994526 -0.326346 491 0.120658 0.992694 0.000000
-7.735756 -6.993467 -0.323097 523 0.120658 0.992694 0.000000
-7.735012 -6.992794 -0.319863 513 0.120658 0.992694 0.000000
-7.734164 -6.992025 -0.316621 469 0.120658 0.992694 0.000000
-7.734989 -6.992768 -0.313454 465 0.120658 0.992694 0.000000
-7.738710 -6.991882 -0.705200 471 0.120658 0.992694 0.000000
-7.739569 -6.992664 -0.702062 489 0.120658 0.992694 0.000000
-7.738967 -6.992117 -0.698787 493 0.120658 0.992694 0.000000
-7.737547 -6.990829 -0.695450 495 0.120658 0.992694 0.000000
-7.737865 -6.991117 -0.692257 485 0.120658 0.992694 0.000000
-7.738882 -6.992037 -0.689128 513 0.120658 0.992694 0.000000
-7.739034 -6.992180 -0.685926 497 0.120658 0.992694 0.000000
-7.738867 -6.992018 -0.682698 457 0.120658 0.992694 0.000000
-7.738805 -6.991965 -0.679478 459 0.120658 0.992694 0.000000
-7.738465 -6.991665 -0.676231 459 0.120658 0.992694 0.000000
-7.738728 -6.991895 -0.673039 461 0.120658 0.992694 0.000000
-7.739744 -6.992816 -0.669909 467 0.120658 0.992694 0.000000
-7.739348 -6.992458 -0.666653 455 0.120658 0.992694 0.000000
-7.738961 -6.992107 -0.663406 451 0.120658 0.992694 0.000000
-7.738889 -6.992034 -0.660187 447 0.120658 0.992694 0.000000
-7.739096 -6.992220 -0.656985 431 0.120658 0.992694 0.000000
-7.739080 -6.992204 -0.653775 403 0.120658 0.992694 0.000000
-7.739272 -6.992379 -0.650573 397 0.120658 0.992694 0.000000
-7.739202 -6.992320 -0.647354 417 0.120658 0.992694 0.000000
-7.739671 -6.992740 -0.644179 417 0.120658 0.992694 0.000000
-7.739815 -6.992877 -0.640968 429 0.120658 0.992694 0.000000
-7.738000 -6.991235 -0.637615 445 0.120658 0.992694 0.000000
-7.738302 -6.991510 -0.634422 457 0.120658 0.992694 0.000000
-7.738834 -6.991981 -0.631247 447 0.120658 0.992694 0.000000
-7.738265 -6.991473 -0.627992 437 0.120658 0.992694 0.000000
-7.738891 -6.992031 -0.624826 445 0.120658 0.992694 0.000000
-7.738487 -6.991668 -0.621580 477 0.120658 0.992694 0.000000
-7.738361 -6.991550 -0.618361 471 0.120658 0.992694 0.000000
-7.739465 -6.992554 -0.615231 483 0.120658 0.992694 0.000000
-7.738902 -6.992037 -0.611976 499 0.120658 0.992694 0.000000
-7.738659 -6.991827 -0.608738 495 0.120658 0.992694 0.000000
-7.739009 -6.992140 -0.605555 485 0.120658 0.992694 0.000000
-7.737954 -6.991181 -0.602254 507 0.120658 0.992694 0.000000
-7.738145 -6.991355 -0.599062 487 0.120658 0.992694 0.000000
-7.739241 -6.992352 -0.595932 507 0.120658 0.992694 0.000000
-7.738949 -6.992090 -0.592695 519 0.120658 0.992694 0.000000
-7.738481 -6.991662 -0.589449 507 0.120658 0.992694 0.000000
-7.739149 -6.992267 -0.586283 493 0.120658 0.992694 0.000000
-7.739450 -6.992528 -0.583090 487 0.120658 0.992694 0.000000
-7.739198 -6.992311 -0.579862 491 0.120658 0.992694 0.000000
-7.740357 -6.993359 -0.576731 487 0.120658 0.992694 0.000000
-7.740270 -6.993272 -0.573512 523 0.120658 0.992694 0.000000
-7.739422 -6.992504 -0.570240 509 0.120658 0.992694 0.000000
-7.739051 -6.992179 -0.567003 499 0.120658 0.992694 0.000000
-7.739996 -6.993030 -0.563854 519 0.120658 0.992694 0.000000
-7.740614 -6.993583 -0.560689 495 0.120658 0.992694 0.000000
-7.740514 -6.993499 -0.557470 477 0.120658 0.992694 0.000000
-7.739942 -6.992976 -0.554215 465 0.120658 0.992694 0.000000
-7.738000 -6.991220 -0.550873 469 0.120658 0.992694 0.000000
-7.739095 -6.992203 -0.547732 467 0.120658 0.992694 0.000000
-7.740303 -6.993302 -0.544601 487 0.120658 0.992694 0.000000
-7.739121 -6.992229 -0.541312 467 0.120658 0.992694 0.000000
-7.739780 -6.992828 -0.538146 485 0.120658 0.992694 0.000000
-7.739900 -6.992932 -0.534945 479 0.120658 0.992694 0.000000
-7.739203 -6.992309 -0.531681 473 0.120658 0.992694 0.000000
-7.739109 -6.992217 -0.528472 475 0.120658 0.992694 0.000000
-7.739831 -6.992865 -0.525305 501 0.120658 0.992694 0.000000
-7.740752 -6.993697 -0.522157 513 0.120658 0.992694 0.000000
-7.739667 -6.992727 -0.518876 483 0.120658 0.992694 0.000000
-7.738003 -6.991218 -0.515552 485 0.120658 0.992694 0.000000
-7.738163 -6.991367 -0.512350 517 0.120658 0.992694 0.000000
-7.739749 -6.992793 -0.509246 515 0.120658 0.992694 0.000000
-7.740781 -6.993727 -0.506096 517 0.120658 0.992694 0.000000
-7.740132 -6.993141 -0.502852 505 0.120658 0.992694 0.000000
-7.739434 -6.992506 -0.499598 491 0.120658 0.992694 0.000000
-7.738619 -6.991776 -0.496336 517 0.120658 0.992694 0.000000
-7.738620 -6.991772 -0.493126 525 0.120658 0.992694 0.000000
-7.739002 -6.992124 -0.489942 505 0.120658 0.992694 0.000000
-7.738455 -6.991620 -0.486697 499 0.120658 0.992694 0.000000
-7.739272 -6.992357 -0.483539 507 0.120658 0.992694 0.000000
-7.740677 -6.993626 -0.480406 523 0.120658 0.992694 0.000000
-7.739813 -6.992845 -0.477144 517 0.120658 0.992694 0.000000
-7.738823 -6.991950 -0.473883 493 0.120658 0.992694 0.000000
-7.739744 -6.992781 -0.470725 507 0.120658 0.992694 0.000000
-7.740825 -6.993766 -0.467575 505 0.120658 0.992694 0.000000
-7.740818 -6.993756 -0.464365 537 0.120658 0.992694 0.000000
-7.740755 -6.993703 -0.461155 517 0.120658 0.992694 0.000000
-7.741184 -6.994092 -0.457971 513 0.120658 0.992694 0.000000
-7.740533 -6.993493 -0.454727 495 0.120658 0.992694 0.000000
-7.739600 -6.992656 -0.451466 509 0.120658 0.992694 0.000000
-7.739861 -6.992886 -0.448263 505 0.120658 0.992694 0.000000
-7.740767 -6.993706 -0.445105 507 0.120658 0.992694 0.000000
-7.740165 -6.993158 -0.441870 479 0.120658 0.992694 0.000000
-7.740420 -6.993396 -0.438668 495 0.120658 0.992694 0.000000
-7.739922 -6.992944 -0.435432 485 0.120658 0.992694 0.000000
-7.738774 -6.991910 -0.432163 483 0.120658 0.992694 0.000000
-7.739511 -6.992571 -0.428996 495 0.120658 0.992694 0.000000
-7.739282 -6.992359 -0.425778 479 0.120658 0.992694 0.000000
-7.738505 -6.991660 -0.422525 477 0.120658 0.992694 0.000000
-7.740013 -6.993024 -0.419401 471 0.120658 0.992694 0.000000
-7.740275 -6.993254 -0.416199 475 0.120658 0.992694 0.000000
-7.738572 -6.991714 -0.412904 501 0.120658 0.992694 0.000000
-7.739145 -6.992243 -0.409729 507 0.120658 0.992694 0.000000
-7.740271 -6.993251 -0.406578 507 0.120658 0.992694 0.000000
-7.739058 -6.992154 -0.403309 493 0.120658 0.992694 0.000000
-7.738980 -6.992088 -0.400100 473 0.120658 0.992694 0.000000
-7.740806 -6.993742 -0.396983 493 0.120658 0.992694 0.000000
-7.741329 -6.994207 -0.393798 495 0.120658 0.992694 0.000000
-7.740760 -6.993699 -0.390563 493 0.120658 0.992694 0.000000
-7.740205 -6.993189 -0.387329 499 0.120658 0.992694 0.000000
-7.739731 -6.992769 -0.384093 479 0.120658 0.992694 0.000000
-7.740263 -6.993239 -0.380918 485 0.120658 0.992694 0.000000
-7.740994 -6.993908 -0.377741 473 0.120658 0.992694 0.000000
-7.739393 -6.992463 -0.374456 463 0.120658 0.992694 0.000000
-7.739425 -6.992484 -0.371255 439 0.120658 0.992694 0.000000
-7.740480 -6.993436 -0.368096 451 0.120658 0.992694 0.000000
-7.739585 -6.992630 -0.364844 465 0.120658 0.992694 0.000000
-7.739769 -6.992798 -0.361652 469 0.120658 0.992694 0.000000
-7.740167 -6.993162 -0.358458 473 0.120658 0.992694 0.000000
-7.738621 -6.991761 -0.355182 457 0.120658 0.992694 0.000000
-7.738266 -6.991435 -0.351966 479 0.120658 0.992694 0.000000
-7.737854 -6.991065 -0.348739 479 0.120658 0.992694 0.000000
-7.737275 -6.990536 -0.345505 483 0.120658 0.992694 0.000000
-7.738927 -6.992040 -0.342369 489 0.120658 0.992694 0.000000
-7.739974 -6.992986 -0.339210 477 0.120658 0.992694 0.000000
-7.740379 -6.993342 -0.336026 469 0.120658 0.992694 0.000000
-7.739691 -6.992726 -0.332782 477 0.120658 0.992694 0.000000
-7.740198 -6.993178 -0.329597 485 0.120658 0.992694 0.000000
-7.741682 -6.994522 -0.326454 509 0.120658 0.992694 0.000000
-7.741318 -6.994190 -0.323237 505 0.120658 0.992694 0.000000
-7.741065 -6.993959 -0.320019 501 0.120658 0.992694 0.000000
-7.741019 -6.993918 -0.316809 491 0.120658 0.992694 0.000000
-7.741202 -6.994086 -0.313608 491 0.120658 0.992694 0.000000
-7.742624 -6.991126 -0.705355 445 0.120658 0.992694 0.000000
-7.741539 -6.990141 -0.702045 491 0.120658 0.992694 0.000000
-7.741969 -6.990531 -0.698861 511 0.120658 0.992694 0.000000
-7.742604 -6.991111 -0.695705 499 0.120658 0.992694 0.000000
-7.742439 -6.990963 -0.692476 467 0.120658 0.992694 0.000000
-7.744056 -6.992414 -0.689391 491 0.120658 0.992694 0.000000
-7.744154 -6.992513 -0.686190 471 0.120658 0.992694 0.000000
-7.742680 -6.991182 -0.682844 477 0.120658 0.992694 0.000000
-7.742077 -6.990633 -0.679569 475 0.120658 0.992694 0.000000
-7.742609 -6.991105 -0.676404 461 0.120658 0.992694 0.000000
-7.742332 -6.990854 -0.673167 467 0.120658 0.992694 0.000000
-7.742040 -6.990592 -0.669919 459 0.120658 0.992694 0.000000
-7.742350 -6.990874 -0.666726 473 0.120658 0.992694 0.000000
-7.742502 -6.991017 -0.663525 473 0.120658 0.992694 0.000000
-7.743025 -6.991481 -0.660360 445 0.120658 0.992694 0.000000
-7.743662 -6.992061 -0.657194 445 0.120658 0.992694 0.000000
-7.742131 -6.990671 -0.653848 407 0.120658 0.992694 0.000000
-7.742434 -6.990947 -0.650655 411 0.120658 0.992694 0.000000
-7.743553 -6.991962 -0.647535 411 0.120658 0.992694 0.000000
-7.742674 -6.991169 -0.644243 417 0.120658 0.992694 0.000000
-7.742651 -6.991147 -0.641033 417 0.120658 0.992694 0.000000
-7.742843 -6.991321 -0.637831 431 0.120658 0.992694 0.000000
-7.742613 -6.991109 -0.634593 461 0.120658 0.992694 0.000000
-7.742098 -6.990644 -0.631338 447 0.120658 0.992694 0.000000
-7.742352 -6.990868 -0.628146 419 0.120658 0.992694 0.000000
-7.743035 -6.991485 -0.624989 451 0.120658 0.992694 0.000000
-7.743822 -6.992197 -0.621832 475 0.120658 0.992694 0.000000
-7.744997 -6.993256 -0.618711 491 0.120658 0.992694 0.000000
-7.744427 -6.992748 -0.615446 501 0.120658 0.992694 0.000000
-7.743475 -6.991883 -0.612165 523 0.120658 0.992694 0.000000
-7.743016 -6.991462 -0.608909 505 0.120658 0.992694 0.000000
-7.742716 -6.991194 -0.605672 495 0.120658 0.992694 0.000000
-7.742416 -6.990925 -0.602434 499 0.120658 0.992694 0.000000
-7.742067 -6.990605 -0.599198 495 0.120658 0.992694 0.000000
-7.742196 -6.990730 -0.595996 511 0.120658 0.992694 0.000000
-7.743030 -6.991479 -0.592838 527 0.120658 0.992694 0.000000
-7.743435 -6.991850 -0.589655 525 0.120658 0.992694 0.000000
-7.743133 -6.991567 -0.586417 489 0.120658 0.992694 0.000000
-7.743483 -6.991880 -0.583234 497 0.120658 0.992694 0.000000
-7.743881 -6.992245 -0.580050 503 0.120658 0.992694 0.000000
-7.743525 -6.991919 -0.576814 495 0.120658 0.992694 0.000000
-7.743154 -6.991594 -0.573567 505 0.120658 0.992694 0.000000
-7.742528 -6.991027 -0.570313 491 0.120658 0.992694 0.000000
-7.742607 -6.991086 -0.567102 495 0.120658 0.992694 0.000000
-7.744084 -6.992425 -0.563998 495 0.120658 0.992694 0.000000
-7.744108 -6.992440 -0.560788 473 0.120658 0.992694 0.000000
-7.743689 -6.992065 -0.557542 479 0.120658 0.992694 0.000000
-7.743810 -6.992182 -0.554340 487 0.120658 0.992694 0.000000
-7.743438 -6.991844 -0.551104 455 0.120658 0.992694 0.000000
-7.743288 -6.991708 -0.547875 457 0.120658 0.992694 0.000000
-7.742606 -6.991084 -0.544621 457 0.120658 0.992694 0.000000
-7.741910 -6.990462 -0.541358 473 0.120658 0.992694 0.000000
-7.741704 -6.990268 -0.538130 473 0.120658 0.992694 0.000000
-7.742037 -6.990569 -0.534946 487 0.120658 0.992694 0.000000
-7.742040 -6.990580 -0.531736 487 0.120658 0.992694 0.000000
-7.742215 -6.990741 -0.528535 465 0.120658 0.992694 0.000000
-7.743041 -6.991484 -0.525377 513 0.120658 0.992694 0.000000
-7.742669 -6.991146 -0.522140 501 0.120658 0.992694 0.000000
-7.742836 -6.991287 -0.518939 479 0.120658 0.992694 0.000000
-7.743441 -6.991842 -0.515773 507 0.120658 0.992694 0.000000
-7.744043 -6.992383 -0.512597 519 0.120658 0.992694 0.000000
-7.744480 -6.992777 -0.509413 485 0.120658 0.992694 0.000000
-7.745028 -6.993275 -0.506238 493 0.120658 0.992694 0.000000
-7.744823 -6.993081 -0.503010 493 0.120658 0.992694 0.000000
-7.742872 -6.991319 -0.499678 497 0.120658 0.992694 0.000000
-7.741781 -6.990344 -0.496398 491 0.120658 0.992694 0.000000
-7.743676 -6.992054 -0.493310 497 0.120658 0.992694 0.000000
-7.745144 -6.993372 -0.490187 491 0.120658 0.992694 0.000000
-7.744502 -6.992794 -0.486933 503 0.120658 0.992694 0.000000
-7.744052 -6.992393 -0.483697 517 0.120658 0.992694 0.000000
-7.744979 -6.993217 -0.480538 523 0.120658 0.992694 0.000000
-7.744164 -6.992487 -0.477285 489 0.120658 0.992694 0.000000
-7.743127 -6.991555 -0.474005 491 0.120658 0.992694 0.000000
-7.743557 -6.991944 -0.470821 505 0.120658 0.992694 0.000000
-7.744421 -6.992718 -0.467663 521 0.120658 0.992694 0.000000
-7.744748 -6.993013 -0.464470 519 0.120658 0.992694 0.000000
-7.744574 -6.992858 -0.461251 525 0.120658 0.992694 0.000000
-7.744297 -6.992608 -0.458024 511 0.120658 0.992694 0.000000
-7.743418 -6.991815 -0.454772 507 0.120658 0.992694 0.000000
-7.742928 -6.991369 -0.451526 509 0.120658 0.992694 0.000000
-7.743403 -6.991796 -0.448352 501 0.120658 0.992694 0.000000
-7.743341 -6.991742 -0.445132 497 0.120658 0.992694 0.000000
-7.743272 -6.991683 -0.441923 489 0.120658 0.992694 0.000000
-7.744517 -6.992798 -0.438781 477 0.120658 0.992694 0.000000
-7.744772 -6.993036 -0.435579 477 0.120658 0.992694 0.000000
-7.744106 -6.992424 -0.432335 483 0.120658 0.992694 0.000000
-7.744361 -6.992663 -0.429143 497 0.120658 0.992694 0.000000
-7.744188 -6.992509 -0.425924 477 0.120658 0.992694 0.000000
-7.744227 -6.992536 -0.422714 473 0.120658 0.992694 0.000000
-7.744427 -6.992716 -0.419522 493 0.120658 0.992694 0.000000
-7.743374 -6.991772 -0.416251 493 0.120658 0.992694 0.000000
-7.742979 -6.991415 -0.413025 493 0.120658 0.992694 0.000000
-7.743344 -6.991740 -0.409831 487 0.120658 0.992694 0.000000
-7.743155 -6.991573 -0.406613 483 0.120658 0.992694 0.000000
-7.742116 -6.990626 -0.403353 487 0.120658 0.992694 0.000000
-7.742530 -6.991003 -0.400169 485 0.120658 0.992694 0.000000
-7.743911 -6.992253 -0.397026 471 0.120658 0.992694 0.000000
-7.745037 -6.993260 -0.393876 471 0.120658 0.992694 0.000000
-7.744793 -6.993051 -0.390658 481 0.120658 0.992694 0.000000
-7.744127 -6.992439 -0.387414 475 0.120658 0.992694 0.000000
-7.744152 -6.992468 -0.384203 459 0.120658 0.992694 0.000000
