210
-21.914246 -21.037271 -0.652184 683 -0.057545 0.998343 0.000000
-21.914804 -21.037813 -0.642869 681 -0.057545 0.998343 0.000000
-21.914410 -21.037437 -0.633522 685 -0.057545 0.998343 0.000000
-21.913982 -21.037022 -0.624176 683 -0.057545 0.998343 0.000000
-21.914690 -21.037710 -0.614869 673 -0.057545 0.998343 0.000000
-21.915306 -21.038298 -0.605553 687 -0.057545 0.998343 0.000000
-21.915545 -21.038536 -0.596220 701 -0.057545 0.998343 0.000000
-21.915148 -21.038145 -0.586884 703 -0.057545 0.998343 0.000000
-21.915064 -21.038065 -0.577545 683 -0.057545 0.998343 0.000000
-21.914871 -21.037884 -0.568206 681 -0.057545 0.998343 0.000000
-21.916416 -21.039370 -0.558921 671 -0.057545 0.998343 0.000000
-21.916264 -21.039232 -0.549582 681 -0.057545 0.998343 0.000000
-21.913553 -21.036621 -0.540178 673 -0.057545 0.998343 0.000000
-21.912823 -21.035929 -0.530835 677 -0.057545 0.998343 0.000000
-21.913568 -21.036634 -0.521518 671 -0.057545 0.998343 0.000000
-21.914057 -21.037106 -0.512203 707 -0.057545 0.998343 0.000000
-21.914852 -21.037882 -0.502885 693 -0.057545 0.998343 0.000000
-21.914440 -21.037477 -0.493549 681 -0.057545 0.998343 0.000000
-21.913965 -21.037024 -0.484203 685 -0.057545 0.998343 0.000000
-21.915445 -21.038443 -0.474898 703 -0.057545 0.998343 0.000000
-21.915756 -21.038754 -0.465575 717 -0.057545 0.998343 0.000000
-21.913803 -21.036871 -0.456204 697 -0.057545 0.998343 0.000000
-21.913261 -21.036360 -0.446869 693 -0.057545 0.998343 0.000000
-21.913889 -21.036959 -0.437542 685 -0.057545 0.998343 0.000000
-21.913565 -21.036654 -0.428205 685 -0.057545 0.998343 0.000000
-21.913296 -21.036394 -0.418878 695 -0.057545 0.998343 0.000000
-21.914387 -21.037439 -0.409567 695 -0.057545 0.998343 0.000000
-21.913998 -21.037069 -0.400231 693 -0.057545 0.998343 0.000000
-21.913187 -21.036285 -0.390878 667 -0.057545 0.998343 0.000000
-21.914490 -21.037542 -0.381575 679 -0.057545 0.998343 0.000000
-21.914993 -21.038025 -0.372250 661 -0.057545 0.998343 0.000000
-21.913651 -21.036739 -0.362903 677 -0.057545 0.998343 0.000000
-21.912411 -21.035549 -0.353555 669 -0.057545 0.998343 0.000000
-21.912697 -21.035826 -0.344222 669 -0.057545 0.998343 0.000000
-21.912294 -21.035442 -0.334885 661 -0.057545 0.998343 0.000000
-21.914114 -21.037191 -0.325588 661 -0.057545 0.998343 0.000000
-21.915024 -21.038063 -0.316269 659 -0.057545 0.998343 0.000000
-21.914095 -21.037169 -0.306927 633 -0.057545 0.998343 0.000000
-21.914055 -21.037136 -0.297597 645 -0.057545 0.998343 0.000000
-21.912584 -21.035719 -0.288251 637 -0.057545 0.998343 0.000000
-21.912901 -21.036034 -0.278928 631 -0.057545 0.998343 0.000000
-21.913805 -21.036898 -0.269609 631 -0.057545 0.998343 0.000000
-21.928694 -21.039108 -0.652437 695 -0.057545 0.998343 0.000000
-21.929308 -21.039692 -0.643121 693 -0.057545 0.998343 0.000000
-21.929085 -21.039484 -0.633783 679 -0.057545 0.998343 0.000000
-21.928541 -21.038960 -0.624428 673 -0.057545 0.998343 0.000000
-21.927401 -21.037880 -0.615058 663 -0.057545 0.998343 0.000000
-21.926645 -21.037153 -0.605705 691 -0.057545 0.998343 0.000000
-21.927673 -21.038134 -0.596395 695 -0.057545 0.998343 0.000000
-21.929228 -21.039639 -0.587100 681 -0.057545 0.998343 0.000000
-21.931570 -21.041883 -0.577827 681 -0.057545 0.998343 0.000000
-21.931644 -21.041960 -0.568496 681 -0.057545 0.998343 0.000000
-21.929552 -21.039949 -0.559106 689 -0.057545 0.998343 0.000000
-21.930525 -21.040886 -0.549787 659 -0.057545 0.998343 0.000000
-21.928480 -21.038927 -0.540406 683 -0.057545 0.998343 0.000000
-21.926519 -21.037054 -0.531025 655 -0.057545 0.998343 0.000000
-21.928024 -21.038506 -0.521720 671 -0.057545 0.998343 0.000000
-21.927443 -21.037949 -0.512375 671 -0.057545 0.998343 0.000000
-21.929033 -21.039469 -0.503080 671 -0.057545 0.998343 0.000000
-21.929670 -21.040091 -0.493753 687 -0.057545 0.998343 0.000000
-21.928627 -21.039087 -0.484393 695 -0.057545 0.998343 0.000000
-21.928873 -21.039331 -0.475071 699 -0.057545 0.998343 0.000000
-21.929518 -21.039942 -0.465744 699 -0.057545 0.998343 0.000000
-21.927927 -21.038424 -0.456379 673 -0.057545 0.998343 0.000000
-21.926758 -21.037304 -0.447020 675 -0.057545 0.998343 0.000000
-21.927488 -21.038015 -0.437703 691 -0.057545 0.998343 0.000000
-21.926153 -21.036734 -0.428346 687 -0.057545 0.998343 0.000000
-21.926352 -21.036926 -0.419013 647 -0.057545 0.998343 0.000000
-21.927130 -21.037674 -0.409696 659 -0.057545 0.998343 0.000000
-21.928535 -21.039028 -0.400382 657 -0.057545 0.998343 0.000000
-21.928148 -21.038660 -0.391045 655 -0.057545 0.998343 0.000000
-21.925907 -21.036514 -0.381677 673 -0.057545 0.998343 0.000000
-21.928108 -21.038631 -0.372375 685 -0.057545 0.998343 0.000000
-21.930929 -21.041336 -0.363088 689 -0.057545 0.998343 0.000000
-21.928789 -21.039286 -0.353718 677 -0.057545 0.998343 0.000000
-21.927502 -21.038044 -0.344370 673 -0.057545 0.998343 0.000000
-21.927614 -21.038168 -0.335039 667 -0.057545 0.998343 0.000000
-21.927742 -21.038288 -0.325708 675 -0.057545 0.998343 0.000000
-21.928028 -21.038563 -0.316375 639 -0.057545 0.998343 0.000000
-21.927719 -21.038273 -0.307037 633 -0.057545 0.998343 0.000000
-21.927574 -21.038141 -0.297698 641 -0.057545 0.998343 0.000000
-21.930067 -21.040539 -0.288404 633 -0.057545 0.998343 0.000000
-21.929914 -21.040386 -0.279066 629 -0.057545 0.998343 0.000000
-21.928604 -21.039139 -0.269718 629 -0.057545 0.998343 0.000000
-21.946762 -21.041739 -0.652768 689 -0.057545 0.998343 0.000000
-21.945366 -21.040394 -0.643381 697 -0.057545 0.998343 0.000000
-21.944401 -21.039469 -0.634010 675 -0.057545 0.998343 0.000000
-21.944489 -21.039557 -0.624679 669 -0.057545 0.998343 0.000000
-21.942991 -21.038128 -0.615293 663 -0.057545 0.998343 0.000000
-21.944754 -21.039818 -0.606006 665 -0.057545 0.998343 0.000000
-21.946104 -21.041117 -0.596703 673 -0.057545 0.998343 0.000000
-21.943861 -21.038958 -0.587304 677 -0.057545 0.998343 0.000000
-21.943726 -21.038834 -0.577955 683 -0.057545 0.998343 0.000000
-21.943266 -21.038391 -0.568610 671 -0.057545 0.998343 0.000000
-21.942974 -21.038113 -0.559262 675 -0.057545 0.998343 0.000000
-21.945841 -21.040869 -0.549995 665 -0.057545 0.998343 0.000000
-21.944794 -21.039865 -0.540624 695 -0.057545 0.998343 0.000000
-21.941957 -21.037136 -0.531221 687 -0.057545 0.998343 0.000000
-21.944246 -21.039339 -0.521939 655 -0.057545 0.998343 0.000000
-21.945726 -21.040758 -0.512635 683 -0.057545 0.998343 0.000000
-21.943886 -21.038994 -0.503252 695 -0.057545 0.998343 0.000000
-21.945204 -21.040264 -0.493939 683 -0.057545 0.998343 0.000000
-21.944262 -21.039358 -0.484588 675 -0.057545 0.998343 0.000000
-21.941681 -21.036882 -0.475193 663 -0.057545 0.998343 0.000000
-21.942091 -21.037275 -0.465858 683 -0.057545 0.998343 0.000000
-21.941774 -21.036978 -0.456521 681 -0.057545 0.998343 0.000000
-21.943508 -21.038643 -0.447214 671 -0.057545 0.998343 0.000000
-21.944082 -21.039196 -0.437889 689 -0.057545 0.998343 0.000000
-21.942339 -21.037514 -0.428515 677 -0.057545 0.998343 0.000000
-21.942478 -21.037657 -0.419184 671 -0.057545 0.998343 0.000000
-21.943045 -21.038202 -0.409858 675 -0.057545 0.998343 0.000000
-21.943501 -21.038633 -0.400533 671 -0.057545 0.998343 0.000000
-21.942856 -21.038012 -0.391179 681 -0.057545 0.998343 0.000000
-21.942883 -21.038050 -0.381839 675 -0.057545 0.998343 0.000000
-21.943432 -21.038570 -0.372513 667 -0.057545 0.998343 0.000000
-21.942152 -21.037350 -0.363155 653 -0.057545 0.998343 0.000000
-21.941071 -21.036314 -0.353805 659 -0.057545 0.998343 0.000000
-21.942732 -21.037907 -0.344499 667 -0.057545 0.998343 0.000000
-21.943220 -21.038378 -0.335164 657 -0.057545 0.998343 0.000000
-21.942818 -21.037981 -0.325818 655 -0.057545 0.998343 0.000000
-21.944214 -21.039330 -0.316504 627 -0.057545 0.998343 0.000000
-21.944233 -21.039347 -0.307174 633 -0.057545 0.998343 0.000000
-21.942656 -21.037842 -0.297809 613 -0.057545 0.998343 0.000000
-21.941462 -21.036690 -0.288460 631 -0.057545 0.998343 0.000000
-21.942467 -21.037664 -0.279140 631 -0.057545 0.998343 0.000000
-21.944597 -21.039696 -0.269830 629 -0.057545 0.998343 0.000000
-21.960165 -21.040958 -0.652969 683 -0.057545 0.998343 0.000000
-21.958939 -21.039782 -0.643580 695 -0.057545 0.998343 0.000000
-21.959763 -21.040569 -0.634262 673 -0.057545 0.998343 0.000000
-21.961222 -21.041967 -0.624958 671 -0.057545 0.998343 0.000000
-21.961679 -21.042412 -0.615633 675 -0.057545 0.998343 0.000000
-21.960377 -21.041170 -0.606256 677 -0.057545 0.998343 0.000000
-21.959621 -21.040445 -0.596883 665 -0.057545 0.998343 0.000000
-21.959751 -21.040565 -0.587551 665 -0.057545 0.998343 0.000000
-21.958355 -21.039221 -0.578164 657 -0.057545 0.998343 0.000000
-21.958105 -21.038996 -0.568817 677 -0.057545 0.998343 0.000000
-21.959274 -21.040117 -0.559505 677 -0.057545 0.998343 0.000000
-21.959459 -21.040297 -0.550173 681 -0.057545 0.998343 0.000000
-21.959900 -21.040712 -0.540839 673 -0.057545 0.998343 0.000000
-21.960279 -21.041079 -0.531505 681 -0.057545 0.998343 0.000000
-21.959454 -21.040283 -0.522143 657 -0.057545 0.998343 0.000000
-21.957760 -21.038670 -0.512758 659 -0.057545 0.998343 0.000000
-21.958076 -21.038971 -0.503425 655 -0.057545 0.998343 0.000000
-21.958891 -21.039749 -0.494097 663 -0.057545 0.998343 0.000000
-21.958246 -21.039141 -0.484743 661 -0.057545 0.998343 0.000000
-21.958563 -21.039442 -0.475410 673 -0.057545 0.998343 0.000000
-21.958834 -21.039692 -0.466077 667 -0.057545 0.998343 0.000000
-21.958359 -21.039240 -0.456721 679 -0.057545 0.998343 0.000000
-21.957926 -21.038832 -0.447375 683 -0.057545 0.998343 0.000000
-21.958712 -21.039585 -0.438048 657 -0.057545 0.998343 0.000000
-21.958910 -21.039778 -0.428715 647 -0.057545 0.998343 0.000000
-21.957472 -21.038399 -0.419339 661 -0.057545 0.998343 0.000000
-21.957352 -21.038288 -0.410000 649 -0.057545 0.998343 0.000000
-21.957714 -21.038628 -0.400666 665 -0.057545 0.998343 0.000000
-21.957735 -21.038662 -0.391326 675 -0.057545 0.998343 0.000000
-21.958138 -21.039047 -0.381992 661 -0.057545 0.998343 0.000000
-21.957907 -21.038818 -0.372654 645 -0.057545 0.998343 0.000000
-21.959568 -21.040411 -0.363338 665 -0.057545 0.998343 0.000000
-21.959227 -21.040079 -0.353991 655 -0.057545 0.998343 0.000000
-21.958300 -21.039202 -0.344639 623 -0.057545 0.998343 0.000000
-21.958374 -21.039278 -0.335298 639 -0.057545 0.998343 0.000000
-21.957766 -21.038689 -0.325944 629 -0.057545 0.998343 0.000000
-21.958256 -21.039158 -0.316619 619 -0.057545 0.998343 0.000000
-21.956953 -21.037916 -0.307261 595 -0.057545 0.998343 0.000000
-21.956488 -21.037468 -0.297915 579 -0.057545 0.998343 0.000000
-21.956774 -21.037745 -0.288572 605 -0.057545 0.998343 0.000000
-21.957573 -21.038511 -0.279245 603 -0.057545 0.998343 0.000000
-21.958523 -21.039413 -0.269915 605 -0.057545 0.998343 0.000000
-21.972250 -21.039654 -0.653138 657 -0.057545 0.998343 0.000000
-21.970869 -21.038321 -0.643752 647 -0.057545 0.998343 0.000000
-21.972164 -21.039574 -0.634439 645 -0.057545 0.998343 0.000000
-21.973740 -21.041069 -0.625144 639 -0.057545 0.998343 0.000000
-21.973713 -21.041048 -0.615794 645 -0.057545 0.998343 0.000000
-21.972378 -21.039768 -0.606406 645 -0.057545 0.998343 0.000000
-21.970066 -21.037565 -0.596998 641 -0.057545 0.998343 0.000000
-21.970570 -21.038048 -0.587673 633 -0.057545 0.998343 0.000000
-21.972645 -21.040033 -0.578383 641 -0.057545 0.998343 0.000000
-21.972729 -21.040117 -0.569032 641 -0.057545 0.998343 0.000000
-21.972910 -21.040281 -0.559690 651 -0.057545 0.998343 0.000000
-21.973188 -21.040552 -0.550357 647 -0.057545 0.998343 0.000000
-21.972731 -21.040112 -0.541001 677 -0.057545 0.998343 0.000000
-21.973585 -21.040936 -0.531673 669 -0.057545 0.998343 0.000000
-21.975443 -21.042715 -0.522375 649 -0.057545 0.998343 0.000000
-21.973764 -21.041113 -0.512991 611 -0.057545 0.998343 0.000000
-21.972454 -21.039852 -0.503613 625 -0.057545 0.998343 0.000000
-21.973457 -21.040813 -0.494293 637 -0.057545 0.998343 0.000000
-21.972719 -21.040115 -0.484930 631 -0.057545 0.998343 0.000000
-21.971878 -21.039307 -0.475568 627 -0.057545 0.998343 0.000000
-21.973307 -21.040680 -0.466254 633 -0.057545 0.998343 0.000000
-21.974194 -21.041531 -0.456925 655 -0.057545 0.998343 0.000000
-21.973083 -21.040462 -0.447556 649 -0.057545 0.998343 0.000000
-21.973127 -21.040514 -0.438215 655 -0.057545 0.998343 0.000000
-21.973593 -21.040951 -0.428880 659 -0.057545 0.998343 0.000000
-21.973259 -21.040638 -0.419523 669 -0.057545 0.998343 0.000000
-21.973936 -21.041290 -0.410196 669 -0.057545 0.998343 0.000000
-21.974222 -21.041565 -0.400853 665 -0.057545 0.998343 0.000000
-21.974005 -21.041349 -0.391505 657 -0.057545 0.998343 0.000000
-21.975035 -21.042345 -0.382175 661 -0.057545 0.998343 0.000000
-21.974066 -21.041418 -0.372814 657 -0.057545 0.998343 0.000000
-21.972458 -21.039873 -0.363449 653 -0.057545 0.998343 0.000000
-21.971851 -21.039297 -0.354095 649 -0.057545 0.998343 0.000000
-21.973146 -21.040535 -0.344772 619 -0.057545 0.998343 0.000000
-21.974745 -21.042063 -0.335457 631 -0.057545 0.998343 0.000000
-21.973013 -21.040417 -0.326083 629 -0.057545 0.998343 0.000000
-21.972563 -21.039982 -0.316727 611 -0.057545 0.998343 0.000000
-21.973850 -21.041214 -0.307405 585 -0.057545 0.998343 0.000000
-21.973812 -21.041172 -0.298065 573 -0.057545 0.998343 0.000000
-21.971970 -21.039421 -0.288692 589 -0.057545 0.998343 0.000000
-21.972193 -21.039633 -0.279350 585 -0.057545 0.998343 0.000000
-21.973370 -21.040760 -0.270028 611 -0.057545 0.998343 0.000000
