131
-21.953831 -21.136662 -0.644669 71 -0.245312 0.969444 0.000000
-21.957607 -21.140295 -0.635422 57 -0.245312 0.969444 0.000000
-21.960651 -21.143230 -0.626142 73 -0.245312 0.969444 0.000000
-21.958416 -21.141075 -0.616714 67 -0.245312 0.969444 0.000000
-21.963036 -21.145525 -0.607479 63 -0.245312 0.969444 0.000000
-21.963009 -21.145506 -0.598109 83 -0.245312 0.969444 0.000000
-21.959824 -21.142431 -0.588660 63 -0.245312 0.969444 0.000000
-21.961321 -21.143875 -0.579335 85 -0.245312 0.969444 0.000000
-21.959751 -21.142365 -0.569930 87 -0.245312 0.969444 0.000000
-21.957563 -21.140263 -0.560511 101 -0.245312 0.969444 0.000000
-21.958214 -21.140882 -0.551154 107 -0.245312 0.969444 0.000000
-21.958809 -21.141457 -0.541808 97 -0.245312 0.969444 0.000000
-21.959982 -21.142590 -0.532477 63 -0.245312 0.969444 0.000000
-21.957764 -21.140463 -0.523058 109 -0.245312 0.969444 0.000000
-21.955786 -21.138550 -0.513646 111 -0.245312 0.969444 0.000000
-21.956842 -21.139572 -0.504306 109 -0.245312 0.969444 0.000000
-21.959324 -21.141960 -0.495002 117 -0.245312 0.969444 0.000000
-21.959110 -21.141758 -0.485634 119 -0.245312 0.969444 0.000000
-21.957272 -21.139986 -0.476231 117 -0.245312 0.969444 0.000000
-21.954834 -21.137640 -0.466815 95 -0.245312 0.969444 0.000000
-21.955580 -21.138365 -0.457467 133 -0.245312 0.969444 0.000000
-21.955154 -21.137947 -0.448101 105 -0.245312 0.969444 0.000000
-21.956522 -21.139269 -0.438768 147 -0.245312 0.969444 0.000000
-21.959776 -21.142403 -0.429466 131 -0.245312 0.969444 0.000000
-21.960443 -21.143049 -0.420119 135 -0.245312 0.969444 0.000000
-21.960539 -21.143143 -0.410758 127 -0.245312 0.969444 0.000000
-21.956409 -21.139170 -0.401318 123 -0.245312 0.969444 0.000000
-21.956865 -21.139603 -0.391963 145 -0.245312 0.969444 0.000000
-21.957748 -21.140455 -0.382614 99 -0.245312 0.969444 0.000000
-21.956451 -21.139210 -0.373237 107 -0.245312 0.969444 0.000000
-21.960484 -21.143095 -0.363938 73 -0.245312 0.969444 0.000000
-21.958773 -21.141441 -0.354554 85 -0.245312 0.969444 0.000000
-21.954525 -21.137358 -0.345124 63 -0.245312 0.969444 0.000000
-21.953430 -21.136307 -0.335745 57 -0.245312 0.969444 0.000000
-21.955572 -21.138372 -0.326414 53 -0.245312 0.969444 0.000000
-21.956797 -21.139549 -0.317072 87 -0.245312 0.969444 0.000000
-21.958033 -21.140734 -0.307730 55 -0.245312 0.969444 0.000000
-21.958147 -21.140856 -0.298368 73 -0.245312 0.969444 0.000000
-21.955847 -21.138636 -0.288980 63 -0.245312 0.969444 0.000000
-21.956701 -21.139467 -0.279632 69 -0.245312 0.969444 0.000000
-21.957655 -21.140377 -0.270283 49 -0.245312 0.969444 0.000000
-21.975121 -21.143465 -0.645104 109 -0.245312 0.969444 0.000000
-21.975521 -21.143852 -0.635739 91 -0.245312 0.969444 0.000000
-21.979671 -21.147850 -0.626489 87 -0.245312 0.969444 0.000000
-21.979433 -21.147614 -0.617111 77 -0.245312 0.969444 0.000000
-21.977682 -21.145927 -0.607698 89 -0.245312 0.969444 0.000000
-21.980343 -21.148491 -0.598402 45 -0.245312 0.969444 0.000000
-21.982420 -21.150490 -0.589082 41 -0.245312 0.969444 0.000000
-21.979227 -21.147425 -0.579632 61 -0.245312 0.969444 0.000000
-21.977991 -21.146231 -0.570224 83 -0.245312 0.969444 0.000000
-21.977268 -21.145529 -0.560841 101 -0.245312 0.969444 0.000000
-21.977654 -21.145903 -0.551477 111 -0.245312 0.969444 0.000000
-21.979465 -21.147644 -0.542149 125 -0.245312 0.969444 0.000000
-21.977629 -21.145887 -0.532737 115 -0.245312 0.969444 0.000000
-21.977272 -21.145540 -0.523360 129 -0.245312 0.969444 0.000000
-21.983391 -21.151428 -0.514141 137 -0.245312 0.969444 0.000000
-21.984882 -21.152866 -0.504796 133 -0.245312 0.969444 0.000000
-21.980394 -21.148556 -0.495329 131 -0.245312 0.969444 0.000000
-21.978247 -21.146488 -0.485910 127 -0.245312 0.969444 0.000000
-21.975925 -21.144249 -0.476492 143 -0.245312 0.969444 0.000000
-21.977659 -21.145926 -0.467165 113 -0.245312 0.969444 0.000000
-21.977133 -21.145412 -0.457780 147 -0.245312 0.969444 0.000000
-21.977175 -21.145464 -0.448419 137 -0.245312 0.969444 0.000000
-21.976009 -21.144341 -0.439020 127 -0.245312 0.969444 0.000000
-21.977003 -21.145296 -0.429680 127 -0.245312 0.969444 0.000000
-21.977676 -21.145935 -0.420323 125 -0.245312 0.969444 0.000000
-21.977188 -21.145468 -0.410948 137 -0.245312 0.969444 0.000000
-21.978493 -21.146723 -0.401605 83 -0.245312 0.969444 0.000000
-21.974989 -21.143360 -0.392169 123 -0.245312 0.969444 0.000000
-21.974073 -21.142485 -0.382787 113 -0.245312 0.969444 0.000000
-21.975525 -21.143873 -0.373443 137 -0.245312 0.969444 0.000000
-21.976454 -21.144766 -0.364094 83 -0.245312 0.969444 0.000000
-21.977480 -21.145761 -0.354744 99 -0.245312 0.969444 0.000000
-21.978504 -21.146746 -0.345394 93 -0.245312 0.969444 0.000000
-21.981424 -21.149563 -0.336075 105 -0.245312 0.969444 0.000000
-21.979658 -21.147861 -0.326672 89 -0.245312 0.969444 0.000000
-21.975616 -21.143974 -0.317251 87 -0.245312 0.969444 0.000000
-21.976475 -21.144794 -0.307892 109 -0.245312 0.969444 0.000000
-21.979549 -21.147753 -0.298572 115 -0.245312 0.969444 0.000000
-21.976185 -21.144518 -0.289165 59 -0.245312 0.969444 0.000000
-21.978355 -21.146608 -0.279823 81 -0.245312 0.969444 0.000000
-21.979153 -21.147377 -0.270466 65 -0.245312 0.969444 0.000000
-21.996803 -21.150375 -0.645536 127 -0.245312 0.969444 0.000000
-21.999426 -21.152893 -0.636241 115 -0.245312 0.969444 0.000000
-21.999826 -21.153280 -0.626877 77 -0.245312 0.969444 0.000000
-21.997217 -21.150778 -0.617421 83 -0.245312 0.969444 0.000000
-22.001196 -21.154604 -0.608153 21 -0.245312 0.969444 0.000000
-22.002867 -21.156202 -0.598827 35 -0.245312 0.969444 0.000000
-22.000578 -21.154003 -0.589388 39 -0.245312 0.969444 0.000000
-21.996746 -21.150330 -0.579915 51 -0.245312 0.969444 0.000000
-21.996819 -21.150393 -0.570534 71 -0.245312 0.969444 0.000000
-22.001898 -21.155273 -0.561295 127 -0.245312 0.969444 0.000000
-21.999010 -21.152500 -0.551843 121 -0.245312 0.969444 0.000000
-21.998825 -21.152323 -0.542464 111 -0.245312 0.969444 0.000000
-21.999882 -21.153345 -0.533114 143 -0.245312 0.969444 0.000000
-21.998686 -21.152197 -0.523715 109 -0.245312 0.969444 0.000000
-22.000439 -21.153879 -0.514378 111 -0.245312 0.969444 0.000000
-22.001028 -21.154448 -0.505012 103 -0.245312 0.969444 0.000000
-21.998663 -21.152172 -0.495585 75 -0.245312 0.969444 0.000000
-21.998501 -21.152014 -0.486206 105 -0.245312 0.969444 0.000000
-22.002193 -21.155577 -0.476910 125 -0.245312 0.969444 0.000000
-21.997025 -21.150599 -0.467430 139 -0.245312 0.969444 0.000000
-21.990480 -21.144304 -0.457922 137 -0.245312 0.969444 0.000000
-21.993275 -21.146994 -0.448605 139 -0.245312 0.969444 0.000000
-21.996529 -21.150127 -0.439294 133 -0.245312 0.969444 0.000000
-21.997522 -21.151083 -0.429944 111 -0.245312 0.969444 0.000000
-21.999670 -21.153156 -0.420613 119 -0.245312 0.969444 0.000000
-21.999500 -21.152992 -0.411234 131 -0.245312 0.969444 0.000000
-21.999691 -21.153177 -0.401862 107 -0.245312 0.969444 0.000000
-21.997301 -21.150883 -0.392445 95 -0.245312 0.969444 0.000000
-21.993702 -21.147415 -0.383009 137 -0.245312 0.969444 0.000000
-21.995895 -21.149525 -0.373678 125 -0.245312 0.969444 0.000000
-21.998510 -21.152037 -0.364353 91 -0.245312 0.969444 0.000000
-21.999636 -21.153130 -0.354992 103 -0.245312 0.969444 0.000000
-21.997755 -21.151321 -0.345590 89 -0.245312 0.969444 0.000000
-21.997156 -21.150736 -0.336205 97 -0.245312 0.969444 0.000000
-21.997332 -21.150908 -0.326843 63 -0.245312 0.969444 0.000000
-21.995293 -21.148958 -0.317443 43 -0.245312 0.969444 0.000000
-21.997158 -21.150743 -0.308094 57 -0.245312 0.969444 0.000000
-22.001385 -21.154816 -0.298774 69 -0.245312 0.969444 0.000000
-22.004990 -21.158281 -0.289449 101 -0.245312 0.969444 0.000000
-22.000784 -21.154228 -0.280019 79 -0.245312 0.969444 0.000000
-21.996042 -21.149681 -0.270594 101 -0.245312 0.969444 0.000000
-22.017185 -21.156509 -0.617798 95 -0.245312 0.969444 0.000000
-22.017162 -21.156483 -0.589658 77 -0.245312 0.969444 0.000000
-22.016966 -21.156311 -0.439576 137 -0.245312 0.969444 0.000000
-22.017262 -21.156609 -0.392692 119 -0.245312 0.969444 0.000000
-22.016201 -21.155594 -0.345781 127 -0.245312 0.969444 0.000000
-22.015543 -21.154959 -0.336387 143 -0.245312 0.969444 0.000000
-22.016884 -21.156244 -0.327034 127 -0.245312 0.969444 0.000000
-22.016476 -21.155855 -0.317648 87 -0.245312 0.969444 0.000000
