774
-7.561778 -7.001353 -0.833824 1089 0.604730 0.796430 0.000000
-7.562016 -7.001566 -0.830662 1099 0.604730 0.796430 0.000000
-7.562558 -7.002071 -0.827527 1107 0.604730 0.796430 0.000000
-7.562836 -7.002329 -0.824374 1095 0.604730 0.796430 0.000000
-7.562909 -7.002396 -0.821203 1107 0.604730 0.796430 0.000000
-7.562164 -7.001707 -0.817980 1101 0.604730 0.796430 0.000000
-7.561427 -7.001024 -0.814757 1091 0.604730 0.796430 0.000000
-7.561159 -7.000781 -0.811569 1083 0.604730 0.796430 0.000000
-7.562025 -7.001585 -0.808451 1097 0.604730 0.796430 0.000000
-7.563217 -7.002687 -0.805360 1105 0.604730 0.796430 0.000000
-7.563385 -7.002843 -0.802198 1095 0.604730 0.796430 0.000000
-7.563179 -7.002649 -0.799010 1117 0.604730 0.796430 0.000000
-7.563188 -7.002653 -0.795840 1107 0.604730 0.796430 0.000000
-7.562554 -7.002065 -0.792626 1083 0.604730 0.796430 0.000000
-7.562555 -7.002062 -0.789456 1089 0.604730 0.796430 0.000000
-7.562549 -7.002066 -0.786276 1107 0.604730 0.796430 0.000000
-7.562081 -7.001625 -0.783080 1097 0.604730 0.796430 0.000000
-7.562353 -7.001875 -0.779918 1091 0.604730 0.796430 0.000000
-7.562298 -7.001828 -0.776748 1095 0.604730 0.796430 0.000000
-7.562569 -7.002079 -0.773595 1073 0.604730 0.796430 0.000000
-7.562570 -7.002077 -0.770415 1071 0.604730 0.796430 0.000000
-7.561976 -7.001534 -0.767211 1067 0.604730 0.796430 0.000000
-7.561866 -7.001430 -0.764032 1069 0.604730 0.796430 0.000000
-7.561915 -7.001478 -0.760861 1081 0.604730 0.796430 0.000000
-7.562179 -7.001723 -0.757709 1073 0.604730 0.796430 0.000000
-7.562394 -7.001917 -0.754547 1077 0.604730 0.796430 0.000000
-7.561641 -7.001221 -0.751334 1081 0.604730 0.796430 0.000000
-7.561959 -7.001511 -0.748181 1083 0.604730 0.796430 0.000000
-7.562707 -7.002207 -0.745054 1075 0.604730 0.796430 0.000000
-7.562057 -7.001607 -0.741849 1079 0.604730 0.796430 0.000000
-7.562210 -7.001750 -0.738688 1091 0.604730 0.796430 0.000000
-7.562146 -7.001684 -0.735509 1095 0.604730 0.796430 0.000000
-7.561394 -7.000988 -0.732295 1085 0.604730 0.796430 0.000000
-7.561428 -7.001024 -0.729125 1085 0.604730 0.796430 0.000000
-7.561745 -7.001312 -0.725972 1091 0.604730 0.796430 0.000000
-7.562374 -7.001901 -0.722836 1087 0.604730 0.796430 0.000000
-7.563010 -7.002482 -0.719710 1097 0.604730 0.796430 0.000000
-7.562788 -7.002275 -0.716522 1097 0.604730 0.796430 0.000000
-7.562559 -7.002063 -0.713334 1085 0.604730 0.796430 0.000000
-7.562164 -7.001706 -0.710148 1073 0.604730 0.796430 0.000000
-7.562419 -7.001944 -0.706995 1077 0.604730 0.796430 0.000000
-7.563318 -7.002773 -0.703867 1069 0.604730 0.796430 0.000000
-7.563573 -7.003012 -0.700714 1071 0.604730 0.796430 0.000000
-7.562597 -7.002100 -0.697493 1077 0.604730 0.796430 0.000000
-7.561924 -7.001482 -0.694290 1091 0.604730 0.796430 0.000000
-7.561481 -7.001072 -0.691094 1085 0.604730 0.796430 0.000000
-7.560879 -7.000510 -0.687889 1077 0.604730 0.796430 0.000000
-7.561015 -7.000641 -0.684728 1071 0.604730 0.796430 0.000000
-7.562230 -7.001762 -0.681626 1085 0.604730 0.796430 0.000000
-7.562152 -7.001696 -0.678447 1073 0.604730 0.796430 0.000000
-7.561971 -7.001521 -0.675269 1077 0.604730 0.796430 0.000000
-7.562059 -7.001601 -0.672108 1077 0.604730 0.796430 0.000000
-7.561234 -7.000835 -0.668895 1071 0.604730 0.796430 0.000000
-7.561371 -7.000967 -0.665734 1067 0.604730 0.796430 0.000000
-7.562848 -7.002336 -0.662640 1081 0.604730 0.796430 0.000000
-7.562937 -7.002416 -0.659469 1079 0.604730 0.796430 0.000000
-7.562208 -7.001739 -0.656266 1051 0.604730 0.796430 0.000000
-7.561971 -7.001520 -0.653088 1047 0.604730 0.796430 0.000000
-7.562473 -7.001996 -0.649943 1053 0.604730 0.796430 0.000000
-7.563196 -7.002658 -0.646807 1067 0.604730 0.796430 0.000000
-7.562371 -7.001894 -0.643604 1059 0.604730 0.796430 0.000000
-7.561643 -7.001217 -0.640401 1049 0.604730 0.796430 0.000000
-7.562200 -7.001735 -0.637256 1057 0.604730 0.796430 0.000000
-7.563082 -7.002552 -0.634127 1055 0.604730 0.796430 0.000000
-7.562941 -7.002422 -0.630949 1053 0.604730 0.796430 0.000000
-7.562433 -7.001949 -0.627763 1059 0.604730 0.796430 0.000000
-7.561744 -7.001318 -0.624560 1037 0.604730 0.796430 0.000000
-7.560913 -7.000546 -0.621357 1045 0.604730 0.796430 0.000000
-7.561095 -7.000715 -0.618196 1055 0.604730 0.796430 0.000000
-7.561645 -7.001227 -0.615050 1045 0.604730 0.796430 0.000000
-7.562153 -7.001694 -0.611906 1049 0.604730 0.796430 0.000000
-7.562329 -7.001856 -0.608744 1053 0.604730 0.796430 0.000000
-7.562132 -7.001669 -0.605576 1051 0.604730 0.796430 0.000000
-7.562364 -7.001889 -0.602413 1063 0.604730 0.796430 0.000000
-7.562428 -7.001949 -0.599253 1049 0.604730 0.796430 0.000000
-7.561588 -7.001172 -0.596050 1043 0.604730 0.796430 0.000000
-7.561597 -7.001174 -0.592880 1055 0.604730 0.796430 0.000000
-7.562360 -7.001884 -0.589743 1055 0.604730 0.796430 0.000000
-7.564400 -6.999320 -0.976775 1091 0.604730 0.796430 0.000000
-7.564823 -6.999718 -0.973641 1089 0.604730 0.796430 0.000000
-7.564490 -6.999410 -0.970434 1071 0.604730 0.796430 0.000000
-7.564808 -6.999699 -0.967281 1089 0.604730 0.796430 0.000000
-7.565223 -7.000091 -0.964137 1089 0.604730 0.796430 0.000000
-7.564945 -6.999826 -0.960930 1085 0.604730 0.796430 0.000000
-7.564510 -6.999424 -0.957714 1099 0.604730 0.796430 0.000000
-7.564758 -6.999656 -0.954561 1109 0.604730 0.796430 0.000000
-7.564807 -6.999705 -0.951391 1091 0.604730 0.796430 0.000000
-7.565172 -7.000031 -0.948237 1083 0.604730 0.796430 0.000000
-7.565530 -7.000364 -0.945094 1069 0.604730 0.796430 0.000000
-7.564285 -6.999212 -0.941806 1063 0.604730 0.796430 0.000000
-7.563946 -6.998899 -0.938599 1069 0.604730 0.796430 0.000000
-7.565320 -7.000173 -0.935546 1091 0.604730 0.796430 0.000000
-7.565250 -7.000113 -0.932356 1083 0.604730 0.796430 0.000000
-7.564591 -6.999492 -0.929122 1079 0.604730 0.796430 0.000000
-7.564792 -6.999688 -0.925970 1087 0.604730 0.796430 0.000000
-7.565252 -7.000103 -0.922826 1093 0.604730 0.796430 0.000000
-7.565175 -7.000037 -0.919647 1081 0.604730 0.796430 0.000000
-7.564675 -6.999570 -0.916421 1073 0.604730 0.796430 0.000000
-7.564758 -6.999658 -0.913260 1079 0.604730 0.796430 0.000000
-7.564900 -6.999781 -0.910089 1071 0.604730 0.796430 0.000000
-7.564021 -6.998971 -0.906847 1061 0.604730 0.796430 0.000000
-7.563673 -6.998651 -0.903640 1051 0.604730 0.796430 0.000000
-7.564618 -6.999518 -0.900541 1071 0.604730 0.796430 0.000000
-7.564754 -6.999649 -0.897370 1077 0.604730 0.796430 0.000000
-7.565049 -6.999918 -0.894217 1075 0.604730 0.796430 0.000000
-7.565454 -7.000290 -0.891074 1077 0.604730 0.796430 0.000000
-7.565481 -7.000320 -0.887903 1097 0.604730 0.796430 0.000000
-7.565553 -7.000387 -0.884732 1093 0.604730 0.796430 0.000000
-7.566117 -7.000911 -0.881597 1103 0.604730 0.796430 0.000000
-7.565285 -7.000139 -0.878365 1087 0.604730 0.796430 0.000000
-7.564349 -6.999272 -0.875113 1071 0.604730 0.796430 0.000000
-7.564374 -6.999288 -0.871943 1083 0.604730 0.796430 0.000000
-7.564820 -6.999705 -0.868799 1077 0.604730 0.796430 0.000000
-7.564789 -6.999677 -0.865619 1095 0.604730 0.796430 0.000000
-7.565076 -6.999940 -0.862466 1089 0.604730 0.796430 0.000000
-7.565481 -7.000312 -0.859322 1099 0.604730 0.796430 0.000000
-7.565167 -7.000031 -0.856125 1095 0.604730 0.796430 0.000000
-7.565033 -6.999907 -0.852937 1097 0.604730 0.796430 0.000000
-7.564676 -6.999567 -0.849740 1089 0.604730 0.796430 0.000000
-7.564900 -6.999780 -0.846588 1085 0.604730 0.796430 0.000000
-7.565187 -7.000044 -0.843425 1085 0.604730 0.796430 0.000000
-7.565530 -7.000366 -0.840282 1099 0.604730 0.796430 0.000000
-7.565110 -6.999975 -0.837075 1089 0.604730 0.796430 0.000000
-7.564595 -6.999496 -0.833860 1093 0.604730 0.796430 0.000000
-7.564397 -6.999308 -0.830672 1087 0.604730 0.796430 0.000000
-7.564137 -6.999071 -0.827484 1097 0.604730 0.796430 0.000000
-7.563773 -6.998738 -0.824288 1093 0.604730 0.796430 0.000000
-7.564163 -6.999097 -0.821144 1067 0.604730 0.796430 0.000000
-7.564878 -6.999754 -0.818017 1089 0.604730 0.796430 0.000000
-7.565157 -7.000011 -0.814864 1081 0.604730 0.796430 0.000000
-7.565436 -7.000269 -0.811712 1087 0.604730 0.796430 0.000000
-7.564905 -6.999777 -0.808497 1093 0.604730 0.796430 0.000000
-7.564961 -6.999831 -0.805326 1071 0.604730 0.796430 0.000000
-7.565877 -7.000687 -0.802217 1075 0.604730 0.796430 0.000000
-7.566053 -7.000850 -0.799056 1103 0.604730 0.796430 0.000000
-7.565300 -7.000154 -0.795833 1097 0.604730 0.796430 0.000000
-7.564395 -6.999312 -0.792601 1097 0.604730 0.796430 0.000000
-7.563968 -6.998916 -0.789405 1085 0.604730 0.796430 0.000000
-7.564294 -6.999211 -0.786252 1083 0.604730 0.796430 0.000000
-7.564034 -6.998973 -0.783064 1077 0.604730 0.796430 0.000000
-7.564036 -6.998984 -0.779884 1083 0.604730 0.796430 0.000000
-7.564893 -6.999767 -0.776776 1103 0.604730 0.796430 0.000000
-7.564887 -6.999772 -0.773596 1089 0.604730 0.796430 0.000000
-7.564571 -6.999477 -0.770409 1075 0.604730 0.796430 0.000000
-7.564945 -6.999824 -0.767255 1075 0.604730 0.796430 0.000000
-7.565644 -7.000468 -0.764129 1083 0.604730 0.796430 0.000000
-7.565756 -7.000566 -0.760968 1089 0.604730 0.796430 0.000000
-7.565480 -7.000317 -0.757780 1081 0.604730 0.796430 0.000000
-7.564617 -6.999520 -0.754548 1063 0.604730 0.796430 0.000000
-7.564078 -6.999022 -0.751353 1069 0.604730 0.796430 0.000000
-7.564182 -6.999114 -0.748182 1075 0.604730 0.796430 0.000000
-7.564610 -6.999504 -0.745038 1079 0.604730 0.796430 0.000000
-7.564487 -6.999401 -0.741859 1063 0.604730 0.796430 0.000000
-7.564273 -6.999201 -0.738671 1073 0.604730 0.796430 0.000000
-7.564258 -6.999185 -0.735501 1075 0.604730 0.796430 0.000000
-7.565164 -7.000021 -0.732383 1083 0.604730 0.796430 0.000000
-7.564942 -6.999814 -0.729204 1099 0.604730 0.796430 0.000000
-7.563911 -6.998858 -0.725974 1083 0.604730 0.796430 0.000000
-7.563953 -6.998900 -0.722804 1079 0.604730 0.796430 0.000000
-7.564970 -6.999837 -0.719694 1087 0.604730 0.796430 0.000000
-7.566090 -7.000869 -0.716584 1099 0.604730 0.796430 0.000000
-7.565259 -7.000112 -0.713371 1075 0.604730 0.796430 0.000000
-7.564179 -6.999104 -0.710141 1061 0.604730 0.796430 0.000000
-7.564221 -6.999146 -0.706971 1063 0.604730 0.796430 0.000000
-7.564897 -6.999773 -0.703834 1069 0.604730 0.796430 0.000000
-7.565310 -7.000150 -0.700690 1073 0.604730 0.796430 0.000000
-7.565192 -7.000039 -0.697511 1069 0.604730 0.796430 0.000000
-7.564852 -6.999726 -0.694325 1089 0.604730 0.796430 0.000000
-7.565584 -7.000409 -0.691188 1097 0.604730 0.796430 0.000000
-7.565458 -7.000292 -0.688019 1083 0.604730 0.796430 0.000000
-7.564476 -6.999388 -0.684798 1061 0.604730 0.796430 0.000000
-7.565206 -7.000057 -0.681661 1085 0.604730 0.796430 0.000000
-7.565722 -7.000530 -0.678516 1109 0.604730 0.796430 0.000000
-7.565058 -6.999918 -0.675312 1081 0.604730 0.796430 0.000000
-7.564447 -6.999350 -0.672118 1061 0.604730 0.796430 0.000000
-7.565068 -6.999932 -0.668982 1069 0.604730 0.796430 0.000000
-7.566013 -7.000799 -0.665853 1091 0.604730 0.796430 0.000000
-7.566095 -7.000886 -0.662692 1081 0.604730 0.796430 0.000000
-7.565745 -7.000551 -0.659505 1071 0.604730 0.796430 0.000000
-7.565343 -7.000187 -0.656309 1057 0.604730 0.796430 0.000000
-7.565486 -7.000311 -0.653148 1087 0.604730 0.796430 0.000000
-7.565401 -7.000239 -0.649978 1075 0.604730 0.796430 0.000000
-7.564887 -6.999760 -0.646783 1053 0.604730 0.796430 0.000000
-7.563674 -6.998646 -0.643564 1015 0.604730 0.796430 0.000000
-7.564238 -6.999156 -0.640419 1033 0.604730 0.796430 0.000000
-7.565652 -7.000475 -0.637316 1063 0.604730 0.796430 0.000000
-7.565733 -7.000549 -0.634145 1081 0.604730 0.796430 0.000000
-7.565115 -6.999974 -0.630951 1055 0.604730 0.796430 0.000000
-7.565187 -7.000041 -0.627790 1067 0.604730 0.796430 0.000000
-7.564515 -6.999423 -0.624586 1049 0.604730 0.796430 0.000000
-7.564476 -6.999388 -0.621416 1043 0.604730 0.796430 0.000000
-7.564500 -6.999404 -0.618246 1039 0.604730 0.796430 0.000000
-7.564351 -6.999268 -0.615077 1039 0.604730 0.796430 0.000000
-7.565019 -6.999887 -0.611941 1045 0.604730 0.796430 0.000000
-7.565582 -7.000398 -0.608796 1063 0.604730 0.796430 0.000000
-7.564791 -6.999672 -0.605593 1047 0.604730 0.796430 0.000000
-7.564213 -6.999142 -0.602398 1037 0.604730 0.796430 0.000000
-7.564443 -6.999349 -0.599236 1025 0.604730 0.796430 0.000000
-7.565048 -6.999904 -0.596100 1045 0.604730 0.796430 0.000000
-7.565120 -6.999971 -0.592930 1053 0.604730 0.796430 0.000000
-7.565344 -7.000185 -0.589777 1057 0.604730 0.796430 0.000000
-7.566568 -6.996880 -0.976777 1081 0.604730 0.796430 0.000000
-7.566989 -6.997263 -0.973633 1095 0.604730 0.796430 0.000000
-7.566713 -6.997014 -0.970436 1079 0.604730 0.796430 0.000000
-7.566658 -6.996953 -0.967246 1093 0.604730 0.796430 0.000000
-7.567016 -6.997287 -0.964103 1071 0.604730 0.796430 0.000000
-7.567860 -6.998072 -0.960995 1109 0.604730 0.796430 0.000000
-7.567638 -6.997866 -0.957797 1109 0.604730 0.796430 0.000000
-7.566878 -6.997164 -0.954554 1093 0.604730 0.796430 0.000000
-7.566918 -6.997193 -0.951383 1071 0.604730 0.796430 0.000000
-7.567760 -6.997977 -0.948276 1065 0.604730 0.796430 0.000000
-7.567643 -6.997867 -0.945086 1073 0.604730 0.796430 0.000000
-7.566183 -6.996517 -0.941780 1063 0.604730 0.796430 0.000000
-7.566485 -6.996793 -0.938627 1075 0.604730 0.796430 0.000000
-7.567004 -6.997281 -0.935502 1071 0.604730 0.796430 0.000000
-7.566886 -6.997169 -0.932313 1069 0.604730 0.796430 0.000000
-7.567126 -6.997396 -0.929151 1081 0.604730 0.796430 0.000000
-7.567173 -6.997430 -0.925980 1073 0.604730 0.796430 0.000000
-7.567364 -6.997604 -0.922819 1069 0.604730 0.796430 0.000000
-7.567612 -6.997837 -0.919666 1083 0.604730 0.796430 0.000000
-7.566795 -6.997078 -0.916414 1055 0.604730 0.796430 0.000000
-7.566661 -6.996954 -0.913235 1049 0.604730 0.796430 0.000000
-7.566535 -6.996837 -0.910046 1047 0.604730 0.796430 0.000000
-7.566935 -6.997217 -0.906902 1055 0.604730 0.796430 0.000000
-7.567824 -6.998039 -0.903794 1077 0.604730 0.796430 0.000000
-7.567746 -6.997960 -0.900615 1077 0.604730 0.796430 0.000000
-7.567295 -6.997544 -0.897399 1067 0.604730 0.796430 0.000000
-7.567272 -6.997522 -0.894219 1075 0.604730 0.796430 0.000000
-7.567892 -6.998091 -0.891093 1081 0.604730 0.796430 0.000000
-7.566734 -6.997020 -0.887834 1073 0.604730 0.796430 0.000000
-7.565847 -6.996205 -0.884582 1069 0.604730 0.796430 0.000000
-7.567110 -6.997377 -0.881510 1085 0.604730 0.796430 0.000000
-7.567500 -6.997736 -0.878366 1081 0.604730 0.796430 0.000000
-7.567153 -6.997416 -0.875159 1085 0.604730 0.796430 0.000000
-7.567122 -6.997388 -0.871980 1093 0.604730 0.796430 0.000000
-7.567845 -6.998052 -0.868863 1085 0.604730 0.796430 0.000000
-7.568353 -6.998518 -0.865728 1093 0.604730 0.796430 0.000000
-7.567990 -6.998186 -0.862521 1093 0.604730 0.796430 0.000000
-7.568125 -6.998303 -0.859360 1083 0.604730 0.796430 0.000000
-7.568039 -6.998230 -0.856171 1095 0.604730 0.796430 0.000000
-7.567248 -6.997505 -0.852938 1093 0.604730 0.796430 0.000000
-7.567478 -6.997711 -0.849786 1097 0.604730 0.796430 0.000000
-7.567662 -6.997879 -0.846624 1097 0.604730 0.796430 0.000000
-7.568108 -6.998296 -0.843480 1113 0.604730 0.796430 0.000000
-7.568498 -6.998654 -0.840336 1109 0.604730 0.796430 0.000000
-7.567444 -6.997680 -0.837086 1081 0.604730 0.796430 0.000000
-7.567246 -6.997493 -0.833898 1093 0.604730 0.796430 0.000000
-7.568540 -6.998690 -0.830816 1123 0.604730 0.796430 0.000000
-7.568827 -6.998954 -0.827663 1113 0.604730 0.796430 0.000000
-7.567655 -6.997871 -0.824404 1081 0.604730 0.796430 0.000000
-7.567560 -6.997779 -0.821224 1083 0.604730 0.796430 0.000000
-7.567894 -6.998095 -0.818071 1089 0.604730 0.796430 0.000000
-7.567745 -6.997958 -0.814893 1093 0.604730 0.796430 0.000000
-7.567214 -6.997467 -0.811677 1087 0.604730 0.796430 0.000000
-7.567867 -6.998074 -0.808551 1103 0.604730 0.796430 0.000000
-7.567613 -6.997828 -0.805364 1099 0.604730 0.796430 0.000000
-7.566868 -6.997140 -0.802140 1091 0.604730 0.796430 0.000000
-7.567513 -6.997741 -0.799004 1095 0.604730 0.796430 0.000000
-7.568062 -6.998252 -0.795869 1095 0.604730 0.796430 0.000000
-7.567586 -6.997805 -0.792663 1083 0.604730 0.796430 0.000000
-7.567207 -6.997459 -0.789467 1077 0.604730 0.796430 0.000000
-7.567589 -6.997812 -0.786323 1081 0.604730 0.796430 0.000000
-7.567432 -6.997670 -0.783135 1081 0.604730 0.796430 0.000000
-7.566520 -6.996822 -0.779903 1085 0.604730 0.796430 0.000000
-7.566791 -6.997073 -0.776751 1091 0.604730 0.796430 0.000000
-7.567657 -6.997877 -0.773632 1091 0.604730 0.796430 0.000000
-7.567650 -6.997868 -0.770462 1083 0.604730 0.796430 0.000000
-7.567873 -6.998067 -0.767300 1081 0.604730 0.796430 0.000000
-7.567757 -6.997971 -0.764121 1077 0.604730 0.796430 0.000000
-7.567812 -6.998011 -0.760961 1089 0.604730 0.796430 0.000000
-7.568663 -6.998802 -0.757833 1093 0.604730 0.796430 0.000000
-7.568395 -6.998559 -0.754645 1069 0.604730 0.796430 0.000000
-7.567371 -6.997609 -0.751415 1073 0.604730 0.796430 0.000000
-7.566563 -6.996857 -0.748192 1065 0.604730 0.796430 0.000000
-7.567310 -6.997552 -0.745065 1075 0.604730 0.796430 0.000000
-7.567732 -6.997937 -0.741921 1091 0.604730 0.796430 0.000000
-7.568098 -6.998277 -0.738768 1099 0.604730 0.796430 0.000000
-7.568099 -6.998273 -0.735597 1081 0.604730 0.796430 0.000000
-7.567553 -6.997769 -0.732392 1085 0.604730 0.796430 0.000000
-7.567594 -6.997811 -0.729232 1099 0.604730 0.796430 0.000000
-7.566191 -6.996520 -0.725975 1075 0.604730 0.796430 0.000000
-7.566826 -6.997101 -0.722839 1081 0.604730 0.796430 0.000000
-7.567511 -6.997733 -0.719712 1075 0.604730 0.796430 0.000000
-7.566853 -6.997127 -0.716509 1081 0.604730 0.796430 0.000000
-7.566513 -6.996812 -0.713312 1075 0.604730 0.796430 0.000000
-7.566506 -6.996803 -0.710142 1051 0.604730 0.796430 0.000000
-7.566864 -6.997137 -0.706998 1057 0.604730 0.796430 0.000000
-7.567120 -6.997376 -0.703836 1063 0.604730 0.796430 0.000000
-7.567803 -6.998008 -0.700699 1085 0.604730 0.796430 0.000000
-7.567946 -6.998132 -0.697538 1081 0.604730 0.796430 0.000000
-7.567614 -6.997824 -0.694351 1075 0.604730 0.796430 0.000000
-7.567060 -6.997313 -0.691156 1073 0.604730 0.796430 0.000000
-7.566609 -6.996897 -0.687960 1055 0.604730 0.796430 0.000000
-7.567120 -6.997379 -0.684815 1053 0.604730 0.796430 0.000000
-7.568182 -6.998353 -0.681705 1087 0.604730 0.796430 0.000000
-7.567621 -6.997836 -0.678501 1095 0.604730 0.796430 0.000000
-7.567384 -6.997617 -0.675323 1057 0.604730 0.796430 0.000000
-7.567797 -6.997994 -0.672169 1061 0.604730 0.796430 0.000000
-7.567601 -6.997821 -0.668990 1059 0.604730 0.796430 0.000000
-7.567530 -6.997748 -0.665821 1069 0.604730 0.796430 0.000000
-7.567301 -6.997536 -0.662643 1067 0.604730 0.796430 0.000000
-7.568342 -6.998504 -0.659523 1087 0.604730 0.796430 0.000000
-7.569073 -6.999175 -0.656386 1085 0.604730 0.796430 0.000000
-7.568614 -6.998753 -0.653191 1083 0.604730 0.796430 0.000000
-7.568369 -6.998527 -0.650013 1075 0.604730 0.796430 0.000000
-7.567379 -6.997617 -0.646802 1037 0.604730 0.796430 0.000000
-7.566864 -6.997138 -0.643607 1025 0.604730 0.796430 0.000000
-7.567373 -6.997605 -0.640462 1053 0.604730 0.796430 0.000000
-7.567613 -6.997831 -0.637300 1069 0.604730 0.796430 0.000000
-7.567471 -6.997701 -0.634131 1047 0.604730 0.796430 0.000000
-7.567709 -6.997913 -0.630969 1053 0.604730 0.796430 0.000000
-7.567901 -6.998088 -0.627807 1053 0.604730 0.796430 0.000000
-7.567648 -6.997857 -0.624629 1053 0.604730 0.796430 0.000000
-7.567507 -6.997727 -0.621450 1083 0.604730 0.796430 0.000000
-7.567207 -6.997458 -0.618273 1043 0.604730 0.796430 0.000000
-7.567121 -6.997372 -0.615104 1033 0.604730 0.796430 0.000000
-7.566869 -6.997141 -0.611926 1035 0.604730 0.796430 0.000000
-7.566830 -6.997107 -0.608756 1041 0.604730 0.796430 0.000000
-7.566418 -6.996722 -0.605570 1035 0.604730 0.796430 0.000000
-7.566324 -6.996630 -0.602401 1033 0.604730 0.796430 0.000000
-7.566881 -6.997149 -0.599256 1043 0.604730 0.796430 0.000000
-7.567270 -6.997507 -0.596102 1051 0.604730 0.796430 0.000000
-7.567660 -6.997867 -0.592948 1059 0.604730 0.796430 0.000000
-7.567939 -6.998124 -0.589786 1049 0.604730 0.796430 0.000000
-7.569751 -6.995686 -0.976878 1097 0.604730 0.796430 0.000000
-7.570117 -6.996027 -0.973735 1099 0.604730 0.796430 0.000000
-7.570381 -6.996272 -0.970572 1093 0.604730 0.796430 0.000000
-7.570374 -6.996262 -0.967392 1089 0.604730 0.796430 0.000000
-7.569771 -6.995699 -0.964168 1067 0.604730 0.796430 0.000000
-7.569273 -6.995246 -0.960942 1069 0.604730 0.796430 0.000000
-7.569488 -6.995440 -0.957780 1065 0.604730 0.796430 0.000000
-7.569798 -6.995722 -0.954627 1067 0.604730 0.796430 0.000000
-7.569880 -6.995810 -0.951456 1071 0.604730 0.796430 0.000000
-7.570356 -6.996237 -0.948322 1095 0.604730 0.796430 0.000000
-7.570454 -6.996337 -0.945151 1099 0.604730 0.796430 0.000000
-7.569628 -6.995571 -0.941898 1085 0.604730 0.796430 0.000000
-7.570210 -6.996109 -0.938773 1059 0.604730 0.796430 0.000000
-7.570940 -6.996778 -0.935656 1071 0.604730 0.796430 0.000000
-7.570608 -6.996471 -0.932449 1073 0.604730 0.796430 0.000000
-7.570102 -6.996011 -0.929234 1085 0.604730 0.796430 0.000000
-7.568912 -6.994902 -0.925955 1071 0.604730 0.796430 0.000000
-7.569636 -6.995580 -0.922838 1071 0.604730 0.796430 0.000000
-7.569993 -6.995900 -0.919695 1071 0.604730 0.796430 0.000000
-7.569598 -6.995542 -0.916478 1069 0.604730 0.796430 0.000000
-7.570115 -6.996016 -0.913343 1063 0.604730 0.796430 0.000000
-7.570037 -6.995950 -0.910164 1073 0.604730 0.796430 0.000000
-7.569642 -6.995578 -0.906958 1069 0.604730 0.796430 0.000000
-7.570477 -6.996357 -0.903840 1093 0.604730 0.796430 0.000000
-7.570500 -6.996372 -0.900669 1091 0.604730 0.796430 0.000000
-7.569732 -6.995665 -0.897436 1067 0.604730 0.796430 0.000000
-7.570352 -6.996233 -0.894301 1073 0.604730 0.796430 0.000000
-7.570646 -6.996503 -0.891148 1081 0.604730 0.796430 0.000000
-7.570458 -6.996336 -0.887960 1089 0.604730 0.796430 0.000000
-7.569950 -6.995862 -0.884744 1087 0.604730 0.796430 0.000000
-7.569381 -6.995339 -0.881529 1069 0.604730 0.796430 0.000000
-7.569301 -6.995259 -0.878340 1063 0.604730 0.796430 0.000000
-7.569858 -6.995778 -0.875215 1071 0.604730 0.796430 0.000000
-7.570264 -6.996149 -0.872061 1089 0.604730 0.796430 0.000000
-7.570813 -6.996661 -0.868936 1087 0.604730 0.796430 0.000000
-7.570196 -6.996087 -0.865712 1099 0.604730 0.796430 0.000000
-7.569197 -6.995170 -0.862461 1081 0.604730 0.796430 0.000000
-7.570023 -6.995928 -0.859343 1089 0.604730 0.796430 0.000000
-7.570310 -6.996192 -0.856190 1093 0.604730 0.796430 0.000000
-7.570328 -6.996215 -0.853020 1083 0.604730 0.796430 0.000000
-7.570622 -6.996485 -0.849867 1069 0.604730 0.796430 0.000000
-7.571060 -6.996896 -0.846723 1095 0.604730 0.796430 0.000000
-7.570323 -6.996213 -0.843490 1073 0.604730 0.796430 0.000000
-7.569055 -6.995041 -0.840231 1079 0.604730 0.796430 0.000000
-7.568754 -6.994759 -0.837034 1091 0.604730 0.796430 0.000000
-7.569033 -6.995016 -0.833881 1071 0.604730 0.796430 0.000000
-7.569693 -6.995630 -0.830755 1077 0.604730 0.796430 0.000000
-7.569702 -6.995633 -0.827575 1079 0.604730 0.796430 0.000000
-7.570037 -6.995948 -0.824432 1091 0.604730 0.796430 0.000000
-7.570267 -6.996154 -0.821270 1093 0.604730 0.796430 0.000000
-7.569793 -6.995720 -0.818064 1093 0.604730 0.796430 0.000000
-7.570071 -6.995977 -0.814911 1095 0.604730 0.796430 0.000000
-7.570993 -6.996825 -0.811803 1097 0.604730 0.796430 0.000000
-7.571169 -6.996988 -0.808631 1087 0.604730 0.796430 0.000000
-7.570900 -6.996744 -0.805443 1089 0.604730 0.796430 0.000000
-7.570378 -6.996258 -0.802238 1093 0.604730 0.796430 0.000000
-7.569791 -6.995708 -0.799024 1089 0.604730 0.796430 0.000000
-7.570380 -6.996266 -0.795888 1091 0.604730 0.796430 0.000000
-7.570874 -6.996720 -0.792743 1089 0.604730 0.796430 0.000000
-7.570080 -6.995979 -0.789521 1083 0.604730 0.796430 0.000000
-7.569162 -6.995139 -0.786289 1063 0.604730 0.796430 0.000000
-7.569599 -6.995535 -0.783145 1071 0.604730 0.796430 0.000000
-7.570195 -6.996085 -0.780009 1083 0.604730 0.796430 0.000000
-7.570839 -6.996686 -0.776883 1083 0.604730 0.796430 0.000000
-7.571531 -6.997325 -0.773747 1097 0.604730 0.796430 0.000000
-7.570952 -6.996782 -0.770542 1089 0.604730 0.796430 0.000000
-7.570947 -6.996786 -0.767372 1087 0.604730 0.796430 0.000000
-7.571542 -6.997335 -0.764237 1111 0.604730 0.796430 0.000000
-7.570948 -6.996780 -0.761022 1099 0.604730 0.796430 0.000000
-7.569607 -6.995538 -0.757774 1091 0.604730 0.796430 0.000000
-7.569594 -6.995536 -0.754594 1077 0.604730 0.796430 0.000000
-7.570618 -6.996479 -0.751485 1085 0.604730 0.796430 0.000000
-7.570500 -6.996368 -0.748306 1077 0.604730 0.796430 0.000000
-7.570224 -6.996118 -0.745118 1057 0.604730 0.796430 0.000000
-7.569844 -6.995759 -0.741922 1075 0.604730 0.796430 0.000000
-7.569678 -6.995610 -0.738743 1075 0.604730 0.796430 0.000000
-7.569720 -6.995652 -0.735573 1081 0.604730 0.796430 0.000000
-7.570038 -6.995941 -0.732420 1101 0.604730 0.796430 0.000000
-7.570356 -6.996230 -0.729267 1095 0.604730 0.796430 0.000000
-7.569961 -6.995872 -0.726080 1059 0.604730 0.796430 0.000000
-7.570011 -6.995921 -0.722910 1055 0.604730 0.796430 0.000000
-7.569837 -6.995751 -0.719731 1075 0.604730 0.796430 0.000000
-7.568916 -6.994897 -0.716510 1073 0.604730 0.796430 0.000000
-7.569386 -6.995333 -0.713365 1075 0.604730 0.796430 0.000000
-7.570443 -6.996315 -0.710246 1077 0.604730 0.796430 0.000000
-7.570698 -6.996553 -0.707093 1081 0.604730 0.796430 0.000000
-7.570096 -6.995991 -0.703889 1065 0.604730 0.796430 0.000000
-7.569701 -6.995633 -0.700692 1081 0.604730 0.796430 0.000000
-7.569043 -6.995014 -0.697488 1073 0.604730 0.796430 0.000000
-7.568703 -6.994699 -0.694301 1053 0.604730 0.796430 0.000000
-7.569759 -6.995681 -0.691191 1069 0.604730 0.796430 0.000000
-7.570386 -6.996256 -0.688056 1089 0.604730 0.796430 0.000000
-7.569453 -6.995403 -0.684834 1071 0.604730 0.796430 0.000000
-7.569105 -6.995083 -0.681647 1077 0.604730 0.796430 0.000000
-7.569249 -6.995207 -0.678486 1069 0.604730 0.796430 0.000000
-7.569496 -6.995439 -0.675323 1061 0.604730 0.796430 0.000000
-7.569584 -6.995519 -0.672163 1059 0.604730 0.796430 0.000000
-7.569824 -6.995745 -0.669000 1069 0.604730 0.796430 0.000000
-7.569587 -6.995526 -0.665822 1071 0.604730 0.796430 0.000000
-7.569405 -6.995351 -0.662644 1067 0.604730 0.796430 0.000000
-7.569707 -6.995627 -0.659491 1055 0.604730 0.796430 0.000000
-7.570058 -6.995955 -0.656338 1059 0.604730 0.796430 0.000000
-7.571257 -6.997063 -0.653227 1089 0.604730 0.796430 0.000000
-7.571077 -6.996903 -0.650048 1069 0.604730 0.796430 0.000000
-7.570348 -6.996226 -0.646845 1055 0.604730 0.796430 0.000000
-7.570158 -6.996045 -0.643667 1029 0.604730 0.796430 0.000000
-7.569859 -6.995777 -0.640479 1033 0.604730 0.796430 0.000000
-7.569939 -6.995850 -0.637318 1037 0.604730 0.796430 0.000000
-7.570336 -6.996215 -0.634165 1047 0.604730 0.796430 0.000000
-7.570893 -6.996733 -0.631019 1051 0.604730 0.796430 0.000000
-7.570760 -6.996610 -0.627841 1041 0.604730 0.796430 0.000000
-7.570293 -6.996182 -0.624655 1037 0.604730 0.796430 0.000000
-7.570691 -6.996547 -0.621501 1051 0.604730 0.796430 0.000000
-7.570231 -6.996111 -0.618315 1029 0.604730 0.796430 0.000000
-7.570138 -6.996033 -0.615146 1035 0.604730 0.796430 0.000000
-7.570210 -6.996100 -0.611975 1041 0.604730 0.796430 0.000000
-7.570449 -6.996313 -0.608823 1057 0.604730 0.796430 0.000000
-7.570570 -6.996431 -0.605652 1053 0.604730 0.796430 0.000000
-7.569618 -6.995552 -0.602451 1021 0.604730 0.796430 0.000000
-7.569531 -6.995465 -0.599271 1033 0.604730 0.796430 0.000000
-7.570073 -6.995971 -0.596126 1055 0.604730 0.796430 0.000000
-7.570257 -6.996140 -0.592965 1039 0.604730 0.796430 0.000000
-7.569996 -6.995902 -0.589787 1039 0.604730 0.796430 0.000000
-7.571543 -6.993316 -0.976861 1087 0.604730 0.796430 0.000000
-7.572077 -6.993815 -0.973726 1075 0.604730 0.796430 0.000000
-7.572547 -6.994251 -0.970592 1077 0.604730 0.796430 0.000000
-7.573347 -6.994977 -0.967485 1091 0.604730 0.796430 0.000000
-7.572801 -6.994473 -0.964260 1065 0.604730 0.796430 0.000000
-7.572302 -6.994019 -0.961034 1081 0.604730 0.796430 0.000000
-7.571868 -6.993617 -0.957818 1077 0.604730 0.796430 0.000000
-7.571272 -6.993060 -0.954583 1069 0.604730 0.796430 0.000000
-7.571845 -6.993591 -0.951458 1069 0.604730 0.796430 0.000000
-7.572204 -6.993925 -0.948305 1085 0.604730 0.796430 0.000000
-7.571920 -6.993669 -0.945107 1077 0.604730 0.796430 0.000000
-7.572555 -6.994249 -0.941981 1091 0.604730 0.796430 0.000000
-7.573183 -6.994824 -0.938855 1075 0.604730 0.796430 0.000000
-7.573216 -6.994860 -0.935685 1071 0.604730 0.796430 0.000000
-7.572559 -6.994254 -0.932451 1083 0.604730 0.796430 0.000000
-7.571520 -6.993291 -0.929181 1069 0.604730 0.796430 0.000000
-7.571616 -6.993377 -0.926010 1057 0.604730 0.796430 0.000000
-7.572181 -6.993902 -0.922884 1071 0.604730 0.796430 0.000000
-7.571833 -6.993582 -0.919677 1069 0.604730 0.796430 0.000000
-7.571604 -6.993369 -0.916480 1065 0.604730 0.796430 0.000000
-7.571527 -6.993303 -0.913300 1073 0.604730 0.796430 0.000000
-7.571829 -6.993579 -0.910147 1087 0.604730 0.796430 0.000000
-7.572346 -6.994053 -0.907012 1075 0.604730 0.796430 0.000000
-7.572109 -6.993834 -0.903815 1083 0.604730 0.796430 0.000000
-7.571809 -6.993565 -0.900617 1087 0.604730 0.796430 0.000000
-7.572112 -6.993841 -0.897464 1087 0.604730 0.796430 0.000000
-7.571501 -6.993272 -0.894240 1071 0.604730 0.796430 0.000000
-7.571574 -6.993340 -0.891069 1075 0.604730 0.796430 0.000000
-7.571868 -6.993610 -0.887916 1081 0.604730 0.796430 0.000000
-7.571307 -6.993093 -0.884692 1079 0.604730 0.796430 0.000000
-7.571435 -6.993217 -0.881530 1081 0.604730 0.796430 0.000000
-7.571681 -6.993435 -0.878378 1065 0.604730 0.796430 0.000000
-7.571762 -6.993509 -0.875207 1081 0.604730 0.796430 0.000000
-7.572692 -6.994377 -0.872098 1097 0.604730 0.796430 0.000000
-7.573415 -6.995041 -0.868982 1089 0.604730 0.796430 0.000000
-7.573495 -6.995114 -0.865811 1087 0.604730 0.796430 0.000000
-7.572544 -6.994235 -0.862560 1081 0.604730 0.796430 0.000000
-7.571926 -6.993659 -0.859335 1089 0.604730 0.796430 0.000000
-7.572316 -6.994019 -0.856192 1085 0.604730 0.796430 0.000000
-7.572818 -6.994493 -0.853057 1083 0.604730 0.796430 0.000000
-7.572677 -6.994364 -0.849868 1083 0.604730 0.796430 0.000000
-7.572693 -6.994373 -0.846698 1071 0.604730 0.796430 0.000000
-7.572067 -6.993792 -0.843474 1059 0.604730 0.796430 0.000000
-7.572077 -6.993809 -0.840303 1073 0.604730 0.796430 0.000000
-7.572854 -6.994516 -0.837186 1089 0.604730 0.796430 0.000000
-7.572222 -6.993943 -0.833962 1085 0.604730 0.796430 0.000000
-7.572079 -6.993799 -0.830783 1087 0.604730 0.796430 0.000000
-7.572303 -6.994012 -0.827621 1087 0.604730 0.796430 0.000000
-7.572265 -6.993979 -0.824441 1083 0.604730 0.796430 0.000000
-7.572598 -6.994279 -0.821298 1111 0.604730 0.796430 0.000000
-7.572387 -6.994093 -0.818110 1095 0.604730 0.796430 0.000000
-7.572189 -6.993906 -0.814922 1077 0.604730 0.796430 0.000000
-7.572784 -6.994455 -0.811786 1085 0.604730 0.796430 0.000000
-7.572793 -6.994459 -0.808616 1097 0.604730 0.796430 0.000000
-7.572161 -6.993885 -0.805392 1099 0.604730 0.796430 0.000000
-7.572438 -6.994129 -0.802239 1099 0.604730 0.796430 0.000000
-7.572925 -6.994591 -0.799094 1081 0.604730 0.796430 0.000000
-7.572989 -6.994637 -0.795934 1083 0.604730 0.796430 0.000000
-7.572562 -6.994255 -0.792728 1071 0.604730 0.796430 0.000000
-7.572460 -6.994156 -0.789549 1067 0.604730 0.796430 0.000000
-7.572468 -6.994159 -0.786379 1073 0.604730 0.796430 0.000000
-7.572842 -6.994506 -0.783225 1093 0.604730 0.796430 0.000000
-7.572685 -6.994364 -0.780046 1077 0.604730 0.796430 0.000000
-7.572797 -6.994462 -0.776875 1091 0.604730 0.796430 0.000000
-7.572743 -6.994415 -0.773706 1071 0.604730 0.796430 0.000000
-7.572855 -6.994513 -0.770535 1081 0.604730 0.796430 0.000000
-7.572801 -6.994466 -0.767365 1091 0.604730 0.796430 0.000000
-7.572793 -6.994456 -0.764185 1107 0.604730 0.796430 0.000000
-7.573105 -6.994753 -0.761032 1089 0.604730 0.796430 0.000000
-7.572948 -6.994611 -0.757853 1097 0.604730 0.796430 0.000000
-7.572679 -6.994353 -0.754666 1101 0.604730 0.796430 0.000000
-7.572893 -6.994546 -0.751504 1097 0.604730 0.796430 0.000000
-7.573530 -6.995141 -0.748368 1089 0.604730 0.796430 0.000000
-7.573468 -6.995088 -0.745198 1079 0.604730 0.796430 0.000000
-7.572286 -6.993986 -0.741949 1063 0.604730 0.796430 0.000000
-7.571739 -6.993481 -0.738754 1059 0.604730 0.796430 0.000000
-7.572432 -6.994120 -0.735618 1073 0.604730 0.796430 0.000000
-7.573282 -6.994911 -0.732500 1071 0.604730 0.796430 0.000000
-7.573172 -6.994806 -0.729321 1091 0.604730 0.796430 0.000000
-7.572341 -6.994049 -0.726098 1069 0.604730 0.796430 0.000000
-7.572499 -6.994184 -0.722937 1071 0.604730 0.796430 0.000000
-7.572596 -6.994270 -0.719776 1079 0.604730 0.796430 0.000000
-7.572423 -6.994115 -0.716587 1069 0.604730 0.796430 0.000000
-7.572781 -6.994449 -0.713444 1085 0.604730 0.796430 0.000000
-7.572933 -6.994593 -0.710272 1087 0.604730 0.796430 0.000000
-7.572594 -6.994279 -0.707085 1083 0.604730 0.796430 0.000000
-7.572690 -6.994365 -0.703925 1067 0.604730 0.796430 0.000000
-7.572889 -6.994545 -0.700763 1075 0.604730 0.796430 0.000000
-7.571851 -6.993584 -0.697532 1069 0.604730 0.796430 0.000000
-7.570806 -6.992630 -0.694312 1067 0.604730 0.796430 0.000000
-7.571600 -6.993363 -0.691184 1087 0.604730 0.796430 0.000000
-7.572877 -6.994534 -0.688082 1077 0.604730 0.796430 0.000000
-7.573125 -6.994767 -0.684920 1079 0.604730 0.796430 0.000000
-7.572300 -6.994001 -0.681708 1073 0.604730 0.796430 0.000000
-7.571365 -6.993134 -0.678486 1065 0.604730 0.796430 0.000000
-7.571613 -6.993368 -0.675334 1075 0.604730 0.796430 0.000000
-7.572558 -6.994234 -0.672215 1071 0.604730 0.796430 0.000000
-7.572805 -6.994466 -0.669053 1067 0.604730 0.796430 0.000000
-7.572189 -6.993906 -0.665848 1077 0.604730 0.796430 0.000000
-7.572055 -6.993782 -0.662679 1075 0.604730 0.796430 0.000000
-7.572626 -6.994299 -0.659534 1053 0.604730 0.796430 0.000000
-7.572977 -6.994627 -0.656381 1059 0.604730 0.796430 0.000000
-7.572732 -6.994402 -0.653203 1067 0.604730 0.796430 0.000000
-7.572328 -6.994023 -0.650007 1059 0.604730 0.796430 0.000000
-7.572194 -6.993900 -0.646838 1061 0.604730 0.796430 0.000000
-7.571419 -6.993186 -0.643635 1039 0.604730 0.796430 0.000000
-7.571491 -6.993254 -0.640464 1017 0.604730 0.796430 0.000000
-7.572167 -6.993880 -0.637328 1017 0.604730 0.796430 0.000000
-7.572239 -6.993946 -0.634157 1027 0.604730 0.796430 0.000000
-7.572796 -6.994465 -0.631022 1029 0.604730 0.796430 0.000000
-7.573035 -6.994677 -0.627860 1039 0.604730 0.796430 0.000000
-7.573108 -6.994744 -0.624689 1039 0.604730 0.796430 0.000000
-7.572863 -6.994520 -0.621511 1041 0.604730 0.796430 0.000000
-7.572072 -6.993793 -0.618308 1029 0.604730 0.796430 0.000000
-7.571984 -6.993707 -0.615139 1025 0.604730 0.796430 0.000000
-7.572057 -6.993774 -0.611968 1031 0.604730 0.796430 0.000000
-7.572565 -6.994241 -0.608823 1039 0.604730 0.796430 0.000000
-7.573114 -6.994752 -0.605678 1053 0.604730 0.796430 0.000000
-7.572703 -6.994369 -0.602492 1043 0.604730 0.796430 0.000000
-7.572776 -6.994435 -0.599331 1027 0.604730 0.796430 0.000000
-7.572301 -6.994001 -0.596136 1027 0.604730 0.796430 0.000000
-7.571675 -6.993421 -0.592951 1019 0.604730 0.796430 0.000000
-7.572278 -6.993976 -0.589806 1037 0.604730 0.796430 0.000000
-7.574019 -6.991403 -0.976899 1065 0.604730 0.796430 0.000000
-7.574543 -6.991883 -0.973764 1073 0.604730 0.796430 0.000000
-7.574751 -6.992070 -0.970602 1069 0.604730 0.796430 0.000000
-7.574418 -6.991762 -0.967395 1083 0.604730 0.796430 0.000000
-7.574571 -6.991906 -0.964224 1097 0.604730 0.796430 0.000000
-7.574564 -6.991896 -0.961044 1093 0.604730 0.796430 0.000000
-7.574930 -6.992237 -0.957900 1079 0.604730 0.796430 0.000000
-7.575399 -6.992672 -0.954766 1075 0.604730 0.796430 0.000000
-7.575122 -6.992408 -0.951559 1071 0.604730 0.796430 0.000000
-7.575101 -6.992401 -0.948379 1075 0.604730 0.796430 0.000000
-7.574720 -6.992040 -0.945172 1065 0.604730 0.796430 0.000000
-7.574110 -6.991472 -0.941938 1067 0.604730 0.796430 0.000000
-7.573660 -6.991071 -0.938722 1051 0.604730 0.796430 0.000000
-7.574136 -6.991498 -0.935587 1063 0.604730 0.796430 0.000000
-7.574654 -6.991985 -0.932452 1075 0.604730 0.796430 0.000000
-7.574377 -6.991721 -0.929245 1059 0.604730 0.796430 0.000000
-7.574353 -6.991699 -0.926065 1065 0.604730 0.796430 0.000000
-7.574712 -6.992033 -0.922922 1069 0.604730 0.796430 0.000000
-7.575174 -6.992463 -0.919777 1075 0.604730 0.796430 0.000000
-7.574992 -6.992288 -0.916589 1081 0.604730 0.796430 0.000000
-7.574327 -6.991675 -0.913355 1065 0.604730 0.796430 0.000000
-7.574249 -6.991610 -0.910176 1075 0.604730 0.796430 0.000000
-7.574392 -6.991733 -0.907004 1085 0.604730 0.796430 0.000000
-7.574418 -6.991762 -0.903834 1077 0.604730 0.796430 0.000000
-7.574346 -6.991689 -0.900655 1067 0.604730 0.796430 0.000000
-7.575063 -6.992360 -0.897528 1069 0.604730 0.796430 0.000000
-7.575102 -6.992388 -0.894357 1077 0.604730 0.796430 0.000000
-7.573835 -6.991217 -0.891079 1077 0.604730 0.796430 0.000000
-7.573654 -6.991055 -0.887891 1077 0.604730 0.796430 0.000000
-7.574369 -6.991713 -0.884774 1097 0.604730 0.796430 0.000000
-7.575147 -6.992434 -0.881657 1085 0.604730 0.796430 0.000000
-7.574957 -6.992253 -0.878468 1057 0.604730 0.796430 0.000000
-7.574824 -6.992129 -0.875280 1091 0.604730 0.796430 0.000000
-7.575064 -6.992355 -0.872117 1091 0.604730 0.796430 0.000000
-7.574819 -6.992130 -0.868929 1073 0.604730 0.796430 0.000000
-7.574781 -6.992096 -0.865750 1079 0.604730 0.796430 0.000000
-7.575179 -6.992461 -0.862606 1085 0.604730 0.796430 0.000000
-7.575091 -6.992375 -0.859417 1079 0.604730 0.796430 0.000000
-7.575109 -6.992398 -0.856246 1099 0.604730 0.796430 0.000000
-7.575459 -6.992712 -0.853093 1085 0.604730 0.796430 0.000000
-7.576007 -6.993224 -0.849958 1079 0.604730 0.796430 0.000000
-7.576129 -6.993343 -0.846797 1077 0.604730 0.796430 0.000000
-7.575240 -6.992513 -0.843555 1081 0.604730 0.796430 0.000000
-7.574449 -6.991787 -0.840322 1067 0.604730 0.796430 0.000000
-7.574949 -6.992248 -0.837188 1071 0.604730 0.796430 0.000000
-7.574966 -6.992257 -0.834007 1087 0.604730 0.796430 0.000000
-7.574540 -6.991874 -0.830811 1077 0.604730 0.796430 0.000000
-7.574992 -6.992283 -0.827667 1089 0.604730 0.796430 0.000000
-7.574780 -6.992097 -0.824479 1067 0.604730 0.796430 0.000000
-7.575233 -6.992507 -0.821335 1083 0.604730 0.796430 0.000000
-7.575829 -6.993055 -0.818199 1089 0.604730 0.796430 0.000000
-7.575037 -6.992329 -0.814966 1091 0.604730 0.796430 0.000000
-7.574769 -6.992086 -0.811779 1067 0.604730 0.796430 0.000000
-7.575539 -6.992786 -0.808661 1081 0.604730 0.796430 0.000000
-7.574517 -6.991851 -0.805411 1061 0.604730 0.796430 0.000000
-7.574257 -6.991613 -0.802223 1075 0.604730 0.796430 0.000000
-7.574701 -6.992016 -0.799079 1065 0.604730 0.796430 0.000000
-7.575457 -6.992719 -0.795952 1083 0.604730 0.796430 0.000000
-7.575893 -6.993115 -0.792808 1095 0.604730 0.796430 0.000000
-7.575474 -6.992724 -0.789612 1085 0.604730 0.796430 0.000000
-7.575254 -6.992533 -0.786423 1077 0.604730 0.796430 0.000000
-7.575794 -6.993024 -0.783288 1097 0.604730 0.796430 0.000000
-7.575533 -6.992786 -0.780091 1073 0.604730 0.796430 0.000000
-7.575431 -6.992688 -0.776912 1083 0.604730 0.796430 0.000000
-7.575329 -6.992590 -0.773733 1081 0.604730 0.796430 0.000000
-7.574252 -6.991597 -0.770492 1079 0.604730 0.796430 0.000000
-7.573975 -6.991347 -0.767305 1067 0.604730 0.796430 0.000000
-7.574675 -6.991991 -0.764178 1071 0.604730 0.796430 0.000000
-7.574834 -6.992140 -0.761017 1075 0.604730 0.796430 0.000000
-7.574987 -6.992284 -0.757855 1079 0.604730 0.796430 0.000000
-7.574988 -6.992281 -0.754675 1079 0.604730 0.796430 0.000000
-7.574338 -6.991682 -0.751471 1057 0.604730 0.796430 0.000000
-7.573848 -6.991235 -0.748266 1069 0.604730 0.796430 0.000000
-7.573841 -6.991225 -0.745096 1075 0.604730 0.796430 0.000000
-7.574318 -6.991667 -0.741951 1067 0.604730 0.796430 0.000000
-7.574747 -6.992057 -0.738807 1077 0.604730 0.796430 0.000000
-7.575003 -6.992296 -0.735645 1075 0.604730 0.796430 0.000000
-7.574781 -6.992089 -0.732467 1071 0.604730 0.796430 0.000000
-7.574401 -6.991731 -0.729270 1081 0.604730 0.796430 0.000000
-7.573800 -6.991182 -0.726066 1061 0.604730 0.796430 0.000000
-7.573468 -6.990874 -0.722879 1057 0.604730 0.796430 0.000000
-7.574311 -6.991660 -0.719751 1065 0.604730 0.796430 0.000000
-7.574628 -6.991948 -0.716598 1087 0.604730 0.796430 0.000000
-7.574343 -6.991678 -0.713410 1063 0.604730 0.796430 0.000000
-7.575138 -6.992412 -0.710283 1063 0.604730 0.796430 0.000000
-7.575822 -6.993044 -0.707146 1099 0.604730 0.796430 0.000000
-7.575378 -6.992635 -0.703950 1079 0.604730 0.796430 0.000000
-7.575150 -6.992423 -0.700773 1071 0.604730 0.796430 0.000000
-7.575191 -6.992465 -0.697602 1079 0.604730 0.796430 0.000000
-7.575541 -6.992792 -0.694449 1065 0.604730 0.796430 0.000000
-7.575684 -6.992915 -0.691287 1085 0.604730 0.796430 0.000000
-7.574702 -6.992011 -0.688066 1079 0.604730 0.796430 0.000000
-7.574513 -6.991844 -0.684888 1079 0.604730 0.796430 0.000000
-7.574983 -6.992280 -0.681744 1065 0.604730 0.796430 0.000000
-7.575175 -6.992455 -0.678582 1051 0.604730 0.796430 0.000000
-7.574889 -6.992184 -0.675394 1045 0.604730 0.796430 0.000000
-7.574550 -6.991870 -0.672207 1051 0.604730 0.796430 0.000000
-7.574575 -6.991900 -0.669037 1063 0.604730 0.796430 0.000000
-7.575354 -6.992621 -0.665910 1089 0.604730 0.796430 0.000000
-7.576458 -6.993641 -0.662789 1077 0.604730 0.796430 0.000000
-7.576498 -6.993669 -0.659619 1079 0.604730 0.796430 0.000000
-7.575555 -6.992795 -0.656408 1089 0.604730 0.796430 0.000000
-7.575103 -6.992380 -0.653212 1065 0.604730 0.796430 0.000000
-7.574908 -6.992207 -0.650033 1055 0.604730 0.796430 0.000000
-7.575583 -6.992832 -0.646897 1065 0.604730 0.796430 0.000000
-7.575394 -6.992651 -0.643719 1071 0.604730 0.796430 0.000000
-7.574609 -6.991931 -0.640516 1045 0.604730 0.796430 0.000000
-7.574682 -6.991999 -0.637345 1047 0.604730 0.796430 0.000000
-7.575523 -6.992769 -0.634218 1069 0.604730 0.796430 0.000000
-7.575645 -6.992888 -0.631056 1067 0.604730 0.796430 0.000000
-7.575130 -6.992409 -0.627861 1055 0.604730 0.796430 0.000000
-7.575202 -6.992476 -0.624690 1033 0.604730 0.796430 0.000000
-7.574909 -6.992199 -0.621513 1025 0.604730 0.796430 0.000000
-7.574816 -6.992121 -0.618344 1031 0.604730 0.796430 0.000000
-7.575103 -6.992385 -0.615181 1039 0.604730 0.796430 0.000000
-7.574152 -6.991505 -0.611970 1023 0.604730 0.796430 0.000000
-7.574495 -6.991827 -0.608816 1041 0.604730 0.796430 0.000000
-7.575153 -6.992426 -0.605680 1031 0.604730 0.796430 0.000000
-7.575448 -6.992697 -0.602517 1043 0.604730 0.796430 0.000000
-7.575141 -6.992422 -0.599340 1037 0.604730 0.796430 0.000000
-7.574174 -6.991529 -0.596129 1029 0.604730 0.796430 0.000000
-7.574199 -6.991545 -0.592969 1047 0.604730 0.796430 0.000000
-7.575024 -6.992304 -0.589831 1045 0.604730 0.796430 0.000000
-7.576369 -6.989377 -0.976918 1079 0.604730 0.796430 0.000000
-7.577068 -6.990022 -0.973802 1065 0.604730 0.796430 0.000000
-7.577482 -6.990400 -0.970658 1049 0.604730 0.796430 0.000000
-7.577475 -6.990390 -0.967478 1077 0.604730 0.796430 0.000000
-7.576936 -6.989892 -0.964253 1071 0.604730 0.796430 0.000000
-7.576921 -6.989876 -0.961073 1075 0.604730 0.796430 0.000000
-7.576962 -6.989918 -0.957902 1067 0.604730 0.796430 0.000000
-7.576576 -6.989567 -0.954686 1067 0.604730 0.796430 0.000000
-7.576782 -6.989753 -0.951524 1071 0.604730 0.796430 0.000000
-7.577195 -6.990131 -0.948380 1079 0.604730 0.796430 0.000000
-7.576490 -6.989474 -0.945147 1057 0.604730 0.796430 0.000000
-7.575881 -6.988919 -0.941912 1027 0.604730 0.796430 0.000000
-7.576025 -6.989057 -0.938751 1041 0.604730 0.796430 0.000000
-7.577192 -6.990126 -0.935670 1079 0.604730 0.796430 0.000000
-7.577716 -6.990606 -0.932535 1077 0.604730 0.796430 0.000000
-7.577590 -6.990488 -0.929346 1069 0.604730 0.796430 0.000000
-7.577085 -6.990029 -0.926121 1069 0.604730 0.796430 0.000000
-7.576103 -6.989125 -0.922870 1055 0.604730 0.796430 0.000000
-7.576405 -6.989401 -0.919717 1061 0.604730 0.796430 0.000000
-7.576706 -6.989676 -0.916564 1065 0.604730 0.796430 0.000000
-7.576947 -6.989903 -0.913401 1071 0.604730 0.796430 0.000000
-7.577360 -6.990282 -0.910258 1071 0.604730 0.796430 0.000000
-7.577608 -6.990513 -0.907105 1079 0.604730 0.796430 0.000000
-7.577474 -6.990390 -0.903916 1073 0.604730 0.796430 0.000000
-7.577291 -6.990215 -0.900718 1073 0.604730 0.796430 0.000000
-7.576833 -6.989793 -0.897512 1063 0.604730 0.796430 0.000000
-7.576596 -6.989574 -0.894314 1065 0.604730 0.796430 0.000000
-7.577161 -6.990099 -0.891179 1085 0.604730 0.796430 0.000000
-7.576979 -6.989924 -0.887991 1077 0.604730 0.796430 0.000000
-7.577219 -6.990150 -0.884828 1081 0.604730 0.796430 0.000000
-7.577775 -6.990669 -0.881703 1065 0.604730 0.796430 0.000000
-7.577799 -6.990684 -0.878523 1075 0.604730 0.796430 0.000000
-7.578040 -6.990910 -0.875371 1073 0.604730 0.796430 0.000000
-7.577746 -6.990634 -0.872163 1073 0.604730 0.796430 0.000000
-7.577605 -6.990504 -0.868984 1075 0.604730 0.796430 0.000000
-7.577360 -6.990278 -0.865787 1059 0.604730 0.796430 0.000000
-7.577536 -6.990441 -0.862625 1073 0.604730 0.796430 0.000000
-7.577671 -6.990559 -0.859454 1073 0.604730 0.796430 0.000000
-7.577364 -6.990283 -0.856256 1077 0.604730 0.796430 0.000000
-7.577491 -6.990394 -0.853095 1093 0.604730 0.796430 0.000000
-7.577834 -6.990716 -0.849942 1097 0.604730 0.796430 0.000000
-7.577684 -6.990579 -0.846753 1077 0.604730 0.796430 0.000000
-7.577860 -6.990742 -0.843591 1079 0.604730 0.796430 0.000000
-7.577608 -6.990510 -0.840404 1071 0.604730 0.796430 0.000000
-7.577307 -6.990227 -0.837206 1061 0.604730 0.796430 0.000000
-7.577323 -6.990237 -0.834036 1077 0.604730 0.796430 0.000000
-7.576469 -6.989460 -0.830794 1061 0.604730 0.796430 0.000000
-7.576437 -6.989418 -0.827624 1059 0.604730 0.796430 0.000000
-7.577146 -6.990083 -0.824498 1079 0.604730 0.796430 0.000000
-7.576948 -6.989896 -0.821309 1079 0.604730 0.796430 0.000000
-7.576528 -6.989505 -0.818103 1077 0.604730 0.796430 0.000000
-7.577021 -6.989959 -0.814969 1081 0.604730 0.796430 0.000000
-7.578164 -6.991010 -0.811868 1091 0.604730 0.796430 0.000000
-7.578484 -6.991313 -0.808715 1097 0.604730 0.796430 0.000000
-7.577802 -6.990688 -0.805491 1067 0.604730 0.796430 0.000000
-7.578073 -6.990925 -0.802339 1075 0.604730 0.796430 0.000000
-7.578248 -6.991087 -0.799177 1083 0.604730 0.796430 0.000000
-7.578036 -6.990902 -0.795989 1093 0.604730 0.796430 0.000000
-7.577712 -6.990600 -0.792792 1097 0.604730 0.796430 0.000000
-7.577340 -6.990261 -0.789595 1085 0.604730 0.796430 0.000000
-7.578159 -6.991014 -0.786477 1097 0.604730 0.796430 0.000000
-7.577945 -6.990813 -0.783289 1083 0.604730 0.796430 0.000000
-7.577303 -6.990221 -0.780075 1067 0.604730 0.796430 0.000000
-7.577250 -6.990173 -0.776896 1075 0.604730 0.796430 0.000000
-7.577196 -6.990126 -0.773726 1083 0.604730 0.796430 0.000000
-7.576879 -6.989830 -0.770529 1079 0.604730 0.796430 0.000000
-7.576761 -6.989719 -0.767350 1065 0.604730 0.796430 0.000000
-7.577198 -6.990117 -0.764206 1077 0.604730 0.796430 0.000000
-7.576929 -6.989872 -0.761018 1067 0.604730 0.796430 0.000000
-7.576868 -6.989819 -0.757839 1059 0.604730 0.796430 0.000000
-7.577296 -6.990210 -0.754695 1049 0.604730 0.796430 0.000000
-7.576918 -6.989864 -0.751498 1071 0.604730 0.796430 0.000000
-7.576856 -6.989811 -0.748319 1093 0.604730 0.796430 0.000000
-7.578252 -6.991089 -0.745236 1085 0.604730 0.796430 0.000000
-7.578675 -6.991488 -0.742082 1081 0.604730 0.796430 0.000000
-7.577215 -6.990138 -0.738825 1077 0.604730 0.796430 0.000000
-7.576995 -6.989932 -0.735647 1059 0.604730 0.796430 0.000000
-7.577797 -6.990673 -0.732519 1087 0.604730 0.796430 0.000000
-7.577569 -6.990460 -0.729331 1081 0.604730 0.796430 0.000000
-7.577617 -6.990508 -0.726161 1073 0.604730 0.796430 0.000000
-7.576904 -6.989844 -0.722948 1069 0.604730 0.796430 0.000000
