126
-29.337719 -27.825073 -0.658189 761 0.100563 0.994931 0.000000
-29.338974 -27.826262 -0.645796 747 0.100563 0.994931 0.000000
-29.337051 -27.824432 -0.633324 729 0.100563 0.994931 0.000000
-29.334261 -27.821789 -0.620851 731 0.100563 0.994931 0.000000
-29.337317 -27.824696 -0.608491 717 0.100563 0.994931 0.000000
-29.337769 -27.825113 -0.596087 715 0.100563 0.994931 0.000000
-29.336359 -27.823780 -0.583640 725 0.100563 0.994931 0.000000
-29.338722 -27.826015 -0.571267 741 0.100563 0.994931 0.000000
-29.339697 -27.826950 -0.558857 755 0.100563 0.994931 0.000000
-29.337391 -27.824755 -0.546399 735 0.100563 0.994931 0.000000
-29.335957 -27.823402 -0.533952 747 0.100563 0.994931 0.000000
-29.337662 -27.825024 -0.521566 751 0.100563 0.994931 0.000000
-29.336464 -27.823889 -0.509127 771 0.100563 0.994931 0.000000
-29.336260 -27.823692 -0.496699 771 0.100563 0.994931 0.000000
-29.337593 -27.824947 -0.484306 769 0.100563 0.994931 0.000000
-29.337168 -27.824545 -0.471879 755 0.100563 0.994931 0.000000
-29.338123 -27.825453 -0.459480 757 0.100563 0.994931 0.000000
-29.338427 -27.825748 -0.447067 745 0.100563 0.994931 0.000000
-29.335342 -27.822817 -0.434596 729 0.100563 0.994931 0.000000
-29.334579 -27.822100 -0.422173 731 0.100563 0.994931 0.000000
-29.334829 -27.822340 -0.409760 719 0.100563 0.994931 0.000000
-29.335402 -27.822882 -0.397344 735 0.100563 0.994931 0.000000
-29.336700 -27.824108 -0.384942 757 0.100563 0.994931 0.000000
-29.335938 -27.823391 -0.372519 747 0.100563 0.994931 0.000000
-29.335911 -27.823368 -0.360099 749 0.100563 0.994931 0.000000
-29.337215 -27.824596 -0.347696 731 0.100563 0.994931 0.000000
-29.336926 -27.824322 -0.335278 727 0.100563 0.994931 0.000000
-29.334930 -27.822430 -0.322837 705 0.100563 0.994931 0.000000
-29.336483 -27.823902 -0.310442 705 0.100563 0.994931 0.000000
-29.336664 -27.824072 -0.298020 707 0.100563 0.994931 0.000000
-29.352793 -27.822662 -0.658340 747 0.100563 0.994931 0.000000
-29.350433 -27.820436 -0.645862 705 0.100563 0.994931 0.000000
-29.350534 -27.820528 -0.633441 721 0.100563 0.994931 0.000000
-29.351622 -27.821556 -0.621050 735 0.100563 0.994931 0.000000
-29.354622 -27.824406 -0.608682 747 0.100563 0.994931 0.000000
-29.353701 -27.823534 -0.596240 727 0.100563 0.994931 0.000000
-29.350798 -27.820772 -0.583767 731 0.100563 0.994931 0.000000
-29.352745 -27.822620 -0.571378 745 0.100563 0.994931 0.000000
-29.355894 -27.825615 -0.559018 749 0.100563 0.994931 0.000000
-29.355370 -27.825108 -0.546583 723 0.100563 0.994931 0.000000
-29.352047 -27.821964 -0.534104 743 0.100563 0.994931 0.000000
-29.352749 -27.822628 -0.521687 733 0.100563 0.994931 0.000000
-29.353613 -27.823444 -0.509279 757 0.100563 0.994931 0.000000
-29.351168 -27.821136 -0.496822 765 0.100563 0.994931 0.000000
-29.348728 -27.818817 -0.484354 767 0.100563 0.994931 0.000000
-29.348200 -27.818319 -0.471929 751 0.100563 0.994931 0.000000
-29.350895 -27.820881 -0.459553 747 0.100563 0.994931 0.000000
-29.351534 -27.821478 -0.447137 743 0.100563 0.994931 0.000000
-29.352318 -27.822218 -0.434729 715 0.100563 0.994931 0.000000
-29.353104 -27.822973 -0.422321 737 0.100563 0.994931 0.000000
-29.352724 -27.822609 -0.409895 751 0.100563 0.994931 0.000000
-29.350740 -27.820728 -0.397443 731 0.100563 0.994931 0.000000
-29.349976 -27.820011 -0.385020 739 0.100563 0.994931 0.000000
-29.351503 -27.821451 -0.372615 741 0.100563 0.994931 0.000000
-29.352486 -27.822378 -0.360206 745 0.100563 0.994931 0.000000
-29.353624 -27.823460 -0.347805 735 0.100563 0.994931 0.000000
-29.353010 -27.822878 -0.335370 711 0.100563 0.994931 0.000000
-29.350161 -27.820189 -0.322917 713 0.100563 0.994931 0.000000
-29.349443 -27.819498 -0.310494 701 0.100563 0.994931 0.000000
-29.353851 -27.823687 -0.298121 685 0.100563 0.994931 0.000000
-29.367273 -27.820026 -0.658486 741 0.100563 0.994931 0.000000
-29.369181 -27.821827 -0.646107 731 0.100563 0.994931 0.000000
-29.370056 -27.822657 -0.633699 741 0.100563 0.994931 0.000000
-29.369884 -27.822500 -0.621270 731 0.100563 0.994931 0.000000
-29.369425 -27.822071 -0.608834 745 0.100563 0.994931 0.000000
-29.370148 -27.822748 -0.596417 729 0.100563 0.994931 0.000000
-29.370285 -27.822884 -0.583995 735 0.100563 0.994931 0.000000
-29.368351 -27.821043 -0.571533 735 0.100563 0.994931 0.000000
-29.368315 -27.821012 -0.559103 751 0.100563 0.994931 0.000000
-29.368753 -27.821432 -0.546689 739 0.100563 0.994931 0.000000
-29.367857 -27.820581 -0.534247 737 0.100563 0.994931 0.000000
-29.367178 -27.819935 -0.521803 757 0.100563 0.994931 0.000000
-29.367828 -27.820553 -0.509397 763 0.100563 0.994931 0.000000
-29.368320 -27.821016 -0.496972 749 0.100563 0.994931 0.000000
-29.367832 -27.820564 -0.484546 747 0.100563 0.994931 0.000000
-29.370329 -27.822922 -0.472162 731 0.100563 0.994931 0.000000
-29.370230 -27.822828 -0.459733 747 0.100563 0.994931 0.000000
-29.366714 -27.819502 -0.447256 737 0.100563 0.994931 0.000000
-29.366335 -27.819139 -0.434819 723 0.100563 0.994931 0.000000
-29.367702 -27.820433 -0.422416 715 0.100563 0.994931 0.000000
-29.365931 -27.818764 -0.409972 721 0.100563 0.994931 0.000000
-29.366400 -27.819210 -0.397558 725 0.100563 0.994931 0.000000
-29.368614 -27.821299 -0.385156 727 0.100563 0.994931 0.000000
-29.366999 -27.819771 -0.372711 713 0.100563 0.994931 0.000000
-29.367918 -27.820648 -0.360302 719 0.100563 0.994931 0.000000
-29.367790 -27.820530 -0.347873 753 0.100563 0.994931 0.000000
-29.367662 -27.820408 -0.335454 693 0.100563 0.994931 0.000000
-29.368422 -27.821129 -0.323037 687 0.100563 0.994931 0.000000
-29.369757 -27.822384 -0.310624 675 0.100563 0.994931 0.000000
-29.369289 -27.821951 -0.298198 699 0.100563 0.994931 0.000000
-29.383787 -27.818653 -0.658675 737 0.100563 0.994931 0.000000
-29.383934 -27.818796 -0.646244 715 0.100563 0.994931 0.000000
-29.384398 -27.819235 -0.633829 721 0.100563 0.994931 0.000000
-29.384377 -27.819216 -0.621399 709 0.100563 0.994931 0.000000
-29.383400 -27.818287 -0.608948 709 0.100563 0.994931 0.000000
-29.384222 -27.819059 -0.596540 729 0.100563 0.994931 0.000000
-29.385408 -27.820192 -0.584128 721 0.100563 0.994931 0.000000
-29.383095 -27.818005 -0.571660 729 0.100563 0.994931 0.000000
-29.382957 -27.817865 -0.559221 729 0.100563 0.994931 0.000000
-29.385040 -27.819847 -0.546841 717 0.100563 0.994931 0.000000
-29.386240 -27.820978 -0.534429 703 0.100563 0.994931 0.000000
-29.385916 -27.820673 -0.521992 739 0.100563 0.994931 0.000000
-29.383549 -27.818426 -0.509524 727 0.100563 0.994931 0.000000
-29.383600 -27.818480 -0.497093 723 0.100563 0.994931 0.000000
-29.384932 -27.819733 -0.484690 725 0.100563 0.994931 0.000000
-29.386005 -27.820749 -0.472280 707 0.100563 0.994931 0.000000
-29.384884 -27.819687 -0.459830 703 0.100563 0.994931 0.000000
-29.383755 -27.818623 -0.447391 693 0.100563 0.994931 0.000000
-29.384657 -27.819485 -0.434972 707 0.100563 0.994931 0.000000
-29.384066 -27.818922 -0.422537 717 0.100563 0.994931 0.000000
-29.384369 -27.819206 -0.410114 729 0.100563 0.994931 0.000000
-29.386261 -27.820993 -0.397716 727 0.100563 0.994931 0.000000
-29.388357 -27.822987 -0.385315 737 0.100563 0.994931 0.000000
-29.387814 -27.822462 -0.372880 717 0.100563 0.994931 0.000000
-29.386190 -27.820930 -0.360425 717 0.100563 0.994931 0.000000
-29.383776 -27.818645 -0.347968 723 0.100563 0.994931 0.000000
-29.382351 -27.817299 -0.335531 681 0.100563 0.994931 0.000000
-29.383177 -27.818087 -0.323113 661 0.100563 0.994931 0.000000
-29.383455 -27.818352 -0.310690 693 0.100563 0.994931 0.000000
-29.384806 -27.819616 -0.298277 691 0.100563 0.994931 0.000000
-29.398874 -27.815235 -0.546939 689 0.100563 0.994931 0.000000
-29.399107 -27.815449 -0.534507 695 0.100563 0.994931 0.000000
-29.399771 -27.816086 -0.497230 687 0.100563 0.994931 0.000000
-29.398643 -27.815016 -0.447489 661 0.100563 0.994931 0.000000
-29.398632 -27.815004 -0.385338 699 0.100563 0.994931 0.000000
-29.398888 -27.815250 -0.310763 665 0.100563 0.994931 0.000000
