132
-29.443226 -27.821117 -0.646974 201 0.100563 0.994931 0.000000
-29.441360 -27.819347 -0.634491 239 0.100563 0.994931 0.000000
-29.442135 -27.820080 -0.622074 237 0.100563 0.994931 0.000000
-29.444082 -27.821926 -0.609665 297 0.100563 0.994931 0.000000
-29.443989 -27.821835 -0.535004 229 0.100563 0.994931 0.000000
-29.444582 -27.822395 -0.522578 245 0.100563 0.994931 0.000000
-29.441729 -27.819700 -0.510085 213 0.100563 0.994931 0.000000
-29.441099 -27.819107 -0.497631 271 0.100563 0.994931 0.000000
-29.441042 -27.819050 -0.447870 291 0.100563 0.994931 0.000000
-29.440487 -27.818531 -0.385664 241 0.100563 0.994931 0.000000
-29.444799 -27.822599 -0.335952 265 0.100563 0.994931 0.000000
-29.442650 -27.820570 -0.323492 241 0.100563 0.994931 0.000000
-29.462181 -27.821325 -0.659654 231 0.100563 0.994931 0.000000
-29.458612 -27.817957 -0.647128 199 0.100563 0.994931 0.000000
-29.458902 -27.818230 -0.634685 183 0.100563 0.994931 0.000000
-29.462616 -27.821737 -0.622319 235 0.100563 0.994931 0.000000
-29.457476 -27.816879 -0.609768 185 0.100563 0.994931 0.000000
-29.459900 -27.819166 -0.597375 205 0.100563 0.994931 0.000000
-29.465139 -27.824112 -0.585025 221 0.100563 0.994931 0.000000
-29.462181 -27.821321 -0.572522 237 0.100563 0.994931 0.000000
-29.461733 -27.820900 -0.560066 205 0.100563 0.994931 0.000000
-29.458601 -27.817942 -0.547566 217 0.100563 0.994931 0.000000
-29.454788 -27.814348 -0.535051 171 0.100563 0.994931 0.000000
-29.459209 -27.818523 -0.522689 229 0.100563 0.994931 0.000000
-29.460934 -27.820150 -0.510273 231 0.100563 0.994931 0.000000
-29.455887 -27.815380 -0.497740 239 0.100563 0.994931 0.000000
-29.454887 -27.814432 -0.485279 217 0.100563 0.994931 0.000000
-29.455576 -27.815081 -0.472853 259 0.100563 0.994931 0.000000
-29.460142 -27.819399 -0.460479 243 0.100563 0.994931 0.000000
-29.464657 -27.823666 -0.448096 255 0.100563 0.994931 0.000000
-29.459757 -27.819029 -0.435582 271 0.100563 0.994931 0.000000
-29.457094 -27.816517 -0.423097 239 0.100563 0.994931 0.000000
-29.456974 -27.816402 -0.410658 229 0.100563 0.994931 0.000000
-29.457056 -27.816481 -0.398217 235 0.100563 0.994931 0.000000
-29.461124 -27.820328 -0.385818 301 0.100563 0.994931 0.000000
-29.455997 -27.815483 -0.373316 241 0.100563 0.994931 0.000000
-29.455013 -27.814562 -0.360855 215 0.100563 0.994931 0.000000
-29.457769 -27.817158 -0.348449 229 0.100563 0.994931 0.000000
-29.454538 -27.814104 -0.335969 233 0.100563 0.994931 0.000000
-29.456541 -27.815994 -0.323550 231 0.100563 0.994931 0.000000
-29.458296 -27.817657 -0.311123 189 0.100563 0.994931 0.000000
-29.461296 -27.820492 -0.298714 197 0.100563 0.994931 0.000000
-29.478037 -27.818264 -0.659816 207 0.100563 0.994931 0.000000
-29.475424 -27.815792 -0.647310 189 0.100563 0.994931 0.000000
-29.472900 -27.813419 -0.634804 187 0.100563 0.994931 0.000000
-29.472725 -27.813246 -0.622355 209 0.100563 0.994931 0.000000
-29.477489 -27.817743 -0.610000 163 0.100563 0.994931 0.000000
-29.476187 -27.816519 -0.597522 223 0.100563 0.994931 0.000000
-29.473026 -27.813538 -0.585011 199 0.100563 0.994931 0.000000
-29.476559 -27.816870 -0.572638 209 0.100563 0.994931 0.000000
-29.478165 -27.818386 -0.560212 213 0.100563 0.994931 0.000000
-29.475742 -27.816097 -0.547725 231 0.100563 0.994931 0.000000
-29.476234 -27.816561 -0.535280 269 0.100563 0.994931 0.000000
-29.478008 -27.818239 -0.522863 231 0.100563 0.994931 0.000000
-29.475737 -27.816084 -0.510374 235 0.100563 0.994931 0.000000
-29.476589 -27.816893 -0.497946 253 0.100563 0.994931 0.000000
-29.475739 -27.816093 -0.485483 245 0.100563 0.994931 0.000000
-29.476160 -27.816486 -0.473039 263 0.100563 0.994931 0.000000
-29.474979 -27.815378 -0.460570 263 0.100563 0.994931 0.000000
-29.470360 -27.811022 -0.448053 217 0.100563 0.994931 0.000000
-29.471304 -27.811907 -0.435624 297 0.100563 0.994931 0.000000
-29.471663 -27.812250 -0.423180 265 0.100563 0.994931 0.000000
-29.475119 -27.815510 -0.410787 263 0.100563 0.994931 0.000000
-29.480106 -27.820210 -0.398410 273 0.100563 0.994931 0.000000
-29.478422 -27.818626 -0.385936 195 0.100563 0.994931 0.000000
-29.473989 -27.814449 -0.373437 247 0.100563 0.994931 0.000000
-29.470617 -27.811268 -0.360949 183 0.100563 0.994931 0.000000
-29.474047 -27.814489 -0.348536 241 0.100563 0.994931 0.000000
-29.475780 -27.816135 -0.336109 223 0.100563 0.994931 0.000000
-29.475943 -27.816292 -0.323668 235 0.100563 0.994931 0.000000
-29.477833 -27.818064 -0.311239 191 0.100563 0.994931 0.000000
-29.477470 -27.817728 -0.298792 197 0.100563 0.994931 0.000000
-29.493515 -27.815163 -0.659969 231 0.100563 0.994931 0.000000
-29.496067 -27.817570 -0.647574 225 0.100563 0.994931 0.000000
-29.494822 -27.816393 -0.635086 181 0.100563 0.994931 0.000000
-29.495598 -27.817127 -0.622648 225 0.100563 0.994931 0.000000
-29.494205 -27.815807 -0.610171 183 0.100563 0.994931 0.000000
-29.491570 -27.813332 -0.597666 173 0.100563 0.994931 0.000000
-29.489086 -27.810991 -0.585159 207 0.100563 0.994931 0.000000
-29.491133 -27.812918 -0.572749 237 0.100563 0.994931 0.000000
-29.494778 -27.816355 -0.560375 251 0.100563 0.994931 0.000000
-29.491711 -27.813461 -0.547863 271 0.100563 0.994931 0.000000
-29.490223 -27.812065 -0.535387 227 0.100563 0.994931 0.000000
-29.490826 -27.812630 -0.522941 273 0.100563 0.994931 0.000000
-29.494349 -27.815945 -0.510558 205 0.100563 0.994931 0.000000
-29.493979 -27.815599 -0.498091 267 0.100563 0.994931 0.000000
-29.490961 -27.812759 -0.485589 257 0.100563 0.994931 0.000000
-29.492458 -27.814157 -0.473165 275 0.100563 0.994931 0.000000
-29.494097 -27.815714 -0.460739 247 0.100563 0.994931 0.000000
-29.490370 -27.812193 -0.448234 243 0.100563 0.994931 0.000000
-29.490297 -27.812130 -0.435784 263 0.100563 0.994931 0.000000
-29.491951 -27.813684 -0.423358 239 0.100563 0.994931 0.000000
-29.491873 -27.813618 -0.410909 257 0.100563 0.994931 0.000000
-29.494257 -27.815859 -0.398486 237 0.100563 0.994931 0.000000
-29.489344 -27.811226 -0.385972 227 0.100563 0.994931 0.000000
-29.487827 -27.809803 -0.373506 227 0.100563 0.994931 0.000000
-29.493872 -27.815498 -0.361128 217 0.100563 0.994931 0.000000
-29.491507 -27.813267 -0.348651 241 0.100563 0.994931 0.000000
-29.487541 -27.809523 -0.336158 217 0.100563 0.994931 0.000000
-29.492767 -27.814459 -0.323758 225 0.100563 0.994931 0.000000
-29.494438 -27.816042 -0.311332 225 0.100563 0.994931 0.000000
-29.491314 -27.813087 -0.298851 181 0.100563 0.994931 0.000000
-29.501919 -27.806391 -0.659974 237 0.100563 0.994931 0.000000
-29.504623 -27.808935 -0.647578 143 0.100563 0.994931 0.000000
-29.505453 -27.809713 -0.635140 201 0.100563 0.994931 0.000000
-29.506128 -27.810352 -0.622703 135 0.100563 0.994931 0.000000
-29.508661 -27.812742 -0.610299 159 0.100563 0.994931 0.000000
-29.512094 -27.815979 -0.597916 203 0.100563 0.994931 0.000000
-29.509396 -27.813438 -0.585401 259 0.100563 0.994931 0.000000
-29.505167 -27.809439 -0.572871 245 0.100563 0.994931 0.000000
-29.504011 -27.808363 -0.560392 225 0.100563 0.994931 0.000000
-29.502544 -27.806971 -0.547915 255 0.100563 0.994931 0.000000
-29.505116 -27.809402 -0.535511 199 0.100563 0.994931 0.000000
-29.505606 -27.809866 -0.523066 199 0.100563 0.994931 0.000000
-29.510035 -27.814034 -0.510684 235 0.100563 0.994931 0.000000
-29.505718 -27.809965 -0.498154 239 0.100563 0.994931 0.000000
-29.502958 -27.807362 -0.485660 243 0.100563 0.994931 0.000000
-29.506420 -27.810623 -0.473267 251 0.100563 0.994931 0.000000
-29.508766 -27.812834 -0.460845 255 0.100563 0.994931 0.000000
-29.513014 -27.816841 -0.448454 227 0.100563 0.994931 0.000000
-29.515566 -27.819244 -0.436040 243 0.100563 0.994931 0.000000
-29.511351 -27.815271 -0.423519 255 0.100563 0.994931 0.000000
-29.508467 -27.812553 -0.411026 239 0.100563 0.994931 0.000000
-29.508873 -27.812946 -0.398572 243 0.100563 0.994931 0.000000
-29.507566 -27.811708 -0.386104 227 0.100563 0.994931 0.000000
-29.505529 -27.809786 -0.373623 237 0.100563 0.994931 0.000000
-29.504860 -27.809158 -0.361169 251 0.100563 0.994931 0.000000
-29.512178 -27.816061 -0.348799 185 0.100563 0.994931 0.000000
-29.512375 -27.816244 -0.336347 213 0.100563 0.994931 0.000000
-29.506104 -27.810333 -0.323826 239 0.100563 0.994931 0.000000
-29.504896 -27.809191 -0.311358 241 0.100563 0.994931 0.000000
-29.508532 -27.812622 -0.298943 241 0.100563 0.994931 0.000000
