774
-7.526340 -7.078358 -0.698661 851 -0.181116 0.983462 0.000000
-7.526224 -7.078260 -0.695462 841 -0.181116 0.983462 0.000000
-7.526643 -7.078647 -0.692308 837 -0.181116 0.983462 0.000000
-7.526794 -7.078791 -0.689136 839 -0.181116 0.983462 0.000000
-7.525981 -7.078027 -0.685884 827 -0.181116 0.983462 0.000000
-7.524915 -7.077020 -0.682594 821 -0.181116 0.983462 0.000000
-7.525328 -7.077415 -0.679450 815 -0.181116 0.983462 0.000000
-7.526752 -7.078754 -0.676387 845 -0.181116 0.983462 0.000000
-7.526111 -7.078143 -0.673142 833 -0.181116 0.983462 0.000000
-7.525608 -7.077681 -0.669917 813 -0.181116 0.983462 0.000000
-7.525860 -7.077907 -0.666755 823 -0.181116 0.983462 0.000000
-7.525640 -7.077699 -0.663547 815 -0.181116 0.983462 0.000000
-7.525989 -7.078029 -0.660393 813 -0.181116 0.983462 0.000000
-7.526243 -7.078269 -0.657231 817 -0.181116 0.983462 0.000000
-7.526923 -7.078905 -0.654104 817 -0.181116 0.983462 0.000000
-7.526805 -7.078793 -0.650905 823 -0.181116 0.983462 0.000000
-7.526356 -7.078376 -0.647680 831 -0.181116 0.983462 0.000000
-7.525694 -7.077760 -0.644446 823 -0.181116 0.983462 0.000000
-7.525458 -7.077539 -0.641238 821 -0.181116 0.983462 0.000000
-7.525657 -7.077721 -0.638076 833 -0.181116 0.983462 0.000000
-7.526164 -7.078205 -0.634931 833 -0.181116 0.983462 0.000000
-7.526252 -7.078285 -0.631750 831 -0.181116 0.983462 0.000000
-7.525968 -7.078013 -0.628543 815 -0.181116 0.983462 0.000000
-7.526419 -7.078439 -0.625398 817 -0.181116 0.983462 0.000000
-7.526191 -7.078225 -0.622200 817 -0.181116 0.983462 0.000000
-7.525363 -7.077449 -0.618948 801 -0.181116 0.983462 0.000000
-7.525758 -7.077816 -0.615794 799 -0.181116 0.983462 0.000000
-7.526748 -7.078753 -0.612685 817 -0.181116 0.983462 0.000000
-7.526890 -7.078878 -0.609514 813 -0.181116 0.983462 0.000000
-7.526797 -7.078799 -0.606324 807 -0.181116 0.983462 0.000000
-7.526671 -7.078681 -0.603135 817 -0.181116 0.983462 0.000000
-7.527012 -7.078990 -0.599972 825 -0.181116 0.983462 0.000000
-7.526775 -7.078770 -0.596774 827 -0.181116 0.983462 0.000000
-7.525988 -7.078039 -0.593532 829 -0.181116 0.983462 0.000000
-7.525860 -7.077908 -0.590333 827 -0.181116 0.983462 0.000000
-7.525933 -7.077975 -0.587162 831 -0.181116 0.983462 0.000000
-7.526061 -7.078100 -0.583991 831 -0.181116 0.983462 0.000000
-7.526456 -7.078468 -0.580837 825 -0.181116 0.983462 0.000000
-7.526316 -7.078337 -0.577638 821 -0.181116 0.983462 0.000000
-7.526333 -7.078361 -0.574458 817 -0.181116 0.983462 0.000000
-7.526144 -7.078178 -0.571260 815 -0.181116 0.983462 0.000000
-7.525513 -7.077588 -0.568036 811 -0.181116 0.983462 0.000000
-7.525633 -7.077707 -0.564864 813 -0.181116 0.983462 0.000000
-7.526029 -7.078074 -0.561711 835 -0.181116 0.983462 0.000000
-7.525832 -7.077885 -0.558512 835 -0.181116 0.983462 0.000000
-7.525683 -7.077748 -0.555324 829 -0.181116 0.983462 0.000000
-7.526340 -7.078366 -0.552187 839 -0.181116 0.983462 0.000000
-7.526673 -7.078682 -0.549024 839 -0.181116 0.983462 0.000000
-7.526682 -7.078686 -0.545844 839 -0.181116 0.983462 0.000000
-7.526431 -7.078453 -0.542646 847 -0.181116 0.983462 0.000000
-7.526336 -7.078360 -0.539457 841 -0.181116 0.983462 0.000000
-7.526393 -7.078415 -0.536287 847 -0.181116 0.983462 0.000000
-7.526354 -7.078381 -0.533097 833 -0.181116 0.983462 0.000000
-7.527058 -7.079035 -0.529970 849 -0.181116 0.983462 0.000000
-7.527122 -7.079096 -0.526790 855 -0.181116 0.983462 0.000000
-7.527717 -7.079663 -0.523654 853 -0.181116 0.983462 0.000000
-7.527030 -7.079014 -0.520420 845 -0.181116 0.983462 0.000000
-7.525806 -7.077868 -0.517162 833 -0.181116 0.983462 0.000000
-7.526289 -7.078318 -0.514007 843 -0.181116 0.983462 0.000000
-7.526408 -7.078424 -0.510836 831 -0.181116 0.983462 0.000000
-7.526354 -7.078376 -0.507656 819 -0.181116 0.983462 0.000000
-7.527154 -7.079134 -0.504529 831 -0.181116 0.983462 0.000000
-7.526894 -7.078882 -0.501331 845 -0.181116 0.983462 0.000000
-7.526949 -7.078937 -0.498150 843 -0.181116 0.983462 0.000000
-7.527378 -7.079343 -0.494996 837 -0.181116 0.983462 0.000000
-7.527592 -7.079538 -0.491834 831 -0.181116 0.983462 0.000000
-7.527902 -7.079836 -0.488671 833 -0.181116 0.983462 0.000000
-7.526899 -7.078893 -0.485431 831 -0.181116 0.983462 0.000000
-7.526940 -7.078936 -0.482250 831 -0.181116 0.983462 0.000000
-7.527526 -7.079482 -0.479105 831 -0.181116 0.983462 0.000000
-7.527369 -7.079340 -0.475916 837 -0.181116 0.983462 0.000000
-7.527686 -7.079630 -0.472763 837 -0.181116 0.983462 0.000000
-7.528271 -7.080176 -0.469617 829 -0.181116 0.983462 0.000000
-7.527940 -7.079866 -0.466410 821 -0.181116 0.983462 0.000000
-7.526978 -7.078969 -0.463179 809 -0.181116 0.983462 0.000000
-7.526648 -7.078660 -0.459982 807 -0.181116 0.983462 0.000000
-7.526853 -7.078848 -0.456810 813 -0.181116 0.983462 0.000000
-7.527061 -7.079051 -0.453648 827 -0.181116 0.983462 0.000000
-7.527369 -7.079335 -0.450485 831 -0.181116 0.983462 0.000000
-7.527094 -7.079083 -0.447288 803 -0.181116 0.983462 0.000000
-7.527031 -7.079016 -0.444108 801 -0.181116 0.983462 0.000000
-7.526970 -7.078962 -0.440929 809 -0.181116 0.983462 0.000000
-7.526529 -7.078551 -0.437723 817 -0.181116 0.983462 0.000000
-7.527421 -7.079385 -0.434595 821 -0.181116 0.983462 0.000000
-7.527250 -7.079229 -0.431406 815 -0.181116 0.983462 0.000000
-7.526815 -7.078810 -0.428200 819 -0.181116 0.983462 0.000000
-7.526745 -7.078750 -0.425021 807 -0.181116 0.983462 0.000000
-7.526943 -7.078931 -0.421849 827 -0.181116 0.983462 0.000000
-7.527410 -7.079370 -0.418704 819 -0.181116 0.983462 0.000000
-7.527917 -7.079853 -0.415549 809 -0.181116 0.983462 0.000000
-7.527642 -7.079588 -0.412352 805 -0.181116 0.983462 0.000000
-7.526924 -7.078914 -0.409139 817 -0.181116 0.983462 0.000000
-7.527542 -7.079499 -0.405993 829 -0.181116 0.983462 0.000000
-7.528222 -7.080135 -0.402846 819 -0.181116 0.983462 0.000000
-7.528468 -7.080369 -0.399684 819 -0.181116 0.983462 0.000000
-7.527909 -7.079849 -0.396479 815 -0.181116 0.983462 0.000000
-7.527948 -7.079877 -0.393299 819 -0.181116 0.983462 0.000000
-7.527713 -7.079658 -0.390111 815 -0.181116 0.983462 0.000000
-7.527525 -7.079489 -0.386922 815 -0.181116 0.983462 0.000000
-7.527494 -7.079461 -0.383743 825 -0.181116 0.983462 0.000000
-7.526570 -7.078581 -0.380521 811 -0.181116 0.983462 0.000000
-7.526596 -7.078611 -0.377351 809 -0.181116 0.983462 0.000000
-7.526311 -7.078339 -0.374153 799 -0.181116 0.983462 0.000000
-7.526391 -7.078413 -0.370983 805 -0.181116 0.983462 0.000000
-7.526788 -7.078794 -0.367829 795 -0.181116 0.983462 0.000000
-7.527555 -7.079514 -0.364682 781 -0.181116 0.983462 0.000000
-7.527848 -7.079785 -0.361519 783 -0.181116 0.983462 0.000000
-7.527440 -7.079412 -0.358323 765 -0.181116 0.983462 0.000000
-7.527313 -7.079281 -0.355144 771 -0.181116 0.983462 0.000000
-7.526802 -7.078812 -0.351948 785 -0.181116 0.983462 0.000000
-7.526557 -7.078572 -0.348761 775 -0.181116 0.983462 0.000000
-7.526637 -7.078646 -0.345580 775 -0.181116 0.983462 0.000000
-7.527081 -7.079065 -0.342426 749 -0.181116 0.983462 0.000000
-7.527998 -7.079932 -0.339287 753 -0.181116 0.983462 0.000000
-7.527960 -7.079896 -0.336117 773 -0.181116 0.983462 0.000000
-7.527930 -7.079868 -0.332937 785 -0.181116 0.983462 0.000000
-7.528104 -7.080032 -0.329766 777 -0.181116 0.983462 0.000000
-7.527536 -7.079492 -0.326561 775 -0.181116 0.983462 0.000000
-7.527823 -7.079771 -0.323398 773 -0.181116 0.983462 0.000000
-7.527887 -7.079832 -0.320227 759 -0.181116 0.983462 0.000000
-7.527367 -7.079343 -0.317032 753 -0.181116 0.983462 0.000000
-7.527328 -7.079309 -0.313852 755 -0.181116 0.983462 0.000000
-7.526808 -7.078820 -0.310657 763 -0.181116 0.983462 0.000000
-7.526604 -7.078625 -0.307469 755 -0.181116 0.983462 0.000000
-7.527797 -7.079740 -0.304338 755 -0.181116 0.983462 0.000000
-7.528391 -7.080307 -0.301192 749 -0.181116 0.983462 0.000000
-7.531920 -7.079272 -0.702160 835 -0.181116 0.983462 0.000000
-7.532174 -7.079512 -0.698998 837 -0.181116 0.983462 0.000000
-7.532381 -7.079714 -0.695826 841 -0.181116 0.983462 0.000000
-7.532792 -7.080094 -0.692672 849 -0.181116 0.983462 0.000000
-7.532676 -7.079997 -0.689473 827 -0.181116 0.983462 0.000000
-7.532194 -7.079540 -0.686247 819 -0.181116 0.983462 0.000000
-7.532282 -7.079620 -0.683066 833 -0.181116 0.983462 0.000000
-7.533026 -7.080320 -0.679939 839 -0.181116 0.983462 0.000000
-7.533122 -7.080407 -0.676758 843 -0.181116 0.983462 0.000000
-7.532467 -7.079796 -0.673514 831 -0.181116 0.983462 0.000000
-7.532026 -7.079384 -0.670288 821 -0.181116 0.983462 0.000000
-7.532011 -7.079369 -0.667098 813 -0.181116 0.983462 0.000000
-7.532699 -7.080011 -0.663972 819 -0.181116 0.983462 0.000000
-7.532897 -7.080193 -0.660800 815 -0.181116 0.983462 0.000000
-7.532882 -7.080177 -0.657610 825 -0.181116 0.983462 0.000000
-7.533390 -7.080661 -0.654465 825 -0.181116 0.983462 0.000000
-7.533587 -7.080843 -0.651303 829 -0.181116 0.983462 0.000000
-7.533470 -7.080731 -0.648104 833 -0.181116 0.983462 0.000000
-7.532485 -7.079815 -0.644834 819 -0.181116 0.983462 0.000000
-7.531775 -7.079147 -0.641590 827 -0.181116 0.983462 0.000000
-7.532186 -7.079528 -0.638436 827 -0.181116 0.983462 0.000000
-7.533434 -7.080700 -0.635354 839 -0.181116 0.983462 0.000000
-7.532512 -7.079835 -0.632093 829 -0.181116 0.983462 0.000000
-7.531904 -7.079262 -0.628859 815 -0.181116 0.983462 0.000000
-7.532624 -7.079944 -0.625732 805 -0.181116 0.983462 0.000000
-7.532602 -7.079923 -0.622542 817 -0.181116 0.983462 0.000000
-7.531299 -7.078698 -0.619254 803 -0.181116 0.983462 0.000000
-7.531545 -7.078932 -0.616082 807 -0.181116 0.983462 0.000000
-7.532794 -7.080106 -0.613000 817 -0.181116 0.983462 0.000000
-7.532826 -7.080128 -0.609819 815 -0.181116 0.983462 0.000000
-7.532527 -7.079857 -0.606612 807 -0.181116 0.983462 0.000000
-7.532237 -7.079579 -0.603395 819 -0.181116 0.983462 0.000000
-7.531676 -7.079045 -0.600170 809 -0.181116 0.983462 0.000000
-7.532341 -7.079668 -0.597034 797 -0.181116 0.983462 0.000000
-7.533527 -7.080791 -0.593943 829 -0.181116 0.983462 0.000000
-7.533235 -7.080513 -0.590735 835 -0.181116 0.983462 0.000000
-7.533473 -7.080740 -0.587573 819 -0.181116 0.983462 0.000000
-7.533175 -7.080456 -0.584366 823 -0.181116 0.983462 0.000000
-7.531809 -7.079182 -0.581078 833 -0.181116 0.983462 0.000000
-7.531936 -7.079293 -0.577897 835 -0.181116 0.983462 0.000000
-7.532538 -7.079866 -0.574761 831 -0.181116 0.983462 0.000000
-7.532824 -7.080132 -0.571599 823 -0.181116 0.983462 0.000000
-7.533645 -7.080895 -0.568471 821 -0.181116 0.983462 0.000000
-7.533978 -7.081212 -0.565318 813 -0.181116 0.983462 0.000000
-7.533781 -7.081024 -0.562119 833 -0.181116 0.983462 0.000000
-7.532953 -7.080247 -0.558877 837 -0.181116 0.983462 0.000000
-7.532591 -7.079912 -0.555660 829 -0.181116 0.983462 0.000000
-7.533082 -7.080369 -0.552516 825 -0.181116 0.983462 0.000000
-7.533043 -7.080335 -0.549326 833 -0.181116 0.983462 0.000000
-7.532673 -7.079993 -0.546119 831 -0.181116 0.983462 0.000000
-7.533488 -7.080751 -0.542992 841 -0.181116 0.983462 0.000000
-7.533670 -7.080920 -0.539820 829 -0.181116 0.983462 0.000000
-7.532344 -7.079677 -0.536542 835 -0.181116 0.983462 0.000000
-7.532140 -7.079483 -0.533354 821 -0.181116 0.983462 0.000000
-7.532899 -7.080195 -0.530217 833 -0.181116 0.983462 0.000000
-7.532956 -7.080250 -0.527036 829 -0.181116 0.983462 0.000000
-7.533707 -7.080957 -0.523909 841 -0.181116 0.983462 0.000000
-7.533076 -7.080367 -0.520685 835 -0.181116 0.983462 0.000000
-7.532871 -7.080171 -0.517487 845 -0.181116 0.983462 0.000000
-7.533348 -7.080629 -0.514342 849 -0.181116 0.983462 0.000000
-7.532882 -7.080185 -0.511127 837 -0.181116 0.983462 0.000000
-7.533200 -7.080490 -0.507964 833 -0.181116 0.983462 0.000000
-7.532995 -7.080295 -0.504765 835 -0.181116 0.983462 0.000000
-7.532357 -7.079698 -0.501541 835 -0.181116 0.983462 0.000000
-7.533052 -7.080347 -0.498405 837 -0.181116 0.983462 0.000000
-7.533273 -7.080547 -0.495243 829 -0.181116 0.983462 0.000000
-7.532848 -7.080148 -0.492027 833 -0.181116 0.983462 0.000000
-7.533317 -7.080600 -0.488882 819 -0.181116 0.983462 0.000000
-7.533587 -7.080853 -0.485709 813 -0.181116 0.983462 0.000000
-7.533744 -7.080989 -0.482538 829 -0.181116 0.983462 0.000000
-7.533264 -7.080546 -0.479332 829 -0.181116 0.983462 0.000000
-7.532515 -7.079847 -0.476099 825 -0.181116 0.983462 0.000000
-7.533257 -7.080534 -0.472962 829 -0.181116 0.983462 0.000000
-7.533788 -7.081036 -0.469817 835 -0.181116 0.983462 0.000000
-7.533679 -7.080931 -0.466628 829 -0.181116 0.983462 0.000000
-7.533183 -7.080474 -0.463423 807 -0.181116 0.983462 0.000000
-7.532701 -7.080018 -0.460207 807 -0.181116 0.983462 0.000000
-7.533705 -7.080954 -0.457088 811 -0.181116 0.983462 0.000000
-7.534015 -7.081252 -0.453925 817 -0.181116 0.983462 0.000000
-7.533644 -7.080897 -0.450718 799 -0.181116 0.983462 0.000000
-7.533889 -7.081131 -0.447556 797 -0.181116 0.983462 0.000000
-7.533615 -7.080879 -0.444358 795 -0.181116 0.983462 0.000000
-7.533387 -7.080666 -0.441170 811 -0.181116 0.983462 0.000000
-7.533751 -7.081007 -0.438007 811 -0.181116 0.983462 0.000000
-7.534060 -7.081292 -0.434844 803 -0.181116 0.983462 0.000000
-7.534053 -7.081282 -0.431664 811 -0.181116 0.983462 0.000000
-7.533714 -7.080966 -0.428467 797 -0.181116 0.983462 0.000000
-7.533273 -7.080555 -0.425261 807 -0.181116 0.983462 0.000000
-7.533741 -7.080993 -0.422107 809 -0.181116 0.983462 0.000000
-7.534579 -7.081783 -0.418968 825 -0.181116 0.983462 0.000000
-7.533600 -7.080859 -0.415738 815 -0.181116 0.983462 0.000000
-7.533633 -7.080895 -0.412557 803 -0.181116 0.983462 0.000000
-7.534526 -7.081729 -0.409429 811 -0.181116 0.983462 0.000000
-7.534821 -7.082015 -0.406266 809 -0.181116 0.983462 0.000000
-7.534695 -7.081897 -0.403077 807 -0.181116 0.983462 0.000000
-7.533986 -7.081230 -0.399854 805 -0.181116 0.983462 0.000000
-7.533860 -7.081111 -0.396675 809 -0.181116 0.983462 0.000000
-7.534414 -7.081632 -0.393519 815 -0.181116 0.983462 0.000000
-7.534612 -7.081814 -0.390348 803 -0.181116 0.983462 0.000000
-7.534646 -7.081851 -0.387177 807 -0.181116 0.983462 0.000000
-7.534456 -7.081668 -0.383979 817 -0.181116 0.983462 0.000000
-7.534062 -7.081294 -0.380782 799 -0.181116 0.983462 0.000000
-7.533565 -7.080825 -0.377577 803 -0.181116 0.983462 0.000000
-7.533321 -7.080598 -0.374389 801 -0.181116 0.983462 0.000000
-7.534365 -7.081580 -0.371259 807 -0.181116 0.983462 0.000000
-7.534706 -7.081903 -0.368096 795 -0.181116 0.983462 0.000000
-7.534463 -7.081677 -0.364908 787 -0.181116 0.983462 0.000000
-7.535340 -7.082498 -0.361770 785 -0.181116 0.983462 0.000000
-7.534836 -7.082022 -0.358565 781 -0.181116 0.983462 0.000000
-7.533676 -7.080939 -0.355335 753 -0.181116 0.983462 0.000000
-7.534128 -7.081366 -0.352181 751 -0.181116 0.983462 0.000000
-7.534682 -7.081887 -0.349026 767 -0.181116 0.983462 0.000000
-7.534754 -7.081954 -0.345845 779 -0.181116 0.983462 0.000000
-7.534036 -7.081280 -0.342642 771 -0.181116 0.983462 0.000000
-7.533680 -7.080937 -0.339445 755 -0.181116 0.983462 0.000000
-7.533912 -7.081159 -0.336273 761 -0.181116 0.983462 0.000000
-7.533983 -7.081226 -0.333102 761 -0.181116 0.983462 0.000000
-7.534104 -7.081346 -0.329931 769 -0.181116 0.983462 0.000000
-7.534705 -7.081904 -0.326775 763 -0.181116 0.983462 0.000000
-7.535638 -7.082784 -0.323636 767 -0.181116 0.983462 0.000000
-7.535756 -7.082889 -0.320455 763 -0.181116 0.983462 0.000000
-7.534274 -7.081506 -0.317219 755 -0.181116 0.983462 0.000000
-7.532797 -7.080116 -0.313983 757 -0.181116 0.983462 0.000000
-7.532814 -7.080125 -0.310803 765 -0.181116 0.983462 0.000000
-7.533993 -7.081243 -0.307671 761 -0.181116 0.983462 0.000000
-7.534545 -7.081749 -0.304516 753 -0.181116 0.983462 0.000000
-7.534334 -7.081562 -0.301338 749 -0.181116 0.983462 0.000000
-7.538331 -7.080970 -0.702552 825 -0.181116 0.983462 0.000000
-7.537786 -7.080462 -0.699307 829 -0.181116 0.983462 0.000000
-7.538316 -7.080950 -0.696162 827 -0.181116 0.983462 0.000000
-7.538419 -7.081043 -0.692981 835 -0.181116 0.983462 0.000000
-7.538357 -7.080989 -0.689791 821 -0.181116 0.983462 0.000000
-7.538239 -7.080878 -0.686592 821 -0.181116 0.983462 0.000000
-7.538660 -7.081278 -0.683438 831 -0.181116 0.983462 0.000000
-7.539498 -7.082068 -0.680320 835 -0.181116 0.983462 0.000000
-7.538851 -7.081451 -0.677076 823 -0.181116 0.983462 0.000000
-7.538307 -7.080943 -0.673841 821 -0.181116 0.983462 0.000000
-7.538933 -7.081535 -0.670705 825 -0.181116 0.983462 0.000000
-7.538697 -7.081315 -0.667497 813 -0.181116 0.983462 0.000000
-7.538951 -7.081555 -0.664325 819 -0.181116 0.983462 0.000000
-7.539101 -7.081685 -0.661153 819 -0.181116 0.983462 0.000000
-7.538557 -7.081177 -0.657918 815 -0.181116 0.983462 0.000000
-7.538858 -7.081455 -0.654756 833 -0.181116 0.983462 0.000000
-7.538891 -7.081491 -0.651565 823 -0.181116 0.983462 0.000000
-7.539199 -7.081775 -0.648402 823 -0.181116 0.983462 0.000000
-7.539335 -7.081907 -0.645231 815 -0.181116 0.983462 0.000000
-7.539533 -7.082089 -0.642049 821 -0.181116 0.983462 0.000000
-7.539779 -7.082323 -0.638887 823 -0.181116 0.983462 0.000000
-7.539702 -7.082257 -0.635687 837 -0.181116 0.983462 0.000000
-7.539094 -7.081685 -0.632453 827 -0.181116 0.983462 0.000000
-7.538858 -7.081465 -0.629245 821 -0.181116 0.983462 0.000000
-7.538575 -7.081192 -0.626037 805 -0.181116 0.983462 0.000000
-7.538077 -7.080723 -0.622812 799 -0.181116 0.983462 0.000000
-7.539059 -7.081654 -0.619703 801 -0.181116 0.983462 0.000000
-7.539455 -7.082022 -0.616549 821 -0.181116 0.983462 0.000000
-7.538682 -7.081304 -0.613296 819 -0.181116 0.983462 0.000000
-7.538501 -7.081128 -0.610098 811 -0.181116 0.983462 0.000000
-7.539118 -7.081699 -0.606952 807 -0.181116 0.983462 0.000000
-7.539679 -7.082227 -0.603817 803 -0.181116 0.983462 0.000000
-7.539909 -7.082448 -0.600644 823 -0.181116 0.983462 0.000000
-7.539397 -7.081965 -0.597419 799 -0.181116 0.983462 0.000000
-7.539477 -7.082039 -0.594238 807 -0.181116 0.983462 0.000000
-7.539495 -7.082063 -0.591048 837 -0.181116 0.983462 0.000000
-7.539526 -7.082085 -0.587868 835 -0.181116 0.983462 0.000000
-7.539014 -7.081602 -0.584642 831 -0.181116 0.983462 0.000000
-7.538708 -7.081326 -0.581435 819 -0.181116 0.983462 0.000000
-7.539152 -7.081745 -0.578281 819 -0.181116 0.983462 0.000000
-7.538914 -7.081511 -0.575073 833 -0.181116 0.983462 0.000000
-7.539786 -7.082340 -0.571955 833 -0.181116 0.983462 0.000000
-7.540125 -7.082649 -0.568792 809 -0.181116 0.983462 0.000000
-7.539330 -7.081913 -0.565549 783 -0.181116 0.983462 0.000000
-7.538397 -7.081027 -0.562298 801 -0.181116 0.983462 0.000000
-7.538249 -7.080889 -0.559099 803 -0.181116 0.983462 0.000000
-7.538754 -7.081358 -0.555954 807 -0.181116 0.983462 0.000000
-7.538867 -7.081471 -0.552773 813 -0.181116 0.983462 0.000000
-7.539090 -7.081686 -0.549601 825 -0.181116 0.983462 0.000000
-7.539642 -7.082193 -0.546456 835 -0.181116 0.983462 0.000000
-7.540608 -7.083113 -0.543346 843 -0.181116 0.983462 0.000000
-7.539448 -7.082016 -0.540077 837 -0.181116 0.983462 0.000000
-7.538611 -7.081234 -0.536835 837 -0.181116 0.983462 0.000000
-7.539576 -7.082138 -0.533716 837 -0.181116 0.983462 0.000000
-7.539797 -7.082339 -0.530544 845 -0.181116 0.983462 0.000000
-7.540179 -7.082708 -0.527390 843 -0.181116 0.983462 0.000000
-7.540298 -7.082813 -0.524209 811 -0.181116 0.983462 0.000000
-7.539287 -7.081864 -0.520958 829 -0.181116 0.983462 0.000000
-7.538546 -7.081171 -0.517725 841 -0.181116 0.983462 0.000000
-7.538177 -7.080830 -0.514519 835 -0.181116 0.983462 0.000000
-7.538770 -7.081383 -0.511373 843 -0.181116 0.983462 0.000000
-7.539411 -7.081987 -0.508227 835 -0.181116 0.983462 0.000000
-7.539158 -7.081740 -0.505029 825 -0.181116 0.983462 0.000000
-7.538678 -7.081297 -0.501814 813 -0.181116 0.983462 0.000000
-7.538789 -7.081397 -0.498632 815 -0.181116 0.983462 0.000000
-7.538577 -7.081195 -0.495444 809 -0.181116 0.983462 0.000000
-7.538466 -7.081089 -0.492255 825 -0.181116 0.983462 0.000000
-7.539115 -7.081700 -0.489109 819 -0.181116 0.983462 0.000000
-7.539639 -7.082196 -0.485954 817 -0.181116 0.983462 0.000000
-7.539639 -7.082193 -0.482774 845 -0.181116 0.983462 0.000000
-7.539798 -7.082344 -0.479603 829 -0.181116 0.983462 0.000000
-7.539737 -7.082291 -0.476413 829 -0.181116 0.983462 0.000000
-7.539634 -7.082191 -0.473224 839 -0.181116 0.983462 0.000000
-7.539676 -7.082233 -0.470043 829 -0.181116 0.983462 0.000000
-7.539297 -7.081872 -0.466837 825 -0.181116 0.983462 0.000000
-7.538548 -7.081173 -0.463614 801 -0.181116 0.983462 0.000000
-7.538651 -7.081266 -0.460433 789 -0.181116 0.983462 0.000000
-7.539656 -7.082216 -0.457313 805 -0.181116 0.983462 0.000000
-7.539697 -7.082258 -0.454133 803 -0.181116 0.983462 0.000000
-7.539366 -7.081948 -0.450926 795 -0.181116 0.983462 0.000000
-7.539896 -7.082437 -0.447781 811 -0.181116 0.983462 0.000000
-7.540095 -7.082633 -0.444609 809 -0.181116 0.983462 0.000000
-7.539290 -7.081876 -0.441376 799 -0.181116 0.983462 0.000000
-7.539116 -7.081706 -0.438188 809 -0.181116 0.983462 0.000000
-7.539583 -7.082144 -0.435034 811 -0.181116 0.983462 0.000000
-7.539948 -7.082486 -0.431870 825 -0.181116 0.983462 0.000000
-7.539025 -7.081620 -0.428639 809 -0.181116 0.983462 0.000000
-7.538686 -7.081305 -0.425442 793 -0.181116 0.983462 0.000000
-7.539629 -7.082191 -0.422303 807 -0.181116 0.983462 0.000000
-7.539779 -7.082335 -0.419131 813 -0.181116 0.983462 0.000000
-7.539598 -7.082159 -0.415943 803 -0.181116 0.983462 0.000000
-7.539639 -7.082201 -0.412762 797 -0.181116 0.983462 0.000000
-7.540208 -7.082735 -0.409607 821 -0.181116 0.983462 0.000000
-7.541204 -7.083665 -0.406478 817 -0.181116 0.983462 0.000000
-7.541016 -7.083496 -0.403289 807 -0.181116 0.983462 0.000000
-7.539722 -7.082279 -0.400041 785 -0.181116 0.983462 0.000000
-7.539597 -7.082160 -0.396852 783 -0.181116 0.983462 0.000000
-7.540372 -7.082887 -0.393715 791 -0.181116 0.983462 0.000000
-7.540349 -7.082864 -0.390525 785 -0.181116 0.983462 0.000000
-7.539577 -7.082146 -0.387312 783 -0.181116 0.983462 0.000000
-7.539238 -7.081831 -0.384116 793 -0.181116 0.983462 0.000000
-7.539903 -7.082454 -0.380969 795 -0.181116 0.983462 0.000000
-7.540147 -7.082674 -0.377797 801 -0.181116 0.983462 0.000000
-7.539003 -7.081604 -0.374557 783 -0.181116 0.983462 0.000000
-7.539778 -7.082329 -0.371420 781 -0.181116 0.983462 0.000000
-7.540545 -7.083048 -0.368273 785 -0.181116 0.983462 0.000000
-7.539773 -7.082330 -0.365060 761 -0.181116 0.983462 0.000000
-7.540279 -7.082800 -0.361895 765 -0.181116 0.983462 0.000000
-7.540991 -7.083475 -0.358748 771 -0.181116 0.983462 0.000000
-7.540748 -7.083249 -0.355561 739 -0.181116 0.983462 0.000000
-7.541096 -7.083564 -0.352397 751 -0.181116 0.983462 0.000000
-7.541374 -7.083838 -0.349225 751 -0.181116 0.983462 0.000000
-7.541137 -7.083603 -0.346037 741 -0.181116 0.983462 0.000000
-7.540729 -7.083230 -0.342831 745 -0.181116 0.983462 0.000000
-7.540856 -7.083343 -0.339659 739 -0.181116 0.983462 0.000000
-7.540927 -7.083410 -0.336479 751 -0.181116 0.983462 0.000000
-7.540574 -7.083082 -0.333292 769 -0.181116 0.983462 0.000000
-7.540274 -7.082797 -0.330095 753 -0.181116 0.983462 0.000000
-7.540931 -7.083414 -0.326938 775 -0.181116 0.983462 0.000000
-7.541105 -7.083577 -0.323767 757 -0.181116 0.983462 0.000000
-7.540428 -7.082949 -0.320563 749 -0.181116 0.983462 0.000000
-7.540333 -7.082856 -0.317374 771 -0.181116 0.983462 0.000000
-7.539600 -7.082170 -0.314170 771 -0.181116 0.983462 0.000000
-7.539404 -7.081981 -0.310982 771 -0.181116 0.983462 0.000000
-7.539729 -7.082291 -0.307819 755 -0.181116 0.983462 0.000000
-7.540275 -7.082807 -0.304654 753 -0.181116 0.983462 0.000000
-7.540876 -7.083366 -0.301498 753 -0.181116 0.983462 0.000000
-7.545655 -7.083509 -0.703024 837 -0.181116 0.983462 0.000000
-7.544685 -7.082606 -0.699743 831 -0.181116 0.983462 0.000000
-7.544314 -7.082251 -0.696517 821 -0.181116 0.983462 0.000000
-7.544789 -7.082695 -0.693362 829 -0.181116 0.983462 0.000000
-7.544293 -7.082239 -0.690127 831 -0.181116 0.983462 0.000000
-7.544074 -7.082032 -0.686919 835 -0.181116 0.983462 0.000000
-7.544438 -7.082374 -0.683755 813 -0.181116 0.983462 0.000000
-7.544905 -7.082812 -0.680611 827 -0.181116 0.983462 0.000000
-7.544952 -7.082847 -0.677420 813 -0.181116 0.983462 0.000000
-7.544621 -7.082537 -0.674203 795 -0.181116 0.983462 0.000000
-7.544394 -7.082323 -0.670996 809 -0.181116 0.983462 0.000000
-7.545081 -7.082965 -0.667859 835 -0.181116 0.983462 0.000000
-7.545114 -7.083001 -0.664669 831 -0.181116 0.983462 0.000000
-7.543819 -7.081784 -0.661371 809 -0.181116 0.983462 0.000000
-7.544491 -7.082413 -0.658234 811 -0.181116 0.983462 0.000000
-7.545173 -7.083064 -0.655108 819 -0.181116 0.983462 0.000000
-7.544779 -7.082690 -0.651881 809 -0.181116 0.983462 0.000000
-7.545885 -7.083722 -0.648781 821 -0.181116 0.983462 0.000000
-7.546715 -7.084505 -0.645663 831 -0.181116 0.983462 0.000000
-7.545841 -7.083691 -0.642401 827 -0.181116 0.983462 0.000000
-7.545192 -7.083073 -0.639157 823 -0.181116 0.983462 0.000000
-7.545218 -7.083103 -0.635967 831 -0.181116 0.983462 0.000000
-7.545890 -7.083733 -0.632831 835 -0.181116 0.983462 0.000000
-7.545979 -7.083813 -0.629650 831 -0.181116 0.983462 0.000000
-7.544786 -7.082691 -0.626361 795 -0.181116 0.983462 0.000000
-7.544652 -7.082567 -0.623162 795 -0.181116 0.983462 0.000000
-7.545532 -7.083402 -0.620044 811 -0.181116 0.983462 0.000000
-7.545722 -7.083578 -0.616872 809 -0.181116 0.983462 0.000000
-7.545746 -7.083594 -0.613682 811 -0.181116 0.983462 0.000000
-7.545456 -7.083329 -0.610474 803 -0.181116 0.983462 0.000000
-7.544903 -7.082801 -0.607239 797 -0.181116 0.983462 0.000000
-7.545085 -7.082971 -0.604068 797 -0.181116 0.983462 0.000000
-7.545750 -7.083594 -0.600931 817 -0.181116 0.983462 0.000000
-7.545719 -7.083566 -0.597741 815 -0.181116 0.983462 0.000000
-7.545523 -7.083391 -0.594533 821 -0.181116 0.983462 0.000000
-7.545555 -7.083413 -0.591353 831 -0.181116 0.983462 0.000000
-7.545944 -7.083788 -0.588189 827 -0.181116 0.983462 0.000000
-7.545707 -7.083554 -0.584981 815 -0.181116 0.983462 0.000000
-7.544603 -7.082530 -0.581711 807 -0.181116 0.983462 0.000000
-7.544256 -7.082193 -0.578505 821 -0.181116 0.983462 0.000000
-7.545599 -7.083456 -0.575412 833 -0.181116 0.983462 0.000000
-7.546794 -7.084585 -0.572311 831 -0.181116 0.983462 0.000000
-7.546062 -7.083899 -0.569067 807 -0.181116 0.983462 0.000000
-7.545872 -7.083716 -0.565869 801 -0.181116 0.983462 0.000000
-7.545675 -7.083528 -0.562671 797 -0.181116 0.983462 0.000000
-7.545100 -7.082995 -0.559436 793 -0.181116 0.983462 0.000000
-7.544951 -7.082858 -0.556248 797 -0.181116 0.983462 0.000000
-7.545340 -7.083220 -0.553084 817 -0.181116 0.983462 0.000000
-7.546161 -7.083982 -0.549956 811 -0.181116 0.983462 0.000000
-7.546494 -7.084299 -0.546793 813 -0.181116 0.983462 0.000000
-7.545918 -7.083753 -0.543558 819 -0.181116 0.983462 0.000000
-7.545604 -7.083470 -0.540351 817 -0.181116 0.983462 0.000000
-7.545834 -7.083677 -0.537189 809 -0.181116 0.983462 0.000000
-7.545676 -7.083533 -0.533990 821 -0.181116 0.983462 0.000000
-7.546167 -7.083991 -0.530836 829 -0.181116 0.983462 0.000000
-7.546824 -7.084608 -0.527689 827 -0.181116 0.983462 0.000000
-7.546454 -7.084267 -0.524483 809 -0.181116 0.983462 0.000000
-7.546463 -7.084270 -0.521293 835 -0.181116 0.983462 0.000000
-7.545990 -7.083833 -0.518077 819 -0.181116 0.983462 0.000000
-7.546102 -7.083932 -0.514896 825 -0.181116 0.983462 0.000000
-7.546474 -7.084280 -0.511732 835 -0.181116 0.983462 0.000000
-7.546269 -7.084085 -0.508534 843 -0.181116 0.983462 0.000000
-7.546373 -7.084191 -0.505363 839 -0.181116 0.983462 0.000000
-7.546595 -7.084393 -0.502191 833 -0.181116 0.983462 0.000000
-7.546383 -7.084192 -0.498983 823 -0.181116 0.983462 0.000000
-7.546075 -7.083900 -0.495786 817 -0.181116 0.983462 0.000000
-7.546440 -7.084243 -0.492622 821 -0.181116 0.983462 0.000000
-7.546434 -7.084248 -0.489432 835 -0.181116 0.983462 0.000000
-7.546173 -7.083995 -0.486234 833 -0.181116 0.983462 0.000000
-7.545583 -7.083449 -0.483010 825 -0.181116 0.983462 0.000000
-7.545527 -7.083388 -0.479820 823 -0.181116 0.983462 0.000000
-7.546161 -7.083986 -0.476674 823 -0.181116 0.983462 0.000000
-7.545894 -7.083741 -0.473477 813 -0.181116 0.983462 0.000000
-7.546589 -7.084389 -0.470330 825 -0.181116 0.983462 0.000000
-7.547112 -7.084886 -0.467175 823 -0.181116 0.983462 0.000000
-7.545825 -7.083674 -0.463917 801 -0.181116 0.983462 0.000000
-7.546087 -7.083921 -0.460745 801 -0.181116 0.983462 0.000000
-7.546403 -7.084211 -0.457582 793 -0.181116 0.983462 0.000000
-7.546018 -7.083858 -0.454375 795 -0.181116 0.983462 0.000000
-7.545742 -7.083592 -0.451178 801 -0.181116 0.983462 0.000000
-7.545894 -7.083736 -0.447996 799 -0.181116 0.983462 0.000000
-7.546740 -7.084533 -0.444868 805 -0.181116 0.983462 0.000000
-7.546835 -7.084619 -0.441687 799 -0.181116 0.983462 0.000000
-7.546133 -7.083958 -0.438464 799 -0.181116 0.983462 0.000000
-7.546387 -7.084198 -0.435291 821 -0.181116 0.983462 0.000000
-7.547170 -7.084929 -0.432154 819 -0.181116 0.983462 0.000000
-7.546736 -7.084524 -0.428938 805 -0.181116 0.983462 0.000000
-7.546928 -7.084713 -0.425766 797 -0.181116 0.983462 0.000000
-7.547127 -7.084896 -0.422594 799 -0.181116 0.983462 0.000000
-7.546850 -7.084630 -0.419397 807 -0.181116 0.983462 0.000000
-7.546450 -7.084264 -0.416190 803 -0.181116 0.983462 0.000000
-7.546222 -7.084051 -0.412992 793 -0.181116 0.983462 0.000000
-7.546792 -7.084585 -0.409847 801 -0.181116 0.983462 0.000000
-7.546878 -7.084664 -0.406666 799 -0.181116 0.983462 0.000000
-7.546801 -7.084598 -0.403477 785 -0.181116 0.983462 0.000000
-7.547213 -7.084978 -0.400313 793 -0.181116 0.983462 0.000000
-7.547624 -7.085358 -0.397149 793 -0.181116 0.983462 0.000000
-7.548083 -7.085789 -0.393994 781 -0.181116 0.983462 0.000000
-7.547365 -7.085116 -0.390771 777 -0.181116 0.983462 0.000000
-7.546490 -7.084302 -0.387549 787 -0.181116 0.983462 0.000000
-7.546832 -7.084626 -0.384376 783 -0.181116 0.983462 0.000000
-7.546389 -7.084199 -0.381180 785 -0.181116 0.983462 0.000000
-7.546896 -7.084683 -0.378015 779 -0.181116 0.983462 0.000000
-7.547615 -7.085351 -0.374868 773 -0.181116 0.983462 0.000000
-7.547214 -7.084984 -0.371672 781 -0.181116 0.983462 0.000000
-7.547933 -7.085652 -0.368515 773 -0.181116 0.983462 0.000000
-7.548172 -7.085879 -0.365343 767 -0.181116 0.983462 0.000000
-7.547508 -7.085249 -0.362129 765 -0.181116 0.983462 0.000000
-7.546831 -7.084621 -0.358915 761 -0.181116 0.983462 0.000000
-7.546698 -7.084496 -0.355726 743 -0.181116 0.983462 0.000000
-7.547575 -7.085318 -0.352588 765 -0.181116 0.983462 0.000000
-7.547978 -7.085691 -0.349424 757 -0.181116 0.983462 0.000000
-7.547032 -7.084807 -0.346203 735 -0.181116 0.983462 0.000000
-7.546576 -7.084383 -0.342997 735 -0.181116 0.983462 0.000000
-7.547445 -7.085198 -0.339849 741 -0.181116 0.983462 0.000000
-7.547943 -7.085661 -0.336694 753 -0.181116 0.983462 0.000000
-7.548223 -7.085934 -0.333522 765 -0.181116 0.983462 0.000000
-7.547976 -7.085693 -0.330324 779 -0.181116 0.983462 0.000000
-7.547307 -7.085072 -0.327120 767 -0.181116 0.983462 0.000000
-7.548549 -7.086238 -0.323988 769 -0.181116 0.983462 0.000000
-7.548937 -7.086600 -0.320825 765 -0.181116 0.983462 0.000000
-7.547296 -7.085063 -0.317570 757 -0.181116 0.983462 0.000000
-7.546885 -7.084676 -0.314374 757 -0.181116 0.983462 0.000000
-7.547004 -7.084782 -0.311193 765 -0.181116 0.983462 0.000000
-7.546958 -7.084741 -0.308013 751 -0.181116 0.983462 0.000000
-7.546232 -7.084060 -0.304800 737 -0.181116 0.983462 0.000000
-7.546558 -7.084371 -0.301636 739 -0.181116 0.983462 0.000000
-7.551030 -7.084292 -0.703315 825 -0.181116 0.983462 0.000000
-7.550494 -7.083791 -0.700070 805 -0.181116 0.983462 0.000000
-7.551388 -7.084639 -0.696962 809 -0.181116 0.983462 0.000000
-7.551918 -7.085127 -0.693817 825 -0.181116 0.983462 0.000000
-7.551587 -7.084818 -0.690590 833 -0.181116 0.983462 0.000000
-7.551469 -7.084706 -0.687391 827 -0.181116 0.983462 0.000000
-7.551566 -7.084806 -0.684200 817 -0.181116 0.983462 0.000000
-7.551875 -7.085091 -0.681037 817 -0.181116 0.983462 0.000000
-7.551385 -7.084627 -0.677801 801 -0.181116 0.983462 0.000000
-7.551276 -7.084522 -0.674602 795 -0.181116 0.983462 0.000000
-7.551309 -7.084558 -0.671412 817 -0.181116 0.983462 0.000000
-7.551460 -7.084702 -0.668230 811 -0.181116 0.983462 0.000000
-7.552022 -7.085229 -0.665085 825 -0.181116 0.983462 0.000000
-7.550948 -7.084216 -0.661805 801 -0.181116 0.983462 0.000000
-7.550032 -7.083356 -0.658534 795 -0.181116 0.983462 0.000000
-7.550389 -7.083693 -0.655370 815 -0.181116 0.983462 0.000000
-7.551813 -7.085032 -0.652297 833 -0.181116 0.983462 0.000000
-7.552595 -7.085764 -0.649169 833 -0.181116 0.983462 0.000000
-7.552036 -7.085244 -0.645934 811 -0.181116 0.983462 0.000000
-7.551595 -7.084832 -0.642699 797 -0.181116 0.983462 0.000000
-7.551736 -7.084956 -0.639527 803 -0.181116 0.983462 0.000000
-7.550703 -7.083988 -0.636247 803 -0.181116 0.983462 0.000000
-7.550042 -7.083372 -0.633003 811 -0.181116 0.983462 0.000000
-7.550865 -7.084149 -0.629875 801 -0.181116 0.983462 0.000000
-7.551702 -7.084926 -0.626757 783 -0.181116 0.983462 0.000000
-7.552794 -7.085958 -0.623647 797 -0.181116 0.983462 0.000000
-7.552186 -7.085387 -0.620412 795 -0.181116 0.983462 0.000000
-7.551247 -7.084508 -0.617141 803 -0.181116 0.983462 0.000000
-7.551445 -7.084690 -0.613969 825 -0.181116 0.983462 0.000000
-7.551628 -7.084860 -0.610797 821 -0.181116 0.983462 0.000000
-7.551446 -7.084684 -0.607589 797 -0.181116 0.983462 0.000000
-7.551092 -7.084355 -0.604372 809 -0.181116 0.983462 0.000000
-7.551393 -7.084633 -0.601199 813 -0.181116 0.983462 0.000000
-7.551680 -7.084913 -0.598037 815 -0.181116 0.983462 0.000000
-7.552075 -7.085280 -0.594873 819 -0.181116 0.983462 0.000000
-7.552257 -7.085449 -0.591701 819 -0.181116 0.983462 0.000000
-7.552173 -7.085377 -0.588502 817 -0.181116 0.983462 0.000000
-7.551983 -7.085194 -0.585303 809 -0.181116 0.983462 0.000000
-7.551843 -7.085063 -0.582095 827 -0.181116 0.983462 0.000000
-7.551755 -7.084977 -0.578906 831 -0.181116 0.983462 0.000000
-7.552049 -7.085249 -0.575733 815 -0.181116 0.983462 0.000000
-7.552279 -7.085470 -0.572560 805 -0.181116 0.983462 0.000000
-7.552083 -7.085281 -0.569362 803 -0.181116 0.983462 0.000000
-7.552258 -7.085445 -0.566181 797 -0.181116 0.983462 0.000000
-7.551951 -7.085168 -0.562973 799 -0.181116 0.983462 0.000000
-7.551603 -7.084831 -0.559756 789 -0.181116 0.983462 0.000000
-7.551978 -7.085195 -0.556593 797 -0.181116 0.983462 0.000000
-7.551567 -7.084807 -0.553377 803 -0.181116 0.983462 0.000000
-7.551047 -7.084319 -0.550151 803 -0.181116 0.983462 0.000000
-7.551704 -7.084937 -0.547005 805 -0.181116 0.983462 0.000000
-7.551238 -7.084492 -0.543790 807 -0.181116 0.983462 0.000000
-7.550828 -7.084105 -0.540573 791 -0.181116 0.983462 0.000000
-7.551476 -7.084715 -0.537427 797 -0.181116 0.983462 0.000000
-7.551541 -7.084776 -0.534247 819 -0.181116 0.983462 0.000000
-7.551969 -7.085183 -0.531082 819 -0.181116 0.983462 0.000000
-7.551503 -7.084739 -0.527867 811 -0.181116 0.983462 0.000000
-7.550974 -7.084243 -0.524642 809 -0.181116 0.983462 0.000000
-7.552257 -7.085456 -0.521539 827 -0.181116 0.983462 0.000000
-7.553022 -7.086161 -0.518402 833 -0.181116 0.983462 0.000000
-7.552440 -7.085622 -0.515178 827 -0.181116 0.983462 0.000000
-7.551856 -7.085069 -0.511953 827 -0.181116 0.983462 0.000000
-7.552022 -7.085226 -0.508771 823 -0.181116 0.983462 0.000000
-7.551700 -7.084923 -0.505564 825 -0.181116 0.983462 0.000000
-7.552073 -7.085286 -0.502401 835 -0.181116 0.983462 0.000000
-7.552343 -7.085538 -0.499238 827 -0.181116 0.983462 0.000000
-7.551918 -7.085139 -0.496022 819 -0.181116 0.983462 0.000000
-7.552454 -7.085633 -0.492867 817 -0.181116 0.983462 0.000000
-7.552875 -7.086034 -0.489703 825 -0.181116 0.983462 0.000000
-7.552457 -7.085641 -0.486497 823 -0.181116 0.983462 0.000000
-7.552671 -7.085836 -0.483315 823 -0.181116 0.983462 0.000000
-7.553035 -7.086178 -0.480151 825 -0.181116 0.983462 0.000000
-7.552286 -7.085479 -0.476918 803 -0.181116 0.983462 0.000000
-7.553084 -7.086223 -0.473781 803 -0.181116 0.983462 0.000000
-7.553402 -7.086528 -0.470618 809 -0.181116 0.983462 0.000000
-7.551854 -7.085067 -0.467332 793 -0.181116 0.983462 0.000000
-7.551468 -7.084713 -0.464125 779 -0.181116 0.983462 0.000000
-7.552852 -7.086007 -0.461022 797 -0.181116 0.983462 0.000000
-7.553587 -7.086701 -0.457875 799 -0.181116 0.983462 0.000000
-7.553052 -7.086200 -0.454660 797 -0.181116 0.983462 0.000000
-7.552988 -7.086132 -0.451471 797 -0.181116 0.983462 0.000000
-7.553140 -7.086277 -0.448299 799 -0.181116 0.983462 0.000000
-7.553124 -7.086260 -0.445109 815 -0.181116 0.983462 0.000000
-7.553174 -7.086309 -0.441929 813 -0.181116 0.983462 0.000000
-7.552361 -7.085546 -0.438697 811 -0.181116 0.983462 0.000000
-7.552458 -7.085646 -0.435516 813 -0.181116 0.983462 0.000000
-7.552332 -7.085528 -0.432317 793 -0.181116 0.983462 0.000000
-7.552056 -7.085262 -0.429119 801 -0.181116 0.983462 0.000000
-7.552949 -7.086096 -0.425981 805 -0.181116 0.983462 0.000000
-7.552880 -7.086037 -0.422791 805 -0.181116 0.983462 0.000000
-7.552218 -7.085421 -0.419577 797 -0.181116 0.983462 0.000000
-7.552052 -7.085257 -0.416379 795 -0.181116 0.983462 0.000000
-7.552346 -7.085543 -0.413206 795 -0.181116 0.983462 0.000000
-7.552916 -7.086076 -0.410051 793 -0.181116 0.983462 0.000000
-7.552791 -7.085958 -0.406862 793 -0.181116 0.983462 0.000000
-7.552657 -7.085834 -0.403673 775 -0.181116 0.983462 0.000000
-7.552650 -7.085824 -0.400483 781 -0.181116 0.983462 0.000000
-7.552304 -7.085503 -0.397286 787 -0.181116 0.983462 0.000000
-7.552597 -7.085774 -0.394113 781 -0.181116 0.983462 0.000000
-7.553600 -7.086710 -0.390974 789 -0.181116 0.983462 0.000000
-7.553516 -7.086638 -0.387784 781 -0.181116 0.983462 0.000000
-7.552156 -7.085356 -0.384537 773 -0.181116 0.983462 0.000000
-7.552190 -7.085392 -0.381357 771 -0.181116 0.983462 0.000000
-7.553288 -7.086417 -0.378226 777 -0.181116 0.983462 0.000000
-7.554119 -7.087201 -0.375079 785 -0.181116 0.983462 0.000000
-7.554089 -7.087173 -0.371889 787 -0.181116 0.983462 0.000000
-7.552889 -7.086045 -0.368650 761 -0.181116 0.983462 0.000000
-7.552384 -7.085568 -0.365445 767 -0.181116 0.983462 0.000000
-7.552140 -7.085342 -0.362247 775 -0.181116 0.983462 0.000000
-7.551739 -7.084962 -0.359051 743 -0.181116 0.983462 0.000000
-7.552823 -7.085989 -0.355910 733 -0.181116 0.983462 0.000000
-7.554024 -7.087110 -0.352779 737 -0.181116 0.983462 0.000000
-7.553622 -7.086730 -0.349583 731 -0.181116 0.983462 0.000000
-7.553101 -7.086241 -0.346377 727 -0.181116 0.983462 0.000000
-7.553711 -7.086821 -0.343212 739 -0.181116 0.983462 0.000000
-7.554044 -7.087138 -0.340048 745 -0.181116 0.983462 0.000000
-7.553594 -7.086706 -0.336843 765 -0.181116 0.983462 0.000000
-7.553502 -7.086627 -0.333653 761 -0.181116 0.983462 0.000000
-7.554101 -7.087185 -0.330498 761 -0.181116 0.983462 0.000000
-7.553527 -7.086653 -0.327293 761 -0.181116 0.983462 0.000000
-7.553661 -7.086771 -0.324112 767 -0.181116 0.983462 0.000000
-7.554256 -7.087338 -0.320946 765 -0.181116 0.983462 0.000000
-7.553846 -7.086951 -0.317750 751 -0.181116 0.983462 0.000000
-7.552693 -7.085861 -0.314520 761 -0.181116 0.983462 0.000000
-7.552283 -7.085475 -0.311324 745 -0.181116 0.983462 0.000000
-7.552878 -7.086041 -0.308159 761 -0.181116 0.983462 0.000000
-7.553368 -7.086498 -0.304994 755 -0.181116 0.983462 0.000000
-7.553583 -7.086707 -0.301822 747 -0.181116 0.983462 0.000000
-7.557670 -7.086278 -0.703734 805 -0.181116 0.983462 0.000000
-7.557782 -7.086378 -0.700543 811 -0.181116 0.983462 0.000000
-7.557981 -7.086574 -0.697371 809 -0.181116 0.983462 0.000000
-7.558297 -7.086864 -0.694198 829 -0.181116 0.983462 0.000000
-7.558125 -7.086709 -0.690990 831 -0.181116 0.983462 0.000000
-7.557904 -7.086501 -0.687772 821 -0.181116 0.983462 0.000000
-7.557526 -7.086140 -0.684545 819 -0.181116 0.983462 0.000000
-7.557992 -7.086577 -0.681391 821 -0.181116 0.983462 0.000000
-7.557820 -7.086421 -0.678182 803 -0.181116 0.983462 0.000000
-7.556636 -7.085306 -0.674883 787 -0.181116 0.983462 0.000000
-7.556416 -7.085098 -0.671665 793 -0.181116 0.983462 0.000000
-7.556290 -7.084980 -0.668466 799 -0.181116 0.983462 0.000000
-7.556868 -7.085521 -0.665321 803 -0.181116 0.983462 0.000000
-7.557493 -7.086112 -0.662185 799 -0.181116 0.983462 0.000000
-7.557209 -7.085840 -0.658957 803 -0.181116 0.983462 0.000000
-7.557463 -7.086081 -0.655795 801 -0.181116 0.983462 0.000000
-7.558183 -7.086762 -0.652658 811 -0.181116 0.983462 0.000000
-7.557632 -7.086248 -0.649413 813 -0.181116 0.983462 0.000000
-7.556606 -7.085287 -0.646143 793 -0.181116 0.983462 0.000000
-7.556425 -7.085111 -0.642934 775 -0.181116 0.983462 0.000000
-7.557256 -7.085894 -0.639807 779 -0.181116 0.983462 0.000000
-7.558410 -7.086978 -0.636706 795 -0.181116 0.983462 0.000000
-7.558711 -7.087256 -0.633543 821 -0.181116 0.983462 0.000000
-7.557464 -7.086090 -0.630244 805 -0.181116 0.983462 0.000000
-7.557117 -7.085768 -0.627027 789 -0.181116 0.983462 0.000000
-7.557742 -7.086346 -0.623882 775 -0.181116 0.983462 0.000000
-7.558730 -7.087269 -0.620762 801 -0.181116 0.983462 0.000000
-7.558542 -7.087101 -0.617564 809 -0.181116 0.983462 0.000000
-7.558202 -7.086771 -0.614337 811 -0.181116 0.983462 0.000000
-7.557589 -7.086207 -0.611103 811 -0.181116 0.983462 0.000000
-7.556760 -7.085430 -0.607840 805 -0.181116 0.983462 0.000000
-7.556840 -7.085504 -0.604660 815 -0.181116 0.983462 0.000000
-7.556863 -7.085519 -0.601469 809 -0.181116 0.983462 0.000000
-7.557205 -7.085843 -0.598296 801 -0.181116 0.983462 0.000000
-7.558193 -7.086766 -0.595187 821 -0.181116 0.983462 0.000000
-7.558747 -7.087288 -0.592031 819 -0.181116 0.983462 0.000000
-7.558179 -7.086761 -0.588797 805 -0.181116 0.983462 0.000000
-7.558204 -7.086777 -0.585606 799 -0.181116 0.983462 0.000000
-7.558607 -7.087150 -0.582452 811 -0.181116 0.983462 0.000000
-7.558775 -7.087321 -0.579271 817 -0.181116 0.983462 0.000000
-7.559115 -7.087631 -0.576108 817 -0.181116 0.983462 0.000000
-7.559092 -7.087609 -0.572908 807 -0.181116 0.983462 0.000000
-7.559156 -7.087670 -0.569727 803 -0.181116 0.983462 0.000000
-7.559015 -7.087539 -0.566518 791 -0.181116 0.983462 0.000000
-7.558867 -7.087402 -0.563320 791 -0.181116 0.983462 0.000000
-7.558883 -7.087411 -0.560129 791 -0.181116 0.983462 0.000000
-7.558742 -7.087281 -0.556931 789 -0.181116 0.983462 0.000000
-7.558332 -7.086895 -0.553704 793 -0.181116 0.983462 0.000000
-7.558342 -7.086912 -0.550524 787 -0.181116 0.983462 0.000000
-7.558832 -7.087368 -0.547360 791 -0.181116 0.983462 0.000000
-7.559330 -7.087831 -0.544205 815 -0.181116 0.983462 0.000000
-7.558535 -7.087095 -0.540962 811 -0.181116 0.983462 0.000000
-7.557065 -7.085710 -0.537666 799 -0.181116 0.983462 0.000000
-7.557178 -7.085823 -0.534485 799 -0.181116 0.983462 0.000000
-7.558086 -7.086670 -0.531356 805 -0.181116 0.983462 0.000000
-7.558420 -7.086987 -0.528193 817 -0.181116 0.983462 0.000000
-7.558270 -7.086836 -0.524994 803 -0.181116 0.983462 0.000000
-7.557576 -7.086195 -0.521761 803 -0.181116 0.983462 0.000000
-7.557751 -7.086358 -0.518579 813 -0.181116 0.983462 0.000000
-7.558983 -7.087504 -0.515467 827 -0.181116 0.983462 0.000000
-7.557974 -7.086570 -0.512217 807 -0.181116 0.983462 0.000000
-7.556916 -7.085569 -0.508957 799 -0.181116 0.983462 0.000000
-7.557123 -7.085771 -0.505785 807 -0.181116 0.983462 0.000000
-7.558150 -7.086726 -0.502665 801 -0.181116 0.983462 0.000000
-7.558144 -7.086730 -0.499475 783 -0.181116 0.983462 0.000000
-7.558097 -7.086675 -0.496275 787 -0.181116 0.983462 0.000000
-7.558999 -7.087530 -0.493147 803 -0.181116 0.983462 0.000000
-7.559110 -7.087628 -0.489966 803 -0.181116 0.983462 0.000000
-7.558527 -7.087076 -0.486741 805 -0.181116 0.983462 0.000000
-7.557928 -7.086524 -0.483517 813 -0.181116 0.983462 0.000000
-7.558354 -7.086916 -0.480353 803 -0.181116 0.983462 0.000000
-7.558198 -7.086773 -0.477154 791 -0.181116 0.983462 0.000000
-7.558239 -7.086815 -0.473973 809 -0.181116 0.983462 0.000000
-7.558342 -7.086908 -0.470792 795 -0.181116 0.983462 0.000000
-7.557752 -7.086363 -0.467568 781 -0.181116 0.983462 0.000000
-7.557855 -7.086455 -0.464387 773 -0.181116 0.983462 0.000000
-7.558330 -7.086899 -0.461222 795 -0.181116 0.983462 0.000000
-7.558110 -7.086692 -0.458024 789 -0.181116 0.983462 0.000000
-7.558425 -7.086982 -0.454851 785 -0.181116 0.983462 0.000000
-7.558515 -7.087077 -0.451670 783 -0.181116 0.983462 0.000000
-7.558136 -7.086715 -0.448464 799 -0.181116 0.983462 0.000000
-7.558185 -7.086763 -0.445273 809 -0.181116 0.983462 0.000000
-7.558493 -7.087048 -0.442110 811 -0.181116 0.983462 0.000000
-7.558155 -7.086732 -0.438903 801 -0.181116 0.983462 0.000000
-7.558147 -7.086722 -0.435713 795 -0.181116 0.983462 0.000000
-7.558237 -7.086816 -0.432532 793 -0.181116 0.983462 0.000000
-7.558868 -7.087400 -0.429376 795 -0.181116 0.983462 0.000000
-7.559391 -7.087897 -0.426221 815 -0.181116 0.983462 0.000000
-7.558412 -7.086973 -0.422981 803 -0.181116 0.983462 0.000000
-7.558130 -7.086715 -0.419773 791 -0.181116 0.983462 0.000000
-7.558967 -7.087491 -0.416635 795 -0.181116 0.983462 0.000000
-7.558787 -7.087328 -0.413437 777 -0.181116 0.983462 0.000000
-7.558670 -7.087217 -0.410248 791 -0.181116 0.983462 0.000000
-7.558275 -7.086843 -0.407041 773 -0.181116 0.983462 0.000000
-7.557772 -7.086381 -0.403826 781 -0.181116 0.983462 0.000000
-7.558767 -7.087311 -0.400687 775 -0.181116 0.983462 0.000000
-7.560237 -7.088688 -0.397583 777 -0.181116 0.983462 0.000000
-7.560160 -7.088622 -0.394383 775 -0.181116 0.983462 0.000000
-7.559876 -7.088350 -0.391186 777 -0.181116 0.983462 0.000000
-7.559371 -7.087873 -0.387971 779 -0.181116 0.983462 0.000000
-7.558599 -7.087155 -0.384748 775 -0.181116 0.983462 0.000000
-7.558639 -7.087184 -0.381567 781 -0.181116 0.983462 0.000000
-7.559138 -7.087661 -0.378403 789 -0.181116 0.983462 0.000000
-7.559810 -7.088291 -0.375246 787 -0.181116 0.983462 0.000000
-7.559890 -7.088365 -0.372065 775 -0.181116 0.983462 0.000000
-7.559006 -7.087530 -0.368844 761 -0.181116 0.983462 0.000000
-7.558826 -7.087369 -0.365645 749 -0.181116 0.983462 0.000000
-7.559324 -7.087832 -0.362481 755 -0.181116 0.983462 0.000000
-7.558709 -7.087254 -0.359266 737 -0.181116 0.983462 0.000000
-7.558734 -7.087283 -0.356086 715 -0.181116 0.983462 0.000000
-7.558910 -7.087447 -0.352904 725 -0.181116 0.983462 0.000000
-7.559312 -7.087820 -0.349740 739 -0.181116 0.983462 0.000000
-7.559812 -7.088297 -0.346576 749 -0.181116 0.983462 0.000000
-7.559780 -7.088254 -0.343386 759 -0.181116 0.983462 0.000000
-7.559741 -7.088220 -0.340196 751 -0.181116 0.983462 0.000000
-7.559443 -7.087950 -0.336999 757 -0.181116 0.983462 0.000000
-7.558821 -7.087365 -0.333795 747 -0.181116 0.983462 0.000000
-7.558893 -7.087433 -0.330604 745 -0.181116 0.983462 0.000000
-7.559714 -7.088196 -0.327456 739 -0.181116 0.983462 0.000000
-7.559511 -7.088015 -0.324268 737 -0.181116 0.983462 0.000000
-7.559314 -7.087826 -0.321070 751 -0.181116 0.983462 0.000000
-7.559702 -7.088188 -0.317906 759 -0.181116 0.983462 0.000000
-7.559079 -7.087603 -0.314692 759 -0.181116 0.983462 0.000000
-7.559356 -7.087862 -0.311519 739 -0.181116 0.983462 0.000000
-7.559958 -7.088435 -0.308353 747 -0.181116 0.983462 0.000000
-7.559121 -7.087638 -0.305141 753 -0.181116 0.983462 0.000000
-7.559344 -7.087853 -0.301959 749 -0.181116 0.983462 0.000000
-7.562867 -7.086725 -0.704007 797 -0.181116 0.983462 0.000000
-7.562536 -7.086416 -0.700780 815 -0.181116 0.983462 0.000000
-7.563445 -7.087262 -0.697662 825 -0.181116 0.983462 0.000000
-7.564332 -7.088104 -0.694543 815 -0.181116 0.983462 0.000000
-7.563961 -7.087749 -0.691317 811 -0.181116 0.983462 0.000000
-7.563575 -7.087395 -0.688080 797 -0.181116 0.983462 0.000000
-7.563409 -7.087231 -0.684872 799 -0.181116 0.983462 0.000000
-7.563402 -7.087222 -0.681672 797 -0.181116 0.983462 0.000000
-7.563807 -7.087609 -0.678518 803 -0.181116 0.983462 0.000000
-7.563643 -7.087460 -0.675299 781 -0.181116 0.983462 0.000000
-7.562829 -7.086696 -0.672037 783 -0.181116 0.983462 0.000000
-7.562926 -7.086782 -0.668846 787 -0.181116 0.983462 0.000000
-7.563496 -7.087317 -0.665701 789 -0.181116 0.983462 0.000000
