126
-21.632072 -21.062645 -0.647913 1019 -0.245312 0.969444 0.000000
-21.630688 -21.061304 -0.638596 1023 -0.245312 0.969444 0.000000
-21.630098 -21.060738 -0.629301 1025 -0.245312 0.969444 0.000000
-21.629446 -21.060093 -0.620007 1021 -0.245312 0.969444 0.000000
-21.628794 -21.059462 -0.610713 1021 -0.245312 0.969444 0.000000
-21.630085 -21.060720 -0.601471 1031 -0.245312 0.969444 0.000000
-21.630104 -21.060738 -0.592200 1031 -0.245312 0.969444 0.000000
-21.630453 -21.061079 -0.582937 1025 -0.245312 0.969444 0.000000
-21.630987 -21.061604 -0.573671 1017 -0.245312 0.969444 0.000000
-21.630280 -21.060915 -0.564378 1005 -0.245312 0.969444 0.000000
-21.628988 -21.059662 -0.555070 1001 -0.245312 0.969444 0.000000
-21.628368 -21.059059 -0.545786 1005 -0.245312 0.969444 0.000000
-21.629230 -21.059893 -0.536527 1003 -0.245312 0.969444 0.000000
-21.629601 -21.060257 -0.527263 1011 -0.245312 0.969444 0.000000
-21.630337 -21.060987 -0.518006 1011 -0.245312 0.969444 0.000000
-21.629725 -21.060389 -0.508722 1011 -0.245312 0.969444 0.000000
-21.628572 -21.059265 -0.499423 1005 -0.245312 0.969444 0.000000
-21.628843 -21.059532 -0.490160 999 -0.245312 0.969444 0.000000
-21.629986 -21.060652 -0.480908 1017 -0.245312 0.969444 0.000000
-21.630356 -21.061014 -0.471645 1017 -0.245312 0.969444 0.000000
-21.629992 -21.060650 -0.462358 1017 -0.245312 0.969444 0.000000
-21.629980 -21.060640 -0.453088 1009 -0.245312 0.969444 0.000000
-21.628822 -21.059525 -0.443789 1015 -0.245312 0.969444 0.000000
-21.628761 -21.059464 -0.434519 997 -0.245312 0.969444 0.000000
-21.628284 -21.058990 -0.425234 1005 -0.245312 0.969444 0.000000
-21.627586 -21.058323 -0.415950 999 -0.245312 0.969444 0.000000
-21.629570 -21.060246 -0.406711 1013 -0.245312 0.969444 0.000000
-21.630440 -21.061102 -0.397462 1007 -0.245312 0.969444 0.000000
-21.629166 -21.059862 -0.388164 1007 -0.245312 0.969444 0.000000
-21.627092 -21.057842 -0.378854 1017 -0.245312 0.969444 0.000000
-21.626432 -21.057207 -0.369570 1005 -0.245312 0.969444 0.000000
-21.625843 -21.056625 -0.360296 1001 -0.245312 0.969444 0.000000
-21.627026 -21.057781 -0.351044 1001 -0.245312 0.969444 0.000000
-21.629143 -21.059841 -0.341803 1011 -0.245312 0.969444 0.000000
-21.628740 -21.059458 -0.332527 999 -0.245312 0.969444 0.000000
-21.627769 -21.058512 -0.323236 1005 -0.245312 0.969444 0.000000
-21.627413 -21.058165 -0.313959 999 -0.245312 0.969444 0.000000
-21.627378 -21.058138 -0.304689 995 -0.245312 0.969444 0.000000
-21.627069 -21.057831 -0.295412 997 -0.245312 0.969444 0.000000
-21.627136 -21.057901 -0.286141 1003 -0.245312 0.969444 0.000000
-21.626415 -21.057201 -0.276868 1015 -0.245312 0.969444 0.000000
-21.648846 -21.065855 -0.648217 1025 -0.245312 0.969444 0.000000
-21.648933 -21.065929 -0.638936 1021 -0.245312 0.969444 0.000000
-21.649593 -21.066584 -0.629679 1025 -0.245312 0.969444 0.000000
-21.649113 -21.066109 -0.620384 1031 -0.245312 0.969444 0.000000
-21.648720 -21.065733 -0.611087 1021 -0.245312 0.969444 0.000000
-21.648693 -21.065712 -0.601807 1027 -0.245312 0.969444 0.000000
-21.648821 -21.065832 -0.592536 1029 -0.245312 0.969444 0.000000
-21.648270 -21.065298 -0.583241 1035 -0.245312 0.969444 0.000000
-21.648930 -21.065941 -0.573974 1021 -0.245312 0.969444 0.000000
-21.648739 -21.065758 -0.564696 1007 -0.245312 0.969444 0.000000
-21.648125 -21.065159 -0.555402 1019 -0.245312 0.969444 0.000000
-21.648512 -21.065533 -0.546128 1007 -0.245312 0.969444 0.000000
-21.648352 -21.065392 -0.536849 1023 -0.245312 0.969444 0.000000
-21.648113 -21.065157 -0.527561 1019 -0.245312 0.969444 0.000000
-21.646711 -21.063786 -0.518245 1011 -0.245312 0.969444 0.000000
-21.647293 -21.064362 -0.508989 1017 -0.245312 0.969444 0.000000
-21.648451 -21.065483 -0.499737 1017 -0.245312 0.969444 0.000000
-21.647877 -21.064930 -0.490443 1019 -0.245312 0.969444 0.000000
-21.647663 -21.064728 -0.481154 1027 -0.245312 0.969444 0.000000
-21.647659 -21.064726 -0.471884 1021 -0.245312 0.969444 0.000000
-21.648668 -21.065697 -0.462624 1023 -0.245312 0.969444 0.000000
-21.649124 -21.066156 -0.453350 1017 -0.245312 0.969444 0.000000
-21.648386 -21.065430 -0.444056 1009 -0.245312 0.969444 0.000000
-21.646759 -21.063845 -0.434752 1005 -0.245312 0.969444 0.000000
-21.645483 -21.062605 -0.425444 987 -0.245312 0.969444 0.000000
-21.647776 -21.064835 -0.416212 999 -0.245312 0.969444 0.000000
-21.649487 -21.066505 -0.406965 1003 -0.245312 0.969444 0.000000
-21.647268 -21.064352 -0.397646 1001 -0.245312 0.969444 0.000000
-21.645990 -21.063114 -0.388348 1001 -0.245312 0.969444 0.000000
-21.645878 -21.062994 -0.379069 1005 -0.245312 0.969444 0.000000
-21.645950 -21.063070 -0.369798 1003 -0.245312 0.969444 0.000000
-21.646345 -21.063465 -0.360524 1013 -0.245312 0.969444 0.000000
-21.647051 -21.064146 -0.351257 999 -0.245312 0.969444 0.000000
-21.647757 -21.064838 -0.342000 1005 -0.245312 0.969444 0.000000
-21.647144 -21.064240 -0.332706 995 -0.245312 0.969444 0.000000
-21.645805 -21.062935 -0.323408 1009 -0.245312 0.969444 0.000000
-21.646347 -21.063467 -0.314143 991 -0.245312 0.969444 0.000000
-21.647623 -21.064711 -0.304890 1003 -0.245312 0.969444 0.000000
-21.646481 -21.063606 -0.295591 1011 -0.245312 0.969444 0.000000
-21.646593 -21.063715 -0.286320 999 -0.245312 0.969444 0.000000
-21.647861 -21.064955 -0.277057 1007 -0.245312 0.969444 0.000000
-21.666553 -21.070190 -0.648562 1033 -0.245312 0.969444 0.000000
-21.667486 -21.071096 -0.639302 1027 -0.245312 0.969444 0.000000
-21.668522 -21.072100 -0.630042 1035 -0.245312 0.969444 0.000000
-21.667610 -21.071217 -0.620731 1025 -0.245312 0.969444 0.000000
-21.665796 -21.069466 -0.611398 1035 -0.245312 0.969444 0.000000
-21.665192 -21.068874 -0.602094 1015 -0.245312 0.969444 0.000000
-21.665600 -21.069267 -0.592819 1015 -0.245312 0.969444 0.000000
-21.665823 -21.069492 -0.583547 1019 -0.245312 0.969444 0.000000
-21.665905 -21.069563 -0.574256 1025 -0.245312 0.969444 0.000000
-21.665550 -21.069231 -0.564969 1025 -0.245312 0.969444 0.000000
-21.665571 -21.069250 -0.555689 1005 -0.245312 0.969444 0.000000
-21.665432 -21.069111 -0.546400 1003 -0.245312 0.969444 0.000000
-21.665443 -21.069124 -0.537109 1001 -0.245312 0.969444 0.000000
-21.665089 -21.068779 -0.527823 1007 -0.245312 0.969444 0.000000
-21.664305 -21.068026 -0.518520 1003 -0.245312 0.969444 0.000000
-21.665377 -21.069059 -0.509260 1003 -0.245312 0.969444 0.000000
-21.665895 -21.069572 -0.499994 1005 -0.245312 0.969444 0.000000
-21.665117 -21.068811 -0.490692 1009 -0.245312 0.969444 0.000000
-21.664858 -21.068571 -0.481404 1013 -0.245312 0.969444 0.000000
-21.664589 -21.068310 -0.472116 1017 -0.245312 0.969444 0.000000
-21.664583 -21.068295 -0.462826 1011 -0.245312 0.969444 0.000000
-21.664219 -21.067944 -0.453539 1003 -0.245312 0.969444 0.000000
-21.663740 -21.067484 -0.444244 1013 -0.245312 0.969444 0.000000
-21.665359 -21.069063 -0.434998 999 -0.245312 0.969444 0.000000
-21.665916 -21.069609 -0.425722 999 -0.245312 0.969444 0.000000
-21.665014 -21.068731 -0.416431 1013 -0.245312 0.969444 0.000000
-21.664425 -21.068151 -0.407136 1009 -0.245312 0.969444 0.000000
-21.664454 -21.068190 -0.397856 997 -0.245312 0.969444 0.000000
-21.664330 -21.068064 -0.388567 1003 -0.245312 0.969444 0.000000
-21.664356 -21.068089 -0.379286 1001 -0.245312 0.969444 0.000000
-21.664604 -21.068335 -0.370013 991 -0.245312 0.969444 0.000000
-21.664577 -21.068314 -0.360723 1011 -0.245312 0.969444 0.000000
-21.664713 -21.068441 -0.351452 1009 -0.245312 0.969444 0.000000
-21.664265 -21.068007 -0.342156 999 -0.245312 0.969444 0.000000
-21.664074 -21.067823 -0.332878 1007 -0.245312 0.969444 0.000000
-21.663099 -21.066875 -0.323577 999 -0.245312 0.969444 0.000000
-21.663010 -21.066790 -0.314297 1001 -0.245312 0.969444 0.000000
-21.664434 -21.068184 -0.305033 1007 -0.245312 0.969444 0.000000
-21.666437 -21.070135 -0.295784 1017 -0.245312 0.969444 0.000000
-21.665878 -21.069595 -0.286489 1017 -0.245312 0.969444 0.000000
-21.663313 -21.067087 -0.277174 1015 -0.245312 0.969444 0.000000
-21.682312 -21.072664 -0.388778 999 -0.245312 0.969444 0.000000
-21.681320 -21.071707 -0.351617 1007 -0.245312 0.969444 0.000000
-21.682549 -21.072912 -0.342345 1007 -0.245312 0.969444 0.000000
