118
-28.715294 -28.229313 -0.669859 1163 -0.094930 0.995484 0.000000
-28.713663 -28.227718 -0.657454 1163 -0.094930 0.995484 0.000000
-28.711714 -28.225803 -0.645042 1163 -0.094930 0.995484 0.000000
-28.711487 -28.225586 -0.632664 1155 -0.094930 0.995484 0.000000
-28.712147 -28.226227 -0.620318 1149 -0.094930 0.995484 0.000000
-28.711754 -28.225845 -0.607941 1159 -0.094930 0.995484 0.000000
-28.711529 -28.225626 -0.595563 1159 -0.094930 0.995484 0.000000
-28.712170 -28.226255 -0.583216 1157 -0.094930 0.995484 0.000000
-28.711788 -28.225882 -0.570840 1157 -0.094930 0.995484 0.000000
-28.711637 -28.225740 -0.558471 1151 -0.094930 0.995484 0.000000
-28.711554 -28.225653 -0.546101 1147 -0.094930 0.995484 0.000000
-28.711147 -28.225258 -0.533725 1147 -0.094930 0.995484 0.000000
-28.711525 -28.225626 -0.521361 1159 -0.094930 0.995484 0.000000
-28.711212 -28.225323 -0.508994 1155 -0.094930 0.995484 0.000000
-28.710379 -28.224503 -0.496611 1145 -0.094930 0.995484 0.000000
-28.710960 -28.225080 -0.484256 1143 -0.094930 0.995484 0.000000
-28.712326 -28.226423 -0.471912 1139 -0.094930 0.995484 0.000000
-28.711897 -28.226009 -0.459546 1151 -0.094930 0.995484 0.000000
-28.711056 -28.225182 -0.447164 1151 -0.094930 0.995484 0.000000
-28.710892 -28.225016 -0.434795 1143 -0.094930 0.995484 0.000000
-28.709997 -28.224146 -0.422413 1145 -0.094930 0.995484 0.000000
-28.709194 -28.223352 -0.410041 1153 -0.094930 0.995484 0.000000
-28.709599 -28.223755 -0.397677 1165 -0.094930 0.995484 0.000000
-28.710155 -28.224298 -0.385321 1151 -0.094930 0.995484 0.000000
-28.710611 -28.224747 -0.372966 1147 -0.094930 0.995484 0.000000
-28.710260 -28.224409 -0.360599 1141 -0.094930 0.995484 0.000000
-28.710032 -28.224176 -0.348231 1145 -0.094930 0.995484 0.000000
-28.710264 -28.224409 -0.335869 1147 -0.094930 0.995484 0.000000
-28.710594 -28.224739 -0.323505 1149 -0.094930 0.995484 0.000000
-28.708941 -28.223110 -0.311121 1153 -0.094930 0.995484 0.000000
-28.707909 -28.222099 -0.298750 1141 -0.094930 0.995484 0.000000
-28.732761 -28.228878 -0.670060 1183 -0.094930 0.995484 0.000000
-28.731752 -28.227896 -0.657670 1179 -0.094930 0.995484 0.000000
-28.730383 -28.226549 -0.645263 1169 -0.094930 0.995484 0.000000
-28.730412 -28.226585 -0.632892 1155 -0.094930 0.995484 0.000000
-28.730394 -28.226570 -0.620522 1159 -0.094930 0.995484 0.000000
-28.731512 -28.227661 -0.608171 1165 -0.094930 0.995484 0.000000
-28.732439 -28.228569 -0.595822 1169 -0.094930 0.995484 0.000000
-28.730730 -28.226896 -0.583418 1159 -0.094930 0.995484 0.000000
-28.731064 -28.227228 -0.571054 1147 -0.094930 0.995484 0.000000
-28.732489 -28.228634 -0.558710 1153 -0.094930 0.995484 0.000000
-28.732616 -28.228754 -0.546339 1153 -0.094930 0.995484 0.000000
-28.733200 -28.229330 -0.533973 1155 -0.094930 0.995484 0.000000
-28.731396 -28.227552 -0.521570 1147 -0.094930 0.995484 0.000000
-28.732077 -28.228228 -0.509213 1157 -0.094930 0.995484 0.000000
-28.733067 -28.229202 -0.496863 1147 -0.094930 0.995484 0.000000
-28.731506 -28.227678 -0.484458 1163 -0.094930 0.995484 0.000000
-28.731039 -28.227219 -0.472082 1149 -0.094930 0.995484 0.000000
-28.730301 -28.226494 -0.459699 1149 -0.094930 0.995484 0.000000
-28.729933 -28.226130 -0.447322 1149 -0.094930 0.995484 0.000000
-28.730501 -28.226696 -0.434966 1139 -0.094930 0.995484 0.000000
-28.730591 -28.226784 -0.422595 1151 -0.094930 0.995484 0.000000
-28.730579 -28.226772 -0.410225 1153 -0.094930 0.995484 0.000000
-28.730289 -28.226488 -0.397847 1171 -0.094930 0.995484 0.000000
-28.729126 -28.225351 -0.385468 1157 -0.094930 0.995484 0.000000
-28.729261 -28.225475 -0.373097 1157 -0.094930 0.995484 0.000000
-28.730171 -28.226383 -0.360738 1155 -0.094930 0.995484 0.000000
-28.730198 -28.226404 -0.348367 1151 -0.094930 0.995484 0.000000
-28.728655 -28.224895 -0.335982 1143 -0.094930 0.995484 0.000000
-28.728939 -28.225172 -0.323619 1149 -0.094930 0.995484 0.000000
-28.730364 -28.226578 -0.311265 1155 -0.094930 0.995484 0.000000
-28.729755 -28.225973 -0.298890 1153 -0.094930 0.995484 0.000000
-28.752237 -28.230431 -0.670323 1175 -0.094930 0.995484 0.000000
-28.753328 -28.231506 -0.657962 1167 -0.094930 0.995484 0.000000
-28.751736 -28.229944 -0.645557 1173 -0.094930 0.995484 0.000000
-28.752348 -28.230549 -0.633191 1175 -0.094930 0.995484 0.000000
-28.752323 -28.230524 -0.620811 1153 -0.094930 0.995484 0.000000
-28.751692 -28.229900 -0.608417 1159 -0.094930 0.995484 0.000000
-28.751661 -28.229872 -0.596047 1149 -0.094930 0.995484 0.000000
-28.750797 -28.229027 -0.583645 1149 -0.094930 0.995484 0.000000
-28.751238 -28.229462 -0.571280 1155 -0.094930 0.995484 0.000000
-28.752136 -28.230343 -0.558921 1155 -0.094930 0.995484 0.000000
-28.751854 -28.230068 -0.546544 1159 -0.094930 0.995484 0.000000
-28.751068 -28.229301 -0.534151 1155 -0.094930 0.995484 0.000000
-28.749784 -28.228037 -0.521753 1163 -0.094930 0.995484 0.000000
-28.749830 -28.228088 -0.509372 1153 -0.094930 0.995484 0.000000
-28.752041 -28.230255 -0.497041 1159 -0.094930 0.995484 0.000000
-28.752308 -28.230518 -0.484668 1161 -0.094930 0.995484 0.000000
-28.751266 -28.229498 -0.472277 1143 -0.094930 0.995484 0.000000
-28.750685 -28.228928 -0.459893 1151 -0.094930 0.995484 0.000000
-28.750984 -28.229216 -0.447520 1145 -0.094930 0.995484 0.000000
-28.751764 -28.229990 -0.435152 1145 -0.094930 0.995484 0.000000
-28.751642 -28.229870 -0.422783 1145 -0.094930 0.995484 0.000000
-28.751266 -28.229500 -0.410396 1149 -0.094930 0.995484 0.000000
-28.750200 -28.228460 -0.398006 1147 -0.094930 0.995484 0.000000
-28.749409 -28.227688 -0.385623 1149 -0.094930 0.995484 0.000000
-28.750315 -28.228579 -0.373264 1151 -0.094930 0.995484 0.000000
-28.750050 -28.228313 -0.360886 1133 -0.094930 0.995484 0.000000
-28.749651 -28.227926 -0.348500 1145 -0.094930 0.995484 0.000000
-28.750656 -28.228914 -0.336140 1159 -0.094930 0.995484 0.000000
-28.749523 -28.227802 -0.323751 1159 -0.094930 0.995484 0.000000
-28.749599 -28.227877 -0.311380 1167 -0.094930 0.995484 0.000000
-28.750139 -28.228407 -0.299014 1161 -0.094930 0.995484 0.000000
-28.769152 -28.229097 -0.633371 1157 -0.094930 0.995484 0.000000
-28.769342 -28.229284 -0.620989 1159 -0.094930 0.995484 0.000000
-28.770546 -28.230469 -0.571496 1151 -0.094930 0.995484 0.000000
-28.769426 -28.229370 -0.559087 1145 -0.094930 0.995484 0.000000
-28.768703 -28.228668 -0.546693 1145 -0.094930 0.995484 0.000000
-28.768557 -28.228529 -0.534314 1157 -0.094930 0.995484 0.000000
-28.770088 -28.230024 -0.521959 1159 -0.094930 0.995484 0.000000
-28.770187 -28.230135 -0.509578 1141 -0.094930 0.995484 0.000000
-28.769573 -28.229525 -0.497194 1149 -0.094930 0.995484 0.000000
-28.769516 -28.229475 -0.484814 1161 -0.094930 0.995484 0.000000
-28.769941 -28.229895 -0.472439 1141 -0.094930 0.995484 0.000000
-28.770304 -28.230249 -0.460066 1145 -0.094930 0.995484 0.000000
-28.770145 -28.230089 -0.447687 1131 -0.094930 0.995484 0.000000
-28.770601 -28.230536 -0.435312 1149 -0.094930 0.995484 0.000000
-28.770437 -28.230381 -0.422924 1149 -0.094930 0.995484 0.000000
-28.769117 -28.229088 -0.410526 1151 -0.094930 0.995484 0.000000
-28.768417 -28.228407 -0.398142 1155 -0.094930 0.995484 0.000000
-28.767771 -28.227774 -0.385758 1153 -0.094930 0.995484 0.000000
-28.768320 -28.228312 -0.373383 1159 -0.094930 0.995484 0.000000
-28.770126 -28.230087 -0.361025 1157 -0.094930 0.995484 0.000000
-28.770111 -28.230070 -0.348645 1155 -0.094930 0.995484 0.000000
-28.768555 -28.228554 -0.336249 1157 -0.094930 0.995484 0.000000
-28.768259 -28.228264 -0.323872 1165 -0.094930 0.995484 0.000000
-28.769537 -28.229519 -0.311510 1165 -0.094930 0.995484 0.000000
-28.769548 -28.229527 -0.299129 1163 -0.094930 0.995484 0.000000
