159
-28.906544 -28.178875 -0.646460 1067 0.265778 0.964034 0.000000
-28.905537 -28.177891 -0.485246 1081 0.265778 0.964034 0.000000
-28.906122 -28.178474 -0.373678 1085 0.265778 0.964034 0.000000
-28.905785 -28.178137 -0.361271 1091 0.265778 0.964034 0.000000
-28.917107 -28.171951 -0.671308 1069 0.265778 0.964034 0.000000
-28.917410 -28.172239 -0.658915 1077 0.265778 0.964034 0.000000
-28.917610 -28.172445 -0.646522 1077 0.265778 0.964034 0.000000
-28.918058 -28.172882 -0.634128 1091 0.265778 0.964034 0.000000
-28.918571 -28.173372 -0.621733 1085 0.265778 0.964034 0.000000
-28.918179 -28.172991 -0.609326 1079 0.265778 0.964034 0.000000
-28.917572 -28.172400 -0.596912 1085 0.265778 0.964034 0.000000
-28.917545 -28.172377 -0.584511 1077 0.265778 0.964034 0.000000
-28.917561 -28.172400 -0.572111 1077 0.265778 0.964034 0.000000
-28.916752 -28.171602 -0.559699 1067 0.265778 0.964034 0.000000
-28.917713 -28.172535 -0.547309 1077 0.265778 0.964034 0.000000
-28.916988 -28.171835 -0.534896 1073 0.265778 0.964034 0.000000
-28.915951 -28.170822 -0.522485 1059 0.265778 0.964034 0.000000
-28.916809 -28.171665 -0.510097 1075 0.265778 0.964034 0.000000
-28.917530 -28.172371 -0.497710 1079 0.265778 0.964034 0.000000
-28.918236 -28.173048 -0.485323 1081 0.265778 0.964034 0.000000
-28.919176 -28.173973 -0.472933 1091 0.265778 0.964034 0.000000
-28.918024 -28.172838 -0.460514 1093 0.265778 0.964034 0.000000
-28.915920 -28.170792 -0.448084 1069 0.265778 0.964034 0.000000
-28.915749 -28.170633 -0.435685 1069 0.265778 0.964034 0.000000
-28.916477 -28.171343 -0.423298 1079 0.265778 0.964034 0.000000
-28.917082 -28.171923 -0.410902 1077 0.265778 0.964034 0.000000
-28.917704 -28.172529 -0.398516 1091 0.265778 0.964034 0.000000
-28.918043 -28.172865 -0.386122 1083 0.265778 0.964034 0.000000
-28.918493 -28.173302 -0.373727 1079 0.265778 0.964034 0.000000
-28.918837 -28.173637 -0.361334 1067 0.265778 0.964034 0.000000
-28.918926 -28.173721 -0.348933 1081 0.265778 0.964034 0.000000
-28.918411 -28.173225 -0.336527 1081 0.265778 0.964034 0.000000
-28.916931 -28.171778 -0.324111 1077 0.265778 0.964034 0.000000
-28.917358 -28.172195 -0.311717 1083 0.265778 0.964034 0.000000
-28.917738 -28.172564 -0.299323 1065 0.265778 0.964034 0.000000
-28.933292 -28.169483 -0.671476 1073 0.265778 0.964034 0.000000
-28.932856 -28.169065 -0.659070 1077 0.265778 0.964034 0.000000
-28.932634 -28.168852 -0.646652 1079 0.265778 0.964034 0.000000
-28.932310 -28.168522 -0.634245 1087 0.265778 0.964034 0.000000
-28.931023 -28.167276 -0.621817 1081 0.265778 0.964034 0.000000
-28.932112 -28.168341 -0.609436 1081 0.265778 0.964034 0.000000
-28.933710 -28.169895 -0.597060 1089 0.265778 0.964034 0.000000
-28.932785 -28.168989 -0.584639 1079 0.265778 0.964034 0.000000
-28.932076 -28.168301 -0.572226 1081 0.265778 0.964034 0.000000
-28.931948 -28.168179 -0.559816 1095 0.265778 0.964034 0.000000
-28.932484 -28.168703 -0.547431 1077 0.265778 0.964034 0.000000
-28.933084 -28.169277 -0.535035 1077 0.265778 0.964034 0.000000
-28.933407 -28.169598 -0.522642 1091 0.265778 0.964034 0.000000
-28.933670 -28.169853 -0.510239 1093 0.265778 0.964034 0.000000
-28.932470 -28.168694 -0.497820 1081 0.265778 0.964034 0.000000
-28.931892 -28.168129 -0.485405 1085 0.265778 0.964034 0.000000
-28.932423 -28.168646 -0.473010 1085 0.265778 0.964034 0.000000
-28.932411 -28.168634 -0.460610 1079 0.265778 0.964034 0.000000
-28.931889 -28.168116 -0.448194 1091 0.265778 0.964034 0.000000
-28.931412 -28.167650 -0.435789 1077 0.265778 0.964034 0.000000
-28.931667 -28.167900 -0.423396 1077 0.265778 0.964034 0.000000
-28.932072 -28.168301 -0.410992 1079 0.265778 0.964034 0.000000
-28.932102 -28.168335 -0.398591 1079 0.265778 0.964034 0.000000
-28.931608 -28.167854 -0.386186 1077 0.265778 0.964034 0.000000
-28.932013 -28.168240 -0.373791 1085 0.265778 0.964034 0.000000
-28.932772 -28.168978 -0.361394 1087 0.265778 0.964034 0.000000
-28.931541 -28.167791 -0.348985 1063 0.265778 0.964034 0.000000
-28.930000 -28.166279 -0.336560 1075 0.265778 0.964034 0.000000
-28.929968 -28.166246 -0.324160 1083 0.265778 0.964034 0.000000
-28.930979 -28.167233 -0.311770 1061 0.265778 0.964034 0.000000
-28.931826 -28.168068 -0.299381 1077 0.265778 0.964034 0.000000
-28.945974 -28.163582 -0.671568 1071 0.265778 0.964034 0.000000
-28.946280 -28.163885 -0.659165 1069 0.265778 0.964034 0.000000
-28.947258 -28.164843 -0.646785 1083 0.265778 0.964034 0.000000
-28.946028 -28.163645 -0.634357 1081 0.265778 0.964034 0.000000
-28.946701 -28.164295 -0.621960 1067 0.265778 0.964034 0.000000
-28.947992 -28.165554 -0.609588 1087 0.265778 0.964034 0.000000
-28.947447 -28.165014 -0.597163 1083 0.265778 0.964034 0.000000
-28.947569 -28.165140 -0.584761 1079 0.265778 0.964034 0.000000
-28.948484 -28.166033 -0.572372 1089 0.265778 0.964034 0.000000
-28.948563 -28.166107 -0.559971 1097 0.265778 0.964034 0.000000
-28.947098 -28.164686 -0.547535 1083 0.265778 0.964034 0.000000
-28.946325 -28.163933 -0.535122 1103 0.265778 0.964034 0.000000
-28.947598 -28.165163 -0.522739 1095 0.265778 0.964034 0.000000
-28.948389 -28.165941 -0.510341 1093 0.265778 0.964034 0.000000
-28.946718 -28.164320 -0.497907 1087 0.265778 0.964034 0.000000
-28.946056 -28.163671 -0.485493 1075 0.265778 0.964034 0.000000
-28.948092 -28.165642 -0.473123 1079 0.265778 0.964034 0.000000
-28.948820 -28.166353 -0.460726 1085 0.265778 0.964034 0.000000
-28.947935 -28.165493 -0.448314 1085 0.265778 0.964034 0.000000
-28.946556 -28.164154 -0.435887 1063 0.265778 0.964034 0.000000
-28.946390 -28.164001 -0.423478 1057 0.265778 0.964034 0.000000
-28.947796 -28.165369 -0.411095 1049 0.265778 0.964034 0.000000
-28.948978 -28.166508 -0.398703 1073 0.265778 0.964034 0.000000
-28.949389 -28.166914 -0.386309 1087 0.265778 0.964034 0.000000
-28.947533 -28.165100 -0.373876 1087 0.265778 0.964034 0.000000
-28.946934 -28.164518 -0.361472 1073 0.265778 0.964034 0.000000
-28.946644 -28.164236 -0.349064 1075 0.265778 0.964034 0.000000
-28.946611 -28.164204 -0.336654 1095 0.265778 0.964034 0.000000
-28.947155 -28.164736 -0.324259 1079 0.265778 0.964034 0.000000
-28.946850 -28.164450 -0.311851 1065 0.265778 0.964034 0.000000
-28.946133 -28.163744 -0.299438 1067 0.265778 0.964034 0.000000
-28.961382 -28.161688 -0.671737 1087 0.265778 0.964034 0.000000
-28.962425 -28.162701 -0.659347 1077 0.265778 0.964034 0.000000
-28.963308 -28.163553 -0.646959 1067 0.265778 0.964034 0.000000
-28.962708 -28.162968 -0.634534 1075 0.265778 0.964034 0.000000
-28.962326 -28.162609 -0.622117 1077 0.265778 0.964034 0.000000
-28.962563 -28.162830 -0.609715 1077 0.265778 0.964034 0.000000
-28.961428 -28.161737 -0.597285 1057 0.265778 0.964034 0.000000
-28.959576 -28.159925 -0.584843 1049 0.265778 0.964034 0.000000
-28.959543 -28.159895 -0.572433 1075 0.265778 0.964034 0.000000
-28.960461 -28.160788 -0.560044 1079 0.265778 0.964034 0.000000
-28.959789 -28.160133 -0.547620 1087 0.265778 0.964034 0.000000
-28.960018 -28.160362 -0.535217 1099 0.265778 0.964034 0.000000
-28.959978 -28.160326 -0.522817 1087 0.265778 0.964034 0.000000
-28.959558 -28.159920 -0.510401 1077 0.265778 0.964034 0.000000
-28.960304 -28.160645 -0.498004 1065 0.265778 0.964034 0.000000
-28.960676 -28.161005 -0.485600 1067 0.265778 0.964034 0.000000
-28.960581 -28.160908 -0.473190 1059 0.265778 0.964034 0.000000
-28.960728 -28.161053 -0.460789 1055 0.265778 0.964034 0.000000
-28.959778 -28.160126 -0.448368 1075 0.265778 0.964034 0.000000
-28.959501 -28.159855 -0.435960 1069 0.265778 0.964034 0.000000
-28.960442 -28.160782 -0.423571 1067 0.265778 0.964034 0.000000
-28.961321 -28.161627 -0.411172 1055 0.265778 0.964034 0.000000
-28.961458 -28.161766 -0.398770 1057 0.265778 0.964034 0.000000
-28.960600 -28.160931 -0.386348 1071 0.265778 0.964034 0.000000
-28.960630 -28.160954 -0.373948 1069 0.265778 0.964034 0.000000
-28.961346 -28.161652 -0.361551 1067 0.265778 0.964034 0.000000
-28.961008 -28.161327 -0.349133 1071 0.265778 0.964034 0.000000
-28.960819 -28.161140 -0.336725 1069 0.265778 0.964034 0.000000
-28.959318 -28.159689 -0.324309 1069 0.265778 0.964034 0.000000
-28.959478 -28.159847 -0.311907 1053 0.265778 0.964034 0.000000
-28.960768 -28.161091 -0.299515 1075 0.265778 0.964034 0.000000
-28.974678 -28.158409 -0.671863 1069 0.265778 0.964034 0.000000
-28.973570 -28.157326 -0.659424 1073 0.265778 0.964034 0.000000
-28.975653 -28.159349 -0.647063 1069 0.265778 0.964034 0.000000
-28.974998 -28.158722 -0.634640 1069 0.265778 0.964034 0.000000
-28.973511 -28.157280 -0.622193 1067 0.265778 0.964034 0.000000
-28.972858 -28.156641 -0.609769 1059 0.265778 0.964034 0.000000
-28.972782 -28.156563 -0.597360 1053 0.265778 0.964034 0.000000
-28.972706 -28.156496 -0.584950 1057 0.265778 0.964034 0.000000
-28.973778 -28.157532 -0.572560 1059 0.265778 0.964034 0.000000
-28.974585 -28.158319 -0.560162 1063 0.265778 0.964034 0.000000
-28.972662 -28.156450 -0.547720 1065 0.265778 0.964034 0.000000
-28.972578 -28.156363 -0.535310 1061 0.265778 0.964034 0.000000
-28.974161 -28.157906 -0.522925 1071 0.265778 0.964034 0.000000
-28.973490 -28.157249 -0.510511 1061 0.265778 0.964034 0.000000
-28.971083 -28.154911 -0.498054 1047 0.265778 0.964034 0.000000
-28.970926 -28.154764 -0.485645 1067 0.265778 0.964034 0.000000
-28.971611 -28.155424 -0.473248 1067 0.265778 0.964034 0.000000
-28.971912 -28.155725 -0.460845 1063 0.265778 0.964034 0.000000
-28.972433 -28.156221 -0.448450 1047 0.265778 0.964034 0.000000
-28.973263 -28.157030 -0.436051 1053 0.265778 0.964034 0.000000
-28.973410 -28.157175 -0.423640 1041 0.265778 0.964034 0.000000
-28.973673 -28.157433 -0.411237 1053 0.265778 0.964034 0.000000
-28.972754 -28.156544 -0.398815 1055 0.265778 0.964034 0.000000
-28.972696 -28.156481 -0.386406 1053 0.265778 0.964034 0.000000
-28.973551 -28.157320 -0.374017 1073 0.265778 0.964034 0.000000
-28.974112 -28.157864 -0.361611 1057 0.265778 0.964034 0.000000
-28.974403 -28.158144 -0.349208 1081 0.265778 0.964034 0.000000
-28.973522 -28.157288 -0.336787 1075 0.265778 0.964034 0.000000
-28.973654 -28.157408 -0.324385 1063 0.265778 0.964034 0.000000
-28.972570 -28.156357 -0.311965 1053 0.265778 0.964034 0.000000
-28.971270 -28.155100 -0.299537 1053 0.265778 0.964034 0.000000
