774
-7.468368 -7.061475 -0.552665 1329 0.458372 0.888760 0.000000
-7.468551 -7.061644 -0.549513 1323 0.458372 0.888760 0.000000
-7.469091 -7.062150 -0.546388 1327 0.458372 0.888760 0.000000
-7.469364 -7.062416 -0.543246 1349 0.458372 0.888760 0.000000
-7.469063 -7.062133 -0.540058 1341 0.458372 0.888760 0.000000
-7.469286 -7.062334 -0.536906 1339 0.458372 0.888760 0.000000
-7.468915 -7.061994 -0.533720 1343 0.458372 0.888760 0.000000
-7.469090 -7.062156 -0.530568 1337 0.458372 0.888760 0.000000
-7.469949 -7.062970 -0.527460 1347 0.458372 0.888760 0.000000
-7.469696 -7.062724 -0.524272 1339 0.458372 0.888760 0.000000
-7.468634 -7.061728 -0.521042 1317 0.458372 0.888760 0.000000
-7.468483 -7.061578 -0.517863 1319 0.458372 0.888760 0.000000
-7.469280 -7.062341 -0.514756 1327 0.458372 0.888760 0.000000
-7.469288 -7.062344 -0.511586 1335 0.458372 0.888760 0.000000
-7.469297 -7.062347 -0.508425 1331 0.458372 0.888760 0.000000
-7.470149 -7.063154 -0.505317 1315 0.458372 0.888760 0.000000
-7.469880 -7.062910 -0.502140 1317 0.458372 0.888760 0.000000
-7.469086 -7.062155 -0.498917 1335 0.458372 0.888760 0.000000
-7.469143 -7.062209 -0.495757 1341 0.458372 0.888760 0.000000
-7.469034 -7.062105 -0.492587 1333 0.458372 0.888760 0.000000
-7.469415 -7.062458 -0.489454 1323 0.458372 0.888760 0.000000
-7.469464 -7.062506 -0.486293 1329 0.458372 0.888760 0.000000
-7.469141 -7.062204 -0.483106 1335 0.458372 0.888760 0.000000
-7.468984 -7.062062 -0.479938 1335 0.458372 0.888760 0.000000
-7.469563 -7.062600 -0.476802 1349 0.458372 0.888760 0.000000
-7.470042 -7.063057 -0.473668 1351 0.458372 0.888760 0.000000
-7.469661 -7.062697 -0.470481 1339 0.458372 0.888760 0.000000
-7.469235 -7.062300 -0.467295 1323 0.458372 0.888760 0.000000
-7.469498 -7.062545 -0.464152 1325 0.458372 0.888760 0.000000
-7.470015 -7.063033 -0.461017 1325 0.458372 0.888760 0.000000
-7.469476 -7.062521 -0.457823 1337 0.458372 0.888760 0.000000
-7.469732 -7.062773 -0.454670 1337 0.458372 0.888760 0.000000
-7.470631 -7.063618 -0.451562 1345 0.458372 0.888760 0.000000
-7.470513 -7.063507 -0.448393 1339 0.458372 0.888760 0.000000
-7.469919 -7.062951 -0.445198 1327 0.458372 0.888760 0.000000
-7.469379 -7.062438 -0.442003 1325 0.458372 0.888760 0.000000
-7.469365 -7.062422 -0.438843 1335 0.458372 0.888760 0.000000
-7.469247 -7.062311 -0.435674 1323 0.458372 0.888760 0.000000
-7.469343 -7.062396 -0.432513 1321 0.458372 0.888760 0.000000
-7.469274 -7.062337 -0.429354 1321 0.458372 0.888760 0.000000
-7.469045 -7.062124 -0.426176 1323 0.458372 0.888760 0.000000
-7.469091 -7.062159 -0.423015 1333 0.458372 0.888760 0.000000
-7.469125 -7.062195 -0.419855 1333 0.458372 0.888760 0.000000
-7.469318 -7.062384 -0.416703 1319 0.458372 0.888760 0.000000
-7.469407 -7.062463 -0.413542 1331 0.458372 0.888760 0.000000
-7.469448 -7.062506 -0.410392 1339 0.458372 0.888760 0.000000
-7.469155 -7.062229 -0.407214 1343 0.458372 0.888760 0.000000
-7.468822 -7.061907 -0.404027 1335 0.458372 0.888760 0.000000
-7.469276 -7.062345 -0.400893 1331 0.458372 0.888760 0.000000
-7.469475 -7.062526 -0.397741 1337 0.458372 0.888760 0.000000
-7.468969 -7.062052 -0.394556 1321 0.458372 0.888760 0.000000
-7.469535 -7.062592 -0.391420 1333 0.458372 0.888760 0.000000
-7.470098 -7.063117 -0.388295 1339 0.458372 0.888760 0.000000
-7.469655 -7.062693 -0.385109 1333 0.458372 0.888760 0.000000
-7.468989 -7.062066 -0.381915 1329 0.458372 0.888760 0.000000
-7.468642 -7.061745 -0.378738 1327 0.458372 0.888760 0.000000
-7.469573 -7.062630 -0.375620 1331 0.458372 0.888760 0.000000
-7.470296 -7.063308 -0.372493 1341 0.458372 0.888760 0.000000
-7.470376 -7.063382 -0.369332 1343 0.458372 0.888760 0.000000
-7.470187 -7.063200 -0.366164 1339 0.458372 0.888760 0.000000
-7.469943 -7.062975 -0.362996 1349 0.458372 0.888760 0.000000
-7.469968 -7.063004 -0.359836 1333 0.458372 0.888760 0.000000
-7.470144 -7.063167 -0.356684 1341 0.458372 0.888760 0.000000
-7.469906 -7.062934 -0.353506 1341 0.458372 0.888760 0.000000
-7.469710 -7.062760 -0.350338 1323 0.458372 0.888760 0.000000
-7.469472 -7.062527 -0.347170 1321 0.458372 0.888760 0.000000
-7.469274 -7.062340 -0.344002 1319 0.458372 0.888760 0.000000
-7.469459 -7.062522 -0.340850 1307 0.458372 0.888760 0.000000
-7.469483 -7.062538 -0.337690 1309 0.458372 0.888760 0.000000
-7.469445 -7.062503 -0.334530 1305 0.458372 0.888760 0.000000
-7.469518 -7.062571 -0.331369 1325 0.458372 0.888760 0.000000
-7.469471 -7.062531 -0.328210 1319 0.458372 0.888760 0.000000
-7.469490 -7.062554 -0.325049 1317 0.458372 0.888760 0.000000
-7.468870 -7.061964 -0.321865 1313 0.458372 0.888760 0.000000
-7.469102 -7.062185 -0.318713 1307 0.458372 0.888760 0.000000
-7.470445 -7.063450 -0.315610 1321 0.458372 0.888760 0.000000
-7.470518 -7.063517 -0.312449 1323 0.458372 0.888760 0.000000
-7.469558 -7.062616 -0.309258 1313 0.458372 0.888760 0.000000
-7.472800 -7.061154 -0.701759 1313 0.458372 0.888760 0.000000
-7.472269 -7.060647 -0.698534 1315 0.458372 0.888760 0.000000
-7.471888 -7.060287 -0.695328 1315 0.458372 0.888760 0.000000
-7.472414 -7.060782 -0.692203 1307 0.458372 0.888760 0.000000
-7.473306 -7.061635 -0.689114 1327 0.458372 0.888760 0.000000
-7.472131 -7.060523 -0.685835 1305 0.458372 0.888760 0.000000
-7.471584 -7.060003 -0.682620 1297 0.458372 0.888760 0.000000
-7.471950 -7.060344 -0.679487 1305 0.458372 0.888760 0.000000
-7.472040 -7.060438 -0.676316 1317 0.458372 0.888760 0.000000
-7.472779 -7.061129 -0.673219 1323 0.458372 0.888760 0.000000
-7.473082 -7.061419 -0.670066 1333 0.458372 0.888760 0.000000
-7.472273 -7.060652 -0.666834 1323 0.458372 0.888760 0.000000
-7.472203 -7.060593 -0.663654 1317 0.458372 0.888760 0.000000
-7.472450 -7.060825 -0.660502 1323 0.458372 0.888760 0.000000
-7.472492 -7.060867 -0.657341 1319 0.458372 0.888760 0.000000
-7.473215 -7.061546 -0.654234 1325 0.458372 0.888760 0.000000
-7.473519 -7.061837 -0.651091 1329 0.458372 0.888760 0.000000
-7.473082 -7.061419 -0.647885 1329 0.458372 0.888760 0.000000
-7.472734 -7.061099 -0.644679 1331 0.458372 0.888760 0.000000
-7.472242 -7.060623 -0.641473 1321 0.458372 0.888760 0.000000
-7.472387 -7.060761 -0.638312 1323 0.458372 0.888760 0.000000
-7.472889 -7.061236 -0.635187 1333 0.458372 0.888760 0.000000
-7.472390 -7.060769 -0.631982 1325 0.458372 0.888760 0.000000
-7.471993 -7.060396 -0.628775 1325 0.458372 0.888760 0.000000
-7.472455 -7.060826 -0.625641 1339 0.458372 0.888760 0.000000
-7.472648 -7.061015 -0.622489 1335 0.458372 0.888760 0.000000
-7.472720 -7.061083 -0.619328 1339 0.458372 0.888760 0.000000
-7.472379 -7.060754 -0.616131 1325 0.458372 0.888760 0.000000
-7.471721 -7.060133 -0.612917 1319 0.458372 0.888760 0.000000
-7.472009 -7.060411 -0.609765 1329 0.458372 0.888760 0.000000
-7.472249 -7.060638 -0.606622 1327 0.458372 0.888760 0.000000
-7.471742 -7.060164 -0.603417 1341 0.458372 0.888760 0.000000
-7.471663 -7.060084 -0.600238 1325 0.458372 0.888760 0.000000
-7.472911 -7.061261 -0.597166 1333 0.458372 0.888760 0.000000
-7.473778 -7.062079 -0.594068 1341 0.458372 0.888760 0.000000
-7.473747 -7.062052 -0.590898 1343 0.458372 0.888760 0.000000
-7.473193 -7.061527 -0.587693 1341 0.458372 0.888760 0.000000
-7.472575 -7.060951 -0.584479 1333 0.458372 0.888760 0.000000
-7.472329 -7.060711 -0.581291 1333 0.458372 0.888760 0.000000
-7.472188 -7.060582 -0.578112 1323 0.458372 0.888760 0.000000
-7.472317 -7.060707 -0.574951 1321 0.458372 0.888760 0.000000
-7.471849 -7.060265 -0.571755 1323 0.458372 0.888760 0.000000
-7.471397 -7.059834 -0.568549 1315 0.458372 0.888760 0.000000
-7.472097 -7.060494 -0.565443 1331 0.458372 0.888760 0.000000
-7.472647 -7.061021 -0.562317 1343 0.458372 0.888760 0.000000
-7.473252 -7.061592 -0.559192 1345 0.458372 0.888760 0.000000
-7.472838 -7.061193 -0.555996 1349 0.458372 0.888760 0.000000
-7.472054 -7.060458 -0.552773 1335 0.458372 0.888760 0.000000
-7.472230 -7.060620 -0.549621 1341 0.458372 0.888760 0.000000
-7.472294 -7.060681 -0.546460 1341 0.458372 0.888760 0.000000
-7.472090 -7.060487 -0.543282 1337 0.458372 0.888760 0.000000
-7.471837 -7.060256 -0.540095 1335 0.458372 0.888760 0.000000
-7.471743 -7.060163 -0.536925 1331 0.458372 0.888760 0.000000
-7.472602 -7.060977 -0.533817 1353 0.458372 0.888760 0.000000
-7.473089 -7.061440 -0.530683 1347 0.458372 0.888760 0.000000
-7.472675 -7.061041 -0.527496 1349 0.458372 0.888760 0.000000
-7.471938 -7.060343 -0.524273 1341 0.458372 0.888760 0.000000
-7.472003 -7.060404 -0.521113 1333 0.458372 0.888760 0.000000
-7.473062 -7.061416 -0.518023 1331 0.458372 0.888760 0.000000
-7.473118 -7.061471 -0.514862 1327 0.458372 0.888760 0.000000
-7.472595 -7.060970 -0.511667 1335 0.458372 0.888760 0.000000
-7.472501 -7.060878 -0.508488 1325 0.458372 0.888760 0.000000
-7.472495 -7.060883 -0.505328 1317 0.458372 0.888760 0.000000
-7.472877 -7.061236 -0.502184 1335 0.458372 0.888760 0.000000
-7.472504 -7.060882 -0.498997 1329 0.458372 0.888760 0.000000
-7.472498 -7.060887 -0.495837 1333 0.458372 0.888760 0.000000
-7.472721 -7.061088 -0.492685 1333 0.458372 0.888760 0.000000
-7.473248 -7.061595 -0.489550 1323 0.458372 0.888760 0.000000
-7.473138 -7.061491 -0.486381 1335 0.458372 0.888760 0.000000
-7.472987 -7.061340 -0.483212 1341 0.458372 0.888760 0.000000
-7.473568 -7.061893 -0.480077 1345 0.458372 0.888760 0.000000
-7.473140 -7.061481 -0.476891 1343 0.458372 0.888760 0.000000
-7.472443 -7.060829 -0.473687 1331 0.458372 0.888760 0.000000
-7.471745 -7.060176 -0.470474 1327 0.458372 0.888760 0.000000
-7.472111 -7.060518 -0.467340 1323 0.458372 0.888760 0.000000
-7.472795 -7.061165 -0.464214 1327 0.458372 0.888760 0.000000
-7.473107 -7.061462 -0.461071 1333 0.458372 0.888760 0.000000
-7.473695 -7.062006 -0.457935 1343 0.458372 0.888760 0.000000
-7.472887 -7.061253 -0.454733 1333 0.458372 0.888760 0.000000
-7.472189 -7.060587 -0.451529 1333 0.458372 0.888760 0.000000
-7.472602 -7.060979 -0.448385 1331 0.458372 0.888760 0.000000
-7.472271 -7.060671 -0.445208 1315 0.458372 0.888760 0.000000
-7.472264 -7.060661 -0.442038 1317 0.458372 0.888760 0.000000
-7.472457 -7.060851 -0.438886 1319 0.458372 0.888760 0.000000
-7.471815 -7.060242 -0.435692 1311 0.458372 0.888760 0.000000
-7.471959 -7.060380 -0.432541 1331 0.458372 0.888760 0.000000
-7.472690 -7.061065 -0.429414 1333 0.458372 0.888760 0.000000
-7.472620 -7.061005 -0.426244 1329 0.458372 0.888760 0.000000
-7.472503 -7.060894 -0.423076 1325 0.458372 0.888760 0.000000
-7.472591 -7.060974 -0.419925 1313 0.458372 0.888760 0.000000
-7.472687 -7.061060 -0.416764 1321 0.458372 0.888760 0.000000
-7.472450 -7.060841 -0.413586 1313 0.458372 0.888760 0.000000
-7.472325 -7.060724 -0.410417 1317 0.458372 0.888760 0.000000
-7.472469 -7.060861 -0.407265 1323 0.458372 0.888760 0.000000
-7.472335 -7.060738 -0.404097 1331 0.458372 0.888760 0.000000
-7.472693 -7.061072 -0.400953 1343 0.458372 0.888760 0.000000
-7.472941 -7.061306 -0.397811 1341 0.458372 0.888760 0.000000
-7.472283 -7.060685 -0.394607 1339 0.458372 0.888760 0.000000
-7.471831 -7.060255 -0.391431 1321 0.458372 0.888760 0.000000
-7.472348 -7.060742 -0.388296 1319 0.458372 0.888760 0.000000
-7.472693 -7.061079 -0.385143 1329 0.458372 0.888760 0.000000
-7.472662 -7.061051 -0.381983 1335 0.458372 0.888760 0.000000
-7.472273 -7.060670 -0.378807 1327 0.458372 0.888760 0.000000
-7.471918 -7.060344 -0.375630 1315 0.458372 0.888760 0.000000
-7.472317 -7.060724 -0.372486 1327 0.458372 0.888760 0.000000
-7.472777 -7.061154 -0.369342 1333 0.458372 0.888760 0.000000
-7.472636 -7.061024 -0.366173 1327 0.458372 0.888760 0.000000
-7.472503 -7.060900 -0.363014 1319 0.458372 0.888760 0.000000
-7.473178 -7.061527 -0.359878 1331 0.458372 0.888760 0.000000
-7.473347 -7.061698 -0.356726 1331 0.458372 0.888760 0.000000
-7.473214 -7.061574 -0.353557 1325 0.458372 0.888760 0.000000
-7.473287 -7.061642 -0.350406 1331 0.458372 0.888760 0.000000
-7.473367 -7.061715 -0.347246 1327 0.458372 0.888760 0.000000
-7.473439 -7.061783 -0.344085 1317 0.458372 0.888760 0.000000
-7.472979 -7.061346 -0.340909 1313 0.458372 0.888760 0.000000
-7.472362 -7.060770 -0.337715 1311 0.458372 0.888760 0.000000
-7.472697 -7.061087 -0.334572 1303 0.458372 0.888760 0.000000
-7.473246 -7.061599 -0.331436 1315 0.458372 0.888760 0.000000
-7.472785 -7.061162 -0.328261 1315 0.458372 0.888760 0.000000
-7.472334 -7.060733 -0.325075 1309 0.458372 0.888760 0.000000
-7.472558 -7.060947 -0.321923 1307 0.458372 0.888760 0.000000
-7.473314 -7.061665 -0.318795 1313 0.458372 0.888760 0.000000
-7.473316 -7.061676 -0.315635 1303 0.458372 0.888760 0.000000
-7.473126 -7.061494 -0.312467 1317 0.458372 0.888760 0.000000
-7.472984 -7.061350 -0.309308 1323 0.458372 0.888760 0.000000
-7.475870 -7.059822 -0.701842 1315 0.458372 0.888760 0.000000
-7.475551 -7.059512 -0.698644 1321 0.458372 0.888760 0.000000
-7.475379 -7.059357 -0.695456 1321 0.458372 0.888760 0.000000
-7.475158 -7.059150 -0.692268 1321 0.458372 0.888760 0.000000
-7.474881 -7.058886 -0.689070 1327 0.458372 0.888760 0.000000
-7.474819 -7.058833 -0.685891 1319 0.458372 0.888760 0.000000
-7.474923 -7.058925 -0.682730 1305 0.458372 0.888760 0.000000
-7.475019 -7.059011 -0.679569 1313 0.458372 0.888760 0.000000
-7.474736 -7.058754 -0.676372 1317 0.458372 0.888760 0.000000
-7.475045 -7.059037 -0.673229 1325 0.458372 0.888760 0.000000
-7.475562 -7.059525 -0.670104 1315 0.458372 0.888760 0.000000
-7.475604 -7.059567 -0.666933 1321 0.458372 0.888760 0.000000
-7.475534 -7.059508 -0.663764 1317 0.458372 0.888760 0.000000
-7.475685 -7.059638 -0.660602 1333 0.458372 0.888760 0.000000
-7.475774 -7.059731 -0.657441 1331 0.458372 0.888760 0.000000
-7.475387 -7.059365 -0.654235 1329 0.458372 0.888760 0.000000
-7.475634 -7.059598 -0.651093 1339 0.458372 0.888760 0.000000
-7.476206 -7.060130 -0.647967 1329 0.458372 0.888760 0.000000
-7.475652 -7.059618 -0.644752 1313 0.458372 0.888760 0.000000
-7.474890 -7.058888 -0.641519 1325 0.458372 0.888760 0.000000
-7.474861 -7.058874 -0.638349 1319 0.458372 0.888760 0.000000
-7.475855 -7.059808 -0.635260 1339 0.458372 0.888760 0.000000
-7.475458 -7.059435 -0.632054 1329 0.458372 0.888760 0.000000
-7.474490 -7.058514 -0.628813 1317 0.458372 0.888760 0.000000
-7.474467 -7.058492 -0.625643 1319 0.458372 0.888760 0.000000
-7.474548 -7.058566 -0.622472 1329 0.458372 0.888760 0.000000
-7.474684 -7.058697 -0.619321 1329 0.458372 0.888760 0.000000
-7.474599 -7.058624 -0.616141 1329 0.458372 0.888760 0.000000
-7.474631 -7.058647 -0.612981 1331 0.458372 0.888760 0.000000
-7.475348 -7.059333 -0.609864 1333 0.458372 0.888760 0.000000
-7.475048 -7.059050 -0.606677 1327 0.458372 0.888760 0.000000
-7.474492 -7.058524 -0.603462 1311 0.458372 0.888760 0.000000
-7.474621 -7.058650 -0.600311 1321 0.458372 0.888760 0.000000
-7.475234 -7.059227 -0.597185 1333 0.458372 0.888760 0.000000
-7.475735 -7.059702 -0.594060 1337 0.458372 0.888760 0.000000
-7.475284 -7.059272 -0.590854 1335 0.458372 0.888760 0.000000
-7.474880 -7.058894 -0.587658 1317 0.458372 0.888760 0.000000
-7.475380 -7.059355 -0.584533 1329 0.458372 0.888760 0.000000
-7.475509 -7.059480 -0.581372 1327 0.458372 0.888760 0.000000
-7.475574 -7.059541 -0.578211 1317 0.458372 0.888760 0.000000
-7.475067 -7.059067 -0.575006 1325 0.458372 0.888760 0.000000
-7.474496 -7.058528 -0.571791 1329 0.458372 0.888760 0.000000
-7.475418 -7.059392 -0.568693 1345 0.458372 0.888760 0.000000
-7.475857 -7.059818 -0.565558 1337 0.458372 0.888760 0.000000
-7.475190 -7.059176 -0.562345 1341 0.458372 0.888760 0.000000
-7.474889 -7.058893 -0.559157 1339 0.458372 0.888760 0.000000
-7.475010 -7.059011 -0.555996 1353 0.458372 0.888760 0.000000
-7.475283 -7.059278 -0.552854 1341 0.458372 0.888760 0.000000
-7.475935 -7.059886 -0.549737 1343 0.458372 0.888760 0.000000
-7.476269 -7.060202 -0.546594 1355 0.458372 0.888760 0.000000
-7.475380 -7.059357 -0.543362 1349 0.458372 0.888760 0.000000
-7.474278 -7.058316 -0.540123 1331 0.458372 0.888760 0.000000
-7.474231 -7.058275 -0.536953 1323 0.458372 0.888760 0.000000
-7.474504 -7.058541 -0.533800 1319 0.458372 0.888760 0.000000
-7.475101 -7.059105 -0.530685 1327 0.458372 0.888760 0.000000
-7.475268 -7.059262 -0.527523 1333 0.458372 0.888760 0.000000
-7.475325 -7.059317 -0.524362 1335 0.458372 0.888760 0.000000
-7.475333 -7.059319 -0.521202 1337 0.458372 0.888760 0.000000
-7.475177 -7.059177 -0.518024 1327 0.458372 0.888760 0.000000
-7.475289 -7.059276 -0.514863 1343 0.458372 0.888760 0.000000
-7.475243 -7.059235 -0.511703 1339 0.458372 0.888760 0.000000
-7.475513 -7.059487 -0.508550 1331 0.458372 0.888760 0.000000
-7.475515 -7.059498 -0.505390 1327 0.458372 0.888760 0.000000
-7.475834 -7.059801 -0.502247 1333 0.458372 0.888760 0.000000
-7.476105 -7.060053 -0.499095 1327 0.458372 0.888760 0.000000
-7.475892 -7.059853 -0.495916 1337 0.458372 0.888760 0.000000
-7.475520 -7.059499 -0.492730 1323 0.458372 0.888760 0.000000
-7.476109 -7.060058 -0.489604 1335 0.458372 0.888760 0.000000
-7.476007 -7.059959 -0.486425 1341 0.458372 0.888760 0.000000
-7.475515 -7.059497 -0.483240 1339 0.458372 0.888760 0.000000
-7.475200 -7.059202 -0.480053 1339 0.458372 0.888760 0.000000
-7.474882 -7.058892 -0.476866 1329 0.458372 0.888760 0.000000
-7.475408 -7.059400 -0.473740 1331 0.458372 0.888760 0.000000
-7.475561 -7.059545 -0.470579 1325 0.458372 0.888760 0.000000
-7.475878 -7.059833 -0.467436 1333 0.458372 0.888760 0.000000
-7.475976 -7.059933 -0.464275 1333 0.458372 0.888760 0.000000
-7.475437 -7.059421 -0.461080 1331 0.458372 0.888760 0.000000
-7.475327 -7.059316 -0.457911 1335 0.458372 0.888760 0.000000
-7.475162 -7.059167 -0.454742 1329 0.458372 0.888760 0.000000
-7.474988 -7.058998 -0.451564 1333 0.458372 0.888760 0.000000
-7.475085 -7.059098 -0.448413 1321 0.458372 0.888760 0.000000
-7.474863 -7.058877 -0.445235 1313 0.458372 0.888760 0.000000
-7.474539 -7.058576 -0.442048 1319 0.458372 0.888760 0.000000
-7.474842 -7.058867 -0.438905 1313 0.458372 0.888760 0.000000
-7.475471 -7.059456 -0.435779 1317 0.458372 0.888760 0.000000
-7.476250 -7.060193 -0.432662 1329 0.458372 0.888760 0.000000
-7.476394 -7.060331 -0.429500 1333 0.458372 0.888760 0.000000
-7.475958 -7.059913 -0.426314 1329 0.458372 0.888760 0.000000
-7.475675 -7.059657 -0.423137 1325 0.458372 0.888760 0.000000
-7.475501 -7.059487 -0.419968 1325 0.458372 0.888760 0.000000
-7.475375 -7.059370 -0.416799 1311 0.458372 0.888760 0.000000
-7.475146 -7.059157 -0.413622 1317 0.458372 0.888760 0.000000
-7.475132 -7.059142 -0.410462 1327 0.458372 0.888760 0.000000
-7.475482 -7.059470 -0.407318 1327 0.458372 0.888760 0.000000
-7.475475 -7.059461 -0.404158 1333 0.458372 0.888760 0.000000
-7.475563 -7.059540 -0.400997 1335 0.458372 0.888760 0.000000
-7.475001 -7.059022 -0.397802 1335 0.458372 0.888760 0.000000
-7.474820 -7.058847 -0.394634 1331 0.458372 0.888760 0.000000
-7.476020 -7.059986 -0.391533 1343 0.458372 0.888760 0.000000
-7.476315 -7.060256 -0.388390 1339 0.458372 0.888760 0.000000
-7.476030 -7.059986 -0.385213 1329 0.458372 0.888760 0.000000
-7.475475 -7.059461 -0.382018 1319 0.458372 0.888760 0.000000
-7.474817 -7.058840 -0.378824 1317 0.458372 0.888760 0.000000
-7.474891 -7.058921 -0.375673 1315 0.458372 0.888760 0.000000
-7.475829 -7.059797 -0.372554 1333 0.458372 0.888760 0.000000
-7.475369 -7.059361 -0.369368 1325 0.458372 0.888760 0.000000
-7.474973 -7.058989 -0.366192 1319 0.458372 0.888760 0.000000
-7.475371 -7.059368 -0.363048 1319 0.458372 0.888760 0.000000
-7.475390 -7.059392 -0.359888 1323 0.458372 0.888760 0.000000
-7.475041 -7.059057 -0.356711 1327 0.458372 0.888760 0.000000
-7.475383 -7.059379 -0.353568 1313 0.458372 0.888760 0.000000
-7.475561 -7.059556 -0.350416 1311 0.458372 0.888760 0.000000
-7.475799 -7.059769 -0.347264 1319 0.458372 0.888760 0.000000
-7.475665 -7.059645 -0.344095 1311 0.458372 0.888760 0.000000
-7.475357 -7.059356 -0.340918 1313 0.458372 0.888760 0.000000
-7.475327 -7.059328 -0.337758 1313 0.458372 0.888760 0.000000
-7.475447 -7.059446 -0.334607 1305 0.458372 0.888760 0.000000
-7.475471 -7.059462 -0.331447 1313 0.458372 0.888760 0.000000
-7.474901 -7.058924 -0.328262 1301 0.458372 0.888760 0.000000
-7.475451 -7.059451 -0.325117 1307 0.458372 0.888760 0.000000
-7.476318 -7.060270 -0.321998 1313 0.458372 0.888760 0.000000
-7.476327 -7.060274 -0.318838 1311 0.458372 0.888760 0.000000
-7.475653 -7.059640 -0.315644 1297 0.458372 0.888760 0.000000
-7.475035 -7.059051 -0.312460 1307 0.458372 0.888760 0.000000
-7.475037 -7.059062 -0.309300 1313 0.458372 0.888760 0.000000
-7.478067 -7.057495 -0.701843 1323 0.458372 0.888760 0.000000
-7.478109 -7.057537 -0.698682 1327 0.458372 0.888760 0.000000
-7.478696 -7.058082 -0.695557 1339 0.458372 0.888760 0.000000
-7.479008 -7.058379 -0.692414 1331 0.458372 0.888760 0.000000
-7.478946 -7.058325 -0.689234 1325 0.458372 0.888760 0.000000
-7.478883 -7.058258 -0.686065 1321 0.458372 0.888760 0.000000
-7.478972 -7.058352 -0.682894 1319 0.458372 0.888760 0.000000
-7.479125 -7.058496 -0.679742 1323 0.458372 0.888760 0.000000
-7.478848 -7.058232 -0.676545 1317 0.458372 0.888760 0.000000
-7.478833 -7.058216 -0.673375 1329 0.458372 0.888760 0.000000
-7.478398 -7.057812 -0.670159 1323 0.458372 0.888760 0.000000
-7.477953 -7.057388 -0.666953 1315 0.458372 0.888760 0.000000
-7.478209 -7.057627 -0.663801 1307 0.458372 0.888760 0.000000
-7.478464 -7.057867 -0.660658 1317 0.458372 0.888760 0.000000
-7.477758 -7.057208 -0.657425 1315 0.458372 0.888760 0.000000
-7.477633 -7.057090 -0.654246 1299 0.458372 0.888760 0.000000
-7.478737 -7.058126 -0.651165 1327 0.458372 0.888760 0.000000
-7.478818 -7.058199 -0.648004 1327 0.458372 0.888760 0.000000
-7.478534 -7.057943 -0.644807 1329 0.458372 0.888760 0.000000
-7.478622 -7.058022 -0.641646 1329 0.458372 0.888760 0.000000
-7.477854 -7.057300 -0.638413 1319 0.458372 0.888760 0.000000
-7.477679 -7.057131 -0.635235 1319 0.458372 0.888760 0.000000
-7.478506 -7.057905 -0.632127 1307 0.458372 0.888760 0.000000
-7.478961 -7.058343 -0.628993 1317 0.458372 0.888760 0.000000
-7.477881 -7.057320 -0.625743 1323 0.458372 0.888760 0.000000
-7.477644 -7.057101 -0.622555 1311 0.458372 0.888760 0.000000
-7.478631 -7.058029 -0.619466 1327 0.458372 0.888760 0.000000
-7.477965 -7.057402 -0.616242 1329 0.458372 0.888760 0.000000
-7.477728 -7.057182 -0.613054 1329 0.458372 0.888760 0.000000
-7.478125 -7.057548 -0.609920 1323 0.458372 0.888760 0.000000
-7.478635 -7.058030 -0.606785 1321 0.458372 0.888760 0.000000
-7.479295 -7.058658 -0.603669 1325 0.458372 0.888760 0.000000
-7.479320 -7.058674 -0.600509 1315 0.458372 0.888760 0.000000
-7.478973 -7.058353 -0.597312 1327 0.458372 0.888760 0.000000
-7.478362 -7.057770 -0.594097 1323 0.458372 0.888760 0.000000
-7.478428 -7.057845 -0.590927 1325 0.458372 0.888760 0.000000
-7.478722 -7.058115 -0.587784 1325 0.458372 0.888760 0.000000
-7.478954 -7.058336 -0.584632 1329 0.458372 0.888760 0.000000
-7.478923 -7.058308 -0.581462 1329 0.458372 0.888760 0.000000
-7.478519 -7.057929 -0.578266 1327 0.458372 0.888760 0.000000
-7.478211 -7.057640 -0.575078 1319 0.458372 0.888760 0.000000
-7.478443 -7.057860 -0.571926 1331 0.458372 0.888760 0.000000
-7.478578 -7.057978 -0.568765 1339 0.458372 0.888760 0.000000
-7.477952 -7.057396 -0.565561 1337 0.458372 0.888760 0.000000
-7.477437 -7.056901 -0.562355 1329 0.458372 0.888760 0.000000
-7.477447 -7.056918 -0.559185 1331 0.458372 0.888760 0.000000
-7.477679 -7.057139 -0.556033 1327 0.458372 0.888760 0.000000
-7.477965 -7.057404 -0.552890 1329 0.458372 0.888760 0.000000
-7.478562 -7.057968 -0.549765 1349 0.458372 0.888760 0.000000
-7.479532 -7.058883 -0.546665 1349 0.458372 0.888760 0.000000
-7.479589 -7.058938 -0.543505 1337 0.458372 0.888760 0.000000
-7.478804 -7.058203 -0.540282 1337 0.458372 0.888760 0.000000
-7.478448 -7.057861 -0.537095 1335 0.458372 0.888760 0.000000
-7.478194 -7.057616 -0.533908 1333 0.458372 0.888760 0.000000
-7.478409 -7.057824 -0.530756 1329 0.458372 0.888760 0.000000
-7.479158 -7.058535 -0.527648 1343 0.458372 0.888760 0.000000
-7.478794 -7.058188 -0.524452 1329 0.458372 0.888760 0.000000
-7.478486 -7.057899 -0.521265 1331 0.458372 0.888760 0.000000
-7.478764 -7.058156 -0.518122 1331 0.458372 0.888760 0.000000
-7.479353 -7.058716 -0.514996 1347 0.458372 0.888760 0.000000
-7.479243 -7.058610 -0.511817 1335 0.458372 0.888760 0.000000
-7.478935 -7.058321 -0.508630 1321 0.458372 0.888760 0.000000
-7.479143 -7.058523 -0.505478 1323 0.458372 0.888760 0.000000
-7.479095 -7.058468 -0.502308 1327 0.458372 0.888760 0.000000
-7.479257 -7.058632 -0.499157 1337 0.458372 0.888760 0.000000
-7.479099 -7.058475 -0.495978 1327 0.458372 0.888760 0.000000
-7.479156 -7.058531 -0.492818 1333 0.458372 0.888760 0.000000
-7.479315 -7.058681 -0.489666 1341 0.458372 0.888760 0.000000
-7.478943 -7.058327 -0.486479 1341 0.458372 0.888760 0.000000
-7.478357 -7.057776 -0.483275 1325 0.458372 0.888760 0.000000
-7.478454 -7.057877 -0.480114 1333 0.458372 0.888760 0.000000
-7.478566 -7.057975 -0.476963 1327 0.458372 0.888760 0.000000
-7.478669 -7.058067 -0.473802 1327 0.458372 0.888760 0.000000
-7.478505 -7.057919 -0.470633 1333 0.458372 0.888760 0.000000
-7.478284 -7.057712 -0.467455 1329 0.458372 0.888760 0.000000
-7.478388 -7.057804 -0.464294 1337 0.458372 0.888760 0.000000
-7.478015 -7.057451 -0.461108 1329 0.458372 0.888760 0.000000
-7.477946 -7.057392 -0.457938 1313 0.458372 0.888760 0.000000
-7.478630 -7.058039 -0.454812 1327 0.458372 0.888760 0.000000
-7.477988 -7.057431 -0.451618 1323 0.458372 0.888760 0.000000
-7.477338 -7.056816 -0.448414 1311 0.458372 0.888760 0.000000
-7.478023 -7.057463 -0.445287 1319 0.458372 0.888760 0.000000
-7.478008 -7.057447 -0.442127 1323 0.458372 0.888760 0.000000
-7.477619 -7.057082 -0.438941 1313 0.458372 0.888760 0.000000
-7.478304 -7.057729 -0.435814 1319 0.458372 0.888760 0.000000
-7.478932 -7.058319 -0.432688 1327 0.458372 0.888760 0.000000
-7.478703 -7.058105 -0.429510 1317 0.458372 0.888760 0.000000
-7.478586 -7.057995 -0.426341 1327 0.458372 0.888760 0.000000
-7.478198 -7.057629 -0.423155 1311 0.458372 0.888760 0.000000
-7.478556 -7.057964 -0.420012 1309 0.458372 0.888760 0.000000
-7.478859 -7.058254 -0.416869 1321 0.458372 0.888760 0.000000
-7.478734 -7.058137 -0.413700 1323 0.458372 0.888760 0.000000
-7.478919 -7.058320 -0.410548 1333 0.458372 0.888760 0.000000
-7.479014 -7.058406 -0.407387 1329 0.458372 0.888760 0.000000
-7.479365 -7.058734 -0.404244 1331 0.458372 0.888760 0.000000
-7.479136 -7.058522 -0.401066 1325 0.458372 0.888760 0.000000
-7.478368 -7.057799 -0.397863 1327 0.458372 0.888760 0.000000
-7.478137 -7.057572 -0.394695 1337 0.458372 0.888760 0.000000
-7.478797 -7.058201 -0.391559 1341 0.458372 0.888760 0.000000
-7.479316 -7.058689 -0.388424 1339 0.458372 0.888760 0.000000
-7.478974 -7.058361 -0.385247 1333 0.458372 0.888760 0.000000
-7.478627 -7.058040 -0.382070 1337 0.458372 0.888760 0.000000
-7.478501 -7.057923 -0.378901 1329 0.458372 0.888760 0.000000
-7.479265 -7.058647 -0.375774 1327 0.458372 0.888760 0.000000
-7.479132 -7.058523 -0.372605 1331 0.458372 0.888760 0.000000
-7.478259 -7.057691 -0.369403 1321 0.458372 0.888760 0.000000
-7.478436 -7.057868 -0.366251 1315 0.458372 0.888760 0.000000
-7.479159 -7.058547 -0.363124 1325 0.458372 0.888760 0.000000
-7.479280 -7.058665 -0.359963 1319 0.458372 0.888760 0.000000
-7.478303 -7.057738 -0.356762 1321 0.458372 0.888760 0.000000
-7.477852 -7.057308 -0.353577 1315 0.458372 0.888760 0.000000
-7.478456 -7.057879 -0.350441 1313 0.458372 0.888760 0.000000
-7.478958 -7.058354 -0.347306 1319 0.458372 0.888760 0.000000
-7.478872 -7.058268 -0.344137 1321 0.458372 0.888760 0.000000
-7.478833 -7.058233 -0.340977 1325 0.458372 0.888760 0.000000
-7.478962 -7.058359 -0.337816 1321 0.458372 0.888760 0.000000
-7.478875 -7.058273 -0.334656 1315 0.458372 0.888760 0.000000
-7.478623 -7.058042 -0.331479 1315 0.458372 0.888760 0.000000
-7.478109 -7.057561 -0.328303 1309 0.458372 0.888760 0.000000
-7.478228 -7.057666 -0.325142 1311 0.458372 0.888760 0.000000
-7.478301 -7.057733 -0.321992 1303 0.458372 0.888760 0.000000
-7.478366 -7.057794 -0.318831 1299 0.458372 0.888760 0.000000
-7.479027 -7.058423 -0.315695 1317 0.458372 0.888760 0.000000
-7.478981 -7.058382 -0.312535 1319 0.458372 0.888760 0.000000
-7.478727 -7.058136 -0.309357 1315 0.458372 0.888760 0.000000
-7.481112 -7.055872 -0.701916 1325 0.458372 0.888760 0.000000
-7.481153 -7.055915 -0.698756 1331 0.458372 0.888760 0.000000
-7.481520 -7.056256 -0.695612 1331 0.458372 0.888760 0.000000
-7.481616 -7.056356 -0.692451 1329 0.458372 0.888760 0.000000
-7.481347 -7.056098 -0.689254 1319 0.458372 0.888760 0.000000
-7.481070 -7.055833 -0.686056 1311 0.458372 0.888760 0.000000
-7.481325 -7.056073 -0.682904 1319 0.458372 0.888760 0.000000
-7.481899 -7.056618 -0.679789 1321 0.458372 0.888760 0.000000
-7.481622 -7.056354 -0.676591 1305 0.458372 0.888760 0.000000
-7.481074 -7.055835 -0.673376 1305 0.458372 0.888760 0.000000
-7.480909 -7.055686 -0.670188 1309 0.458372 0.888760 0.000000
-7.480736 -7.055517 -0.666999 1307 0.458372 0.888760 0.000000
-7.480818 -7.055605 -0.663838 1299 0.458372 0.888760 0.000000
-7.481238 -7.055989 -0.660704 1321 0.458372 0.888760 0.000000
-7.481382 -7.056127 -0.657543 1315 0.458372 0.888760 0.000000
-7.481472 -7.056221 -0.654382 1319 0.458372 0.888760 0.000000
-7.481512 -7.056249 -0.651212 1317 0.458372 0.888760 0.000000
-7.481966 -7.056686 -0.648077 1325 0.458372 0.888760 0.000000
-7.481578 -7.056321 -0.644881 1315 0.458372 0.888760 0.000000
-7.481286 -7.056044 -0.641683 1319 0.458372 0.888760 0.000000
-7.481485 -7.056225 -0.638531 1325 0.458372 0.888760 0.000000
-7.481462 -7.056203 -0.635362 1323 0.458372 0.888760 0.000000
-7.481544 -7.056290 -0.632201 1321 0.458372 0.888760 0.000000
-7.481418 -7.056173 -0.629012 1319 0.458372 0.888760 0.000000
-7.481339 -7.056094 -0.625842 1327 0.458372 0.888760 0.000000
-7.481213 -7.055976 -0.622664 1321 0.458372 0.888760 0.000000
-7.481405 -7.056151 -0.619502 1319 0.458372 0.888760 0.000000
-7.481493 -7.056231 -0.616341 1321 0.458372 0.888760 0.000000
-7.481297 -7.056057 -0.613163 1323 0.458372 0.888760 0.000000
-7.481488 -7.056232 -0.610011 1321 0.458372 0.888760 0.000000
-7.481831 -7.056555 -0.606867 1329 0.458372 0.888760 0.000000
-7.482181 -7.056883 -0.603724 1331 0.458372 0.888760 0.000000
-7.481985 -7.056709 -0.600536 1317 0.458372 0.888760 0.000000
-7.481374 -7.056126 -0.597322 1317 0.458372 0.888760 0.000000
-7.481772 -7.056506 -0.594188 1323 0.458372 0.888760 0.000000
-7.481997 -7.056720 -0.591035 1315 0.458372 0.888760 0.000000
-7.481504 -7.056245 -0.587830 1319 0.458372 0.888760 0.000000
-7.480989 -7.055764 -0.584625 1315 0.458372 0.888760 0.000000
-7.481054 -7.055825 -0.581454 1321 0.458372 0.888760 0.000000
-7.481183 -7.055951 -0.578303 1325 0.458372 0.888760 0.000000
-7.480937 -7.055711 -0.575115 1311 0.458372 0.888760 0.000000
-7.481217 -7.055983 -0.571962 1323 0.458372 0.888760 0.000000
-7.481345 -7.056094 -0.568811 1329 0.458372 0.888760 0.000000
-7.481100 -7.055869 -0.565623 1329 0.458372 0.888760 0.000000
-7.481386 -7.056133 -0.562481 1335 0.458372 0.888760 0.000000
-7.481872 -7.056596 -0.559346 1339 0.458372 0.888760 0.000000
-7.481993 -7.056715 -0.556185 1327 0.458372 0.888760 0.000000
-7.481748 -7.056476 -0.552997 1341 0.458372 0.888760 0.000000
-7.481225 -7.055989 -0.549802 1339 0.458372 0.888760 0.000000
-7.480703 -7.055503 -0.546597 1333 0.458372 0.888760 0.000000
-7.480878 -7.055665 -0.543435 1331 0.458372 0.888760 0.000000
-7.481849 -7.056581 -0.540346 1335 0.458372 0.888760 0.000000
-7.482548 -7.057240 -0.537219 1343 0.458372 0.888760 0.000000
-7.482295 -7.056994 -0.534041 1329 0.458372 0.888760 0.000000
-7.482297 -7.057006 -0.530871 1333 0.458372 0.888760 0.000000
-7.482314 -7.057015 -0.527711 1335 0.458372 0.888760 0.000000
-7.481465 -7.056215 -0.524479 1323 0.458372 0.888760 0.000000
-7.481419 -7.056175 -0.521309 1323 0.458372 0.888760 0.000000
-7.481738 -7.056479 -0.518166 1323 0.458372 0.888760 0.000000
-7.481271 -7.056036 -0.514970 1319 0.458372 0.888760 0.000000
-7.481390 -7.056141 -0.511809 1323 0.458372 0.888760 0.000000
-7.481599 -7.056342 -0.508667 1335 0.458372 0.888760 0.000000
-7.481496 -7.056243 -0.505488 1341 0.458372 0.888760 0.000000
-7.480863 -7.055655 -0.502284 1321 0.458372 0.888760 0.000000
-7.480912 -7.055704 -0.499123 1315 0.458372 0.888760 0.000000
-7.481618 -7.056356 -0.495997 1317 0.458372 0.888760 0.000000
-7.481930 -7.056653 -0.492854 1325 0.458372 0.888760 0.000000
-7.482090 -7.056803 -0.489702 1329 0.458372 0.888760 0.000000
-7.481614 -7.056355 -0.486507 1339 0.458372 0.888760 0.000000
-7.481132 -7.055900 -0.483311 1335 0.458372 0.888760 0.000000
-7.480752 -7.055554 -0.480124 1325 0.458372 0.888760 0.000000
-7.480808 -7.055594 -0.476964 1325 0.458372 0.888760 0.000000
-7.481389 -7.056146 -0.473828 1329 0.458372 0.888760 0.000000
-7.482081 -7.056800 -0.470712 1331 0.458372 0.888760 0.000000
-7.482019 -7.056746 -0.467542 1321 0.458372 0.888760 0.000000
-7.481210 -7.055979 -0.464330 1323 0.458372 0.888760 0.000000
-7.480673 -7.055480 -0.461135 1325 0.458372 0.888760 0.000000
-7.481039 -7.055820 -0.457991 1323 0.458372 0.888760 0.000000
-7.481778 -7.056512 -0.454874 1329 0.458372 0.888760 0.000000
-7.481605 -7.056357 -0.451696 1337 0.458372 0.888760 0.000000
-7.481495 -7.056252 -0.448527 1325 0.458372 0.888760 0.000000
-7.481750 -7.056492 -0.445374 1323 0.458372 0.888760 0.000000
-7.480997 -7.055782 -0.442171 1315 0.458372 0.888760 0.000000
-7.480927 -7.055722 -0.439002 1307 0.458372 0.888760 0.000000
-7.481715 -7.056465 -0.435884 1319 0.458372 0.888760 0.000000
-7.482390 -7.057092 -0.432758 1325 0.458372 0.888760 0.000000
-7.482058 -7.056784 -0.429571 1323 0.458372 0.888760 0.000000
-7.481360 -7.056118 -0.426368 1317 0.458372 0.888760 0.000000
-7.481974 -7.056709 -0.423242 1315 0.458372 0.888760 0.000000
-7.482291 -7.056998 -0.420099 1313 0.458372 0.888760 0.000000
-7.482538 -7.057231 -0.416946 1331 0.458372 0.888760 0.000000
-7.482199 -7.056917 -0.413759 1333 0.458372 0.888760 0.000000
-7.482018 -7.056742 -0.410591 1325 0.458372 0.888760 0.000000
-7.481940 -7.056676 -0.407422 1325 0.458372 0.888760 0.000000
-7.481179 -7.055959 -0.404219 1329 0.458372 0.888760 0.000000
-7.481164 -7.055943 -0.401059 1331 0.458372 0.888760 0.000000
-7.481673 -7.056426 -0.397924 1325 0.458372 0.888760 0.000000
-7.481278 -7.056053 -0.394738 1319 0.458372 0.888760 0.000000
-7.480993 -7.055782 -0.391560 1331 0.458372 0.888760 0.000000
-7.481606 -7.056360 -0.388434 1333 0.458372 0.888760 0.000000
-7.481534 -7.056286 -0.385265 1321 0.458372 0.888760 0.000000
-7.481719 -7.056469 -0.382113 1335 0.458372 0.888760 0.000000
-7.482014 -7.056740 -0.378960 1331 0.458372 0.888760 0.000000
-7.482460 -7.057171 -0.375826 1339 0.458372 0.888760 0.000000
-7.482700 -7.057398 -0.372674 1333 0.458372 0.888760 0.000000
-7.482097 -7.056821 -0.369479 1333 0.458372 0.888760 0.000000
-7.481002 -7.055786 -0.366270 1319 0.458372 0.888760 0.000000
-7.481139 -7.055917 -0.363108 1319 0.458372 0.888760 0.000000
-7.481267 -7.056042 -0.359957 1323 0.458372 0.888760 0.000000
-7.481188 -7.055962 -0.356788 1323 0.458372 0.888760 0.000000
-7.481469 -7.056234 -0.353645 1315 0.458372 0.888760 0.000000
-7.482129 -7.056863 -0.350509 1319 0.458372 0.888760 0.000000
-7.482899 -7.057579 -0.347381 1327 0.458372 0.888760 0.000000
-7.482814 -7.057507 -0.344212 1331 0.458372 0.888760 0.000000
-7.482355 -7.057071 -0.341036 1313 0.458372 0.888760 0.000000
-7.482530 -7.057233 -0.337875 1323 0.458372 0.888760 0.000000
-7.482340 -7.057052 -0.334706 1319 0.458372 0.888760 0.000000
-7.481771 -7.056514 -0.331522 1319 0.458372 0.888760 0.000000
-7.481097 -7.055881 -0.328338 1299 0.458372 0.888760 0.000000
-7.481162 -7.055942 -0.325177 1315 0.458372 0.888760 0.000000
-7.481339 -7.056118 -0.322025 1307 0.458372 0.888760 0.000000
-7.481839 -7.056580 -0.318881 1313 0.458372 0.888760 0.000000
-7.482270 -7.056999 -0.315736 1311 0.458372 0.888760 0.000000
-7.481976 -7.056707 -0.312559 1307 0.458372 0.888760 0.000000
-7.481716 -7.056470 -0.309391 1301 0.458372 0.888760 0.000000
-7.483872 -7.053998 -0.701973 1313 0.458372 0.888760 0.000000
-7.484024 -7.054141 -0.698811 1325 0.458372 0.888760 0.000000
-7.484390 -7.054482 -0.695668 1327 0.458372 0.888760 0.000000
-7.484653 -7.054728 -0.692525 1329 0.458372 0.888760 0.000000
-7.484376 -7.054463 -0.689328 1313 0.458372 0.888760 0.000000
-7.483892 -7.054008 -0.686112 1309 0.458372 0.888760 0.000000
-7.483609 -7.053751 -0.682915 1305 0.458372 0.888760 0.000000
-7.483713 -7.053844 -0.679754 1297 0.458372 0.888760 0.000000
-7.484016 -7.054134 -0.676611 1311 0.458372 0.888760 0.000000
-7.484009 -7.054124 -0.673431 1305 0.458372 0.888760 0.000000
-7.484313 -7.054416 -0.670288 1311 0.458372 0.888760 0.000000
-7.484512 -7.054597 -0.667136 1305 0.458372 0.888760 0.000000
-7.484704 -7.054786 -0.663984 1313 0.458372 0.888760 0.000000
-7.484276 -7.054375 -0.660768 1327 0.458372 0.888760 0.000000
-7.483404 -7.053556 -0.657526 1315 0.458372 0.888760 0.000000
-7.483438 -7.053593 -0.654356 1319 0.458372 0.888760 0.000000
-7.484113 -7.054220 -0.651249 1325 0.458372 0.888760 0.000000
-7.484257 -7.054357 -0.648088 1315 0.458372 0.888760 0.000000
-7.484877 -7.054941 -0.644972 1315 0.458372 0.888760 0.000000
-7.485498 -7.055525 -0.641846 1321 0.458372 0.888760 0.000000
-7.484888 -7.054955 -0.638632 1311 0.458372 0.888760 0.000000
-7.484127 -7.054239 -0.635399 1313 0.458372 0.888760 0.000000
-7.484478 -7.054567 -0.632255 1329 0.458372 0.888760 0.000000
-7.484828 -7.054895 -0.629112 1325 0.458372 0.888760 0.000000
-7.484058 -7.054173 -0.625879 1311 0.458372 0.888760 0.000000
-7.484093 -7.054209 -0.622709 1311 0.458372 0.888760 0.000000
-7.484807 -7.054881 -0.619602 1325 0.458372 0.888760 0.000000
-7.485270 -7.055311 -0.616468 1329 0.458372 0.888760 0.000000
-7.485239 -7.055283 -0.613298 1331 0.458372 0.888760 0.000000
-7.485424 -7.055466 -0.610146 1329 0.458372 0.888760 0.000000
-7.485394 -7.055438 -0.606966 1335 0.458372 0.888760 0.000000
-7.484949 -7.055014 -0.603770 1317 0.458372 0.888760 0.000000
-7.484870 -7.054934 -0.600591 1317 0.458372 0.888760 0.000000
-7.484729 -7.054804 -0.597412 1325 0.458372 0.888760 0.000000
-7.485017 -7.055083 -0.594260 1317 0.458372 0.888760 0.000000
-7.485525 -7.055550 -0.591135 1315 0.458372 0.888760 0.000000
-7.485120 -7.055171 -0.587938 1319 0.458372 0.888760 0.000000
-7.485242 -7.055290 -0.584777 1321 0.458372 0.888760 0.000000
-7.485744 -7.055766 -0.581642 1333 0.458372 0.888760 0.000000
-7.484807 -7.054883 -0.578401 1325 0.458372 0.888760 0.000000
-7.484659 -7.054747 -0.575222 1321 0.458372 0.888760 0.000000
-7.485477 -7.055515 -0.572115 1335 0.458372 0.888760 0.000000
-7.485604 -7.055626 -0.568963 1335 0.458372 0.888760 0.000000
-7.485947 -7.055949 -0.565820 1341 0.458372 0.888760 0.000000
-7.485107 -7.055170 -0.562588 1329 0.458372 0.888760 0.000000
-7.484267 -7.054376 -0.559356 1327 0.458372 0.888760 0.000000
-7.484602 -7.054693 -0.556212 1343 0.458372 0.888760 0.000000
-7.484405 -7.054505 -0.553034 1351 0.458372 0.888760 0.000000
-7.483993 -7.054119 -0.549838 1341 0.458372 0.888760 0.000000
-7.484328 -7.054436 -0.546695 1333 0.458372 0.888760 0.000000
-7.484226 -7.054338 -0.543516 1325 0.458372 0.888760 0.000000
-7.484187 -7.054302 -0.540346 1327 0.458372 0.888760 0.000000
-7.484204 -7.054312 -0.537186 1321 0.458372 0.888760 0.000000
-7.484690 -7.054775 -0.534051 1313 0.458372 0.888760 0.000000
-7.485707 -7.055727 -0.530952 1331 0.458372 0.888760 0.000000
-7.485501 -7.055534 -0.527773 1325 0.458372 0.888760 0.000000
-7.484447 -7.054543 -0.524533 1317 0.458372 0.888760 0.000000
-7.484194 -7.054298 -0.521356 1319 0.458372 0.888760 0.000000
-7.484830 -7.054907 -0.518229 1325 0.458372 0.888760 0.000000
-7.484785 -7.054867 -0.515060 1327 0.458372 0.888760 0.000000
-7.484634 -7.054717 -0.511881 1317 0.458372 0.888760 0.000000
-7.484588 -7.054676 -0.508712 1307 0.458372 0.888760 0.000000
-7.484644 -7.054731 -0.505551 1323 0.458372 0.888760 0.000000
-7.484963 -7.055034 -0.502408 1327 0.458372 0.888760 0.000000
-7.485337 -7.055381 -0.499264 1333 0.458372 0.888760 0.000000
-7.484752 -7.054831 -0.496060 1317 0.458372 0.888760 0.000000
-7.485078 -7.055140 -0.492917 1325 0.458372 0.888760 0.000000
-7.484913 -7.054992 -0.489738 1315 0.458372 0.888760 0.000000
-7.484907 -7.054983 -0.486578 1321 0.458372 0.888760 0.000000
-7.485337 -7.055387 -0.483434 1325 0.458372 0.888760 0.000000
-7.485496 -7.055538 -0.480282 1329 0.458372 0.888760 0.000000
-7.484640 -7.054732 -0.477060 1331 0.458372 0.888760 0.000000
-7.483950 -7.054072 -0.473857 1321 0.458372 0.888760 0.000000
-7.485055 -7.055121 -0.470756 1329 0.458372 0.888760 0.000000
-7.485318 -7.055367 -0.467604 1337 0.458372 0.888760 0.000000
-7.485097 -7.055161 -0.464426 1325 0.458372 0.888760 0.000000
-7.485409 -7.055458 -0.461283 1333 0.458372 0.888760 0.000000
-7.485188 -7.055251 -0.458105 1333 0.458372 0.888760 0.000000
-7.484815 -7.054897 -0.454918 1327 0.458372 0.888760 0.000000
-7.485079 -7.055143 -0.451766 1333 0.458372 0.888760 0.000000
-7.485009 -7.055084 -0.448596 1317 0.458372 0.888760 0.000000
-7.484732 -7.054820 -0.445419 1297 0.458372 0.888760 0.000000
-7.485257 -7.055314 -0.442284 1321 0.458372 0.888760 0.000000
-7.485242 -7.055298 -0.439124 1321 0.458372 0.888760 0.000000
-7.484854 -7.054932 -0.435937 1301 0.458372 0.888760 0.000000
-7.484950 -7.055017 -0.432776 1311 0.458372 0.888760 0.000000
-7.485310 -7.055367 -0.429633 1325 0.458372 0.888760 0.000000
-7.485295 -7.055351 -0.426463 1313 0.458372 0.888760 0.000000
-7.485128 -7.055188 -0.423294 1315 0.458372 0.888760 0.000000
-7.485106 -7.055166 -0.420125 1307 0.458372 0.888760 0.000000
-7.485569 -7.055611 -0.416990 1329 0.458372 0.888760 0.000000
-7.485284 -7.055340 -0.413813 1317 0.458372 0.888760 0.000000
-7.485269 -7.055324 -0.410643 1313 0.458372 0.888760 0.000000
-7.485414 -7.055462 -0.407491 1327 0.458372 0.888760 0.000000
-7.485280 -7.055338 -0.404323 1323 0.458372 0.888760 0.000000
-7.485313 -7.055374 -0.401162 1335 0.458372 0.888760 0.000000
-7.484918 -7.055002 -0.397976 1329 0.458372 0.888760 0.000000
-7.484260 -7.054381 -0.394782 1319 0.458372 0.888760 0.000000
-7.484189 -7.054307 -0.391613 1319 0.458372 0.888760 0.000000
-7.484698 -7.054789 -0.388478 1325 0.458372 0.888760 0.000000
-7.484089 -7.054220 -0.385283 1315 0.458372 0.888760 0.000000
-7.483685 -7.053841 -0.382097 1309 0.458372 0.888760 0.000000
-7.484520 -7.054622 -0.378979 1323 0.458372 0.888760 0.000000
-7.485021 -7.055097 -0.375834 1317 0.458372 0.888760 0.000000
-7.485053 -7.055119 -0.372674 1313 0.458372 0.888760 0.000000
-7.484762 -7.054856 -0.369497 1321 0.458372 0.888760 0.000000
-7.484634 -7.054725 -0.366328 1319 0.458372 0.888760 0.000000
-7.484550 -7.054653 -0.363168 1321 0.458372 0.888760 0.000000
-7.484566 -7.054662 -0.360008 1311 0.458372 0.888760 0.000000
-7.485013 -7.055094 -0.356864 1323 0.458372 0.888760 0.000000
-7.485251 -7.055306 -0.353712 1317 0.458372 0.888760 0.000000
-7.485912 -7.055935 -0.350575 1321 0.458372 0.888760 0.000000
-7.485398 -7.055455 -0.347390 1315 0.458372 0.888760 0.000000
-7.484898 -7.054973 -0.344205 1313 0.458372 0.888760 0.000000
-7.484756 -7.054843 -0.341046 1307 0.458372 0.888760 0.000000
-7.484296 -7.054407 -0.337860 1297 0.458372 0.888760 0.000000
-7.484155 -7.054277 -0.334691 1291 0.458372 0.888760 0.000000
-7.484220 -7.054338 -0.331531 1299 0.458372 0.888760 0.000000
-7.484500 -7.054610 -0.328388 1309 0.458372 0.888760 0.000000
-7.484573 -7.054677 -0.325227 1305 0.458372 0.888760 0.000000
-7.484216 -7.054337 -0.322051 1313 0.458372 0.888760 0.000000
-7.484662 -7.054754 -0.318906 1299 0.458372 0.888760 0.000000
-7.485687 -7.055727 -0.315787 1317 0.458372 0.888760 0.000000
-7.484744 -7.054839 -0.312585 1313 0.458372 0.888760 0.000000
-7.483896 -7.054039 -0.309393 1287 0.458372 0.888760 0.000000
-7.486757 -7.052221 -0.702028 1317 0.458372 0.888760 0.000000
-7.487393 -7.052818 -0.698912 1321 0.458372 0.888760 0.000000
-7.487910 -7.053306 -0.695787 1323 0.458372 0.888760 0.000000
-7.487698 -7.053105 -0.692599 1309 0.458372 0.888760 0.000000
-7.487469 -7.052893 -0.689401 1313 0.458372 0.888760 0.000000
-7.486556 -7.052029 -0.686149 1299 0.458372 0.888760 0.000000
-7.485970 -7.051478 -0.682925 1299 0.458372 0.888760 0.000000
-7.486376 -7.051864 -0.679791 1299 0.458372 0.888760 0.000000
-7.487005 -7.052454 -0.676675 1313 0.458372 0.888760 0.000000
-7.486729 -7.052204 -0.673478 1307 0.458372 0.888760 0.000000
-7.487142 -7.052582 -0.670344 1315 0.458372 0.888760 0.000000
-7.487494 -7.052925 -0.667200 1315 0.458372 0.888760 0.000000
-7.487644 -7.053055 -0.664039 1325 0.458372 0.888760 0.000000
-7.487686 -7.053097 -0.660878 1325 0.458372 0.888760 0.000000
-7.487773 -7.053176 -0.657707 1327 0.458372 0.888760 0.000000
-7.488069 -7.053461 -0.654565 1333 0.458372 0.888760 0.000000
-7.487792 -7.053196 -0.651367 1329 0.458372 0.888760 0.000000
-7.487722 -7.053137 -0.648198 1323 0.458372 0.888760 0.000000
-7.488398 -7.053764 -0.645081 1335 0.458372 0.888760 0.000000
-7.488431 -7.053801 -0.641911 1331 0.458372 0.888760 0.000000
-7.488035 -7.053428 -0.638705 1331 0.458372 0.888760 0.000000
-7.487696 -7.053114 -0.635508 1313 0.458372 0.888760 0.000000
-7.487728 -7.053135 -0.632337 1323 0.458372 0.888760 0.000000
-7.487072 -7.052528 -0.629113 1307 0.458372 0.888760 0.000000
-7.486779 -7.052251 -0.625926 1295 0.458372 0.888760 0.000000
-7.487502 -7.052930 -0.622809 1313 0.458372 0.888760 0.000000
-7.488106 -7.053501 -0.619693 1323 0.458372 0.888760 0.000000
-7.487933 -7.053332 -0.616505 1315 0.458372 0.888760 0.000000
-7.487639 -7.053055 -0.613308 1313 0.458372 0.888760 0.000000
-7.487347 -7.052778 -0.610120 1317 0.458372 0.888760 0.000000
-7.487317 -7.052750 -0.606950 1305 0.458372 0.888760 0.000000
-7.487716 -7.053131 -0.603807 1325 0.458372 0.888760 0.000000
-7.487479 -7.052911 -0.600619 1315 0.458372 0.888760 0.000000
-7.487710 -7.053132 -0.597467 1311 0.458372 0.888760 0.000000
-7.487948 -7.053344 -0.594314 1307 0.458372 0.888760 0.000000
-7.488291 -7.053667 -0.591171 1317 0.458372 0.888760 0.000000
-7.488365 -7.053748 -0.588010 1321 0.458372 0.888760 0.000000
-7.486959 -7.052412 -0.584733 1313 0.458372 0.888760 0.000000
-7.486445 -7.051931 -0.581528 1317 0.458372 0.888760 0.000000
-7.488058 -7.053452 -0.578483 1329 0.458372 0.888760 0.000000
-7.488552 -7.053921 -0.575348 1333 0.458372 0.888760 0.000000
-7.487665 -7.053091 -0.572116 1325 0.458372 0.888760 0.000000
-7.487632 -7.053048 -0.568947 1325 0.458372 0.888760 0.000000
-7.487651 -7.053072 -0.565776 1335 0.458372 0.888760 0.000000
-7.488088 -7.053483 -0.562642 1327 0.458372 0.888760 0.000000
-7.488534 -7.053901 -0.559508 1333 0.458372 0.888760 0.000000
-7.487908 -7.053319 -0.556294 1333 0.458372 0.888760 0.000000
-7.487663 -7.053079 -0.553106 1333 0.458372 0.888760 0.000000
-7.487568 -7.052987 -0.549937 1329 0.458372 0.888760 0.000000
-7.487522 -7.052946 -0.546767 1323 0.458372 0.888760 0.000000
-7.487643 -7.053065 -0.543606 1325 0.458372 0.888760 0.000000
-7.487818 -7.053227 -0.540444 1329 0.458372 0.888760 0.000000
-7.488091 -7.053493 -0.537302 1327 0.458372 0.888760 0.000000
-7.488472 -7.053847 -0.534158 1337 0.458372 0.888760 0.000000
-7.488696 -7.054061 -0.531006 1339 0.458372 0.888760 0.000000
-7.488816 -7.054166 -0.527845 1337 0.458372 0.888760 0.000000
-7.488237 -7.053621 -0.524640 1333 0.458372 0.888760 0.000000
-7.488453 -7.053830 -0.521488 1317 0.458372 0.888760 0.000000
-7.489153 -7.054490 -0.518371 1323 0.458372 0.888760 0.000000
-7.488353 -7.053742 -0.515149 1325 0.458372 0.888760 0.000000
-7.487513 -7.052949 -0.511926 1313 0.458372 0.888760 0.000000
-7.486830 -7.052295 -0.508713 1303 0.458372 0.888760 0.000000
-7.487094 -7.052555 -0.505570 1311 0.458372 0.888760 0.000000
-7.488063 -7.053456 -0.502461 1321 0.458372 0.888760 0.000000
-7.487636 -7.053059 -0.499265 1313 0.458372 0.888760 0.000000
-7.487367 -7.052801 -0.496087 1303 0.458372 0.888760 0.000000
-7.488536 -7.053914 -0.492996 1323 0.458372 0.888760 0.000000
-7.488275 -7.053661 -0.489809 1331 0.458372 0.888760 0.000000
-7.487205 -7.052659 -0.486579 1315 0.458372 0.888760 0.000000
-7.486935 -7.052401 -0.483401 1315 0.458372 0.888760 0.000000
-7.487309 -7.052748 -0.480258 1317 0.458372 0.888760 0.000000
