238
-21.644629 -21.114119 -0.651827 1243 0.130895 0.991396 0.000000
-21.644608 -21.114092 -0.642537 1241 0.130895 0.991396 0.000000
-21.645269 -21.114746 -0.633270 1245 0.130895 0.991396 0.000000
-21.644781 -21.114265 -0.623965 1249 0.130895 0.991396 0.000000
-21.644396 -21.113894 -0.614658 1243 0.130895 0.991396 0.000000
-21.644531 -21.114023 -0.605377 1241 0.130895 0.991396 0.000000
-21.643982 -21.113491 -0.596072 1239 0.130895 0.991396 0.000000
-21.643295 -21.112822 -0.577478 1251 0.130895 0.991396 0.000000
-21.643677 -21.113203 -0.568194 1245 0.130895 0.991396 0.000000
-21.644531 -21.114031 -0.558935 1243 0.130895 0.991396 0.000000
-21.645021 -21.114517 -0.549651 1249 0.130895 0.991396 0.000000
-21.644730 -21.114225 -0.540363 1241 0.130895 0.991396 0.000000
-21.644373 -21.113878 -0.531056 1239 0.130895 0.991396 0.000000
-21.644535 -21.114040 -0.521775 1231 0.130895 0.991396 0.000000
-21.644804 -21.114305 -0.512492 1259 0.130895 0.991396 0.000000
-21.643513 -21.113039 -0.503174 1253 0.130895 0.991396 0.000000
-21.643612 -21.113152 -0.493893 1249 0.130895 0.991396 0.000000
-21.644554 -21.114061 -0.484623 1245 0.130895 0.991396 0.000000
-21.643620 -21.113161 -0.475312 1239 0.130895 0.991396 0.000000
-21.643492 -21.113043 -0.401012 1261 0.130895 0.991396 0.000000
-21.643482 -21.113043 -0.373151 1225 0.130895 0.991396 0.000000
-21.643354 -21.112909 -0.363862 1241 0.130895 0.991396 0.000000
-21.643641 -21.113201 -0.354579 1237 0.130895 0.991396 0.000000
-21.643723 -21.113270 -0.345298 1225 0.130895 0.991396 0.000000
-21.643288 -21.112848 -0.326722 1245 0.130895 0.991396 0.000000
-21.643291 -21.112867 -0.317431 1243 0.130895 0.991396 0.000000
-21.643156 -21.112730 -0.308143 1257 0.130895 0.991396 0.000000
-21.657164 -21.112772 -0.652006 1255 0.130895 0.991396 0.000000
-21.657139 -21.112751 -0.642716 1249 0.130895 0.991396 0.000000
-21.657398 -21.112997 -0.633423 1241 0.130895 0.991396 0.000000
-21.657585 -21.113176 -0.624141 1245 0.130895 0.991396 0.000000
-21.656565 -21.112192 -0.614820 1243 0.130895 0.991396 0.000000
-21.655977 -21.111614 -0.605516 1235 0.130895 0.991396 0.000000
-21.655365 -21.111029 -0.596201 1229 0.130895 0.991396 0.000000
-21.655603 -21.111256 -0.586919 1231 0.130895 0.991396 0.000000
-21.656818 -21.112446 -0.577657 1243 0.130895 0.991396 0.000000
-21.657104 -21.112724 -0.568374 1253 0.130895 0.991396 0.000000
-21.656975 -21.112593 -0.559085 1239 0.130895 0.991396 0.000000
-21.656263 -21.111900 -0.549772 1245 0.130895 0.991396 0.000000
-21.656111 -21.111763 -0.540473 1239 0.130895 0.991396 0.000000
-21.656225 -21.111874 -0.531192 1229 0.130895 0.991396 0.000000
-21.656134 -21.111786 -0.521892 1229 0.130895 0.991396 0.000000
-21.656467 -21.112103 -0.512609 1251 0.130895 0.991396 0.000000
-21.656042 -21.111700 -0.503313 1245 0.130895 0.991396 0.000000
-21.655998 -21.111652 -0.494023 1249 0.130895 0.991396 0.000000
-21.655956 -21.111607 -0.484733 1243 0.130895 0.991396 0.000000
-21.656109 -21.111761 -0.475441 1251 0.130895 0.991396 0.000000
-21.656631 -21.112274 -0.466166 1241 0.130895 0.991396 0.000000
-21.656469 -21.112116 -0.456868 1241 0.130895 0.991396 0.000000
-21.656139 -21.111792 -0.447571 1229 0.130895 0.991396 0.000000
-21.655308 -21.110987 -0.438268 1227 0.130895 0.991396 0.000000
-21.655344 -21.111017 -0.428978 1229 0.130895 0.991396 0.000000
-21.656271 -21.111933 -0.419709 1231 0.130895 0.991396 0.000000
-21.656628 -21.112280 -0.410425 1241 0.130895 0.991396 0.000000
-21.656029 -21.111698 -0.401120 1247 0.130895 0.991396 0.000000
-21.655449 -21.111126 -0.391826 1245 0.130895 0.991396 0.000000
-21.655375 -21.111052 -0.382536 1239 0.130895 0.991396 0.000000
-21.654982 -21.110676 -0.373240 1235 0.130895 0.991396 0.000000
-21.655790 -21.111465 -0.363962 1245 0.130895 0.991396 0.000000
-21.656656 -21.112314 -0.354693 1253 0.130895 0.991396 0.000000
-21.655056 -21.110758 -0.345378 1247 0.130895 0.991396 0.000000
-21.656464 -21.112123 -0.326815 1233 0.130895 0.991396 0.000000
-21.656525 -21.112188 -0.317534 1249 0.130895 0.991396 0.000000
-21.655504 -21.111187 -0.308223 1251 0.130895 0.991396 0.000000
-21.655254 -21.110954 -0.298935 1251 0.130895 0.991396 0.000000
-21.654966 -21.110672 -0.271067 1243 0.130895 0.991396 0.000000
-21.670359 -21.112217 -0.652207 1251 0.130895 0.991396 0.000000
-21.670614 -21.112469 -0.642915 1251 0.130895 0.991396 0.000000
-21.670439 -21.112299 -0.633616 1253 0.130895 0.991396 0.000000
-21.669888 -21.111767 -0.624301 1237 0.130895 0.991396 0.000000
-21.669136 -21.111040 -0.614988 1235 0.130895 0.991396 0.000000
-21.669273 -21.111170 -0.605697 1249 0.130895 0.991396 0.000000
-21.669771 -21.111662 -0.596422 1249 0.130895 0.991396 0.000000
-21.669374 -21.111271 -0.587115 1253 0.130895 0.991396 0.000000
-21.669037 -21.110939 -0.577808 1245 0.130895 0.991396 0.000000
-21.669680 -21.111565 -0.568532 1233 0.130895 0.991396 0.000000
-21.669125 -21.111029 -0.559227 1243 0.130895 0.991396 0.000000
-21.668760 -21.110676 -0.549920 1237 0.130895 0.991396 0.000000
-21.668318 -21.110249 -0.540614 1225 0.130895 0.991396 0.000000
-21.667809 -21.109747 -0.531309 1235 0.130895 0.991396 0.000000
-21.669338 -21.111238 -0.522054 1237 0.130895 0.991396 0.000000
-21.669130 -21.111042 -0.512756 1247 0.130895 0.991396 0.000000
-21.668617 -21.110540 -0.503450 1241 0.130895 0.991396 0.000000
-21.668983 -21.110899 -0.494167 1233 0.130895 0.991396 0.000000
-21.670137 -21.112024 -0.484906 1231 0.130895 0.991396 0.000000
-21.669203 -21.111111 -0.475584 1239 0.130895 0.991396 0.000000
-21.667316 -21.109276 -0.466252 1237 0.130895 0.991396 0.000000
-21.668665 -21.110588 -0.456989 1243 0.130895 0.991396 0.000000
-21.669451 -21.111361 -0.447711 1245 0.130895 0.991396 0.000000
-21.668243 -21.110178 -0.438403 1229 0.130895 0.991396 0.000000
-21.667906 -21.109861 -0.429095 1237 0.130895 0.991396 0.000000
-21.669050 -21.110968 -0.419834 1249 0.130895 0.991396 0.000000
-21.669405 -21.111317 -0.410541 1249 0.130895 0.991396 0.000000
-21.668608 -21.110538 -0.401238 1237 0.130895 0.991396 0.000000
-21.668846 -21.110779 -0.391946 1243 0.130895 0.991396 0.000000
-21.668726 -21.110666 -0.382657 1255 0.130895 0.991396 0.000000
-21.668018 -21.109978 -0.373353 1251 0.130895 0.991396 0.000000
-21.668367 -21.110308 -0.364070 1237 0.130895 0.991396 0.000000
-21.668598 -21.110538 -0.354777 1243 0.130895 0.991396 0.000000
-21.668985 -21.110916 -0.345493 1237 0.130895 0.991396 0.000000
-21.668802 -21.110739 -0.336195 1237 0.130895 0.991396 0.000000
-21.668137 -21.110098 -0.326901 1237 0.130895 0.991396 0.000000
-21.667522 -21.109499 -0.317596 1239 0.130895 0.991396 0.000000
-21.668386 -21.110332 -0.308318 1241 0.130895 0.991396 0.000000
-21.668922 -21.110859 -0.299033 1243 0.130895 0.991396 0.000000
-21.668467 -21.110416 -0.289737 1243 0.130895 0.991396 0.000000
-21.668047 -21.110008 -0.280441 1245 0.130895 0.991396 0.000000
-21.668156 -21.110123 -0.271149 1245 0.130895 0.991396 0.000000
-21.667746 -21.109720 -0.261853 1247 0.130895 0.991396 0.000000
-21.682199 -21.110332 -0.652362 1257 0.130895 0.991396 0.000000
-21.682074 -21.110216 -0.643063 1249 0.130895 0.991396 0.000000
-21.681536 -21.109695 -0.633748 1245 0.130895 0.991396 0.000000
-21.681105 -21.109272 -0.624442 1247 0.130895 0.991396 0.000000
-21.681812 -21.109966 -0.615165 1255 0.130895 0.991396 0.000000
-21.682318 -21.110462 -0.605880 1259 0.130895 0.991396 0.000000
-21.681976 -21.110132 -0.596573 1253 0.130895 0.991396 0.000000
-21.681944 -21.110092 -0.587273 1251 0.130895 0.991396 0.000000
-21.682236 -21.110376 -0.577990 1253 0.130895 0.991396 0.000000
-21.682461 -21.110601 -0.568698 1253 0.130895 0.991396 0.000000
-21.682268 -21.110418 -0.559399 1257 0.130895 0.991396 0.000000
-21.681242 -21.109413 -0.550069 1245 0.130895 0.991396 0.000000
-21.681147 -21.109322 -0.540780 1233 0.130895 0.991396 0.000000
-21.680946 -21.109135 -0.531471 1241 0.130895 0.991396 0.000000
-21.681068 -21.109249 -0.522180 1241 0.130895 0.991396 0.000000
-21.680658 -21.108845 -0.512874 1235 0.130895 0.991396 0.000000
-21.679874 -21.108095 -0.503561 1233 0.130895 0.991396 0.000000
-21.680777 -21.108974 -0.494292 1241 0.130895 0.991396 0.000000
-21.681143 -21.109331 -0.484998 1241 0.130895 0.991396 0.000000
-21.681355 -21.109535 -0.475716 1255 0.130895 0.991396 0.000000
-21.681705 -21.109879 -0.466422 1251 0.130895 0.991396 0.000000
-21.681192 -21.109379 -0.457117 1249 0.130895 0.991396 0.000000
-21.680458 -21.108664 -0.447804 1237 0.130895 0.991396 0.000000
-21.681124 -21.109312 -0.438527 1237 0.130895 0.991396 0.000000
-21.681419 -21.109608 -0.429234 1241 0.130895 0.991396 0.000000
-21.680836 -21.109037 -0.419930 1239 0.130895 0.991396 0.000000
-21.681086 -21.109283 -0.410647 1251 0.130895 0.991396 0.000000
-21.680916 -21.109119 -0.401348 1247 0.130895 0.991396 0.000000
-21.680429 -21.108639 -0.392043 1253 0.130895 0.991396 0.000000
-21.679512 -21.107750 -0.382731 1241 0.130895 0.991396 0.000000
-21.679861 -21.108093 -0.373448 1243 0.130895 0.991396 0.000000
-21.681568 -21.109756 -0.364181 1235 0.130895 0.991396 0.000000
-21.681698 -21.109880 -0.354890 1241 0.130895 0.991396 0.000000
-21.680983 -21.109184 -0.345586 1253 0.130895 0.991396 0.000000
-21.681168 -21.109364 -0.336294 1249 0.130895 0.991396 0.000000
-21.681484 -21.109684 -0.327001 1245 0.130895 0.991396 0.000000
-21.681038 -21.109247 -0.317705 1241 0.130895 0.991396 0.000000
-21.681017 -21.109221 -0.308405 1243 0.130895 0.991396 0.000000
-21.681442 -21.109640 -0.299121 1243 0.130895 0.991396 0.000000
-21.681297 -21.109497 -0.289822 1247 0.130895 0.991396 0.000000
-21.680889 -21.109106 -0.280526 1239 0.130895 0.991396 0.000000
-21.681215 -21.109417 -0.271232 1237 0.130895 0.991396 0.000000
-21.681217 -21.109423 -0.261942 1239 0.130895 0.991396 0.000000
-21.693756 -21.108431 -0.652518 1251 0.130895 0.991396 0.000000
-21.693687 -21.108364 -0.643219 1247 0.130895 0.991396 0.000000
-21.694561 -21.109221 -0.633940 1249 0.130895 0.991396 0.000000
-21.694744 -21.109400 -0.624648 1249 0.130895 0.991396 0.000000
-21.694782 -21.109430 -0.615348 1247 0.130895 0.991396 0.000000
-21.693089 -21.107784 -0.606004 1247 0.130895 0.991396 0.000000
-21.693001 -21.107698 -0.596704 1253 0.130895 0.991396 0.000000
-21.695074 -21.109720 -0.587454 1263 0.130895 0.991396 0.000000
-21.694675 -21.109337 -0.578148 1257 0.130895 0.991396 0.000000
-21.694162 -21.108835 -0.568832 1253 0.130895 0.991396 0.000000
-21.694143 -21.108809 -0.559533 1257 0.130895 0.991396 0.000000
-21.693844 -21.108522 -0.550225 1257 0.130895 0.991396 0.000000
-21.693073 -21.107769 -0.540912 1249 0.130895 0.991396 0.000000
-21.693134 -21.107834 -0.531611 1239 0.130895 0.991396 0.000000
-21.693567 -21.108259 -0.522327 1243 0.130895 0.991396 0.000000
-21.693041 -21.107748 -0.513022 1241 0.130895 0.991396 0.000000
-21.693365 -21.108055 -0.503729 1241 0.130895 0.991396 0.000000
-21.693644 -21.108328 -0.494436 1247 0.130895 0.991396 0.000000
-21.694117 -21.108801 -0.485151 1255 0.130895 0.991396 0.000000
-21.693850 -21.108541 -0.475843 1255 0.130895 0.991396 0.000000
-21.693430 -21.108131 -0.466537 1247 0.130895 0.991396 0.000000
-21.693844 -21.108540 -0.457253 1239 0.130895 0.991396 0.000000
-21.693417 -21.108124 -0.447947 1229 0.130895 0.991396 0.000000
-21.693468 -21.108168 -0.438646 1245 0.130895 0.991396 0.000000
-21.694403 -21.109087 -0.429367 1251 0.130895 0.991396 0.000000
-21.693548 -21.108250 -0.420055 1239 0.130895 0.991396 0.000000
-21.693123 -21.107834 -0.410749 1233 0.130895 0.991396 0.000000
-21.693417 -21.108118 -0.401456 1239 0.130895 0.991396 0.000000
-21.693499 -21.108200 -0.392165 1247 0.130895 0.991396 0.000000
-21.692799 -21.107519 -0.382851 1243 0.130895 0.991396 0.000000
-21.691938 -21.106689 -0.373539 1229 0.130895 0.991396 0.000000
-21.692598 -21.107330 -0.364263 1235 0.130895 0.991396 0.000000
-21.692259 -21.106998 -0.354956 1233 0.130895 0.991396 0.000000
-21.692699 -21.107430 -0.345671 1251 0.130895 0.991396 0.000000
-21.693510 -21.108221 -0.336383 1247 0.130895 0.991396 0.000000
-21.694101 -21.108803 -0.327097 1243 0.130895 0.991396 0.000000
-21.694597 -21.109283 -0.317802 1239 0.130895 0.991396 0.000000
-21.693773 -21.108484 -0.308500 1235 0.130895 0.991396 0.000000
-21.692520 -21.107264 -0.299182 1243 0.130895 0.991396 0.000000
-21.691759 -21.106518 -0.289879 1241 0.130895 0.991396 0.000000
-21.691553 -21.106321 -0.280581 1249 0.130895 0.991396 0.000000
-21.691713 -21.106483 -0.271289 1253 0.130895 0.991396 0.000000
-21.692095 -21.106852 -0.261995 1239 0.130895 0.991396 0.000000
-21.706253 -21.107428 -0.652696 1257 0.130895 0.991396 0.000000
-21.707079 -21.108232 -0.643418 1249 0.130895 0.991396 0.000000
-21.706802 -21.107964 -0.634110 1233 0.130895 0.991396 0.000000
-21.705519 -21.106718 -0.624772 1249 0.130895 0.991396 0.000000
-21.706444 -21.107620 -0.615493 1243 0.130895 0.991396 0.000000
-21.706324 -21.107492 -0.606194 1253 0.130895 0.991396 0.000000
-21.705656 -21.106852 -0.596870 1249 0.130895 0.991396 0.000000
-21.705896 -21.107092 -0.587578 1255 0.130895 0.991396 0.000000
-21.705502 -21.106699 -0.578261 1247 0.130895 0.991396 0.000000
-21.705576 -21.106777 -0.568970 1241 0.130895 0.991396 0.000000
-21.704908 -21.106134 -0.559646 1249 0.130895 0.991396 0.000000
-21.704498 -21.105734 -0.550340 1249 0.130895 0.991396 0.000000
-21.705050 -21.106270 -0.541054 1241 0.130895 0.991396 0.000000
-21.705843 -21.107046 -0.531767 1235 0.130895 0.991396 0.000000
-21.705910 -21.107103 -0.522466 1239 0.130895 0.991396 0.000000
-21.705969 -21.107166 -0.513175 1239 0.130895 0.991396 0.000000
-21.706030 -21.107231 -0.503874 1239 0.130895 0.991396 0.000000
-21.706087 -21.107281 -0.494573 1225 0.130895 0.991396 0.000000
-21.706141 -21.107340 -0.485273 1241 0.130895 0.991396 0.000000
-21.705988 -21.107189 -0.475974 1235 0.130895 0.991396 0.000000
-21.705416 -21.106623 -0.466659 1243 0.130895 0.991396 0.000000
-21.705559 -21.106771 -0.457358 1243 0.130895 0.991396 0.000000
-21.706024 -21.107224 -0.448073 1251 0.130895 0.991396 0.000000
-21.704811 -21.106052 -0.438744 1241 0.130895 0.991396 0.000000
-21.705433 -21.106646 -0.429458 1251 0.130895 0.991396 0.000000
-21.706789 -21.107967 -0.420185 1257 0.130895 0.991396 0.000000
-21.706137 -21.107336 -0.410871 1253 0.130895 0.991396 0.000000
-21.705017 -21.106255 -0.401551 1245 0.130895 0.991396 0.000000
-21.705637 -21.106850 -0.392265 1249 0.130895 0.991396 0.000000
-21.705191 -21.106426 -0.382959 1245 0.130895 0.991396 0.000000
-21.704491 -21.105745 -0.373646 1251 0.130895 0.991396 0.000000
-21.704943 -21.106186 -0.364361 1251 0.130895 0.991396 0.000000
-21.704218 -21.105484 -0.355048 1255 0.130895 0.991396 0.000000
-21.703991 -21.105257 -0.345750 1245 0.130895 0.991396 0.000000
-21.704485 -21.105749 -0.336455 1249 0.130895 0.991396 0.000000
-21.704718 -21.105968 -0.327163 1257 0.130895 0.991396 0.000000
-21.704790 -21.106043 -0.317862 1237 0.130895 0.991396 0.000000
-21.704962 -21.106211 -0.308570 1235 0.130895 0.991396 0.000000
-21.704449 -21.105713 -0.299264 1239 0.130895 0.991396 0.000000
-21.703617 -21.104908 -0.289952 1243 0.130895 0.991396 0.000000
-21.704264 -21.105536 -0.280666 1249 0.130895 0.991396 0.000000
-21.703587 -21.104872 -0.271362 1241 0.130895 0.991396 0.000000
-21.703951 -21.105227 -0.262068 1241 0.130895 0.991396 0.000000
