287
-22.221750 -20.683184 -0.617879 295 0.731898 0.681414 0.000000
-22.213799 -20.675781 -0.608332 351 0.731898 0.681414 0.000000
-22.215330 -20.677212 -0.599048 371 0.731898 0.681414 0.000000
-22.220493 -20.682020 -0.589860 319 0.731898 0.681414 0.000000
-22.226166 -20.687292 -0.571357 363 0.731898 0.681414 0.000000
-22.223019 -20.684368 -0.561946 333 0.731898 0.681414 0.000000
-22.219349 -20.680950 -0.552530 355 0.731898 0.681414 0.000000
-22.220919 -20.682409 -0.543245 393 0.731898 0.681414 0.000000
-22.218895 -20.680532 -0.533873 367 0.731898 0.681414 0.000000
-22.218266 -20.679939 -0.524529 339 0.731898 0.681414 0.000000
-22.221329 -20.682795 -0.515280 369 0.731898 0.681414 0.000000
-22.221285 -20.682749 -0.505951 389 0.731898 0.681414 0.000000
-22.221069 -20.682550 -0.496622 341 0.731898 0.681414 0.000000
-22.218616 -20.680265 -0.487245 347 0.731898 0.681414 0.000000
-22.217642 -20.679365 -0.477904 345 0.731898 0.681414 0.000000
-22.219358 -20.680958 -0.468607 385 0.731898 0.681414 0.000000
-22.221619 -20.683062 -0.459336 347 0.731898 0.681414 0.000000
-22.222143 -20.683552 -0.450021 363 0.731898 0.681414 0.000000
-22.221546 -20.682995 -0.440687 257 0.731898 0.681414 0.000000
-22.219822 -20.681387 -0.431322 341 0.731898 0.681414 0.000000
-22.217882 -20.679581 -0.421970 355 0.731898 0.681414 0.000000
-22.215019 -20.676926 -0.412587 367 0.731898 0.681414 0.000000
-22.211903 -20.674017 -0.403215 371 0.731898 0.681414 0.000000
-22.212439 -20.674511 -0.393900 387 0.731898 0.681414 0.000000
-22.217821 -20.679523 -0.384670 323 0.731898 0.681414 0.000000
-22.220688 -20.682198 -0.375403 337 0.731898 0.681414 0.000000
-22.220440 -20.681973 -0.366075 369 0.731898 0.681414 0.000000
-22.216516 -20.678308 -0.356681 323 0.731898 0.681414 0.000000
-22.212851 -20.674904 -0.347305 321 0.731898 0.681414 0.000000
-22.216297 -20.678108 -0.338043 373 0.731898 0.681414 0.000000
-22.217218 -20.678968 -0.328734 343 0.731898 0.681414 0.000000
-22.217194 -20.678949 -0.319404 293 0.731898 0.681414 0.000000
-22.217915 -20.679609 -0.310097 363 0.731898 0.681414 0.000000
-22.216696 -20.678474 -0.300758 389 0.731898 0.681414 0.000000
-22.216705 -20.678486 -0.291438 361 0.731898 0.681414 0.000000
-22.224541 -20.672871 -0.617777 325 0.731898 0.681414 0.000000
-22.223782 -20.672155 -0.608434 321 0.731898 0.681414 0.000000
-22.221766 -20.670286 -0.599052 361 0.731898 0.681414 0.000000
-22.223181 -20.671598 -0.589769 355 0.731898 0.681414 0.000000
-22.226364 -20.674564 -0.580529 347 0.731898 0.681414 0.000000
-22.227522 -20.675640 -0.571228 357 0.731898 0.681414 0.000000
-22.224380 -20.672724 -0.561827 331 0.731898 0.681414 0.000000
-22.222038 -20.670540 -0.552439 341 0.731898 0.681414 0.000000
-22.227629 -20.675732 -0.543257 339 0.731898 0.681414 0.000000
-22.225012 -20.673300 -0.533871 355 0.731898 0.681414 0.000000
-22.222290 -20.670773 -0.524476 361 0.731898 0.681414 0.000000
-22.226915 -20.675070 -0.515263 367 0.731898 0.681414 0.000000
-22.225260 -20.673532 -0.505898 305 0.731898 0.681414 0.000000
-22.223497 -20.671892 -0.496534 323 0.731898 0.681414 0.000000
-22.226023 -20.674238 -0.487270 365 0.731898 0.681414 0.000000
-22.229233 -20.677227 -0.478010 357 0.731898 0.681414 0.000000
-22.224199 -20.672552 -0.468587 381 0.731898 0.681414 0.000000
-22.222212 -20.670694 -0.459215 399 0.731898 0.681414 0.000000
-22.224627 -20.672939 -0.449942 379 0.731898 0.681414 0.000000
-22.224079 -20.672432 -0.440607 375 0.731898 0.681414 0.000000
-22.221073 -20.669640 -0.431225 363 0.731898 0.681414 0.000000
-22.217579 -20.666384 -0.421837 331 0.731898 0.681414 0.000000
-22.217304 -20.666128 -0.412520 317 0.731898 0.681414 0.000000
-22.219206 -20.667908 -0.403232 387 0.731898 0.681414 0.000000
-22.225349 -20.673622 -0.394024 357 0.731898 0.681414 0.000000
-22.226294 -20.674500 -0.384715 347 0.731898 0.681414 0.000000
-22.224512 -20.672832 -0.375362 335 0.731898 0.681414 0.000000
-22.221855 -20.670370 -0.365996 353 0.731898 0.681414 0.000000
-22.223166 -20.671581 -0.356694 299 0.731898 0.681414 0.000000
-22.224054 -20.672417 -0.347385 395 0.731898 0.681414 0.000000
-22.223005 -20.671431 -0.338045 415 0.731898 0.681414 0.000000
-22.223448 -20.671852 -0.328731 365 0.731898 0.681414 0.000000
-22.227331 -20.675461 -0.319464 369 0.731898 0.681414 0.000000
-22.228685 -20.676723 -0.310162 301 0.731898 0.681414 0.000000
-22.224258 -20.672600 -0.300772 323 0.731898 0.681414 0.000000
-22.226088 -20.674309 -0.291475 341 0.731898 0.681414 0.000000
-22.231808 -20.666460 -0.617805 283 0.731898 0.681414 0.000000
-22.229151 -20.664000 -0.608410 305 0.731898 0.681414 0.000000
-22.227837 -20.662773 -0.599042 375 0.731898 0.681414 0.000000
-22.229855 -20.664646 -0.589773 327 0.731898 0.681414 0.000000
-22.233351 -20.667904 -0.580540 303 0.731898 0.681414 0.000000
-22.227217 -20.662201 -0.571057 335 0.731898 0.681414 0.000000
-22.229593 -20.664413 -0.561794 355 0.731898 0.681414 0.000000
-22.234911 -20.669348 -0.552605 323 0.731898 0.681414 0.000000
-22.237137 -20.671413 -0.543334 351 0.731898 0.681414 0.000000
-22.235222 -20.669640 -0.533962 379 0.731898 0.681414 0.000000
-22.232233 -20.666857 -0.524559 331 0.731898 0.681414 0.000000
-22.233850 -20.668367 -0.515274 335 0.731898 0.681414 0.000000
-22.228498 -20.663385 -0.505833 333 0.731898 0.681414 0.000000
-22.225565 -20.660662 -0.496440 351 0.731898 0.681414 0.000000
-22.226959 -20.661955 -0.487147 355 0.731898 0.681414 0.000000
-22.227116 -20.662106 -0.477836 371 0.731898 0.681414 0.000000
-22.229418 -20.664249 -0.468564 375 0.731898 0.681414 0.000000
-22.231665 -20.666332 -0.459283 381 0.731898 0.681414 0.000000
-22.231932 -20.666574 -0.449960 393 0.731898 0.681414 0.000000
-22.233160 -20.667721 -0.440669 353 0.731898 0.681414 0.000000
-22.233843 -20.668350 -0.431352 335 0.731898 0.681414 0.000000
-22.235498 -20.669893 -0.422066 353 0.731898 0.681414 0.000000
-22.231356 -20.666039 -0.412665 355 0.731898 0.681414 0.000000
-22.228027 -20.662945 -0.403275 337 0.731898 0.681414 0.000000
-22.227625 -20.662580 -0.393949 385 0.731898 0.681414 0.000000
-22.226639 -20.661661 -0.384608 323 0.731898 0.681414 0.000000
-22.228279 -20.663191 -0.375312 321 0.731898 0.681414 0.000000
-22.227659 -20.662601 -0.365988 335 0.731898 0.681414 0.000000
-22.228067 -20.662983 -0.356674 309 0.731898 0.681414 0.000000
-22.228523 -20.663418 -0.347359 299 0.731898 0.681414 0.000000
-22.234064 -20.668570 -0.338118 325 0.731898 0.681414 0.000000
-22.232805 -20.667385 -0.328779 331 0.731898 0.681414 0.000000
-22.229130 -20.663975 -0.319403 297 0.731898 0.681414 0.000000
-22.227856 -20.662794 -0.310065 269 0.731898 0.681414 0.000000
-22.226107 -20.661167 -0.300721 307 0.731898 0.681414 0.000000
-22.229538 -20.664362 -0.291439 307 0.731898 0.681414 0.000000
-22.239197 -20.659689 -0.617825 335 0.731898 0.681414 0.000000
-22.240196 -20.660612 -0.608525 343 0.731898 0.681414 0.000000
-22.240009 -20.660439 -0.599197 295 0.731898 0.681414 0.000000
-22.238846 -20.659359 -0.589837 329 0.731898 0.681414 0.000000
-22.239948 -20.660378 -0.580537 339 0.731898 0.681414 0.000000
-22.239597 -20.660057 -0.571210 369 0.731898 0.681414 0.000000
-22.236460 -20.657143 -0.561799 349 0.731898 0.681414 0.000000
-22.233210 -20.654125 -0.552399 341 0.731898 0.681414 0.000000
-22.233704 -20.654577 -0.543084 371 0.731898 0.681414 0.000000
-22.238264 -20.658823 -0.533871 359 0.731898 0.681414 0.000000
-22.237852 -20.658440 -0.524545 327 0.731898 0.681414 0.000000
-22.235937 -20.656652 -0.515172 337 0.731898 0.681414 0.000000
-22.243872 -20.664028 -0.506029 365 0.731898 0.681414 0.000000
-22.245014 -20.665081 -0.496728 341 0.731898 0.681414 0.000000
-22.243145 -20.663345 -0.487365 385 0.731898 0.681414 0.000000
-22.239864 -20.660301 -0.477965 355 0.731898 0.681414 0.000000
-22.236443 -20.657118 -0.468567 323 0.731898 0.681414 0.000000
-22.236549 -20.657219 -0.459246 351 0.731898 0.681414 0.000000
-22.238474 -20.659004 -0.449967 375 0.731898 0.681414 0.000000
-22.240009 -20.660437 -0.440673 339 0.731898 0.681414 0.000000
-22.241240 -20.661585 -0.431371 359 0.731898 0.681414 0.000000
-22.239300 -20.659779 -0.422009 351 0.731898 0.681414 0.000000
-22.240095 -20.660509 -0.412701 391 0.731898 0.681414 0.000000
-22.240234 -20.660650 -0.403380 361 0.731898 0.681414 0.000000
-22.236408 -20.657091 -0.393985 341 0.731898 0.681414 0.000000
-22.237312 -20.657923 -0.384677 345 0.731898 0.681414 0.000000
-22.239378 -20.659847 -0.375397 335 0.731898 0.681414 0.000000
-22.240198 -20.660614 -0.366079 363 0.731898 0.681414 0.000000
-22.239973 -20.660393 -0.356761 335 0.731898 0.681414 0.000000
-22.237909 -20.658487 -0.347400 361 0.731898 0.681414 0.000000
-22.237659 -20.658247 -0.338072 331 0.731898 0.681414 0.000000
-22.239775 -20.660212 -0.328782 329 0.731898 0.681414 0.000000
-22.238285 -20.658834 -0.319436 367 0.731898 0.681414 0.000000
-22.235567 -20.656307 -0.310081 331 0.731898 0.681414 0.000000
-22.235056 -20.655834 -0.300756 305 0.731898 0.681414 0.000000
-22.236080 -20.656792 -0.291446 341 0.731898 0.681414 0.000000
-22.250912 -20.657396 -0.617971 359 0.731898 0.681414 0.000000
-22.246700 -20.653486 -0.608530 283 0.731898 0.681414 0.000000
-22.240307 -20.647547 -0.599029 297 0.731898 0.681414 0.000000
-22.241346 -20.648516 -0.589740 321 0.731898 0.681414 0.000000
-22.245773 -20.652628 -0.580528 325 0.731898 0.681414 0.000000
-22.247128 -20.653877 -0.571235 359 0.731898 0.681414 0.000000
-22.245058 -20.651964 -0.561854 353 0.731898 0.681414 0.000000
-22.243624 -20.650629 -0.552498 343 0.731898 0.681414 0.000000
-22.244078 -20.651047 -0.543183 333 0.731898 0.681414 0.000000
-22.244682 -20.651615 -0.533877 333 0.731898 0.681414 0.000000
-22.251503 -20.657938 -0.524714 393 0.731898 0.681414 0.000000
-22.248127 -20.654808 -0.515305 377 0.731898 0.681414 0.000000
-22.242233 -20.649334 -0.505849 347 0.731898 0.681414 0.000000
-22.244228 -20.651188 -0.496571 337 0.731898 0.681414 0.000000
-22.246492 -20.653284 -0.487299 375 0.731898 0.681414 0.000000
-22.246811 -20.653584 -0.477976 373 0.731898 0.681414 0.000000
-22.244455 -20.651402 -0.468608 377 0.731898 0.681414 0.000000
-22.248741 -20.655373 -0.459368 333 0.731898 0.681414 0.000000
-22.250443 -20.656954 -0.450082 375 0.731898 0.681414 0.000000
-22.245022 -20.651926 -0.440642 333 0.731898 0.681414 0.000000
-22.246582 -20.653366 -0.431347 313 0.731898 0.681414 0.000000
-22.248276 -20.654942 -0.422061 331 0.731898 0.681414 0.000000
-22.246223 -20.653040 -0.412700 341 0.731898 0.681414 0.000000
-22.248999 -20.655615 -0.403424 365 0.731898 0.681414 0.000000
-22.250589 -20.657093 -0.394129 369 0.731898 0.681414 0.000000
-22.242641 -20.649708 -0.384663 355 0.731898 0.681414 0.000000
-22.243626 -20.650633 -0.375363 355 0.731898 0.681414 0.000000
-22.248480 -20.655140 -0.366118 359 0.731898 0.681414 0.000000
-22.247820 -20.654516 -0.356784 335 0.731898 0.681414 0.000000
-22.251812 -20.658228 -0.347517 321 0.731898 0.681414 0.000000
-22.255585 -20.661734 -0.338252 379 0.731898 0.681414 0.000000
-22.252066 -20.658463 -0.328874 387 0.731898 0.681414 0.000000
-22.246899 -20.653666 -0.319472 351 0.731898 0.681414 0.000000
-22.247986 -20.654673 -0.310161 351 0.731898 0.681414 0.000000
-22.246166 -20.652987 -0.300818 353 0.731898 0.681414 0.000000
-22.245808 -20.652649 -0.291491 355 0.731898 0.681414 0.000000
-22.253155 -20.646587 -0.617855 333 0.731898 0.681414 0.000000
-22.248047 -20.641840 -0.608392 353 0.731898 0.681414 0.000000
-22.251123 -20.644697 -0.599153 303 0.731898 0.681414 0.000000
-22.252235 -20.645723 -0.589853 335 0.731898 0.681414 0.000000
-22.247967 -20.641768 -0.580422 307 0.731898 0.681414 0.000000
-22.250774 -20.644367 -0.571166 341 0.731898 0.681414 0.000000
-22.253363 -20.646778 -0.561912 341 0.731898 0.681414 0.000000
-22.250437 -20.644060 -0.552509 385 0.731898 0.681414 0.000000
-22.248941 -20.642675 -0.543152 371 0.731898 0.681414 0.000000
-22.248259 -20.642036 -0.533808 305 0.731898 0.681414 0.000000
-22.247253 -20.641111 -0.524467 323 0.731898 0.681414 0.000000
-22.251238 -20.644802 -0.515240 385 0.731898 0.681414 0.000000
-22.257252 -20.650385 -0.506044 363 0.731898 0.681414 0.000000
-22.255693 -20.648937 -0.496688 305 0.731898 0.681414 0.000000
-22.254686 -20.647997 -0.487338 333 0.731898 0.681414 0.000000
-22.255978 -20.649197 -0.478045 383 0.731898 0.681414 0.000000
-22.259245 -20.652229 -0.468785 371 0.731898 0.681414 0.000000
-22.259296 -20.652273 -0.459454 337 0.731898 0.681414 0.000000
-22.253828 -20.647196 -0.450025 311 0.731898 0.681414 0.000000
-22.253124 -20.646553 -0.440681 341 0.731898 0.681414 0.000000
-22.250805 -20.644402 -0.431312 351 0.731898 0.681414 0.000000
-22.251648 -20.645185 -0.422004 339 0.731898 0.681414 0.000000
-22.251318 -20.644869 -0.412677 323 0.731898 0.681414 0.000000
-22.255274 -20.648535 -0.403430 361 0.731898 0.681414 0.000000
-22.256439 -20.649618 -0.394119 345 0.731898 0.681414 0.000000
-22.249653 -20.643324 -0.384682 309 0.731898 0.681414 0.000000
-22.251133 -20.644699 -0.375378 341 0.731898 0.681414 0.000000
-22.251383 -20.644930 -0.366065 365 0.731898 0.681414 0.000000
-22.248775 -20.642519 -0.356699 359 0.731898 0.681414 0.000000
-22.249554 -20.643238 -0.347392 329 0.731898 0.681414 0.000000
-22.256168 -20.649370 -0.338170 325 0.731898 0.681414 0.000000
-22.260113 -20.653028 -0.328904 341 0.731898 0.681414 0.000000
-22.254597 -20.647913 -0.319495 329 0.731898 0.681414 0.000000
-22.254562 -20.647888 -0.310175 365 0.731898 0.681414 0.000000
-22.253143 -20.646564 -0.300828 349 0.731898 0.681414 0.000000
-22.250416 -20.644033 -0.291473 347 0.731898 0.681414 0.000000
-22.260519 -20.640259 -0.617882 259 0.731898 0.681414 0.000000
-22.261629 -20.641283 -0.608591 307 0.731898 0.681414 0.000000
-22.261761 -20.641418 -0.599270 353 0.731898 0.681414 0.000000
-22.261784 -20.641436 -0.589940 365 0.731898 0.681414 0.000000
-22.259987 -20.639771 -0.580566 363 0.731898 0.681414 0.000000
-22.254004 -20.634216 -0.571091 371 0.731898 0.681414 0.000000
-22.255890 -20.635969 -0.561814 323 0.731898 0.681414 0.000000
-22.254740 -20.634901 -0.552464 321 0.731898 0.681414 0.000000
-22.253418 -20.633669 -0.543106 329 0.731898 0.681414 0.000000
-22.258257 -20.638165 -0.533901 303 0.731898 0.681414 0.000000
-22.260519 -20.640261 -0.524630 351 0.731898 0.681414 0.000000
-22.260532 -20.640272 -0.515299 335 0.731898 0.681414 0.000000
-22.261442 -20.641111 -0.506001 349 0.731898 0.681414 0.000000
-22.259790 -20.639587 -0.496636 389 0.731898 0.681414 0.000000
-22.255987 -20.636061 -0.487231 375 0.731898 0.681414 0.000000
-22.255774 -20.635862 -0.477903 335 0.731898 0.681414 0.000000
-22.256416 -20.636459 -0.468597 351 0.731898 0.681414 0.000000
-22.255394 -20.635509 -0.459246 311 0.731898 0.681414 0.000000
-22.255596 -20.635700 -0.449934 371 0.731898 0.681414 0.000000
-22.257893 -20.637819 -0.440652 371 0.731898 0.681414 0.000000
-22.259134 -20.638966 -0.431351 395 0.731898 0.681414 0.000000
-22.259975 -20.639750 -0.422043 381 0.731898 0.681414 0.000000
-22.259644 -20.639442 -0.412715 393 0.731898 0.681414 0.000000
-22.260870 -20.640575 -0.403414 311 0.731898 0.681414 0.000000
-22.262991 -20.642546 -0.394124 341 0.731898 0.681414 0.000000
-22.259268 -20.639093 -0.384738 333 0.731898 0.681414 0.000000
-22.253834 -20.634056 -0.375318 365 0.731898 0.681414 0.000000
-22.250647 -20.631104 -0.365948 315 0.731898 0.681414 0.000000
-22.253725 -20.633959 -0.356679 319 0.731898 0.681414 0.000000
-22.261633 -20.641289 -0.347485 345 0.731898 0.681414 0.000000
-22.260050 -20.639822 -0.338130 299 0.731898 0.681414 0.000000
-22.259748 -20.639540 -0.328802 323 0.731898 0.681414 0.000000
-22.263685 -20.643192 -0.319536 361 0.731898 0.681414 0.000000
-22.262472 -20.642063 -0.310197 367 0.731898 0.681414 0.000000
-22.258038 -20.637947 -0.300808 369 0.731898 0.681414 0.000000
-22.254436 -20.634621 -0.291441 335 0.731898 0.681414 0.000000
-22.265612 -20.632084 -0.617859 357 0.731898 0.681414 0.000000
-22.266870 -20.633255 -0.608567 361 0.731898 0.681414 0.000000
-22.264759 -20.631296 -0.599176 361 0.731898 0.681414 0.000000
-22.266073 -20.632513 -0.589894 387 0.731898 0.681414 0.000000
-22.265446 -20.631933 -0.580550 343 0.731898 0.681414 0.000000
-22.262632 -20.629330 -0.571145 349 0.731898 0.681414 0.000000
-22.261896 -20.628647 -0.561812 311 0.731898 0.681414 0.000000
-22.261757 -20.628510 -0.552483 343 0.731898 0.681414 0.000000
-22.262630 -20.629320 -0.543175 371 0.731898 0.681414 0.000000
-22.264681 -20.631218 -0.533906 373 0.731898 0.681414 0.000000
-22.263510 -20.630135 -0.524556 369 0.731898 0.681414 0.000000
-22.264217 -20.630796 -0.515240 357 0.731898 0.681414 0.000000
-22.259935 -20.626831 -0.505819 325 0.731898 0.681414 0.000000
-22.259464 -20.626387 -0.496493 357 0.731898 0.681414 0.000000
-22.264074 -20.630659 -0.487270 351 0.731898 0.681414 0.000000
-22.265047 -20.631561 -0.477971 355 0.731898 0.681414 0.000000
-22.265905 -20.632359 -0.468663 299 0.731898 0.681414 0.000000
-22.263817 -20.630419 -0.459292 321 0.731898 0.681414 0.000000
-22.267834 -20.634134 -0.450055 287 0.731898 0.681414 0.000000
-22.266590 -20.632992 -0.440706 335 0.731898 0.681414 0.000000
-22.262505 -20.629196 -0.431294 343 0.731898 0.681414 0.000000
-22.265066 -20.631575 -0.422020 393 0.731898 0.681414 0.000000
-22.263002 -20.629665 -0.412658 367 0.731898 0.681414 0.000000
-22.261017 -20.627823 -0.403307 357 0.731898 0.681414 0.000000
-22.255198 -20.622435 -0.393880 337 0.731898 0.681414 0.000000
-22.257168 -20.624256 -0.384592 301 0.731898 0.681414 0.000000
-22.265783 -20.632236 -0.375422 333 0.731898 0.681414 0.000000
-22.264795 -20.631325 -0.366081 337 0.731898 0.681414 0.000000
-22.265038 -20.631546 -0.356758 341 0.731898 0.681414 0.000000
-22.265114 -20.631622 -0.347437 319 0.731898 0.681414 0.000000
-22.261059 -20.627865 -0.338055 365 0.731898 0.681414 0.000000
-22.258932 -20.625895 -0.328704 399 0.731898 0.681414 0.000000
-22.260729 -20.627550 -0.319407 379 0.731898 0.681414 0.000000
-22.264872 -20.631395 -0.310149 373 0.731898 0.681414 0.000000
-22.263336 -20.629965 -0.300803 347 0.731898 0.681414 0.000000
-22.263245 -20.629879 -0.291473 361 0.731898 0.681414 0.000000
