84
-22.429897 -20.664932 -0.648229 37 -0.382408 0.923994 0.000000
-22.428747 -20.663883 -0.638819 31 -0.382408 0.923994 0.000000
-22.428568 -20.663715 -0.629451 -16 -0.382408 0.923994 0.000000
-22.429296 -20.664385 -0.620094 -7 -0.382408 0.923994 0.000000
-22.429762 -20.664820 -0.610739 -14 -0.382408 0.923994 0.000000
-22.428341 -20.663504 -0.601332 -4 -0.382408 0.923994 0.000000
-22.427174 -20.662441 -0.591933 -13 -0.382408 0.923994 0.000000
-22.426443 -20.661760 -0.582549 -43 -0.382408 0.923994 0.000000
-22.428352 -20.663519 -0.573231 -11 -0.382408 0.923994 0.000000
-22.432261 -20.667116 -0.563955 14 -0.382408 0.923994 0.000000
-22.430984 -20.665953 -0.554556 45 -0.382408 0.923994 0.000000
-22.427656 -20.662884 -0.545107 -2 -0.382408 0.923994 0.000000
-22.428959 -20.664083 -0.535765 -4 -0.382408 0.923994 0.000000
-22.427313 -20.662563 -0.526360 -14 -0.382408 0.923994 0.000000
-22.426880 -20.662170 -0.516984 25 -0.382408 0.923994 0.000000
-22.430231 -20.665264 -0.507692 -2 -0.382408 0.923994 0.000000
-22.429646 -20.664724 -0.498307 21 -0.382408 0.923994 0.000000
-22.428843 -20.663977 -0.488925 53 -0.382408 0.923994 0.000000
-22.432503 -20.667353 -0.479641 28 -0.382408 0.923994 0.000000
-22.435297 -20.669928 -0.470324 77 -0.382408 0.923994 0.000000
-22.430132 -20.665167 -0.460852 53 -0.382408 0.923994 0.000000
-22.429211 -20.664326 -0.451460 55 -0.382408 0.923994 0.000000
-22.430170 -20.665203 -0.442111 79 -0.382408 0.923994 0.000000
-22.426994 -20.662279 -0.432681 63 -0.382408 0.923994 0.000000
-22.428810 -20.663961 -0.423353 69 -0.382408 0.923994 0.000000
-22.429602 -20.664680 -0.413996 65 -0.382408 0.923994 0.000000
-22.425983 -20.661354 -0.404569 37 -0.382408 0.923994 0.000000
-22.425150 -20.660595 -0.395187 45 -0.382408 0.923994 0.000000
-22.428474 -20.663654 -0.385876 53 -0.382408 0.923994 0.000000
-22.430326 -20.665354 -0.376538 49 -0.382408 0.923994 0.000000
-22.424923 -20.660381 -0.367088 37 -0.382408 0.923994 0.000000
-22.423494 -20.659071 -0.357701 -9 -0.382408 0.923994 0.000000
-22.424978 -20.660429 -0.348357 27 -0.382408 0.923994 0.000000
-22.428823 -20.663977 -0.339051 0 -0.382408 0.923994 0.000000
-22.428524 -20.663704 -0.329684 23 -0.382408 0.923994 0.000000
-22.422890 -20.658508 -0.320236 -2 -0.382408 0.923994 0.000000
-22.426016 -20.661398 -0.310917 -4 -0.382408 0.923994 0.000000
-22.427547 -20.662807 -0.301572 28 -0.382408 0.923994 0.000000
-22.426435 -20.661776 -0.292192 -4 -0.382408 0.923994 0.000000
-22.427198 -20.662483 -0.282835 19 -0.382408 0.923994 0.000000
-22.425577 -20.660995 -0.273450 -37 -0.382408 0.923994 0.000000
-22.459980 -20.680225 -0.648921 37 -0.382408 0.923994 0.000000
-22.458193 -20.678581 -0.639487 47 -0.382408 0.923994 0.000000
-22.455807 -20.676382 -0.630039 9 -0.382408 0.923994 0.000000
-22.451151 -20.672092 -0.620532 4 -0.382408 0.923994 0.000000
-22.447243 -20.668499 -0.611048 -13 -0.382408 0.923994 0.000000
-22.452337 -20.673191 -0.601811 -7 -0.382408 0.923994 0.000000
-22.459368 -20.679661 -0.592625 -14 -0.382408 0.923994 0.000000
-22.459881 -20.680136 -0.583260 0 -0.382408 0.923994 0.000000
-22.456030 -20.676584 -0.573776 0 -0.382408 0.923994 0.000000
-22.453564 -20.674326 -0.564338 23 -0.382408 0.923994 0.000000
-22.457304 -20.677765 -0.555053 25 -0.382408 0.923994 0.000000
-22.458128 -20.678522 -0.545696 55 -0.382408 0.923994 0.000000
-22.452158 -20.673023 -0.536181 31 -0.382408 0.923994 0.000000
-22.451477 -20.672396 -0.526787 31 -0.382408 0.923994 0.000000
-22.452080 -20.672953 -0.517421 27 -0.382408 0.923994 0.000000
-22.449661 -20.670731 -0.507993 13 -0.382408 0.923994 0.000000
-22.453592 -20.674347 -0.498707 27 -0.382408 0.923994 0.000000
-22.452961 -20.673771 -0.489322 25 -0.382408 0.923994 0.000000
-22.453934 -20.674662 -0.479963 59 -0.382408 0.923994 0.000000
-22.452211 -20.673080 -0.470549 63 -0.382408 0.923994 0.000000
-22.452639 -20.673470 -0.461185 69 -0.382408 0.923994 0.000000
-22.456720 -20.677235 -0.451896 73 -0.382408 0.923994 0.000000
-22.455528 -20.676136 -0.442497 65 -0.382408 0.923994 0.000000
-22.454163 -20.674875 -0.433090 61 -0.382408 0.923994 0.000000
-22.451523 -20.672455 -0.423664 35 -0.382408 0.923994 0.000000
-22.451193 -20.672142 -0.414287 51 -0.382408 0.923994 0.000000
-22.454344 -20.675051 -0.404967 49 -0.382408 0.923994 0.000000
-22.452021 -20.672905 -0.395559 33 -0.382408 0.923994 0.000000
-22.450272 -20.671305 -0.386155 -2 -0.382408 0.923994 0.000000
-22.452890 -20.673714 -0.376820 47 -0.382408 0.923994 0.000000
-22.453667 -20.674431 -0.367463 19 -0.382408 0.923994 0.000000
-22.451599 -20.672527 -0.358052 14 -0.382408 0.923994 0.000000
-22.448561 -20.669724 -0.348630 -13 -0.382408 0.923994 0.000000
-22.452030 -20.672924 -0.339307 -7 -0.382408 0.923994 0.000000
-22.454903 -20.675573 -0.329980 7 -0.382408 0.923994 0.000000
-22.454819 -20.675497 -0.320601 2 -0.382408 0.923994 0.000000
-22.447565 -20.668814 -0.311128 9 -0.382408 0.923994 0.000000
-22.444241 -20.665760 -0.301709 0 -0.382408 0.923994 0.000000
-22.452057 -20.672955 -0.292446 -14 -0.382408 0.923994 0.000000
-22.453791 -20.674547 -0.283090 7 -0.382408 0.923994 0.000000
-22.454935 -20.675610 -0.273729 0 -0.382408 0.923994 0.000000
-22.480267 -20.685972 -0.602395 109 -0.382408 0.923994 0.000000
-22.480240 -20.685951 -0.593005 113 -0.382408 0.923994 0.000000
