774
-7.477908 -7.072526 -0.567317 1333 0.733132 0.680086 0.000000
-7.478299 -7.072899 -0.564173 1333 0.733132 0.680086 0.000000
-7.477297 -7.071955 -0.560932 1327 0.733132 0.680086 0.000000
-7.477106 -7.071774 -0.557744 1331 0.733132 0.680086 0.000000
-7.477379 -7.072040 -0.554601 1323 0.733132 0.680086 0.000000
-7.477243 -7.071902 -0.551423 1315 0.733132 0.680086 0.000000
-7.477627 -7.072268 -0.548279 1337 0.733132 0.680086 0.000000
-7.478011 -7.072636 -0.545135 1335 0.733132 0.680086 0.000000
-7.477542 -7.072194 -0.541929 1337 0.733132 0.680086 0.000000
-7.476810 -7.071504 -0.538706 1311 0.733132 0.680086 0.000000
-7.477089 -7.071761 -0.535564 1327 0.733132 0.680086 0.000000
-7.477736 -7.072377 -0.532437 1325 0.733132 0.680086 0.000000
-7.478439 -7.073049 -0.529321 1343 0.733132 0.680086 0.000000
-7.478232 -7.072855 -0.526132 1341 0.733132 0.680086 0.000000
-7.478081 -7.072706 -0.522954 1345 0.733132 0.680086 0.000000
-7.477827 -7.072461 -0.519766 1347 0.733132 0.680086 0.000000
-7.477620 -7.072267 -0.516588 1331 0.733132 0.680086 0.000000
-7.478205 -7.072832 -0.513452 1335 0.733132 0.680086 0.000000
-7.478053 -7.072682 -0.510274 1337 0.733132 0.680086 0.000000
-7.478380 -7.072991 -0.507131 1341 0.733132 0.680086 0.000000
-7.478540 -7.073141 -0.503969 1347 0.733132 0.680086 0.000000
-7.477849 -7.072496 -0.500755 1341 0.733132 0.680086 0.000000
-7.477906 -7.072551 -0.497595 1323 0.733132 0.680086 0.000000
-7.478385 -7.073006 -0.494460 1335 0.733132 0.680086 0.000000
-7.478816 -7.073411 -0.491316 1357 0.733132 0.680086 0.000000
-7.478283 -7.072905 -0.488111 1343 0.733132 0.680086 0.000000
-7.477966 -7.072610 -0.484924 1353 0.733132 0.680086 0.000000
-7.478015 -7.072659 -0.481763 1355 0.733132 0.680086 0.000000
-7.478230 -7.072852 -0.478611 1349 0.733132 0.680086 0.000000
-7.478175 -7.072805 -0.475442 1351 0.733132 0.680086 0.000000
-7.477851 -7.072504 -0.472255 1343 0.733132 0.680086 0.000000
-7.477899 -7.072552 -0.469084 1353 0.733132 0.680086 0.000000
-7.478322 -7.072950 -0.465940 1353 0.733132 0.680086 0.000000
-7.478848 -7.073443 -0.462805 1349 0.733132 0.680086 0.000000
-7.478364 -7.072989 -0.459610 1349 0.733132 0.680086 0.000000
-7.478094 -7.072731 -0.456432 1341 0.733132 0.680086 0.000000
-7.477823 -7.072474 -0.453245 1341 0.733132 0.680086 0.000000
-7.477651 -7.072320 -0.450066 1335 0.733132 0.680086 0.000000
-7.478280 -7.072908 -0.446940 1343 0.733132 0.680086 0.000000
-7.477898 -7.072549 -0.443754 1353 0.733132 0.680086 0.000000
-7.477350 -7.072031 -0.440549 1345 0.733132 0.680086 0.000000
-7.477932 -7.072582 -0.437423 1333 0.733132 0.680086 0.000000
-7.478444 -7.073076 -0.434278 1343 0.733132 0.680086 0.000000
-7.478014 -7.072666 -0.431092 1333 0.733132 0.680086 0.000000
-7.478270 -7.072905 -0.427940 1345 0.733132 0.680086 0.000000
-7.478885 -7.073494 -0.424804 1361 0.733132 0.680086 0.000000
-7.479299 -7.073886 -0.421660 1355 0.733132 0.680086 0.000000
-7.478162 -7.072809 -0.418440 1345 0.733132 0.680086 0.000000
-7.477039 -7.071743 -0.415211 1329 0.733132 0.680086 0.000000
-7.477551 -7.072237 -0.412076 1337 0.733132 0.680086 0.000000
-7.478435 -7.073067 -0.408948 1347 0.733132 0.680086 0.000000
-7.478309 -7.072950 -0.405779 1345 0.733132 0.680086 0.000000
-7.477601 -7.072279 -0.402575 1343 0.733132 0.680086 0.000000
-7.478224 -7.072875 -0.399439 1343 0.733132 0.680086 0.000000
-7.478471 -7.073108 -0.396287 1349 0.733132 0.680086 0.000000
-7.477810 -7.072474 -0.393093 1355 0.733132 0.680086 0.000000
-7.477892 -7.072561 -0.389932 1345 0.733132 0.680086 0.000000
-7.478402 -7.073041 -0.386787 1337 0.733132 0.680086 0.000000
-7.478754 -7.073370 -0.383644 1337 0.733132 0.680086 0.000000
-7.477775 -7.072445 -0.380433 1339 0.733132 0.680086 0.000000
-7.476628 -7.071360 -0.377204 1343 0.733132 0.680086 0.000000
-7.477346 -7.072045 -0.374077 1341 0.733132 0.680086 0.000000
-7.477954 -7.072629 -0.370941 1341 0.733132 0.680086 0.000000
-7.477246 -7.071958 -0.367748 1333 0.733132 0.680086 0.000000
-7.476785 -7.071523 -0.364562 1335 0.733132 0.680086 0.000000
-7.477351 -7.072047 -0.361417 1329 0.733132 0.680086 0.000000
-7.477798 -7.072477 -0.358282 1335 0.733132 0.680086 0.000000
-7.478620 -7.073258 -0.355155 1351 0.733132 0.680086 0.000000
-7.478532 -7.073172 -0.351985 1337 0.733132 0.680086 0.000000
-7.477498 -7.072189 -0.348775 1321 0.733132 0.680086 0.000000
-7.477889 -7.072562 -0.345621 1321 0.733132 0.680086 0.000000
-7.478759 -7.073393 -0.342503 1337 0.733132 0.680086 0.000000
-7.478783 -7.073409 -0.339333 1345 0.733132 0.680086 0.000000
-7.477526 -7.072223 -0.336114 1327 0.733132 0.680086 0.000000
-7.477065 -7.071788 -0.332929 1321 0.733132 0.680086 0.000000
-7.477671 -7.072357 -0.329793 1333 0.733132 0.680086 0.000000
-7.478111 -7.072782 -0.326649 1327 0.733132 0.680086 0.000000
-7.477969 -7.072652 -0.323480 1333 0.733132 0.680086 0.000000
-7.477978 -7.072655 -0.320320 1331 0.733132 0.680086 0.000000
-7.478369 -7.073028 -0.317166 1341 0.733132 0.680086 0.000000
-7.477534 -7.072243 -0.313974 1321 0.733132 0.680086 0.000000
-7.477279 -7.071998 -0.310796 1317 0.733132 0.680086 0.000000
-7.477672 -7.072372 -0.307652 1325 0.733132 0.680086 0.000000
-7.479666 -7.069447 -0.690986 1333 0.733132 0.680086 0.000000
-7.479388 -7.069183 -0.687789 1313 0.733132 0.680086 0.000000
-7.479437 -7.069232 -0.684618 1331 0.733132 0.680086 0.000000
-7.479270 -7.069069 -0.681430 1327 0.733132 0.680086 0.000000
-7.479421 -7.069212 -0.678268 1331 0.733132 0.680086 0.000000
-7.479095 -7.068898 -0.675061 1331 0.733132 0.680086 0.000000
-7.479074 -7.068890 -0.671891 1341 0.733132 0.680086 0.000000
-7.479226 -7.069033 -0.668730 1335 0.733132 0.680086 0.000000
-7.479162 -7.068966 -0.665550 1333 0.733132 0.680086 0.000000
-7.479354 -7.069155 -0.662399 1333 0.733132 0.680086 0.000000
-7.479133 -7.068949 -0.659201 1331 0.733132 0.680086 0.000000
-7.478750 -7.068575 -0.655994 1333 0.733132 0.680086 0.000000
-7.479579 -7.069362 -0.652896 1337 0.733132 0.680086 0.000000
-7.480146 -7.069901 -0.649771 1333 0.733132 0.680086 0.000000
-7.480188 -7.069942 -0.646600 1347 0.733132 0.680086 0.000000
-7.480109 -7.069863 -0.643421 1343 0.733132 0.680086 0.000000
-7.480101 -7.069854 -0.640251 1333 0.733132 0.680086 0.000000
-7.479920 -7.069693 -0.637063 1329 0.733132 0.680086 0.000000
-7.479841 -7.069613 -0.633883 1321 0.733132 0.680086 0.000000
-7.480455 -7.070203 -0.630757 1333 0.733132 0.680086 0.000000
-7.480335 -7.070078 -0.627578 1333 0.733132 0.680086 0.000000
-7.479884 -7.069664 -0.624363 1331 0.733132 0.680086 0.000000
-7.479701 -7.069488 -0.621184 1335 0.733132 0.680086 0.000000
-7.479789 -7.069568 -0.618013 1343 0.733132 0.680086 0.000000
-7.480133 -7.069890 -0.614870 1349 0.733132 0.680086 0.000000
-7.480215 -7.069977 -0.611709 1333 0.733132 0.680086 0.000000
-7.479872 -7.069649 -0.608502 1333 0.733132 0.680086 0.000000
-7.479793 -7.069570 -0.605333 1333 0.733132 0.680086 0.000000
-7.480025 -7.069789 -0.602181 1343 0.733132 0.680086 0.000000
-7.480321 -7.070073 -0.599028 1347 0.733132 0.680086 0.000000
-7.479971 -7.069740 -0.595831 1331 0.733132 0.680086 0.000000
-7.480155 -7.069921 -0.592669 1337 0.733132 0.680086 0.000000
-7.480339 -7.070090 -0.589518 1335 0.733132 0.680086 0.000000
-7.480357 -7.070114 -0.586347 1345 0.733132 0.680086 0.000000
-7.480118 -7.069881 -0.583159 1339 0.733132 0.680086 0.000000
-7.480087 -7.069853 -0.579980 1341 0.733132 0.680086 0.000000
-7.480208 -7.069972 -0.576818 1323 0.733132 0.680086 0.000000
-7.480337 -7.070097 -0.573657 1333 0.733132 0.680086 0.000000
-7.480624 -7.070360 -0.570514 1347 0.733132 0.680086 0.000000
-7.480904 -7.070632 -0.567362 1347 0.733132 0.680086 0.000000
-7.480394 -7.070144 -0.564156 1335 0.733132 0.680086 0.000000
-7.479871 -7.069659 -0.560951 1325 0.733132 0.680086 0.000000
-7.479624 -7.069420 -0.557763 1329 0.733132 0.680086 0.000000
-7.479171 -7.068991 -0.554558 1331 0.733132 0.680086 0.000000
-7.479173 -7.069003 -0.551388 1329 0.733132 0.680086 0.000000
-7.479779 -7.069572 -0.548262 1351 0.733132 0.680086 0.000000
-7.479310 -7.069130 -0.545056 1337 0.733132 0.680086 0.000000
-7.479486 -7.069293 -0.541904 1343 0.733132 0.680086 0.000000
-7.480133 -7.069908 -0.538778 1335 0.733132 0.680086 0.000000
-7.479822 -7.069618 -0.535591 1327 0.733132 0.680086 0.000000
-7.480047 -7.069832 -0.532439 1335 0.733132 0.680086 0.000000
-7.480645 -7.070395 -0.529303 1343 0.733132 0.680086 0.000000
-7.480390 -7.070150 -0.526115 1337 0.733132 0.680086 0.000000
-7.480184 -7.069957 -0.522937 1345 0.733132 0.680086 0.000000
-7.480774 -7.070514 -0.519812 1351 0.733132 0.680086 0.000000
-7.480458 -7.070220 -0.516615 1337 0.733132 0.680086 0.000000
-7.479837 -7.069632 -0.513410 1327 0.733132 0.680086 0.000000
-7.480205 -7.069985 -0.510267 1347 0.733132 0.680086 0.000000
-7.480062 -7.069842 -0.507088 1335 0.733132 0.680086 0.000000
-7.480692 -7.070444 -0.503962 1347 0.733132 0.680086 0.000000
-7.480749 -7.070499 -0.500791 1345 0.733132 0.680086 0.000000
-7.479850 -7.069650 -0.497570 1339 0.733132 0.680086 0.000000
-7.480806 -7.070549 -0.494461 1347 0.733132 0.680086 0.000000
-7.481341 -7.071063 -0.491326 1351 0.733132 0.680086 0.000000
-7.481183 -7.070908 -0.488147 1353 0.733132 0.680086 0.000000
-7.481445 -7.071152 -0.484995 1361 0.733132 0.680086 0.000000
-7.480969 -7.070704 -0.481799 1349 0.733132 0.680086 0.000000
-7.480596 -7.070352 -0.478612 1343 0.733132 0.680086 0.000000
-7.480111 -7.069898 -0.475417 1345 0.733132 0.680086 0.000000
-7.480208 -7.069998 -0.472256 1345 0.733132 0.680086 0.000000
-7.481013 -7.070751 -0.469128 1351 0.733132 0.680086 0.000000
-7.480639 -7.070398 -0.465942 1349 0.733132 0.680086 0.000000
-7.479669 -7.069479 -0.462721 1345 0.733132 0.680086 0.000000
-7.479766 -7.069579 -0.459560 1331 0.733132 0.680086 0.000000
-7.480619 -7.070385 -0.456442 1357 0.733132 0.680086 0.000000
-7.480397 -7.070178 -0.453264 1343 0.733132 0.680086 0.000000
-7.480223 -7.070011 -0.450085 1339 0.733132 0.680086 0.000000
-7.480161 -7.069957 -0.446916 1347 0.733132 0.680086 0.000000
-7.480216 -7.069997 -0.443745 1347 0.733132 0.680086 0.000000
-7.480097 -7.069886 -0.440576 1341 0.733132 0.680086 0.000000
-7.480242 -7.070024 -0.437415 1343 0.733132 0.680086 0.000000
-7.480291 -7.070072 -0.434254 1347 0.733132 0.680086 0.000000
-7.480165 -7.069955 -0.431085 1337 0.733132 0.680086 0.000000
-7.480842 -7.070595 -0.427949 1349 0.733132 0.680086 0.000000
-7.480301 -7.070083 -0.424754 1333 0.733132 0.680086 0.000000
-7.480072 -7.069871 -0.421576 1331 0.733132 0.680086 0.000000
-7.480750 -7.070511 -0.418449 1345 0.733132 0.680086 0.000000
-7.480250 -7.070045 -0.415254 1345 0.733132 0.680086 0.000000
-7.480083 -7.069882 -0.412086 1337 0.733132 0.680086 0.000000
-7.480268 -7.070065 -0.408924 1337 0.733132 0.680086 0.000000
-7.480093 -7.069896 -0.405755 1339 0.733132 0.680086 0.000000
-7.479489 -7.069321 -0.402551 1317 0.733132 0.680086 0.000000
-7.479522 -7.069356 -0.399391 1335 0.733132 0.680086 0.000000
-7.480781 -7.070550 -0.396289 1341 0.733132 0.680086 0.000000
-7.480973 -7.070725 -0.393137 1341 0.733132 0.680086 0.000000
-7.480735 -7.070506 -0.389959 1351 0.733132 0.680086 0.000000
-7.480609 -7.070389 -0.386780 1345 0.733132 0.680086 0.000000
-7.480267 -7.070061 -0.383603 1341 0.733132 0.680086 0.000000
-7.479870 -7.069691 -0.380417 1331 0.733132 0.680086 0.000000
-7.480006 -7.069821 -0.377255 1343 0.733132 0.680086 0.000000
-7.479775 -7.069595 -0.374088 1341 0.733132 0.680086 0.000000
-7.479794 -7.069618 -0.370917 1339 0.733132 0.680086 0.000000
-7.479556 -7.069400 -0.367739 1333 0.733132 0.680086 0.000000
-7.478841 -7.068723 -0.364546 1327 0.733132 0.680086 0.000000
-7.479135 -7.068993 -0.361393 1333 0.733132 0.680086 0.000000
-7.479846 -7.069672 -0.358266 1331 0.733132 0.680086 0.000000
-7.480404 -7.070203 -0.355121 1341 0.733132 0.680086 0.000000
-7.480268 -7.070066 -0.351952 1341 0.733132 0.680086 0.000000
-7.479601 -7.069440 -0.348759 1343 0.733132 0.680086 0.000000
-7.478829 -7.068706 -0.345566 1333 0.733132 0.680086 0.000000
-7.479588 -7.069436 -0.342428 1339 0.733132 0.680086 0.000000
-7.480297 -7.070101 -0.339302 1343 0.733132 0.680086 0.000000
-7.480377 -7.070174 -0.336141 1335 0.733132 0.680086 0.000000
-7.480019 -7.069833 -0.332954 1333 0.733132 0.680086 0.000000
-7.479344 -7.069202 -0.329770 1319 0.733132 0.680086 0.000000
-7.479519 -7.069364 -0.326609 1327 0.733132 0.680086 0.000000
-7.479697 -7.069541 -0.323457 1319 0.733132 0.680086 0.000000
-7.479561 -7.069403 -0.320288 1325 0.733132 0.680086 0.000000
-7.479620 -7.069472 -0.317127 1321 0.733132 0.680086 0.000000
-7.479955 -7.069787 -0.313974 1321 0.733132 0.680086 0.000000
-7.480712 -7.070503 -0.310837 1337 0.733132 0.680086 0.000000
-7.480999 -7.070766 -0.307684 1343 0.733132 0.680086 0.000000
-7.482432 -7.067472 -0.691033 1341 0.733132 0.680086 0.000000
-7.481996 -7.067069 -0.687817 1319 0.733132 0.680086 0.000000
-7.481830 -7.066906 -0.684628 1325 0.733132 0.680086 0.000000
-7.481235 -7.066351 -0.681404 1321 0.733132 0.680086 0.000000
-7.481863 -7.066939 -0.678288 1325 0.733132 0.680086 0.000000
-7.482335 -7.067389 -0.675153 1341 0.733132 0.680086 0.000000
-7.481793 -7.066876 -0.671928 1329 0.733132 0.680086 0.000000
-7.481722 -7.066803 -0.668749 1321 0.733132 0.680086 0.000000
-7.482408 -7.067450 -0.665632 1339 0.733132 0.680086 0.000000
-7.482601 -7.067638 -0.662480 1337 0.733132 0.680086 0.000000
-7.481789 -7.066872 -0.659238 1325 0.733132 0.680086 0.000000
-7.481359 -7.066462 -0.656022 1325 0.733132 0.680086 0.000000
-7.481918 -7.066993 -0.652897 1341 0.733132 0.680086 0.000000
-7.482333 -7.067385 -0.649763 1345 0.733132 0.680086 0.000000
-7.482573 -7.067611 -0.646610 1345 0.733132 0.680086 0.000000
-7.482558 -7.067595 -0.643430 1339 0.733132 0.680086 0.000000
-7.482599 -7.067638 -0.640260 1343 0.733132 0.680086 0.000000
-7.482521 -7.067572 -0.637091 1335 0.733132 0.680086 0.000000
-7.482290 -7.067346 -0.633893 1321 0.733132 0.680086 0.000000
-7.482213 -7.067280 -0.630713 1311 0.733132 0.680086 0.000000
-7.482029 -7.067105 -0.627525 1327 0.733132 0.680086 0.000000
-7.482380 -7.067433 -0.624382 1341 0.733132 0.680086 0.000000
-7.482303 -7.067368 -0.621202 1337 0.733132 0.680086 0.000000
-7.482231 -7.067294 -0.618033 1341 0.733132 0.680086 0.000000
-7.482687 -7.067731 -0.614888 1345 0.733132 0.680086 0.000000
-7.482185 -7.067251 -0.611683 1339 0.733132 0.680086 0.000000
-7.482314 -7.067375 -0.608522 1343 0.733132 0.680086 0.000000
-7.482761 -7.067806 -0.605388 1345 0.733132 0.680086 0.000000
-7.482474 -7.067522 -0.602190 1335 0.733132 0.680086 0.000000
-7.482603 -7.067647 -0.599029 1333 0.733132 0.680086 0.000000
-7.482157 -7.067224 -0.595823 1339 0.733132 0.680086 0.000000
-7.481641 -7.066744 -0.592608 1325 0.733132 0.680086 0.000000
-7.482358 -7.067416 -0.589501 1325 0.733132 0.680086 0.000000
-7.482703 -7.067751 -0.586348 1335 0.733132 0.680086 0.000000
-7.482243 -7.067316 -0.583142 1329 0.733132 0.680086 0.000000
-7.482474 -7.067535 -0.579990 1337 0.733132 0.680086 0.000000
-7.482977 -7.068010 -0.576865 1333 0.733132 0.680086 0.000000
-7.482993 -7.068019 -0.573695 1343 0.733132 0.680086 0.000000
-7.482859 -7.067896 -0.570506 1339 0.733132 0.680086 0.000000
-7.482979 -7.068015 -0.567345 1349 0.733132 0.680086 0.000000
-7.482574 -7.067623 -0.564148 1341 0.733132 0.680086 0.000000
-7.482432 -7.067493 -0.560970 1329 0.733132 0.680086 0.000000
-7.482975 -7.068013 -0.557834 1327 0.733132 0.680086 0.000000
-7.482990 -7.068022 -0.554664 1339 0.733132 0.680086 0.000000
-7.482737 -7.067791 -0.551476 1329 0.733132 0.680086 0.000000
-7.482865 -7.067903 -0.548315 1353 0.733132 0.680086 0.000000
-7.482181 -7.067264 -0.545102 1339 0.733132 0.680086 0.000000
-7.482357 -7.067426 -0.541940 1345 0.733132 0.680086 0.000000
-7.482368 -7.067443 -0.538780 1337 0.733132 0.680086 0.000000
-7.481739 -7.066849 -0.535565 1321 0.733132 0.680086 0.000000
-7.482018 -7.067106 -0.532413 1333 0.733132 0.680086 0.000000
-7.482878 -7.067917 -0.529305 1341 0.733132 0.680086 0.000000
-7.483040 -7.068082 -0.526143 1341 0.733132 0.680086 0.000000
-7.482044 -7.067129 -0.522912 1327 0.733132 0.680086 0.000000
-7.481672 -7.066791 -0.519716 1327 0.733132 0.680086 0.000000
-7.482007 -7.067106 -0.516572 1323 0.733132 0.680086 0.000000
-7.482430 -7.067504 -0.513428 1323 0.733132 0.680086 0.000000
-7.482709 -7.067761 -0.510276 1343 0.733132 0.680086 0.000000
-7.482178 -7.067270 -0.507081 1343 0.733132 0.680086 0.000000
-7.481867 -7.066967 -0.503884 1343 0.733132 0.680086 0.000000
-7.482083 -7.067175 -0.500731 1343 0.733132 0.680086 0.000000
-7.482028 -7.067128 -0.497562 1339 0.733132 0.680086 0.000000
-7.481877 -7.066978 -0.494383 1341 0.733132 0.680086 0.000000
-7.482086 -7.067180 -0.491231 1347 0.733132 0.680086 0.000000
-7.482405 -7.067482 -0.488088 1351 0.733132 0.680086 0.000000
-7.482462 -7.067537 -0.484917 1347 0.733132 0.680086 0.000000
-7.482663 -7.067732 -0.481765 1339 0.733132 0.680086 0.000000
-7.483150 -7.068193 -0.478631 1341 0.733132 0.680086 0.000000
-7.483094 -7.068132 -0.475461 1347 0.733132 0.680086 0.000000
-7.482769 -7.067832 -0.472264 1349 0.733132 0.680086 0.000000
-7.482237 -7.067327 -0.469069 1339 0.733132 0.680086 0.000000
-7.482285 -7.067374 -0.465909 1351 0.733132 0.680086 0.000000
-7.482334 -7.067422 -0.462738 1355 0.733132 0.680086 0.000000
-7.482701 -7.067763 -0.459595 1347 0.733132 0.680086 0.000000
-7.482479 -7.067557 -0.456417 1347 0.733132 0.680086 0.000000
-7.481994 -7.067103 -0.453221 1339 0.733132 0.680086 0.000000
-7.482458 -7.067546 -0.450077 1341 0.733132 0.680086 0.000000
-7.481917 -7.067034 -0.446882 1335 0.733132 0.680086 0.000000
-7.481536 -7.066675 -0.443695 1341 0.733132 0.680086 0.000000
-7.481418 -7.066565 -0.440526 1331 0.733132 0.680086 0.000000
-7.481680 -7.066809 -0.437374 1337 0.733132 0.680086 0.000000
-7.482048 -7.067150 -0.434220 1351 0.733132 0.680086 0.000000
-7.482289 -7.067390 -0.431078 1341 0.733132 0.680086 0.000000
-7.482496 -7.067577 -0.427916 1345 0.733132 0.680086 0.000000
-7.482003 -7.067117 -0.424720 1337 0.733132 0.680086 0.000000
-7.482036 -7.067153 -0.421560 1331 0.733132 0.680086 0.000000
-7.482124 -7.067232 -0.418399 1333 0.733132 0.680086 0.000000
-7.482165 -7.067274 -0.415238 1333 0.733132 0.680086 0.000000
-7.482468 -7.067551 -0.412086 1335 0.733132 0.680086 0.000000
-7.482557 -7.067644 -0.408925 1339 0.733132 0.680086 0.000000
-7.482431 -7.067527 -0.405756 1341 0.733132 0.680086 0.000000
-7.481884 -7.067009 -0.402561 1339 0.733132 0.680086 0.000000
-7.481757 -7.066892 -0.399392 1325 0.733132 0.680086 0.000000
-7.482426 -7.067526 -0.396256 1327 0.733132 0.680086 0.000000
-7.482888 -7.067955 -0.393111 1343 0.733132 0.680086 0.000000
-7.482970 -7.068042 -0.389950 1345 0.733132 0.680086 0.000000
-7.482787 -7.067867 -0.386782 1345 0.733132 0.680086 0.000000
-7.482231 -7.067343 -0.383587 1327 0.733132 0.680086 0.000000
-7.482271 -7.067372 -0.380427 1331 0.733132 0.680086 0.000000
-7.482670 -7.067750 -0.377283 1335 0.733132 0.680086 0.000000
-7.482799 -7.067875 -0.374122 1341 0.733132 0.680086 0.000000
-7.482887 -7.067955 -0.370961 1343 0.733132 0.680086 0.000000
-7.483015 -7.068079 -0.367799 1335 0.733132 0.680086 0.000000
-7.482618 -7.067708 -0.364613 1325 0.733132 0.680086 0.000000
-7.482213 -7.067330 -0.361437 1331 0.733132 0.680086 0.000000
-7.482183 -7.067303 -0.358267 1329 0.733132 0.680086 0.000000
-7.482534 -7.067630 -0.355124 1337 0.733132 0.680086 0.000000
-7.482495 -7.067595 -0.351954 1347 0.733132 0.680086 0.000000
-7.482416 -7.067516 -0.348785 1339 0.733132 0.680086 0.000000
-7.482545 -7.067641 -0.345623 1325 0.733132 0.680086 0.000000
-7.482888 -7.067963 -0.342480 1331 0.733132 0.680086 0.000000
-7.482849 -7.067928 -0.339310 1337 0.733132 0.680086 0.000000
-7.482396 -7.067499 -0.336124 1327 0.733132 0.680086 0.000000
-7.482574 -7.067676 -0.332973 1325 0.733132 0.680086 0.000000
-7.482215 -7.067335 -0.329796 1313 0.733132 0.680086 0.000000
-7.482240 -7.067351 -0.326626 1325 0.733132 0.680086 0.000000
-7.482201 -7.067317 -0.323466 1331 0.733132 0.680086 0.000000
-7.481310 -7.066474 -0.320264 1313 0.733132 0.680086 0.000000
-7.481909 -7.067051 -0.317128 1327 0.733132 0.680086 0.000000
-7.482397 -7.067513 -0.313984 1333 0.733132 0.680086 0.000000
-7.482260 -7.067376 -0.310815 1337 0.733132 0.680086 0.000000
-7.483067 -7.068143 -0.307677 1329 0.733132 0.680086 0.000000
-7.484031 -7.064730 -0.690989 1329 0.733132 0.680086 0.000000
-7.483913 -7.064619 -0.687800 1321 0.733132 0.680086 0.000000
-7.483802 -7.064514 -0.684611 1315 0.733132 0.680086 0.000000
-7.484479 -7.065154 -0.681504 1335 0.733132 0.680086 0.000000
-7.484727 -7.065387 -0.678352 1331 0.733132 0.680086 0.000000
-7.484251 -7.064939 -0.675136 1319 0.733132 0.680086 0.000000
-7.484070 -7.064778 -0.671948 1317 0.733132 0.680086 0.000000
-7.484436 -7.065118 -0.668804 1325 0.733132 0.680086 0.000000
-7.484366 -7.065059 -0.665625 1343 0.733132 0.680086 0.000000
-7.483984 -7.064686 -0.662418 1343 0.733132 0.680086 0.000000
-7.483651 -7.064379 -0.659211 1327 0.733132 0.680086 0.000000
-7.483795 -7.064516 -0.656050 1325 0.733132 0.680086 0.000000
-7.483724 -7.064442 -0.652871 1333 0.733132 0.680086 0.000000
-7.483924 -7.064637 -0.649719 1341 0.733132 0.680086 0.000000
-7.484109 -7.064820 -0.646557 1337 0.733132 0.680086 0.000000
-7.484148 -7.064847 -0.643386 1325 0.733132 0.680086 0.000000
-7.484396 -7.065081 -0.640244 1331 0.733132 0.680086 0.000000
-7.484326 -7.065021 -0.637064 1335 0.733132 0.680086 0.000000
-7.484352 -7.065051 -0.633894 1327 0.733132 0.680086 0.000000
-7.484128 -7.064830 -0.630696 1319 0.733132 0.680086 0.000000
-7.484424 -7.065115 -0.627553 1329 0.733132 0.680086 0.000000
-7.484880 -7.065552 -0.624419 1343 0.733132 0.680086 0.000000
-7.484538 -7.065224 -0.621212 1335 0.733132 0.680086 0.000000
-7.484458 -7.065144 -0.618033 1325 0.733132 0.680086 0.000000
-7.484692 -7.065378 -0.614890 1349 0.733132 0.680086 0.000000
-7.484669 -7.065356 -0.611711 1349 0.733132 0.680086 0.000000
-7.484860 -7.065531 -0.608559 1349 0.733132 0.680086 0.000000
-7.484726 -7.065408 -0.605370 1341 0.733132 0.680086 0.000000
-7.484758 -7.065430 -0.602200 1337 0.733132 0.680086 0.000000
-7.484784 -7.065459 -0.599039 1333 0.733132 0.680086 0.000000
-7.484912 -7.065584 -0.595878 1347 0.733132 0.680086 0.000000
-7.484410 -7.065104 -0.592663 1319 0.733132 0.680086 0.000000
-7.484427 -7.065126 -0.589492 1327 0.733132 0.680086 0.000000
-7.484397 -7.065098 -0.586323 1331 0.733132 0.680086 0.000000
-7.484256 -7.064969 -0.583134 1327 0.733132 0.680086 0.000000
-7.484328 -7.065036 -0.579973 1333 0.733132 0.680086 0.000000
-7.484297 -7.065008 -0.576803 1341 0.733132 0.680086 0.000000
-7.484902 -7.065578 -0.573677 1343 0.733132 0.680086 0.000000
-7.484975 -7.065645 -0.570507 1331 0.733132 0.680086 0.000000
-7.484834 -7.065515 -0.567328 1331 0.733132 0.680086 0.000000
-7.485701 -7.066332 -0.564220 1343 0.733132 0.680086 0.000000
-7.485448 -7.066102 -0.561032 1327 0.733132 0.680086 0.000000
-7.484191 -7.064915 -0.557774 1331 0.733132 0.680086 0.000000
-7.484104 -7.064830 -0.554595 1343 0.733132 0.680086 0.000000
-7.485284 -7.065947 -0.551513 1359 0.733132 0.680086 0.000000
-7.484441 -7.065156 -0.548281 1337 0.733132 0.680086 0.000000
-7.483613 -7.064363 -0.545049 1333 0.733132 0.680086 0.000000
-7.484045 -7.064782 -0.541915 1337 0.733132 0.680086 0.000000
-7.484269 -7.064995 -0.538763 1321 0.733132 0.680086 0.000000
-7.484015 -7.064750 -0.535575 1325 0.733132 0.680086 0.000000
-7.483975 -7.064715 -0.532405 1339 0.733132 0.680086 0.000000
-7.484144 -7.064872 -0.529244 1327 0.733132 0.680086 0.000000
-7.484790 -7.065486 -0.526117 1325 0.733132 0.680086 0.000000
-7.485437 -7.066102 -0.523001 1345 0.733132 0.680086 0.000000
-7.485230 -7.065907 -0.519813 1345 0.733132 0.680086 0.000000
-7.484498 -7.065204 -0.516600 1335 0.733132 0.680086 0.000000
-7.484825 -7.065513 -0.513447 1335 0.733132 0.680086 0.000000
-7.485520 -7.066179 -0.510330 1355 0.733132 0.680086 0.000000
-7.485250 -7.065922 -0.507143 1335 0.733132 0.680086 0.000000
-7.485100 -7.065786 -0.503964 1341 0.733132 0.680086 0.000000
-7.484527 -7.065236 -0.500759 1329 0.733132 0.680086 0.000000
-7.483509 -7.064279 -0.497519 1327 0.733132 0.680086 0.000000
-7.483988 -7.064734 -0.494384 1353 0.733132 0.680086 0.000000
-7.484737 -7.065444 -0.491267 1357 0.733132 0.680086 0.000000
-7.485263 -7.065938 -0.488132 1341 0.733132 0.680086 0.000000
-7.485321 -7.065992 -0.484971 1333 0.733132 0.680086 0.000000
-7.485163 -7.065850 -0.481793 1345 0.733132 0.680086 0.000000
-7.484519 -7.065243 -0.478579 1341 0.733132 0.680086 0.000000
-7.483453 -7.064235 -0.475349 1335 0.733132 0.680086 0.000000
-7.484146 -7.064887 -0.472222 1341 0.733132 0.680086 0.000000
-7.484672 -7.065381 -0.469087 1329 0.733132 0.680086 0.000000
-7.484561 -7.065276 -0.465918 1335 0.733132 0.680086 0.000000
-7.484921 -7.065624 -0.462775 1343 0.733132 0.680086 0.000000
-7.484811 -7.065519 -0.459596 1341 0.733132 0.680086 0.000000
-7.484748 -7.065466 -0.456426 1329 0.733132 0.680086 0.000000
-7.484909 -7.065616 -0.453264 1337 0.733132 0.680086 0.000000
-7.484631 -7.065352 -0.450087 1333 0.733132 0.680086 0.000000
-7.484831 -7.065547 -0.446935 1343 0.733132 0.680086 0.000000
-7.484824 -7.065538 -0.443765 1339 0.733132 0.680086 0.000000
-7.484705 -7.065427 -0.440586 1343 0.733132 0.680086 0.000000
-7.484324 -7.065068 -0.437400 1323 0.733132 0.680086 0.000000
-7.484469 -7.065206 -0.434248 1323 0.733132 0.680086 0.000000
-7.484780 -7.065502 -0.431095 1327 0.733132 0.680086 0.000000
-7.484717 -7.065435 -0.427926 1333 0.733132 0.680086 0.000000
-7.484591 -7.065318 -0.424757 1339 0.733132 0.680086 0.000000
-7.484417 -7.065164 -0.421578 1337 0.733132 0.680086 0.000000
-7.484561 -7.065300 -0.418417 1339 0.733132 0.680086 0.000000
-7.484395 -7.065138 -0.415248 1331 0.733132 0.680086 0.000000
-7.484372 -7.065117 -0.412078 1319 0.733132 0.680086 0.000000
-7.484779 -7.065502 -0.408935 1343 0.733132 0.680086 0.000000
-7.484231 -7.064984 -0.405740 1339 0.733132 0.680086 0.000000
-7.484104 -7.064867 -0.402571 1329 0.733132 0.680086 0.000000
-7.484089 -7.064852 -0.399401 1329 0.733132 0.680086 0.000000
-7.484537 -7.065282 -0.396257 1329 0.733132 0.680086 0.000000
-7.484896 -7.065616 -0.393113 1341 0.733132 0.680086 0.000000
-7.483813 -7.064595 -0.389893 1325 0.733132 0.680086 0.000000
-7.484372 -7.065127 -0.386758 1335 0.733132 0.680086 0.000000
-7.484620 -7.065360 -0.383605 1333 0.733132 0.680086 0.000000
-7.484326 -7.065084 -0.380418 1329 0.733132 0.680086 0.000000
-7.484877 -7.065609 -0.377283 1327 0.733132 0.680086 0.000000
-7.485291 -7.065987 -0.374139 1345 0.733132 0.680086 0.000000
-7.484783 -7.065515 -0.370954 1329 0.733132 0.680086 0.000000
-7.485182 -7.065894 -0.367800 1349 0.733132 0.680086 0.000000
-7.484992 -7.065712 -0.364631 1327 0.733132 0.680086 0.000000
-7.484546 -7.065289 -0.361446 1333 0.733132 0.680086 0.000000
-7.484779 -7.065510 -0.358293 1329 0.733132 0.680086 0.000000
-7.484485 -7.065234 -0.355116 1327 0.733132 0.680086 0.000000
-7.484343 -7.065104 -0.351937 1335 0.733132 0.680086 0.000000
-7.484369 -7.065134 -0.348777 1329 0.733132 0.680086 0.000000
-7.484122 -7.064895 -0.345599 1325 0.733132 0.680086 0.000000
-7.484147 -7.064925 -0.342439 1323 0.733132 0.680086 0.000000
-7.484380 -7.065145 -0.339287 1329 0.733132 0.680086 0.000000
-7.484181 -7.064958 -0.336118 1321 0.733132 0.680086 0.000000
-7.483840 -7.064630 -0.332932 1321 0.733132 0.680086 0.000000
-7.483800 -7.064595 -0.329772 1323 0.733132 0.680086 0.000000
-7.483873 -7.064662 -0.326611 1321 0.733132 0.680086 0.000000
-7.484416 -7.065183 -0.323466 1325 0.733132 0.680086 0.000000
-7.484751 -7.065497 -0.320323 1325 0.733132 0.680086 0.000000
-7.484131 -7.064909 -0.317128 1317 0.733132 0.680086 0.000000
-7.484195 -7.064970 -0.313968 1331 0.733132 0.680086 0.000000
-7.485169 -7.065897 -0.310848 1323 0.733132 0.680086 0.000000
-7.484708 -7.065462 -0.307663 1325 0.733132 0.680086 0.000000
-7.485497 -7.061882 -0.690926 1313 0.733132 0.680086 0.000000
-7.485754 -7.062135 -0.687773 1323 0.733132 0.680086 0.000000
-7.485747 -7.062126 -0.684603 1323 0.733132 0.680086 0.000000
-7.486536 -7.062867 -0.681496 1335 0.733132 0.680086 0.000000
-7.486417 -7.062756 -0.678317 1321 0.733132 0.680086 0.000000
-7.485925 -7.062296 -0.675091 1319 0.733132 0.680086 0.000000
-7.486131 -7.062482 -0.671939 1329 0.733132 0.680086 0.000000
-7.485950 -7.062322 -0.668751 1313 0.733132 0.680086 0.000000
-7.486166 -7.062516 -0.665599 1325 0.733132 0.680086 0.000000
-7.486413 -7.062748 -0.662446 1331 0.733132 0.680086 0.000000
-7.485913 -7.062282 -0.659231 1321 0.733132 0.680086 0.000000
-7.485531 -7.061923 -0.656024 1337 0.733132 0.680086 0.000000
-7.485939 -7.062308 -0.652880 1343 0.733132 0.680086 0.000000
-7.486457 -7.062795 -0.649755 1355 0.733132 0.680086 0.000000
-7.486012 -7.062386 -0.646540 1337 0.733132 0.680086 0.000000
-7.485838 -7.062218 -0.643351 1333 0.733132 0.680086 0.000000
-7.486134 -7.062501 -0.640208 1327 0.733132 0.680086 0.000000
-7.486699 -7.063025 -0.637083 1339 0.733132 0.680086 0.000000
-7.486741 -7.063067 -0.633912 1335 0.733132 0.680086 0.000000
-7.486446 -7.062791 -0.630715 1331 0.733132 0.680086 0.000000
-7.486535 -7.062871 -0.627554 1345 0.733132 0.680086 0.000000
-7.486560 -7.062901 -0.624384 1343 0.733132 0.680086 0.000000
-7.486274 -7.062631 -0.621186 1323 0.733132 0.680086 0.000000
-7.486563 -7.062908 -0.618034 1331 0.733132 0.680086 0.000000
-7.486921 -7.063242 -0.614890 1345 0.733132 0.680086 0.000000
-7.486682 -7.063010 -0.611702 1325 0.733132 0.680086 0.000000
-7.487082 -7.063389 -0.608569 1353 0.733132 0.680086 0.000000
-7.486733 -7.063068 -0.605362 1345 0.733132 0.680086 0.000000
-7.486073 -7.062435 -0.602138 1317 0.733132 0.680086 0.000000
-7.486257 -7.062617 -0.598986 1319 0.733132 0.680086 0.000000
-7.486919 -7.063245 -0.595870 1335 0.733132 0.680086 0.000000
-7.486515 -7.062868 -0.592664 1321 0.733132 0.680086 0.000000
-7.486484 -7.062840 -0.589494 1337 0.733132 0.680086 0.000000
-7.486396 -7.062753 -0.586315 1327 0.733132 0.680086 0.000000
-7.486636 -7.062980 -0.583162 1313 0.733132 0.680086 0.000000
-7.486812 -7.063142 -0.580000 1329 0.733132 0.680086 0.000000
-7.486781 -7.063114 -0.576831 1335 0.733132 0.680086 0.000000
-7.487546 -7.063836 -0.573713 1353 0.733132 0.680086 0.000000
-7.487992 -7.064253 -0.570579 1345 0.733132 0.680086 0.000000
-7.488273 -7.064524 -0.567426 1349 0.733132 0.680086 0.000000
-7.487438 -7.063740 -0.564194 1343 0.733132 0.680086 0.000000
-7.486666 -7.063004 -0.560971 1339 0.733132 0.680086 0.000000
-7.486946 -7.063276 -0.557819 1345 0.733132 0.680086 0.000000
-7.487593 -7.063890 -0.554702 1351 0.733132 0.680086 0.000000
-7.487236 -7.063551 -0.551506 1359 0.733132 0.680086 0.000000
-7.486089 -7.062466 -0.548247 1343 0.733132 0.680086 0.000000
-7.486305 -7.062674 -0.545094 1339 0.733132 0.680086 0.000000
-7.486696 -7.063046 -0.541951 1333 0.733132 0.680086 0.000000
-7.486442 -7.062801 -0.538763 1323 0.733132 0.680086 0.000000
-7.486133 -7.062513 -0.535576 1323 0.733132 0.680086 0.000000
-7.487050 -7.063382 -0.532467 1339 0.733132 0.680086 0.000000
-7.487217 -7.063538 -0.529315 1347 0.733132 0.680086 0.000000
-7.487434 -7.063745 -0.526163 1337 0.733132 0.680086 0.000000
-7.487816 -7.064098 -0.523020 1341 0.733132 0.680086 0.000000
-7.487195 -7.063509 -0.519805 1335 0.733132 0.680086 0.000000
-7.486982 -7.063310 -0.516617 1337 0.733132 0.680086 0.000000
-7.486825 -7.063168 -0.513439 1333 0.733132 0.680086 0.000000
-7.486888 -7.063229 -0.510278 1323 0.733132 0.680086 0.000000
-7.486730 -7.063073 -0.507099 1325 0.733132 0.680086 0.000000
-7.486794 -7.063134 -0.503939 1341 0.733132 0.680086 0.000000
-7.486796 -7.063144 -0.500769 1335 0.733132 0.680086 0.000000
-7.486742 -7.063098 -0.497599 1335 0.733132 0.680086 0.000000
-7.486583 -7.062942 -0.494421 1333 0.733132 0.680086 0.000000
-7.486163 -7.062552 -0.491224 1341 0.733132 0.680086 0.000000
-7.486529 -7.062892 -0.488081 1341 0.733132 0.680086 0.000000
-7.487439 -7.063755 -0.484972 1343 0.733132 0.680086 0.000000
-7.486857 -7.063198 -0.481768 1323 0.733132 0.680086 0.000000
-7.486954 -7.063297 -0.478607 1341 0.733132 0.680086 0.000000
-7.486795 -7.063141 -0.475428 1345 0.733132 0.680086 0.000000
-7.485993 -7.062396 -0.472206 1333 0.733132 0.680086 0.000000
-7.486097 -7.062488 -0.469045 1337 0.733132 0.680086 0.000000
-7.486465 -7.062842 -0.465901 1337 0.733132 0.680086 0.000000
-7.487102 -7.063436 -0.462775 1339 0.733132 0.680086 0.000000
-7.487303 -7.063631 -0.459623 1349 0.733132 0.680086 0.000000
-7.487033 -7.063374 -0.456435 1345 0.733132 0.680086 0.000000
-7.487399 -7.063714 -0.453292 1353 0.733132 0.680086 0.000000
-7.487066 -7.063406 -0.450105 1339 0.733132 0.680086 0.000000
-7.486796 -7.063149 -0.446917 1335 0.733132 0.680086 0.000000
-7.487530 -7.063847 -0.443800 1351 0.733132 0.680086 0.000000
-7.487101 -7.063437 -0.440604 1345 0.733132 0.680086 0.000000
-7.486871 -7.063224 -0.437426 1329 0.733132 0.680086 0.000000
-7.487389 -7.063711 -0.434291 1339 0.733132 0.680086 0.000000
-7.487008 -7.063352 -0.431105 1339 0.733132 0.680086 0.000000
-7.486889 -7.063241 -0.427926 1339 0.733132 0.680086 0.000000
-7.486979 -7.063334 -0.424765 1343 0.733132 0.680086 0.000000
-7.486907 -7.063261 -0.421596 1333 0.733132 0.680086 0.000000
-7.487003 -7.063347 -0.418435 1349 0.733132 0.680086 0.000000
-7.486671 -7.063040 -0.415258 1333 0.733132 0.680086 0.000000
-7.486496 -7.062871 -0.412079 1343 0.733132 0.680086 0.000000
-7.487008 -7.063366 -0.408944 1351 0.733132 0.680086 0.000000
-7.487040 -7.063388 -0.405774 1343 0.733132 0.680086 0.000000
-7.486437 -7.062827 -0.402580 1345 0.733132 0.680086 0.000000
-7.486413 -7.062804 -0.399410 1337 0.733132 0.680086 0.000000
-7.486821 -7.063189 -0.396266 1347 0.733132 0.680086 0.000000
-7.486965 -7.063327 -0.393114 1337 0.733132 0.680086 0.000000
-7.486672 -7.063051 -0.389927 1327 0.733132 0.680086 0.000000
-7.486551 -7.062926 -0.386758 1335 0.733132 0.680086 0.000000
-7.486362 -7.062759 -0.383580 1343 0.733132 0.680086 0.000000
-7.485384 -7.061834 -0.380369 1315 0.733132 0.680086 0.000000
-7.485942 -7.062366 -0.377234 1315 0.733132 0.680086 0.000000
-7.487401 -7.063744 -0.374140 1339 0.733132 0.680086 0.000000
-7.487226 -7.063575 -0.370961 1327 0.733132 0.680086 0.000000
-7.487036 -7.063394 -0.367793 1339 0.733132 0.680086 0.000000
-7.487005 -7.063365 -0.364623 1341 0.733132 0.680086 0.000000
-7.486608 -7.062994 -0.361447 1343 0.733132 0.680086 0.000000
-7.486632 -7.063010 -0.358277 1339 0.733132 0.680086 0.000000
-7.487302 -7.063643 -0.355150 1345 0.733132 0.680086 0.000000
-7.487312 -7.063661 -0.351980 1333 0.733132 0.680086 0.000000
-7.486969 -7.063333 -0.348803 1331 0.733132 0.680086 0.000000
-7.486779 -7.063152 -0.345625 1343 0.733132 0.680086 0.000000
-7.486367 -7.062768 -0.342449 1323 0.733132 0.680086 0.000000
-7.486821 -7.063191 -0.339305 1345 0.733132 0.680086 0.000000
-7.486465 -7.062865 -0.336118 1321 0.733132 0.680086 0.000000
-7.486378 -7.062779 -0.332958 1323 0.733132 0.680086 0.000000
-7.486498 -7.062898 -0.329797 1331 0.733132 0.680086 0.000000
-7.486891 -7.063271 -0.326653 1331 0.733132 0.680086 0.000000
-7.487066 -7.063433 -0.323492 1317 0.733132 0.680086 0.000000
-7.487028 -7.063399 -0.320322 1315 0.733132 0.680086 0.000000
-7.486781 -7.063160 -0.317154 1319 0.733132 0.680086 0.000000
-7.486217 -7.062630 -0.313970 1313 0.733132 0.680086 0.000000
-7.486703 -7.063091 -0.310825 1335 0.733132 0.680086 0.000000
-7.486928 -7.063305 -0.307673 1311 0.733132 0.680086 0.000000
-7.488457 -7.060355 -0.690999 1331 0.733132 0.680086 0.000000
-7.488068 -7.059989 -0.687793 1317 0.733132 0.680086 0.000000
-7.488061 -7.059994 -0.684612 1313 0.733132 0.680086 0.000000
-7.488635 -7.060525 -0.681497 1329 0.733132 0.680086 0.000000
-7.488891 -7.060778 -0.678344 1331 0.733132 0.680086 0.000000
-7.488668 -7.060557 -0.675147 1331 0.733132 0.680086 0.000000
-7.488398 -7.060299 -0.671949 1341 0.733132 0.680086 0.000000
-7.488591 -7.060489 -0.668797 1333 0.733132 0.680086 0.000000
-7.489428 -7.061281 -0.665689 1333 0.733132 0.680086 0.000000
-7.488936 -7.060821 -0.662474 1347 0.733132 0.680086 0.000000
-7.487965 -7.059902 -0.659223 1329 0.733132 0.680086 0.000000
-7.488434 -7.060337 -0.656088 1335 0.733132 0.680086 0.000000
-7.488787 -7.060679 -0.652945 1341 0.733132 0.680086 0.000000
-7.488979 -7.060854 -0.649783 1343 0.733132 0.680086 0.000000
-7.489233 -7.061092 -0.646631 1345 0.733132 0.680086 0.000000
-7.489323 -7.061186 -0.643470 1359 0.733132 0.680086 0.000000
-7.489141 -7.061011 -0.640281 1345 0.733132 0.680086 0.000000
-7.489810 -7.061645 -0.637165 1359 0.733132 0.680086 0.000000
-7.489685 -7.061528 -0.633976 1341 0.733132 0.680086 0.000000
-7.489192 -7.061067 -0.630771 1331 0.733132 0.680086 0.000000
-7.489383 -7.061242 -0.627609 1333 0.733132 0.680086 0.000000
-7.489409 -7.061272 -0.624438 1339 0.733132 0.680086 0.000000
-7.489177 -7.061045 -0.621250 1331 0.733132 0.680086 0.000000
-7.488941 -7.060827 -0.618053 1339 0.733132 0.680086 0.000000
-7.488543 -7.060455 -0.614856 1329 0.733132 0.680086 0.000000
-7.488202 -7.060128 -0.611649 1335 0.733132 0.680086 0.000000
-7.488338 -7.060259 -0.608498 1343 0.733132 0.680086 0.000000
-7.488952 -7.060834 -0.605372 1333 0.733132 0.680086 0.000000
-7.489503 -7.061360 -0.602247 1339 0.733132 0.680086 0.000000
-7.489360 -7.061231 -0.599058 1337 0.733132 0.680086 0.000000
-7.488866 -7.060756 -0.595853 1333 0.733132 0.680086 0.000000
-7.488191 -7.060124 -0.592629 1327 0.733132 0.680086 0.000000
-7.488209 -7.060148 -0.589459 1329 0.733132 0.680086 0.000000
-7.488718 -7.060614 -0.586324 1337 0.733132 0.680086 0.000000
-7.489158 -7.061038 -0.583190 1331 0.733132 0.680086 0.000000
-7.489397 -7.061265 -0.580037 1331 0.733132 0.680086 0.000000
-7.489255 -7.061136 -0.576859 1343 0.733132 0.680086 0.000000
-7.488643 -7.060553 -0.573634 1323 0.733132 0.680086 0.000000
-7.488763 -7.060672 -0.570473 1327 0.733132 0.680086 0.000000
-7.489472 -7.061337 -0.567356 1349 0.733132 0.680086 0.000000
-7.489385 -7.061251 -0.564187 1351 0.733132 0.680086 0.000000
-7.489029 -7.060925 -0.560990 1343 0.733132 0.680086 0.000000
-7.488624 -7.060533 -0.557784 1345 0.733132 0.680086 0.000000
-7.488855 -7.060753 -0.554632 1345 0.733132 0.680086 0.000000
-7.488976 -7.060872 -0.551471 1341 0.733132 0.680086 0.000000
-7.488085 -7.060029 -0.548239 1329 0.733132 0.680086 0.000000
-7.488358 -7.060294 -0.545086 1333 0.733132 0.680086 0.000000
-7.489751 -7.061608 -0.542023 1345 0.733132 0.680086 0.000000
-7.490087 -7.061923 -0.538870 1347 0.733132 0.680086 0.000000
-7.489569 -7.061430 -0.535665 1339 0.733132 0.680086 0.000000
-7.489522 -7.061389 -0.532495 1335 0.733132 0.680086 0.000000
-7.490010 -7.061852 -0.529360 1337 0.733132 0.680086 0.000000
-7.489693 -7.061556 -0.526163 1341 0.733132 0.680086 0.000000
-7.489439 -7.061311 -0.522986 1341 0.733132 0.680086 0.000000
-7.489766 -7.061620 -0.519832 1341 0.733132 0.680086 0.000000
-7.489878 -7.061732 -0.516671 1343 0.733132 0.680086 0.000000
-7.490372 -7.062186 -0.513537 1355 0.733132 0.680086 0.000000
-7.489895 -7.061738 -0.510331 1345 0.733132 0.680086 0.000000
-7.488671 -7.060592 -0.507082 1329 0.733132 0.680086 0.000000
-7.488895 -7.060805 -0.503930 1335 0.733132 0.680086 0.000000
-7.489740 -7.061605 -0.500822 1347 0.733132 0.680086 0.000000
-7.489534 -7.061411 -0.497634 1347 0.733132 0.680086 0.000000
-7.488739 -7.060658 -0.494421 1339 0.733132 0.680086 0.000000
-7.488795 -7.060712 -0.491251 1343 0.733132 0.680086 0.000000
-7.489115 -7.061014 -0.488108 1353 0.733132 0.680086 0.000000
-7.489331 -7.061223 -0.484956 1349 0.733132 0.680086 0.000000
-7.489649 -7.061511 -0.481803 1337 0.733132 0.680086 0.000000
-7.489802 -7.061668 -0.478651 1355 0.733132 0.680086 0.000000
-7.489062 -7.060958 -0.475428 1347 0.733132 0.680086 0.000000
-7.488626 -7.060556 -0.472242 1341 0.733132 0.680086 0.000000
-7.488307 -7.060247 -0.469055 1347 0.733132 0.680086 0.000000
-7.488516 -7.060449 -0.465893 1335 0.733132 0.680086 0.000000
-7.488938 -7.060846 -0.462759 1331 0.733132 0.680086 0.000000
-7.488766 -7.060692 -0.459580 1343 0.733132 0.680086 0.000000
-7.489403 -7.061286 -0.456454 1351 0.733132 0.680086 0.000000
-7.489444 -7.061328 -0.453284 1343 0.733132 0.680086 0.000000
-7.489119 -7.061027 -0.450097 1341 0.733132 0.680086 0.000000
-7.488419 -7.060362 -0.446893 1327 0.733132 0.680086 0.000000
-7.488197 -7.060157 -0.443715 1329 0.733132 0.680086 0.000000
-7.488666 -7.060592 -0.440571 1341 0.733132 0.680086 0.000000
-7.489511 -7.061390 -0.437453 1351 0.733132 0.680086 0.000000
-7.489496 -7.061375 -0.434283 1341 0.733132 0.680086 0.000000
-7.489266 -7.061162 -0.431105 1339 0.733132 0.680086 0.000000
-7.489411 -7.061300 -0.427953 1355 0.733132 0.680086 0.000000
-7.488767 -7.060693 -0.424749 1337 0.733132 0.680086 0.000000
-7.488648 -7.060582 -0.421581 1341 0.733132 0.680086 0.000000
-7.488833 -7.060765 -0.418419 1339 0.733132 0.680086 0.000000
-7.488667 -7.060603 -0.415250 1341 0.733132 0.680086 0.000000
-7.488700 -7.060638 -0.412080 1329 0.733132 0.680086 0.000000
-7.489543 -7.061423 -0.408962 1343 0.733132 0.680086 0.000000
-7.490000 -7.061860 -0.405817 1343 0.733132 0.680086 0.000000
-7.489339 -7.061241 -0.402614 1337 0.733132 0.680086 0.000000
-7.488894 -7.060818 -0.399428 1335 0.733132 0.680086 0.000000
-7.488879 -7.060802 -0.396268 1349 0.733132 0.680086 0.000000
-7.488745 -7.060678 -0.393089 1331 0.733132 0.680086 0.000000
-7.488730 -7.060663 -0.389929 1339 0.733132 0.680086 0.000000
-7.488653 -7.060598 -0.386760 1331 0.733132 0.680086 0.000000
-7.489051 -7.060977 -0.383616 1343 0.733132 0.680086 0.000000
-7.489235 -7.061145 -0.380454 1333 0.733132 0.680086 0.000000
-7.489061 -7.060977 -0.377286 1333 0.733132 0.680086 0.000000
-7.489667 -7.061561 -0.374150 1337 0.733132 0.680086 0.000000
-7.489748 -7.061634 -0.370989 1333 0.733132 0.680086 0.000000
-7.488984 -7.060905 -0.367786 1331 0.733132 0.680086 0.000000
-7.488579 -7.060528 -0.364600 1333 0.733132 0.680086 0.000000
-7.489089 -7.061008 -0.361455 1337 0.733132 0.680086 0.000000
-7.489854 -7.061730 -0.358328 1343 0.733132 0.680086 0.000000
-7.489298 -7.061206 -0.355143 1337 0.733132 0.680086 0.000000
-7.488575 -7.060523 -0.351940 1333 0.733132 0.680086 0.000000
-7.488855 -7.060795 -0.348787 1335 0.733132 0.680086 0.000000
-7.489412 -7.061313 -0.345651 1351 0.733132 0.680086 0.000000
-7.489438 -7.061343 -0.342491 1339 0.733132 0.680086 0.000000
-7.489239 -7.061155 -0.339313 1345 0.733132 0.680086 0.000000
-7.488986 -7.060924 -0.336135 1341 0.733132 0.680086 0.000000
-7.488748 -7.060692 -0.332967 1327 0.733132 0.680086 0.000000
-7.488765 -7.060715 -0.329797 1327 0.733132 0.680086 0.000000
-7.489363 -7.061278 -0.326661 1331 0.733132 0.680086 0.000000
-7.489657 -7.061548 -0.323509 1329 0.733132 0.680086 0.000000
-7.489134 -7.061063 -0.320323 1335 0.733132 0.680086 0.000000
-7.489421 -7.061327 -0.317171 1329 0.733132 0.680086 0.000000
-7.489964 -7.061846 -0.314035 1335 0.733132 0.680086 0.000000
-7.489503 -7.061411 -0.310850 1347 0.733132 0.680086 0.000000
-7.489138 -7.061065 -0.307673 1327 0.733132 0.680086 0.000000
-7.491435 -7.058676 -0.691073 1335 0.733132 0.680086 0.000000
-7.491261 -7.058521 -0.687874 1333 0.733132 0.680086 0.000000
-7.490728 -7.058016 -0.684659 1329 0.733132 0.680086 0.000000
-7.490984 -7.058254 -0.681507 1329 0.733132 0.680086 0.000000
-7.491295 -7.058551 -0.678354 1329 0.733132 0.680086 0.000000
-7.490858 -7.058134 -0.675148 1325 0.733132 0.680086 0.000000
-7.490788 -7.058075 -0.671969 1327 0.733132 0.680086 0.000000
-7.490621 -7.057912 -0.668780 1335 0.733132 0.680086 0.000000
-7.490654 -7.057949 -0.665610 1319 0.733132 0.680086 0.000000
-7.491118 -7.058391 -0.662475 1321 0.733132 0.680086 0.000000
-7.491055 -7.058325 -0.659296 1337 0.733132 0.680086 0.000000
-7.490992 -7.058271 -0.656116 1339 0.733132 0.680086 0.000000
-7.490443 -7.057753 -0.652891 1325 0.733132 0.680086 0.000000
-7.490317 -7.057636 -0.649712 1335 0.733132 0.680086 0.000000
-7.490627 -7.057918 -0.646559 1331 0.733132 0.680086 0.000000
-7.490493 -7.057795 -0.643381 1329 0.733132 0.680086 0.000000
-7.490312 -7.057634 -0.640192 1317 0.733132 0.680086 0.000000
-7.490774 -7.058064 -0.637058 1329 0.733132 0.680086 0.000000
-7.491555 -7.058798 -0.633950 1335 0.733132 0.680086 0.000000
-7.491429 -7.058681 -0.630772 1329 0.733132 0.680086 0.000000
-7.490712 -7.058003 -0.627538 1325 0.733132 0.680086 0.000000
-7.490524 -7.057837 -0.624350 1333 0.733132 0.680086 0.000000
-7.490411 -7.057718 -0.621171 1333 0.733132 0.680086 0.000000
-7.490914 -7.058193 -0.618036 1335 0.733132 0.680086 0.000000
-7.491259 -7.058528 -0.614893 1333 0.733132 0.680086 0.000000
-7.491124 -7.058405 -0.611714 1333 0.733132 0.680086 0.000000
-7.491746 -7.058987 -0.608588 1349 0.733132 0.680086 0.000000
-7.492614 -7.059804 -0.605490 1349 0.733132 0.680086 0.000000
-7.492377 -7.059586 -0.602292 1349 0.733132 0.680086 0.000000
-7.491550 -7.058807 -0.599060 1343 0.733132 0.680086 0.000000
-7.490675 -7.057978 -0.595818 1329 0.733132 0.680086 0.000000
-7.491017 -7.058298 -0.592674 1329 0.733132 0.680086 0.000000
-7.491098 -7.058372 -0.589504 1321 0.733132 0.680086 0.000000
-7.491275 -7.058548 -0.586352 1333 0.733132 0.680086 0.000000
-7.491188 -7.058462 -0.583173 1333 0.733132 0.680086 0.000000
-7.491268 -7.058536 -0.580012 1329 0.733132 0.680086 0.000000
-7.491611 -7.058857 -0.576869 1341 0.733132 0.680086 0.000000
-7.491302 -7.058569 -0.573671 1323 0.733132 0.680086 0.000000
-7.491542 -7.058794 -0.570519 1337 0.733132 0.680086 0.000000
-7.491289 -7.058564 -0.567331 1343 0.733132 0.680086 0.000000
-7.490939 -7.058230 -0.564134 1331 0.733132 0.680086 0.000000
-7.491274 -7.058545 -0.560991 1329 0.733132 0.680086 0.000000
-7.491768 -7.059013 -0.557857 1343 0.733132 0.680086 0.000000
-7.491514 -7.058768 -0.554669 1339 0.733132 0.680086 0.000000
-7.490576 -7.057888 -0.551428 1333 0.733132 0.680086 0.000000
-7.490537 -7.057853 -0.548258 1329 0.733132 0.680086 0.000000
-7.491135 -7.058417 -0.545132 1333 0.733132 0.680086 0.000000
-7.491573 -7.058827 -0.541988 1349 0.733132 0.680086 0.000000
-7.492061 -7.059289 -0.538853 1351 0.733132 0.680086 0.000000
-7.492070 -7.059306 -0.535683 1353 0.733132 0.680086 0.000000
-7.490806 -7.058114 -0.532425 1331 0.733132 0.680086 0.000000
-7.490710 -7.058022 -0.529256 1323 0.733132 0.680086 0.000000
-7.491038 -7.058331 -0.526103 1327 0.733132 0.680086 0.000000
-7.490991 -7.058290 -0.522933 1337 0.733132 0.680086 0.000000
-7.491319 -7.058599 -0.519790 1351 0.733132 0.680086 0.000000
-7.491002 -7.058304 -0.516603 1343 0.733132 0.680086 0.000000
-7.492077 -7.059312 -0.513502 1361 0.733132 0.680086 0.000000
-7.492826 -7.060022 -0.510385 1353 0.733132 0.680086 0.000000
-7.492190 -7.059422 -0.507171 1339 0.733132 0.680086 0.000000
-7.491340 -7.058624 -0.503949 1321 0.733132 0.680086 0.000000
-7.490871 -7.058183 -0.500744 1333 0.733132 0.680086 0.000000
-7.490712 -7.058026 -0.497565 1313 0.733132 0.680086 0.000000
-7.491253 -7.058532 -0.494440 1331 0.733132 0.680086 0.000000
-7.491137 -7.058435 -0.491261 1347 0.733132 0.680086 0.000000
-7.491145 -7.058438 -0.488091 1339 0.733132 0.680086 0.000000
-7.491256 -7.058537 -0.484930 1345 0.733132 0.680086 0.000000
-7.490932 -7.058236 -0.481743 1333 0.733132 0.680086 0.000000
-7.491300 -7.058590 -0.478599 1329 0.733132 0.680086 0.000000
-7.491140 -7.058434 -0.475420 1341 0.733132 0.680086 0.000000
-7.491078 -7.058381 -0.472251 1345 0.733132 0.680086 0.000000
-7.491612 -7.058880 -0.469116 1347 0.733132 0.680086 0.000000
-7.491239 -7.058527 -0.465929 1341 0.733132 0.680086 0.000000
-7.490643 -7.057971 -0.462725 1333 0.733132 0.680086 0.000000
-7.491169 -7.058465 -0.459590 1329 0.733132 0.680086 0.000000
-7.491632 -7.058908 -0.456455 1347 0.733132 0.680086 0.000000
-7.491474 -7.058753 -0.453277 1337 0.733132 0.680086 0.000000
-7.491412 -7.058699 -0.450107 1337 0.733132 0.680086 0.000000
-7.491142 -7.058442 -0.446920 1333 0.733132 0.680086 0.000000
-7.490967 -7.058273 -0.443741 1339 0.733132 0.680086 0.000000
-7.491015 -7.058321 -0.440581 1343 0.733132 0.680086 0.000000
-7.490835 -7.058160 -0.437402 1343 0.733132 0.680086 0.000000
