258
-21.752609 -21.099583 -0.653311 1039 0.130895 0.991396 0.000000
-21.752489 -21.099459 -0.644002 1009 0.130895 0.991396 0.000000
-21.752672 -21.099653 -0.634690 1007 0.130895 0.991396 0.000000
-21.752405 -21.099380 -0.625372 1017 0.130895 0.991396 0.000000
-21.752018 -21.099009 -0.616056 1023 0.130895 0.991396 0.000000
-21.752834 -21.099804 -0.606768 1021 0.130895 0.991396 0.000000
-21.752535 -21.099520 -0.597450 1015 0.130895 0.991396 0.000000
-21.751671 -21.098675 -0.588118 1015 0.130895 0.991396 0.000000
-21.752216 -21.099205 -0.578823 1021 0.130895 0.991396 0.000000
-21.751986 -21.098978 -0.569505 1035 0.130895 0.991396 0.000000
-21.752584 -21.099567 -0.560209 1031 0.130895 0.991396 0.000000
-21.752745 -21.099730 -0.550907 1017 0.130895 0.991396 0.000000
-21.752188 -21.099188 -0.541582 1021 0.130895 0.991396 0.000000
-21.752831 -21.099802 -0.532286 1003 0.130895 0.991396 0.000000
-21.752056 -21.099058 -0.522963 1031 0.130895 0.991396 0.000000
-21.751492 -21.098513 -0.513638 1023 0.130895 0.991396 0.000000
-21.752337 -21.099335 -0.504350 1013 0.130895 0.991396 0.000000
-21.753286 -21.100252 -0.495061 1015 0.130895 0.991396 0.000000
-21.753916 -21.100866 -0.485765 1019 0.130895 0.991396 0.000000
-21.751711 -21.098728 -0.476405 1013 0.130895 0.991396 0.000000
-21.751925 -21.098934 -0.467103 1027 0.130895 0.991396 0.000000
-21.753180 -21.100145 -0.457821 1037 0.130895 0.991396 0.000000
-21.751606 -21.098621 -0.448486 1039 0.130895 0.991396 0.000000
-21.751532 -21.098560 -0.439176 1017 0.130895 0.991396 0.000000
-21.752428 -21.099422 -0.429877 1029 0.130895 0.991396 0.000000
-21.751251 -21.098280 -0.420548 1005 0.130895 0.991396 0.000000
-21.750772 -21.097818 -0.411233 1011 0.130895 0.991396 0.000000
-21.751230 -21.098265 -0.401938 1003 0.130895 0.991396 0.000000
-21.750422 -21.097479 -0.392616 1015 0.130895 0.991396 0.000000
-21.750084 -21.097162 -0.383299 1013 0.130895 0.991396 0.000000
-21.750542 -21.097595 -0.374004 1013 0.130895 0.991396 0.000000
-21.749874 -21.096952 -0.364680 1007 0.130895 0.991396 0.000000
-21.749855 -21.096939 -0.355380 1007 0.130895 0.991396 0.000000
-21.749773 -21.096859 -0.346071 1013 0.130895 0.991396 0.000000
-21.750635 -21.097692 -0.336772 1023 0.130895 0.991396 0.000000
-21.751657 -21.098684 -0.327482 1019 0.130895 0.991396 0.000000
-21.751778 -21.098801 -0.318181 1001 0.130895 0.991396 0.000000
-21.750847 -21.097898 -0.308860 1003 0.130895 0.991396 0.000000
-21.750710 -21.097775 -0.299551 1009 0.130895 0.991396 0.000000
-21.750933 -21.097986 -0.290248 1007 0.130895 0.991396 0.000000
-21.751045 -21.098097 -0.280947 997 0.130895 0.991396 0.000000
-21.750261 -21.097343 -0.271624 989 0.130895 0.991396 0.000000
-21.749901 -21.096994 -0.262317 989 0.130895 0.991396 0.000000
-21.767199 -21.100809 -0.653557 1015 0.130895 0.991396 0.000000
-21.766134 -21.099787 -0.644217 1009 0.130895 0.991396 0.000000
-21.765179 -21.098850 -0.634876 1013 0.130895 0.991396 0.000000
-21.764166 -21.097870 -0.625536 1017 0.130895 0.991396 0.000000
-21.764399 -21.098103 -0.616223 1023 0.130895 0.991396 0.000000
-21.765215 -21.098886 -0.606935 1017 0.130895 0.991396 0.000000
-21.765398 -21.099064 -0.597623 1005 0.130895 0.991396 0.000000
-21.765581 -21.099247 -0.588321 1015 0.130895 0.991396 0.000000
-21.764454 -21.098158 -0.578982 1023 0.130895 0.991396 0.000000
-21.764420 -21.098129 -0.569662 1027 0.130895 0.991396 0.000000
-21.764915 -21.098608 -0.560367 1029 0.130895 0.991396 0.000000
-21.764828 -21.098522 -0.551048 1015 0.130895 0.991396 0.000000
-21.765526 -21.099195 -0.541761 1033 0.130895 0.991396 0.000000
-21.764643 -21.098347 -0.532419 1007 0.130895 0.991396 0.000000
-21.764238 -21.097950 -0.523102 1033 0.130895 0.991396 0.000000
-21.764141 -21.097858 -0.513783 1043 0.130895 0.991396 0.000000
-21.763826 -21.097559 -0.504466 1033 0.130895 0.991396 0.000000
-21.763939 -21.097668 -0.495165 1019 0.130895 0.991396 0.000000
-21.763781 -21.097511 -0.485846 1025 0.130895 0.991396 0.000000
-21.762896 -21.096663 -0.476514 1017 0.130895 0.991396 0.000000
-21.763571 -21.097313 -0.467217 1027 0.130895 0.991396 0.000000
-21.764832 -21.098532 -0.457935 1029 0.130895 0.991396 0.000000
-21.764202 -21.097921 -0.448611 1025 0.130895 0.991396 0.000000
-21.763826 -21.097559 -0.439294 1019 0.130895 0.991396 0.000000
-21.763073 -21.096830 -0.429971 1021 0.130895 0.991396 0.000000
-21.763382 -21.097128 -0.420668 1019 0.130895 0.991396 0.000000
-21.762371 -21.096149 -0.411338 1015 0.130895 0.991396 0.000000
-21.761877 -21.095675 -0.402012 1025 0.130895 0.991396 0.000000
-21.762545 -21.096319 -0.392715 1025 0.130895 0.991396 0.000000
-21.762102 -21.095894 -0.383399 1013 0.130895 0.991396 0.000000
-21.763084 -21.096849 -0.374110 1013 0.130895 0.991396 0.000000
-21.763525 -21.097284 -0.364805 1019 0.130895 0.991396 0.000000
-21.763763 -21.097507 -0.355503 1009 0.130895 0.991396 0.000000
-21.765306 -21.099012 -0.346218 1019 0.130895 0.991396 0.000000
-21.764961 -21.098673 -0.336901 1017 0.130895 0.991396 0.000000
-21.764309 -21.098043 -0.327577 1021 0.130895 0.991396 0.000000
-21.764376 -21.098114 -0.318276 1035 0.130895 0.991396 0.000000
-21.763599 -21.097355 -0.308953 1011 0.130895 0.991396 0.000000
-21.763252 -21.097015 -0.299637 997 0.130895 0.991396 0.000000
-21.763468 -21.097237 -0.290334 1009 0.130895 0.991396 0.000000
-21.762543 -21.096329 -0.281013 989 0.130895 0.991396 0.000000
-21.763485 -21.097256 -0.271714 1001 0.130895 0.991396 0.000000
-21.764120 -21.097862 -0.262417 997 0.130895 0.991396 0.000000
-21.777830 -21.097738 -0.653684 1009 0.130895 0.991396 0.000000
-21.778238 -21.098131 -0.644380 1021 0.130895 0.991396 0.000000
-21.777586 -21.097500 -0.635046 1025 0.130895 0.991396 0.000000
-21.777521 -21.097435 -0.625726 1025 0.130895 0.991396 0.000000
-21.778494 -21.098387 -0.616437 1033 0.130895 0.991396 0.000000
-21.778843 -21.098717 -0.607133 1011 0.130895 0.991396 0.000000
-21.778440 -21.098333 -0.597807 999 0.130895 0.991396 0.000000
-21.776945 -21.096888 -0.588451 1013 0.130895 0.991396 0.000000
-21.776020 -21.095991 -0.579109 1021 0.130895 0.991396 0.000000
-21.777311 -21.097233 -0.569827 1027 0.130895 0.991396 0.000000
-21.777481 -21.097401 -0.560525 1039 0.130895 0.991396 0.000000
-21.776766 -21.096708 -0.551192 1031 0.130895 0.991396 0.000000
-21.776461 -21.096415 -0.541864 1015 0.130895 0.991396 0.000000
-21.776051 -21.096025 -0.532538 1023 0.130895 0.991396 0.000000
-21.775164 -21.095163 -0.523206 1035 0.130895 0.991396 0.000000
-21.775551 -21.095537 -0.513902 1043 0.130895 0.991396 0.000000
-21.776663 -21.096619 -0.504611 1035 0.130895 0.991396 0.000000
-21.777130 -21.097071 -0.495317 1031 0.130895 0.991396 0.000000
-21.778133 -21.098047 -0.486017 1021 0.130895 0.991396 0.000000
-21.777039 -21.096985 -0.476687 1015 0.130895 0.991396 0.000000
-21.776972 -21.096918 -0.467368 1023 0.130895 0.991396 0.000000
-21.777826 -21.097744 -0.458069 1027 0.130895 0.991396 0.000000
-21.777128 -21.097078 -0.448746 1031 0.130895 0.991396 0.000000
-21.778482 -21.098385 -0.439462 1039 0.130895 0.991396 0.000000
-21.777122 -21.097063 -0.430115 1031 0.130895 0.991396 0.000000
-21.773901 -21.093952 -0.420746 1009 0.130895 0.991396 0.000000
-21.775358 -21.095356 -0.411462 1017 0.130895 0.991396 0.000000
-21.776596 -21.096554 -0.402170 1017 0.130895 0.991396 0.000000
-21.775530 -21.095530 -0.392839 1013 0.130895 0.991396 0.000000
-21.774355 -21.094387 -0.383500 1005 0.130895 0.991396 0.000000
-21.774391 -21.094419 -0.374190 1005 0.130895 0.991396 0.000000
-21.775366 -21.095371 -0.364900 1015 0.130895 0.991396 0.000000
-21.775391 -21.095394 -0.355590 1013 0.130895 0.991396 0.000000
-21.775679 -21.095673 -0.346277 1015 0.130895 0.991396 0.000000
-21.775696 -21.095690 -0.336967 1005 0.130895 0.991396 0.000000
-21.775452 -21.095465 -0.327649 1011 0.130895 0.991396 0.000000
-21.775574 -21.095579 -0.318347 1005 0.130895 0.991396 0.000000
-21.775650 -21.095655 -0.309036 1013 0.130895 0.991396 0.000000
-21.775404 -21.095415 -0.299718 1011 0.130895 0.991396 0.000000
-21.775244 -21.095259 -0.290400 1009 0.130895 0.991396 0.000000
-21.775265 -21.095278 -0.281089 995 0.130895 0.991396 0.000000
-21.775751 -21.095747 -0.271785 995 0.130895 0.991396 0.000000
-21.776272 -21.096258 -0.262479 981 0.130895 0.991396 0.000000
-21.792070 -21.097843 -0.653907 1013 0.130895 0.991396 0.000000
-21.792896 -21.098646 -0.644609 1027 0.130895 0.991396 0.000000
-21.792511 -21.098276 -0.635283 1023 0.130895 0.991396 0.000000
-21.790329 -21.096169 -0.625903 1017 0.130895 0.991396 0.000000
-21.790161 -21.096008 -0.616575 1015 0.130895 0.991396 0.000000
-21.790874 -21.096691 -0.607278 1019 0.130895 0.991396 0.000000
-21.790115 -21.095957 -0.597945 1023 0.130895 0.991396 0.000000
-21.789408 -21.095272 -0.588601 1015 0.130895 0.991396 0.000000
-21.789583 -21.095444 -0.579289 1011 0.130895 0.991396 0.000000
-21.789597 -21.095455 -0.569979 1015 0.130895 0.991396 0.000000
-21.790146 -21.095993 -0.560674 1005 0.130895 0.991396 0.000000
-21.789848 -21.095707 -0.551346 1005 0.130895 0.991396 0.000000
-21.789125 -21.095007 -0.542013 1009 0.130895 0.991396 0.000000
-21.788458 -21.094364 -0.532679 1005 0.130895 0.991396 0.000000
-21.789049 -21.094933 -0.523383 1021 0.130895 0.991396 0.000000
-21.790575 -21.096409 -0.514098 1033 0.130895 0.991396 0.000000
-21.790854 -21.096678 -0.504785 1013 0.130895 0.991396 0.000000
-21.790756 -21.096586 -0.495466 1017 0.130895 0.991396 0.000000
-21.790911 -21.096743 -0.486154 1017 0.130895 0.991396 0.000000
-21.790281 -21.096132 -0.476830 1035 0.130895 0.991396 0.000000
-21.789757 -21.095621 -0.467495 1021 0.130895 0.991396 0.000000
-21.789961 -21.095819 -0.458193 1017 0.130895 0.991396 0.000000
-21.790325 -21.096174 -0.448879 1015 0.130895 0.991396 0.000000
-21.788380 -21.094288 -0.439527 1015 0.130895 0.991396 0.000000
-21.788319 -21.094227 -0.430208 1015 0.130895 0.991396 0.000000
-21.790878 -21.096714 -0.420943 1019 0.130895 0.991396 0.000000
-21.790016 -21.095886 -0.411611 1019 0.130895 0.991396 0.000000
-21.789425 -21.095306 -0.402287 1011 0.130895 0.991396 0.000000
-21.789728 -21.095596 -0.392973 1007 0.130895 0.991396 0.000000
-21.789543 -21.095421 -0.383655 1007 0.130895 0.991396 0.000000
-21.790462 -21.096313 -0.374356 999 0.130895 0.991396 0.000000
-21.788921 -21.094831 -0.365010 1003 0.130895 0.991396 0.000000
-21.787216 -21.093170 -0.355677 1011 0.130895 0.991396 0.000000
-21.788492 -21.094412 -0.346374 1017 0.130895 0.991396 0.000000
-21.788786 -21.094698 -0.337071 1013 0.130895 0.991396 0.000000
-21.788486 -21.094412 -0.327754 995 0.130895 0.991396 0.000000
-21.788980 -21.094889 -0.318439 1027 0.130895 0.991396 0.000000
-21.789783 -21.095659 -0.309141 1009 0.130895 0.991396 0.000000
-21.789164 -21.095068 -0.299817 1001 0.130895 0.991396 0.000000
-21.788067 -21.094004 -0.290487 993 0.130895 0.991396 0.000000
-21.788719 -21.094639 -0.281180 983 0.130895 0.991396 0.000000
-21.787565 -21.093515 -0.271851 977 0.130895 0.991396 0.000000
-21.787361 -21.093323 -0.262543 995 0.130895 0.991396 0.000000
-21.802052 -21.094364 -0.654019 1001 0.130895 0.991396 0.000000
-21.802767 -21.095062 -0.644712 997 0.130895 0.991396 0.000000
-21.803654 -21.095917 -0.635423 1013 0.130895 0.991396 0.000000
-21.803844 -21.096102 -0.626101 995 0.130895 0.991396 0.000000
-21.802296 -21.094612 -0.616736 1001 0.130895 0.991396 0.000000
-21.802645 -21.094942 -0.607432 1005 0.130895 0.991396 0.000000
-21.803194 -21.095478 -0.598127 1013 0.130895 0.991396 0.000000
-21.803005 -21.095295 -0.588798 1009 0.130895 0.991396 0.000000
-21.803867 -21.096130 -0.579500 1005 0.130895 0.991396 0.000000
-21.803526 -21.095798 -0.570173 1023 0.130895 0.991396 0.000000
-21.803814 -21.096075 -0.560860 1023 0.130895 0.991396 0.000000
-21.802990 -21.095278 -0.551518 1013 0.130895 0.991396 0.000000
-21.800316 -21.092699 -0.542133 995 0.130895 0.991396 0.000000
-21.800915 -21.093273 -0.532827 1015 0.130895 0.991396 0.000000
-21.800871 -21.093241 -0.523507 1015 0.130895 0.991396 0.000000
-21.801039 -21.093393 -0.514195 1015 0.130895 0.991396 0.000000
-21.801989 -21.094315 -0.504896 1007 0.130895 0.991396 0.000000
-21.802837 -21.095135 -0.495598 1001 0.130895 0.991396 0.000000
-21.803825 -21.096098 -0.486298 1021 0.130895 0.991396 0.000000
-21.801743 -21.094076 -0.476938 1011 0.130895 0.991396 0.000000
-21.800735 -21.093111 -0.467597 999 0.130895 0.991396 0.000000
-21.802105 -21.094431 -0.458314 1005 0.130895 0.991396 0.000000
-21.802891 -21.095188 -0.449006 985 0.130895 0.991396 0.000000
-21.802668 -21.094978 -0.439688 983 0.130895 0.991396 0.000000
-21.803493 -21.095783 -0.430380 1013 0.130895 0.991396 0.000000
-21.803745 -21.096020 -0.421067 1015 0.130895 0.991396 0.000000
-21.801737 -21.094082 -0.411716 997 0.130895 0.991396 0.000000
-21.800617 -21.092999 -0.402376 991 0.130895 0.991396 0.000000
-21.800652 -21.093029 -0.393056 991 0.130895 0.991396 0.000000
-21.801735 -21.094086 -0.383755 1003 0.130895 0.991396 0.000000
-21.801823 -21.094162 -0.374444 1011 0.130895 0.991396 0.000000
-21.801378 -21.093740 -0.365118 1017 0.130895 0.991396 0.000000
-21.801723 -21.094069 -0.355805 1025 0.130895 0.991396 0.000000
-21.801689 -21.094042 -0.346485 1005 0.130895 0.991396 0.000000
-21.801874 -21.094221 -0.337173 1005 0.130895 0.991396 0.000000
-21.800261 -21.092651 -0.327828 1009 0.130895 0.991396 0.000000
-21.799595 -21.092010 -0.318504 993 0.130895 0.991396 0.000000
-21.801807 -21.094160 -0.309223 1005 0.130895 0.991396 0.000000
-21.802462 -21.094795 -0.299917 997 0.130895 0.991396 0.000000
-21.802160 -21.094494 -0.290589 989 0.130895 0.991396 0.000000
-21.802586 -21.094913 -0.281285 977 0.130895 0.991396 0.000000
-21.802809 -21.095127 -0.271963 979 0.130895 0.991396 0.000000
-21.801712 -21.094063 -0.262633 985 0.130895 0.991396 0.000000
-21.815046 -21.093031 -0.654196 1017 0.130895 0.991396 0.000000
-21.815294 -21.093277 -0.644883 987 0.130895 0.991396 0.000000
-21.816278 -21.094227 -0.635593 1003 0.130895 0.991396 0.000000
-21.816042 -21.093994 -0.626255 991 0.130895 0.991396 0.000000
-21.814657 -21.092665 -0.616898 991 0.130895 0.991396 0.000000
-21.814535 -21.092539 -0.607569 993 0.130895 0.991396 0.000000
-21.814198 -21.092207 -0.598242 981 0.130895 0.991396 0.000000
-21.814428 -21.092442 -0.588920 991 0.130895 0.991396 0.000000
-21.815126 -21.093113 -0.579623 1007 0.130895 0.991396 0.000000
-21.816521 -21.094465 -0.570340 999 0.130895 0.991396 0.000000
-21.815176 -21.093170 -0.560982 993 0.130895 0.991396 0.000000
-21.814875 -21.092869 -0.551645 1001 0.130895 0.991396 0.000000
-21.816580 -21.094521 -0.542368 999 0.130895 0.991396 0.000000
-21.815859 -21.093819 -0.533025 989 0.130895 0.991396 0.000000
-21.815233 -21.093222 -0.523691 1005 0.130895 0.991396 0.000000
-21.814814 -21.092813 -0.514364 1005 0.130895 0.991396 0.000000
-21.814405 -21.092424 -0.505028 1001 0.130895 0.991396 0.000000
-21.812786 -21.090862 -0.495673 979 0.130895 0.991396 0.000000
-21.813787 -21.091825 -0.486373 995 0.130895 0.991396 0.000000
-21.816050 -21.094013 -0.477102 1013 0.130895 0.991396 0.000000
-21.814306 -21.092335 -0.467748 1005 0.130895 0.991396 0.000000
-21.813147 -21.091208 -0.458399 995 0.130895 0.991396 0.000000
-21.812666 -21.090744 -0.449073 995 0.130895 0.991396 0.000000
-21.812662 -21.090744 -0.439753 1011 0.130895 0.991396 0.000000
-21.813231 -21.091295 -0.430437 1011 0.130895 0.991396 0.000000
-21.814116 -21.092148 -0.421139 995 0.130895 0.991396 0.000000
-21.814785 -21.092794 -0.411832 999 0.130895 0.991396 0.000000
-21.814928 -21.092941 -0.402511 1001 0.130895 0.991396 0.000000
-21.814951 -21.092960 -0.393190 979 0.130895 0.991396 0.000000
-21.813572 -21.091625 -0.383853 985 0.130895 0.991396 0.000000
-21.813332 -21.091391 -0.374525 991 0.130895 0.991396 0.000000
-21.812845 -21.090921 -0.365200 995 0.130895 0.991396 0.000000
-21.811718 -21.089834 -0.355860 993 0.130895 0.991396 0.000000
-21.811373 -21.089497 -0.346533 987 0.130895 0.991396 0.000000
-21.811554 -21.089674 -0.337221 981 0.130895 0.991396 0.000000
-21.812418 -21.090511 -0.327913 991 0.130895 0.991396 0.000000
-21.813540 -21.091597 -0.318612 997 0.130895 0.991396 0.000000
-21.813450 -21.091511 -0.309293 987 0.130895 0.991396 0.000000
-21.814188 -21.092230 -0.299985 995 0.130895 0.991396 0.000000
-21.814459 -21.092495 -0.290662 995 0.130895 0.991396 0.000000
-21.813753 -21.091808 -0.281339 977 0.130895 0.991396 0.000000
-21.813969 -21.092012 -0.272027 979 0.130895 0.991396 0.000000
-21.813810 -21.091869 -0.262698 979 0.130895 0.991396 0.000000
