450
-15.040108 -13.818330 -0.659562 183 -0.028470 0.999595 0.000000
-15.039074 -13.817374 -0.653232 159 -0.028470 0.999595 0.000000
-15.045648 -13.814939 -0.678454 205 -0.028470 0.999595 0.000000
-15.044457 -13.813845 -0.672125 201 -0.028470 0.999595 0.000000
-15.044182 -13.813592 -0.665837 173 -0.028470 0.999595 0.000000
-15.045562 -13.814860 -0.659614 175 -0.028470 0.999595 0.000000
-15.046089 -13.815348 -0.653359 175 -0.028470 0.999595 0.000000
-15.044731 -13.814095 -0.647021 159 -0.028470 0.999595 0.000000
-15.045418 -13.814722 -0.640775 159 -0.028470 0.999595 0.000000
-15.045993 -13.815248 -0.634520 171 -0.028470 0.999595 0.000000
-15.046616 -13.815825 -0.628264 183 -0.028470 0.999595 0.000000
-15.047033 -13.816213 -0.622000 163 -0.028470 0.999595 0.000000
-15.046310 -13.815541 -0.615696 171 -0.028470 0.999595 0.000000
-15.047738 -13.816858 -0.609473 193 -0.028470 0.999595 0.000000
-15.046906 -13.816087 -0.603160 171 -0.028470 0.999595 0.000000
-15.046566 -13.815771 -0.596863 185 -0.028470 0.999595 0.000000
-15.047014 -13.816183 -0.590609 165 -0.028470 0.999595 0.000000
-15.047581 -13.816703 -0.584354 191 -0.028470 0.999595 0.000000
-15.046581 -13.815784 -0.578033 203 -0.028470 0.999595 0.000000
-15.045907 -13.815166 -0.571729 243 -0.028470 0.999595 0.000000
-15.044950 -13.814294 -0.565418 203 -0.028470 0.999595 0.000000
-15.045141 -13.814465 -0.559146 165 -0.028470 0.999595 0.000000
-15.048176 -13.817251 -0.552977 173 -0.028470 0.999595 0.000000
-15.047432 -13.816576 -0.546674 173 -0.028470 0.999595 0.000000
-15.045190 -13.814506 -0.540315 189 -0.028470 0.999595 0.000000
-15.044064 -13.813475 -0.533995 205 -0.028470 0.999595 0.000000
-15.046015 -13.815273 -0.527787 209 -0.028470 0.999595 0.000000
-15.046782 -13.815976 -0.521540 207 -0.028470 0.999595 0.000000
-15.044955 -13.814300 -0.515196 185 -0.028470 0.999595 0.000000
-15.043516 -13.812971 -0.508880 217 -0.028470 0.999595 0.000000
-15.043409 -13.812878 -0.502600 215 -0.028470 0.999595 0.000000
-15.045249 -13.814561 -0.496383 221 -0.028470 0.999595 0.000000
-15.045849 -13.815120 -0.490127 207 -0.028470 0.999595 0.000000
-15.044659 -13.814026 -0.483808 195 -0.028470 0.999595 0.000000
-15.043324 -13.812792 -0.477491 195 -0.028470 0.999595 0.000000
-15.043429 -13.812893 -0.471219 213 -0.028470 0.999595 0.000000
-15.045373 -13.814672 -0.465001 229 -0.028470 0.999595 0.000000
-15.045361 -13.814667 -0.458731 237 -0.028470 0.999595 0.000000
-15.043581 -13.813027 -0.452398 225 -0.028470 0.999595 0.000000
-15.043083 -13.812572 -0.446112 227 -0.028470 0.999595 0.000000
-15.043785 -13.813212 -0.439855 237 -0.028470 0.999595 0.000000
-15.043885 -13.813310 -0.433584 217 -0.028470 0.999595 0.000000
-15.044301 -13.813696 -0.427320 213 -0.028470 0.999595 0.000000
-15.045639 -13.814918 -0.421078 217 -0.028470 0.999595 0.000000
-15.045730 -13.815007 -0.414807 229 -0.028470 0.999595 0.000000
-15.044961 -13.814300 -0.408514 229 -0.028470 0.999595 0.000000
-15.043921 -13.813337 -0.402213 221 -0.028470 0.999595 0.000000
-15.042827 -13.812332 -0.395903 221 -0.028470 0.999595 0.000000
-15.043616 -13.813053 -0.389656 227 -0.028470 0.999595 0.000000
-15.043539 -13.812985 -0.383376 207 -0.028470 0.999595 0.000000
-15.042873 -13.812371 -0.377083 191 -0.028470 0.999595 0.000000
-15.043283 -13.812753 -0.370818 167 -0.028470 0.999595 0.000000
-15.043636 -13.813077 -0.364555 181 -0.028470 0.999595 0.000000
-15.043878 -13.813299 -0.358293 173 -0.028470 0.999595 0.000000
-15.044770 -13.814116 -0.352034 169 -0.028470 0.999595 0.000000
-15.045490 -13.814782 -0.345777 187 -0.028470 0.999595 0.000000
-15.043470 -13.812926 -0.339456 169 -0.028470 0.999595 0.000000
-15.042304 -13.811852 -0.333157 193 -0.028470 0.999595 0.000000
-15.043189 -13.812663 -0.326908 195 -0.028470 0.999595 0.000000
-15.044124 -13.813524 -0.320649 185 -0.028470 0.999595 0.000000
-15.045052 -13.814381 -0.314401 175 -0.028470 0.999595 0.000000
-15.045123 -13.814444 -0.308120 189 -0.028470 0.999595 0.000000
-15.042716 -13.812229 -0.301802 175 -0.028470 0.999595 0.000000
-15.041383 -13.811008 -0.295504 137 -0.028470 0.999595 0.000000
-15.041449 -13.811066 -0.289234 143 -0.028470 0.999595 0.000000
-15.043719 -13.813156 -0.283002 145 -0.028470 0.999595 0.000000
-15.054273 -13.814710 -0.672384 229 -0.028470 0.999595 0.000000
-15.054212 -13.814652 -0.666104 207 -0.028470 0.999595 0.000000
-15.055449 -13.815793 -0.659873 189 -0.028470 0.999595 0.000000
-15.057042 -13.817256 -0.653658 203 -0.028470 0.999595 0.000000
-15.055253 -13.815610 -0.647304 177 -0.028470 0.999595 0.000000
-15.055287 -13.815643 -0.641024 159 -0.028470 0.999595 0.000000
-15.056135 -13.816422 -0.634776 159 -0.028470 0.999595 0.000000
-15.055960 -13.816251 -0.628487 173 -0.028470 0.999595 0.000000
-15.055884 -13.816182 -0.622208 171 -0.028470 0.999595 0.000000
-15.055219 -13.815569 -0.615894 187 -0.028470 0.999595 0.000000
-15.053902 -13.814362 -0.609556 191 -0.028470 0.999595 0.000000
-15.054143 -13.814584 -0.603294 187 -0.028470 0.999595 0.000000
-15.055468 -13.815806 -0.597061 193 -0.028470 0.999595 0.000000
-15.054412 -13.814832 -0.590741 181 -0.028470 0.999595 0.000000
-15.054008 -13.814466 -0.584444 197 -0.028470 0.999595 0.000000
-15.055538 -13.815866 -0.578220 215 -0.028470 0.999595 0.000000
-15.054650 -13.815049 -0.571908 215 -0.028470 0.999595 0.000000
-15.053809 -13.814284 -0.565596 205 -0.028470 0.999595 0.000000
-15.054146 -13.814595 -0.559332 217 -0.028470 0.999595 0.000000
-15.053194 -13.813716 -0.553021 201 -0.028470 0.999595 0.000000
-15.053317 -13.813831 -0.546740 183 -0.028470 0.999595 0.000000
-15.053988 -13.814445 -0.540484 193 -0.028470 0.999595 0.000000
-15.054372 -13.814795 -0.534220 199 -0.028470 0.999595 0.000000
-15.054494 -13.814909 -0.527949 199 -0.028470 0.999595 0.000000
-15.055148 -13.815510 -0.521692 199 -0.028470 0.999595 0.000000
-15.054889 -13.815271 -0.515405 185 -0.028470 0.999595 0.000000
-15.053340 -13.813840 -0.509069 213 -0.028470 0.999595 0.000000
-15.052213 -13.812810 -0.502759 231 -0.028470 0.999595 0.000000
-15.052430 -13.813013 -0.496487 219 -0.028470 0.999595 0.000000
-15.054328 -13.814755 -0.490269 201 -0.028470 0.999595 0.000000
-15.053462 -13.813958 -0.483967 209 -0.028470 0.999595 0.000000
-15.052820 -13.813363 -0.477663 231 -0.028470 0.999595 0.000000
-15.054868 -13.815249 -0.471454 223 -0.028470 0.999595 0.000000
-15.056375 -13.816631 -0.465220 235 -0.028470 0.999595 0.000000
-15.055996 -13.816284 -0.458933 239 -0.028470 0.999595 0.000000
-15.054971 -13.815334 -0.452622 235 -0.028470 0.999595 0.000000
-15.055118 -13.815482 -0.446351 219 -0.028470 0.999595 0.000000
-15.053982 -13.814431 -0.440041 239 -0.028470 0.999595 0.000000
-15.052896 -13.813433 -0.433731 233 -0.028470 0.999595 0.000000
-15.052405 -13.812984 -0.427436 219 -0.028470 0.999595 0.000000
-15.053576 -13.814059 -0.421195 225 -0.028470 0.999595 0.000000
-15.055013 -13.815384 -0.414951 211 -0.028470 0.999595 0.000000
-15.054998 -13.815365 -0.408681 231 -0.028470 0.999595 0.000000
-15.053315 -13.813815 -0.402357 217 -0.028470 0.999595 0.000000
-15.052483 -13.813056 -0.396054 213 -0.028470 0.999595 0.000000
-15.052852 -13.813393 -0.389791 215 -0.028470 0.999595 0.000000
-15.053365 -13.813869 -0.383526 209 -0.028470 0.999595 0.000000
-15.053828 -13.814294 -0.377261 219 -0.028470 0.999595 0.000000
-15.053320 -13.813819 -0.370976 197 -0.028470 0.999595 0.000000
-15.052327 -13.812907 -0.364675 203 -0.028470 0.999595 0.000000
-15.053485 -13.813972 -0.358424 187 -0.028470 0.999595 0.000000
-15.053185 -13.813701 -0.352137 161 -0.028470 0.999595 0.000000
-15.050945 -13.811645 -0.345817 189 -0.028470 0.999595 0.000000
-15.051576 -13.812215 -0.339551 195 -0.028470 0.999595 0.000000
-15.052127 -13.812721 -0.333286 187 -0.028470 0.999595 0.000000
-15.052903 -13.813446 -0.327029 197 -0.028470 0.999595 0.000000
-15.053677 -13.814155 -0.320771 195 -0.028470 0.999595 0.000000
-15.053695 -13.814160 -0.314491 187 -0.028470 0.999595 0.000000
-15.053824 -13.814281 -0.308220 173 -0.028470 0.999595 0.000000
-15.053081 -13.813606 -0.301936 183 -0.028470 0.999595 0.000000
-15.051913 -13.812530 -0.295637 155 -0.028470 0.999595 0.000000
-15.052139 -13.812740 -0.289365 147 -0.028470 0.999595 0.000000
-15.053868 -13.814323 -0.283119 131 -0.028470 0.999595 0.000000
-15.067146 -13.818220 -0.672776 211 -0.028470 0.999595 0.000000
-15.066925 -13.818010 -0.666488 227 -0.028470 0.999595 0.000000
-15.063620 -13.814981 -0.660058 213 -0.028470 0.999595 0.000000
-15.064847 -13.816114 -0.653827 239 -0.028470 0.999595 0.000000
-15.066559 -13.817684 -0.647611 195 -0.028470 0.999595 0.000000
-15.065791 -13.816976 -0.641298 153 -0.028470 0.999595 0.000000
-15.065937 -13.817109 -0.635016 179 -0.028470 0.999595 0.000000
-15.063593 -13.814959 -0.628638 181 -0.028470 0.999595 0.000000
-15.064710 -13.815978 -0.622397 203 -0.028470 0.999595 0.000000
-15.066676 -13.817789 -0.616199 195 -0.028470 0.999595 0.000000
-15.065583 -13.816785 -0.609869 171 -0.028470 0.999595 0.000000
-15.064533 -13.815816 -0.603548 147 -0.028470 0.999595 0.000000
-15.065420 -13.816640 -0.597300 163 -0.028470 0.999595 0.000000
-15.066688 -13.817792 -0.591058 183 -0.028470 0.999595 0.000000
-15.066236 -13.817374 -0.584762 197 -0.028470 0.999595 0.000000
-15.063878 -13.815225 -0.578384 209 -0.028470 0.999595 0.000000
-15.063196 -13.814598 -0.572080 189 -0.028470 0.999595 0.000000
-15.064463 -13.815750 -0.565848 183 -0.028470 0.999595 0.000000
-15.066853 -13.817948 -0.559656 225 -0.028470 0.999595 0.000000
-15.067738 -13.818759 -0.553407 223 -0.028470 0.999595 0.000000
-15.065543 -13.816739 -0.547038 205 -0.028470 0.999595 0.000000
-15.063191 -13.814581 -0.540669 201 -0.028470 0.999595 0.000000
-15.062607 -13.814044 -0.534375 195 -0.028470 0.999595 0.000000
-15.063810 -13.815146 -0.528133 183 -0.028470 0.999595 0.000000
-15.064250 -13.815553 -0.521869 211 -0.028470 0.999595 0.000000
-15.064587 -13.815863 -0.515596 211 -0.028470 0.999595 0.000000
-15.064694 -13.815966 -0.509325 211 -0.028470 0.999595 0.000000
-15.063846 -13.815181 -0.503012 215 -0.028470 0.999595 0.000000
-15.063737 -13.815087 -0.496723 219 -0.028470 0.999595 0.000000
-15.063581 -13.814942 -0.490445 209 -0.028470 0.999595 0.000000
-15.064236 -13.815544 -0.484178 231 -0.028470 0.999595 0.000000
-15.064715 -13.815982 -0.477914 241 -0.028470 0.999595 0.000000
-15.064399 -13.815683 -0.471627 235 -0.028470 0.999595 0.000000
-15.064444 -13.815738 -0.465346 241 -0.028470 0.999595 0.000000
-15.063203 -13.814590 -0.459027 239 -0.028470 0.999595 0.000000
-15.064607 -13.815876 -0.452794 209 -0.028470 0.999595 0.000000
-15.064593 -13.815871 -0.446504 195 -0.028470 0.999595 0.000000
-15.061296 -13.812847 -0.440135 217 -0.028470 0.999595 0.000000
-15.061831 -13.813328 -0.433870 227 -0.028470 0.999595 0.000000
-15.064354 -13.815645 -0.427666 219 -0.028470 0.999595 0.000000
-15.063593 -13.814942 -0.421363 227 -0.028470 0.999595 0.000000
-15.062109 -13.813590 -0.415037 229 -0.028470 0.999595 0.000000
-15.062590 -13.814027 -0.408772 243 -0.028470 0.999595 0.000000
-15.063872 -13.815205 -0.402530 227 -0.028470 0.999595 0.000000
-15.063470 -13.814838 -0.396243 227 -0.028470 0.999595 0.000000
-15.062104 -13.813580 -0.389926 223 -0.028470 0.999595 0.000000
-15.062569 -13.814006 -0.383662 221 -0.028470 0.999595 0.000000
-15.063469 -13.814828 -0.377403 221 -0.028470 0.999595 0.000000
-15.063822 -13.815151 -0.371130 213 -0.028470 0.999595 0.000000
-15.063794 -13.815134 -0.364850 215 -0.028470 0.999595 0.000000
-15.062801 -13.814222 -0.358549 193 -0.028470 0.999595 0.000000
-15.064013 -13.815331 -0.352297 171 -0.028470 0.999595 0.000000
-15.064525 -13.815793 -0.346033 165 -0.028470 0.999595 0.000000
-15.063573 -13.814927 -0.339731 183 -0.028470 0.999595 0.000000
-15.062351 -13.813808 -0.333422 203 -0.028470 0.999595 0.000000
-15.061026 -13.812593 -0.327125 209 -0.028470 0.999595 0.000000
-15.061801 -13.813304 -0.320857 203 -0.028470 0.999595 0.000000
-15.062471 -13.813918 -0.314591 173 -0.028470 0.999595 0.000000
-15.063778 -13.815115 -0.308349 185 -0.028470 0.999595 0.000000
-15.064981 -13.816216 -0.302087 185 -0.028470 0.999595 0.000000
-15.063322 -13.814698 -0.295782 173 -0.028470 0.999595 0.000000
-15.061240 -13.812780 -0.289462 169 -0.028470 0.999595 0.000000
-15.060543 -13.812143 -0.283168 159 -0.028470 0.999595 0.000000
-15.076223 -13.817745 -0.672995 237 -0.028470 0.999595 0.000000
-15.075518 -13.817085 -0.666672 215 -0.028470 0.999595 0.000000
-15.073881 -13.815586 -0.660317 209 -0.028470 0.999595 0.000000
-15.074458 -13.816126 -0.654051 225 -0.028470 0.999595 0.000000
-15.073689 -13.815417 -0.647738 203 -0.028470 0.999595 0.000000
-15.074327 -13.815993 -0.641472 189 -0.028470 0.999595 0.000000
-15.076358 -13.817854 -0.635273 171 -0.028470 0.999595 0.000000
-15.075582 -13.817154 -0.628960 195 -0.028470 0.999595 0.000000
-15.075083 -13.816686 -0.622655 183 -0.028470 0.999595 0.000000
-15.073599 -13.815332 -0.616308 171 -0.028470 0.999595 0.000000
-15.072876 -13.814661 -0.609985 159 -0.028470 0.999595 0.000000
-15.074144 -13.815827 -0.603753 159 -0.028470 0.999595 0.000000
-15.074822 -13.816447 -0.597497 155 -0.028470 0.999595 0.000000
-15.074954 -13.816569 -0.591215 173 -0.028470 0.999595 0.000000
-15.074987 -13.816601 -0.584935 189 -0.028470 0.999595 0.000000
-15.075061 -13.816664 -0.578654 205 -0.028470 0.999595 0.000000
-15.073513 -13.815248 -0.572308 195 -0.028470 0.999595 0.000000
-15.073215 -13.814978 -0.566011 221 -0.028470 0.999595 0.000000
-15.073939 -13.815635 -0.559754 225 -0.028470 0.999595 0.000000
-15.074644 -13.816289 -0.553497 231 -0.028470 0.999595 0.000000
-15.074837 -13.816460 -0.547225 207 -0.028470 0.999595 0.000000
-15.074696 -13.816327 -0.540937 219 -0.028470 0.999595 0.000000
-15.075247 -13.816833 -0.534671 231 -0.028470 0.999595 0.000000
-15.075147 -13.816747 -0.528382 217 -0.028470 0.999595 0.000000
-15.075102 -13.816703 -0.522092 215 -0.028470 0.999595 0.000000
-15.074954 -13.816564 -0.515803 221 -0.028470 0.999595 0.000000
-15.074263 -13.815931 -0.509500 225 -0.028470 0.999595 0.000000
-15.072327 -13.814155 -0.503148 223 -0.028470 0.999595 0.000000
-15.073244 -13.815003 -0.496899 235 -0.028470 0.999595 0.000000
-15.074439 -13.816098 -0.490658 221 -0.028470 0.999595 0.000000
-15.072771 -13.814561 -0.484313 203 -0.028470 0.999595 0.000000
-15.072392 -13.814214 -0.478026 241 -0.028470 0.999595 0.000000
-15.072124 -13.813968 -0.471729 237 -0.028470 0.999595 0.000000
-15.072716 -13.814507 -0.465473 243 -0.028470 0.999595 0.000000
-15.073523 -13.815254 -0.459215 251 -0.028470 0.999595 0.000000
-15.073190 -13.814944 -0.452918 225 -0.028470 0.999595 0.000000
-15.074482 -13.816129 -0.446676 229 -0.028470 0.999595 0.000000
-15.075501 -13.817059 -0.440427 193 -0.028470 0.999595 0.000000
-15.073492 -13.815225 -0.434085 225 -0.028470 0.999595 0.000000
-15.071215 -13.813139 -0.427736 215 -0.028470 0.999595 0.000000
-15.070827 -13.812785 -0.421440 221 -0.028470 0.999595 0.000000
-15.072006 -13.813854 -0.415199 239 -0.028470 0.999595 0.000000
-15.072803 -13.814582 -0.408931 231 -0.028470 0.999595 0.000000
-15.074023 -13.815710 -0.402690 231 -0.028470 0.999595 0.000000
-15.073517 -13.815248 -0.396394 219 -0.028470 0.999595 0.000000
-15.071021 -13.812951 -0.390047 223 -0.028470 0.999595 0.000000
-15.071382 -13.813280 -0.383774 203 -0.028470 0.999595 0.000000
-15.072595 -13.814403 -0.377522 207 -0.028470 0.999595 0.000000
-15.072788 -13.814574 -0.371250 215 -0.028470 0.999595 0.000000
-15.072337 -13.814157 -0.364954 209 -0.028470 0.999595 0.000000
-15.070846 -13.812798 -0.358638 199 -0.028470 0.999595 0.000000
-15.070928 -13.812868 -0.352367 193 -0.028470 0.999595 0.000000
-15.072418 -13.814236 -0.346113 167 -0.028470 0.999595 0.000000
-15.072013 -13.813855 -0.339827 191 -0.028470 0.999595 0.000000
-15.071706 -13.813578 -0.333539 193 -0.028470 0.999595 0.000000
-15.071511 -13.813401 -0.327251 205 -0.028470 0.999595 0.000000
-15.073199 -13.814953 -0.321015 213 -0.028470 0.999595 0.000000
-15.075269 -13.816845 -0.314776 197 -0.028470 0.999595 0.000000
-15.071726 -13.813601 -0.308419 185 -0.028470 0.999595 0.000000
-15.070821 -13.812772 -0.302127 203 -0.028470 0.999595 0.000000
-15.072557 -13.814361 -0.295881 177 -0.028470 0.999595 0.000000
-15.071819 -13.813678 -0.289587 163 -0.028470 0.999595 0.000000
-15.072482 -13.814285 -0.283311 193 -0.028470 0.999595 0.000000
-15.084386 -13.816733 -0.673172 227 -0.028470 0.999595 0.000000
-15.085342 -13.817613 -0.666923 199 -0.028470 0.999595 0.000000
-15.086521 -13.818682 -0.660682 209 -0.028470 0.999595 0.000000
-15.085434 -13.817682 -0.654352 205 -0.028470 0.999595 0.000000
-15.084223 -13.816585 -0.648013 185 -0.028470 0.999595 0.000000
-15.083571 -13.815983 -0.641689 187 -0.028470 0.999595 0.000000
-15.083877 -13.816268 -0.635416 177 -0.028470 0.999595 0.000000
-15.083529 -13.815947 -0.629119 179 -0.028470 0.999595 0.000000
-15.084860 -13.817162 -0.622886 189 -0.028470 0.999595 0.000000
-15.085102 -13.817384 -0.616604 181 -0.028470 0.999595 0.000000
-15.085301 -13.817561 -0.610322 189 -0.028470 0.999595 0.000000
-15.086730 -13.818879 -0.604098 165 -0.028470 0.999595 0.000000
-15.084234 -13.816581 -0.597702 171 -0.028470 0.999595 0.000000
-15.082909 -13.815368 -0.591364 185 -0.028470 0.999595 0.000000
-15.083905 -13.816278 -0.585124 173 -0.028470 0.999595 0.000000
-15.083931 -13.816305 -0.578834 203 -0.028470 0.999595 0.000000
-15.083679 -13.816072 -0.572536 193 -0.028470 0.999595 0.000000
-15.084127 -13.816484 -0.566272 193 -0.028470 0.999595 0.000000
-15.084479 -13.816807 -0.559998 207 -0.028470 0.999595 0.000000
-15.085733 -13.817961 -0.553757 219 -0.028470 0.999595 0.000000
-15.085861 -13.818068 -0.547475 215 -0.028470 0.999595 0.000000
-15.083344 -13.815765 -0.541098 213 -0.028470 0.999595 0.000000
-15.082216 -13.814734 -0.534769 231 -0.028470 0.999595 0.000000
-15.082887 -13.815349 -0.528502 203 -0.028470 0.999595 0.000000
-15.082730 -13.815204 -0.522214 215 -0.028470 0.999595 0.000000
-15.082359 -13.814863 -0.515917 207 -0.028470 0.999595 0.000000
-15.082204 -13.814718 -0.509628 229 -0.028470 0.999595 0.000000
-15.080871 -13.813498 -0.503301 217 -0.028470 0.999595 0.000000
-15.082599 -13.815080 -0.497074 219 -0.028470 0.999595 0.000000
-15.085241 -13.817505 -0.490870 225 -0.028470 0.999595 0.000000
-15.083527 -13.815929 -0.484525 223 -0.028470 0.999595 0.000000
-15.082018 -13.814544 -0.478199 225 -0.028470 0.999595 0.000000
-15.081312 -13.813899 -0.471886 233 -0.028470 0.999595 0.000000
-15.080608 -13.813254 -0.465582 245 -0.028470 0.999595 0.000000
-15.082122 -13.814642 -0.459348 237 -0.028470 0.999595 0.000000
-15.081623 -13.814186 -0.453052 217 -0.028470 0.999595 0.000000
-15.083185 -13.815624 -0.446808 205 -0.028470 0.999595 0.000000
-15.085064 -13.817338 -0.440580 233 -0.028470 0.999595 0.000000
-15.082793 -13.815258 -0.434231 235 -0.028470 0.999595 0.000000
-15.081436 -13.814018 -0.427904 207 -0.028470 0.999595 0.000000
-15.083529 -13.815929 -0.421684 211 -0.028470 0.999595 0.000000
-15.083890 -13.816259 -0.415410 227 -0.028470 0.999595 0.000000
-15.082795 -13.815253 -0.409091 235 -0.028470 0.999595 0.000000
-15.082400 -13.814894 -0.402804 197 -0.028470 0.999595 0.000000
-15.082871 -13.815324 -0.396530 211 -0.028470 0.999595 0.000000
-15.083670 -13.816053 -0.390262 207 -0.028470 0.999595 0.000000
-15.082727 -13.815194 -0.383961 199 -0.028470 0.999595 0.000000
-15.082912 -13.815372 -0.377679 207 -0.028470 0.999595 0.000000
-15.082899 -13.815354 -0.371399 211 -0.028470 0.999595 0.000000
-15.081636 -13.814189 -0.365080 189 -0.028470 0.999595 0.000000
-15.082904 -13.815354 -0.358828 205 -0.028470 0.999595 0.000000
-15.084489 -13.816811 -0.352583 199 -0.028470 0.999595 0.000000
-15.082949 -13.815400 -0.346268 175 -0.028470 0.999595 0.000000
-15.081895 -13.814426 -0.339957 187 -0.028470 0.999595 0.000000
-15.082510 -13.814997 -0.333691 193 -0.028470 0.999595 0.000000
-15.082266 -13.814769 -0.327404 199 -0.028470 0.999595 0.000000
-15.082817 -13.815277 -0.321128 217 -0.028470 0.999595 0.000000
-15.084894 -13.817175 -0.314889 205 -0.028470 0.999595 0.000000
-15.084635 -13.816936 -0.308601 211 -0.028470 0.999595 0.000000
-15.081792 -13.814337 -0.302257 173 -0.028470 0.999595 0.000000
-15.080728 -13.813356 -0.295957 183 -0.028470 0.999595 0.000000
-15.081010 -13.813622 -0.289684 171 -0.028470 0.999595 0.000000
-15.082102 -13.814623 -0.283424 163 -0.028470 0.999595 0.000000
-15.092751 -13.815933 -0.673356 197 -0.028470 0.999595 0.000000
-15.090693 -13.814047 -0.666975 221 -0.028470 0.999595 0.000000
-15.088413 -13.811960 -0.660586 225 -0.028470 0.999595 0.000000
-15.090666 -13.814023 -0.654395 199 -0.028470 0.999595 0.000000
-15.092489 -13.815681 -0.648188 187 -0.028470 0.999595 0.000000
-15.093557 -13.816662 -0.641938 195 -0.028470 0.999595 0.000000
-15.094190 -13.817246 -0.635682 189 -0.028470 0.999595 0.000000
-15.092760 -13.815937 -0.629325 157 -0.028470 0.999595 0.000000
-15.093010 -13.816166 -0.623053 121 -0.028470 0.999595 0.000000
-15.094230 -13.817281 -0.616811 139 -0.028470 0.999595 0.000000
-15.094317 -13.817355 -0.610520 147 -0.028470 0.999595 0.000000
-15.093215 -13.816344 -0.604191 163 -0.028470 0.999595 0.000000
-15.093403 -13.816524 -0.597909 139 -0.028470 0.999595 0.000000
-15.095430 -13.818370 -0.591700 167 -0.028470 0.999595 0.000000
-15.094329 -13.817358 -0.585360 185 -0.028470 0.999595 0.000000
-15.092989 -13.816145 -0.579022 237 -0.028470 0.999595 0.000000
-15.091512 -13.814785 -0.572676 227 -0.028470 0.999595 0.000000
-15.090393 -13.813760 -0.566346 221 -0.028470 0.999595 0.000000
-15.092520 -13.815710 -0.560136 227 -0.028470 0.999595 0.000000
-15.092378 -13.815578 -0.553847 215 -0.028470 0.999595 0.000000
-15.091698 -13.814952 -0.547533 203 -0.028470 0.999595 0.000000
-15.092781 -13.815946 -0.541283 213 -0.028470 0.999595 0.000000
-15.092965 -13.816110 -0.535001 213 -0.028470 0.999595 0.000000
-15.092978 -13.816124 -0.528711 229 -0.028470 0.999595 0.000000
-15.094180 -13.817225 -0.522470 217 -0.028470 0.999595 0.000000
-15.094453 -13.817472 -0.516187 209 -0.028470 0.999595 0.000000
-15.094680 -13.817683 -0.509905 201 -0.028470 0.999595 0.000000
-15.094371 -13.817392 -0.503607 211 -0.028470 0.999595 0.000000
-15.092482 -13.815665 -0.497255 219 -0.028470 0.999595 0.000000
-15.091458 -13.814729 -0.490934 241 -0.028470 0.999595 0.000000
-15.091946 -13.815172 -0.484670 241 -0.028470 0.999595 0.000000
-15.092752 -13.815922 -0.478412 237 -0.028470 0.999595 0.000000
-15.092921 -13.816073 -0.472120 239 -0.028470 0.999595 0.000000
-15.092057 -13.815277 -0.465808 247 -0.028470 0.999595 0.000000
-15.091567 -13.814828 -0.459512 239 -0.028470 0.999595 0.000000
-15.091403 -13.814677 -0.453214 233 -0.028470 0.999595 0.000000
-15.091016 -13.814323 -0.446917 203 -0.028470 0.999595 0.000000
-15.090088 -13.813476 -0.440606 219 -0.028470 0.999595 0.000000
-15.092300 -13.815495 -0.434385 255 -0.028470 0.999595 0.000000
-15.094387 -13.817413 -0.428156 227 -0.028470 0.999595 0.000000
-15.092435 -13.815623 -0.421814 233 -0.028470 0.999595 0.000000
-15.091721 -13.814972 -0.415510 249 -0.028470 0.999595 0.000000
-15.092788 -13.815939 -0.409250 233 -0.028470 0.999595 0.000000
-15.092607 -13.815775 -0.402961 195 -0.028470 0.999595 0.000000
-15.091944 -13.815163 -0.396658 223 -0.028470 0.999595 0.000000
-15.092305 -13.815508 -0.390384 219 -0.028470 0.999595 0.000000
-15.090612 -13.813950 -0.384060 211 -0.028470 0.999595 0.000000
-15.089184 -13.812640 -0.377733 213 -0.028470 0.999595 0.000000
-15.089538 -13.812964 -0.371459 195 -0.028470 0.999595 0.000000
-15.091552 -13.814814 -0.365220 197 -0.028470 0.999595 0.000000
-15.092516 -13.815686 -0.358961 191 -0.028470 0.999595 0.000000
-15.091461 -13.814725 -0.352651 197 -0.028470 0.999595 0.000000
-15.090733 -13.814062 -0.346348 173 -0.028470 0.999595 0.000000
-15.091244 -13.814524 -0.340073 185 -0.028470 0.999595 0.000000
-15.092772 -13.815923 -0.333828 177 -0.028470 0.999595 0.000000
-15.092728 -13.815879 -0.327539 193 -0.028470 0.999595 0.000000
-15.090336 -13.813690 -0.321201 193 -0.028470 0.999595 0.000000
-15.090619 -13.813958 -0.314928 191 -0.028470 0.999595 0.000000
-15.092577 -13.815749 -0.308680 197 -0.028470 0.999595 0.000000
-15.092491 -13.815660 -0.302390 209 -0.028470 0.999595 0.000000
-15.092717 -13.815870 -0.296118 197 -0.028470 0.999595 0.000000
-15.093108 -13.816224 -0.289834 199 -0.028470 0.999595 0.000000
-15.091609 -13.814859 -0.283518 205 -0.028470 0.999595 0.000000
-15.105609 -13.818883 -0.673741 167 -0.028470 0.999595 0.000000
-15.106470 -13.819661 -0.667483 231 -0.028470 0.999595 0.000000
-15.104461 -13.817827 -0.661101 227 -0.028470 0.999595 0.000000
-15.103158 -13.816631 -0.654753 201 -0.028470 0.999595 0.000000
-15.101303 -13.814944 -0.648380 181 -0.028470 0.999595 0.000000
-15.101074 -13.814729 -0.642072 181 -0.028470 0.999595 0.000000
-15.101386 -13.815006 -0.635799 205 -0.028470 0.999595 0.000000
-15.102169 -13.815737 -0.629542 159 -0.028470 0.999595 0.000000
-15.102633 -13.816161 -0.623267 125 -0.028470 0.999595 0.000000
-15.103207 -13.816673 -0.617002 145 -0.028470 0.999595 0.000000
-15.103504 -13.816954 -0.610719 141 -0.028470 0.999595 0.000000
-15.102458 -13.815999 -0.604389 149 -0.028470 0.999595 0.000000
-15.102333 -13.815879 -0.598090 139 -0.028470 0.999595 0.000000
-15.104514 -13.817871 -0.591879 159 -0.028470 0.999595 0.000000
-15.103840 -13.817252 -0.585565 203 -0.028470 0.999595 0.000000
-15.103374 -13.816823 -0.579260 221 -0.028470 0.999595 0.000000
-15.103615 -13.817045 -0.572977 229 -0.028470 0.999595 0.000000
-15.103094 -13.816571 -0.566662 235 -0.028470 0.999595 0.000000
-15.103757 -13.817180 -0.560396 237 -0.028470 0.999595 0.000000
-15.103082 -13.816559 -0.554082 211 -0.028470 0.999595 0.000000
-15.101909 -13.815492 -0.547742 231 -0.028470 0.999595 0.000000
-15.102627 -13.816144 -0.541486 221 -0.028470 0.999595 0.000000
-15.104752 -13.818080 -0.535266 203 -0.028470 0.999595 0.000000
-15.104539 -13.817891 -0.528968 205 -0.028470 0.999595 0.000000
-15.102715 -13.816229 -0.522614 191 -0.028470 0.999595 0.000000
-15.102510 -13.816031 -0.516316 181 -0.028470 0.999595 0.000000
-15.102203 -13.815755 -0.510019 171 -0.028470 0.999595 0.000000
-15.103883 -13.817286 -0.503783 191 -0.028470 0.999595 0.000000
-15.103941 -13.817337 -0.497492 209 -0.028470 0.999595 0.000000
-15.102648 -13.816162 -0.491164 207 -0.028470 0.999595 0.000000
-15.101568 -13.815168 -0.484844 209 -0.028470 0.999595 0.000000
-15.101093 -13.814733 -0.478538 211 -0.028470 0.999595 0.000000
-15.101408 -13.815025 -0.472255 223 -0.028470 0.999595 0.000000
-15.100597 -13.814285 -0.465943 217 -0.028470 0.999595 0.000000
-15.101238 -13.814876 -0.459677 233 -0.028470 0.999595 0.000000
-15.101780 -13.815361 -0.453401 209 -0.028470 0.999595 0.000000
-15.101338 -13.814964 -0.447095 235 -0.028470 0.999595 0.000000
-15.101390 -13.815010 -0.440815 245 -0.028470 0.999595 0.000000
-15.103052 -13.816527 -0.434569 237 -0.028470 0.999595 0.000000
-15.102720 -13.816217 -0.428272 219 -0.028470 0.999595 0.000000
-15.102057 -13.815619 -0.421968 213 -0.028470 0.999595 0.000000
-15.102099 -13.815657 -0.415678 193 -0.028470 0.999595 0.000000
-15.103001 -13.816482 -0.409419 211 -0.028470 0.999595 0.000000
-15.103901 -13.817304 -0.403151 207 -0.028470 0.999595 0.000000
-15.103506 -13.816943 -0.396854 219 -0.028470 0.999595 0.000000
-15.101059 -13.814697 -0.390497 205 -0.028470 0.999595 0.000000
-15.099583 -13.813350 -0.384170 193 -0.028470 0.999595 0.000000
-15.100111 -13.813826 -0.377905 197 -0.028470 0.999595 0.000000
-15.101863 -13.815440 -0.371659 195 -0.028470 0.999595 0.000000
-15.103026 -13.816498 -0.365398 203 -0.028470 0.999595 0.000000
-15.102361 -13.815884 -0.359094 195 -0.028470 0.999595 0.000000
-15.100924 -13.814569 -0.352777 197 -0.028470 0.999595 0.000000
-15.101166 -13.814791 -0.346495 189 -0.028470 0.999595 0.000000
-15.102323 -13.815855 -0.340234 173 -0.028470 0.999595 0.000000
-15.101537 -13.815134 -0.333921 177 -0.028470 0.999595 0.000000
-15.100854 -13.814507 -0.327627 167 -0.028470 0.999595 0.000000
-15.100174 -13.813882 -0.321323 185 -0.028470 0.999595 0.000000
-15.099001 -13.812815 -0.315014 191 -0.028470 0.999595 0.000000
-15.100593 -13.814262 -0.308759 185 -0.028470 0.999595 0.000000
-15.101573 -13.815162 -0.302490 183 -0.028470 0.999595 0.000000
-15.101210 -13.814827 -0.296193 203 -0.028470 0.999595 0.000000
-15.100515 -13.814203 -0.289899 179 -0.028470 0.999595 0.000000
-15.099817 -13.813564 -0.283596 169 -0.028470 0.999595 0.000000
-15.110697 -13.814879 -0.428381 229 -0.028470 0.999595 0.000000
-15.110689 -13.814867 -0.403221 203 -0.028470 0.999595 0.000000
-15.110708 -13.814878 -0.359190 201 -0.028470 0.999595 0.000000
-15.110517 -13.814704 -0.340321 175 -0.028470 0.999595 0.000000
-15.110424 -13.814612 -0.296301 193 -0.028470 0.999595 0.000000
-15.110545 -13.814727 -0.290009 165 -0.028470 0.999595 0.000000
