173
-29.275301 -27.950779 -0.660369 255 0.400281 0.916393 0.000000
-29.273384 -27.948944 -0.647887 263 0.400281 0.916393 0.000000
-29.270874 -27.946545 -0.635400 299 0.400281 0.916393 0.000000
-29.270483 -27.946178 -0.622963 319 0.400281 0.916393 0.000000
-29.271124 -27.946787 -0.573256 313 0.400281 0.916393 0.000000
-29.271685 -27.947313 -0.560831 303 0.400281 0.916393 0.000000
-29.268526 -27.944296 -0.548340 295 0.400281 0.916393 0.000000
-29.273041 -27.948610 -0.535997 319 0.400281 0.916393 0.000000
-29.271833 -27.947454 -0.523548 301 0.400281 0.916393 0.000000
-29.271147 -27.946806 -0.511105 327 0.400281 0.916393 0.000000
-29.272690 -27.948273 -0.498700 317 0.400281 0.916393 0.000000
-29.273384 -27.948935 -0.486283 319 0.400281 0.916393 0.000000
-29.273865 -27.949392 -0.473858 313 0.400281 0.916393 0.000000
-29.268929 -27.944689 -0.461344 361 0.400281 0.916393 0.000000
-29.269087 -27.944830 -0.448923 347 0.400281 0.916393 0.000000
-29.268143 -27.943930 -0.436481 357 0.400281 0.916393 0.000000
-29.269701 -27.945419 -0.411646 389 0.400281 0.916393 0.000000
-29.271042 -27.946707 -0.399233 379 0.400281 0.916393 0.000000
-29.269773 -27.945494 -0.361934 289 0.400281 0.916393 0.000000
-29.270653 -27.946321 -0.349515 295 0.400281 0.916393 0.000000
-29.270277 -27.945965 -0.324648 313 0.400281 0.916393 0.000000
-29.273617 -27.949152 -0.312257 285 0.400281 0.916393 0.000000
-29.268724 -27.944481 -0.299773 311 0.400281 0.916393 0.000000
-29.281998 -27.939722 -0.660324 293 0.400281 0.916393 0.000000
-29.285328 -27.942898 -0.647962 279 0.400281 0.916393 0.000000
-29.284449 -27.942064 -0.635510 313 0.400281 0.916393 0.000000
-29.283010 -27.940691 -0.623054 331 0.400281 0.916393 0.000000
-29.283092 -27.940771 -0.610622 295 0.400281 0.916393 0.000000
-29.282280 -27.939993 -0.598170 275 0.400281 0.916393 0.000000
-29.284847 -27.942436 -0.585785 297 0.400281 0.916393 0.000000
-29.284285 -27.941902 -0.573350 321 0.400281 0.916393 0.000000
-29.279219 -27.937063 -0.560818 273 0.400281 0.916393 0.000000
-29.275373 -27.933403 -0.548314 299 0.400281 0.916393 0.000000
-29.278046 -27.935946 -0.535939 299 0.400281 0.916393 0.000000
-29.281862 -27.939590 -0.523572 297 0.400281 0.916393 0.000000
-29.280699 -27.938482 -0.511123 311 0.400281 0.916393 0.000000
-29.279219 -27.937077 -0.498666 299 0.400281 0.916393 0.000000
-29.283567 -27.941214 -0.486305 293 0.400281 0.916393 0.000000
-29.282780 -27.940464 -0.473862 313 0.400281 0.916393 0.000000
-29.282463 -27.940163 -0.461425 321 0.400281 0.916393 0.000000
-29.285101 -27.942677 -0.449040 249 0.400281 0.916393 0.000000
-29.281067 -27.938837 -0.436548 297 0.400281 0.916393 0.000000
-29.281857 -27.939589 -0.424130 283 0.400281 0.916393 0.000000
-29.284494 -27.942104 -0.411735 301 0.400281 0.916393 0.000000
-29.282780 -27.940464 -0.399281 305 0.400281 0.916393 0.000000
-29.285044 -27.942617 -0.386879 271 0.400281 0.916393 0.000000
-29.283590 -27.941231 -0.374432 307 0.400281 0.916393 0.000000
-29.277380 -27.935318 -0.361921 293 0.400281 0.916393 0.000000
-29.280626 -27.938414 -0.349530 277 0.400281 0.916393 0.000000
-29.281389 -27.939131 -0.337112 271 0.400281 0.916393 0.000000
-29.278709 -27.936575 -0.324657 289 0.400281 0.916393 0.000000
-29.283073 -27.940739 -0.312276 265 0.400281 0.916393 0.000000
-29.284462 -27.942062 -0.299852 241 0.400281 0.916393 0.000000
-29.293755 -27.934181 -0.660408 299 0.400281 0.916393 0.000000
-29.299620 -27.939779 -0.648102 251 0.400281 0.916393 0.000000
-29.301983 -27.942026 -0.635720 259 0.400281 0.916393 0.000000
-29.297834 -27.938076 -0.623188 261 0.400281 0.916393 0.000000
-29.294168 -27.934578 -0.610683 249 0.400281 0.916393 0.000000
-29.296621 -27.936911 -0.598299 253 0.400281 0.916393 0.000000
-29.297916 -27.938147 -0.585887 287 0.400281 0.916393 0.000000
-29.294388 -27.934790 -0.573390 289 0.400281 0.916393 0.000000
-29.293520 -27.933954 -0.560938 271 0.400281 0.916393 0.000000
-29.294949 -27.935326 -0.548534 287 0.400281 0.916393 0.000000
-29.294977 -27.935345 -0.536093 323 0.400281 0.916393 0.000000
-29.296679 -27.936968 -0.523697 283 0.400281 0.916393 0.000000
-29.298019 -27.938242 -0.511284 333 0.400281 0.916393 0.000000
-29.294262 -27.934668 -0.498789 315 0.400281 0.916393 0.000000
-29.292057 -27.932558 -0.486320 283 0.400281 0.916393 0.000000
-29.294422 -27.934820 -0.473927 287 0.400281 0.916393 0.000000
-29.294271 -27.934666 -0.461488 313 0.400281 0.916393 0.000000
-29.294418 -27.934811 -0.449057 315 0.400281 0.916393 0.000000
-29.294254 -27.934645 -0.436628 297 0.400281 0.916393 0.000000
-29.292721 -27.933193 -0.424172 301 0.400281 0.916393 0.000000
-29.295868 -27.936193 -0.411782 327 0.400281 0.916393 0.000000
-29.298037 -27.938257 -0.399381 307 0.400281 0.916393 0.000000
-29.301823 -27.941862 -0.386995 289 0.400281 0.916393 0.000000
-29.297674 -27.937912 -0.374504 293 0.400281 0.916393 0.000000
-29.296219 -27.936525 -0.362058 285 0.400281 0.916393 0.000000
-29.296028 -27.936340 -0.349619 279 0.400281 0.916393 0.000000
-29.294098 -27.934507 -0.337167 301 0.400281 0.916393 0.000000
-29.295650 -27.935982 -0.324752 279 0.400281 0.916393 0.000000
-29.293133 -27.933575 -0.312296 303 0.400281 0.916393 0.000000
-29.289173 -27.929806 -0.299823 249 0.400281 0.916393 0.000000
-29.303228 -27.926455 -0.660444 273 0.400281 0.916393 0.000000
-29.306818 -27.929888 -0.648079 243 0.400281 0.916393 0.000000
-29.309072 -27.932034 -0.635698 259 0.400281 0.916393 0.000000
-29.305037 -27.928188 -0.623176 239 0.400281 0.916393 0.000000
-29.302633 -27.925888 -0.610688 281 0.400281 0.916393 0.000000
-29.306007 -27.929100 -0.598326 301 0.400281 0.916393 0.000000
-29.308826 -27.931791 -0.585949 299 0.400281 0.916393 0.000000
-29.306526 -27.929602 -0.573470 275 0.400281 0.916393 0.000000
-29.305437 -27.928558 -0.561010 297 0.400281 0.916393 0.000000
-29.306187 -27.929279 -0.548593 305 0.400281 0.916393 0.000000
-29.309389 -27.932323 -0.536212 305 0.400281 0.916393 0.000000
-29.311255 -27.934109 -0.523814 301 0.400281 0.916393 0.000000
-29.303534 -27.926752 -0.511237 319 0.400281 0.916393 0.000000
-29.303703 -27.926903 -0.498815 299 0.400281 0.916393 0.000000
-29.309776 -27.932697 -0.486478 323 0.400281 0.916393 0.000000
-29.312330 -27.935129 -0.474083 355 0.400281 0.916393 0.000000
-29.309299 -27.932245 -0.461601 293 0.400281 0.916393 0.000000
-29.300518 -27.923868 -0.449034 287 0.400281 0.916393 0.000000
-29.299545 -27.922947 -0.436583 329 0.400281 0.916393 0.000000
-29.302662 -27.925907 -0.424203 317 0.400281 0.916393 0.000000
-29.306465 -27.929541 -0.411817 311 0.400281 0.916393 0.000000
-29.306618 -27.929678 -0.399385 331 0.400281 0.916393 0.000000
-29.301460 -27.924763 -0.386884 275 0.400281 0.916393 0.000000
-29.304398 -27.927565 -0.374496 305 0.400281 0.916393 0.000000
-29.312696 -27.935471 -0.362167 281 0.400281 0.916393 0.000000
-29.312656 -27.935434 -0.349727 277 0.400281 0.916393 0.000000
-29.307554 -27.930580 -0.337235 277 0.400281 0.916393 0.000000
-29.304670 -27.927818 -0.324772 267 0.400281 0.916393 0.000000
-29.308815 -27.931772 -0.312383 275 0.400281 0.916393 0.000000
-29.310680 -27.933544 -0.299965 245 0.400281 0.916393 0.000000
-29.315519 -27.920761 -0.660526 303 0.400281 0.916393 0.000000
-29.316786 -27.921961 -0.648114 257 0.400281 0.916393 0.000000
-29.317720 -27.922859 -0.635704 259 0.400281 0.916393 0.000000
-29.318195 -27.923302 -0.623280 247 0.400281 0.916393 0.000000
-29.321123 -27.926094 -0.610902 277 0.400281 0.916393 0.000000
-29.317387 -27.922537 -0.598387 319 0.400281 0.916393 0.000000
-29.314510 -27.919792 -0.585894 303 0.400281 0.916393 0.000000
-29.314962 -27.920227 -0.573469 301 0.400281 0.916393 0.000000
-29.314022 -27.919333 -0.561018 293 0.400281 0.916393 0.000000
-29.318857 -27.923933 -0.548672 315 0.400281 0.916393 0.000000
-29.320471 -27.925472 -0.536266 287 0.400281 0.916393 0.000000
-29.319056 -27.924118 -0.523799 313 0.400281 0.916393 0.000000
-29.322491 -27.927397 -0.511426 313 0.400281 0.916393 0.000000
-29.321651 -27.926598 -0.498974 341 0.400281 0.916393 0.000000
-29.318151 -27.923260 -0.486477 355 0.400281 0.916393 0.000000
-29.320274 -27.925283 -0.474077 351 0.400281 0.916393 0.000000
-29.324936 -27.929716 -0.461712 327 0.400281 0.916393 0.000000
-29.326582 -27.931282 -0.449306 301 0.400281 0.916393 0.000000
-29.323236 -27.928101 -0.436818 297 0.400281 0.916393 0.000000
-29.316236 -27.921429 -0.424274 315 0.400281 0.916393 0.000000
-29.315102 -27.920359 -0.411824 305 0.400281 0.916393 0.000000
-29.321550 -27.926489 -0.399483 311 0.400281 0.916393 0.000000
-29.322432 -27.927332 -0.387054 287 0.400281 0.916393 0.000000
-29.323689 -27.928524 -0.374632 317 0.400281 0.916393 0.000000
-29.323078 -27.927952 -0.362187 319 0.400281 0.916393 0.000000
-29.321203 -27.926165 -0.349735 291 0.400281 0.916393 0.000000
-29.321011 -27.925978 -0.337296 287 0.400281 0.916393 0.000000
-29.320877 -27.925850 -0.324857 267 0.400281 0.916393 0.000000
-29.320847 -27.925821 -0.312417 279 0.400281 0.916393 0.000000
-29.320904 -27.925880 -0.299987 299 0.400281 0.916393 0.000000
-29.330797 -27.917885 -0.660680 303 0.400281 0.916393 0.000000
-29.332373 -27.919378 -0.648275 255 0.400281 0.916393 0.000000
-29.338821 -27.925522 -0.635974 233 0.400281 0.916393 0.000000
-29.341187 -27.927774 -0.623581 263 0.400281 0.916393 0.000000
-29.334820 -27.921703 -0.611011 245 0.400281 0.916393 0.000000
-29.330288 -27.917398 -0.598473 255 0.400281 0.916393 0.000000
-29.329731 -27.916857 -0.586028 287 0.400281 0.916393 0.000000
-29.326193 -27.913502 -0.573522 309 0.400281 0.916393 0.000000
-29.329180 -27.916330 -0.561143 297 0.400281 0.916393 0.000000
-29.335987 -27.922812 -0.548838 345 0.400281 0.916393 0.000000
-29.338766 -27.925455 -0.536442 315 0.400281 0.916393 0.000000
-29.334055 -27.920975 -0.523916 283 0.400281 0.916393 0.000000
-29.331511 -27.918556 -0.511440 271 0.400281 0.916393 0.000000
-29.331625 -27.918661 -0.498998 307 0.400281 0.916393 0.000000
-29.331585 -27.918627 -0.486569 289 0.400281 0.916393 0.000000
-29.333807 -27.920732 -0.474167 339 0.400281 0.916393 0.000000
-29.333641 -27.920578 -0.461719 329 0.400281 0.916393 0.000000
-29.327703 -27.914928 -0.449194 303 0.400281 0.916393 0.000000
-29.323151 -27.910591 -0.436687 307 0.400281 0.916393 0.000000
-29.327591 -27.914818 -0.424325 301 0.400281 0.916393 0.000000
-29.330542 -27.917631 -0.411927 309 0.400281 0.916393 0.000000
-29.329952 -27.917061 -0.399482 307 0.400281 0.916393 0.000000
-29.330460 -27.917542 -0.387057 267 0.400281 0.916393 0.000000
-29.330654 -27.917725 -0.374615 323 0.400281 0.916393 0.000000
-29.331778 -27.918808 -0.362194 283 0.400281 0.916393 0.000000
-29.331392 -27.918434 -0.349757 281 0.400281 0.916393 0.000000
-29.332211 -27.919212 -0.337329 267 0.400281 0.916393 0.000000
-29.332592 -27.919577 -0.324895 295 0.400281 0.916393 0.000000
-29.330919 -27.917982 -0.312441 277 0.400281 0.916393 0.000000
-29.331680 -27.918699 -0.300013 297 0.400281 0.916393 0.000000
