786
-7.688604 -6.954300 -0.595741 575 0.458372 0.888760 0.000000
-7.687767 -6.953535 -0.592479 577 0.458372 0.888760 0.000000
-7.686804 -6.952670 -0.589218 573 0.458372 0.888760 0.000000
-7.686782 -6.952648 -0.586028 557 0.458372 0.888760 0.000000
-7.687613 -6.953400 -0.582890 555 0.458372 0.888760 0.000000
-7.688387 -6.954094 -0.579753 571 0.458372 0.888760 0.000000
-7.688633 -6.954313 -0.576581 557 0.458372 0.888760 0.000000
-7.688864 -6.954533 -0.573409 579 0.458372 0.888760 0.000000
-7.688604 -6.954296 -0.570191 585 0.458372 0.888760 0.000000
-7.688360 -6.954070 -0.566983 573 0.458372 0.888760 0.000000
-7.688598 -6.954283 -0.563811 567 0.458372 0.888760 0.000000
-7.688987 -6.954642 -0.560637 565 0.458372 0.888760 0.000000
-7.688735 -6.954411 -0.557429 581 0.458372 0.888760 0.000000
-7.688268 -6.953982 -0.554204 575 0.458372 0.888760 0.000000
-7.689747 -6.955317 -0.551120 593 0.458372 0.888760 0.000000
-7.689860 -6.955430 -0.547929 593 0.458372 0.888760 0.000000
-7.688793 -6.954455 -0.544669 593 0.458372 0.888760 0.000000
-7.688961 -6.954612 -0.541487 567 0.458372 0.888760 0.000000
-7.689364 -6.954969 -0.538323 581 0.458372 0.888760 0.000000
-7.688931 -6.954580 -0.535097 583 0.458372 0.888760 0.000000
-7.689651 -6.955231 -0.531950 595 0.458372 0.888760 0.000000
-7.689819 -6.955387 -0.528769 579 0.458372 0.888760 0.000000
-7.689393 -6.955003 -0.525553 597 0.458372 0.888760 0.000000
-7.689402 -6.955006 -0.522363 591 0.458372 0.888760 0.000000
-7.689734 -6.955307 -0.519189 613 0.458372 0.888760 0.000000
-7.689688 -6.955266 -0.516000 591 0.458372 0.888760 0.000000
-7.689737 -6.955315 -0.512809 595 0.458372 0.888760 0.000000
-7.690022 -6.955565 -0.509637 603 0.458372 0.888760 0.000000
-7.689051 -6.954680 -0.506385 575 0.458372 0.888760 0.000000
-7.687693 -6.953460 -0.503108 577 0.458372 0.888760 0.000000
-7.687488 -6.953266 -0.499900 591 0.458372 0.888760 0.000000
-7.687861 -6.953612 -0.496736 587 0.458372 0.888760 0.000000
-7.688463 -6.954155 -0.493580 581 0.458372 0.888760 0.000000
-7.689387 -6.954983 -0.490452 587 0.458372 0.888760 0.000000
-7.689493 -6.955089 -0.487261 613 0.458372 0.888760 0.000000
-7.689065 -6.954691 -0.484045 607 0.458372 0.888760 0.000000
-7.688790 -6.954441 -0.480837 587 0.458372 0.888760 0.000000
-7.689274 -6.954889 -0.477683 575 0.458372 0.888760 0.000000
-7.690088 -6.955616 -0.474535 587 0.458372 0.888760 0.000000
-7.689536 -6.955118 -0.471310 595 0.458372 0.888760 0.000000
-7.688937 -6.954583 -0.468086 587 0.458372 0.888760 0.000000
-7.689372 -6.954966 -0.464922 577 0.458372 0.888760 0.000000
-7.689144 -6.954767 -0.461724 583 0.458372 0.888760 0.000000
-7.688378 -6.954072 -0.458490 595 0.458372 0.888760 0.000000
-7.687938 -6.953677 -0.455274 579 0.458372 0.888760 0.000000
-7.688681 -6.954345 -0.452128 569 0.458372 0.888760 0.000000
-7.690034 -6.955567 -0.449015 585 0.458372 0.888760 0.000000
-7.690075 -6.955609 -0.445825 569 0.458372 0.888760 0.000000
-7.690011 -6.955542 -0.442625 585 0.458372 0.888760 0.000000
-7.689018 -6.954652 -0.439384 579 0.458372 0.888760 0.000000
-7.688742 -6.954401 -0.436177 603 0.458372 0.888760 0.000000
-7.689810 -6.955369 -0.433047 587 0.458372 0.888760 0.000000
-7.690340 -6.955841 -0.429892 571 0.458372 0.888760 0.000000
-7.690159 -6.955680 -0.426693 585 0.458372 0.888760 0.000000
-7.690041 -6.955569 -0.423494 583 0.458372 0.888760 0.000000
-7.689316 -6.954919 -0.420271 581 0.458372 0.888760 0.000000
-7.688543 -6.954219 -0.417038 561 0.458372 0.888760 0.000000
-7.688962 -6.954589 -0.413874 567 0.458372 0.888760 0.000000
-7.689588 -6.955164 -0.410718 577 0.458372 0.888760 0.000000
-7.690063 -6.955593 -0.407554 555 0.458372 0.888760 0.000000
-7.690255 -6.955768 -0.404372 575 0.458372 0.888760 0.000000
-7.689860 -6.955410 -0.401166 557 0.458372 0.888760 0.000000
-7.689466 -6.955051 -0.397949 557 0.458372 0.888760 0.000000
-7.688953 -6.954585 -0.394744 541 0.458372 0.888760 0.000000
-7.687847 -6.953579 -0.391494 543 0.458372 0.888760 0.000000
-7.688370 -6.954060 -0.388339 559 0.458372 0.888760 0.000000
-7.689486 -6.955065 -0.385199 569 0.458372 0.888760 0.000000
-7.689999 -6.955525 -0.382034 575 0.458372 0.888760 0.000000
-7.690135 -6.955656 -0.378852 565 0.458372 0.888760 0.000000
-7.689133 -6.954746 -0.375622 557 0.458372 0.888760 0.000000
-7.689869 -6.955409 -0.372465 547 0.458372 0.888760 0.000000
-7.689735 -6.955285 -0.369276 543 0.458372 0.888760 0.000000
-7.688946 -6.954571 -0.366053 535 0.458372 0.888760 0.000000
-7.689620 -6.955185 -0.362887 561 0.458372 0.888760 0.000000
-7.689272 -6.954864 -0.359690 581 0.458372 0.888760 0.000000
-7.688633 -6.954297 -0.356476 567 0.458372 0.888760 0.000000
-7.688232 -6.953933 -0.353269 557 0.458372 0.888760 0.000000
-7.688035 -6.953745 -0.350071 555 0.458372 0.888760 0.000000
-7.688226 -6.953920 -0.346889 557 0.458372 0.888760 0.000000
-7.688076 -6.953784 -0.343701 545 0.458372 0.888760 0.000000
-7.688260 -6.953952 -0.340519 559 0.458372 0.888760 0.000000
-7.689201 -6.954807 -0.337370 579 0.458372 0.888760 0.000000
-7.689115 -6.954720 -0.334181 573 0.458372 0.888760 0.000000
-7.689725 -6.955283 -0.331025 567 0.458372 0.888760 0.000000
-7.690445 -6.955933 -0.327858 563 0.458372 0.888760 0.000000
-7.689980 -6.955505 -0.324653 549 0.458372 0.888760 0.000000
-7.689616 -6.955172 -0.321456 567 0.458372 0.888760 0.000000
-7.689681 -6.955233 -0.318275 571 0.458372 0.888760 0.000000
-7.690030 -6.955547 -0.315102 569 0.458372 0.888760 0.000000
-7.689114 -6.954719 -0.311880 577 0.458372 0.888760 0.000000
-7.690299 -6.951570 -0.704360 559 0.458372 0.888760 0.000000
-7.690995 -6.952202 -0.701223 543 0.458372 0.888760 0.000000
-7.691803 -6.952935 -0.698096 547 0.458372 0.888760 0.000000
-7.691086 -6.952292 -0.694842 567 0.458372 0.888760 0.000000
-7.691837 -6.952968 -0.691705 571 0.458372 0.888760 0.000000
-7.692534 -6.953600 -0.688569 573 0.458372 0.888760 0.000000
-7.692795 -6.953831 -0.685396 565 0.458372 0.888760 0.000000
-7.692788 -6.953821 -0.682196 557 0.458372 0.888760 0.000000
-7.691857 -6.952981 -0.678915 541 0.458372 0.888760 0.000000
-7.691849 -6.952971 -0.675725 543 0.458372 0.888760 0.000000
-7.691883 -6.953008 -0.672524 541 0.458372 0.888760 0.000000
-7.691496 -6.952655 -0.669298 519 0.458372 0.888760 0.000000
-7.691481 -6.952639 -0.666098 551 0.458372 0.888760 0.000000
-7.690921 -6.952135 -0.662853 557 0.458372 0.888760 0.000000
-7.690638 -6.951879 -0.659635 521 0.458372 0.888760 0.000000
-7.691271 -6.952446 -0.656489 533 0.458372 0.888760 0.000000
-7.691960 -6.953072 -0.653353 521 0.458372 0.888760 0.000000
-7.692814 -6.953843 -0.650225 511 0.458372 0.888760 0.000000
-7.692474 -6.953528 -0.646998 517 0.458372 0.888760 0.000000
-7.692183 -6.953265 -0.643781 535 0.458372 0.888760 0.000000
-7.691892 -6.953002 -0.640563 541 0.458372 0.888760 0.000000
-7.691435 -6.952594 -0.637328 531 0.458372 0.888760 0.000000
-7.692227 -6.953315 -0.634200 535 0.458372 0.888760 0.000000
-7.692803 -6.953825 -0.631045 521 0.458372 0.888760 0.000000
-7.692070 -6.953169 -0.627792 539 0.458372 0.888760 0.000000
-7.690317 -6.951580 -0.624458 529 0.458372 0.888760 0.000000
-7.691101 -6.952294 -0.621330 529 0.458372 0.888760 0.000000
-7.693305 -6.954276 -0.618300 541 0.458372 0.888760 0.000000
-7.692786 -6.953817 -0.615065 541 0.458372 0.888760 0.000000
-7.691466 -6.952614 -0.611767 531 0.458372 0.888760 0.000000
-7.691278 -6.952447 -0.608558 557 0.458372 0.888760 0.000000
-7.691902 -6.953008 -0.605413 583 0.458372 0.888760 0.000000
-7.691921 -6.953032 -0.602222 595 0.458372 0.888760 0.000000
-7.691787 -6.952908 -0.599014 565 0.458372 0.888760 0.000000
-7.691970 -6.953076 -0.595832 577 0.458372 0.888760 0.000000
-7.692270 -6.953339 -0.592659 595 0.458372 0.888760 0.000000
-7.692288 -6.953362 -0.589469 571 0.458372 0.888760 0.000000
-7.691278 -6.952446 -0.586198 567 0.458372 0.888760 0.000000
-7.690653 -6.951877 -0.582964 555 0.458372 0.888760 0.000000
-7.691438 -6.952592 -0.579826 575 0.458372 0.888760 0.000000
-7.692434 -6.953490 -0.576707 571 0.458372 0.888760 0.000000
-7.692348 -6.953404 -0.573508 551 0.458372 0.888760 0.000000
-7.692089 -6.953180 -0.570290 563 0.458372 0.888760 0.000000
-7.691347 -6.952504 -0.567047 577 0.458372 0.888760 0.000000
-7.690771 -6.951987 -0.563812 563 0.458372 0.888760 0.000000
-7.690842 -6.952040 -0.560621 561 0.458372 0.888760 0.000000
-7.691562 -6.952692 -0.557485 555 0.458372 0.888760 0.000000
-7.692227 -6.953298 -0.554338 569 0.458372 0.888760 0.000000
-7.692079 -6.953162 -0.551130 563 0.458372 0.888760 0.000000
-7.692205 -6.953273 -0.547948 581 0.458372 0.888760 0.000000
-7.692373 -6.953429 -0.544767 573 0.458372 0.888760 0.000000
-7.692169 -6.953249 -0.541559 561 0.458372 0.888760 0.000000
-7.691316 -6.952471 -0.538306 543 0.458372 0.888760 0.000000
-7.691545 -6.952677 -0.535134 567 0.458372 0.888760 0.000000
-7.692914 -6.953911 -0.532032 571 0.458372 0.888760 0.000000
-7.692377 -6.953426 -0.528807 587 0.458372 0.888760 0.000000
-7.692331 -6.953385 -0.525607 579 0.458372 0.888760 0.000000
-7.693360 -6.954322 -0.522487 591 0.458372 0.888760 0.000000
-7.692404 -6.953449 -0.519226 571 0.458372 0.888760 0.000000
-7.691434 -6.952578 -0.515975 577 0.458372 0.888760 0.000000
-7.691814 -6.952917 -0.512811 589 0.458372 0.888760 0.000000
-7.692795 -6.953803 -0.509682 593 0.458372 0.888760 0.000000
-7.692962 -6.953959 -0.506501 575 0.458372 0.888760 0.000000
-7.691990 -6.953073 -0.503240 571 0.458372 0.888760 0.000000
-7.691343 -6.952486 -0.500015 583 0.458372 0.888760 0.000000
-7.691614 -6.952738 -0.496843 591 0.458372 0.888760 0.000000
-7.692050 -6.953135 -0.493679 585 0.458372 0.888760 0.000000
-7.692872 -6.953867 -0.490531 591 0.458372 0.888760 0.000000
-7.692051 -6.953128 -0.487289 605 0.458372 0.888760 0.000000
-7.691453 -6.952594 -0.484064 577 0.458372 0.888760 0.000000
-7.692542 -6.953566 -0.480944 577 0.458372 0.888760 0.000000
-7.692805 -6.953811 -0.477761 581 0.458372 0.888760 0.000000
-7.691343 -6.952482 -0.474485 577 0.458372 0.888760 0.000000
-7.691330 -6.952480 -0.471295 577 0.458372 0.888760 0.000000
-7.692579 -6.953606 -0.468183 583 0.458372 0.888760 0.000000
-7.692737 -6.953742 -0.465002 609 0.458372 0.888760 0.000000
-7.692564 -6.953587 -0.461793 603 0.458372 0.888760 0.000000
-7.692724 -6.953737 -0.458612 599 0.458372 0.888760 0.000000
-7.692062 -6.953138 -0.455388 605 0.458372 0.888760 0.000000
-7.691193 -6.952348 -0.452146 593 0.458372 0.888760 0.000000
-7.692427 -6.953461 -0.449024 589 0.458372 0.888760 0.000000
-7.693448 -6.954391 -0.445895 609 0.458372 0.888760 0.000000
-7.693156 -6.954128 -0.442687 603 0.458372 0.888760 0.000000
-7.692390 -6.953434 -0.439454 587 0.458372 0.888760 0.000000
-7.692274 -6.953323 -0.436255 589 0.458372 0.888760 0.000000
-7.692805 -6.953810 -0.433100 589 0.458372 0.888760 0.000000
-7.692790 -6.953794 -0.429910 589 0.458372 0.888760 0.000000
-7.692450 -6.953479 -0.426704 585 0.458372 0.888760 0.000000
-7.692223 -6.953280 -0.423495 595 0.458372 0.888760 0.000000
-7.692365 -6.953404 -0.420314 607 0.458372 0.888760 0.000000
-7.692247 -6.953292 -0.417125 577 0.458372 0.888760 0.000000
-7.691956 -6.953029 -0.413918 555 0.458372 0.888760 0.000000
-7.692859 -6.953852 -0.410779 557 0.458372 0.888760 0.000000
-7.693437 -6.954376 -0.407614 561 0.458372 0.888760 0.000000
-7.693414 -6.954354 -0.404424 583 0.458372 0.888760 0.000000
-7.693177 -6.954134 -0.401226 555 0.458372 0.888760 0.000000
-7.692832 -6.953828 -0.398019 565 0.458372 0.888760 0.000000
-7.692153 -6.953216 -0.394795 563 0.458372 0.888760 0.000000
-7.691648 -6.952756 -0.391580 559 0.458372 0.888760 0.000000
-7.692605 -6.953622 -0.388441 565 0.458372 0.888760 0.000000
-7.692575 -6.953594 -0.385251 563 0.458372 0.888760 0.000000
-7.692614 -6.953622 -0.382061 567 0.458372 0.888760 0.000000
-7.693778 -6.954679 -0.378930 559 0.458372 0.888760 0.000000
-7.694465 -6.955291 -0.375774 557 0.458372 0.888760 0.000000
-7.694269 -6.955117 -0.372576 555 0.458372 0.888760 0.000000
-7.692729 -6.953725 -0.369310 571 0.458372 0.888760 0.000000
-7.692208 -6.953252 -0.366104 585 0.458372 0.888760 0.000000
-7.692676 -6.953675 -0.362930 551 0.458372 0.888760 0.000000
-7.693017 -6.953982 -0.359767 553 0.458372 0.888760 0.000000
-7.693422 -6.954355 -0.356593 561 0.458372 0.888760 0.000000
-7.692963 -6.953932 -0.353387 575 0.458372 0.888760 0.000000
-7.691795 -6.952877 -0.350148 575 0.458372 0.888760 0.000000
-7.691480 -6.952595 -0.346941 577 0.458372 0.888760 0.000000
-7.692421 -6.953448 -0.343792 569 0.458372 0.888760 0.000000
-7.693260 -6.954206 -0.340644 565 0.458372 0.888760 0.000000
-7.693285 -6.954223 -0.337454 579 0.458372 0.888760 0.000000
-7.692805 -6.953795 -0.334248 579 0.458372 0.888760 0.000000
-7.692877 -6.953862 -0.331067 579 0.458372 0.888760 0.000000
-7.693067 -6.954024 -0.327886 573 0.458372 0.888760 0.000000
-7.693787 -6.954674 -0.324729 557 0.458372 0.888760 0.000000
-7.693748 -6.954639 -0.321539 557 0.458372 0.888760 0.000000
-7.692620 -6.953629 -0.318309 569 0.458372 0.888760 0.000000
-7.692637 -6.953638 -0.315119 593 0.458372 0.888760 0.000000
-7.692544 -6.953560 -0.311930 561 0.458372 0.888760 0.000000
-7.696006 -6.952541 -0.701488 531 0.458372 0.888760 0.000000
-7.697186 -6.953611 -0.698397 569 0.458372 0.888760 0.000000
-7.695882 -6.952434 -0.695079 587 0.458372 0.888760 0.000000
-7.694247 -6.950952 -0.691734 571 0.458372 0.888760 0.000000
-7.694351 -6.951045 -0.688553 555 0.458372 0.888760 0.000000
-7.695641 -6.952216 -0.685461 547 0.458372 0.888760 0.000000
-7.695143 -6.951763 -0.682225 543 0.458372 0.888760 0.000000
-7.694205 -6.950916 -0.678944 535 0.458372 0.888760 0.000000
-7.694908 -6.951540 -0.675807 537 0.458372 0.888760 0.000000
-7.694570 -6.951240 -0.672580 525 0.458372 0.888760 0.000000
-7.693417 -6.950195 -0.669281 509 0.458372 0.888760 0.000000
-7.695037 -6.951658 -0.666226 543 0.458372 0.888760 0.000000
-7.695719 -6.952278 -0.663080 575 0.458372 0.888760 0.000000
-7.694510 -6.951190 -0.659791 543 0.458372 0.888760 0.000000
-7.694116 -6.950831 -0.656554 533 0.458372 0.888760 0.000000
-7.693611 -6.950371 -0.653319 501 0.458372 0.888760 0.000000
-7.693596 -6.950356 -0.650119 503 0.458372 0.888760 0.000000
-7.694277 -6.950975 -0.646982 491 0.458372 0.888760 0.000000
-7.695566 -6.952133 -0.643891 507 0.458372 0.888760 0.000000
-7.695171 -6.951774 -0.640664 503 0.458372 0.888760 0.000000
-7.695086 -6.951702 -0.637455 509 0.458372 0.888760 0.000000
-7.695072 -6.951686 -0.634255 513 0.458372 0.888760 0.000000
-7.694504 -6.951176 -0.631020 529 0.458372 0.888760 0.000000
-7.695137 -6.951744 -0.627874 519 0.458372 0.888760 0.000000
-7.694948 -6.951576 -0.624666 519 0.458372 0.888760 0.000000
-7.694546 -6.951211 -0.621429 529 0.458372 0.888760 0.000000
-7.694799 -6.951437 -0.618257 537 0.458372 0.888760 0.000000
-7.695037 -6.951649 -0.615085 535 0.458372 0.888760 0.000000
-7.694960 -6.951583 -0.611875 547 0.458372 0.888760 0.000000
-7.694763 -6.951409 -0.608667 573 0.458372 0.888760 0.000000
-7.694692 -6.951335 -0.605468 587 0.458372 0.888760 0.000000
-7.695311 -6.951904 -0.602322 583 0.458372 0.888760 0.000000
-7.696370 -6.952852 -0.599202 597 0.458372 0.888760 0.000000
-7.696119 -6.952635 -0.595994 595 0.458372 0.888760 0.000000
-7.695653 -6.952206 -0.592759 607 0.458372 0.888760 0.000000
-7.695408 -6.951981 -0.589551 589 0.458372 0.888760 0.000000
-7.695268 -6.951864 -0.586342 591 0.458372 0.888760 0.000000
-7.694147 -6.950846 -0.583072 571 0.458372 0.888760 0.000000
-7.693848 -6.950577 -0.579855 575 0.458372 0.888760 0.000000
-7.695438 -6.952014 -0.576770 573 0.458372 0.888760 0.000000
-7.695399 -6.951980 -0.573581 555 0.458372 0.888760 0.000000
-7.694721 -6.951368 -0.570337 559 0.458372 0.888760 0.000000
-7.694302 -6.950977 -0.567110 581 0.458372 0.888760 0.000000
-7.693561 -6.950315 -0.563867 547 0.458372 0.888760 0.000000
-7.693143 -6.949938 -0.560641 565 0.458372 0.888760 0.000000
-7.693753 -6.950487 -0.557495 569 0.458372 0.888760 0.000000
-7.695120 -6.951721 -0.554393 559 0.458372 0.888760 0.000000
-7.695082 -6.951686 -0.551203 551 0.458372 0.888760 0.000000
-7.694995 -6.951600 -0.547994 559 0.458372 0.888760 0.000000
-7.695219 -6.951814 -0.544822 577 0.458372 0.888760 0.000000
-7.694200 -6.950891 -0.541561 557 0.458372 0.888760 0.000000
-7.694533 -6.951193 -0.538388 561 0.458372 0.888760 0.000000
-7.695094 -6.951690 -0.535232 563 0.458372 0.888760 0.000000
-7.694828 -6.951460 -0.532025 567 0.458372 0.888760 0.000000
-7.694630 -6.951272 -0.528817 567 0.458372 0.888760 0.000000
-7.695334 -6.951910 -0.525670 595 0.458372 0.888760 0.000000
-7.695510 -6.952073 -0.522488 585 0.458372 0.888760 0.000000
-7.694373 -6.951042 -0.519229 561 0.458372 0.888760 0.000000
-7.694492 -6.951146 -0.516038 579 0.458372 0.888760 0.000000
-7.694659 -6.951302 -0.512856 579 0.458372 0.888760 0.000000
-7.694344 -6.951007 -0.509649 583 0.458372 0.888760 0.000000
-7.694069 -6.950770 -0.506441 585 0.458372 0.888760 0.000000
-7.693587 -6.950328 -0.503216 567 0.458372 0.888760 0.000000
-7.694458 -6.951112 -0.500077 577 0.458372 0.888760 0.000000
-7.694948 -6.951553 -0.496913 593 0.458372 0.888760 0.000000
-7.694894 -6.951506 -0.493723 585 0.458372 0.888760 0.000000
-7.694786 -6.951416 -0.490524 583 0.458372 0.888760 0.000000
-7.694193 -6.950872 -0.487300 587 0.458372 0.888760 0.000000
-7.694028 -6.950724 -0.484091 563 0.458372 0.888760 0.000000
-7.694835 -6.951457 -0.480954 581 0.458372 0.888760 0.000000
-7.695153 -6.951746 -0.477781 597 0.458372 0.888760 0.000000
-7.694837 -6.951450 -0.474573 569 0.458372 0.888760 0.000000
-7.694830 -6.951441 -0.471383 587 0.458372 0.888760 0.000000
-7.694879 -6.951489 -0.468193 589 0.458372 0.888760 0.000000
-7.695142 -6.951735 -0.465020 603 0.458372 0.888760 0.000000
-7.694810 -6.951427 -0.461803 585 0.458372 0.888760 0.000000
-7.694534 -6.951176 -0.458606 607 0.458372 0.888760 0.000000
-7.694203 -6.950881 -0.455389 591 0.458372 0.888760 0.000000
-7.694142 -6.950828 -0.452199 579 0.458372 0.888760 0.000000
-7.694838 -6.951446 -0.449043 577 0.458372 0.888760 0.000000
-7.695312 -6.951875 -0.445888 593 0.458372 0.888760 0.000000
-7.694982 -6.951580 -0.442671 583 0.458372 0.888760 0.000000
-7.695506 -6.952060 -0.439516 575 0.458372 0.888760 0.000000
-7.695601 -6.952146 -0.436326 557 0.458372 0.888760 0.000000
-7.694993 -6.951591 -0.433111 561 0.458372 0.888760 0.000000
-7.694923 -6.951531 -0.429912 573 0.458372 0.888760 0.000000
-7.695130 -6.951719 -0.426730 587 0.458372 0.888760 0.000000
-7.695178 -6.951753 -0.423549 587 0.458372 0.888760 0.000000
-7.694673 -6.951293 -0.420334 583 0.458372 0.888760 0.000000
-7.694541 -6.951183 -0.417135 561 0.458372 0.888760 0.000000
-7.694526 -6.951168 -0.413945 535 0.458372 0.888760 0.000000
-7.693799 -6.950504 -0.410722 547 0.458372 0.888760 0.000000
-7.693997 -6.950686 -0.407540 555 0.458372 0.888760 0.000000
-7.695611 -6.952142 -0.404435 585 0.458372 0.888760 0.000000
-7.696188 -6.952665 -0.401269 583 0.458372 0.888760 0.000000
-7.694870 -6.951476 -0.398011 577 0.458372 0.888760 0.000000
-7.694785 -6.951404 -0.394822 563 0.458372 0.888760 0.000000
-7.695637 -6.952161 -0.391674 559 0.458372 0.888760 0.000000
-7.695877 -6.952388 -0.388502 585 0.458372 0.888760 0.000000
-7.696020 -6.952512 -0.385321 565 0.458372 0.888760 0.000000
-7.695893 -6.952394 -0.382122 565 0.458372 0.888760 0.000000
-7.696299 -6.952766 -0.378948 575 0.458372 0.888760 0.000000
-7.696000 -6.952497 -0.375750 567 0.458372 0.888760 0.000000
-7.695977 -6.952475 -0.372561 549 0.458372 0.888760 0.000000
-7.695946 -6.952446 -0.369371 551 0.458372 0.888760 0.000000
-7.695758 -6.952279 -0.366172 551 0.458372 0.888760 0.000000
-7.695893 -6.952396 -0.362991 543 0.458372 0.888760 0.000000
-7.695538 -6.952069 -0.359784 545 0.458372 0.888760 0.000000
-7.695287 -6.951851 -0.356587 555 0.458372 0.888760 0.000000
-7.695208 -6.951771 -0.353387 557 0.458372 0.888760 0.000000
-7.695067 -6.951642 -0.350199 539 0.458372 0.888760 0.000000
-7.695685 -6.952210 -0.347033 563 0.458372 0.888760 0.000000
-7.695813 -6.952322 -0.343852 557 0.458372 0.888760 0.000000
-7.696429 -6.952877 -0.340696 543 0.458372 0.888760 0.000000
-7.695522 -6.952055 -0.337464 565 0.458372 0.888760 0.000000
-7.695491 -6.952027 -0.334274 567 0.458372 0.888760 0.000000
-7.696923 -6.953325 -0.331151 567 0.458372 0.888760 0.000000
-7.696345 -6.952795 -0.327936 587 0.458372 0.888760 0.000000
-7.696142 -6.952615 -0.324738 587 0.458372 0.888760 0.000000
-7.696318 -6.952777 -0.321556 573 0.458372 0.888760 0.000000
-7.695521 -6.952058 -0.318344 553 0.458372 0.888760 0.000000
-7.694778 -6.951382 -0.315120 547 0.458372 0.888760 0.000000
-7.696423 -6.952863 -0.311995 537 0.458372 0.888760 0.000000
-7.696663 -6.948876 -0.701363 529 0.458372 0.888760 0.000000
-7.697200 -6.949355 -0.698208 569 0.458372 0.888760 0.000000
-7.697027 -6.949199 -0.694999 559 0.458372 0.888760 0.000000
-7.696104 -6.948365 -0.691718 537 0.458372 0.888760 0.000000
-7.696034 -6.948306 -0.688508 541 0.458372 0.888760 0.000000
-7.696620 -6.948835 -0.685363 539 0.458372 0.888760 0.000000
-7.697594 -6.949715 -0.682254 549 0.458372 0.888760 0.000000
-7.697633 -6.949742 -0.679054 545 0.458372 0.888760 0.000000
-7.696702 -6.948902 -0.675782 523 0.458372 0.888760 0.000000
-7.697279 -6.949426 -0.672627 511 0.458372 0.888760 0.000000
-7.697217 -6.949373 -0.669427 509 0.458372 0.888760 0.000000
-7.697582 -6.949699 -0.666264 519 0.458372 0.888760 0.000000
-7.698271 -6.950325 -0.663127 565 0.458372 0.888760 0.000000
-7.697876 -6.949966 -0.659891 523 0.458372 0.888760 0.000000
-7.697593 -6.949709 -0.656673 495 0.458372 0.888760 0.000000
-7.697412 -6.949548 -0.653455 491 0.458372 0.888760 0.000000
-7.696631 -6.948841 -0.650202 493 0.458372 0.888760 0.000000
-7.696727 -6.948927 -0.647011 495 0.458372 0.888760 0.000000
-7.697850 -6.949939 -0.643901 503 0.458372 0.888760 0.000000
-7.698152 -6.950216 -0.640728 507 0.458372 0.888760 0.000000
-7.697758 -6.949857 -0.637501 511 0.458372 0.888760 0.000000
-7.698057 -6.950120 -0.634329 533 0.458372 0.888760 0.000000
-7.698581 -6.950600 -0.631174 519 0.458372 0.888760 0.000000
-7.698337 -6.950375 -0.627956 531 0.458372 0.888760 0.000000
-7.697832 -6.949914 -0.624721 533 0.458372 0.888760 0.000000
-7.696671 -6.948865 -0.621431 515 0.458372 0.888760 0.000000
-7.696965 -6.949135 -0.618268 507 0.458372 0.888760 0.000000
-7.697486 -6.949601 -0.615113 543 0.458372 0.888760 0.000000
-7.696968 -6.949142 -0.611878 567 0.458372 0.888760 0.000000
-7.696723 -6.948917 -0.608660 587 0.458372 0.888760 0.000000
-7.697134 -6.949281 -0.605496 585 0.458372 0.888760 0.000000
-7.697111 -6.949259 -0.602297 571 0.458372 0.888760 0.000000
-7.697184 -6.949327 -0.599106 591 0.458372 0.888760 0.000000
-7.698347 -6.950384 -0.596005 593 0.458372 0.888760 0.000000
-7.698482 -6.950501 -0.592814 595 0.458372 0.888760 0.000000
-7.697259 -6.949401 -0.589535 581 0.458372 0.888760 0.000000
-7.697820 -6.949898 -0.586380 571 0.458372 0.888760 0.000000
-7.698548 -6.950555 -0.583233 585 0.458372 0.888760 0.000000
-7.698454 -6.950477 -0.580034 575 0.458372 0.888760 0.000000
-7.698534 -6.950550 -0.576843 571 0.458372 0.888760 0.000000
-7.698283 -6.950318 -0.573635 555 0.458372 0.888760 0.000000
-7.698133 -6.950182 -0.570426 583 0.458372 0.888760 0.000000
-7.697778 -6.949855 -0.567210 587 0.458372 0.888760 0.000000
-7.697850 -6.949922 -0.564019 567 0.458372 0.888760 0.000000
-7.697758 -6.949844 -0.560820 573 0.458372 0.888760 0.000000
-7.697987 -6.950050 -0.557638 579 0.458372 0.888760 0.000000
-7.697521 -6.949621 -0.554412 563 0.458372 0.888760 0.000000
-7.696987 -6.949150 -0.551187 547 0.458372 0.888760 0.000000
-7.697816 -6.949889 -0.548049 551 0.458372 0.888760 0.000000
-7.697611 -6.949708 -0.544841 565 0.458372 0.888760 0.000000
-7.696704 -6.948887 -0.541589 551 0.458372 0.888760 0.000000
-7.697471 -6.949575 -0.538442 551 0.458372 0.888760 0.000000
-7.698294 -6.950321 -0.535304 575 0.458372 0.888760 0.000000
-7.697497 -6.949601 -0.532061 579 0.458372 0.888760 0.000000
-7.697451 -6.949560 -0.528862 559 0.458372 0.888760 0.000000
-7.698218 -6.950248 -0.525725 577 0.458372 0.888760 0.000000
-7.698061 -6.950106 -0.522516 597 0.458372 0.888760 0.000000
-7.697635 -6.949722 -0.519300 593 0.458372 0.888760 0.000000
-7.697589 -6.949681 -0.516100 573 0.458372 0.888760 0.000000
-7.697370 -6.949489 -0.512902 581 0.458372 0.888760 0.000000
-7.697440 -6.949542 -0.509712 577 0.458372 0.888760 0.000000
-7.696620 -6.948803 -0.506469 581 0.458372 0.888760 0.000000
-7.696519 -6.948719 -0.503270 567 0.458372 0.888760 0.000000
-7.697451 -6.949553 -0.500131 565 0.458372 0.888760 0.000000
-7.697935 -6.949987 -0.496977 583 0.458372 0.888760 0.000000
-7.697770 -6.949838 -0.493768 575 0.458372 0.888760 0.000000
-7.696854 -6.949011 -0.490526 561 0.458372 0.888760 0.000000
-7.696421 -6.948621 -0.487300 553 0.458372 0.888760 0.000000
-7.696635 -6.948815 -0.484128 559 0.458372 0.888760 0.000000
-7.697773 -6.949839 -0.481008 591 0.458372 0.888760 0.000000
-7.698250 -6.950282 -0.477843 589 0.458372 0.888760 0.000000
-7.698148 -6.950183 -0.474644 581 0.458372 0.888760 0.000000
-7.698465 -6.950472 -0.471471 587 0.458372 0.888760 0.000000
-7.698680 -6.950666 -0.468289 607 0.458372 0.888760 0.000000
-7.698783 -6.950758 -0.465108 605 0.458372 0.888760 0.000000
-7.698562 -6.950552 -0.461900 613 0.458372 0.888760 0.000000
-7.697466 -6.949566 -0.458650 597 0.458372 0.888760 0.000000
-7.696865 -6.949017 -0.455426 593 0.458372 0.888760 0.000000
-7.696969 -6.949109 -0.452244 605 0.458372 0.888760 0.000000
-7.697390 -6.949493 -0.449071 569 0.458372 0.888760 0.000000
-7.698458 -6.950462 -0.445941 587 0.458372 0.888760 0.000000
-7.698892 -6.950845 -0.442777 573 0.458372 0.888760 0.000000
-7.698554 -6.950544 -0.439570 577 0.458372 0.888760 0.000000
-7.698587 -6.950580 -0.436379 561 0.458372 0.888760 0.000000
-7.698801 -6.950760 -0.433197 587 0.458372 0.888760 0.000000
-7.697435 -6.949533 -0.429940 609 0.458372 0.888760 0.000000
-7.697523 -6.949613 -0.426749 599 0.458372 0.888760 0.000000
-7.698591 -6.950581 -0.423619 569 0.458372 0.888760 0.000000
-7.698956 -6.950908 -0.420446 579 0.458372 0.888760 0.000000
-7.698838 -6.950797 -0.417247 571 0.458372 0.888760 0.000000
-7.698381 -6.950388 -0.414041 557 0.458372 0.888760 0.000000
-7.698200 -6.950227 -0.410832 555 0.458372 0.888760 0.000000
-7.697807 -6.949869 -0.407626 555 0.458372 0.888760 0.000000
-7.697949 -6.949992 -0.404444 577 0.458372 0.888760 0.000000
-7.699064 -6.950998 -0.401314 585 0.458372 0.888760 0.000000
-7.699152 -6.951077 -0.398123 577 0.458372 0.888760 0.000000
-7.698646 -6.950616 -0.394908 575 0.458372 0.888760 0.000000
-7.698618 -6.950603 -0.391718 585 0.458372 0.888760 0.000000
-7.698380 -6.950384 -0.388520 571 0.458372 0.888760 0.000000
-7.698041 -6.950069 -0.385313 547 0.458372 0.888760 0.000000
-7.697631 -6.949698 -0.382107 547 0.458372 0.888760 0.000000
-7.697666 -6.949734 -0.378916 545 0.458372 0.888760 0.000000
-7.698393 -6.950391 -0.375760 569 0.458372 0.888760 0.000000
-7.698638 -6.950610 -0.372587 547 0.458372 0.888760 0.000000
-7.698340 -6.950340 -0.369380 541 0.458372 0.888760 0.000000
-7.697220 -6.949337 -0.366140 541 0.458372 0.888760 0.000000
-7.697742 -6.949802 -0.362975 557 0.458372 0.888760 0.000000
-7.699393 -6.951290 -0.359860 561 0.458372 0.888760 0.000000
-7.699577 -6.951458 -0.356678 589 0.458372 0.888760 0.000000
-7.697815 -6.949863 -0.353414 561 0.458372 0.888760 0.000000
-7.697405 -6.949492 -0.350208 557 0.458372 0.888760 0.000000
-7.697906 -6.949953 -0.347043 577 0.458372 0.888760 0.000000
-7.698095 -6.950114 -0.343862 567 0.458372 0.888760 0.000000
-7.698224 -6.950239 -0.340680 563 0.458372 0.888760 0.000000
-7.699117 -6.951041 -0.337532 555 0.458372 0.888760 0.000000
-7.699623 -6.951495 -0.334358 565 0.458372 0.888760 0.000000
-7.699205 -6.951118 -0.331151 553 0.458372 0.888760 0.000000
-7.699603 -6.951484 -0.327988 559 0.458372 0.888760 0.000000
-7.699294 -6.951194 -0.324780 565 0.458372 0.888760 0.000000
-7.699145 -6.951058 -0.321591 583 0.458372 0.888760 0.000000
-7.699708 -6.951570 -0.318426 591 0.458372 0.888760 0.000000
-7.698799 -6.950747 -0.315195 577 0.458372 0.888760 0.000000
-7.697561 -6.949636 -0.311966 533 0.458372 0.888760 0.000000
-7.700358 -6.947609 -0.701492 539 0.458372 0.888760 0.000000
-7.700186 -6.947453 -0.698273 549 0.458372 0.888760 0.000000
-7.700346 -6.947604 -0.695092 529 0.458372 0.888760 0.000000
-7.700290 -6.947543 -0.691882 521 0.458372 0.888760 0.000000
-7.700331 -6.947585 -0.688692 533 0.458372 0.888760 0.000000
-7.700592 -6.947816 -0.685509 549 0.458372 0.888760 0.000000
-7.700419 -6.947661 -0.682301 543 0.458372 0.888760 0.000000
-7.699646 -6.946960 -0.679038 529 0.458372 0.888760 0.000000
-7.699964 -6.947249 -0.675865 527 0.458372 0.888760 0.000000
-7.701300 -6.948458 -0.672782 521 0.458372 0.888760 0.000000
-7.701672 -6.948791 -0.669619 535 0.458372 0.888760 0.000000
-7.701112 -6.948287 -0.666364 537 0.458372 0.888760 0.000000
-7.700828 -6.948030 -0.663147 551 0.458372 0.888760 0.000000
-7.699952 -6.947234 -0.659875 501 0.458372 0.888760 0.000000
-7.699392 -6.946730 -0.656630 499 0.458372 0.888760 0.000000
-7.699915 -6.947210 -0.653475 495 0.458372 0.888760 0.000000
-7.700066 -6.947340 -0.650293 477 0.458372 0.888760 0.000000
-7.700256 -6.947515 -0.647111 487 0.458372 0.888760 0.000000
-7.700511 -6.947740 -0.643939 493 0.458372 0.888760 0.000000
-7.700165 -6.947433 -0.640712 491 0.458372 0.888760 0.000000
-7.699824 -6.947118 -0.637485 507 0.458372 0.888760 0.000000
-7.700127 -6.947395 -0.634312 507 0.458372 0.888760 0.000000
-7.700594 -6.947818 -0.631158 501 0.458372 0.888760 0.000000
-7.700951 -6.948138 -0.627985 509 0.458372 0.888760 0.000000
-7.701740 -6.948844 -0.624857 519 0.458372 0.888760 0.000000
-7.701878 -6.948976 -0.621666 555 0.458372 0.888760 0.000000
-7.701641 -6.948757 -0.618448 541 0.458372 0.888760 0.000000
-7.701783 -6.948880 -0.615267 547 0.458372 0.888760 0.000000
-7.701373 -6.948509 -0.612040 575 0.458372 0.888760 0.000000
-7.700908 -6.948094 -0.608805 557 0.458372 0.888760 0.000000
-7.700610 -6.947825 -0.605587 563 0.458372 0.888760 0.000000
-7.701448 -6.948584 -0.602460 563 0.458372 0.888760 0.000000
-7.701805 -6.948904 -0.599286 577 0.458372 0.888760 0.000000
-7.700794 -6.947988 -0.596015 591 0.458372 0.888760 0.000000
-7.699736 -6.947033 -0.592745 569 0.458372 0.888760 0.000000
-7.700299 -6.947545 -0.589590 581 0.458372 0.888760 0.000000
-7.701088 -6.948251 -0.586452 561 0.458372 0.888760 0.000000
-7.700568 -6.947779 -0.583217 555 0.458372 0.888760 0.000000
-7.700364 -6.947598 -0.580009 553 0.458372 0.888760 0.000000
-7.701147 -6.948299 -0.576872 555 0.458372 0.888760 0.000000
-7.701977 -6.949051 -0.573734 573 0.458372 0.888760 0.000000
-7.701782 -6.948877 -0.570526 577 0.458372 0.888760 0.000000
-7.700448 -6.947676 -0.567238 581 0.458372 0.888760 0.000000
-7.700519 -6.947729 -0.564047 581 0.458372 0.888760 0.000000
-7.701398 -6.948533 -0.560919 575 0.458372 0.888760 0.000000
-7.701303 -6.948441 -0.557720 561 0.458372 0.888760 0.000000
-7.701108 -6.948267 -0.554512 555 0.458372 0.888760 0.000000
-7.700847 -6.948029 -0.551294 545 0.458372 0.888760 0.000000
-7.701291 -6.948432 -0.548130 563 0.458372 0.888760 0.000000
-7.701314 -6.948447 -0.544940 569 0.458372 0.888760 0.000000
-7.700993 -6.948159 -0.541722 567 0.458372 0.888760 0.000000
-7.701657 -6.948752 -0.538576 569 0.458372 0.888760 0.000000
-7.701453 -6.948572 -0.535368 571 0.458372 0.888760 0.000000
-7.701683 -6.948779 -0.532186 573 0.458372 0.888760 0.000000
-7.701525 -6.948636 -0.528987 569 0.458372 0.888760 0.000000
-7.701265 -6.948398 -0.525780 583 0.458372 0.888760 0.000000
-7.701709 -6.948801 -0.522615 591 0.458372 0.888760 0.000000
-7.701655 -6.948754 -0.519416 579 0.458372 0.888760 0.000000
-7.701885 -6.948961 -0.516234 567 0.458372 0.888760 0.000000
-7.701832 -6.948914 -0.513044 589 0.458372 0.888760 0.000000
-7.702116 -6.949164 -0.509861 597 0.458372 0.888760 0.000000
-7.701897 -6.948971 -0.506663 595 0.458372 0.888760 0.000000
-7.701731 -6.948822 -0.503455 575 0.458372 0.888760 0.000000
-7.702284 -6.949313 -0.500300 563 0.458372 0.888760 0.000000
-7.702445 -6.949463 -0.497118 585 0.458372 0.888760 0.000000
-7.701805 -6.948883 -0.493884 595 0.458372 0.888760 0.000000
-7.701427 -6.948536 -0.490667 567 0.458372 0.888760 0.000000
-7.701254 -6.948382 -0.487459 555 0.458372 0.888760 0.000000
-7.701745 -6.948822 -0.484304 567 0.458372 0.888760 0.000000
-7.702663 -6.949658 -0.481166 577 0.458372 0.888760 0.000000
-7.701794 -6.948868 -0.477924 573 0.458372 0.888760 0.000000
-7.701843 -6.948916 -0.474733 591 0.458372 0.888760 0.000000
-7.703196 -6.950138 -0.471621 603 0.458372 0.888760 0.000000
-7.702816 -6.949791 -0.468404 589 0.458372 0.888760 0.000000
-7.701293 -6.948412 -0.465128 581 0.458372 0.888760 0.000000
-7.701119 -6.948257 -0.461919 589 0.458372 0.888760 0.000000
-7.700955 -6.948109 -0.458721 595 0.458372 0.888760 0.000000
-7.700838 -6.948011 -0.455522 587 0.458372 0.888760 0.000000
-7.701582 -6.948680 -0.452375 593 0.458372 0.888760 0.000000
-7.701954 -6.949013 -0.449201 581 0.458372 0.888760 0.000000
-7.702974 -6.949930 -0.446072 581 0.458372 0.888760 0.000000
-7.703465 -6.950371 -0.442908 587 0.458372 0.888760 0.000000
-7.702036 -6.949080 -0.439631 583 0.458372 0.888760 0.000000
-7.700283 -6.947505 -0.436347 563 0.458372 0.888760 0.000000
-7.701303 -6.948421 -0.433217 561 0.458372 0.888760 0.000000
-7.703027 -6.949979 -0.430111 573 0.458372 0.888760 0.000000
-7.701660 -6.948739 -0.426854 567 0.458372 0.888760 0.000000
-7.700991 -6.948147 -0.423630 573 0.458372 0.888760 0.000000
-7.702231 -6.949253 -0.420498 581 0.458372 0.888760 0.000000
-7.701775 -6.948844 -0.417282 555 0.458372 0.888760 0.000000
-7.701594 -6.948683 -0.414084 577 0.458372 0.888760 0.000000
-7.701089 -6.948223 -0.410869 543 0.458372 0.888760 0.000000
-7.701287 -6.948404 -0.407687 569 0.458372 0.888760 0.000000
-7.701541 -6.948630 -0.404514 589 0.458372 0.888760 0.000000
-7.700862 -6.948018 -0.401290 563 0.458372 0.888760 0.000000
-7.701227 -6.948345 -0.398117 553 0.458372 0.888760 0.000000
-7.701964 -6.949022 -0.394960 551 0.458372 0.888760 0.000000
-7.702810 -6.949772 -0.391812 567 0.458372 0.888760 0.000000
-7.702242 -6.949262 -0.388597 585 0.458372 0.888760 0.000000
-7.701848 -6.948904 -0.385391 563 0.458372 0.888760 0.000000
-7.702355 -6.949371 -0.382226 569 0.458372 0.888760 0.000000
-7.702284 -6.949297 -0.379027 575 0.458372 0.888760 0.000000
-7.702199 -6.949226 -0.375838 571 0.458372 0.888760 0.000000
-7.701735 -6.948811 -0.372622 583 0.458372 0.888760 0.000000
-7.701829 -6.948883 -0.369441 561 0.458372 0.888760 0.000000
-7.703150 -6.950079 -0.366309 569 0.458372 0.888760 0.000000
-7.702905 -6.949853 -0.363111 561 0.458372 0.888760 0.000000
-7.701517 -6.948609 -0.359853 555 0.458372 0.888760 0.000000
-7.701218 -6.948339 -0.356656 553 0.458372 0.888760 0.000000
-7.701401 -6.948508 -0.353474 533 0.458372 0.888760 0.000000
-7.701370 -6.948480 -0.350285 545 0.458372 0.888760 0.000000
-7.702153 -6.949180 -0.347127 569 0.458372 0.888760 0.000000
-7.702667 -6.949640 -0.343963 545 0.458372 0.888760 0.000000
-7.702905 -6.949852 -0.340780 577 0.458372 0.888760 0.000000
-7.703033 -6.949977 -0.337599 585 0.458372 0.888760 0.000000
-7.702456 -6.949447 -0.334384 579 0.458372 0.888760 0.000000
-7.700902 -6.948043 -0.331128 559 0.458372 0.888760 0.000000
-7.701402 -6.948504 -0.327964 561 0.458372 0.888760 0.000000
-7.703100 -6.950028 -0.324848 581 0.458372 0.888760 0.000000
-7.702414 -6.949411 -0.321624 579 0.458372 0.888760 0.000000
-7.701996 -6.949034 -0.318428 569 0.458372 0.888760 0.000000
-7.702274 -6.949292 -0.315246 561 0.458372 0.888760 0.000000
-7.702781 -6.949745 -0.312081 565 0.458372 0.888760 0.000000
-7.703860 -6.946328 -0.701602 533 0.458372 0.888760 0.000000
-7.704082 -6.946528 -0.698430 549 0.458372 0.888760 0.000000
-7.704343 -6.946759 -0.695247 569 0.458372 0.888760 0.000000
-7.704116 -6.946560 -0.692029 551 0.458372 0.888760 0.000000
-7.704654 -6.947039 -0.688874 569 0.458372 0.888760 0.000000
-7.704212 -6.946642 -0.685638 575 0.458372 0.888760 0.000000
-7.704308 -6.946728 -0.682447 545 0.458372 0.888760 0.000000
-7.704791 -6.947163 -0.679293 511 0.458372 0.888760 0.000000
-7.704879 -6.947243 -0.676102 517 0.458372 0.888760 0.000000
-7.704706 -6.947088 -0.672883 535 0.458372 0.888760 0.000000
-7.703726 -6.946196 -0.669602 535 0.458372 0.888760 0.000000
-7.703546 -6.946034 -0.666394 531 0.458372 0.888760 0.000000
-7.704669 -6.947046 -0.663283 523 0.458372 0.888760 0.000000
-7.704165 -6.946600 -0.660048 521 0.458372 0.888760 0.000000
-7.702958 -6.945513 -0.656749 499 0.458372 0.888760 0.000000
-7.703431 -6.945928 -0.653585 509 0.458372 0.888760 0.000000
-7.704437 -6.946845 -0.650475 505 0.458372 0.888760 0.000000
-7.703987 -6.946430 -0.647239 497 0.458372 0.888760 0.000000
-7.702835 -6.945400 -0.643950 493 0.458372 0.888760 0.000000
-7.703081 -6.945619 -0.640767 477 0.458372 0.888760 0.000000
-7.704575 -6.946967 -0.637694 519 0.458372 0.888760 0.000000
-7.703905 -6.946362 -0.634440 543 0.458372 0.888760 0.000000
-7.703131 -6.945660 -0.631187 533 0.458372 0.888760 0.000000
-7.702832 -6.945391 -0.627959 511 0.458372 0.888760 0.000000
-7.703568 -6.946054 -0.624823 539 0.458372 0.888760 0.000000
-7.704580 -6.946965 -0.621713 549 0.458372 0.888760 0.000000
-7.704446 -6.946840 -0.618504 555 0.458372 0.888760 0.000000
-7.704851 -6.947213 -0.615341 565 0.458372 0.888760 0.000000
-7.705696 -6.947963 -0.612203 569 0.458372 0.888760 0.000000
-7.705239 -6.947555 -0.608977 553 0.458372 0.888760 0.000000
-7.704181 -6.946600 -0.605697 559 0.458372 0.888760 0.000000
-7.704088 -6.946522 -0.602487 563 0.458372 0.888760 0.000000
-7.704334 -6.946741 -0.599315 549 0.458372 0.888760 0.000000
-7.704043 -6.946478 -0.596098 557 0.458372 0.888760 0.000000
-7.704335 -6.946734 -0.592925 589 0.458372 0.888760 0.000000
-7.703546 -6.946021 -0.589672 571 0.458372 0.888760 0.000000
-7.703130 -6.945658 -0.586446 559 0.458372 0.888760 0.000000
-7.703691 -6.946155 -0.583291 549 0.458372 0.888760 0.000000
-7.704261 -6.946673 -0.580135 563 0.458372 0.888760 0.000000
-7.704499 -6.946885 -0.576953 589 0.458372 0.888760 0.000000
-7.703598 -6.946070 -0.573701 577 0.458372 0.888760 0.000000
-7.703174 -6.945687 -0.570475 573 0.458372 0.888760 0.000000
-7.703901 -6.946343 -0.567328 583 0.458372 0.888760 0.000000
-7.704787 -6.947139 -0.564200 573 0.458372 0.888760 0.000000
-7.705239 -6.947549 -0.561036 567 0.458372 0.888760 0.000000
-7.704117 -6.946530 -0.557756 533 0.458372 0.888760 0.000000
-7.704078 -6.946496 -0.554566 563 0.458372 0.888760 0.000000
-7.704633 -6.947001 -0.551411 551 0.458372 0.888760 0.000000
-7.703939 -6.946377 -0.548168 541 0.458372 0.888760 0.000000
-7.703686 -6.946145 -0.544950 547 0.458372 0.888760 0.000000
-7.704185 -6.946592 -0.541795 547 0.458372 0.888760 0.000000
-7.705062 -6.947382 -0.538657 537 0.458372 0.888760 0.000000
-7.705293 -6.947588 -0.535485 561 0.458372 0.888760 0.000000
-7.705089 -6.947408 -0.532277 561 0.458372 0.888760 0.000000
-7.704767 -6.947120 -0.529059 563 0.458372 0.888760 0.000000
-7.703796 -6.946249 -0.525798 561 0.458372 0.888760 0.000000
-7.703750 -6.946208 -0.522599 561 0.458372 0.888760 0.000000
-7.703490 -6.945970 -0.519391 565 0.458372 0.888760 0.000000
-7.703325 -6.945821 -0.516192 553 0.458372 0.888760 0.000000
-7.703279 -6.945780 -0.512993 561 0.458372 0.888760 0.000000
-7.703342 -6.945827 -0.509802 567 0.458372 0.888760 0.000000
-7.703344 -6.945838 -0.506612 571 0.458372 0.888760 0.000000
-7.703897 -6.946329 -0.503457 577 0.458372 0.888760 0.000000
-7.704760 -6.947106 -0.500319 557 0.458372 0.888760 0.000000
-7.704871 -6.947205 -0.497128 573 0.458372 0.888760 0.000000
-7.703735 -6.946187 -0.493868 587 0.458372 0.888760 0.000000
-7.704281 -6.946672 -0.490703 577 0.458372 0.888760 0.000000
-7.705806 -6.948045 -0.487609 571 0.458372 0.888760 0.000000
-7.705042 -6.947365 -0.484366 565 0.458372 0.888760 0.000000
-7.703959 -6.946378 -0.481116 565 0.458372 0.888760 0.000000
-7.705043 -6.947359 -0.477986 579 0.458372 0.888760 0.000000
-7.705691 -6.947938 -0.474830 579 0.458372 0.888760 0.000000
-7.704919 -6.947252 -0.471597 589 0.458372 0.888760 0.000000
-7.703774 -6.946215 -0.468337 577 0.458372 0.888760 0.000000
-7.704533 -6.946896 -0.465180 597 0.458372 0.888760 0.000000
-7.705713 -6.947966 -0.462059 607 0.458372 0.888760 0.000000
-7.704892 -6.947227 -0.458827 611 0.458372 0.888760 0.000000
-7.703099 -6.945607 -0.455523 583 0.458372 0.888760 0.000000
-7.703307 -6.945795 -0.452351 555 0.458372 0.888760 0.000000
-7.704981 -6.947300 -0.449256 543 0.458372 0.888760 0.000000
-7.704872 -6.947196 -0.446057 549 0.458372 0.888760 0.000000
-7.704360 -6.946743 -0.442831 573 0.458372 0.888760 0.000000
-7.704566 -6.946931 -0.439659 569 0.458372 0.888760 0.000000
-7.704724 -6.947067 -0.436468 569 0.458372 0.888760 0.000000
-7.705137 -6.947445 -0.433304 555 0.458372 0.888760 0.000000
-7.704157 -6.946553 -0.430063 565 0.458372 0.888760 0.000000
-7.704142 -6.946537 -0.426863 573 0.458372 0.888760 0.000000
-7.705266 -6.947550 -0.423733 589 0.458372 0.888760 0.000000
-7.705686 -6.947934 -0.420569 567 0.458372 0.888760 0.000000
-7.704747 -6.947087 -0.417327 543 0.458372 0.888760 0.000000
-7.704669 -6.947021 -0.414128 551 0.458372 0.888760 0.000000
-7.705681 -6.947932 -0.410998 565 0.458372 0.888760 0.000000
-7.705122 -6.947428 -0.407773 579 0.458372 0.888760 0.000000
-7.704072 -6.946480 -0.404533 573 0.458372 0.888760 0.000000
-7.704214 -6.946603 -0.401352 545 0.458372 0.888760 0.000000
-7.705338 -6.947616 -0.398211 573 0.458372 0.888760 0.000000
-7.705371 -6.947651 -0.395021 579 0.458372 0.888760 0.000000
-7.704969 -6.947287 -0.391814 551 0.458372 0.888760 0.000000
-7.705049 -6.947360 -0.388624 551 0.458372 0.888760 0.000000
-7.705302 -6.947585 -0.385451 555 0.458372 0.888760 0.000000
-7.705548 -6.947804 -0.382269 557 0.458372 0.888760 0.000000
-7.706449 -6.948612 -0.379121 545 0.458372 0.888760 0.000000
-7.706150 -6.948343 -0.375923 561 0.458372 0.888760 0.000000
-7.704713 -6.947046 -0.372666 545 0.458372 0.888760 0.000000
-7.704145 -6.946536 -0.369442 525 0.458372 0.888760 0.000000
-7.704708 -6.947047 -0.366286 553 0.458372 0.888760 0.000000
-7.704954 -6.947266 -0.363104 551 0.458372 0.888760 0.000000
-7.704219 -6.946597 -0.359881 531 0.458372 0.888760 0.000000
-7.704299 -6.946670 -0.356700 539 0.458372 0.888760 0.000000
-7.705187 -6.947480 -0.353542 557 0.458372 0.888760 0.000000
-7.705812 -6.948041 -0.350386 557 0.458372 0.888760 0.000000
-7.705827 -6.948050 -0.347196 575 0.458372 0.888760 0.000000
-7.704984 -6.947293 -0.343963 553 0.458372 0.888760 0.000000
-7.706462 -6.948629 -0.340840 581 0.458372 0.888760 0.000000
-7.706865 -6.948987 -0.337666 567 0.458372 0.888760 0.000000
-7.705421 -6.947684 -0.334419 569 0.458372 0.888760 0.000000
-7.705556 -6.947802 -0.331238 583 0.458372 0.888760 0.000000
-7.706214 -6.948402 -0.328072 577 0.458372 0.888760 0.000000
-7.705907 -6.948126 -0.324874 581 0.458372 0.888760 0.000000
-7.705110 -6.947407 -0.321652 569 0.458372 0.888760 0.000000
-7.705678 -6.947910 -0.318486 567 0.458372 0.888760 0.000000
-7.706068 -6.948270 -0.315313 543 0.458372 0.888760 0.000000
-7.706456 -6.948615 -0.312139 567 0.458372 0.888760 0.000000
-7.707086 -6.945056 -0.701713 553 0.458372 0.888760 0.000000
-7.706864 -6.944849 -0.698485 555 0.458372 0.888760 0.000000
-7.706968 -6.944942 -0.695294 541 0.458372 0.888760 0.000000
-7.707767 -6.945668 -0.692166 557 0.458372 0.888760 0.000000
-7.707381 -6.945317 -0.688940 573 0.458372 0.888760 0.000000
-7.707373 -6.945306 -0.685730 557 0.458372 0.888760 0.000000
-7.706553 -6.944568 -0.682467 539 0.458372 0.888760 0.000000
-7.706648 -6.944654 -0.679276 531 0.458372 0.888760 0.000000
-7.706634 -6.944638 -0.676076 523 0.458372 0.888760 0.000000
-7.706517 -6.944541 -0.672867 537 0.458372 0.888760 0.000000
-7.707102 -6.945057 -0.669712 567 0.458372 0.888760 0.000000
-7.707357 -6.945296 -0.666539 551 0.458372 0.888760 0.000000
-7.707832 -6.945724 -0.663375 539 0.458372 0.888760 0.000000
-7.707438 -6.945366 -0.660149 525 0.458372 0.888760 0.000000
-7.705953 -6.944031 -0.656822 485 0.458372 0.888760 0.000000
-7.706215 -6.944263 -0.653650 491 0.458372 0.888760 0.000000
-7.707661 -6.945559 -0.650566 513 0.458372 0.888760 0.000000
-7.707267 -6.945201 -0.647340 509 0.458372 0.888760 0.000000
-7.706487 -6.944508 -0.644077 491 0.458372 0.888760 0.000000
-7.705918 -6.943997 -0.640832 481 0.458372 0.888760 0.000000
-7.705848 -6.943924 -0.637633 527 0.458372 0.888760 0.000000
-7.706212 -6.944251 -0.634459 511 0.458372 0.888760 0.000000
-7.706403 -6.944426 -0.631278 517 0.458372 0.888760 0.000000
-7.706705 -6.944703 -0.628105 521 0.458372 0.888760 0.000000
-7.706522 -6.944527 -0.624896 543 0.458372 0.888760 0.000000
-7.706335 -6.944359 -0.621688 553 0.458372 0.888760 0.000000
-7.707070 -6.945023 -0.618541 551 0.458372 0.888760 0.000000
-7.707538 -6.945445 -0.615387 565 0.458372 0.888760 0.000000
-7.707293 -6.945220 -0.612169 583 0.458372 0.888760 0.000000
-7.706663 -6.944659 -0.608925 595 0.458372 0.888760 0.000000
-7.706806 -6.944782 -0.605733 567 0.458372 0.888760 0.000000
-7.706824 -6.944806 -0.602543 559 0.458372 0.888760 0.000000
-7.706793 -6.944778 -0.599343 555 0.458372 0.888760 0.000000
-7.706659 -6.944654 -0.596134 603 0.458372 0.888760 0.000000
-7.706195 -6.944239 -0.592909 603 0.458372 0.888760 0.000000
-7.706811 -6.944794 -0.589763 597 0.458372 0.888760 0.000000
-7.707223 -6.945158 -0.586589 593 0.458372 0.888760 0.000000
-7.707081 -6.945028 -0.583390 577 0.458372 0.888760 0.000000
-7.706774 -6.944753 -0.580173 573 0.458372 0.888760 0.000000
-7.706909 -6.944870 -0.576982 577 0.458372 0.888760 0.000000
-7.706594 -6.944588 -0.573764 571 0.458372 0.888760 0.000000
-7.706612 -6.944612 -0.570574 571 0.458372 0.888760 0.000000
-7.708154 -6.945997 -0.567490 607 0.458372 0.888760 0.000000
-7.708604 -6.946393 -0.564326 597 0.458372 0.888760 0.000000
-7.707800 -6.945681 -0.561073 577 0.458372 0.888760 0.000000
-7.706900 -6.944866 -0.557811 545 0.458372 0.888760 0.000000
-7.707027 -6.944976 -0.554630 543 0.458372 0.888760 0.000000
-7.707961 -6.945824 -0.551491 551 0.458372 0.888760 0.000000
-7.707598 -6.945491 -0.548275 547 0.458372 0.888760 0.000000
-7.707503 -6.945398 -0.545076 533 0.458372 0.888760 0.000000
-7.707782 -6.945656 -0.541903 533 0.458372 0.888760 0.000000
-7.708075 -6.945913 -0.538720 555 0.458372 0.888760 0.000000
-7.708296 -6.946112 -0.535548 555 0.458372 0.888760 0.000000
-7.708030 -6.945882 -0.532330 561 0.458372 0.888760 0.000000
-7.707770 -6.945645 -0.529123 553 0.458372 0.888760 0.000000
-7.707675 -6.945552 -0.525923 555 0.458372 0.888760 0.000000
-7.706808 -6.944776 -0.522671 565 0.458372 0.888760 0.000000
-7.706548 -6.944538 -0.519454 561 0.458372 0.888760 0.000000
-7.707418 -6.945322 -0.516326 581 0.458372 0.888760 0.000000
-7.707862 -6.945725 -0.513161 593 0.458372 0.888760 0.000000
-7.706781 -6.944752 -0.509891 565 0.458372 0.888760 0.000000
-7.706072 -6.944115 -0.506658 579 0.458372 0.888760 0.000000
-7.706949 -6.944905 -0.503520 559 0.458372 0.888760 0.000000
-7.708261 -6.946081 -0.500408 563 0.458372 0.888760 0.000000
-7.708537 -6.946325 -0.497235 589 0.458372 0.888760 0.000000
-7.707766 -6.945638 -0.493992 581 0.458372 0.888760 0.000000
-7.707284 -6.945197 -0.490766 559 0.458372 0.888760 0.000000
-7.707065 -6.945004 -0.487558 579 0.458372 0.888760 0.000000
-7.707119 -6.945045 -0.484368 577 0.458372 0.888760 0.000000
-7.707721 -6.945587 -0.481212 577 0.458372 0.888760 0.000000
-7.708743 -6.946517 -0.478083 589 0.458372 0.888760 0.000000
-7.708411 -6.946209 -0.474866 579 0.458372 0.888760 0.000000
-7.706943 -6.944888 -0.471589 571 0.458372 0.888760 0.000000
-7.706019 -6.944054 -0.468347 561 0.458372 0.888760 0.000000
-7.707261 -6.945173 -0.465226 597 0.458372 0.888760 0.000000
-7.707854 -6.945710 -0.462070 601 0.458372 0.888760 0.000000
-7.706268 -6.944280 -0.458785 593 0.458372 0.888760 0.000000
-7.705826 -6.943884 -0.455569 571 0.458372 0.888760 0.000000
-7.706909 -6.944851 -0.452439 567 0.458372 0.888760 0.000000
-7.707439 -6.945337 -0.449274 565 0.458372 0.888760 0.000000
