217
-21.976650 -21.076975 -0.460085 243 0.130895 0.991396 0.000000
-21.977009 -21.077324 -0.375910 241 0.130895 0.991396 0.000000
-21.986927 -21.074875 -0.647293 259 0.130895 0.991396 0.000000
-21.981627 -21.069792 -0.637783 211 0.130895 0.991396 0.000000
-21.983822 -21.071899 -0.628491 175 0.130895 0.991396 0.000000
-21.983603 -21.071692 -0.619133 187 0.130895 0.991396 0.000000
-21.983356 -21.071465 -0.609765 201 0.130895 0.991396 0.000000
-21.986925 -21.074879 -0.600511 217 0.130895 0.991396 0.000000
-21.990391 -21.078199 -0.591249 175 0.130895 0.991396 0.000000
-21.988197 -21.076094 -0.581829 217 0.130895 0.991396 0.000000
-21.985994 -21.073997 -0.572420 219 0.130895 0.991396 0.000000
-21.986013 -21.074015 -0.563059 225 0.130895 0.991396 0.000000
-21.986197 -21.074183 -0.553717 223 0.130895 0.991396 0.000000
-21.983082 -21.071211 -0.544276 215 0.130895 0.991396 0.000000
-21.983843 -21.071934 -0.534939 219 0.130895 0.991396 0.000000
-21.987606 -21.075539 -0.525683 209 0.130895 0.991396 0.000000
-21.983593 -21.071705 -0.516231 217 0.130895 0.991396 0.000000
-21.980221 -21.068466 -0.506793 213 0.130895 0.991396 0.000000
-21.980444 -21.068680 -0.497450 207 0.130895 0.991396 0.000000
-21.984467 -21.072535 -0.488182 241 0.130895 0.991396 0.000000
-21.986206 -21.074203 -0.478865 241 0.130895 0.991396 0.000000
-21.983200 -21.071321 -0.469454 241 0.130895 0.991396 0.000000
-21.982080 -21.070253 -0.460074 261 0.130895 0.991396 0.000000
-21.982500 -21.070652 -0.450730 221 0.130895 0.991396 0.000000
-21.981802 -21.069984 -0.441366 237 0.130895 0.991396 0.000000
-21.980947 -21.069176 -0.431994 225 0.130895 0.991396 0.000000
-21.982943 -21.071089 -0.422675 239 0.130895 0.991396 0.000000
-21.981192 -21.069405 -0.413291 237 0.130895 0.991396 0.000000
-21.983130 -21.071262 -0.403973 223 0.130895 0.991396 0.000000
-21.986019 -21.074038 -0.394675 267 0.130895 0.991396 0.000000
-21.985565 -21.073608 -0.385309 263 0.130895 0.991396 0.000000
-21.985344 -21.073389 -0.375951 235 0.130895 0.991396 0.000000
-21.983614 -21.071735 -0.366577 201 0.130895 0.991396 0.000000
-21.983814 -21.071930 -0.357225 197 0.130895 0.991396 0.000000
-21.982454 -21.070633 -0.347848 201 0.130895 0.991396 0.000000
-21.984283 -21.072386 -0.338530 191 0.130895 0.991396 0.000000
-21.986252 -21.074268 -0.329201 181 0.130895 0.991396 0.000000
-21.984745 -21.072823 -0.319825 233 0.130895 0.991396 0.000000
-21.990091 -21.077950 -0.310545 239 0.130895 0.991396 0.000000
-21.987200 -21.075176 -0.301152 219 0.130895 0.991396 0.000000
-21.982988 -21.071152 -0.291741 213 0.130895 0.991396 0.000000
-21.985058 -21.073130 -0.282421 205 0.130895 0.991396 0.000000
-21.985279 -21.073341 -0.273069 173 0.130895 0.991396 0.000000
-21.986603 -21.074610 -0.263736 185 0.130895 0.991396 0.000000
-21.986879 -21.074879 -0.254384 145 0.130895 0.991396 0.000000
-21.999622 -21.074217 -0.647487 221 0.130895 0.991396 0.000000
-21.996864 -21.071568 -0.638043 213 0.130895 0.991396 0.000000
-21.998739 -21.073372 -0.628745 183 0.130895 0.991396 0.000000
-21.996130 -21.070871 -0.619310 189 0.130895 0.991396 0.000000
-21.995052 -21.069836 -0.609920 181 0.130895 0.991396 0.000000
-21.996864 -21.071575 -0.600612 205 0.130895 0.991396 0.000000
-21.997749 -21.072428 -0.591284 209 0.130895 0.991396 0.000000
-21.998558 -21.073202 -0.581946 185 0.130895 0.991396 0.000000
-22.001705 -21.076218 -0.572666 217 0.130895 0.991396 0.000000
-21.999777 -21.074358 -0.563254 211 0.130895 0.991396 0.000000
-21.995241 -21.070028 -0.553786 189 0.130895 0.991396 0.000000
-21.994301 -21.069120 -0.544405 217 0.130895 0.991396 0.000000
-21.994219 -21.069040 -0.535046 217 0.130895 0.991396 0.000000
-21.996454 -21.071182 -0.525744 245 0.130895 0.991396 0.000000
-21.997145 -21.071848 -0.516398 201 0.130895 0.991396 0.000000
-21.995831 -21.070591 -0.507010 183 0.130895 0.991396 0.000000
-21.993462 -21.068317 -0.497602 221 0.130895 0.991396 0.000000
-21.990715 -21.065687 -0.488188 239 0.130895 0.991396 0.000000
-21.991709 -21.066647 -0.478858 237 0.130895 0.991396 0.000000
-21.996681 -21.071405 -0.469611 209 0.130895 0.991396 0.000000
-22.000336 -21.074907 -0.460326 279 0.130895 0.991396 0.000000
-21.999060 -21.073683 -0.450938 271 0.130895 0.991396 0.000000
-21.996672 -21.071390 -0.441540 263 0.130895 0.991396 0.000000
-21.994921 -21.069719 -0.432147 237 0.130895 0.991396 0.000000
-21.995384 -21.070158 -0.422802 219 0.130895 0.991396 0.000000
-21.998541 -21.073193 -0.413502 239 0.130895 0.991396 0.000000
-21.995346 -21.070129 -0.404092 239 0.130895 0.991396 0.000000
-21.992964 -21.067842 -0.394684 267 0.130895 0.991396 0.000000
-21.992624 -21.067524 -0.385327 265 0.130895 0.991396 0.000000
-21.994034 -21.068876 -0.376004 231 0.130895 0.991396 0.000000
-21.997492 -21.072189 -0.366701 231 0.130895 0.991396 0.000000
-21.995827 -21.070587 -0.357316 219 0.130895 0.991396 0.000000
-21.994061 -21.068892 -0.347933 201 0.130895 0.991396 0.000000
-21.996450 -21.071188 -0.338620 211 0.130895 0.991396 0.000000
-21.995590 -21.070356 -0.329248 231 0.130895 0.991396 0.000000
-21.994284 -21.069107 -0.319880 219 0.130895 0.991396 0.000000
-21.997890 -21.072569 -0.310576 205 0.130895 0.991396 0.000000
-21.999285 -21.073908 -0.301232 197 0.130895 0.991396 0.000000
-21.996544 -21.071283 -0.291848 207 0.130895 0.991396 0.000000
-21.993599 -21.068455 -0.282446 201 0.130895 0.991396 0.000000
-21.993025 -21.067904 -0.273091 181 0.130895 0.991396 0.000000
-21.992023 -21.066944 -0.263720 205 0.130895 0.991396 0.000000
-21.995880 -21.070652 -0.254413 195 0.130895 0.991396 0.000000
-22.008152 -21.069742 -0.647550 219 0.130895 0.991396 0.000000
-22.008928 -21.070490 -0.638213 213 0.130895 0.991396 0.000000
-22.005579 -21.067287 -0.628764 221 0.130895 0.991396 0.000000
-22.006037 -21.067719 -0.619410 195 0.130895 0.991396 0.000000
-22.010454 -21.071957 -0.610178 179 0.130895 0.991396 0.000000
-22.011543 -21.072989 -0.600847 175 0.130895 0.991396 0.000000
-22.013941 -21.075293 -0.591544 219 0.130895 0.991396 0.000000
-22.015553 -21.076839 -0.582229 181 0.130895 0.991396 0.000000
-22.012196 -21.073614 -0.572780 185 0.130895 0.991396 0.000000
-22.009945 -21.071465 -0.563361 207 0.130895 0.991396 0.000000
-22.009644 -21.071178 -0.553994 179 0.130895 0.991396 0.000000
-22.008596 -21.070181 -0.544604 205 0.130895 0.991396 0.000000
-22.007931 -21.069538 -0.535230 221 0.130895 0.991396 0.000000
-22.009579 -21.071115 -0.525904 239 0.130895 0.991396 0.000000
-22.013069 -21.074453 -0.516631 237 0.130895 0.991396 0.000000
-22.013027 -21.074421 -0.507271 219 0.130895 0.991396 0.000000
-22.010286 -21.071798 -0.497847 237 0.130895 0.991396 0.000000
-22.009926 -21.071447 -0.488480 249 0.130895 0.991396 0.000000
-22.011192 -21.072657 -0.479148 253 0.130895 0.991396 0.000000
-22.011194 -21.072660 -0.469787 259 0.130895 0.991396 0.000000
-22.007698 -21.069321 -0.460350 253 0.130895 0.991396 0.000000
-22.008278 -21.069866 -0.451005 253 0.130895 0.991396 0.000000
-22.012447 -21.073860 -0.441735 263 0.130895 0.991396 0.000000
-22.009790 -21.071321 -0.432320 277 0.130895 0.991396 0.000000
-22.007038 -21.068687 -0.422906 235 0.130895 0.991396 0.000000
-22.007757 -21.069378 -0.413559 195 0.130895 0.991396 0.000000
-22.007799 -21.069416 -0.404208 245 0.130895 0.991396 0.000000
-22.004871 -21.066612 -0.394795 255 0.130895 0.991396 0.000000
-22.001314 -21.063208 -0.385379 253 0.130895 0.991396 0.000000
-22.002884 -21.064707 -0.376044 237 0.130895 0.991396 0.000000
-22.007023 -21.068670 -0.366764 231 0.130895 0.991396 0.000000
-22.009546 -21.071093 -0.357440 207 0.130895 0.991396 0.000000
-22.008505 -21.070099 -0.348070 227 0.130895 0.991396 0.000000
-22.006159 -21.067846 -0.338672 207 0.130895 0.991396 0.000000
-22.006384 -21.068071 -0.329320 213 0.130895 0.991396 0.000000
-22.005615 -21.067333 -0.319957 227 0.130895 0.991396 0.000000
-22.005470 -21.067188 -0.310598 207 0.130895 0.991396 0.000000
-22.008970 -21.070547 -0.301284 221 0.130895 0.991396 0.000000
-22.008614 -21.070202 -0.291928 219 0.130895 0.991396 0.000000
-22.006411 -21.068090 -0.282538 205 0.130895 0.991396 0.000000
-22.005785 -21.067493 -0.273174 171 0.130895 0.991396 0.000000
-22.007215 -21.068865 -0.263830 183 0.130895 0.991396 0.000000
-22.005634 -21.067348 -0.254455 193 0.130895 0.991396 0.000000
-22.021389 -21.069780 -0.647759 217 0.130895 0.991396 0.000000
-22.021898 -21.070269 -0.638414 227 0.130895 0.991396 0.000000
-22.021511 -21.069899 -0.629037 181 0.130895 0.991396 0.000000
-22.021072 -21.069483 -0.619661 215 0.130895 0.991396 0.000000
-22.022308 -21.070667 -0.610339 171 0.130895 0.991396 0.000000
-22.018476 -21.066998 -0.600865 155 0.130895 0.991396 0.000000
-22.017933 -21.066469 -0.591490 211 0.130895 0.991396 0.000000
-22.018595 -21.067110 -0.582144 143 0.130895 0.991396 0.000000
-22.021311 -21.069704 -0.572858 167 0.130895 0.991396 0.000000
-22.021120 -21.069521 -0.563490 197 0.130895 0.991396 0.000000
-22.018652 -21.067163 -0.554063 235 0.130895 0.991396 0.000000
-22.019352 -21.067835 -0.544716 245 0.130895 0.991396 0.000000
-22.018044 -21.066584 -0.535328 211 0.130895 0.991396 0.000000
-22.020802 -21.069223 -0.526032 217 0.130895 0.991396 0.000000
-22.019550 -21.068018 -0.516643 217 0.130895 0.991396 0.000000
-22.016754 -21.065351 -0.507209 209 0.130895 0.991396 0.000000
-22.016922 -21.065504 -0.497858 203 0.130895 0.991396 0.000000
-22.020405 -21.068836 -0.488575 223 0.130895 0.991396 0.000000
-22.020027 -21.068485 -0.479208 235 0.130895 0.991396 0.000000
-22.018766 -21.067274 -0.469820 257 0.130895 0.991396 0.000000
-22.019138 -21.067635 -0.460466 235 0.130895 0.991396 0.000000
-22.019329 -21.067822 -0.451104 263 0.130895 0.991396 0.000000
-22.021721 -21.070105 -0.441791 211 0.130895 0.991396 0.000000
-22.019697 -21.068169 -0.432390 245 0.130895 0.991396 0.000000
-22.019264 -21.067759 -0.423024 255 0.130895 0.991396 0.000000
-22.018301 -21.066833 -0.413643 255 0.130895 0.991396 0.000000
-22.018127 -21.066664 -0.404284 261 0.130895 0.991396 0.000000
-22.022068 -21.070440 -0.394997 265 0.130895 0.991396 0.000000
-22.024538 -21.072802 -0.385673 231 0.130895 0.991396 0.000000
-22.019861 -21.068329 -0.376237 241 0.130895 0.991396 0.000000
-22.015984 -21.064619 -0.366803 201 0.130895 0.991396 0.000000
-22.016968 -21.065556 -0.357464 221 0.130895 0.991396 0.000000
-22.021170 -21.069574 -0.348174 207 0.130895 0.991396 0.000000
-22.022343 -21.070705 -0.338833 195 0.130895 0.991396 0.000000
-22.021372 -21.069771 -0.329452 199 0.130895 0.991396 0.000000
-22.020496 -21.068928 -0.320080 191 0.130895 0.991396 0.000000
-22.024048 -21.072332 -0.310776 209 0.130895 0.991396 0.000000
-22.025173 -21.073410 -0.301425 233 0.130895 0.991396 0.000000
-22.021904 -21.070284 -0.292016 215 0.130895 0.991396 0.000000
-22.017954 -21.066502 -0.282613 207 0.130895 0.991396 0.000000
-22.015369 -21.064035 -0.273217 205 0.130895 0.991396 0.000000
-22.020763 -21.069199 -0.263926 203 0.130895 0.991396 0.000000
-22.021250 -21.069656 -0.254571 165 0.130895 0.991396 0.000000
-22.036709 -21.071548 -0.648029 217 0.130895 0.991396 0.000000
-22.037220 -21.072037 -0.638674 217 0.130895 0.991396 0.000000
-22.033545 -21.068523 -0.629199 199 0.130895 0.991396 0.000000
-22.034538 -21.069479 -0.619869 199 0.130895 0.991396 0.000000
-22.033192 -21.068182 -0.610462 167 0.130895 0.991396 0.000000
-22.029415 -21.064583 -0.600997 145 0.130895 0.991396 0.000000
-22.028919 -21.064096 -0.591612 185 0.130895 0.991396 0.000000
-22.031311 -21.066393 -0.582319 171 0.130895 0.991396 0.000000
-22.030800 -21.065907 -0.572943 213 0.130895 0.991396 0.000000
-22.031725 -21.066792 -0.563594 229 0.130895 0.991396 0.000000
-22.031479 -21.066549 -0.554226 241 0.130895 0.991396 0.000000
-22.033501 -21.068491 -0.544917 223 0.130895 0.991396 0.000000
-22.037069 -21.071890 -0.535633 239 0.130895 0.991396 0.000000
-22.034750 -21.069683 -0.526215 213 0.130895 0.991396 0.000000
-22.033382 -21.068371 -0.516818 229 0.130895 0.991396 0.000000
-22.035719 -21.070608 -0.507505 221 0.130895 0.991396 0.000000
-22.036938 -21.071775 -0.498164 197 0.130895 0.991396 0.000000
-22.032194 -21.067232 -0.488698 211 0.130895 0.991396 0.000000
-22.031870 -21.066925 -0.479321 247 0.130895 0.991396 0.000000
-22.033030 -21.068033 -0.469990 219 0.130895 0.991396 0.000000
-22.031286 -21.066368 -0.460586 211 0.130895 0.991396 0.000000
-22.033499 -21.068489 -0.451265 225 0.130895 0.991396 0.000000
-22.032761 -21.067774 -0.441892 225 0.130895 0.991396 0.000000
-22.030247 -21.065380 -0.432475 233 0.130895 0.991396 0.000000
-22.029446 -21.064615 -0.423103 217 0.130895 0.991396 0.000000
-22.030237 -21.065363 -0.413755 261 0.130895 0.991396 0.000000
-22.032013 -21.067072 -0.404428 227 0.130895 0.991396 0.000000
-22.032000 -21.067051 -0.395058 231 0.130895 0.991396 0.000000
-22.032139 -21.067192 -0.385696 215 0.130895 0.991396 0.000000
-22.031168 -21.066259 -0.376315 201 0.130895 0.991396 0.000000
-22.033268 -21.068262 -0.366995 213 0.130895 0.991396 0.000000
-22.033079 -21.068081 -0.357627 241 0.130895 0.991396 0.000000
-22.029869 -21.065020 -0.348217 209 0.130895 0.991396 0.000000
-22.030792 -21.065903 -0.338868 195 0.130895 0.991396 0.000000
-22.029814 -21.064962 -0.329487 221 0.130895 0.991396 0.000000
-22.030890 -21.066000 -0.320147 187 0.130895 0.991396 0.000000
-22.033449 -21.068436 -0.310822 201 0.130895 0.991396 0.000000
-22.033945 -21.068913 -0.301457 233 0.130895 0.991396 0.000000
-22.035961 -21.070847 -0.292128 245 0.130895 0.991396 0.000000
-22.034967 -21.069895 -0.282747 219 0.130895 0.991396 0.000000
-22.035393 -21.070299 -0.273393 257 0.130895 0.991396 0.000000
-22.031904 -21.066967 -0.263986 211 0.130895 0.991396 0.000000
-22.029911 -21.065056 -0.254604 211 0.130895 0.991396 0.000000
