155
-29.132933 -28.117695 -0.673347 195 0.265778 0.964034 0.000000
-29.138601 -28.123169 -0.661043 233 0.265778 0.964034 0.000000
-29.145260 -28.129602 -0.648749 235 0.265778 0.964034 0.000000
-29.142769 -28.127193 -0.636253 221 0.265778 0.964034 0.000000
-29.143600 -28.127987 -0.623824 247 0.265778 0.964034 0.000000
-29.140947 -28.125431 -0.611329 267 0.265778 0.964034 0.000000
-29.139866 -28.124395 -0.598869 249 0.265778 0.964034 0.000000
-29.139330 -28.123863 -0.586414 263 0.265778 0.964034 0.000000
-29.134607 -28.119320 -0.573889 265 0.265778 0.964034 0.000000
-29.136845 -28.121469 -0.561497 231 0.265778 0.964034 0.000000
-29.133587 -28.118328 -0.548998 253 0.265778 0.964034 0.000000
-29.133701 -28.118435 -0.536557 279 0.265778 0.964034 0.000000
-29.141460 -28.125929 -0.524262 269 0.265778 0.964034 0.000000
-29.136253 -28.120899 -0.511732 287 0.265778 0.964034 0.000000
-29.131901 -28.116701 -0.499223 279 0.265778 0.964034 0.000000
-29.134644 -28.119341 -0.486826 279 0.265778 0.964034 0.000000
-29.135799 -28.120459 -0.474415 281 0.265778 0.964034 0.000000
-29.137312 -28.121916 -0.462000 275 0.265778 0.964034 0.000000
-29.135475 -28.120144 -0.449538 299 0.265778 0.964034 0.000000
-29.136875 -28.121508 -0.437114 291 0.265778 0.964034 0.000000
-29.135612 -28.120279 -0.424666 281 0.265778 0.964034 0.000000
-29.136141 -28.120781 -0.412230 289 0.265778 0.964034 0.000000
-29.134949 -28.119642 -0.399781 303 0.265778 0.964034 0.000000
-29.132717 -28.117485 -0.387312 247 0.265778 0.964034 0.000000
-29.135853 -28.120508 -0.374922 265 0.265778 0.964034 0.000000
-29.132627 -28.117395 -0.362443 269 0.265778 0.964034 0.000000
-29.129501 -28.114376 -0.349972 261 0.265778 0.964034 0.000000
-29.135153 -28.119835 -0.337608 269 0.265778 0.964034 0.000000
-29.137590 -28.122181 -0.325195 235 0.265778 0.964034 0.000000
-29.134027 -28.118744 -0.312718 237 0.265778 0.964034 0.000000
-29.135626 -28.120287 -0.300303 225 0.265778 0.964034 0.000000
-29.149120 -28.116817 -0.673537 281 0.265778 0.964034 0.000000
-29.149902 -28.117559 -0.661120 255 0.265778 0.964034 0.000000
-29.145876 -28.113686 -0.648588 225 0.265778 0.964034 0.000000
-29.145292 -28.113115 -0.636133 225 0.265778 0.964034 0.000000
-29.151739 -28.119333 -0.623831 281 0.265778 0.964034 0.000000
-29.152245 -28.119829 -0.611396 229 0.265778 0.964034 0.000000
-29.150440 -28.118086 -0.598923 229 0.265778 0.964034 0.000000
-29.151300 -28.118906 -0.586495 303 0.265778 0.964034 0.000000
-29.151432 -28.119038 -0.574063 237 0.265778 0.964034 0.000000
-29.150457 -28.118092 -0.561602 273 0.265778 0.964034 0.000000
-29.154053 -28.121563 -0.549228 261 0.265778 0.964034 0.000000
-29.154848 -28.122339 -0.536800 291 0.265778 0.964034 0.000000
-29.148237 -28.115955 -0.524242 271 0.265778 0.964034 0.000000
-29.149504 -28.117178 -0.511820 251 0.265778 0.964034 0.000000
-29.148296 -28.116011 -0.499361 271 0.265778 0.964034 0.000000
-29.145931 -28.113733 -0.486883 271 0.265778 0.964034 0.000000
-29.143723 -28.111597 -0.474414 301 0.265778 0.964034 0.000000
-29.144358 -28.112217 -0.461988 299 0.265778 0.964034 0.000000
-29.147293 -28.115046 -0.449600 317 0.265778 0.964034 0.000000
-29.150970 -28.118595 -0.437214 287 0.265778 0.964034 0.000000
-29.152241 -28.119810 -0.424792 297 0.265778 0.964034 0.000000
-29.148853 -28.116545 -0.412304 289 0.265778 0.964034 0.000000
-29.149302 -28.116983 -0.399869 267 0.265778 0.964034 0.000000
-29.150604 -28.118238 -0.387447 317 0.265778 0.964034 0.000000
-29.149483 -28.117155 -0.374997 243 0.265778 0.964034 0.000000
-29.150190 -28.117834 -0.362570 267 0.265778 0.964034 0.000000
-29.149696 -28.117353 -0.350124 251 0.265778 0.964034 0.000000
-29.149618 -28.117285 -0.337685 295 0.265778 0.964034 0.000000
-29.150215 -28.117859 -0.325249 285 0.265778 0.964034 0.000000
-29.147919 -28.115641 -0.312790 275 0.265778 0.964034 0.000000
-29.149458 -28.117130 -0.300366 253 0.265778 0.964034 0.000000
-29.163277 -28.114128 -0.673686 279 0.265778 0.964034 0.000000
-29.163750 -28.114586 -0.661252 245 0.265778 0.964034 0.000000
-29.167255 -28.117966 -0.648888 267 0.265778 0.964034 0.000000
-29.164928 -28.115721 -0.636390 257 0.265778 0.964034 0.000000
-29.162384 -28.113268 -0.623894 249 0.265778 0.964034 0.000000
-29.155823 -28.106951 -0.611316 221 0.265778 0.964034 0.000000
-29.154964 -28.106112 -0.598854 221 0.265778 0.964034 0.000000
-29.159891 -28.110865 -0.586516 257 0.265778 0.964034 0.000000
-29.158421 -28.109449 -0.574040 231 0.265778 0.964034 0.000000
-29.161297 -28.112213 -0.561663 251 0.265778 0.964034 0.000000
-29.163681 -28.114513 -0.549260 269 0.265778 0.964034 0.000000
-29.163328 -28.114180 -0.536813 301 0.265778 0.964034 0.000000
-29.163702 -28.114538 -0.524379 271 0.265778 0.964034 0.000000
-29.162626 -28.113495 -0.511919 261 0.265778 0.964034 0.000000
-29.158241 -28.109280 -0.499400 291 0.265778 0.964034 0.000000
-29.159149 -28.110155 -0.486981 295 0.265778 0.964034 0.000000
-29.162519 -28.113398 -0.474589 267 0.265778 0.964034 0.000000
-29.163677 -28.114517 -0.462168 287 0.265778 0.964034 0.000000
-29.160622 -28.111570 -0.449676 235 0.265778 0.964034 0.000000
-29.159828 -28.110800 -0.437224 299 0.265778 0.964034 0.000000
-29.166189 -28.116934 -0.424883 285 0.265778 0.964034 0.000000
-29.165699 -28.116468 -0.412427 311 0.265778 0.964034 0.000000
-29.159937 -28.110909 -0.399912 269 0.265778 0.964034 0.000000
-29.161972 -28.112881 -0.387502 293 0.265778 0.964034 0.000000
-29.161434 -28.112349 -0.375047 267 0.265778 0.964034 0.000000
-29.154615 -28.105780 -0.362531 239 0.265778 0.964034 0.000000
-29.156107 -28.107216 -0.350107 245 0.265778 0.964034 0.000000
-29.163870 -28.114702 -0.337763 299 0.265778 0.964034 0.000000
-29.162634 -28.113508 -0.325304 273 0.265778 0.964034 0.000000
-29.154375 -28.105555 -0.312772 253 0.265778 0.964034 0.000000
-29.159658 -28.110641 -0.300392 235 0.265778 0.964034 0.000000
-29.183050 -28.116156 -0.673946 253 0.265778 0.964034 0.000000
-29.177317 -28.110620 -0.661370 275 0.265778 0.964034 0.000000
-29.175451 -28.108826 -0.648887 231 0.265778 0.964034 0.000000
-29.171440 -28.104961 -0.636355 243 0.265778 0.964034 0.000000
-29.170677 -28.104233 -0.623892 223 0.265778 0.964034 0.000000
-29.175291 -28.108669 -0.611548 205 0.265778 0.964034 0.000000
-29.178257 -28.111536 -0.599159 217 0.265778 0.964034 0.000000
-29.173140 -28.106594 -0.586618 203 0.265778 0.964034 0.000000
-29.174530 -28.107935 -0.574204 259 0.265778 0.964034 0.000000
-29.176559 -28.109886 -0.561795 259 0.265778 0.964034 0.000000
-29.174723 -28.108114 -0.549312 263 0.265778 0.964034 0.000000
-29.175209 -28.108583 -0.536887 279 0.265778 0.964034 0.000000
-29.176966 -28.110283 -0.524470 307 0.265778 0.964034 0.000000
-29.180508 -28.113695 -0.512086 311 0.265778 0.964034 0.000000
-29.177349 -28.110649 -0.499586 281 0.265778 0.964034 0.000000
-29.177193 -28.110502 -0.487147 287 0.265778 0.964034 0.000000
-29.176468 -28.109802 -0.474683 307 0.265778 0.964034 0.000000
-29.172346 -28.105824 -0.462182 267 0.265778 0.964034 0.000000
-29.172144 -28.105639 -0.449734 281 0.265778 0.964034 0.000000
-29.175079 -28.108463 -0.437336 277 0.265778 0.964034 0.000000
-29.178076 -28.111343 -0.424937 281 0.265778 0.964034 0.000000
-29.178099 -28.111372 -0.412496 271 0.265778 0.964034 0.000000
-29.178617 -28.111868 -0.400061 273 0.265778 0.964034 0.000000
-29.180599 -28.113781 -0.387642 323 0.265778 0.964034 0.000000
-29.177155 -28.110456 -0.375155 285 0.265778 0.964034 0.000000
-29.178341 -28.111601 -0.362723 277 0.265778 0.964034 0.000000
-29.178993 -28.112234 -0.350287 261 0.265778 0.964034 0.000000
-29.173969 -28.107384 -0.337784 259 0.265778 0.964034 0.000000
-29.175631 -28.108992 -0.325358 285 0.265778 0.964034 0.000000
-29.174370 -28.107777 -0.312910 279 0.265778 0.964034 0.000000
-29.173864 -28.107286 -0.300454 253 0.265778 0.964034 0.000000
-29.189310 -28.103977 -0.673889 297 0.265778 0.964034 0.000000
-29.191351 -28.105942 -0.661489 287 0.265778 0.964034 0.000000
-29.190813 -28.105423 -0.649034 225 0.265778 0.964034 0.000000
-29.188053 -28.102764 -0.636520 193 0.265778 0.964034 0.000000
-29.187927 -28.102640 -0.624071 173 0.265778 0.964034 0.000000
-29.188120 -28.102825 -0.611629 175 0.265778 0.964034 0.000000
-29.185732 -28.100529 -0.599141 229 0.265778 0.964034 0.000000
-29.188498 -28.103186 -0.586745 263 0.265778 0.964034 0.000000
-29.193735 -28.108236 -0.574405 257 0.265778 0.964034 0.000000
-29.196711 -28.111094 -0.562016 275 0.265778 0.964034 0.000000
-29.195938 -28.110357 -0.549553 269 0.265778 0.964034 0.000000
-29.194740 -28.109198 -0.537084 277 0.265778 0.964034 0.000000
-29.189901 -28.104542 -0.524550 331 0.265778 0.964034 0.000000
-29.184702 -28.099529 -0.512009 265 0.265778 0.964034 0.000000
-29.186550 -28.101316 -0.499601 291 0.265778 0.964034 0.000000
-29.188873 -28.103540 -0.487189 317 0.265778 0.964034 0.000000
-29.188707 -28.103388 -0.474740 295 0.265778 0.964034 0.000000
-29.194092 -28.108574 -0.462389 285 0.265778 0.964034 0.000000
-29.193716 -28.108202 -0.449932 279 0.265778 0.964034 0.000000
-29.185120 -28.099924 -0.437353 309 0.265778 0.964034 0.000000
-29.183943 -28.098797 -0.424894 271 0.265778 0.964034 0.000000
-29.191580 -28.106150 -0.412561 249 0.265778 0.964034 0.000000
-29.192560 -28.107096 -0.400132 315 0.265778 0.964034 0.000000
-29.188805 -28.103472 -0.387637 321 0.265778 0.964034 0.000000
-29.190458 -28.105074 -0.375211 247 0.265778 0.964034 0.000000
-29.195236 -28.109673 -0.362826 287 0.265778 0.964034 0.000000
-29.193577 -28.108065 -0.350361 281 0.265778 0.964034 0.000000
-29.190235 -28.104851 -0.337872 247 0.265778 0.964034 0.000000
-29.188143 -28.102840 -0.325402 287 0.265778 0.964034 0.000000
-29.193012 -28.107519 -0.313016 277 0.265778 0.964034 0.000000
-29.192669 -28.107189 -0.300569 297 0.265778 0.964034 0.000000
