756
-14.708224 -14.041731 -0.662939 849 0.597191 0.802099 0.000000
-14.707578 -14.041114 -0.656665 825 0.597191 0.802099 0.000000
-14.706828 -14.040400 -0.650382 845 0.597191 0.802099 0.000000
-14.706595 -14.040174 -0.644114 841 0.597191 0.802099 0.000000
-14.706317 -14.039910 -0.637857 851 0.597191 0.802099 0.000000
-14.707517 -14.041046 -0.631655 853 0.597191 0.802099 0.000000
-14.708453 -14.041950 -0.625446 829 0.597191 0.802099 0.000000
-14.707264 -14.040809 -0.619147 851 0.597191 0.802099 0.000000
-14.706350 -14.039932 -0.612856 841 0.597191 0.802099 0.000000
-14.706220 -14.039804 -0.606597 825 0.597191 0.802099 0.000000
-14.707201 -14.040747 -0.600388 837 0.597191 0.802099 0.000000
-14.707172 -14.040715 -0.594138 845 0.597191 0.802099 0.000000
-14.707098 -14.040646 -0.587888 843 0.597191 0.802099 0.000000
-14.707273 -14.040822 -0.581646 849 0.597191 0.802099 0.000000
-14.705600 -14.039216 -0.575332 835 0.597191 0.802099 0.000000
-14.706364 -14.039953 -0.569115 839 0.597191 0.802099 0.000000
-14.707282 -14.040831 -0.562896 839 0.597191 0.802099 0.000000
-14.705977 -14.039580 -0.556598 843 0.597191 0.802099 0.000000
-14.706370 -14.039948 -0.550364 855 0.597191 0.802099 0.000000
-14.707495 -14.041034 -0.544163 859 0.597191 0.802099 0.000000
-14.706879 -14.040441 -0.537889 855 0.597191 0.802099 0.000000
-14.707203 -14.040751 -0.531656 869 0.597191 0.802099 0.000000
-14.706953 -14.040512 -0.525398 863 0.597191 0.802099 0.000000
-14.705374 -14.039000 -0.519093 841 0.597191 0.802099 0.000000
-14.705064 -14.038710 -0.512836 833 0.597191 0.802099 0.000000
-14.705873 -14.039471 -0.506608 847 0.597191 0.802099 0.000000
-14.707035 -14.040587 -0.500407 855 0.597191 0.802099 0.000000
-14.707729 -14.041254 -0.494180 849 0.597191 0.802099 0.000000
-14.707049 -14.040596 -0.487906 853 0.597191 0.802099 0.000000
-14.706896 -14.040448 -0.481658 855 0.597191 0.802099 0.000000
-14.706679 -14.040251 -0.475400 849 0.597191 0.802099 0.000000
-14.705883 -14.039483 -0.469127 837 0.597191 0.802099 0.000000
-14.705885 -14.039491 -0.462877 833 0.597191 0.802099 0.000000
-14.706147 -14.039737 -0.456644 845 0.597191 0.802099 0.000000
-14.705506 -14.039124 -0.450380 837 0.597191 0.802099 0.000000
-14.704648 -14.038307 -0.444098 827 0.597191 0.802099 0.000000
-14.705120 -14.038752 -0.437874 833 0.597191 0.802099 0.000000
-14.705531 -14.039146 -0.431639 857 0.597191 0.802099 0.000000
-14.705729 -14.039342 -0.425397 869 0.597191 0.802099 0.000000
-14.705569 -14.039188 -0.419149 851 0.597191 0.802099 0.000000
-14.705656 -14.039265 -0.412898 849 0.597191 0.802099 0.000000
-14.706169 -14.039757 -0.406673 825 0.597191 0.802099 0.000000
-14.706048 -14.039649 -0.400424 835 0.597191 0.802099 0.000000
-14.705705 -14.039321 -0.394167 851 0.597191 0.802099 0.000000
-14.705951 -14.039554 -0.387924 857 0.597191 0.802099 0.000000
-14.706353 -14.039941 -0.381690 867 0.597191 0.802099 0.000000
-14.706394 -14.039967 -0.375440 835 0.597191 0.802099 0.000000
-14.706156 -14.039750 -0.369192 845 0.597191 0.802099 0.000000
-14.706605 -14.040177 -0.362958 841 0.597191 0.802099 0.000000
-14.706530 -14.040107 -0.356708 849 0.597191 0.802099 0.000000
-14.705654 -14.039262 -0.350446 835 0.597191 0.802099 0.000000
-14.705728 -14.039341 -0.344195 845 0.597191 0.802099 0.000000
-14.705118 -14.038755 -0.337941 837 0.597191 0.802099 0.000000
-14.703609 -14.037311 -0.331655 819 0.597191 0.802099 0.000000
-14.704161 -14.037834 -0.325430 813 0.597191 0.802099 0.000000
-14.705080 -14.038713 -0.319201 821 0.597191 0.802099 0.000000
-14.705568 -14.039184 -0.312966 835 0.597191 0.802099 0.000000
-14.705581 -14.039199 -0.306726 813 0.597191 0.802099 0.000000
-14.704649 -14.038308 -0.300465 791 0.597191 0.802099 0.000000
-14.704505 -14.038169 -0.294216 823 0.597191 0.802099 0.000000
-14.704987 -14.038634 -0.287981 827 0.597191 0.802099 0.000000
-14.705160 -14.038796 -0.281739 821 0.597191 0.802099 0.000000
-14.704748 -14.038397 -0.275483 813 0.597191 0.802099 0.000000
-14.712152 -14.036560 -0.662927 837 0.597191 0.802099 0.000000
-14.711082 -14.035527 -0.656627 817 0.597191 0.802099 0.000000
-14.711540 -14.035975 -0.650393 821 0.597191 0.802099 0.000000
-14.712482 -14.036871 -0.644184 849 0.597191 0.802099 0.000000
-14.712258 -14.036654 -0.637926 831 0.597191 0.802099 0.000000
-14.712237 -14.036642 -0.631676 841 0.597191 0.802099 0.000000
-14.711426 -14.035862 -0.625383 829 0.597191 0.802099 0.000000
-14.711829 -14.036251 -0.619149 833 0.597191 0.802099 0.000000
-14.711016 -14.035470 -0.612867 827 0.597191 0.802099 0.000000
-14.710775 -14.035238 -0.606609 831 0.597191 0.802099 0.000000
-14.712447 -14.036839 -0.600423 863 0.597191 0.802099 0.000000
-14.711940 -14.036349 -0.594158 853 0.597191 0.802099 0.000000
-14.712288 -14.036679 -0.587924 845 0.597191 0.802099 0.000000
-14.712096 -14.036501 -0.581666 853 0.597191 0.802099 0.000000
-14.711535 -14.035966 -0.575391 837 0.597191 0.802099 0.000000
-14.711506 -14.035934 -0.569141 845 0.597191 0.802099 0.000000
-14.711422 -14.035858 -0.562892 857 0.597191 0.802099 0.000000
-14.711495 -14.035924 -0.556641 855 0.597191 0.802099 0.000000
-14.712195 -14.036595 -0.550424 873 0.597191 0.802099 0.000000
-14.711737 -14.036158 -0.544159 859 0.597191 0.802099 0.000000
-14.710963 -14.035410 -0.537876 837 0.597191 0.802099 0.000000
-14.710754 -14.035218 -0.531618 855 0.597191 0.802099 0.000000
-14.709927 -14.034425 -0.525345 821 0.597191 0.802099 0.000000
-14.710783 -14.035238 -0.519127 847 0.597191 0.802099 0.000000
-14.710793 -14.035253 -0.512877 849 0.597191 0.802099 0.000000
-14.710061 -14.034551 -0.506604 833 0.597191 0.802099 0.000000
-14.711176 -14.035616 -0.500393 853 0.597191 0.802099 0.000000
-14.711602 -14.036023 -0.494159 853 0.597191 0.802099 0.000000
-14.710546 -14.035018 -0.487878 829 0.597191 0.802099 0.000000
-14.710815 -14.035270 -0.481646 851 0.597191 0.802099 0.000000
-14.710873 -14.035322 -0.475395 861 0.597191 0.802099 0.000000
-14.710869 -14.035323 -0.469145 861 0.597191 0.802099 0.000000
-14.711185 -14.035627 -0.462912 843 0.597191 0.802099 0.000000
-14.711078 -14.035519 -0.456663 839 0.597191 0.802099 0.000000
-14.712014 -14.036424 -0.450444 855 0.597191 0.802099 0.000000
-14.711585 -14.036011 -0.444178 849 0.597191 0.802099 0.000000
-14.709198 -14.033729 -0.437860 835 0.597191 0.802099 0.000000
-14.709193 -14.033731 -0.431620 829 0.597191 0.802099 0.000000
-14.710777 -14.035233 -0.425415 839 0.597191 0.802099 0.000000
-14.710649 -14.035119 -0.419166 847 0.597191 0.802099 0.000000
-14.710800 -14.035260 -0.412924 849 0.597191 0.802099 0.000000
-14.711735 -14.036151 -0.406705 839 0.597191 0.802099 0.000000
-14.710452 -14.034920 -0.400417 829 0.597191 0.802099 0.000000
-14.710596 -14.035057 -0.394176 811 0.597191 0.802099 0.000000
-14.710835 -14.035298 -0.387943 829 0.597191 0.802099 0.000000
-14.710493 -14.034969 -0.381686 843 0.597191 0.802099 0.000000
-14.710692 -14.035151 -0.375445 853 0.597191 0.802099 0.000000
-14.710295 -14.034778 -0.369188 825 0.597191 0.802099 0.000000
-14.709742 -14.034249 -0.362923 803 0.597191 0.802099 0.000000
-14.709023 -14.033561 -0.356660 817 0.597191 0.802099 0.000000
-14.709528 -14.034045 -0.350435 815 0.597191 0.802099 0.000000
-14.709336 -14.033867 -0.344187 827 0.597191 0.802099 0.000000
-14.708625 -14.033184 -0.337923 799 0.597191 0.802099 0.000000
-14.708855 -14.033402 -0.331681 809 0.597191 0.802099 0.000000
-14.709666 -14.034179 -0.325453 805 0.597191 0.802099 0.000000
-14.709855 -14.034352 -0.319211 829 0.597191 0.802099 0.000000
-14.709975 -14.034470 -0.312970 811 0.597191 0.802099 0.000000
-14.710941 -14.035385 -0.306751 809 0.597191 0.802099 0.000000
-14.710593 -14.035052 -0.300494 823 0.597191 0.802099 0.000000
-14.709962 -14.034460 -0.294239 803 0.597191 0.802099 0.000000
-14.711084 -14.035531 -0.288009 819 0.597191 0.802099 0.000000
-14.711738 -14.036150 -0.281782 851 0.597191 0.802099 0.000000
-14.710894 -14.035346 -0.275520 815 0.597191 0.802099 0.000000
-14.717591 -14.032655 -0.662962 849 0.597191 0.802099 0.000000
-14.717108 -14.032185 -0.656696 833 0.597191 0.802099 0.000000
-14.717355 -14.032431 -0.650454 839 0.597191 0.802099 0.000000
-14.717764 -14.032811 -0.644220 833 0.597191 0.802099 0.000000
-14.717485 -14.032549 -0.637952 841 0.597191 0.802099 0.000000
-14.717676 -14.032737 -0.631710 851 0.597191 0.802099 0.000000
-14.717710 -14.032770 -0.625460 837 0.597191 0.802099 0.000000
-14.717479 -14.032545 -0.619202 841 0.597191 0.802099 0.000000
-14.717777 -14.032822 -0.612969 831 0.597191 0.802099 0.000000
-14.717334 -14.032398 -0.606693 821 0.597191 0.802099 0.000000
-14.716882 -14.031965 -0.600427 821 0.597191 0.802099 0.000000
-14.717073 -14.032155 -0.594185 821 0.597191 0.802099 0.000000
-14.717412 -14.032477 -0.587952 851 0.597191 0.802099 0.000000
-14.718184 -14.033207 -0.581724 843 0.597191 0.802099 0.000000
-14.717301 -14.032371 -0.575443 849 0.597191 0.802099 0.000000
-14.715950 -14.031082 -0.569145 833 0.597191 0.802099 0.000000
-14.717024 -14.032101 -0.562935 863 0.597191 0.802099 0.000000
-14.716879 -14.031974 -0.556676 847 0.597191 0.802099 0.000000
-14.716693 -14.031787 -0.550418 831 0.597191 0.802099 0.000000
-14.717865 -14.032910 -0.544217 857 0.597191 0.802099 0.000000
-14.717459 -14.032516 -0.537950 857 0.597191 0.802099 0.000000
-14.715729 -14.030868 -0.531637 845 0.597191 0.802099 0.000000
-14.716478 -14.031592 -0.525419 849 0.597191 0.802099 0.000000
-14.717553 -14.032610 -0.519209 847 0.597191 0.802099 0.000000
-14.716868 -14.031961 -0.512935 861 0.597191 0.802099 0.000000
-14.716612 -14.031716 -0.506678 845 0.597191 0.802099 0.000000
-14.716410 -14.031517 -0.500419 851 0.597191 0.802099 0.000000
-14.715355 -14.030512 -0.494139 835 0.597191 0.802099 0.000000
-14.716470 -14.031576 -0.487929 853 0.597191 0.802099 0.000000
-14.716466 -14.031578 -0.481678 871 0.597191 0.802099 0.000000
-14.716045 -14.031173 -0.475422 849 0.597191 0.802099 0.000000
-14.716942 -14.032032 -0.469204 853 0.597191 0.802099 0.000000
-14.715722 -14.030865 -0.462915 843 0.597191 0.802099 0.000000
-14.715990 -14.031116 -0.456672 843 0.597191 0.802099 0.000000
-14.717350 -14.032421 -0.450469 847 0.597191 0.802099 0.000000
-14.716820 -14.031913 -0.444204 859 0.597191 0.802099 0.000000
-14.715858 -14.030997 -0.437933 855 0.597191 0.802099 0.000000
-14.716644 -14.031739 -0.431706 859 0.597191 0.802099 0.000000
-14.715684 -14.030826 -0.425434 841 0.597191 0.802099 0.000000
-14.715405 -14.030562 -0.419177 851 0.597191 0.802099 0.000000
-14.717240 -14.032310 -0.412979 847 0.597191 0.802099 0.000000
-14.717228 -14.032291 -0.406729 835 0.597191 0.802099 0.000000
-14.715789 -14.030919 -0.400443 833 0.597191 0.802099 0.000000
-14.716028 -14.031159 -0.394210 841 0.597191 0.802099 0.000000
-14.717488 -14.032546 -0.387996 865 0.597191 0.802099 0.000000
-14.716628 -14.031729 -0.381724 839 0.597191 0.802099 0.000000
-14.715809 -14.030943 -0.375462 837 0.597191 0.802099 0.000000
-14.715733 -14.030872 -0.369213 837 0.597191 0.802099 0.000000
-14.715603 -14.030745 -0.362964 829 0.597191 0.802099 0.000000
-14.716052 -14.031171 -0.356729 819 0.597191 0.802099 0.000000
-14.715655 -14.030798 -0.350473 827 0.597191 0.802099 0.000000
-14.715101 -14.030270 -0.344218 801 0.597191 0.802099 0.000000
-14.715966 -14.031090 -0.337990 821 0.597191 0.802099 0.000000
-14.715781 -14.030917 -0.331741 817 0.597191 0.802099 0.000000
-14.715219 -14.030382 -0.325476 839 0.597191 0.802099 0.000000
-14.715551 -14.030699 -0.319243 845 0.597191 0.802099 0.000000
-14.716151 -14.031275 -0.313007 807 0.597191 0.802099 0.000000
-14.716113 -14.031237 -0.306758 809 0.597191 0.802099 0.000000
-14.715710 -14.030845 -0.300511 791 0.597191 0.802099 0.000000
-14.714191 -14.029394 -0.294236 775 0.597191 0.802099 0.000000
-14.713240 -14.028500 -0.287964 789 0.597191 0.802099 0.000000
-14.715365 -14.030524 -0.281764 817 0.597191 0.802099 0.000000
-14.714795 -14.029970 -0.275509 827 0.597191 0.802099 0.000000
-14.721584 -14.027200 -0.662941 825 0.597191 0.802099 0.000000
-14.722623 -14.028201 -0.656741 843 0.597191 0.802099 0.000000
-14.722719 -14.028285 -0.650490 849 0.597191 0.802099 0.000000
-14.722863 -14.028420 -0.644239 829 0.597191 0.802099 0.000000
-14.721942 -14.027553 -0.637957 819 0.597191 0.802099 0.000000
-14.722461 -14.028035 -0.631722 835 0.597191 0.802099 0.000000
-14.723875 -14.029385 -0.625529 853 0.597191 0.802099 0.000000
-14.723689 -14.029212 -0.619270 847 0.597191 0.802099 0.000000
-14.722713 -14.028284 -0.612979 825 0.597191 0.802099 0.000000
-14.722801 -14.028362 -0.606738 829 0.597191 0.802099 0.000000
-14.722877 -14.028441 -0.600487 817 0.597191 0.802099 0.000000
-14.722266 -14.027854 -0.594213 813 0.597191 0.802099 0.000000
-14.722245 -14.027828 -0.587963 823 0.597191 0.802099 0.000000
-14.722109 -14.027709 -0.581704 829 0.597191 0.802099 0.000000
-14.721545 -14.027161 -0.575429 825 0.597191 0.802099 0.000000
-14.722051 -14.027645 -0.569205 827 0.597191 0.802099 0.000000
-14.722805 -14.028360 -0.562977 835 0.597191 0.802099 0.000000
-14.722032 -14.027627 -0.556704 835 0.597191 0.802099 0.000000
-14.722262 -14.027848 -0.550462 837 0.597191 0.802099 0.000000
-14.722963 -14.028521 -0.544235 857 0.597191 0.802099 0.000000
-14.721970 -14.027565 -0.537955 849 0.597191 0.802099 0.000000
-14.721621 -14.027232 -0.531688 831 0.597191 0.802099 0.000000
-14.721685 -14.027290 -0.525447 837 0.597191 0.802099 0.000000
-14.721156 -14.026794 -0.519172 845 0.597191 0.802099 0.000000
-14.722178 -14.027770 -0.512962 843 0.597191 0.802099 0.000000
-14.723246 -14.028782 -0.506752 865 0.597191 0.802099 0.000000
-14.721972 -14.027572 -0.500454 831 0.597191 0.802099 0.000000
-14.721607 -14.027225 -0.494197 841 0.597191 0.802099 0.000000
-14.722941 -14.028495 -0.487994 861 0.597191 0.802099 0.000000
-14.723209 -14.028748 -0.481751 863 0.597191 0.802099 0.000000
-14.722617 -14.028187 -0.475487 845 0.597191 0.802099 0.000000
-14.722095 -14.027686 -0.469222 861 0.597191 0.802099 0.000000
-14.721354 -14.026977 -0.462949 859 0.597191 0.802099 0.000000
-14.720714 -14.026365 -0.456685 837 0.597191 0.802099 0.000000
-14.720388 -14.026065 -0.450427 849 0.597191 0.802099 0.000000
-14.720814 -14.026458 -0.444193 835 0.597191 0.802099 0.000000
-14.721694 -14.027304 -0.437965 843 0.597191 0.802099 0.000000
-14.721697 -14.027297 -0.431725 845 0.597191 0.802099 0.000000
-14.721261 -14.026893 -0.425459 835 0.597191 0.802099 0.000000
-14.720981 -14.026616 -0.419201 855 0.597191 0.802099 0.000000
-14.721393 -14.027011 -0.412967 843 0.597191 0.802099 0.000000
-14.721848 -14.027443 -0.406733 823 0.597191 0.802099 0.000000
-14.721679 -14.027282 -0.400484 829 0.597191 0.802099 0.000000
-14.721400 -14.027020 -0.394227 833 0.597191 0.802099 0.000000
-14.721538 -14.027150 -0.387985 835 0.597191 0.802099 0.000000
-14.721617 -14.027234 -0.381744 845 0.597191 0.802099 0.000000
-14.720860 -14.026500 -0.375471 835 0.597191 0.802099 0.000000
-14.720252 -14.025928 -0.369217 829 0.597191 0.802099 0.000000
-14.720544 -14.026198 -0.362974 839 0.597191 0.802099 0.000000
-14.720196 -14.025879 -0.356717 833 0.597191 0.802099 0.000000
-14.721757 -14.027361 -0.350512 825 0.597191 0.802099 0.000000
-14.722950 -14.028503 -0.344291 823 0.597191 0.802099 0.000000
-14.722021 -14.027615 -0.338019 819 0.597191 0.802099 0.000000
-14.721522 -14.027131 -0.331764 811 0.597191 0.802099 0.000000
-14.721642 -14.027248 -0.325523 823 0.597191 0.802099 0.000000
-14.721921 -14.027521 -0.319280 803 0.597191 0.802099 0.000000
-14.721571 -14.027186 -0.313033 775 0.597191 0.802099 0.000000
-14.720946 -14.026587 -0.306769 795 0.597191 0.802099 0.000000
-14.719909 -14.025597 -0.300498 797 0.597191 0.802099 0.000000
-14.719808 -14.025506 -0.294259 787 0.597191 0.802099 0.000000
-14.720776 -14.026423 -0.288030 799 0.597191 0.802099 0.000000
-14.721264 -14.026895 -0.281795 839 0.597191 0.802099 0.000000
-14.720850 -14.026495 -0.275539 829 0.597191 0.802099 0.000000
-14.727687 -14.023762 -0.663010 825 0.597191 0.802099 0.000000
-14.728419 -14.024460 -0.656793 833 0.597191 0.802099 0.000000
-14.729032 -14.025047 -0.650567 843 0.597191 0.802099 0.000000
-14.728705 -14.024732 -0.644300 837 0.597191 0.802099 0.000000
-14.728581 -14.024611 -0.638041 843 0.597191 0.802099 0.000000
-14.728085 -14.024141 -0.631766 843 0.597191 0.802099 0.000000
-14.728590 -14.024626 -0.625541 865 0.597191 0.802099 0.000000
-14.728364 -14.024407 -0.619283 837 0.597191 0.802099 0.000000
-14.726809 -14.022925 -0.612957 815 0.597191 0.802099 0.000000
-14.726520 -14.022641 -0.606700 825 0.597191 0.802099 0.000000
-14.727345 -14.023430 -0.600482 821 0.597191 0.802099 0.000000
-14.727740 -14.023811 -0.594248 829 0.597191 0.802099 0.000000
-14.727711 -14.023779 -0.587998 833 0.597191 0.802099 0.000000
-14.727794 -14.023865 -0.581747 833 0.597191 0.802099 0.000000
-14.728024 -14.024085 -0.575505 847 0.597191 0.802099 0.000000
-14.728527 -14.024556 -0.569280 857 0.597191 0.802099 0.000000
-14.729658 -14.025634 -0.563069 849 0.597191 0.802099 0.000000
-14.729097 -14.025100 -0.556794 855 0.597191 0.802099 0.000000
-14.726890 -14.022992 -0.550465 849 0.597191 0.802099 0.000000
-14.727011 -14.023108 -0.544224 847 0.597191 0.802099 0.000000
-14.727711 -14.023781 -0.537997 839 0.597191 0.802099 0.000000
-14.727299 -14.023381 -0.531731 839 0.597191 0.802099 0.000000
-14.727468 -14.023551 -0.525489 855 0.597191 0.802099 0.000000
-14.727422 -14.023506 -0.519239 845 0.597191 0.802099 0.000000
-14.728075 -14.024126 -0.513013 845 0.597191 0.802099 0.000000
-14.727921 -14.023978 -0.506754 861 0.597191 0.802099 0.000000
-14.728509 -14.024532 -0.500529 853 0.597191 0.802099 0.000000
-14.728254 -14.024289 -0.494271 859 0.597191 0.802099 0.000000
-14.726660 -14.022776 -0.487966 839 0.597191 0.802099 0.000000
-14.726985 -14.023086 -0.481733 837 0.597191 0.802099 0.000000
-14.727192 -14.023287 -0.475491 831 0.597191 0.802099 0.000000
-14.726347 -14.022482 -0.469208 827 0.597191 0.802099 0.000000
-14.726138 -14.022275 -0.462960 837 0.597191 0.802099 0.000000
-14.726926 -14.023031 -0.456733 837 0.597191 0.802099 0.000000
-14.727665 -14.023735 -0.450505 831 0.597191 0.802099 0.000000
-14.728136 -14.024179 -0.444271 831 0.597191 0.802099 0.000000
-14.727481 -14.023556 -0.438007 823 0.597191 0.802099 0.000000
-14.726731 -14.022840 -0.431734 829 0.597191 0.802099 0.000000
-14.726727 -14.022842 -0.425484 835 0.597191 0.802099 0.000000
-14.726551 -14.022677 -0.419235 827 0.597191 0.802099 0.000000
-14.726593 -14.022717 -0.412985 839 0.597191 0.802099 0.000000
-14.725734 -14.021897 -0.406723 819 0.597191 0.802099 0.000000
-14.725932 -14.022079 -0.400481 811 0.597191 0.802099 0.000000
-14.726756 -14.022865 -0.394253 845 0.597191 0.802099 0.000000
-14.726525 -14.022642 -0.387995 833 0.597191 0.802099 0.000000
-14.727460 -14.023532 -0.381776 839 0.597191 0.802099 0.000000
-14.726375 -14.022502 -0.375496 821 0.597191 0.802099 0.000000
-14.725678 -14.021832 -0.369232 825 0.597191 0.802099 0.000000
-14.725534 -14.021706 -0.362984 823 0.597191 0.802099 0.000000
-14.726946 -14.023039 -0.356770 827 0.597191 0.802099 0.000000
-14.728023 -14.024072 -0.350550 831 0.597191 0.802099 0.000000
-14.727727 -14.023796 -0.344302 819 0.597191 0.802099 0.000000
-14.727073 -14.023170 -0.338038 807 0.597191 0.802099 0.000000
-14.726715 -14.022830 -0.331782 793 0.597191 0.802099 0.000000
-14.726999 -14.023096 -0.325539 819 0.597191 0.802099 0.000000
-14.726808 -14.022918 -0.319291 807 0.597191 0.802099 0.000000
-14.725719 -14.021873 -0.313021 775 0.597191 0.802099 0.000000
-14.725999 -14.022145 -0.306778 797 0.597191 0.802099 0.000000
-14.726806 -14.022904 -0.300550 795 0.597191 0.802099 0.000000
-14.726497 -14.022617 -0.294303 789 0.597191 0.802099 0.000000
-14.725294 -14.021477 -0.288034 779 0.597191 0.802099 0.000000
-14.725250 -14.021434 -0.281784 789 0.597191 0.802099 0.000000
-14.726960 -14.023051 -0.275568 791 0.597191 0.802099 0.000000
-14.732249 -14.019189 -0.663022 837 0.597191 0.802099 0.000000
-14.732816 -14.019725 -0.656787 833 0.597191 0.802099 0.000000
-14.732858 -14.019766 -0.650546 837 0.597191 0.802099 0.000000
-14.734222 -14.021061 -0.644353 843 0.597191 0.802099 0.000000
-14.734681 -14.021494 -0.638119 841 0.597191 0.802099 0.000000
-14.732749 -14.019665 -0.631777 841 0.597191 0.802099 0.000000
-14.731725 -14.018686 -0.625486 829 0.597191 0.802099 0.000000
-14.732558 -14.019480 -0.619268 843 0.597191 0.802099 0.000000
-14.733274 -14.020164 -0.613051 837 0.597191 0.802099 0.000000
-14.733205 -14.020085 -0.606792 827 0.597191 0.802099 0.000000
-14.732646 -14.019567 -0.600517 823 0.597191 0.802099 0.000000
-14.732249 -14.019180 -0.594251 811 0.597191 0.802099 0.000000
-14.732165 -14.019103 -0.588001 829 0.597191 0.802099 0.000000
-14.732192 -14.019131 -0.581751 837 0.597191 0.802099 0.000000
-14.732532 -14.019453 -0.575518 839 0.597191 0.802099 0.000000
-14.733246 -14.020123 -0.569291 839 0.597191 0.802099 0.000000
-14.733109 -14.020004 -0.563032 841 0.597191 0.802099 0.000000
-14.732164 -14.019101 -0.556751 837 0.597191 0.802099 0.000000
-14.731179 -14.018168 -0.550460 837 0.597191 0.802099 0.000000
-14.730405 -14.017420 -0.544187 829 0.597191 0.802099 0.000000
-14.730948 -14.017937 -0.537952 833 0.597191 0.802099 0.000000
-14.732121 -14.019060 -0.531751 827 0.597191 0.802099 0.000000
-14.732561 -14.019480 -0.525516 829 0.597191 0.802099 0.000000
-14.732783 -14.019694 -0.519274 833 0.597191 0.802099 0.000000
-14.733060 -14.019952 -0.513031 849 0.597191 0.802099 0.000000
-14.733219 -14.020101 -0.506790 845 0.597191 0.802099 0.000000
-14.733810 -14.020670 -0.500554 817 0.597191 0.802099 0.000000
-14.732645 -14.019562 -0.494265 813 0.597191 0.802099 0.000000
-14.732124 -14.019060 -0.487999 839 0.597191 0.802099 0.000000
-14.733293 -14.020169 -0.481788 843 0.597191 0.802099 0.000000
-14.732490 -14.019409 -0.475516 819 0.597191 0.802099 0.000000
-14.731756 -14.018708 -0.469242 833 0.597191 0.802099 0.000000
-14.731594 -14.018554 -0.462994 843 0.597191 0.802099 0.000000
-14.731221 -14.018200 -0.456727 823 0.597191 0.802099 0.000000
-14.731843 -14.018795 -0.450501 839 0.597191 0.802099 0.000000
-14.732794 -14.019698 -0.444282 859 0.597191 0.802099 0.000000
-14.731936 -14.018881 -0.438010 835 0.597191 0.802099 0.000000
-14.732414 -14.019332 -0.431775 831 0.597191 0.802099 0.000000
-14.732982 -14.019868 -0.425540 835 0.597191 0.802099 0.000000
-14.731755 -14.018709 -0.419261 851 0.597191 0.802099 0.000000
-14.731311 -14.018285 -0.412995 829 0.597191 0.802099 0.000000
-14.731141 -14.018124 -0.406747 843 0.597191 0.802099 0.000000
-14.730165 -14.017198 -0.400476 825 0.597191 0.802099 0.000000
-14.730732 -14.017733 -0.394240 819 0.597191 0.802099 0.000000
-14.731245 -14.018224 -0.388005 815 0.597191 0.802099 0.000000
-14.731222 -14.018198 -0.381765 845 0.597191 0.802099 0.000000
-14.731046 -14.018031 -0.375507 835 0.597191 0.802099 0.000000
-14.731134 -14.018109 -0.369266 833 0.597191 0.802099 0.000000
-14.731420 -14.018388 -0.363023 815 0.597191 0.802099 0.000000
-14.731079 -14.018061 -0.356766 815 0.597191 0.802099 0.000000
-14.730839 -14.017830 -0.350518 813 0.597191 0.802099 0.000000
-14.731812 -14.018765 -0.344289 797 0.597191 0.802099 0.000000
-14.731783 -14.018733 -0.338049 783 0.597191 0.802099 0.000000
-14.730691 -14.017697 -0.331779 787 0.597191 0.802099 0.000000
-14.731030 -14.018021 -0.325536 787 0.597191 0.802099 0.000000
-14.731274 -14.018239 -0.319294 785 0.597191 0.802099 0.000000
-14.730385 -14.017397 -0.313032 769 0.597191 0.802099 0.000000
-14.730553 -14.017565 -0.306790 767 0.597191 0.802099 0.000000
-14.731786 -14.018740 -0.300568 787 0.597191 0.802099 0.000000
-14.729790 -14.016832 -0.294277 771 0.597191 0.802099 0.000000
-14.730012 -14.017045 -0.288035 771 0.597191 0.802099 0.000000
-14.731559 -14.018516 -0.281820 807 0.597191 0.802099 0.000000
-14.731624 -14.018575 -0.275579 823 0.597191 0.802099 0.000000
-14.738466 -14.016353 -0.663108 819 0.597191 0.802099 0.000000
-14.737241 -14.015194 -0.656799 825 0.597191 0.802099 0.000000
-14.736320 -14.014313 -0.650508 815 0.597191 0.802099 0.000000
-14.737629 -14.015563 -0.644315 821 0.597191 0.802099 0.000000
-14.738777 -14.016654 -0.638104 815 0.597191 0.802099 0.000000
-14.738394 -14.016280 -0.631838 805 0.597191 0.802099 0.000000
-14.738955 -14.016823 -0.625612 821 0.597191 0.802099 0.000000
-14.738462 -14.016346 -0.619337 855 0.597191 0.802099 0.000000
-14.737221 -14.015176 -0.613038 821 0.597191 0.802099 0.000000
-14.738366 -14.016252 -0.606828 801 0.597191 0.802099 0.000000
-14.739820 -14.017646 -0.600634 819 0.597191 0.802099 0.000000
-14.739852 -14.017664 -0.594383 819 0.597191 0.802099 0.000000
-14.738978 -14.016834 -0.588101 825 0.597191 0.802099 0.000000
-14.738197 -14.016094 -0.581819 823 0.597191 0.802099 0.000000
-14.737432 -14.015367 -0.575536 809 0.597191 0.802099 0.000000
-14.737504 -14.015430 -0.569285 823 0.597191 0.802099 0.000000
-14.739436 -14.017269 -0.563116 855 0.597191 0.802099 0.000000
-14.739187 -14.017032 -0.556849 835 0.597191 0.802099 0.000000
-14.737562 -14.015493 -0.550544 835 0.597191 0.802099 0.000000
-14.738098 -14.016004 -0.544309 863 0.597191 0.802099 0.000000
-14.738492 -14.016371 -0.538075 837 0.597191 0.802099 0.000000
-14.737649 -14.015580 -0.531793 839 0.597191 0.802099 0.000000
-14.737033 -14.014987 -0.525518 827 0.597191 0.802099 0.000000
-14.737308 -14.015245 -0.519275 839 0.597191 0.802099 0.000000
-14.737954 -14.015859 -0.513049 851 0.597191 0.802099 0.000000
-14.738019 -14.015918 -0.506809 837 0.597191 0.802099 0.000000
-14.738604 -14.016480 -0.500573 863 0.597191 0.802099 0.000000
-14.738502 -14.016376 -0.494324 841 0.597191 0.802099 0.000000
-14.737237 -14.015173 -0.488035 821 0.597191 0.802099 0.000000
-14.737451 -14.015380 -0.481793 833 0.597191 0.802099 0.000000
-14.737398 -14.015328 -0.475534 841 0.597191 0.802099 0.000000
-14.737504 -14.015433 -0.469292 833 0.597191 0.802099 0.000000
-14.738556 -14.016433 -0.463072 837 0.597191 0.802099 0.000000
-14.738605 -14.016479 -0.456832 841 0.597191 0.802099 0.000000
-14.737755 -14.015668 -0.450550 835 0.597191 0.802099 0.000000
-14.737004 -14.014953 -0.444277 833 0.597191 0.802099 0.000000
-14.737785 -14.015703 -0.438059 819 0.597191 0.802099 0.000000
-14.737787 -14.015697 -0.431809 807 0.597191 0.802099 0.000000
-14.736765 -14.014732 -0.425528 815 0.597191 0.802099 0.000000
-14.736861 -14.014815 -0.419287 803 0.597191 0.802099 0.000000
-14.737324 -14.015254 -0.413053 813 0.597191 0.802099 0.000000
-14.738095 -14.015997 -0.406825 851 0.597191 0.802099 0.000000
-14.737503 -14.015424 -0.400561 831 0.597191 0.802099 0.000000
-14.736635 -14.014599 -0.394289 809 0.597191 0.802099 0.000000
-14.737469 -14.015392 -0.388061 829 0.597191 0.802099 0.000000
-14.737552 -14.015478 -0.381810 815 0.597191 0.802099 0.000000
-14.737106 -14.015054 -0.375554 811 0.597191 0.802099 0.000000
-14.737777 -14.015687 -0.369328 807 0.597191 0.802099 0.000000
-14.738226 -14.016113 -0.363083 815 0.597191 0.802099 0.000000
-14.737515 -14.015443 -0.356820 813 0.597191 0.802099 0.000000
-14.736634 -14.014607 -0.350558 817 0.597191 0.802099 0.000000
-14.735703 -14.013717 -0.344287 803 0.597191 0.802099 0.000000
-14.735995 -14.013988 -0.338044 771 0.597191 0.802099 0.000000
-14.737761 -14.015678 -0.331837 793 0.597191 0.802099 0.000000
-14.738054 -14.015950 -0.325594 791 0.597191 0.802099 0.000000
-14.736741 -14.014708 -0.319326 789 0.597191 0.802099 0.000000
-14.736815 -14.014773 -0.313075 791 0.597191 0.802099 0.000000
-14.736253 -14.014238 -0.306820 771 0.597191 0.802099 0.000000
-14.735997 -14.013994 -0.300563 795 0.597191 0.802099 0.000000
-14.736282 -14.014260 -0.294330 781 0.597191 0.802099 0.000000
-14.735596 -14.013610 -0.288066 787 0.597191 0.802099 0.000000
-14.734861 -14.012907 -0.281803 797 0.597191 0.802099 0.000000
-14.735407 -14.013438 -0.275568 793 0.597191 0.802099 0.000000
-14.742162 -14.011624 -0.663085 819 0.597191 0.802099 0.000000
-14.742899 -14.012313 -0.656868 831 0.597191 0.802099 0.000000
-14.743834 -14.013203 -0.650659 819 0.597191 0.802099 0.000000
-14.742342 -14.011786 -0.644343 805 0.597191 0.802099 0.000000
-14.742006 -14.011464 -0.638076 809 0.597191 0.802099 0.000000
-14.742511 -14.011950 -0.631841 807 0.597191 0.802099 0.000000
-14.743236 -14.012641 -0.625624 821 0.597191 0.802099 0.000000
-14.743754 -14.013124 -0.619389 821 0.597191 0.802099 0.000000
-14.743890 -14.013252 -0.613147 811 0.597191 0.802099 0.000000
-14.743275 -14.012675 -0.606863 811 0.597191 0.802099 0.000000
-14.742988 -14.012405 -0.600605 805 0.597191 0.802099 0.000000
-14.743279 -14.012676 -0.594363 799 0.597191 0.802099 0.000000
-14.743355 -14.012755 -0.588112 821 0.597191 0.802099 0.000000
-14.743599 -14.012975 -0.581869 831 0.597191 0.802099 0.000000
-14.743563 -14.012951 -0.575619 833 0.597191 0.802099 0.000000
-14.743165 -14.012563 -0.569353 823 0.597191 0.802099 0.000000
-14.742120 -14.011580 -0.563063 813 0.597191 0.802099 0.000000
-14.742137 -14.011586 -0.556813 797 0.597191 0.802099 0.000000
-14.742947 -14.012361 -0.550595 803 0.597191 0.802099 0.000000
-14.743710 -14.013083 -0.544367 817 0.597191 0.802099 0.000000
-14.743250 -14.012645 -0.538102 823 0.597191 0.802099 0.000000
-14.743261 -14.012660 -0.531851 793 0.597191 0.802099 0.000000
-14.743374 -14.012771 -0.525600 797 0.597191 0.802099 0.000000
-14.742491 -14.011919 -0.519318 825 0.597191 0.802099 0.000000
-14.742126 -14.011573 -0.513062 833 0.597191 0.802099 0.000000
-14.742074 -14.011536 -0.506802 839 0.597191 0.802099 0.000000
-14.743253 -14.012651 -0.500601 847 0.597191 0.802099 0.000000
-14.742728 -14.012149 -0.494325 829 0.597191 0.802099 0.000000
-14.741080 -14.010592 -0.488021 815 0.597191 0.802099 0.000000
-14.741192 -14.010689 -0.481780 809 0.597191 0.802099 0.000000
-14.741358 -14.010842 -0.475538 807 0.597191 0.802099 0.000000
-14.741621 -14.011102 -0.469295 827 0.597191 0.802099 0.000000
-14.741984 -14.011446 -0.463062 853 0.597191 0.802099 0.000000
-14.741714 -14.011189 -0.456804 843 0.597191 0.802099 0.000000
-14.742617 -14.012040 -0.450576 819 0.597191 0.802099 0.000000
-14.743081 -14.012492 -0.444341 825 0.597191 0.802099 0.000000
-14.742285 -14.011725 -0.438068 809 0.597191 0.802099 0.000000
-14.742483 -14.011920 -0.431826 799 0.597191 0.802099 0.000000
-14.743004 -14.012418 -0.425591 803 0.597191 0.802099 0.000000
-14.743044 -14.012444 -0.419341 825 0.597191 0.802099 0.000000
-14.741974 -14.011425 -0.413071 811 0.597191 0.802099 0.000000
-14.741110 -14.010616 -0.406799 819 0.597191 0.802099 0.000000
-14.740774 -14.010294 -0.400542 789 0.597191 0.802099 0.000000
-14.741551 -14.011029 -0.394314 797 0.597191 0.802099 0.000000
-14.742229 -14.011667 -0.388078 837 0.597191 0.802099 0.000000
-14.741833 -14.011295 -0.381821 839 0.597191 0.802099 0.000000
-14.741648 -14.011123 -0.375573 831 0.597191 0.802099 0.000000
-14.741633 -14.011104 -0.369323 843 0.597191 0.802099 0.000000
-14.741975 -14.011428 -0.363080 811 0.597191 0.802099 0.000000
-14.741687 -14.011157 -0.356822 821 0.597191 0.802099 0.000000
-14.741488 -14.010972 -0.350574 817 0.597191 0.802099 0.000000
-14.741106 -14.010599 -0.344317 801 0.597191 0.802099 0.000000
-14.741437 -14.010916 -0.338074 799 0.597191 0.802099 0.000000
-14.742364 -14.011799 -0.331855 805 0.597191 0.802099 0.000000
-14.742014 -14.011464 -0.325598 807 0.597191 0.802099 0.000000
-14.742081 -14.011538 -0.319347 809 0.597191 0.802099 0.000000
-14.740884 -14.010390 -0.313079 759 0.597191 0.802099 0.000000
-14.740676 -14.010199 -0.306830 773 0.597191 0.802099 0.000000
-14.741806 -14.011275 -0.300600 787 0.597191 0.802099 0.000000
-14.742404 -14.011836 -0.294364 787 0.597191 0.802099 0.000000
-14.742635 -14.012056 -0.288122 789 0.597191 0.802099 0.000000
-14.741477 -14.010956 -0.281852 791 0.597191 0.802099 0.000000
-14.740792 -14.010306 -0.275599 805 0.597191 0.802099 0.000000
-14.748625 -14.009700 -0.663205 827 0.597191 0.802099 0.000000
-14.747498 -14.008624 -0.656895 787 0.597191 0.802099 0.000000
-14.747227 -14.008367 -0.650627 815 0.597191 0.802099 0.000000
-14.747473 -14.008600 -0.644395 817 0.597191 0.802099 0.000000
-14.746662 -14.007835 -0.638103 823 0.597191 0.802099 0.000000
-14.746539 -14.007713 -0.631844 809 0.597191 0.802099 0.000000
-14.747474 -14.008604 -0.625635 819 0.597191 0.802099 0.000000
-14.747869 -14.008985 -0.619401 815 0.597191 0.802099 0.000000
-14.746586 -14.007753 -0.613093 795 0.597191 0.802099 0.000000
-14.746613 -14.007781 -0.606842 789 0.597191 0.802099 0.000000
-14.748073 -14.009168 -0.600648 811 0.597191 0.802099 0.000000
-14.748687 -14.009756 -0.594422 797 0.597191 0.802099 0.000000
-14.748125 -14.009221 -0.588148 809 0.597191 0.802099 0.000000
-14.747886 -14.008990 -0.581880 815 0.597191 0.802099 0.000000
-14.747902 -14.009009 -0.575629 827 0.597191 0.802099 0.000000
-14.747398 -14.008534 -0.569364 821 0.597191 0.802099 0.000000
-14.747258 -14.008400 -0.563105 809 0.597191 0.802099 0.000000
-14.747230 -14.008368 -0.556855 797 0.597191 0.802099 0.000000
-14.747405 -14.008531 -0.550614 807 0.597191 0.802099 0.000000
-14.747415 -14.008543 -0.544353 813 0.597191 0.802099 0.000000
-14.747645 -14.008763 -0.538111 821 0.597191 0.802099 0.000000
-14.747131 -14.008268 -0.531846 803 0.597191 0.802099 0.000000
-14.746445 -14.007619 -0.525572 805 0.597191 0.802099 0.000000
-14.747036 -14.008187 -0.519346 817 0.597191 0.802099 0.000000
-14.746678 -14.007846 -0.513079 809 0.597191 0.802099 0.000000
-14.746792 -14.007957 -0.506828 845 0.597191 0.802099 0.000000
-14.745797 -14.007002 -0.500548 809 0.597191 0.802099 0.000000
-14.744681 -14.005947 -0.494258 811 0.597191 0.802099 0.000000
-14.745798 -14.007013 -0.488047 813 0.597191 0.802099 0.000000
-14.747179 -14.008322 -0.481844 819 0.597191 0.802099 0.000000
-14.747714 -14.008832 -0.475609 821 0.597191 0.802099 0.000000
-14.747763 -14.008877 -0.469368 819 0.597191 0.802099 0.000000
-14.747813 -14.008923 -0.463118 839 0.597191 0.802099 0.000000
-14.746593 -14.007757 -0.456829 829 0.597191 0.802099 0.000000
-14.746425 -14.007598 -0.450570 803 0.597191 0.802099 0.000000
-14.747272 -14.008404 -0.444352 827 0.597191 0.802099 0.000000
-14.746782 -14.007940 -0.438087 807 0.597191 0.802099 0.000000
-14.746565 -14.007728 -0.431829 813 0.597191 0.802099 0.000000
-14.747030 -14.008182 -0.425594 835 0.597191 0.802099 0.000000
-14.747127 -14.008265 -0.419353 823 0.597191 0.802099 0.000000
-14.746269 -14.007448 -0.413081 795 0.597191 0.802099 0.000000
-14.745722 -14.006926 -0.406816 809 0.597191 0.802099 0.000000
-14.745703 -14.006915 -0.400566 831 0.597191 0.802099 0.000000
-14.746379 -14.007553 -0.394340 827 0.597191 0.802099 0.000000
-14.746625 -14.007788 -0.388097 811 0.597191 0.802099 0.000000
-14.746549 -14.007716 -0.381838 811 0.597191 0.802099 0.000000
-14.746426 -14.007595 -0.375589 809 0.597191 0.802099 0.000000
-14.745811 -14.007017 -0.369324 817 0.597191 0.802099 0.000000
-14.745047 -14.006289 -0.363061 813 0.597191 0.802099 0.000000
-14.744916 -14.006161 -0.356813 783 0.597191 0.802099 0.000000
-14.745999 -14.007199 -0.350592 783 0.597191 0.802099 0.000000
-14.746982 -14.008128 -0.344363 793 0.597191 0.802099 0.000000
-14.747220 -14.008355 -0.338120 795 0.597191 0.802099 0.000000
-14.747394 -14.008517 -0.331878 801 0.597191 0.802099 0.000000
-14.747412 -14.008536 -0.325628 801 0.597191 0.802099 0.000000
-14.747015 -14.008150 -0.319372 787 0.597191 0.802099 0.000000
-14.746283 -14.007463 -0.313109 777 0.597191 0.802099 0.000000
-14.745345 -14.006567 -0.306847 767 0.597191 0.802099 0.000000
-14.744776 -14.006026 -0.300582 789 0.597191 0.802099 0.000000
-14.745961 -14.007149 -0.294361 805 0.597191 0.802099 0.000000
-14.747233 -14.008368 -0.288139 795 0.597191 0.802099 0.000000
-14.746877 -14.008029 -0.281882 803 0.597191 0.802099 0.000000
-14.745830 -14.007030 -0.275622 805 0.597191 0.802099 0.000000
-14.752476 -14.005112 -0.663190 765 0.597191 0.802099 0.000000
-14.752204 -14.004855 -0.656922 799 0.597191 0.802099 0.000000
-14.752928 -14.005546 -0.650705 819 0.597191 0.802099 0.000000
-14.753228 -14.005837 -0.644462 819 0.597191 0.802099 0.000000
-14.752955 -14.005566 -0.638195 799 0.597191 0.802099 0.000000
-14.752928 -14.005548 -0.631945 797 0.597191 0.802099 0.000000
-14.752861 -14.005486 -0.625685 783 0.597191 0.802099 0.000000
-14.752369 -14.005008 -0.619420 771 0.597191 0.802099 0.000000
-14.752287 -14.004932 -0.613161 769 0.597191 0.802099 0.000000
-14.752688 -14.005320 -0.606927 801 0.597191 0.802099 0.000000
-14.751071 -14.003787 -0.600602 787 0.597191 0.802099 0.000000
-14.750570 -14.003304 -0.594336 809 0.597191 0.802099 0.000000
-14.752030 -14.004690 -0.588142 807 0.597191 0.802099 0.000000
-14.752418 -14.005066 -0.581909 801 0.597191 0.802099 0.000000
-14.752232 -14.004879 -0.575640 801 0.597191 0.802099 0.000000
-14.751882 -14.004545 -0.569383 803 0.597191 0.802099 0.000000
-14.753334 -14.005925 -0.563180 823 0.597191 0.802099 0.000000
-14.754316 -14.006854 -0.556970 825 0.597191 0.802099 0.000000
-14.752893 -14.005507 -0.550663 815 0.597191 0.802099 0.000000
-14.752113 -14.004768 -0.544381 837 0.597191 0.802099 0.000000
-14.751647 -14.004324 -0.538115 823 0.597191 0.802099 0.000000
-14.752307 -14.004951 -0.531888 803 0.597191 0.802099 0.000000
-14.752795 -14.005408 -0.525654 801 0.597191 0.802099 0.000000
-14.751796 -14.004462 -0.519363 807 0.597191 0.802099 0.000000
-14.750373 -14.003116 -0.513066 811 0.597191 0.802099 0.000000
-14.751174 -14.003871 -0.506849 819 0.597191 0.802099 0.000000
-14.751498 -14.004182 -0.500605 819 0.597191 0.802099 0.000000
-14.752088 -14.004735 -0.494380 821 0.597191 0.802099 0.000000
-14.753470 -14.006059 -0.488166 831 0.597191 0.802099 0.000000
-14.752830 -14.005446 -0.481902 825 0.597191 0.802099 0.000000
-14.751674 -14.004346 -0.475613 791 0.597191 0.802099 0.000000
-14.752193 -14.004843 -0.469378 809 0.597191 0.802099 0.000000
-14.752621 -14.005251 -0.463144 829 0.597191 0.802099 0.000000
-14.752724 -14.005341 -0.456893 813 0.597191 0.802099 0.000000
-14.753353 -14.005940 -0.450667 805 0.597191 0.802099 0.000000
-14.752549 -14.005181 -0.444384 815 0.597191 0.802099 0.000000
-14.752170 -14.004823 -0.438128 797 0.597191 0.802099 0.000000
-14.752805 -14.005416 -0.431901 813 0.597191 0.802099 0.000000
-14.751994 -14.004649 -0.425619 815 0.597191 0.802099 0.000000
-14.752138 -14.004786 -0.419377 817 0.597191 0.802099 0.000000
-14.752712 -14.005328 -0.413142 817 0.597191 0.802099 0.000000
-14.752058 -14.004717 -0.406878 819 0.597191 0.802099 0.000000
-14.751614 -14.004292 -0.400612 821 0.597191 0.802099 0.000000
-14.751868 -14.004532 -0.394369 799 0.597191 0.802099 0.000000
-14.752168 -14.004809 -0.388137 793 0.597191 0.802099 0.000000
-14.751558 -14.004236 -0.381872 807 0.597191 0.802099 0.000000
-14.750905 -14.003613 -0.375608 811 0.597191 0.802099 0.000000
-14.750296 -14.003040 -0.369344 785 0.597191 0.802099 0.000000
-14.750221 -14.002972 -0.363094 753 0.597191 0.802099 0.000000
-14.751156 -14.003846 -0.356865 789 0.597191 0.802099 0.000000
-14.752020 -14.004680 -0.350637 811 0.597191 0.802099 0.000000
-14.751350 -14.004044 -0.344373 789 0.597191 0.802099 0.000000
-14.751273 -14.003960 -0.338124 783 0.597191 0.802099 0.000000
-14.751348 -14.004039 -0.331873 781 0.597191 0.802099 0.000000
-14.751898 -14.004560 -0.325638 795 0.597191 0.802099 0.000000
-14.751118 -14.003820 -0.319375 783 0.597191 0.802099 0.000000
-14.750510 -14.003236 -0.313120 761 0.597191 0.802099 0.000000
-14.750780 -14.003502 -0.306878 759 0.597191 0.802099 0.000000
-14.750484 -14.003211 -0.300620 759 0.597191 0.802099 0.000000
-14.749752 -14.002523 -0.294357 769 0.597191 0.802099 0.000000
-14.750348 -14.003084 -0.288121 761 0.597191 0.802099 0.000000
-14.751526 -14.004200 -0.281900 797 0.597191 0.802099 0.000000
-14.750057 -14.002802 -0.275624 799 0.597191 0.802099 0.000000
-14.758705 -14.002480 -0.663284 801 0.597191 0.802099 0.000000
-14.757957 -14.001764 -0.656991 787 0.597191 0.802099 0.000000
-14.758685 -14.002447 -0.650774 805 0.597191 0.802099 0.000000
-14.758666 -14.002437 -0.644514 809 0.597191 0.802099 0.000000
-14.757704 -14.001522 -0.638223 803 0.597191 0.802099 0.000000
-14.758531 -14.002310 -0.632005 799 0.597191 0.802099 0.000000
-14.759151 -14.002891 -0.625780 797 0.597191 0.802099 0.000000
-14.759445 -14.003175 -0.619537 789 0.597191 0.802099 0.000000
-14.758522 -14.002293 -0.613245 793 0.597191 0.802099 0.000000
-14.757751 -14.001572 -0.606962 797 0.597191 0.802099 0.000000
-14.758104 -14.001894 -0.600719 789 0.597191 0.802099 0.000000
-14.758029 -14.001824 -0.594469 791 0.597191 0.802099 0.000000
-14.757476 -14.001297 -0.588194 793 0.597191 0.802099 0.000000
-14.757808 -14.001613 -0.581951 805 0.597191 0.802099 0.000000
-14.757302 -14.001138 -0.575676 799 0.597191 0.802099 0.000000
-14.757532 -14.001358 -0.569433 811 0.597191 0.802099 0.000000
-14.758773 -14.002539 -0.563232 803 0.597191 0.802099 0.000000
-14.757679 -14.001488 -0.556942 807 0.597191 0.802099 0.000000
-14.757383 -14.001212 -0.550674 785 0.597191 0.802099 0.000000
-14.757927 -14.001728 -0.544439 805 0.597191 0.802099 0.000000
-14.757568 -14.001388 -0.538182 807 0.597191 0.802099 0.000000
-14.757846 -14.001646 -0.531940 797 0.597191 0.802099 0.000000
-14.758286 -14.002066 -0.525695 791 0.597191 0.802099 0.000000
-14.757602 -14.001417 -0.519422 807 0.597191 0.802099 0.000000
-14.757878 -14.001675 -0.513179 803 0.597191 0.802099 0.000000
-14.758522 -14.002288 -0.506953 813 0.597191 0.802099 0.000000
-14.757625 -14.001437 -0.500671 803 0.597191 0.802099 0.000000
-14.758481 -14.002251 -0.494453 813 0.597191 0.802099 0.000000
-14.758273 -14.002059 -0.488195 813 0.597191 0.802099 0.000000
-14.757163 -14.000996 -0.481905 811 0.597191 0.802099 0.000000
-14.756423 -14.000301 -0.475632 807 0.597191 0.802099 0.000000
-14.755353 -13.999285 -0.469342 805 0.597191 0.802099 0.000000
-14.755301 -13.999233 -0.463092 805 0.597191 0.802099 0.000000
-14.755459 -13.999382 -0.456850 803 0.597191 0.802099 0.000000
-14.756935 -14.000782 -0.450646 817 0.597191 0.802099 0.000000
-14.758527 -14.002290 -0.444441 831 0.597191 0.802099 0.000000
-14.758406 -14.002182 -0.438192 813 0.597191 0.802099 0.000000
-14.756811 -14.000669 -0.431897 795 0.597191 0.802099 0.000000
-14.756368 -14.000244 -0.425631 789 0.597191 0.802099 0.000000
-14.756778 -14.000639 -0.419397 807 0.597191 0.802099 0.000000
-14.756514 -14.000375 -0.413139 799 0.597191 0.802099 0.000000
-14.756486 -14.000358 -0.406889 823 0.597191 0.802099 0.000000
-14.757215 -14.001053 -0.400652 817 0.597191 0.802099 0.000000
-14.757947 -14.001737 -0.394425 803 0.597191 0.802099 0.000000
-14.757708 -14.001519 -0.388168 797 0.597191 0.802099 0.000000
-14.757435 -14.001249 -0.381910 787 0.597191 0.802099 0.000000
-14.757720 -14.001527 -0.375667 817 0.597191 0.802099 0.000000
-14.758130 -14.001907 -0.369433 803 0.597191 0.802099 0.000000
-14.757624 -14.001431 -0.363168 789 0.597191 0.802099 0.000000
-14.757869 -14.001665 -0.356925 799 0.597191 0.802099 0.000000
-14.757356 -14.001184 -0.350670 811 0.597191 0.802099 0.000000
-14.755533 -13.999443 -0.344377 807 0.597191 0.802099 0.000000
-14.756343 -14.000217 -0.338149 801 0.597191 0.802099 0.000000
-14.756158 -14.000045 -0.331891 763 0.597191 0.802099 0.000000
-14.755481 -13.999402 -0.325627 769 0.597191 0.802099 0.000000
-14.755875 -13.999769 -0.319393 783 0.597191 0.802099 0.000000
-14.755995 -13.999887 -0.313142 763 0.597191 0.802099 0.000000
-14.755536 -13.999450 -0.306886 747 0.597191 0.802099 0.000000
-14.755929 -13.999818 -0.300642 753 0.597191 0.802099 0.000000
-14.756472 -14.000333 -0.294407 763 0.597191 0.802099 0.000000
-14.755786 -13.999683 -0.288153 769 0.597191 0.802099 0.000000
-14.755538 -13.999447 -0.281896 773 0.597191 0.802099 0.000000
-14.755384 -13.999299 -0.275647 771 0.597191 0.802099 0.000000
-14.762146 -13.996829 -0.663237 791 0.597191 0.802099 0.000000
-14.762346 -13.997024 -0.656995 777 0.597191 0.802099 0.000000
-14.762762 -13.997411 -0.650761 795 0.597191 0.802099 0.000000
-14.762907 -13.997547 -0.644510 789 0.597191 0.802099 0.000000
-14.764210 -13.998792 -0.638317 791 0.597191 0.802099 0.000000
-14.764143 -13.998729 -0.632058 793 0.597191 0.802099 0.000000
-14.763863 -13.998452 -0.625790 781 0.597191 0.802099 0.000000
-14.763897 -13.998485 -0.619540 763 0.597191 0.802099 0.000000
-14.763556 -13.998171 -0.613273 757 0.597191 0.802099 0.000000
-14.763856 -13.998448 -0.607030 793 0.597191 0.802099 0.000000
-14.764038 -13.998617 -0.600788 815 0.597191 0.802099 0.000000
-14.764384 -13.998945 -0.594544 831 0.597191 0.802099 0.000000
-14.763659 -13.998263 -0.588261 803 0.597191 0.802099 0.000000
-14.762418 -13.997079 -0.581963 795 0.597191 0.802099 0.000000
-14.762805 -13.997455 -0.575719 771 0.597191 0.802099 0.000000
-14.764051 -13.998626 -0.569517 801 0.597191 0.802099 0.000000
-14.764446 -13.999009 -0.563283 795 0.597191 0.802099 0.000000
-14.763408 -13.998017 -0.556993 807 0.597191 0.802099 0.000000
-14.762094 -13.996774 -0.550685 813 0.597191 0.802099 0.000000
-14.762318 -13.996988 -0.544443 797 0.597191 0.802099 0.000000
-14.762922 -13.997556 -0.538217 797 0.597191 0.802099 0.000000
-14.763042 -13.997673 -0.531966 783 0.597191 0.802099 0.000000
-14.763209 -13.997827 -0.525724 783 0.597191 0.802099 0.000000
-14.763480 -13.998094 -0.519481 785 0.597191 0.802099 0.000000
-14.763325 -13.997946 -0.513223 805 0.597191 0.802099 0.000000
-14.762655 -13.997310 -0.506949 797 0.597191 0.802099 0.000000
-14.761490 -13.996202 -0.500660 807 0.597191 0.802099 0.000000
-14.760325 -13.995093 -0.494360 783 0.597191 0.802099 0.000000
-14.761072 -13.995804 -0.488143 771 0.597191 0.802099 0.000000
-14.761608 -13.996313 -0.481908 767 0.597191 0.802099 0.000000
-14.760326 -13.995096 -0.475620 765 0.597191 0.802099 0.000000
-14.760331 -13.995105 -0.469370 769 0.597191 0.802099 0.000000
-14.762557 -13.997212 -0.463189 805 0.597191 0.802099 0.000000
-14.763459 -13.998063 -0.456960 809 0.597191 0.802099 0.000000
-14.763400 -13.998006 -0.450710 815 0.597191 0.802099 0.000000
-14.763339 -13.997949 -0.444461 805 0.597191 0.802099 0.000000
-14.763335 -13.997950 -0.438211 795 0.597191 0.802099 0.000000
-14.764121 -13.998692 -0.431983 797 0.597191 0.802099 0.000000
-14.763630 -13.998229 -0.425718 813 0.597191 0.802099 0.000000
-14.761769 -13.996457 -0.419415 783 0.597191 0.802099 0.000000
-14.761592 -13.996291 -0.413157 791 0.597191 0.802099 0.000000
-14.761204 -13.995925 -0.406900 795 0.597191 0.802099 0.000000
-14.761245 -13.995963 -0.400650 803 0.597191 0.802099 0.000000
-14.761970 -13.996655 -0.394413 807 0.597191 0.802099 0.000000
-14.762058 -13.996734 -0.388172 779 0.597191 0.802099 0.000000
-14.762404 -13.997062 -0.381928 779 0.597191 0.802099 0.000000
-14.761430 -13.996135 -0.375657 789 0.597191 0.802099 0.000000
-14.761729 -13.996413 -0.369414 779 0.597191 0.802099 0.000000
-14.763564 -13.998159 -0.363207 789 0.597191 0.802099 0.000000
-14.762792 -13.997426 -0.356944 793 0.597191 0.802099 0.000000
-14.761596 -13.996293 -0.350665 783 0.597191 0.802099 0.000000
-14.761514 -13.996218 -0.344416 791 0.597191 0.802099 0.000000
-14.760530 -13.995284 -0.338145 769 0.597191 0.802099 0.000000
-14.760234 -13.994994 -0.331888 761 0.597191 0.802099 0.000000
-14.760362 -13.995117 -0.325646 779 0.597191 0.802099 0.000000
-14.760905 -13.995633 -0.319401 793 0.597191 0.802099 0.000000
-14.762138 -13.996808 -0.313179 783 0.597191 0.802099 0.000000
-14.762962 -13.997581 -0.306951 779 0.597191 0.802099 0.000000
-14.761909 -13.996591 -0.300681 773 0.597191 0.802099 0.000000
-14.760651 -13.995393 -0.294413 775 0.597191 0.802099 0.000000
-14.761616 -13.996308 -0.288183 769 0.597191 0.802099 0.000000
-14.762583 -13.997225 -0.281944 779 0.597191 0.802099 0.000000
-14.761631 -13.996331 -0.275683 789 0.597191 0.802099 0.000000
