205
-21.799906 -21.031408 -0.650304 951 -0.057545 0.998343 0.000000
-21.800842 -21.032326 -0.641024 947 -0.057545 0.998343 0.000000
-21.801025 -21.032494 -0.631723 955 -0.057545 0.998343 0.000000
-21.801224 -21.032684 -0.622420 949 -0.057545 0.998343 0.000000
-21.800783 -21.032270 -0.613104 935 -0.057545 0.998343 0.000000
-21.799706 -21.031227 -0.603765 935 -0.057545 0.998343 0.000000
-21.799295 -21.030840 -0.594448 929 -0.057545 0.998343 0.000000
-21.798384 -21.029961 -0.585117 921 -0.057545 0.998343 0.000000
-21.797354 -21.028971 -0.575786 937 -0.057545 0.998343 0.000000
-21.798155 -21.029736 -0.566499 937 -0.057545 0.998343 0.000000
-21.799669 -21.031197 -0.557234 941 -0.057545 0.998343 0.000000
-21.798359 -21.029934 -0.547896 939 -0.057545 0.998343 0.000000
-21.798418 -21.029997 -0.538595 933 -0.057545 0.998343 0.000000
-21.799282 -21.030828 -0.529307 939 -0.057545 0.998343 0.000000
-21.798660 -21.030228 -0.519993 937 -0.057545 0.998343 0.000000
-21.797981 -21.029579 -0.510669 927 -0.057545 0.998343 0.000000
-21.798046 -21.029634 -0.501368 931 -0.057545 0.998343 0.000000
-21.798937 -21.030500 -0.492089 927 -0.057545 0.998343 0.000000
-21.798470 -21.030054 -0.482773 953 -0.057545 0.998343 0.000000
-21.798409 -21.029993 -0.473464 953 -0.057545 0.998343 0.000000
-21.798836 -21.030411 -0.464169 939 -0.057545 0.998343 0.000000
-21.797571 -21.029188 -0.454841 961 -0.057545 0.998343 0.000000
-21.796770 -21.028414 -0.445519 955 -0.057545 0.998343 0.000000
-21.798864 -21.030441 -0.436258 937 -0.057545 0.998343 0.000000
-21.798702 -21.030283 -0.426950 963 -0.057545 0.998343 0.000000
-21.798002 -21.029602 -0.417636 957 -0.057545 0.998343 0.000000
-21.799086 -21.030657 -0.408356 957 -0.057545 0.998343 0.000000
-21.798338 -21.029938 -0.399033 931 -0.057545 0.998343 0.000000
-21.797474 -21.029108 -0.389721 929 -0.057545 0.998343 0.000000
-21.796873 -21.028524 -0.380406 921 -0.057545 0.998343 0.000000
-21.796705 -21.028362 -0.371098 929 -0.057545 0.998343 0.000000
-21.796560 -21.028233 -0.361789 937 -0.057545 0.998343 0.000000
-21.796478 -21.028152 -0.352489 937 -0.057545 0.998343 0.000000
-21.797829 -21.029451 -0.343206 931 -0.057545 0.998343 0.000000
-21.798223 -21.029831 -0.333912 939 -0.057545 0.998343 0.000000
-21.797970 -21.029596 -0.324604 927 -0.057545 0.998343 0.000000
-21.799364 -21.030931 -0.315321 925 -0.057545 0.998343 0.000000
-21.799065 -21.030647 -0.306013 935 -0.057545 0.998343 0.000000
-21.797808 -21.029444 -0.296695 935 -0.057545 0.998343 0.000000
-21.797287 -21.028938 -0.287390 925 -0.057545 0.998343 0.000000
-21.796413 -21.028088 -0.278078 917 -0.057545 0.998343 0.000000
-21.812811 -21.029520 -0.650482 927 -0.057545 0.998343 0.000000
-21.814379 -21.031023 -0.641217 931 -0.057545 0.998343 0.000000
-21.814352 -21.031002 -0.631907 931 -0.057545 0.998343 0.000000
-21.814182 -21.030842 -0.622589 933 -0.057545 0.998343 0.000000
-21.813053 -21.029755 -0.613249 943 -0.057545 0.998343 0.000000
-21.812443 -21.029163 -0.603925 931 -0.057545 0.998343 0.000000
-21.814327 -21.030977 -0.594667 919 -0.057545 0.998343 0.000000
-21.815035 -21.031670 -0.585380 931 -0.057545 0.998343 0.000000
-21.815157 -21.031784 -0.576068 937 -0.057545 0.998343 0.000000
-21.815073 -21.031704 -0.566759 953 -0.057545 0.998343 0.000000
-21.813509 -21.030195 -0.557413 947 -0.057545 0.998343 0.000000
-21.812162 -21.028902 -0.548066 945 -0.057545 0.998343 0.000000
-21.813705 -21.030388 -0.538801 929 -0.057545 0.998343 0.000000
-21.814400 -21.031065 -0.529504 951 -0.057545 0.998343 0.000000
-21.814144 -21.030817 -0.520196 943 -0.057545 0.998343 0.000000
-21.814945 -21.031586 -0.510909 941 -0.057545 0.998343 0.000000
-21.814159 -21.030834 -0.501576 929 -0.057545 0.998343 0.000000
-21.813694 -21.030388 -0.492260 939 -0.057545 0.998343 0.000000
-21.815107 -21.031748 -0.482986 935 -0.057545 0.998343 0.000000
-21.814842 -21.031496 -0.473669 947 -0.057545 0.998343 0.000000
-21.812851 -21.029568 -0.464318 947 -0.057545 0.998343 0.000000
-21.812675 -21.029413 -0.455009 965 -0.057545 0.998343 0.000000
-21.812782 -21.029514 -0.445708 947 -0.057545 0.998343 0.000000
-21.811939 -21.028690 -0.436386 953 -0.057545 0.998343 0.000000
-21.811497 -21.028278 -0.427070 941 -0.057545 0.998343 0.000000
-21.812494 -21.029232 -0.417780 941 -0.057545 0.998343 0.000000
-21.812155 -21.028913 -0.408463 951 -0.057545 0.998343 0.000000
-21.811445 -21.028227 -0.399149 941 -0.057545 0.998343 0.000000
-21.812498 -21.029242 -0.389859 945 -0.057545 0.998343 0.000000
-21.812368 -21.029123 -0.380550 941 -0.057545 0.998343 0.000000
-21.812498 -21.029243 -0.371249 933 -0.057545 0.998343 0.000000
-21.813267 -21.029985 -0.361951 955 -0.057545 0.998343 0.000000
-21.814085 -21.030779 -0.352663 947 -0.057545 0.998343 0.000000
-21.814104 -21.030796 -0.343352 933 -0.057545 0.998343 0.000000
-21.813019 -21.029749 -0.334033 931 -0.057545 0.998343 0.000000
-21.812944 -21.029676 -0.324723 943 -0.057545 0.998343 0.000000
-21.811377 -21.028177 -0.315398 935 -0.057545 0.998343 0.000000
-21.811237 -21.028038 -0.306089 929 -0.057545 0.998343 0.000000
-21.812454 -21.029213 -0.296807 929 -0.057545 0.998343 0.000000
-21.812145 -21.028921 -0.287490 921 -0.057545 0.998343 0.000000
-21.812109 -21.028881 -0.278190 927 -0.057545 0.998343 0.000000
-21.829693 -21.032131 -0.650780 921 -0.057545 0.998343 0.000000
-21.831104 -21.033493 -0.641506 931 -0.057545 0.998343 0.000000
-21.831562 -21.033924 -0.632211 933 -0.057545 0.998343 0.000000
-21.831385 -21.033754 -0.622893 927 -0.057545 0.998343 0.000000
-21.830465 -21.032867 -0.613551 927 -0.057545 0.998343 0.000000
-21.829809 -21.032238 -0.604217 931 -0.057545 0.998343 0.000000
-21.830839 -21.033232 -0.594937 917 -0.057545 0.998343 0.000000
-21.831232 -21.033613 -0.585633 931 -0.057545 0.998343 0.000000
-21.830887 -21.033289 -0.576306 929 -0.057545 0.998343 0.000000
-21.828800 -21.031271 -0.566946 935 -0.057545 0.998343 0.000000
-21.829493 -21.031948 -0.557649 933 -0.057545 0.998343 0.000000
-21.831984 -21.034344 -0.548395 941 -0.057545 0.998343 0.000000
-21.830900 -21.033310 -0.539055 939 -0.057545 0.998343 0.000000
-21.830177 -21.032610 -0.529732 933 -0.057545 0.998343 0.000000
-21.829609 -21.032064 -0.520407 963 -0.057545 0.998343 0.000000
-21.829245 -21.031713 -0.511080 953 -0.057545 0.998343 0.000000
-21.828943 -21.031416 -0.501763 949 -0.057545 0.998343 0.000000
-21.830050 -21.032486 -0.492482 961 -0.057545 0.998343 0.000000
-21.831205 -21.033609 -0.483191 955 -0.057545 0.998343 0.000000
-21.830050 -21.032490 -0.473852 939 -0.057545 0.998343 0.000000
-21.829098 -21.031578 -0.464521 949 -0.057545 0.998343 0.000000
-21.829086 -21.031570 -0.455211 935 -0.057545 0.998343 0.000000
-21.829927 -21.032383 -0.445922 939 -0.057545 0.998343 0.000000
-21.828960 -21.031443 -0.436591 941 -0.057545 0.998343 0.000000
-21.827961 -21.030479 -0.427261 957 -0.057545 0.998343 0.000000
-21.829210 -21.031694 -0.417968 945 -0.057545 0.998343 0.000000
-21.830307 -21.032745 -0.408678 939 -0.057545 0.998343 0.000000
-21.830030 -21.032478 -0.399370 935 -0.057545 0.998343 0.000000
-21.828579 -21.031088 -0.390034 923 -0.057545 0.998343 0.000000
-21.827667 -21.030209 -0.380702 931 -0.057545 0.998343 0.000000
-21.828905 -21.031401 -0.371420 929 -0.057545 0.998343 0.000000
-21.829302 -21.031780 -0.362116 943 -0.057545 0.998343 0.000000
-21.828375 -21.030901 -0.352785 947 -0.057545 0.998343 0.000000
-21.827517 -21.030067 -0.343463 933 -0.057545 0.998343 0.000000
-21.828789 -21.031300 -0.334170 927 -0.057545 0.998343 0.000000
-21.829865 -21.032331 -0.324880 937 -0.057545 0.998343 0.000000
-21.828945 -21.031445 -0.315559 937 -0.057545 0.998343 0.000000
-21.827736 -21.030294 -0.306230 925 -0.057545 0.998343 0.000000
-21.826862 -21.029446 -0.296908 913 -0.057545 0.998343 0.000000
-21.826351 -21.028946 -0.287593 907 -0.057545 0.998343 0.000000
-21.826927 -21.029514 -0.278297 913 -0.057545 0.998343 0.000000
-21.844980 -21.034504 -0.651055 917 -0.057545 0.998343 0.000000
-21.845587 -21.035097 -0.641759 919 -0.057545 0.998343 0.000000
-21.844305 -21.033861 -0.632401 917 -0.057545 0.998343 0.000000
-21.843658 -21.033239 -0.623067 919 -0.057545 0.998343 0.000000
-21.844273 -21.033827 -0.613771 929 -0.057545 0.998343 0.000000
-21.844879 -21.034418 -0.604465 937 -0.057545 0.998343 0.000000
-21.845322 -21.034851 -0.595161 937 -0.057545 0.998343 0.000000
-21.845303 -21.034822 -0.585851 917 -0.057545 0.998343 0.000000
-21.844212 -21.033781 -0.576501 921 -0.057545 0.998343 0.000000
-21.843555 -21.033140 -0.567167 923 -0.057545 0.998343 0.000000
-21.844311 -21.033869 -0.557869 919 -0.057545 0.998343 0.000000
-21.845959 -21.035463 -0.548603 925 -0.057545 0.998343 0.000000
-21.845282 -21.034817 -0.539270 923 -0.057545 0.998343 0.000000
-21.842140 -21.031782 -0.529870 921 -0.057545 0.998343 0.000000
-21.842621 -21.032249 -0.520575 941 -0.057545 0.998343 0.000000
-21.843681 -21.033266 -0.511284 959 -0.057545 0.998343 0.000000
-21.844692 -21.034246 -0.501984 935 -0.057545 0.998343 0.000000
-21.846333 -21.035824 -0.492708 935 -0.057545 0.998343 0.000000
-21.844324 -21.033895 -0.483347 933 -0.057545 0.998343 0.000000
-21.842325 -21.031977 -0.473996 925 -0.057545 0.998343 0.000000
-21.843533 -21.033131 -0.464705 927 -0.057545 0.998343 0.000000
-21.844790 -21.034351 -0.455412 929 -0.057545 0.998343 0.000000
-21.844049 -21.033638 -0.446089 935 -0.057545 0.998343 0.000000
-21.842464 -21.032112 -0.436734 913 -0.057545 0.998343 0.000000
-21.842077 -21.031742 -0.427418 927 -0.057545 0.998343 0.000000
-21.843073 -21.032696 -0.418128 923 -0.057545 0.998343 0.000000
-21.842937 -21.032574 -0.408809 919 -0.057545 0.998343 0.000000
-21.842299 -21.031958 -0.399485 909 -0.057545 0.998343 0.000000
-21.843384 -21.033009 -0.390184 919 -0.057545 0.998343 0.000000
-21.843590 -21.033194 -0.380882 925 -0.057545 0.998343 0.000000
-21.843672 -21.033278 -0.371561 917 -0.057545 0.998343 0.000000
-21.844639 -21.034220 -0.362271 925 -0.057545 0.998343 0.000000
-21.842716 -21.032364 -0.352920 945 -0.057545 0.998343 0.000000
-21.842314 -21.031981 -0.343603 937 -0.057545 0.998343 0.000000
-21.843657 -21.033272 -0.334310 907 -0.057545 0.998343 0.000000
-21.843298 -21.032928 -0.324993 919 -0.057545 0.998343 0.000000
-21.842487 -21.032145 -0.315671 915 -0.057545 0.998343 0.000000
-21.842396 -21.032059 -0.306352 907 -0.057545 0.998343 0.000000
-21.842346 -21.032019 -0.297042 899 -0.057545 0.998343 0.000000
-21.841404 -21.031115 -0.287711 897 -0.057545 0.998343 0.000000
-21.842480 -21.032146 -0.278420 911 -0.057545 0.998343 0.000000
-21.860559 -21.036146 -0.651323 901 -0.057545 0.998343 0.000000
-21.859217 -21.034859 -0.641966 913 -0.057545 0.998343 0.000000
-21.858994 -21.034637 -0.632638 907 -0.057545 0.998343 0.000000
-21.858496 -21.034163 -0.623303 897 -0.057545 0.998343 0.000000
-21.858109 -21.033779 -0.613976 893 -0.057545 0.998343 0.000000
-21.859076 -21.034723 -0.604677 907 -0.057545 0.998343 0.000000
-21.860800 -21.036383 -0.595410 895 -0.057545 0.998343 0.000000
-21.860146 -21.035753 -0.586066 911 -0.057545 0.998343 0.000000
-21.858891 -21.034550 -0.576718 901 -0.057545 0.998343 0.000000
-21.859129 -21.034773 -0.567405 897 -0.057545 0.998343 0.000000
-21.860142 -21.035755 -0.558115 911 -0.057545 0.998343 0.000000
-21.859480 -21.035107 -0.548771 915 -0.057545 0.998343 0.000000
-21.859386 -21.035021 -0.539452 905 -0.057545 0.998343 0.000000
-21.860458 -21.036062 -0.530161 907 -0.057545 0.998343 0.000000
-21.860256 -21.035860 -0.520833 937 -0.057545 0.998343 0.000000
-21.860056 -21.035669 -0.511515 921 -0.057545 0.998343 0.000000
-21.859529 -21.035172 -0.502180 921 -0.057545 0.998343 0.000000
-21.860064 -21.035679 -0.492874 919 -0.057545 0.998343 0.000000
-21.859535 -21.035183 -0.483539 901 -0.057545 0.998343 0.000000
-21.858114 -21.033804 -0.474193 909 -0.057545 0.998343 0.000000
-21.858534 -21.034216 -0.464888 913 -0.057545 0.998343 0.000000
-21.858006 -21.033703 -0.455553 921 -0.057545 0.998343 0.000000
-21.858252 -21.033947 -0.446241 911 -0.057545 0.998343 0.000000
-21.858881 -21.034548 -0.436934 913 -0.057545 0.998343 0.000000
-21.858196 -21.033894 -0.427611 923 -0.057545 0.998343 0.000000
-21.858177 -21.033878 -0.418291 909 -0.057545 0.998343 0.000000
-21.859846 -21.035479 -0.409004 903 -0.057545 0.998343 0.000000
-21.859774 -21.035421 -0.399685 901 -0.057545 0.998343 0.000000
-21.858860 -21.034540 -0.390343 893 -0.057545 0.998343 0.000000
-21.857954 -21.033667 -0.381012 907 -0.057545 0.998343 0.000000
-21.857981 -21.033689 -0.371701 915 -0.057545 0.998343 0.000000
-21.858643 -21.034327 -0.362395 913 -0.057545 0.998343 0.000000
-21.858616 -21.034307 -0.353075 905 -0.057545 0.998343 0.000000
-21.859480 -21.035139 -0.343776 907 -0.057545 0.998343 0.000000
-21.859186 -21.034859 -0.334449 921 -0.057545 0.998343 0.000000
-21.859472 -21.035137 -0.325136 919 -0.057545 0.998343 0.000000
-21.859333 -21.035000 -0.315817 905 -0.057545 0.998343 0.000000
-21.858706 -21.034405 -0.306493 913 -0.057545 0.998343 0.000000
-21.858568 -21.034266 -0.297174 905 -0.057545 0.998343 0.000000
-21.858053 -21.033766 -0.287849 909 -0.057545 0.998343 0.000000
-21.859436 -21.035105 -0.278555 897 -0.057545 0.998343 0.000000
