205
-21.685125 -21.023769 -0.648394 1131 -0.057545 0.998343 0.000000
-21.684950 -21.023602 -0.639106 1135 -0.057545 0.998343 0.000000
-21.684036 -21.022720 -0.629804 1133 -0.057545 0.998343 0.000000
-21.682758 -21.021484 -0.620486 1137 -0.057545 0.998343 0.000000
-21.683058 -21.021774 -0.611213 1133 -0.057545 0.998343 0.000000
-21.683971 -21.022659 -0.601964 1133 -0.057545 0.998343 0.000000
-21.683943 -21.022638 -0.592684 1135 -0.057545 0.998343 0.000000
-21.684126 -21.022820 -0.583412 1133 -0.057545 0.998343 0.000000
-21.683151 -21.021873 -0.574101 1127 -0.057545 0.998343 0.000000
-21.681963 -21.020714 -0.564793 1133 -0.057545 0.998343 0.000000
-21.682972 -21.021704 -0.555543 1131 -0.057545 0.998343 0.000000
-21.683678 -21.022379 -0.546286 1139 -0.057545 0.998343 0.000000
-21.684427 -21.023115 -0.537028 1131 -0.057545 0.998343 0.000000
-21.683867 -21.022566 -0.527733 1131 -0.057545 0.998343 0.000000
-21.683243 -21.021961 -0.518439 1127 -0.057545 0.998343 0.000000
-21.684031 -21.022730 -0.509181 1131 -0.057545 0.998343 0.000000
-21.684349 -21.023046 -0.499918 1131 -0.057545 0.998343 0.000000
-21.683992 -21.022701 -0.490631 1135 -0.057545 0.998343 0.000000
-21.683001 -21.021729 -0.481331 1131 -0.057545 0.998343 0.000000
-21.683519 -21.022240 -0.472065 1141 -0.057545 0.998343 0.000000
-21.683886 -21.022594 -0.462792 1135 -0.057545 0.998343 0.000000
-21.683365 -21.022087 -0.453506 1133 -0.057545 0.998343 0.000000
-21.682665 -21.021423 -0.444213 1139 -0.057545 0.998343 0.000000
-21.683342 -21.022074 -0.434956 1129 -0.057545 0.998343 0.000000
-21.683386 -21.022110 -0.425676 1125 -0.057545 0.998343 0.000000
-21.683311 -21.022053 -0.416396 1121 -0.057545 0.998343 0.000000
-21.683041 -21.021791 -0.407118 1131 -0.057545 0.998343 0.000000
-21.682081 -21.020861 -0.397827 1125 -0.057545 0.998343 0.000000
-21.683111 -21.021854 -0.388567 1125 -0.057545 0.998343 0.000000
-21.683037 -21.021782 -0.379288 1123 -0.057545 0.998343 0.000000
-21.682859 -21.021610 -0.370009 1133 -0.057545 0.998343 0.000000
-21.683403 -21.022141 -0.360744 1135 -0.057545 0.998343 0.000000
-21.683275 -21.022024 -0.351465 1141 -0.057545 0.998343 0.000000
-21.681870 -21.020658 -0.342168 1129 -0.057545 0.998343 0.000000
-21.681795 -21.020586 -0.332889 1117 -0.057545 0.998343 0.000000
-21.681602 -21.020403 -0.323610 1129 -0.057545 0.998343 0.000000
-21.681253 -21.020065 -0.314333 1131 -0.057545 0.998343 0.000000
-21.682213 -21.021004 -0.305074 1129 -0.057545 0.998343 0.000000
-21.682703 -21.021473 -0.295809 1127 -0.057545 0.998343 0.000000
-21.681507 -21.020321 -0.286510 1129 -0.057545 0.998343 0.000000
-21.681715 -21.020521 -0.277248 1133 -0.057545 0.998343 0.000000
-21.701761 -21.026789 -0.648700 1161 -0.057545 0.998343 0.000000
-21.701853 -21.026878 -0.639419 1149 -0.057545 0.998343 0.000000
-21.701729 -21.026752 -0.630130 1149 -0.057545 0.998343 0.000000
-21.701969 -21.026993 -0.620848 1141 -0.057545 0.998343 0.000000
-21.701635 -21.026667 -0.611561 1143 -0.057545 0.998343 0.000000
-21.700605 -21.025677 -0.602250 1163 -0.057545 0.998343 0.000000
-21.700216 -21.025293 -0.592954 1143 -0.057545 0.998343 0.000000
-21.699869 -21.024971 -0.583657 1147 -0.057545 0.998343 0.000000
-21.699520 -21.024632 -0.574370 1149 -0.057545 0.998343 0.000000
-21.699917 -21.025011 -0.565096 1143 -0.057545 0.998343 0.000000
-21.700294 -21.025379 -0.555822 1157 -0.057545 0.998343 0.000000
-21.701365 -21.026419 -0.546572 1141 -0.057545 0.998343 0.000000
-21.701799 -21.026844 -0.537297 1143 -0.057545 0.998343 0.000000
-21.701176 -21.026243 -0.528003 1147 -0.057545 0.998343 0.000000
-21.701189 -21.026255 -0.518723 1153 -0.057545 0.998343 0.000000
-21.700989 -21.026066 -0.509434 1145 -0.057545 0.998343 0.000000
-21.700310 -21.025404 -0.500131 1149 -0.057545 0.998343 0.000000
-21.700626 -21.025705 -0.490858 1143 -0.057545 0.998343 0.000000
-21.701994 -21.027042 -0.481604 1141 -0.057545 0.998343 0.000000
-21.701309 -21.026377 -0.472310 1139 -0.057545 0.998343 0.000000
-21.699682 -21.024803 -0.462996 1135 -0.057545 0.998343 0.000000
-21.698725 -21.023872 -0.453695 1139 -0.057545 0.998343 0.000000
-21.699095 -21.024233 -0.444421 1139 -0.057545 0.998343 0.000000
-21.699976 -21.025091 -0.435162 1151 -0.057545 0.998343 0.000000
-21.699228 -21.024372 -0.425859 1131 -0.057545 0.998343 0.000000
-21.698896 -21.024048 -0.416572 1137 -0.057545 0.998343 0.000000
-21.698421 -21.023581 -0.407287 1137 -0.057545 0.998343 0.000000
-21.698599 -21.023767 -0.398015 1145 -0.057545 0.998343 0.000000
-21.699747 -21.024870 -0.388754 1147 -0.057545 0.998343 0.000000
-21.699249 -21.024385 -0.379458 1151 -0.057545 0.998343 0.000000
-21.699800 -21.024933 -0.370192 1143 -0.057545 0.998343 0.000000
-21.700563 -21.025667 -0.360925 1149 -0.057545 0.998343 0.000000
-21.699434 -21.024584 -0.351626 1153 -0.057545 0.998343 0.000000
-21.699514 -21.024651 -0.342345 1135 -0.057545 0.998343 0.000000
-21.699165 -21.024313 -0.333058 1131 -0.057545 0.998343 0.000000
-21.698818 -21.023991 -0.323781 1145 -0.057545 0.998343 0.000000
-21.699987 -21.025114 -0.314519 1149 -0.057545 0.998343 0.000000
-21.699953 -21.025085 -0.305239 1143 -0.057545 0.998343 0.000000
-21.699228 -21.024387 -0.295946 1149 -0.057545 0.998343 0.000000
-21.699450 -21.024597 -0.286664 1141 -0.057545 0.998343 0.000000
-21.699987 -21.025120 -0.277398 1139 -0.057545 0.998343 0.000000
-21.715860 -21.027584 -0.648930 1151 -0.057545 0.998343 0.000000
-21.715319 -21.027061 -0.639625 1151 -0.057545 0.998343 0.000000
-21.716291 -21.028009 -0.630365 1151 -0.057545 0.998343 0.000000
-21.716593 -21.028297 -0.621092 1153 -0.057545 0.998343 0.000000
-21.715467 -21.027205 -0.611773 1149 -0.057545 0.998343 0.000000
-21.714916 -21.026672 -0.602468 1147 -0.057545 0.998343 0.000000
-21.714685 -21.026443 -0.593180 1157 -0.057545 0.998343 0.000000
-21.714024 -21.025808 -0.583876 1147 -0.057545 0.998343 0.000000
-21.713785 -21.025576 -0.574578 1147 -0.057545 0.998343 0.000000
-21.714149 -21.025944 -0.565304 1141 -0.057545 0.998343 0.000000
-21.714497 -21.026270 -0.556031 1143 -0.057545 0.998343 0.000000
-21.714783 -21.026548 -0.546748 1149 -0.057545 0.998343 0.000000
-21.714739 -21.026514 -0.537458 1147 -0.057545 0.998343 0.000000
-21.715229 -21.026983 -0.528193 1145 -0.057545 0.998343 0.000000
-21.715132 -21.026894 -0.518904 1147 -0.057545 0.998343 0.000000
-21.714399 -21.026188 -0.509601 1143 -0.057545 0.998343 0.000000
-21.714355 -21.026140 -0.500311 1143 -0.057545 0.998343 0.000000
-21.713413 -21.025234 -0.491010 1145 -0.057545 0.998343 0.000000
-21.713150 -21.024981 -0.481712 1141 -0.057545 0.998343 0.000000
-21.713411 -21.025238 -0.472439 1143 -0.057545 0.998343 0.000000
-21.713093 -21.024925 -0.463152 1145 -0.057545 0.998343 0.000000
-21.713293 -21.025120 -0.453870 1135 -0.057545 0.998343 0.000000
-21.714025 -21.025843 -0.444603 1143 -0.057545 0.998343 0.000000
-21.713598 -21.025427 -0.435306 1145 -0.057545 0.998343 0.000000
-21.713539 -21.025370 -0.426017 1143 -0.057545 0.998343 0.000000
-21.713840 -21.025656 -0.416744 1135 -0.057545 0.998343 0.000000
-21.714354 -21.026159 -0.407468 1143 -0.057545 0.998343 0.000000
-21.713762 -21.025585 -0.398174 1125 -0.057545 0.998343 0.000000
-21.712215 -21.024088 -0.388859 1137 -0.057545 0.998343 0.000000
-21.712502 -21.024366 -0.379586 1155 -0.057545 0.998343 0.000000
-21.713209 -21.025057 -0.370319 1157 -0.057545 0.998343 0.000000
-21.712931 -21.024790 -0.361031 1155 -0.057545 0.998343 0.000000
-21.712952 -21.024809 -0.351741 1139 -0.057545 0.998343 0.000000
-21.714027 -21.025854 -0.342480 1147 -0.057545 0.998343 0.000000
-21.714415 -21.026228 -0.333196 1147 -0.057545 0.998343 0.000000
-21.715076 -21.026865 -0.323929 1149 -0.057545 0.998343 0.000000
-21.714775 -21.026581 -0.314642 1153 -0.057545 0.998343 0.000000
-21.713783 -21.025621 -0.305341 1141 -0.057545 0.998343 0.000000
-21.713051 -21.024916 -0.296048 1143 -0.057545 0.998343 0.000000
-21.712500 -21.024384 -0.286763 1149 -0.057545 0.998343 0.000000
-21.712927 -21.024805 -0.277479 1139 -0.057545 0.998343 0.000000
-21.728956 -21.027901 -0.649136 1155 -0.057545 0.998343 0.000000
-21.729734 -21.028662 -0.639869 1167 -0.057545 0.998343 0.000000
-21.728987 -21.027931 -0.630556 1157 -0.057545 0.998343 0.000000
-21.728380 -21.027355 -0.621251 1159 -0.057545 0.998343 0.000000
-21.728046 -21.027029 -0.611954 1153 -0.057545 0.998343 0.000000
-21.727236 -21.026245 -0.602642 1153 -0.057545 0.998343 0.000000
-21.726778 -21.025806 -0.593336 1155 -0.057545 0.998343 0.000000
-21.727173 -21.026184 -0.584062 1139 -0.057545 0.998343 0.000000
-21.727152 -21.026169 -0.574772 1145 -0.057545 0.998343 0.000000
-21.728119 -21.027100 -0.565512 1141 -0.057545 0.998343 0.000000
-21.729345 -21.028294 -0.556250 1137 -0.057545 0.998343 0.000000
-21.728729 -21.027699 -0.546946 1143 -0.057545 0.998343 0.000000
-21.728531 -21.027512 -0.537658 1145 -0.057545 0.998343 0.000000
-21.729122 -21.028078 -0.528382 1141 -0.057545 0.998343 0.000000
-21.729448 -21.028399 -0.519098 1149 -0.057545 0.998343 0.000000
-21.728775 -21.027746 -0.509795 1137 -0.057545 0.998343 0.000000
-21.727364 -21.026386 -0.500478 1143 -0.057545 0.998343 0.000000
-21.726929 -21.025965 -0.491172 1153 -0.057545 0.998343 0.000000
-21.727676 -21.026688 -0.481905 1145 -0.057545 0.998343 0.000000
-21.727262 -21.026285 -0.472608 1143 -0.057545 0.998343 0.000000
-21.727198 -21.026234 -0.463319 1149 -0.057545 0.998343 0.000000
-21.727045 -21.026081 -0.454030 1147 -0.057545 0.998343 0.000000
-21.727457 -21.026476 -0.444746 1135 -0.057545 0.998343 0.000000
-21.727701 -21.026718 -0.435463 1143 -0.057545 0.998343 0.000000
-21.727644 -21.026659 -0.426184 1143 -0.057545 0.998343 0.000000
-21.728369 -21.027365 -0.416906 1139 -0.057545 0.998343 0.000000
-21.727942 -21.026947 -0.407610 1151 -0.057545 0.998343 0.000000
-21.727446 -21.026474 -0.398315 1143 -0.057545 0.998343 0.000000
-21.727793 -21.026817 -0.389031 1137 -0.057545 0.998343 0.000000
-21.728086 -21.027100 -0.379748 1145 -0.057545 0.998343 0.000000
-21.728645 -21.027641 -0.370473 1139 -0.057545 0.998343 0.000000
-21.727985 -21.027006 -0.361179 1133 -0.057545 0.998343 0.000000
-21.726540 -21.025610 -0.351872 1143 -0.057545 0.998343 0.000000
-21.727514 -21.026545 -0.342593 1137 -0.057545 0.998343 0.000000
-21.727589 -21.026621 -0.333312 1145 -0.057545 0.998343 0.000000
-21.727547 -21.026588 -0.324022 1161 -0.057545 0.998343 0.000000
-21.728252 -21.027264 -0.314745 1149 -0.057545 0.998343 0.000000
-21.727531 -21.026579 -0.305452 1145 -0.057545 0.998343 0.000000
-21.728073 -21.027094 -0.296176 1151 -0.057545 0.998343 0.000000
-21.727396 -21.026447 -0.286883 1157 -0.057545 0.998343 0.000000
-21.726984 -21.026045 -0.277586 1155 -0.057545 0.998343 0.000000
-21.744703 -21.030783 -0.649428 1167 -0.057545 0.998343 0.000000
-21.743431 -21.029554 -0.640100 1153 -0.057545 0.998343 0.000000
-21.743036 -21.029177 -0.630793 1155 -0.057545 0.998343 0.000000
-21.743706 -21.029823 -0.621516 1155 -0.057545 0.998343 0.000000
-21.744045 -21.030157 -0.612233 1163 -0.057545 0.998343 0.000000
-21.742868 -21.029018 -0.602904 1149 -0.057545 0.998343 0.000000
-21.742268 -21.028435 -0.593600 1149 -0.057545 0.998343 0.000000
-21.741867 -21.028053 -0.584293 1149 -0.057545 0.998343 0.000000
-21.741259 -21.027464 -0.574989 1143 -0.057545 0.998343 0.000000
-21.741959 -21.028147 -0.565712 1141 -0.057545 0.998343 0.000000
-21.742722 -21.028883 -0.556444 1143 -0.057545 0.998343 0.000000
-21.742155 -21.028339 -0.547129 1131 -0.057545 0.998343 0.000000
-21.743221 -21.029364 -0.537869 1149 -0.057545 0.998343 0.000000
-21.745012 -21.031103 -0.528622 1155 -0.057545 0.998343 0.000000
-21.744083 -21.030209 -0.519300 1141 -0.057545 0.998343 0.000000
-21.741943 -21.028131 -0.509961 1139 -0.057545 0.998343 0.000000
-21.742252 -21.028442 -0.500677 1137 -0.057545 0.998343 0.000000
-21.743053 -21.029209 -0.491400 1145 -0.057545 0.998343 0.000000
-21.743206 -21.029364 -0.482118 1143 -0.057545 0.998343 0.000000
-21.743523 -21.029667 -0.472835 1143 -0.057545 0.998343 0.000000
-21.742994 -21.029154 -0.463529 1147 -0.057545 0.998343 0.000000
-21.742310 -21.028500 -0.454226 1139 -0.057545 0.998343 0.000000
-21.742085 -21.028276 -0.444928 1139 -0.057545 0.998343 0.000000
-21.742075 -21.028271 -0.435638 1159 -0.057545 0.998343 0.000000
-21.742596 -21.028780 -0.426352 1163 -0.057545 0.998343 0.000000
-21.742895 -21.029068 -0.417069 1139 -0.057545 0.998343 0.000000
-21.742992 -21.029165 -0.407778 1131 -0.057545 0.998343 0.000000
-21.743132 -21.029306 -0.398496 1143 -0.057545 0.998343 0.000000
-21.742523 -21.028717 -0.389192 1145 -0.057545 0.998343 0.000000
-21.742189 -21.028391 -0.379895 1143 -0.057545 0.998343 0.000000
-21.742483 -21.028675 -0.370612 1143 -0.057545 0.998343 0.000000
-21.742832 -21.029016 -0.361328 1151 -0.057545 0.998343 0.000000
-21.743494 -21.029654 -0.352042 1161 -0.057545 0.998343 0.000000
-21.742565 -21.028763 -0.342741 1149 -0.057545 0.998343 0.000000
-21.740589 -21.026861 -0.333419 1137 -0.057545 0.998343 0.000000
-21.741077 -21.027330 -0.324134 1143 -0.057545 0.998343 0.000000
-21.742359 -21.028572 -0.314862 1153 -0.057545 0.998343 0.000000
-21.743050 -21.029236 -0.305585 1153 -0.057545 0.998343 0.000000
-21.742975 -21.029161 -0.296295 1143 -0.057545 0.998343 0.000000
-21.741922 -21.028152 -0.286995 1135 -0.057545 0.998343 0.000000
-21.741825 -21.028061 -0.277696 1159 -0.057545 0.998343 0.000000
