180
-29.167870 -27.987816 -0.659466 833 0.400281 0.916393 0.000000
-29.169163 -27.989065 -0.647083 823 0.400281 0.916393 0.000000
-29.169155 -27.989054 -0.634663 827 0.400281 0.916393 0.000000
-29.167072 -27.987059 -0.622202 835 0.400281 0.916393 0.000000
-29.168005 -27.987955 -0.609803 815 0.400281 0.916393 0.000000
-29.170033 -27.989901 -0.597424 823 0.400281 0.916393 0.000000
-29.169226 -27.989128 -0.584991 825 0.400281 0.916393 0.000000
-29.167982 -27.987928 -0.572553 815 0.400281 0.916393 0.000000
-29.166883 -27.986876 -0.560113 817 0.400281 0.916393 0.000000
-29.166422 -27.986439 -0.547687 817 0.400281 0.916393 0.000000
-29.167654 -27.987610 -0.535295 839 0.400281 0.916393 0.000000
-29.166824 -27.986818 -0.522862 849 0.400281 0.916393 0.000000
-29.164728 -27.984810 -0.510412 827 0.400281 0.916393 0.000000
-29.166782 -27.986778 -0.498032 819 0.400281 0.916393 0.000000
-29.168478 -27.988409 -0.485646 857 0.400281 0.916393 0.000000
-29.168264 -27.988205 -0.473228 819 0.400281 0.916393 0.000000
-29.167473 -27.987444 -0.460795 815 0.400281 0.916393 0.000000
-29.165409 -27.985462 -0.448354 801 0.400281 0.916393 0.000000
-29.165453 -27.985508 -0.435943 807 0.400281 0.916393 0.000000
-29.167336 -27.987309 -0.423555 821 0.400281 0.916393 0.000000
-29.168436 -27.988371 -0.411154 819 0.400281 0.916393 0.000000
-29.169638 -27.989515 -0.398753 829 0.400281 0.916393 0.000000
-29.169621 -27.989500 -0.386333 843 0.400281 0.916393 0.000000
-29.168753 -27.988676 -0.373910 841 0.400281 0.916393 0.000000
-29.167149 -27.987125 -0.361476 815 0.400281 0.916393 0.000000
-29.165747 -27.985785 -0.349048 805 0.400281 0.916393 0.000000
-29.166611 -27.986612 -0.336640 803 0.400281 0.916393 0.000000
-29.167212 -27.987198 -0.324234 807 0.400281 0.916393 0.000000
-29.167757 -27.987709 -0.311829 779 0.400281 0.916393 0.000000
-29.169985 -27.989859 -0.299437 791 0.400281 0.916393 0.000000
-29.180408 -27.983740 -0.659579 835 0.400281 0.916393 0.000000
-29.179218 -27.982599 -0.647130 849 0.400281 0.916393 0.000000
-29.178411 -27.981825 -0.634697 823 0.400281 0.916393 0.000000
-29.178333 -27.981756 -0.622277 839 0.400281 0.916393 0.000000
-29.179651 -27.983011 -0.609885 819 0.400281 0.916393 0.000000
-29.178093 -27.981514 -0.597429 815 0.400281 0.916393 0.000000
-29.176945 -27.980419 -0.584990 801 0.400281 0.916393 0.000000
-29.178238 -27.981655 -0.572597 827 0.400281 0.916393 0.000000
-29.179840 -27.983196 -0.560212 821 0.400281 0.916393 0.000000
-29.179291 -27.982662 -0.547787 829 0.400281 0.916393 0.000000
-29.179937 -27.983284 -0.535380 861 0.400281 0.916393 0.000000
-29.179615 -27.982975 -0.522953 845 0.400281 0.916393 0.000000
-29.177357 -27.980806 -0.510504 825 0.400281 0.916393 0.000000
-29.179003 -27.982384 -0.498108 831 0.400281 0.916393 0.000000
-29.181118 -27.984417 -0.485728 817 0.400281 0.916393 0.000000
-29.179438 -27.982803 -0.473283 841 0.400281 0.916393 0.000000
-29.179153 -27.982540 -0.460866 823 0.400281 0.916393 0.000000
-29.180050 -27.983395 -0.448457 839 0.400281 0.916393 0.000000
-29.177885 -27.981319 -0.436007 809 0.400281 0.916393 0.000000
-29.176662 -27.980150 -0.423579 809 0.400281 0.916393 0.000000
-29.178240 -27.981659 -0.411183 813 0.400281 0.916393 0.000000
-29.179010 -27.982395 -0.398776 839 0.400281 0.916393 0.000000
-29.178932 -27.982328 -0.386356 853 0.400281 0.916393 0.000000
-29.178907 -27.982306 -0.373946 817 0.400281 0.916393 0.000000
-29.177732 -27.981174 -0.361517 793 0.400281 0.916393 0.000000
-29.178442 -27.981850 -0.349100 811 0.400281 0.916393 0.000000
-29.179630 -27.982998 -0.336698 799 0.400281 0.916393 0.000000
-29.178970 -27.982359 -0.324274 785 0.400281 0.916393 0.000000
-29.177883 -27.981316 -0.311854 799 0.400281 0.916393 0.000000
-29.177515 -27.980968 -0.299428 797 0.400281 0.916393 0.000000
-29.191683 -27.977776 -0.659647 851 0.400281 0.916393 0.000000
-29.191235 -27.977352 -0.647211 833 0.400281 0.916393 0.000000
-29.190546 -27.976688 -0.634777 835 0.400281 0.916393 0.000000
-29.189302 -27.975504 -0.622339 807 0.400281 0.916393 0.000000
-29.188807 -27.975023 -0.609903 821 0.400281 0.916393 0.000000
-29.188791 -27.975008 -0.597483 841 0.400281 0.916393 0.000000
-29.190556 -27.976698 -0.585106 831 0.400281 0.916393 0.000000
-29.191162 -27.977274 -0.572700 821 0.400281 0.916393 0.000000
-29.191811 -27.977898 -0.560293 831 0.400281 0.916393 0.000000
-29.191996 -27.978073 -0.547871 829 0.400281 0.916393 0.000000
-29.190674 -27.976810 -0.535434 829 0.400281 0.916393 0.000000
-29.190163 -27.976320 -0.522998 833 0.400281 0.916393 0.000000
-29.191803 -27.977892 -0.510612 847 0.400281 0.916393 0.000000
-29.192614 -27.978664 -0.498204 827 0.400281 0.916393 0.000000
-29.192190 -27.978260 -0.485778 833 0.400281 0.916393 0.000000
-29.190977 -27.977098 -0.473339 843 0.400281 0.916393 0.000000
-29.191084 -27.977196 -0.460928 841 0.400281 0.916393 0.000000
-29.191021 -27.977140 -0.448508 827 0.400281 0.916393 0.000000
-29.189541 -27.975721 -0.436062 799 0.400281 0.916393 0.000000
-29.188574 -27.974802 -0.423631 811 0.400281 0.916393 0.000000
-29.188351 -27.974590 -0.411213 829 0.400281 0.916393 0.000000
-29.190609 -27.976751 -0.398831 811 0.400281 0.916393 0.000000
-29.191013 -27.977135 -0.386417 819 0.400281 0.916393 0.000000
-29.191044 -27.977167 -0.373996 821 0.400281 0.916393 0.000000
-29.191547 -27.977646 -0.361581 821 0.400281 0.916393 0.000000
-29.190302 -27.976446 -0.349153 815 0.400281 0.916393 0.000000
-29.191959 -27.978046 -0.336757 769 0.400281 0.916393 0.000000
-29.193356 -27.979380 -0.324353 769 0.400281 0.916393 0.000000
-29.192848 -27.978891 -0.311928 777 0.400281 0.916393 0.000000
-29.191427 -27.977535 -0.299491 791 0.400281 0.916393 0.000000
-29.204935 -27.973032 -0.659750 841 0.400281 0.916393 0.000000
-29.202757 -27.970943 -0.647280 831 0.400281 0.916393 0.000000
-29.201210 -27.969467 -0.634825 807 0.400281 0.916393 0.000000
-29.201355 -27.969597 -0.622413 819 0.400281 0.916393 0.000000
-29.200071 -27.968365 -0.609965 813 0.400281 0.916393 0.000000
-29.200979 -27.969242 -0.597566 827 0.400281 0.916393 0.000000
-29.203907 -27.972048 -0.585198 817 0.400281 0.916393 0.000000
-29.203522 -27.971676 -0.572771 823 0.400281 0.916393 0.000000
-29.202051 -27.970261 -0.560325 835 0.400281 0.916393 0.000000
-29.202175 -27.970387 -0.547904 817 0.400281 0.916393 0.000000
-29.203884 -27.972017 -0.535517 835 0.400281 0.916393 0.000000
-29.203054 -27.971226 -0.523085 833 0.400281 0.916393 0.000000
-29.203436 -27.971590 -0.510671 853 0.400281 0.916393 0.000000
-29.204756 -27.972858 -0.498268 833 0.400281 0.916393 0.000000
-29.203703 -27.971844 -0.485828 819 0.400281 0.916393 0.000000
-29.202320 -27.970530 -0.473390 839 0.400281 0.916393 0.000000
-29.203226 -27.971390 -0.460982 823 0.400281 0.916393 0.000000
-29.203804 -27.971943 -0.448576 829 0.400281 0.916393 0.000000
-29.203011 -27.971182 -0.436143 789 0.400281 0.916393 0.000000
-29.205212 -27.973297 -0.423752 809 0.400281 0.916393 0.000000
-29.204149 -27.972271 -0.411322 821 0.400281 0.916393 0.000000
-29.200529 -27.968811 -0.398846 799 0.400281 0.916393 0.000000
-29.200567 -27.968840 -0.386435 807 0.400281 0.916393 0.000000
-29.201385 -27.969631 -0.374027 781 0.400281 0.916393 0.000000
-29.201845 -27.970058 -0.361612 791 0.400281 0.916393 0.000000
-29.202454 -27.970648 -0.349196 795 0.400281 0.916393 0.000000
-29.203640 -27.971781 -0.336795 779 0.400281 0.916393 0.000000
-29.203606 -27.971750 -0.324375 773 0.400281 0.916393 0.000000
-29.203730 -27.971863 -0.311953 765 0.400281 0.916393 0.000000
-29.203905 -27.972033 -0.299541 781 0.400281 0.916393 0.000000
-29.218468 -27.968208 -0.659862 823 0.400281 0.916393 0.000000
-29.217812 -27.967583 -0.647428 813 0.400281 0.916393 0.000000
-29.215576 -27.965446 -0.634959 793 0.400281 0.916393 0.000000
-29.215830 -27.965679 -0.622536 801 0.400281 0.916393 0.000000
-29.214054 -27.963991 -0.610073 803 0.400281 0.916393 0.000000
-29.214148 -27.964077 -0.597662 781 0.400281 0.916393 0.000000
-29.216772 -27.966579 -0.585286 805 0.400281 0.916393 0.000000
-29.216675 -27.966497 -0.572867 815 0.400281 0.916393 0.000000
-29.216166 -27.966009 -0.560432 809 0.400281 0.916393 0.000000
-29.215717 -27.965570 -0.547996 803 0.400281 0.916393 0.000000
-29.215256 -27.965134 -0.535570 787 0.400281 0.916393 0.000000
-29.216377 -27.966200 -0.523169 805 0.400281 0.916393 0.000000
-29.215172 -27.965046 -0.510720 817 0.400281 0.916393 0.000000
-29.214851 -27.964752 -0.498293 813 0.400281 0.916393 0.000000
-29.216177 -27.966015 -0.485900 813 0.400281 0.916393 0.000000
-29.216755 -27.966568 -0.473484 817 0.400281 0.916393 0.000000
-29.216276 -27.966116 -0.461058 809 0.400281 0.916393 0.000000
-29.215689 -27.965551 -0.448623 815 0.400281 0.916393 0.000000
-29.216320 -27.966146 -0.436217 813 0.400281 0.916393 0.000000
-29.216419 -27.966238 -0.423796 797 0.400281 0.916393 0.000000
-29.216301 -27.966137 -0.411367 779 0.400281 0.916393 0.000000
-29.215275 -27.965145 -0.398936 775 0.400281 0.916393 0.000000
-29.216211 -27.966045 -0.386527 789 0.400281 0.916393 0.000000
-29.218351 -27.968098 -0.374136 793 0.400281 0.916393 0.000000
-29.216803 -27.966606 -0.361691 803 0.400281 0.916393 0.000000
-29.215925 -27.965775 -0.349259 779 0.400281 0.916393 0.000000
-29.217173 -27.966959 -0.336857 793 0.400281 0.916393 0.000000
-29.215868 -27.965721 -0.324419 763 0.400281 0.916393 0.000000
-29.217098 -27.966890 -0.312007 753 0.400281 0.916393 0.000000
-29.217863 -27.967623 -0.299599 767 0.400281 0.916393 0.000000
-29.227766 -27.959000 -0.659876 785 0.400281 0.916393 0.000000
-29.227396 -27.958639 -0.647449 797 0.400281 0.916393 0.000000
-29.227802 -27.959038 -0.635025 761 0.400281 0.916393 0.000000
-29.227682 -27.958910 -0.622606 767 0.400281 0.916393 0.000000
-29.229134 -27.960300 -0.610212 779 0.400281 0.916393 0.000000
-29.228224 -27.959429 -0.597770 783 0.400281 0.916393 0.000000
-29.228231 -27.959444 -0.585340 785 0.400281 0.916393 0.000000
-29.230793 -27.961884 -0.572965 795 0.400281 0.916393 0.000000
-29.228971 -27.960142 -0.560512 795 0.400281 0.916393 0.000000
-29.228249 -27.959452 -0.548069 789 0.400281 0.916393 0.000000
-29.228521 -27.959713 -0.535656 779 0.400281 0.916393 0.000000
-29.228052 -27.959270 -0.523220 781 0.400281 0.916393 0.000000
-29.229496 -27.960642 -0.510826 795 0.400281 0.916393 0.000000
-29.229765 -27.960899 -0.498403 781 0.400281 0.916393 0.000000
-29.228348 -27.959545 -0.485956 777 0.400281 0.916393 0.000000
-29.226488 -27.957773 -0.473504 765 0.400281 0.916393 0.000000
-29.226439 -27.957729 -0.461084 805 0.400281 0.916393 0.000000
-29.227228 -27.958483 -0.448666 789 0.400281 0.916393 0.000000
-29.226952 -27.958212 -0.436249 809 0.400281 0.916393 0.000000
-29.226316 -27.957605 -0.423814 807 0.400281 0.916393 0.000000
-29.226089 -27.957388 -0.411386 793 0.400281 0.916393 0.000000
-29.225275 -27.956608 -0.398954 789 0.400281 0.916393 0.000000
-29.225264 -27.956596 -0.386533 783 0.400281 0.916393 0.000000
-29.225185 -27.956516 -0.374114 779 0.400281 0.916393 0.000000
-29.227013 -27.958271 -0.361716 787 0.400281 0.916393 0.000000
-29.229519 -27.960663 -0.349322 803 0.400281 0.916393 0.000000
-29.228430 -27.959631 -0.336882 765 0.400281 0.916393 0.000000
-29.228781 -27.959957 -0.324469 759 0.400281 0.916393 0.000000
-29.228842 -27.960018 -0.312048 761 0.400281 0.916393 0.000000
-29.225847 -27.957150 -0.299596 749 0.400281 0.916393 0.000000
