82
-22.125458 -20.537193 -0.650862 857 -0.382408 0.923994 0.000000
-22.124218 -20.536034 -0.641553 847 -0.382408 0.923994 0.000000
-22.123449 -20.535324 -0.632260 847 -0.382408 0.923994 0.000000
-22.122671 -20.534609 -0.622957 841 -0.382408 0.923994 0.000000
-22.123129 -20.535025 -0.613703 841 -0.382408 0.923994 0.000000
-22.123917 -20.535767 -0.604445 835 -0.382408 0.923994 0.000000
-22.122334 -20.534294 -0.595130 839 -0.382408 0.923994 0.000000
-22.122736 -20.534670 -0.585866 841 -0.382408 0.923994 0.000000
-22.121784 -20.533787 -0.576574 837 -0.382408 0.923994 0.000000
-22.120800 -20.532867 -0.567273 823 -0.382408 0.923994 0.000000
-22.121841 -20.533836 -0.558023 829 -0.382408 0.923994 0.000000
-22.122175 -20.534155 -0.548760 841 -0.382408 0.923994 0.000000
-22.122665 -20.534609 -0.539505 831 -0.382408 0.923994 0.000000
-22.123007 -20.534931 -0.530242 829 -0.382408 0.923994 0.000000
-22.122108 -20.534094 -0.520950 829 -0.382408 0.923994 0.000000
-22.121141 -20.533201 -0.511649 817 -0.382408 0.923994 0.000000
-22.120771 -20.532858 -0.502372 837 -0.382408 0.923994 0.000000
-22.120407 -20.532522 -0.493095 835 -0.382408 0.923994 0.000000
-22.119766 -20.531925 -0.483811 823 -0.382408 0.923994 0.000000
-22.118902 -20.531128 -0.474519 829 -0.382408 0.923994 0.000000
-22.119711 -20.531874 -0.465271 837 -0.382408 0.923994 0.000000
-22.121798 -20.533810 -0.456041 827 -0.382408 0.923994 0.000000
-22.121197 -20.533260 -0.446757 829 -0.382408 0.923994 0.000000
-22.121248 -20.533302 -0.437486 827 -0.382408 0.923994 0.000000
-22.120647 -20.532751 -0.428201 823 -0.382408 0.923994 0.000000
-22.119942 -20.532091 -0.418918 819 -0.382408 0.923994 0.000000
-22.120832 -20.532915 -0.409669 819 -0.382408 0.923994 0.000000
-22.120272 -20.532410 -0.400384 831 -0.382408 0.923994 0.000000
-22.121010 -20.533085 -0.391127 839 -0.382408 0.923994 0.000000
-22.122009 -20.534021 -0.381877 823 -0.382408 0.923994 0.000000
-22.120956 -20.533045 -0.372587 823 -0.382408 0.923994 0.000000
-22.121000 -20.533083 -0.363316 835 -0.382408 0.923994 0.000000
-22.121563 -20.533607 -0.354061 835 -0.382408 0.923994 0.000000
-22.120346 -20.532478 -0.344772 821 -0.382408 0.923994 0.000000
-22.119675 -20.531858 -0.335488 833 -0.382408 0.923994 0.000000
-22.120396 -20.532522 -0.326231 827 -0.382408 0.923994 0.000000
-22.121206 -20.533281 -0.316973 837 -0.382408 0.923994 0.000000
-22.121346 -20.533407 -0.307702 833 -0.382408 0.923994 0.000000
-22.119740 -20.531918 -0.298417 819 -0.382408 0.923994 0.000000
-22.118412 -20.530689 -0.289129 825 -0.382408 0.923994 0.000000
-22.119772 -20.531948 -0.279876 829 -0.382408 0.923994 0.000000
-22.150322 -20.547403 -0.651414 847 -0.382408 0.923994 0.000000
-22.149870 -20.546984 -0.642118 839 -0.382408 0.923994 0.000000
-22.150450 -20.547522 -0.632852 833 -0.382408 0.923994 0.000000
-22.150270 -20.547356 -0.623563 821 -0.382408 0.923994 0.000000
-22.149868 -20.546988 -0.614267 823 -0.382408 0.923994 0.000000
-22.150543 -20.547615 -0.605000 837 -0.382408 0.923994 0.000000
-22.152124 -20.549076 -0.595766 841 -0.382408 0.923994 0.000000
-22.152416 -20.549349 -0.586493 827 -0.382408 0.923994 0.000000
-22.151264 -20.548285 -0.577173 831 -0.382408 0.923994 0.000000
-22.151548 -20.548550 -0.567900 827 -0.382408 0.923994 0.000000
-22.151722 -20.548712 -0.558628 823 -0.382408 0.923994 0.000000
-22.150299 -20.547396 -0.549301 823 -0.382408 0.923994 0.000000
-22.150465 -20.547554 -0.540030 831 -0.382408 0.923994 0.000000
-22.151449 -20.548464 -0.530770 827 -0.382408 0.923994 0.000000
-22.150703 -20.547773 -0.521477 813 -0.382408 0.923994 0.000000
-22.149321 -20.546488 -0.512160 813 -0.382408 0.923994 0.000000
-22.148582 -20.545803 -0.502866 811 -0.382408 0.923994 0.000000
-22.148849 -20.546055 -0.493584 829 -0.382408 0.923994 0.000000
-22.150091 -20.547207 -0.484332 833 -0.382408 0.923994 0.000000
-22.150623 -20.547707 -0.475067 805 -0.382408 0.923994 0.000000
-22.149710 -20.546856 -0.465765 829 -0.382408 0.923994 0.000000
-22.149443 -20.546608 -0.456477 833 -0.382408 0.923994 0.000000
-22.148411 -20.545652 -0.447177 819 -0.382408 0.923994 0.000000
-22.147652 -20.544949 -0.437883 829 -0.382408 0.923994 0.000000
-22.148542 -20.545784 -0.428625 813 -0.382408 0.923994 0.000000
-22.149504 -20.546677 -0.419366 821 -0.382408 0.923994 0.000000
-22.150082 -20.547213 -0.410090 835 -0.382408 0.923994 0.000000
-22.150391 -20.547497 -0.400817 831 -0.382408 0.923994 0.000000
-22.150743 -20.547819 -0.391543 819 -0.382408 0.923994 0.000000
-22.148363 -20.545614 -0.382225 823 -0.382408 0.923994 0.000000
-22.147253 -20.544596 -0.372925 807 -0.382408 0.923994 0.000000
-22.149172 -20.546373 -0.363677 829 -0.382408 0.923994 0.000000
-22.149630 -20.546789 -0.354403 833 -0.382408 0.923994 0.000000
-22.149387 -20.546576 -0.345125 827 -0.382408 0.923994 0.000000
-22.148386 -20.545643 -0.335834 819 -0.382408 0.923994 0.000000
-22.146328 -20.543730 -0.326523 819 -0.382408 0.923994 0.000000
-22.147631 -20.544945 -0.317261 823 -0.382408 0.923994 0.000000
-22.149200 -20.546410 -0.308006 837 -0.382408 0.923994 0.000000
-22.149315 -20.546515 -0.298725 825 -0.382408 0.923994 0.000000
-22.149065 -20.546280 -0.289447 831 -0.382408 0.923994 0.000000
-22.147993 -20.545292 -0.280156 837 -0.382408 0.923994 0.000000
