374
-14.588758 -14.032049 -0.666443 811 -0.233320 0.972400 0.000000
-14.588754 -14.032037 -0.660223 809 -0.233320 0.972400 0.000000
-14.587478 -14.030813 -0.653945 817 -0.233320 0.972400 0.000000
-14.587206 -14.030543 -0.647708 817 -0.233320 0.972400 0.000000
-14.587614 -14.030936 -0.641504 813 -0.233320 0.972400 0.000000
-14.588953 -14.032237 -0.635341 817 -0.233320 0.972400 0.000000
-14.588885 -14.032172 -0.629111 829 -0.233320 0.972400 0.000000
-14.587340 -14.030677 -0.622826 811 -0.233320 0.972400 0.000000
-14.587588 -14.030924 -0.616613 799 -0.233320 0.972400 0.000000
-14.586978 -14.030338 -0.610369 801 -0.233320 0.972400 0.000000
-14.587170 -14.030514 -0.604157 821 -0.233320 0.972400 0.000000
-14.587401 -14.030748 -0.597945 811 -0.233320 0.972400 0.000000
-14.587810 -14.031128 -0.591741 817 -0.233320 0.972400 0.000000
-14.588824 -14.032110 -0.585561 813 -0.233320 0.972400 0.000000
-14.588116 -14.031429 -0.579307 809 -0.233320 0.972400 0.000000
-14.587348 -14.030688 -0.573055 809 -0.233320 0.972400 0.000000
-14.587682 -14.031018 -0.566851 815 -0.233320 0.972400 0.000000
-14.587173 -14.030529 -0.560606 803 -0.233320 0.972400 0.000000
-14.587028 -14.030390 -0.554387 817 -0.233320 0.972400 0.000000
-14.586999 -14.030358 -0.548167 815 -0.233320 0.972400 0.000000
-14.586901 -14.030270 -0.541938 813 -0.233320 0.972400 0.000000
-14.587869 -14.031200 -0.535759 819 -0.233320 0.972400 0.000000
-14.588513 -14.031814 -0.529553 815 -0.233320 0.972400 0.000000
-14.587731 -14.031060 -0.523310 811 -0.233320 0.972400 0.000000
-14.586848 -14.030210 -0.517058 829 -0.233320 0.972400 0.000000
-14.587165 -14.030528 -0.510845 819 -0.233320 0.972400 0.000000
-14.587073 -14.030433 -0.504626 829 -0.233320 0.972400 0.000000
-14.586810 -14.030182 -0.498398 819 -0.233320 0.972400 0.000000
-14.586712 -14.030094 -0.492179 821 -0.233320 0.972400 0.000000
-14.586870 -14.030243 -0.485967 819 -0.233320 0.972400 0.000000
-14.587877 -14.031205 -0.479777 833 -0.233320 0.972400 0.000000
-14.587613 -14.030954 -0.473550 829 -0.233320 0.972400 0.000000
-14.587029 -14.030389 -0.467315 829 -0.233320 0.972400 0.000000
-14.586976 -14.030338 -0.461085 821 -0.233320 0.972400 0.000000
-14.587231 -14.030593 -0.454883 811 -0.233320 0.972400 0.000000
-14.587234 -14.030587 -0.448663 823 -0.233320 0.972400 0.000000
-14.587323 -14.030679 -0.442442 825 -0.233320 0.972400 0.000000
-14.587003 -14.030370 -0.436215 801 -0.233320 0.972400 0.000000
-14.586514 -14.029907 -0.429989 805 -0.233320 0.972400 0.000000
-14.586609 -14.029993 -0.423768 821 -0.233320 0.972400 0.000000
-14.585757 -14.029181 -0.417526 807 -0.233320 0.972400 0.000000
-14.585854 -14.029265 -0.411315 805 -0.233320 0.972400 0.000000
-14.585935 -14.029351 -0.405094 805 -0.233320 0.972400 0.000000
-14.585233 -14.028676 -0.398860 803 -0.233320 0.972400 0.000000
-14.585218 -14.028657 -0.392641 805 -0.233320 0.972400 0.000000
-14.585834 -14.029245 -0.386445 813 -0.233320 0.972400 0.000000
-14.585767 -14.029182 -0.380225 805 -0.233320 0.972400 0.000000
-14.585941 -14.029359 -0.374013 807 -0.233320 0.972400 0.000000
-14.586077 -14.029489 -0.367802 797 -0.233320 0.972400 0.000000
-14.585006 -14.028458 -0.361552 791 -0.233320 0.972400 0.000000
-14.585393 -14.028833 -0.355348 805 -0.233320 0.972400 0.000000
-14.585420 -14.028860 -0.349128 813 -0.233320 0.972400 0.000000
-14.585344 -14.028778 -0.342908 803 -0.233320 0.972400 0.000000
-14.586522 -14.029921 -0.336727 805 -0.233320 0.972400 0.000000
-14.586275 -14.029684 -0.330499 801 -0.233320 0.972400 0.000000
-14.584505 -14.027976 -0.324246 795 -0.233320 0.972400 0.000000
-14.584673 -14.028146 -0.318034 791 -0.233320 0.972400 0.000000
-14.585540 -14.028979 -0.311835 797 -0.233320 0.972400 0.000000
-14.585456 -14.028890 -0.305616 793 -0.233320 0.972400 0.000000
-14.585097 -14.028550 -0.299389 783 -0.233320 0.972400 0.000000
-14.584581 -14.028053 -0.293164 791 -0.233320 0.972400 0.000000
-14.584224 -14.027713 -0.286947 787 -0.233320 0.972400 0.000000
-14.601703 -14.035580 -0.666835 815 -0.233320 0.972400 0.000000
-14.600905 -14.034813 -0.660573 811 -0.233320 0.972400 0.000000
-14.600577 -14.034498 -0.654326 819 -0.233320 0.972400 0.000000
-14.599616 -14.033571 -0.648065 817 -0.233320 0.972400 0.000000
-14.600019 -14.033960 -0.641851 813 -0.233320 0.972400 0.000000
-14.600642 -14.034554 -0.635655 817 -0.233320 0.972400 0.000000
-14.600716 -14.034633 -0.629434 823 -0.233320 0.972400 0.000000
-14.600013 -14.033957 -0.623180 809 -0.233320 0.972400 0.000000
-14.598626 -14.032617 -0.616893 793 -0.233320 0.972400 0.000000
-14.598763 -14.032747 -0.610672 801 -0.233320 0.972400 0.000000
-14.600003 -14.033941 -0.604500 813 -0.233320 0.972400 0.000000
-14.600768 -14.034678 -0.598313 829 -0.233320 0.972400 0.000000
-14.600370 -14.034292 -0.592066 823 -0.233320 0.972400 0.000000
-14.600451 -14.034377 -0.585845 833 -0.233320 0.972400 0.000000
-14.600211 -14.034146 -0.579618 833 -0.233320 0.972400 0.000000
-14.600230 -14.034167 -0.573387 829 -0.233320 0.972400 0.000000
-14.599724 -14.033679 -0.567142 829 -0.233320 0.972400 0.000000
-14.598220 -14.032229 -0.560866 817 -0.233320 0.972400 0.000000
-14.597808 -14.031844 -0.554630 805 -0.233320 0.972400 0.000000
-14.599355 -14.033329 -0.548465 821 -0.233320 0.972400 0.000000
-14.600480 -14.034413 -0.542284 821 -0.233320 0.972400 0.000000
-14.600230 -14.034162 -0.536046 821 -0.233320 0.972400 0.000000
-14.599442 -14.033416 -0.529794 805 -0.233320 0.972400 0.000000
-14.598935 -14.032928 -0.523558 807 -0.233320 0.972400 0.000000
-14.599738 -14.033696 -0.517361 815 -0.233320 0.972400 0.000000
-14.599536 -14.033497 -0.511132 823 -0.233320 0.972400 0.000000
-14.599061 -14.033047 -0.504887 821 -0.233320 0.972400 0.000000
-14.599542 -14.033513 -0.498682 829 -0.233320 0.972400 0.000000
-14.599388 -14.033366 -0.492453 823 -0.233320 0.972400 0.000000
-14.598975 -14.032968 -0.486217 811 -0.233320 0.972400 0.000000
-14.599025 -14.033013 -0.479996 815 -0.233320 0.972400 0.000000
-14.598660 -14.032667 -0.473770 817 -0.233320 0.972400 0.000000
-14.598026 -14.032049 -0.467526 831 -0.233320 0.972400 0.000000
-14.598492 -14.032502 -0.461321 833 -0.233320 0.972400 0.000000
-14.597853 -14.031891 -0.455077 823 -0.233320 0.972400 0.000000
-14.597692 -14.031738 -0.448848 805 -0.233320 0.972400 0.000000
-14.598211 -14.032235 -0.442643 817 -0.233320 0.972400 0.000000
-14.598630 -14.032637 -0.436429 821 -0.233320 0.972400 0.000000
-14.599566 -14.033542 -0.430240 823 -0.233320 0.972400 0.000000
-14.599074 -14.033065 -0.424005 809 -0.233320 0.972400 0.000000
-14.598009 -14.032040 -0.417755 805 -0.233320 0.972400 0.000000
-14.598476 -14.032494 -0.411540 819 -0.233320 0.972400 0.000000
-14.599193 -14.033178 -0.405343 823 -0.233320 0.972400 0.000000
-14.598975 -14.032967 -0.399115 817 -0.233320 0.972400 0.000000
-14.599269 -14.033252 -0.392902 815 -0.233320 0.972400 0.000000
-14.598299 -14.032318 -0.386661 813 -0.233320 0.972400 0.000000
-14.597596 -14.031643 -0.380418 807 -0.233320 0.972400 0.000000
-14.598775 -14.032785 -0.374226 805 -0.233320 0.972400 0.000000
-14.598920 -14.032922 -0.368015 819 -0.233320 0.972400 0.000000
-14.598100 -14.032137 -0.361772 819 -0.233320 0.972400 0.000000
-14.597921 -14.031958 -0.355544 819 -0.233320 0.972400 0.000000
-14.598631 -14.032650 -0.349347 815 -0.233320 0.972400 0.000000
-14.598444 -14.032462 -0.343119 821 -0.233320 0.972400 0.000000
-14.597836 -14.031878 -0.336884 821 -0.233320 0.972400 0.000000
-14.597744 -14.031796 -0.330665 821 -0.233320 0.972400 0.000000
-14.597873 -14.031919 -0.324444 811 -0.233320 0.972400 0.000000
-14.598997 -14.033004 -0.318253 793 -0.233320 0.972400 0.000000
-14.598850 -14.032864 -0.312024 801 -0.233320 0.972400 0.000000
-14.598392 -14.032428 -0.305798 811 -0.233320 0.972400 0.000000
-14.597617 -14.031680 -0.299565 805 -0.233320 0.972400 0.000000
-14.596687 -14.030779 -0.293324 791 -0.233320 0.972400 0.000000
-14.597168 -14.031244 -0.287109 797 -0.233320 0.972400 0.000000
-14.597806 -14.031865 -0.280903 789 -0.233320 0.972400 0.000000
-14.614098 -14.038725 -0.667202 813 -0.233320 0.972400 0.000000
-14.613722 -14.038357 -0.660955 825 -0.233320 0.972400 0.000000
-14.613860 -14.038501 -0.654734 825 -0.233320 0.972400 0.000000
-14.614433 -14.039042 -0.648528 813 -0.233320 0.972400 0.000000
-14.613670 -14.038317 -0.642265 809 -0.233320 0.972400 0.000000
-14.612926 -14.037595 -0.636002 821 -0.233320 0.972400 0.000000
-14.612742 -14.037422 -0.629764 827 -0.233320 0.972400 0.000000
-14.612515 -14.037205 -0.623526 805 -0.233320 0.972400 0.000000
-14.613288 -14.037948 -0.617328 809 -0.233320 0.972400 0.000000
-14.613903 -14.038535 -0.611132 807 -0.233320 0.972400 0.000000
-14.613498 -14.038157 -0.604886 821 -0.233320 0.972400 0.000000
-14.612951 -14.037622 -0.598631 811 -0.233320 0.972400 0.000000
-14.611762 -14.036482 -0.592352 811 -0.233320 0.972400 0.000000
-14.611631 -14.036354 -0.586123 815 -0.233320 0.972400 0.000000
-14.612442 -14.037144 -0.579926 833 -0.233320 0.972400 0.000000
-14.611724 -14.036455 -0.573672 835 -0.233320 0.972400 0.000000
-14.610957 -14.035714 -0.567419 813 -0.233320 0.972400 0.000000
-14.611031 -14.035780 -0.561188 805 -0.233320 0.972400 0.000000
-14.610886 -14.035652 -0.554960 809 -0.233320 0.972400 0.000000
-14.611320 -14.036067 -0.548745 805 -0.233320 0.972400 0.000000
-14.611918 -14.036642 -0.542550 813 -0.233320 0.972400 0.000000
-14.610830 -14.035598 -0.536280 825 -0.233320 0.972400 0.000000
-14.610309 -14.035097 -0.530035 825 -0.233320 0.972400 0.000000
-14.611268 -14.036020 -0.523845 813 -0.233320 0.972400 0.000000
-14.611176 -14.035925 -0.517616 835 -0.233320 0.972400 0.000000
-14.611085 -14.035843 -0.511387 845 -0.233320 0.972400 0.000000
-14.612673 -14.037372 -0.505212 843 -0.233320 0.972400 0.000000
-14.612988 -14.037677 -0.498998 835 -0.233320 0.972400 0.000000
-14.611674 -14.036407 -0.492721 821 -0.233320 0.972400 0.000000
-14.611260 -14.036009 -0.486484 817 -0.233320 0.972400 0.000000
-14.611994 -14.036720 -0.480287 819 -0.233320 0.972400 0.000000
-14.612208 -14.036927 -0.474065 829 -0.233320 0.972400 0.000000
-14.612257 -14.036974 -0.467845 839 -0.233320 0.972400 0.000000
-14.611045 -14.035802 -0.461576 837 -0.233320 0.972400 0.000000
-14.609933 -14.034738 -0.455316 815 -0.233320 0.972400 0.000000
-14.610831 -14.035598 -0.449118 823 -0.233320 0.972400 0.000000
-14.611177 -14.035940 -0.442904 809 -0.233320 0.972400 0.000000
-14.611917 -14.036645 -0.436707 825 -0.233320 0.972400 0.000000
-14.612227 -14.036943 -0.430484 833 -0.233320 0.972400 0.000000
-14.611000 -14.035771 -0.424225 823 -0.233320 0.972400 0.000000
-14.610140 -14.034941 -0.417973 797 -0.233320 0.972400 0.000000
-14.610125 -14.034921 -0.411754 791 -0.233320 0.972400 0.000000
-14.609847 -14.034658 -0.405516 799 -0.233320 0.972400 0.000000
-14.609669 -14.034492 -0.399287 795 -0.233320 0.972400 0.000000
-14.609813 -14.034630 -0.393076 803 -0.233320 0.972400 0.000000
-14.610585 -14.035373 -0.386869 811 -0.233320 0.972400 0.000000
-14.611198 -14.035959 -0.380663 817 -0.233320 0.972400 0.000000
-14.610912 -14.035692 -0.374425 817 -0.233320 0.972400 0.000000
-14.610153 -14.034957 -0.368182 805 -0.233320 0.972400 0.000000
-14.610228 -14.035037 -0.361961 819 -0.233320 0.972400 0.000000
-14.609149 -14.033999 -0.355711 807 -0.233320 0.972400 0.000000
-14.608641 -14.033511 -0.349476 813 -0.233320 0.972400 0.000000
-14.609569 -14.034394 -0.343277 815 -0.233320 0.972400 0.000000
-14.610544 -14.035332 -0.337078 827 -0.233320 0.972400 0.000000
-14.610979 -14.035758 -0.330863 823 -0.233320 0.972400 0.000000
-14.610322 -14.035121 -0.324630 809 -0.233320 0.972400 0.000000
-14.610123 -14.034936 -0.318401 789 -0.233320 0.972400 0.000000
-14.610242 -14.035054 -0.312180 791 -0.233320 0.972400 0.000000
-14.609994 -14.034816 -0.305952 797 -0.233320 0.972400 0.000000
-14.609055 -14.033908 -0.299711 781 -0.233320 0.972400 0.000000
-14.609231 -14.034084 -0.293489 785 -0.233320 0.972400 0.000000
-14.609085 -14.033943 -0.287260 797 -0.233320 0.972400 0.000000
-14.608726 -14.033589 -0.281034 781 -0.233320 0.972400 0.000000
-14.625469 -14.040904 -0.661288 803 -0.233320 0.972400 0.000000
-14.625034 -14.040487 -0.655042 813 -0.233320 0.972400 0.000000
-14.625654 -14.041080 -0.648836 825 -0.233320 0.972400 0.000000
-14.624749 -14.040211 -0.642564 807 -0.233320 0.972400 0.000000
-14.624304 -14.039786 -0.636308 805 -0.233320 0.972400 0.000000
-14.624652 -14.040116 -0.630095 799 -0.233320 0.972400 0.000000
-14.624851 -14.040313 -0.623873 801 -0.233320 0.972400 0.000000
-14.624987 -14.040442 -0.617641 805 -0.233320 0.972400 0.000000
-14.625287 -14.040719 -0.611428 797 -0.233320 0.972400 0.000000
-14.625628 -14.041058 -0.605205 809 -0.233320 0.972400 0.000000
-14.625175 -14.040613 -0.598959 805 -0.233320 0.972400 0.000000
-14.623837 -14.039338 -0.592672 805 -0.233320 0.972400 0.000000
-14.624225 -14.039714 -0.586458 813 -0.233320 0.972400 0.000000
-14.624304 -14.039785 -0.580227 797 -0.233320 0.972400 0.000000
-14.624009 -14.039495 -0.573990 807 -0.233320 0.972400 0.000000
-14.624294 -14.039775 -0.567767 795 -0.233320 0.972400 0.000000
-14.625208 -14.040661 -0.561568 811 -0.233320 0.972400 0.000000
-14.625807 -14.041236 -0.555362 821 -0.233320 0.972400 0.000000
-14.625292 -14.040741 -0.549117 817 -0.233320 0.972400 0.000000
-14.624627 -14.040095 -0.542853 831 -0.233320 0.972400 0.000000
-14.623956 -14.039459 -0.536599 821 -0.233320 0.972400 0.000000
-14.623543 -14.039061 -0.530353 831 -0.233320 0.972400 0.000000
-14.623240 -14.038765 -0.524116 839 -0.233320 0.972400 0.000000
-14.623988 -14.039489 -0.517909 831 -0.233320 0.972400 0.000000
-14.624265 -14.039747 -0.511696 841 -0.233320 0.972400 0.000000
-14.624110 -14.039600 -0.505457 839 -0.233320 0.972400 0.000000
-14.624066 -14.039557 -0.499227 833 -0.233320 0.972400 0.000000
-14.623214 -14.038746 -0.492965 817 -0.233320 0.972400 0.000000
-14.622111 -14.037689 -0.486706 817 -0.233320 0.972400 0.000000
-14.622380 -14.037941 -0.480483 811 -0.233320 0.972400 0.000000
-14.623913 -14.039414 -0.474308 821 -0.233320 0.972400 0.000000
-14.624912 -14.040382 -0.468109 827 -0.233320 0.972400 0.000000
-14.625332 -14.040785 -0.461894 819 -0.233320 0.972400 0.000000
-14.624118 -14.039612 -0.455626 829 -0.233320 0.972400 0.000000
-14.623421 -14.038941 -0.449372 823 -0.233320 0.972400 0.000000
-14.623786 -14.039299 -0.443159 811 -0.233320 0.972400 0.000000
-14.623569 -14.039085 -0.436921 809 -0.233320 0.972400 0.000000
-14.622340 -14.037914 -0.430662 809 -0.233320 0.972400 0.000000
-14.622273 -14.037851 -0.424432 791 -0.233320 0.972400 0.000000
-14.623422 -14.038957 -0.418231 803 -0.233320 0.972400 0.000000
-14.623784 -14.039299 -0.412018 789 -0.233320 0.972400 0.000000
-14.623771 -14.039279 -0.405788 789 -0.233320 0.972400 0.000000
-14.623115 -14.038655 -0.399544 783 -0.233320 0.972400 0.000000
-14.623619 -14.039140 -0.393329 805 -0.233320 0.972400 0.000000
-14.623403 -14.038929 -0.387091 809 -0.233320 0.972400 0.000000
-14.622849 -14.038403 -0.380856 805 -0.233320 0.972400 0.000000
-14.622984 -14.038532 -0.374625 813 -0.233320 0.972400 0.000000
-14.622172 -14.037753 -0.368382 803 -0.233320 0.972400 0.000000
-14.622300 -14.037877 -0.362161 817 -0.233320 0.972400 0.000000
-14.622226 -14.037807 -0.355931 799 -0.233320 0.972400 0.000000
-14.622776 -14.038331 -0.349716 813 -0.233320 0.972400 0.000000
-14.623274 -14.038810 -0.343501 799 -0.233320 0.972400 0.000000
-14.622132 -14.037722 -0.337252 799 -0.233320 0.972400 0.000000
-14.621844 -14.037438 -0.331014 801 -0.233320 0.972400 0.000000
-14.621807 -14.037401 -0.324785 793 -0.233320 0.972400 0.000000
-14.620986 -14.036615 -0.318542 787 -0.233320 0.972400 0.000000
-14.620159 -14.035825 -0.312300 779 -0.233320 0.972400 0.000000
-14.620170 -14.035839 -0.306070 777 -0.233320 0.972400 0.000000
-14.621396 -14.037020 -0.299878 781 -0.233320 0.972400 0.000000
-14.622364 -14.037951 -0.293669 799 -0.233320 0.972400 0.000000
-14.622052 -14.037648 -0.287431 791 -0.233320 0.972400 0.000000
-14.621011 -14.036643 -0.281191 793 -0.233320 0.972400 0.000000
-14.639061 -14.045018 -0.661704 807 -0.233320 0.972400 0.000000
-14.637895 -14.043897 -0.655415 791 -0.233320 0.972400 0.000000
-14.637819 -14.043828 -0.649175 797 -0.233320 0.972400 0.000000
-14.638393 -14.044371 -0.642970 811 -0.233320 0.972400 0.000000
-14.638632 -14.044597 -0.636737 793 -0.233320 0.972400 0.000000
-14.638298 -14.044290 -0.630490 789 -0.233320 0.972400 0.000000
-14.638127 -14.044115 -0.624252 797 -0.233320 0.972400 0.000000
-14.637997 -14.043988 -0.618003 787 -0.233320 0.972400 0.000000
-14.637920 -14.043918 -0.611774 809 -0.233320 0.972400 0.000000
-14.637579 -14.043591 -0.605517 807 -0.233320 0.972400 0.000000
-14.637824 -14.043824 -0.599294 791 -0.233320 0.972400 0.000000
-14.638739 -14.044709 -0.593095 801 -0.233320 0.972400 0.000000
-14.638505 -14.044484 -0.586847 807 -0.233320 0.972400 0.000000
-14.638108 -14.044099 -0.580601 807 -0.233320 0.972400 0.000000
-14.638126 -14.044120 -0.574371 807 -0.233320 0.972400 0.000000
-14.637784 -14.043792 -0.568114 811 -0.233320 0.972400 0.000000
-14.637114 -14.043157 -0.561860 813 -0.233320 0.972400 0.000000
-14.636762 -14.042809 -0.555613 797 -0.233320 0.972400 0.000000
-14.636781 -14.042830 -0.549383 805 -0.233320 0.972400 0.000000
-14.636479 -14.042547 -0.543136 807 -0.233320 0.972400 0.000000
-14.636802 -14.042857 -0.536912 815 -0.233320 0.972400 0.000000
-14.636717 -14.042768 -0.530673 815 -0.233320 0.972400 0.000000
-14.636932 -14.042975 -0.524451 817 -0.233320 0.972400 0.000000
-14.637101 -14.043146 -0.518219 811 -0.233320 0.972400 0.000000
-14.636845 -14.042902 -0.511981 821 -0.233320 0.972400 0.000000
-14.637223 -14.043258 -0.505758 805 -0.233320 0.972400 0.000000
-14.637760 -14.043781 -0.499542 819 -0.233320 0.972400 0.000000
-14.637550 -14.043575 -0.493304 825 -0.233320 0.972400 0.000000
-14.636981 -14.043023 -0.487050 805 -0.233320 0.972400 0.000000
-14.637241 -14.043282 -0.480827 813 -0.233320 0.972400 0.000000
-14.637136 -14.043173 -0.474588 811 -0.233320 0.972400 0.000000
-14.636660 -14.042724 -0.468342 807 -0.233320 0.972400 0.000000
-14.636184 -14.042260 -0.462096 805 -0.233320 0.972400 0.000000
-14.635544 -14.041649 -0.455842 817 -0.233320 0.972400 0.000000
-14.635962 -14.042050 -0.449628 801 -0.233320 0.972400 0.000000
-14.635840 -14.041944 -0.443389 795 -0.233320 0.972400 0.000000
-14.635842 -14.041937 -0.437159 805 -0.233320 0.972400 0.000000
-14.636512 -14.042583 -0.430943 803 -0.233320 0.972400 0.000000
-14.637134 -14.043177 -0.424737 797 -0.233320 0.972400 0.000000
-14.637074 -14.043119 -0.418497 791 -0.233320 0.972400 0.000000
-14.636214 -14.042303 -0.412245 779 -0.233320 0.972400 0.000000
-14.635942 -14.042033 -0.406007 777 -0.233320 0.972400 0.000000
-14.636551 -14.042629 -0.399792 785 -0.233320 0.972400 0.000000
-14.636058 -14.042152 -0.393546 797 -0.233320 0.972400 0.000000
-14.635983 -14.042083 -0.387317 799 -0.233320 0.972400 0.000000
-14.635538 -14.041658 -0.381071 797 -0.233320 0.972400 0.000000
-14.633778 -14.039970 -0.374797 785 -0.233320 0.972400 0.000000
-14.634178 -14.040344 -0.368573 801 -0.233320 0.972400 0.000000
-14.635258 -14.041392 -0.362373 803 -0.233320 0.972400 0.000000
-14.635762 -14.041878 -0.356148 791 -0.233320 0.972400 0.000000
-14.635574 -14.041690 -0.349920 795 -0.233320 0.972400 0.000000
-14.634285 -14.040454 -0.343652 797 -0.233320 0.972400 0.000000
-14.633981 -14.040158 -0.337424 801 -0.233320 0.972400 0.000000
-14.634595 -14.040746 -0.331208 785 -0.233320 0.972400 0.000000
-14.634872 -14.041019 -0.324976 783 -0.233320 0.972400 0.000000
-14.634304 -14.040480 -0.318741 787 -0.233320 0.972400 0.000000
-14.634747 -14.040899 -0.312517 789 -0.233320 0.972400 0.000000
-14.634974 -14.041119 -0.306294 791 -0.233320 0.972400 0.000000
-14.634038 -14.040224 -0.300043 789 -0.233320 0.972400 0.000000
-14.634102 -14.040284 -0.293812 775 -0.233320 0.972400 0.000000
-14.633904 -14.040099 -0.287584 783 -0.233320 0.972400 0.000000
-14.634917 -14.041067 -0.281374 777 -0.233320 0.972400 0.000000
-14.649906 -14.046488 -0.661996 799 -0.233320 0.972400 0.000000
-14.650583 -14.047140 -0.655789 791 -0.233320 0.972400 0.000000
-14.650249 -14.046820 -0.649532 789 -0.233320 0.972400 0.000000
-14.649335 -14.045945 -0.643251 779 -0.233320 0.972400 0.000000
-14.649587 -14.046184 -0.637029 767 -0.233320 0.972400 0.000000
-14.650414 -14.046985 -0.630820 783 -0.233320 0.972400 0.000000
-14.650236 -14.046804 -0.624582 785 -0.233320 0.972400 0.000000
-14.649948 -14.046535 -0.618325 791 -0.233320 0.972400 0.000000
-14.651191 -14.047730 -0.612143 799 -0.233320 0.972400 0.000000
-14.651060 -14.047603 -0.605894 801 -0.233320 0.972400 0.000000
-14.649401 -14.046011 -0.599589 783 -0.233320 0.972400 0.000000
-14.648682 -14.045322 -0.593316 777 -0.233320 0.972400 0.000000
-14.649352 -14.045969 -0.587110 783 -0.233320 0.972400 0.000000
-14.649534 -14.046137 -0.580878 795 -0.233320 0.972400 0.000000
-14.649608 -14.046216 -0.574647 801 -0.233320 0.972400 0.000000
-14.649673 -14.046274 -0.568406 811 -0.233320 0.972400 0.000000
-14.649644 -14.046244 -0.562166 821 -0.233320 0.972400 0.000000
-14.649349 -14.045969 -0.555919 803 -0.233320 0.972400 0.000000
-14.648199 -14.044860 -0.549640 795 -0.233320 0.972400 0.000000
-14.648530 -14.045177 -0.543416 799 -0.233320 0.972400 0.000000
-14.649507 -14.046113 -0.537217 805 -0.233320 0.972400 0.000000
-14.649305 -14.045928 -0.530969 809 -0.233320 0.972400 0.000000
-14.648468 -14.045116 -0.524706 797 -0.233320 0.972400 0.000000
-14.648268 -14.044931 -0.518458 799 -0.233320 0.972400 0.000000
-14.648272 -14.044939 -0.512228 805 -0.233320 0.972400 0.000000
-14.648289 -14.044947 -0.505988 791 -0.233320 0.972400 0.000000
-14.648441 -14.045104 -0.499756 795 -0.233320 0.972400 0.000000
-14.648868 -14.045510 -0.493542 811 -0.233320 0.972400 0.000000
-14.648454 -14.045112 -0.487286 799 -0.233320 0.972400 0.000000
-14.648401 -14.045061 -0.481046 793 -0.233320 0.972400 0.000000
-14.648240 -14.044908 -0.474807 795 -0.233320 0.972400 0.000000
-14.647552 -14.044245 -0.468554 797 -0.233320 0.972400 0.000000
-14.647766 -14.044453 -0.462322 803 -0.233320 0.972400 0.000000
-14.648075 -14.044750 -0.456098 805 -0.233320 0.972400 0.000000
-14.648014 -14.044693 -0.449859 801 -0.233320 0.972400 0.000000
-14.648010 -14.044695 -0.443629 785 -0.233320 0.972400 0.000000
-14.647998 -14.044677 -0.437389 791 -0.233320 0.972400 0.000000
-14.647570 -14.044266 -0.431143 785 -0.233320 0.972400 0.000000
-14.647830 -14.044511 -0.424920 787 -0.233320 0.972400 0.000000
-14.647872 -14.044552 -0.418680 767 -0.233320 0.972400 0.000000
-14.648063 -14.044740 -0.412458 765 -0.233320 0.972400 0.000000
-14.647885 -14.044573 -0.406219 779 -0.233320 0.972400 0.000000
-14.647394 -14.044098 -0.399964 787 -0.233320 0.972400 0.000000
-14.648434 -14.045099 -0.393764 799 -0.233320 0.972400 0.000000
-14.648255 -14.044933 -0.387525 805 -0.233320 0.972400 0.000000
-14.646486 -14.043239 -0.381242 793 -0.233320 0.972400 0.000000
-14.645312 -14.042110 -0.374973 783 -0.233320 0.972400 0.000000
-14.646767 -14.043505 -0.368779 783 -0.233320 0.972400 0.000000
-14.647371 -14.044086 -0.362563 791 -0.233320 0.972400 0.000000
-14.646725 -14.043455 -0.356309 791 -0.233320 0.972400 0.000000
-14.646530 -14.043276 -0.350071 789 -0.233320 0.972400 0.000000
-14.647239 -14.043955 -0.343854 793 -0.233320 0.972400 0.000000
-14.648323 -14.044993 -0.337653 795 -0.233320 0.972400 0.000000
-14.648186 -14.044860 -0.331414 793 -0.233320 0.972400 0.000000
-14.647937 -14.044621 -0.325177 783 -0.233320 0.972400 0.000000
-14.648066 -14.044745 -0.318945 791 -0.233320 0.972400 0.000000
-14.648029 -14.044709 -0.312706 779 -0.233320 0.972400 0.000000
-14.647303 -14.044027 -0.306462 777 -0.233320 0.972400 0.000000
-14.646522 -14.043274 -0.300209 781 -0.233320 0.972400 0.000000
-14.646328 -14.043082 -0.293971 759 -0.233320 0.972400 0.000000
-14.646810 -14.043547 -0.287746 761 -0.233320 0.972400 0.000000
-14.647087 -14.043819 -0.281524 759 -0.233320 0.972400 0.000000
