344
-21.749876 -21.143343 -0.653443 1121 0.472078 0.881557 0.000000
-21.749708 -21.143179 -0.644114 1117 0.472078 0.881557 0.000000
-21.749432 -21.142912 -0.634786 1119 0.472078 0.881557 0.000000
-21.749243 -21.142731 -0.625468 1125 0.472078 0.881557 0.000000
-21.750072 -21.143538 -0.616170 1111 0.472078 0.881557 0.000000
-21.750992 -21.144432 -0.606881 1133 0.472078 0.881557 0.000000
-21.750017 -21.143484 -0.597530 1123 0.472078 0.881557 0.000000
-21.749634 -21.143101 -0.588203 1127 0.472078 0.881557 0.000000
-21.750862 -21.144304 -0.578921 1117 0.472078 0.881557 0.000000
-21.749987 -21.143446 -0.569580 1123 0.472078 0.881557 0.000000
-21.750107 -21.143578 -0.560258 1125 0.472078 0.881557 0.000000
-21.750446 -21.143898 -0.550945 1109 0.472078 0.881557 0.000000
-21.750513 -21.143969 -0.541634 1117 0.472078 0.881557 0.000000
-21.750525 -21.143980 -0.532314 1127 0.472078 0.881557 0.000000
-21.750374 -21.143831 -0.522995 1121 0.472078 0.881557 0.000000
-21.750597 -21.144056 -0.513682 1121 0.472078 0.881557 0.000000
-21.750977 -21.144424 -0.504369 1131 0.472078 0.881557 0.000000
-21.750294 -21.143755 -0.495035 1127 0.472078 0.881557 0.000000
-21.749454 -21.142944 -0.485703 1117 0.472078 0.881557 0.000000
-21.749302 -21.142792 -0.476384 1107 0.472078 0.881557 0.000000
-21.749245 -21.142733 -0.467064 1119 0.472078 0.881557 0.000000
-21.749249 -21.142736 -0.457744 1141 0.472078 0.881557 0.000000
-21.748980 -21.142479 -0.448426 1137 0.472078 0.881557 0.000000
-21.749025 -21.142529 -0.439106 1121 0.472078 0.881557 0.000000
-21.748543 -21.142052 -0.429780 1115 0.472078 0.881557 0.000000
-21.746698 -21.140263 -0.420427 1105 0.472078 0.881557 0.000000
-21.745947 -21.139534 -0.411094 1103 0.472078 0.881557 0.000000
-21.747456 -21.140999 -0.401810 1103 0.472078 0.881557 0.000000
-21.747011 -21.140577 -0.392484 1109 0.472078 0.881557 0.000000
-21.747669 -21.141218 -0.383187 1121 0.472078 0.881557 0.000000
-21.749180 -21.142681 -0.373893 1105 0.472078 0.881557 0.000000
-21.748419 -21.141949 -0.364560 1105 0.472078 0.881557 0.000000
-21.747971 -21.141512 -0.355244 1125 0.472078 0.881557 0.000000
-21.747843 -21.141380 -0.345925 1105 0.472078 0.881557 0.000000
-21.748127 -21.141659 -0.336612 1131 0.472078 0.881557 0.000000
-21.748079 -21.141619 -0.327292 1121 0.472078 0.881557 0.000000
-21.746849 -21.140417 -0.317964 1121 0.472078 0.881557 0.000000
-21.745916 -21.139515 -0.308632 1109 0.472078 0.881557 0.000000
-21.748716 -21.142244 -0.299355 1089 0.472078 0.881557 0.000000
-21.748930 -21.142450 -0.290043 1103 0.472078 0.881557 0.000000
-21.748426 -21.141954 -0.280728 1105 0.472078 0.881557 0.000000
-21.750111 -21.143600 -0.271431 1109 0.472078 0.881557 0.000000
-21.748913 -21.142427 -0.262103 1099 0.472078 0.881557 0.000000
-21.759338 -21.138851 -0.653522 1121 0.472078 0.881557 0.000000
-21.757914 -21.137465 -0.644165 1099 0.472078 0.881557 0.000000
-21.759520 -21.139032 -0.634889 1115 0.472078 0.881557 0.000000
-21.759872 -21.139366 -0.625576 1115 0.472078 0.881557 0.000000
-21.757959 -21.137518 -0.616204 1119 0.472078 0.881557 0.000000
-21.758564 -21.138102 -0.606898 1115 0.472078 0.881557 0.000000
-21.758757 -21.138287 -0.597586 1109 0.472078 0.881557 0.000000
-21.759354 -21.138863 -0.588280 1115 0.472078 0.881557 0.000000
-21.758699 -21.138231 -0.578946 1123 0.472078 0.881557 0.000000
-21.759190 -21.138704 -0.569641 1123 0.472078 0.881557 0.000000
-21.760466 -21.139948 -0.560359 1123 0.472078 0.881557 0.000000
-21.759176 -21.138695 -0.551001 1117 0.472078 0.881557 0.000000
-21.759195 -21.138712 -0.541680 1119 0.472078 0.881557 0.000000
-21.759209 -21.138725 -0.532360 1133 0.472078 0.881557 0.000000
-21.758526 -21.138069 -0.523026 1129 0.472078 0.881557 0.000000
-21.758434 -21.137983 -0.513707 1117 0.472078 0.881557 0.000000
-21.758589 -21.138138 -0.504395 1115 0.472078 0.881557 0.000000
-21.759239 -21.138758 -0.495089 1117 0.472078 0.881557 0.000000
-21.759651 -21.139166 -0.485775 1121 0.472078 0.881557 0.000000
-21.759388 -21.138910 -0.476457 1133 0.472078 0.881557 0.000000
-21.759605 -21.139116 -0.467145 1147 0.472078 0.881557 0.000000
-21.760912 -21.140387 -0.457852 1129 0.472078 0.881557 0.000000
-21.759542 -21.139057 -0.448505 1131 0.472078 0.881557 0.000000
-21.758268 -21.137831 -0.439157 1119 0.472078 0.881557 0.000000
-21.758896 -21.138432 -0.429851 1127 0.472078 0.881557 0.000000
-21.757051 -21.136641 -0.420498 1135 0.472078 0.881557 0.000000
-21.756250 -21.135860 -0.411165 1121 0.472078 0.881557 0.000000
-21.758533 -21.138084 -0.401893 1147 0.472078 0.881557 0.000000
-21.759523 -21.139048 -0.392594 1147 0.472078 0.881557 0.000000
-21.757818 -21.137386 -0.383250 1119 0.472078 0.881557 0.000000
-21.757166 -21.136757 -0.373916 1115 0.472078 0.881557 0.000000
-21.757826 -21.137398 -0.364609 1105 0.472078 0.881557 0.000000
-21.757738 -21.137312 -0.355290 1119 0.472078 0.881557 0.000000
-21.757196 -21.136786 -0.345965 1119 0.472078 0.881557 0.000000
-21.757534 -21.137123 -0.336661 1125 0.472078 0.881557 0.000000
-21.756401 -21.136024 -0.327322 1103 0.472078 0.881557 0.000000
-21.755999 -21.135628 -0.318006 1119 0.472078 0.881557 0.000000
-21.756435 -21.136055 -0.308691 1117 0.472078 0.881557 0.000000
-21.757023 -21.136625 -0.299385 1101 0.472078 0.881557 0.000000
-21.757925 -21.137505 -0.290076 1099 0.472078 0.881557 0.000000
-21.757523 -21.137108 -0.280760 1111 0.472078 0.881557 0.000000
-21.757519 -21.137104 -0.271440 1105 0.472078 0.881557 0.000000
-21.758204 -21.137779 -0.262133 1105 0.472078 0.881557 0.000000
-21.768621 -21.134436 -0.653611 1129 0.472078 0.881557 0.000000
-21.767090 -21.132942 -0.644236 1123 0.472078 0.881557 0.000000
-21.767967 -21.133802 -0.634947 1131 0.472078 0.881557 0.000000
-21.767948 -21.133776 -0.625627 1123 0.472078 0.881557 0.000000
-21.767406 -21.133249 -0.616282 1119 0.472078 0.881557 0.000000
-21.768114 -21.133942 -0.606985 1119 0.472078 0.881557 0.000000
-21.767876 -21.133707 -0.597657 1113 0.472078 0.881557 0.000000
-21.767897 -21.133739 -0.588337 1105 0.472078 0.881557 0.000000
-21.767878 -21.133711 -0.579017 1111 0.472078 0.881557 0.000000
-21.767851 -21.133690 -0.569696 1141 0.472078 0.881557 0.000000
-21.768595 -21.134415 -0.560399 1147 0.472078 0.881557 0.000000
-21.768507 -21.134329 -0.551070 1135 0.472078 0.881557 0.000000
-21.768354 -21.134180 -0.541751 1147 0.472078 0.881557 0.000000
-21.769062 -21.134872 -0.532444 1125 0.472078 0.881557 0.000000
-21.768761 -21.134571 -0.523117 1131 0.472078 0.881557 0.000000
-21.767979 -21.133818 -0.513774 1137 0.472078 0.881557 0.000000
-21.768200 -21.134031 -0.504462 1119 0.472078 0.881557 0.000000
-21.767946 -21.133783 -0.495134 1123 0.472078 0.881557 0.000000
-21.767735 -21.133581 -0.485816 1133 0.472078 0.881557 0.000000
-21.769142 -21.134947 -0.476522 1141 0.472078 0.881557 0.000000
-21.768414 -21.134241 -0.467189 1137 0.472078 0.881557 0.000000
-21.766981 -21.132858 -0.457842 1111 0.472078 0.881557 0.000000
-21.767202 -21.133070 -0.448530 1119 0.472078 0.881557 0.000000
-21.767036 -21.132906 -0.439201 1117 0.472078 0.881557 0.000000
-21.767548 -21.133411 -0.429896 1139 0.472078 0.881557 0.000000
-21.767117 -21.132990 -0.420570 1133 0.472078 0.881557 0.000000
-21.766098 -21.132002 -0.411229 1113 0.472078 0.881557 0.000000
-21.766251 -21.132143 -0.401918 1111 0.472078 0.881557 0.000000
-21.767759 -21.133606 -0.392623 1107 0.472078 0.881557 0.000000
-21.767733 -21.133587 -0.383303 1125 0.472078 0.881557 0.000000
-21.765984 -21.131887 -0.373960 1121 0.472078 0.881557 0.000000
-21.765738 -21.131659 -0.364632 1127 0.472078 0.881557 0.000000
-21.765976 -21.131882 -0.355319 1135 0.472078 0.881557 0.000000
-21.767479 -21.133343 -0.346025 1129 0.472078 0.881557 0.000000
-21.768648 -21.134481 -0.336733 1123 0.472078 0.881557 0.000000
-21.767464 -21.133331 -0.327394 1115 0.472078 0.881557 0.000000
-21.767382 -21.133251 -0.318075 1115 0.472078 0.881557 0.000000
-21.767817 -21.133680 -0.308761 1113 0.472078 0.881557 0.000000
-21.766626 -21.132524 -0.299432 1111 0.472078 0.881557 0.000000
-21.765852 -21.131763 -0.290099 1105 0.472078 0.881557 0.000000
-21.767487 -21.133358 -0.280803 1113 0.472078 0.881557 0.000000
-21.768225 -21.134077 -0.271496 1103 0.472078 0.881557 0.000000
-21.765926 -21.131845 -0.262148 1089 0.472078 0.881557 0.000000
-21.776295 -21.128954 -0.653643 1133 0.472078 0.881557 0.000000
-21.776075 -21.128744 -0.644315 1115 0.472078 0.881557 0.000000
-21.775843 -21.128513 -0.634987 1119 0.472078 0.881557 0.000000
-21.776716 -21.129372 -0.625689 1117 0.472078 0.881557 0.000000
-21.777170 -21.129803 -0.616384 1119 0.472078 0.881557 0.000000
-21.776360 -21.129025 -0.607042 1119 0.472078 0.881557 0.000000
-21.776440 -21.129093 -0.597721 1119 0.472078 0.881557 0.000000
-21.776833 -21.129477 -0.588407 1119 0.472078 0.881557 0.000000
-21.776690 -21.129345 -0.579088 1125 0.472078 0.881557 0.000000
-21.776867 -21.129519 -0.569766 1121 0.472078 0.881557 0.000000
-21.776894 -21.129541 -0.560446 1121 0.472078 0.881557 0.000000
-21.776119 -21.128796 -0.551103 1117 0.472078 0.881557 0.000000
-21.776199 -21.128866 -0.541782 1133 0.472078 0.881557 0.000000
-21.776884 -21.129539 -0.532485 1123 0.472078 0.881557 0.000000
-21.777004 -21.129652 -0.523164 1133 0.472078 0.881557 0.000000
-21.776485 -21.129145 -0.513828 1139 0.472078 0.881557 0.000000
-21.775070 -21.127779 -0.504482 1125 0.472078 0.881557 0.000000
-21.775183 -21.127886 -0.495160 1133 0.472078 0.881557 0.000000
-21.776922 -21.129578 -0.485883 1127 0.472078 0.881557 0.000000
-21.777079 -21.129723 -0.476562 1115 0.472078 0.881557 0.000000
-21.777391 -21.130035 -0.467249 1117 0.472078 0.881557 0.000000
-21.776543 -21.129202 -0.457906 1131 0.472078 0.881557 0.000000
-21.774183 -21.126921 -0.448539 1123 0.472078 0.881557 0.000000
-21.775702 -21.128389 -0.439254 1119 0.472078 0.881557 0.000000
-21.777727 -21.130362 -0.429974 1145 0.472078 0.881557 0.000000
-21.777100 -21.129749 -0.420640 1111 0.472078 0.881557 0.000000
-21.775606 -21.128304 -0.411294 1127 0.472078 0.881557 0.000000
-21.776228 -21.128910 -0.401988 1113 0.472078 0.881557 0.000000
-21.776987 -21.129648 -0.392681 1123 0.472078 0.881557 0.000000
-21.775980 -21.128668 -0.383340 1121 0.472078 0.881557 0.000000
-21.776630 -21.129301 -0.374034 1105 0.472078 0.881557 0.000000
-21.777033 -21.129688 -0.364720 1123 0.472078 0.881557 0.000000
-21.775539 -21.128244 -0.355374 1119 0.472078 0.881557 0.000000
-21.775932 -21.128624 -0.346060 1131 0.472078 0.881557 0.000000
-21.776211 -21.128895 -0.336747 1127 0.472078 0.881557 0.000000
-21.775339 -21.128042 -0.327415 1103 0.472078 0.881557 0.000000
-21.775728 -21.128433 -0.318101 1099 0.472078 0.881557 0.000000
-21.775732 -21.128439 -0.308791 1115 0.472078 0.881557 0.000000
-21.775806 -21.128500 -0.299470 1097 0.472078 0.881557 0.000000
-21.775867 -21.128565 -0.290149 1109 0.472078 0.881557 0.000000
-21.776096 -21.128784 -0.280836 1105 0.472078 0.881557 0.000000
-21.775991 -21.128685 -0.271517 1105 0.472078 0.881557 0.000000
-21.775417 -21.128132 -0.262192 1103 0.472078 0.881557 0.000000
-21.784212 -21.123724 -0.653693 1113 0.472078 0.881557 0.000000
-21.785574 -21.125038 -0.644410 1109 0.472078 0.881557 0.000000
-21.786072 -21.125530 -0.635105 1107 0.472078 0.881557 0.000000
-21.784647 -21.124142 -0.625739 1091 0.472078 0.881557 0.000000
-21.785143 -21.124634 -0.616434 1109 0.472078 0.881557 0.000000
-21.786631 -21.126078 -0.607149 1107 0.472078 0.881557 0.000000
-21.787344 -21.126762 -0.597842 1111 0.472078 0.881557 0.000000
-21.787638 -21.127047 -0.588529 1101 0.472078 0.881557 0.000000
-21.785410 -21.124886 -0.579150 1119 0.472078 0.881557 0.000000
-21.783901 -21.123426 -0.569784 1109 0.472078 0.881557 0.000000
-21.785654 -21.125130 -0.560507 1117 0.472078 0.881557 0.000000
-21.786936 -21.126368 -0.551215 1121 0.472078 0.881557 0.000000
-21.785374 -21.124849 -0.541860 1125 0.472078 0.881557 0.000000
-21.784815 -21.124310 -0.532525 1103 0.472078 0.881557 0.000000
-21.785719 -21.125189 -0.523226 1111 0.472078 0.881557 0.000000
-21.786407 -21.125856 -0.513919 1121 0.472078 0.881557 0.000000
-21.785725 -21.125200 -0.504575 1115 0.472078 0.881557 0.000000
-21.784271 -21.123785 -0.495219 1117 0.472078 0.881557 0.000000
-21.784260 -21.123777 -0.485899 1119 0.472078 0.881557 0.000000
-21.784897 -21.124399 -0.476593 1123 0.472078 0.881557 0.000000
-21.784853 -21.124352 -0.467273 1119 0.472078 0.881557 0.000000
-21.784834 -21.124338 -0.457953 1129 0.472078 0.881557 0.000000
-21.785254 -21.124752 -0.448639 1131 0.472078 0.881557 0.000000
-21.784773 -21.124277 -0.439313 1117 0.472078 0.881557 0.000000
-21.784504 -21.124016 -0.429985 1123 0.472078 0.881557 0.000000
-21.785429 -21.124916 -0.420676 1105 0.472078 0.881557 0.000000
-21.786003 -21.125471 -0.411371 1101 0.472078 0.881557 0.000000
-21.785095 -21.124590 -0.402029 1103 0.472078 0.881557 0.000000
-21.784451 -21.123966 -0.392705 1119 0.472078 0.881557 0.000000
-21.785213 -21.124702 -0.383397 1113 0.472078 0.881557 0.000000
-21.785770 -21.125246 -0.374082 1113 0.472078 0.881557 0.000000
-21.784224 -21.123755 -0.364736 1105 0.472078 0.881557 0.000000
-21.783089 -21.122658 -0.355397 1121 0.472078 0.881557 0.000000
-21.783434 -21.122986 -0.346084 1127 0.472078 0.881557 0.000000
-21.784088 -21.123621 -0.336777 1109 0.472078 0.881557 0.000000
-21.783842 -21.123392 -0.327449 1107 0.472078 0.881557 0.000000
-21.783293 -21.122847 -0.318124 1107 0.472078 0.881557 0.000000
-21.784880 -21.124388 -0.308829 1091 0.472078 0.881557 0.000000
-21.785524 -21.125015 -0.299512 1101 0.472078 0.881557 0.000000
-21.784430 -21.123964 -0.290183 1091 0.472078 0.881557 0.000000
-21.785072 -21.124578 -0.280876 1093 0.472078 0.881557 0.000000
-21.785454 -21.124947 -0.271552 1099 0.472078 0.881557 0.000000
-21.785604 -21.125101 -0.262241 1105 0.472078 0.881557 0.000000
-21.796097 -21.122078 -0.653857 1117 0.472078 0.881557 0.000000
-21.795820 -21.121811 -0.644529 1105 0.472078 0.881557 0.000000
-21.795177 -21.121187 -0.635185 1095 0.472078 0.881557 0.000000
-21.794676 -21.120707 -0.625840 1101 0.472078 0.881557 0.000000
-21.794611 -21.120640 -0.616520 1105 0.472078 0.881557 0.000000
-21.794746 -21.120768 -0.607199 1101 0.472078 0.881557 0.000000
-21.795195 -21.121208 -0.597884 1097 0.472078 0.881557 0.000000
-21.794849 -21.120869 -0.588547 1117 0.472078 0.881557 0.000000
-21.795179 -21.121197 -0.579234 1113 0.472078 0.881557 0.000000
-21.795849 -21.121845 -0.569927 1101 0.472078 0.881557 0.000000
-21.795593 -21.121597 -0.560599 1111 0.472078 0.881557 0.000000
-21.796614 -21.122587 -0.551299 1115 0.472078 0.881557 0.000000
-21.796736 -21.122702 -0.541978 1117 0.472078 0.881557 0.000000
-21.794226 -21.120270 -0.532592 1111 0.472078 0.881557 0.000000
-21.793451 -21.119524 -0.523249 1131 0.472078 0.881557 0.000000
-21.793821 -21.119886 -0.513935 1137 0.472078 0.881557 0.000000
-21.793888 -21.119942 -0.504614 1125 0.472078 0.881557 0.000000
-21.794308 -21.120356 -0.495310 1129 0.472078 0.881557 0.000000
-21.793943 -21.120005 -0.485973 1121 0.472078 0.881557 0.000000
-21.793785 -21.119848 -0.476655 1115 0.472078 0.881557 0.000000
-21.793999 -21.120054 -0.467332 1111 0.472078 0.881557 0.000000
-21.794989 -21.121017 -0.458033 1111 0.472078 0.881557 0.000000
-21.794250 -21.120306 -0.448690 1117 0.472078 0.881557 0.000000
-21.792505 -21.118610 -0.439336 1099 0.472078 0.881557 0.000000
-21.792824 -21.118914 -0.430023 1103 0.472078 0.881557 0.000000
-21.792593 -21.118698 -0.420695 1121 0.472078 0.881557 0.000000
-21.792629 -21.118729 -0.411374 1115 0.472078 0.881557 0.000000
-21.792978 -21.119074 -0.402061 1111 0.472078 0.881557 0.000000
-21.794075 -21.120127 -0.392760 1117 0.472078 0.881557 0.000000
-21.794374 -21.120417 -0.383447 1123 0.472078 0.881557 0.000000
-21.793449 -21.119535 -0.374105 1115 0.472078 0.881557 0.000000
-21.793432 -21.119509 -0.364785 1097 0.472078 0.881557 0.000000
-21.792244 -21.118366 -0.355446 1123 0.472078 0.881557 0.000000
-21.792475 -21.118586 -0.346124 1107 0.472078 0.881557 0.000000
-21.794762 -21.120798 -0.336842 1111 0.472078 0.881557 0.000000
-21.793627 -21.119705 -0.327503 1113 0.472078 0.881557 0.000000
-21.792385 -21.118504 -0.318164 1109 0.472078 0.881557 0.000000
-21.792185 -21.118313 -0.308846 1093 0.472078 0.881557 0.000000
-21.791676 -21.117813 -0.299511 1099 0.472078 0.881557 0.000000
-21.793371 -21.119459 -0.290214 1089 0.472078 0.881557 0.000000
-21.792917 -21.119017 -0.280888 1103 0.472078 0.881557 0.000000
-21.792662 -21.118767 -0.271570 1103 0.472078 0.881557 0.000000
-21.794291 -21.120356 -0.262265 1115 0.472078 0.881557 0.000000
-21.803932 -21.116508 -0.653899 1111 0.472078 0.881557 0.000000
-21.805029 -21.117563 -0.644608 1111 0.472078 0.881557 0.000000
-21.805119 -21.117653 -0.635287 1109 0.472078 0.881557 0.000000
-21.805523 -21.118042 -0.625973 1099 0.472078 0.881557 0.000000
-21.805386 -21.117916 -0.616644 1105 0.472078 0.881557 0.000000
-21.804842 -21.117390 -0.607299 1101 0.472078 0.881557 0.000000
-21.804085 -21.116655 -0.597956 1107 0.472078 0.881557 0.000000
-21.803425 -21.116020 -0.588612 1107 0.472078 0.881557 0.000000
-21.804718 -21.117264 -0.579320 1107 0.472078 0.881557 0.000000
-21.804316 -21.116879 -0.569983 1109 0.472078 0.881557 0.000000
-21.803547 -21.116138 -0.560640 1107 0.472078 0.881557 0.000000
-21.803823 -21.116394 -0.551318 1103 0.472078 0.881557 0.000000
-21.803734 -21.116310 -0.541998 1095 0.472078 0.881557 0.000000
-21.803911 -21.116484 -0.532676 1099 0.472078 0.881557 0.000000
-21.803814 -21.116392 -0.523347 1107 0.472078 0.881557 0.000000
-21.803507 -21.116098 -0.514020 1107 0.472078 0.881557 0.000000
-21.804041 -21.116608 -0.504704 1103 0.472078 0.881557 0.000000
-21.804037 -21.116610 -0.495384 1121 0.472078 0.881557 0.000000
-21.803356 -21.115952 -0.486040 1117 0.472078 0.881557 0.000000
-21.804155 -21.116722 -0.476733 1115 0.472078 0.881557 0.000000
-21.804682 -21.117239 -0.467427 1097 0.472078 0.881557 0.000000
-21.804834 -21.117382 -0.458106 1123 0.472078 0.881557 0.000000
-21.804035 -21.116615 -0.448763 1121 0.472078 0.881557 0.000000
-21.802668 -21.115284 -0.439416 1127 0.472078 0.881557 0.000000
-21.803131 -21.115736 -0.430101 1143 0.472078 0.881557 0.000000
-21.803173 -21.115772 -0.420781 1127 0.472078 0.881557 0.000000
-21.803156 -21.115761 -0.411451 1133 0.472078 0.881557 0.000000
-21.803930 -21.116510 -0.402143 1111 0.472078 0.881557 0.000000
-21.803595 -21.116192 -0.392816 1105 0.472078 0.881557 0.000000
-21.802528 -21.115152 -0.383476 1085 0.472078 0.881557 0.000000
-21.801550 -21.114212 -0.374135 1091 0.472078 0.881557 0.000000
-21.803310 -21.115923 -0.364848 1105 0.472078 0.881557 0.000000
-21.803867 -21.116451 -0.355532 1117 0.472078 0.881557 0.000000
-21.801588 -21.114246 -0.346174 1093 0.472078 0.881557 0.000000
-21.802607 -21.115238 -0.336864 1101 0.472078 0.881557 0.000000
-21.803679 -21.116272 -0.327564 1095 0.472078 0.881557 0.000000
-21.802855 -21.115475 -0.318221 1101 0.472078 0.881557 0.000000
-21.802080 -21.114727 -0.308888 1101 0.472078 0.881557 0.000000
-21.802616 -21.115252 -0.299583 1095 0.472078 0.881557 0.000000
-21.802313 -21.114952 -0.290256 1091 0.472078 0.881557 0.000000
-21.802164 -21.114815 -0.280927 1091 0.472078 0.881557 0.000000
-21.802176 -21.114826 -0.271606 1095 0.472078 0.881557 0.000000
-21.801813 -21.114473 -0.262280 1097 0.472078 0.881557 0.000000
-21.812885 -21.111271 -0.653964 1121 0.472078 0.881557 0.000000
-21.812765 -21.111143 -0.644635 1125 0.472078 0.881557 0.000000
-21.813120 -21.111492 -0.635321 1097 0.472078 0.881557 0.000000
-21.812790 -21.111168 -0.625984 1089 0.472078 0.881557 0.000000
-21.813082 -21.111452 -0.616661 1069 0.472078 0.881557 0.000000
-21.814428 -21.112751 -0.607378 1095 0.472078 0.881557 0.000000
-21.814135 -21.112473 -0.598041 1089 0.472078 0.881557 0.000000
-21.812471 -21.110870 -0.588666 1103 0.472078 0.881557 0.000000
-21.812092 -21.110493 -0.579330 1087 0.472078 0.881557 0.000000
-21.813734 -21.112093 -0.570054 1091 0.472078 0.881557 0.000000
-21.814068 -21.112408 -0.560731 1085 0.472078 0.881557 0.000000
-21.812824 -21.111208 -0.551382 1097 0.472078 0.881557 0.000000
-21.812361 -21.110762 -0.542036 1091 0.472078 0.881557 0.000000
-21.812223 -21.110622 -0.532718 1091 0.472078 0.881557 0.000000
-21.811962 -21.110382 -0.523380 1103 0.472078 0.881557 0.000000
-21.812084 -21.110497 -0.514058 1123 0.472078 0.881557 0.000000
-21.812618 -21.111008 -0.504743 1101 0.472078 0.881557 0.000000
-21.813200 -21.111570 -0.495437 1103 0.472078 0.881557 0.000000
-21.811785 -21.110201 -0.486081 1097 0.472078 0.881557 0.000000
-21.811306 -21.109739 -0.476745 1107 0.472078 0.881557 0.000000
-21.812622 -21.111015 -0.467452 1101 0.472078 0.881557 0.000000
-21.812624 -21.111021 -0.458122 1117 0.472078 0.881557 0.000000
-21.813251 -21.111622 -0.448816 1115 0.472078 0.881557 0.000000
-21.813717 -21.112072 -0.439501 1107 0.472078 0.881557 0.000000
-21.812700 -21.111101 -0.430150 1105 0.472078 0.881557 0.000000
-21.812696 -21.111086 -0.420830 1109 0.472078 0.881557 0.000000
-21.812788 -21.111176 -0.411509 1117 0.472078 0.881557 0.000000
-21.812719 -21.111109 -0.402180 1119 0.472078 0.881557 0.000000
-21.812811 -21.111197 -0.392859 1105 0.472078 0.881557 0.000000
-21.813042 -21.111431 -0.383546 1091 0.472078 0.881557 0.000000
-21.813030 -21.111410 -0.374216 1113 0.472078 0.881557 0.000000
-21.813316 -21.111700 -0.364903 1093 0.472078 0.881557 0.000000
-21.812346 -21.110752 -0.355562 1107 0.472078 0.881557 0.000000
-21.811102 -21.109552 -0.346214 1101 0.472078 0.881557 0.000000
-21.811495 -21.109934 -0.336900 1113 0.472078 0.881557 0.000000
-21.811104 -21.109556 -0.327573 1127 0.472078 0.881557 0.000000
-21.810638 -21.109108 -0.318247 1091 0.472078 0.881557 0.000000
-21.811495 -21.109936 -0.308929 1103 0.472078 0.881557 0.000000
-21.812357 -21.110771 -0.299621 1109 0.472078 0.881557 0.000000
-21.812056 -21.110485 -0.290293 1097 0.472078 0.881557 0.000000
-21.812122 -21.110540 -0.280972 1095 0.472078 0.881557 0.000000
-21.812126 -21.110546 -0.271652 1091 0.472078 0.881557 0.000000
-21.811602 -21.110046 -0.262317 1097 0.472078 0.881557 0.000000
