313
-22.028389 -20.870667 -0.644008 1145 0.609637 0.792681 0.000000
-22.028004 -20.870293 -0.634672 1157 0.609637 0.792681 0.000000
-22.029305 -20.871525 -0.625389 1145 0.609637 0.792681 0.000000
-22.029919 -20.872114 -0.616083 1141 0.609637 0.792681 0.000000
-22.029211 -20.871439 -0.606739 1135 0.609637 0.792681 0.000000
-22.029652 -20.871862 -0.597425 1143 0.609637 0.792681 0.000000
-22.029583 -20.871796 -0.588105 1125 0.609637 0.792681 0.000000
-22.029177 -20.871418 -0.578769 1141 0.609637 0.792681 0.000000
-22.029568 -20.871788 -0.569455 1137 0.609637 0.792681 0.000000
-22.029320 -20.871550 -0.560127 1143 0.609637 0.792681 0.000000
-22.029648 -20.871870 -0.550814 1129 0.609637 0.792681 0.000000
-22.029091 -20.871328 -0.541479 1131 0.609637 0.792681 0.000000
-22.028360 -20.870651 -0.532136 1143 0.609637 0.792681 0.000000
-22.029329 -20.871563 -0.522836 1141 0.609637 0.792681 0.000000
-22.029758 -20.871965 -0.513532 1127 0.609637 0.792681 0.000000
-22.029234 -20.871477 -0.504197 1133 0.609637 0.792681 0.000000
-22.028971 -20.871227 -0.494869 1147 0.609637 0.792681 0.000000
-22.028713 -20.870983 -0.485541 1161 0.609637 0.792681 0.000000
-22.027927 -20.870234 -0.476198 1161 0.609637 0.792681 0.000000
-22.027758 -20.870085 -0.466880 1147 0.609637 0.792681 0.000000
-22.028820 -20.871088 -0.457580 1159 0.609637 0.792681 0.000000
-22.029869 -20.872080 -0.448279 1151 0.609637 0.792681 0.000000
-22.029232 -20.871475 -0.438945 1161 0.609637 0.792681 0.000000
-22.028313 -20.870605 -0.429604 1151 0.609637 0.792681 0.000000
-22.027929 -20.870245 -0.420277 1139 0.609637 0.792681 0.000000
-22.028662 -20.870941 -0.410970 1137 0.609637 0.792681 0.000000
-22.029757 -20.871983 -0.401669 1157 0.609637 0.792681 0.000000
-22.028994 -20.871265 -0.392336 1145 0.609637 0.792681 0.000000
-22.028074 -20.870394 -0.382995 1145 0.609637 0.792681 0.000000
-22.027681 -20.870014 -0.373668 1133 0.609637 0.792681 0.000000
-22.027552 -20.869898 -0.364349 1135 0.609637 0.792681 0.000000
-22.027628 -20.869976 -0.355028 1131 0.609637 0.792681 0.000000
-22.028563 -20.870850 -0.345729 1137 0.609637 0.792681 0.000000
-22.029154 -20.871418 -0.336413 1149 0.609637 0.792681 0.000000
-22.029291 -20.871544 -0.327092 1147 0.609637 0.792681 0.000000
-22.029312 -20.871561 -0.317772 1147 0.609637 0.792681 0.000000
-22.028368 -20.870672 -0.308440 1115 0.609637 0.792681 0.000000
-22.029076 -20.871347 -0.299133 1125 0.609637 0.792681 0.000000
-22.029394 -20.871647 -0.289820 1129 0.609637 0.792681 0.000000
-22.028460 -20.870766 -0.280489 1135 0.609637 0.792681 0.000000
-22.036251 -20.865091 -0.634729 1133 0.609637 0.792681 0.000000
-22.035803 -20.864666 -0.625393 1141 0.609637 0.792681 0.000000
-22.035633 -20.864506 -0.616064 1129 0.609637 0.792681 0.000000
-22.036341 -20.865181 -0.606757 1145 0.609637 0.792681 0.000000
-22.037325 -20.866108 -0.597468 1155 0.609637 0.792681 0.000000
-22.037622 -20.866388 -0.588155 1137 0.609637 0.792681 0.000000
-22.037008 -20.865805 -0.578810 1141 0.609637 0.792681 0.000000
-22.037504 -20.866285 -0.569495 1133 0.609637 0.792681 0.000000
-22.037516 -20.866295 -0.560175 1153 0.609637 0.792681 0.000000
-22.035465 -20.864357 -0.550804 1125 0.609637 0.792681 0.000000
-22.034901 -20.863823 -0.541469 1115 0.609637 0.792681 0.000000
-22.035442 -20.864328 -0.532154 1127 0.609637 0.792681 0.000000
-22.035089 -20.863993 -0.522827 1127 0.609637 0.792681 0.000000
-22.036589 -20.865412 -0.513543 1145 0.609637 0.792681 0.000000
-22.036743 -20.865564 -0.504221 1145 0.609637 0.792681 0.000000
-22.035912 -20.864777 -0.494879 1137 0.609637 0.792681 0.000000
-22.036600 -20.865429 -0.485572 1143 0.609637 0.792681 0.000000
-22.036757 -20.865580 -0.476260 1155 0.609637 0.792681 0.000000
-22.036911 -20.865734 -0.466938 1135 0.609637 0.792681 0.000000
-22.037064 -20.865871 -0.457617 1133 0.609637 0.792681 0.000000
-22.036848 -20.865673 -0.448289 1159 0.609637 0.792681 0.000000
-22.036686 -20.865517 -0.438970 1159 0.609637 0.792681 0.000000
-22.035933 -20.864807 -0.429627 1151 0.609637 0.792681 0.000000
-22.036230 -20.865086 -0.420314 1151 0.609637 0.792681 0.000000
-22.038082 -20.866844 -0.411026 1155 0.609637 0.792681 0.000000
-22.037163 -20.865974 -0.401695 1167 0.609637 0.792681 0.000000
-22.034969 -20.863892 -0.392325 1143 0.609637 0.792681 0.000000
-22.036064 -20.864935 -0.383024 1141 0.609637 0.792681 0.000000
-22.036842 -20.865669 -0.373717 1137 0.609637 0.792681 0.000000
-22.035961 -20.864843 -0.364385 1151 0.609637 0.792681 0.000000
-22.035776 -20.864668 -0.355056 1139 0.609637 0.792681 0.000000
-22.036388 -20.865242 -0.345751 1135 0.609637 0.792681 0.000000
-22.037041 -20.865862 -0.336444 1137 0.609637 0.792681 0.000000
-22.036423 -20.865286 -0.327110 1157 0.609637 0.792681 0.000000
-22.035437 -20.864349 -0.317779 1145 0.609637 0.792681 0.000000
-22.035393 -20.864304 -0.308459 1123 0.609637 0.792681 0.000000
-22.036062 -20.864935 -0.299143 1143 0.609637 0.792681 0.000000
-22.035799 -20.864698 -0.289815 1149 0.609637 0.792681 0.000000
-22.035967 -20.864851 -0.280503 1131 0.609637 0.792681 0.000000
-22.044613 -20.859983 -0.634785 1125 0.609637 0.792681 0.000000
-22.045872 -20.861172 -0.625503 1147 0.609637 0.792681 0.000000
-22.046104 -20.861399 -0.616180 1167 0.609637 0.792681 0.000000
-22.044174 -20.859570 -0.606798 1133 0.609637 0.792681 0.000000
-22.044415 -20.859804 -0.597486 1137 0.609637 0.792681 0.000000
-22.046183 -20.861481 -0.588209 1143 0.609637 0.792681 0.000000
-22.044683 -20.860050 -0.578843 1139 0.609637 0.792681 0.000000
-22.044373 -20.859762 -0.569516 1137 0.609637 0.792681 0.000000
-22.044662 -20.860037 -0.560193 1149 0.609637 0.792681 0.000000
-22.043457 -20.858896 -0.550844 1151 0.609637 0.792681 0.000000
-22.043682 -20.859119 -0.541521 1137 0.609637 0.792681 0.000000
-22.044231 -20.859629 -0.532216 1131 0.609637 0.792681 0.000000
-22.044662 -20.860043 -0.522902 1131 0.609637 0.792681 0.000000
-22.044668 -20.860050 -0.513582 1157 0.609637 0.792681 0.000000
-22.043621 -20.859062 -0.504231 1135 0.609637 0.792681 0.000000
-22.042448 -20.857948 -0.494882 1127 0.609637 0.792681 0.000000
-22.043629 -20.859060 -0.485591 1133 0.609637 0.792681 0.000000
-22.044424 -20.859819 -0.476283 1131 0.609637 0.792681 0.000000
-22.043787 -20.859219 -0.466949 1149 0.609637 0.792681 0.000000
-22.044092 -20.859503 -0.457636 1143 0.609637 0.792681 0.000000
-22.043354 -20.858807 -0.448292 1157 0.609637 0.792681 0.000000
-22.043192 -20.858650 -0.438974 1145 0.609637 0.792681 0.000000
-22.044025 -20.859442 -0.429666 1139 0.609637 0.792681 0.000000
-22.043856 -20.859280 -0.420337 1153 0.609637 0.792681 0.000000
-22.044579 -20.859970 -0.411030 1151 0.609637 0.792681 0.000000
-22.045097 -20.860470 -0.401725 1151 0.609637 0.792681 0.000000
-22.044392 -20.859797 -0.392381 1145 0.609637 0.792681 0.000000
-22.045208 -20.860575 -0.383073 1159 0.609637 0.792681 0.000000
-22.045094 -20.860456 -0.373754 1149 0.609637 0.792681 0.000000
-22.044268 -20.859676 -0.364422 1151 0.609637 0.792681 0.000000
-22.043711 -20.859150 -0.355087 1147 0.609637 0.792681 0.000000
-22.042404 -20.857929 -0.345749 1133 0.609637 0.792681 0.000000
-22.042969 -20.858450 -0.336433 1149 0.609637 0.792681 0.000000
-22.043568 -20.859026 -0.327127 1141 0.609637 0.792681 0.000000
-22.042727 -20.858231 -0.317795 1123 0.609637 0.792681 0.000000
-22.042959 -20.858448 -0.308473 1141 0.609637 0.792681 0.000000
-22.044346 -20.859764 -0.299169 1151 0.609637 0.792681 0.000000
-22.044161 -20.859591 -0.289851 1137 0.609637 0.792681 0.000000
-22.043634 -20.859091 -0.280516 1127 0.609637 0.792681 0.000000
-22.052982 -20.855370 -0.634849 1129 0.609637 0.792681 0.000000
-22.053606 -20.855967 -0.625543 1137 0.609637 0.792681 0.000000
-22.053158 -20.855541 -0.616207 1145 0.609637 0.792681 0.000000
-22.052912 -20.855318 -0.606879 1147 0.609637 0.792681 0.000000
-22.051943 -20.854393 -0.597528 1141 0.609637 0.792681 0.000000
-22.051756 -20.854219 -0.588189 1151 0.609637 0.792681 0.000000
-22.051460 -20.853943 -0.578862 1139 0.609637 0.792681 0.000000
-22.051907 -20.854372 -0.569547 1129 0.609637 0.792681 0.000000
-22.052828 -20.855230 -0.560248 1155 0.609637 0.792681 0.000000
-22.052311 -20.854753 -0.550913 1137 0.609637 0.792681 0.000000
-22.051739 -20.854212 -0.541578 1137 0.609637 0.792681 0.000000
-22.052399 -20.854839 -0.532262 1139 0.609637 0.792681 0.000000
-22.051186 -20.853693 -0.522913 1137 0.609637 0.792681 0.000000
-22.051142 -20.853647 -0.513593 1153 0.609637 0.792681 0.000000
-22.052151 -20.854605 -0.504293 1143 0.609637 0.792681 0.000000
-22.050560 -20.853102 -0.494928 1149 0.609637 0.792681 0.000000
-22.050144 -20.852703 -0.485602 1133 0.609637 0.792681 0.000000
-22.051208 -20.853720 -0.476301 1161 0.609637 0.792681 0.000000
-22.051155 -20.853666 -0.466972 1161 0.609637 0.792681 0.000000
-22.051517 -20.854010 -0.457658 1151 0.609637 0.792681 0.000000
-22.051416 -20.853907 -0.448339 1159 0.609637 0.792681 0.000000
-22.050980 -20.853502 -0.439003 1153 0.609637 0.792681 0.000000
-22.050953 -20.853483 -0.429683 1133 0.609637 0.792681 0.000000
-22.050474 -20.853018 -0.420347 1137 0.609637 0.792681 0.000000
-22.051157 -20.853664 -0.411040 1141 0.609637 0.792681 0.000000
-22.051771 -20.854254 -0.401734 1135 0.609637 0.792681 0.000000
-22.051704 -20.854187 -0.392405 1149 0.609637 0.792681 0.000000
-22.051161 -20.853674 -0.383080 1129 0.609637 0.792681 0.000000
-22.050171 -20.852745 -0.373739 1127 0.609637 0.792681 0.000000
-22.051052 -20.853577 -0.364430 1139 0.609637 0.792681 0.000000
-22.051445 -20.853945 -0.355116 1149 0.609637 0.792681 0.000000
-22.050730 -20.853279 -0.345783 1153 0.609637 0.792681 0.000000
-22.050440 -20.852995 -0.336455 1137 0.609637 0.792681 0.000000
-22.049505 -20.852112 -0.327124 1145 0.609637 0.792681 0.000000
-22.048981 -20.851625 -0.317799 1127 0.609637 0.792681 0.000000
-22.050488 -20.853050 -0.308494 1119 0.609637 0.792681 0.000000
-22.051785 -20.854269 -0.299192 1121 0.609637 0.792681 0.000000
-22.051363 -20.853878 -0.289866 1137 0.609637 0.792681 0.000000
-22.051907 -20.854397 -0.280550 1115 0.609637 0.792681 0.000000
-22.059566 -20.848850 -0.634860 1135 0.609637 0.792681 0.000000
-22.060436 -20.849682 -0.625562 1123 0.609637 0.792681 0.000000
-22.059940 -20.849207 -0.616226 1137 0.609637 0.792681 0.000000
-22.059019 -20.848335 -0.606875 1127 0.609637 0.792681 0.000000
-22.059523 -20.848820 -0.597560 1135 0.609637 0.792681 0.000000
-22.060244 -20.849497 -0.588253 1149 0.609637 0.792681 0.000000
-22.059578 -20.848867 -0.578909 1131 0.609637 0.792681 0.000000
-22.058903 -20.848234 -0.569565 1135 0.609637 0.792681 0.000000
-22.061270 -20.850471 -0.560302 1145 0.609637 0.792681 0.000000
-22.061283 -20.850483 -0.550982 1145 0.609637 0.792681 0.000000
-22.059334 -20.848640 -0.541610 1143 0.609637 0.792681 0.000000
-22.058603 -20.847948 -0.532267 1129 0.609637 0.792681 0.000000
-22.058664 -20.848011 -0.522946 1133 0.609637 0.792681 0.000000
-22.059259 -20.848572 -0.513630 1159 0.609637 0.792681 0.000000
-22.059532 -20.848833 -0.504317 1159 0.609637 0.792681 0.000000
-22.059908 -20.849190 -0.495004 1135 0.609637 0.792681 0.000000
-22.060072 -20.849350 -0.485682 1149 0.609637 0.792681 0.000000
-22.059536 -20.848841 -0.476347 1133 0.609637 0.792681 0.000000
-22.058956 -20.848284 -0.467012 1143 0.609637 0.792681 0.000000
-22.058416 -20.847784 -0.457677 1133 0.609637 0.792681 0.000000
-22.059572 -20.848875 -0.448376 1143 0.609637 0.792681 0.000000
-22.059515 -20.848818 -0.439056 1153 0.609637 0.792681 0.000000
-22.059029 -20.848362 -0.429720 1155 0.609637 0.792681 0.000000
-22.058544 -20.847908 -0.420385 1151 0.609637 0.792681 0.000000
-22.057356 -20.846781 -0.411046 1163 0.609637 0.792681 0.000000
-22.058189 -20.847572 -0.401738 1151 0.609637 0.792681 0.000000
-22.059496 -20.848810 -0.392435 1153 0.609637 0.792681 0.000000
-22.058956 -20.848299 -0.383100 1137 0.609637 0.792681 0.000000
-22.058706 -20.848059 -0.373782 1149 0.609637 0.792681 0.000000
-22.059389 -20.848703 -0.364466 1137 0.609637 0.792681 0.000000
-22.059885 -20.849182 -0.355151 1149 0.609637 0.792681 0.000000
-22.059967 -20.849251 -0.345830 1163 0.609637 0.792681 0.000000
-22.059782 -20.849079 -0.336501 1139 0.609637 0.792681 0.000000
-22.058365 -20.847740 -0.327164 1131 0.609637 0.792681 0.000000
-22.058321 -20.847708 -0.317844 1137 0.609637 0.792681 0.000000
-22.059408 -20.848728 -0.308534 1135 0.609637 0.792681 0.000000
-22.058464 -20.847839 -0.299203 1135 0.609637 0.792681 0.000000
-22.057882 -20.847294 -0.289868 1125 0.609637 0.792681 0.000000
-22.058590 -20.847958 -0.280561 1123 0.609637 0.792681 0.000000
-22.068434 -20.844456 -0.634941 1133 0.609637 0.792681 0.000000
-22.069117 -20.845102 -0.625634 1133 0.609637 0.792681 0.000000
-22.067604 -20.843674 -0.616258 1137 0.609637 0.792681 0.000000
-22.067095 -20.843201 -0.606923 1125 0.609637 0.792681 0.000000
-22.068293 -20.844324 -0.597631 1105 0.609637 0.792681 0.000000
-22.068274 -20.844311 -0.588301 1127 0.609637 0.792681 0.000000
-22.068134 -20.844175 -0.578972 1145 0.609637 0.792681 0.000000
-22.067831 -20.843891 -0.569635 1129 0.609637 0.792681 0.000000
-22.066364 -20.842503 -0.560278 1113 0.609637 0.792681 0.000000
-22.066757 -20.842886 -0.550964 1119 0.609637 0.792681 0.000000
-22.066450 -20.842590 -0.541627 1127 0.609637 0.792681 0.000000
-22.065443 -20.841635 -0.532286 1129 0.609637 0.792681 0.000000
-22.067059 -20.843163 -0.522991 1145 0.609637 0.792681 0.000000
-22.067974 -20.844030 -0.513692 1145 0.609637 0.792681 0.000000
-22.068241 -20.844286 -0.504369 1155 0.609637 0.792681 0.000000
-22.066969 -20.843081 -0.495021 1141 0.609637 0.792681 0.000000
-22.066019 -20.842186 -0.485680 1141 0.609637 0.792681 0.000000
-22.067249 -20.843346 -0.476378 1153 0.609637 0.792681 0.000000
-22.066343 -20.842489 -0.467036 1141 0.609637 0.792681 0.000000
-22.064901 -20.841131 -0.457680 1121 0.609637 0.792681 0.000000
-22.064526 -20.840778 -0.448353 1119 0.609637 0.792681 0.000000
-22.064657 -20.840912 -0.439031 1131 0.609637 0.792681 0.000000
-22.064756 -20.841007 -0.429710 1127 0.609637 0.792681 0.000000
-22.065819 -20.842010 -0.420410 1161 0.609637 0.792681 0.000000
-22.066929 -20.843050 -0.411109 1145 0.609637 0.792681 0.000000
-22.065899 -20.842079 -0.401769 1141 0.609637 0.792681 0.000000
-22.065777 -20.841967 -0.392440 1129 0.609637 0.792681 0.000000
-22.066231 -20.842402 -0.383125 1129 0.609637 0.792681 0.000000
-22.066788 -20.842930 -0.373810 1129 0.609637 0.792681 0.000000
-22.066603 -20.842756 -0.364481 1119 0.609637 0.792681 0.000000
-22.065626 -20.841827 -0.355150 1153 0.609637 0.792681 0.000000
-22.064960 -20.841200 -0.345816 1141 0.609637 0.792681 0.000000
-22.064869 -20.841114 -0.336487 1119 0.609637 0.792681 0.000000
-22.065481 -20.841690 -0.327181 1125 0.609637 0.792681 0.000000
-22.066513 -20.842667 -0.317871 1141 0.609637 0.792681 0.000000
-22.066368 -20.842539 -0.308542 1135 0.609637 0.792681 0.000000
-22.065210 -20.841436 -0.299203 1129 0.609637 0.792681 0.000000
-22.066019 -20.842209 -0.289895 1139 0.609637 0.792681 0.000000
-22.066936 -20.843079 -0.280586 1141 0.609637 0.792681 0.000000
-22.074638 -20.837578 -0.634936 1131 0.609637 0.792681 0.000000
-22.074783 -20.837711 -0.625614 1129 0.609637 0.792681 0.000000
-22.075024 -20.837934 -0.616292 1137 0.609637 0.792681 0.000000
-22.075312 -20.838205 -0.606979 1139 0.609637 0.792681 0.000000
-22.074759 -20.837696 -0.597634 1117 0.609637 0.792681 0.000000
-22.074041 -20.837015 -0.588290 1109 0.609637 0.792681 0.000000
-22.075073 -20.837994 -0.578990 1117 0.609637 0.792681 0.000000
-22.074890 -20.837818 -0.569662 1125 0.609637 0.792681 0.000000
-22.074427 -20.837383 -0.560326 1123 0.609637 0.792681 0.000000
-22.075403 -20.838301 -0.551027 1131 0.609637 0.792681 0.000000
-22.075201 -20.838116 -0.541688 1139 0.609637 0.792681 0.000000
-22.073990 -20.836969 -0.532339 1135 0.609637 0.792681 0.000000
-22.075178 -20.838087 -0.523038 1153 0.609637 0.792681 0.000000
-22.075134 -20.838053 -0.513718 1141 0.609637 0.792681 0.000000
-22.074554 -20.837509 -0.504373 1149 0.609637 0.792681 0.000000
-22.074291 -20.837257 -0.495046 1147 0.609637 0.792681 0.000000
-22.073654 -20.836655 -0.485712 1135 0.609637 0.792681 0.000000
-22.073761 -20.836758 -0.476390 1147 0.609637 0.792681 0.000000
-22.074341 -20.837305 -0.467075 1139 0.609637 0.792681 0.000000
-22.073332 -20.836351 -0.457724 1135 0.609637 0.792681 0.000000
-22.072319 -20.835403 -0.448383 1119 0.609637 0.792681 0.000000
-22.073004 -20.836050 -0.439077 1123 0.609637 0.792681 0.000000
-22.072777 -20.835829 -0.429748 1135 0.609637 0.792681 0.000000
-22.072071 -20.835171 -0.420415 1143 0.609637 0.792681 0.000000
-22.072273 -20.835360 -0.411093 1117 0.609637 0.792681 0.000000
-22.074490 -20.837450 -0.401812 1143 0.609637 0.792681 0.000000
-22.075434 -20.838345 -0.392502 1143 0.609637 0.792681 0.000000
-22.074081 -20.837070 -0.383155 1129 0.609637 0.792681 0.000000
-22.073475 -20.836493 -0.373821 1129 0.609637 0.792681 0.000000
-22.074467 -20.837425 -0.364511 1117 0.609637 0.792681 0.000000
-22.075445 -20.838358 -0.355201 1135 0.609637 0.792681 0.000000
-22.074728 -20.837677 -0.345868 1139 0.609637 0.792681 0.000000
-22.073048 -20.836092 -0.336524 1127 0.609637 0.792681 0.000000
-22.073063 -20.836115 -0.327203 1131 0.609637 0.792681 0.000000
-22.073248 -20.836281 -0.317881 1137 0.609637 0.792681 0.000000
-22.073149 -20.836189 -0.308552 1133 0.609637 0.792681 0.000000
-22.074022 -20.837013 -0.299244 1119 0.609637 0.792681 0.000000
-22.073238 -20.836275 -0.289911 1135 0.609637 0.792681 0.000000
-22.073462 -20.836487 -0.280588 1123 0.609637 0.792681 0.000000
-22.083723 -20.832644 -0.635008 1113 0.609637 0.792681 0.000000
-22.084019 -20.832922 -0.625685 1113 0.609637 0.792681 0.000000
-22.082775 -20.831753 -0.616326 1109 0.609637 0.792681 0.000000
-22.082005 -20.831028 -0.606983 1121 0.609637 0.792681 0.000000
-22.081821 -20.830854 -0.597645 1103 0.609637 0.792681 0.000000
-22.082375 -20.831369 -0.588339 1133 0.609637 0.792681 0.000000
-22.081392 -20.830448 -0.578988 1113 0.609637 0.792681 0.000000
-22.081524 -20.830566 -0.569667 1119 0.609637 0.792681 0.000000
-22.081915 -20.830938 -0.560343 1115 0.609637 0.792681 0.000000
-22.080814 -20.829906 -0.550993 1105 0.609637 0.792681 0.000000
-22.080778 -20.829868 -0.541663 1119 0.609637 0.792681 0.000000
-22.082710 -20.831688 -0.532385 1111 0.609637 0.792681 0.000000
-22.083031 -20.832001 -0.523072 1119 0.609637 0.792681 0.000000
-22.082298 -20.831306 -0.513728 1131 0.609637 0.792681 0.000000
-22.081341 -20.830406 -0.504377 1135 0.609637 0.792681 0.000000
-22.079756 -20.828907 -0.495022 1123 0.609637 0.792681 0.000000
-22.080566 -20.829666 -0.485714 1113 0.609637 0.792681 0.000000
-22.082689 -20.831682 -0.476434 1137 0.609637 0.792681 0.000000
-22.082747 -20.831730 -0.467113 1145 0.609637 0.792681 0.000000
-22.082577 -20.831570 -0.457784 1137 0.609637 0.792681 0.000000
-22.082407 -20.831408 -0.448456 1127 0.609637 0.792681 0.000000
-22.082294 -20.831305 -0.439127 1129 0.609637 0.792681 0.000000
-22.080900 -20.829998 -0.429779 1117 0.609637 0.792681 0.000000
-22.081377 -20.830439 -0.420465 1127 0.609637 0.792681 0.000000
-22.082796 -20.831779 -0.411161 1131 0.609637 0.792681 0.000000
-22.082563 -20.831568 -0.401833 1147 0.609637 0.792681 0.000000
-22.082708 -20.831701 -0.392511 1133 0.609637 0.792681 0.000000
-22.081877 -20.830927 -0.383179 1117 0.609637 0.792681 0.000000
-22.081755 -20.830805 -0.373850 1119 0.609637 0.792681 0.000000
-22.082272 -20.831287 -0.364535 1121 0.609637 0.792681 0.000000
-22.082190 -20.831209 -0.355206 1123 0.609637 0.792681 0.000000
-22.081791 -20.830837 -0.345879 1123 0.609637 0.792681 0.000000
-22.081495 -20.830561 -0.336552 1137 0.609637 0.792681 0.000000
-22.082209 -20.831230 -0.327235 1155 0.609637 0.792681 0.000000
-22.082491 -20.831497 -0.317922 1123 0.609637 0.792681 0.000000
-22.081326 -20.830402 -0.308583 1113 0.609637 0.792681 0.000000
-22.081244 -20.830326 -0.299253 1115 0.609637 0.792681 0.000000
-22.080933 -20.830036 -0.289926 1119 0.609637 0.792681 0.000000
-22.081158 -20.830246 -0.280603 1117 0.609637 0.792681 0.000000
