256
-14.741978 -13.865379 -0.672492 663 -0.378865 0.925452 0.000000
-14.740688 -13.864155 -0.666214 661 -0.378865 0.925452 0.000000
-14.739077 -13.862645 -0.659919 667 -0.378865 0.925452 0.000000
-14.738959 -13.862532 -0.653690 661 -0.378865 0.925452 0.000000
-14.740430 -13.863925 -0.647536 675 -0.378865 0.925452 0.000000
-14.741912 -13.865315 -0.641382 669 -0.378865 0.925452 0.000000
-14.741630 -13.865043 -0.635144 685 -0.378865 0.925452 0.000000
-14.741071 -13.864520 -0.628899 693 -0.378865 0.925452 0.000000
-14.740148 -13.863655 -0.622638 665 -0.378865 0.925452 0.000000
-14.738582 -13.862183 -0.616352 655 -0.378865 0.925452 0.000000
-14.738774 -13.862369 -0.610140 649 -0.378865 0.925452 0.000000
-14.739552 -13.863091 -0.603953 649 -0.378865 0.925452 0.000000
-14.739525 -13.863073 -0.597733 645 -0.378865 0.925452 0.000000
-14.739337 -13.862889 -0.591515 665 -0.378865 0.925452 0.000000
-14.737763 -13.861410 -0.585229 677 -0.378865 0.925452 0.000000
-14.737631 -13.861283 -0.579000 671 -0.378865 0.925452 0.000000
-14.739775 -13.863309 -0.572870 663 -0.378865 0.925452 0.000000
-14.739000 -13.862576 -0.566617 649 -0.378865 0.925452 0.000000
-14.737957 -13.861601 -0.560367 677 -0.378865 0.925452 0.000000
-14.739570 -13.863121 -0.554202 673 -0.378865 0.925452 0.000000
-14.740070 -13.863582 -0.548007 681 -0.378865 0.925452 0.000000
-14.738965 -13.862542 -0.541747 665 -0.378865 0.925452 0.000000
-14.739989 -13.863514 -0.535567 659 -0.378865 0.925452 0.000000
-14.739572 -13.863119 -0.529331 657 -0.378865 0.925452 0.000000
-14.738569 -13.862177 -0.523080 671 -0.378865 0.925452 0.000000
-14.739436 -13.862995 -0.516892 673 -0.378865 0.925452 0.000000
-14.739715 -13.863251 -0.510679 667 -0.378865 0.925452 0.000000
-14.738229 -13.861856 -0.504413 663 -0.378865 0.925452 0.000000
-14.738818 -13.862411 -0.498217 661 -0.378865 0.925452 0.000000
-14.739890 -13.863421 -0.492037 671 -0.378865 0.925452 0.000000
-14.739093 -13.862669 -0.485794 657 -0.378865 0.925452 0.000000
-14.738503 -13.862123 -0.479550 671 -0.378865 0.925452 0.000000
-14.738180 -13.861817 -0.473323 657 -0.378865 0.925452 0.000000
-14.738501 -13.862119 -0.467120 651 -0.378865 0.925452 0.000000
-14.737544 -13.861214 -0.460868 667 -0.378865 0.925452 0.000000
-14.737905 -13.861560 -0.454665 667 -0.378865 0.925452 0.000000
-14.739507 -13.863059 -0.448500 667 -0.378865 0.925452 0.000000
-14.739383 -13.862953 -0.442281 665 -0.378865 0.925452 0.000000
-14.737676 -13.861341 -0.436017 659 -0.378865 0.925452 0.000000
-14.737196 -13.860900 -0.411130 649 -0.378865 0.925452 0.000000
-14.738784 -13.862388 -0.404965 661 -0.378865 0.925452 0.000000
-14.737384 -13.861074 -0.398708 663 -0.378865 0.925452 0.000000
-14.737397 -13.861084 -0.386278 651 -0.378865 0.925452 0.000000
-14.757377 -13.871196 -0.673000 671 -0.378865 0.925452 0.000000
-14.758536 -13.872289 -0.666829 657 -0.378865 0.925452 0.000000
-14.758578 -13.872328 -0.660599 663 -0.378865 0.925452 0.000000
-14.758573 -13.872315 -0.654369 665 -0.378865 0.925452 0.000000
-14.759036 -13.872759 -0.648164 675 -0.378865 0.925452 0.000000
-14.758214 -13.871987 -0.641902 673 -0.378865 0.925452 0.000000
-14.757988 -13.871772 -0.635664 679 -0.378865 0.925452 0.000000
-14.757760 -13.871555 -0.629436 663 -0.378865 0.925452 0.000000
-14.756940 -13.870785 -0.623173 653 -0.378865 0.925452 0.000000
-14.756168 -13.870067 -0.616910 649 -0.378865 0.925452 0.000000
-14.757326 -13.871144 -0.610739 655 -0.378865 0.925452 0.000000
-14.757298 -13.871128 -0.604509 655 -0.378865 0.925452 0.000000
-14.756151 -13.870044 -0.598240 663 -0.378865 0.925452 0.000000
-14.756606 -13.870479 -0.592036 671 -0.378865 0.925452 0.000000
-14.757315 -13.871144 -0.585839 681 -0.378865 0.925452 0.000000
-14.757341 -13.871172 -0.579608 679 -0.378865 0.925452 0.000000
-14.757896 -13.871688 -0.573413 667 -0.378865 0.925452 0.000000
-14.758510 -13.872263 -0.567207 675 -0.378865 0.925452 0.000000
-14.757730 -13.871539 -0.560954 669 -0.378865 0.925452 0.000000
-14.757422 -13.871245 -0.554717 659 -0.378865 0.925452 0.000000
-14.757815 -13.871618 -0.548503 667 -0.378865 0.925452 0.000000
-14.757990 -13.871778 -0.542291 667 -0.378865 0.925452 0.000000
-14.758064 -13.871842 -0.536071 679 -0.378865 0.925452 0.000000
-14.757007 -13.870855 -0.529800 683 -0.378865 0.925452 0.000000
-14.756217 -13.870111 -0.523548 667 -0.378865 0.925452 0.000000
-14.757932 -13.871727 -0.517391 675 -0.378865 0.925452 0.000000
-14.758155 -13.871937 -0.511169 681 -0.378865 0.925452 0.000000
-14.756930 -13.870790 -0.504910 681 -0.378865 0.925452 0.000000
-14.756886 -13.870748 -0.498681 675 -0.378865 0.925452 0.000000
-14.757689 -13.871502 -0.492483 667 -0.378865 0.925452 0.000000
-14.757525 -13.871349 -0.486254 665 -0.378865 0.925452 0.000000
-14.756364 -13.870254 -0.479995 659 -0.378865 0.925452 0.000000
-14.755877 -13.869803 -0.473760 677 -0.378865 0.925452 0.000000
-14.756783 -13.870652 -0.467561 691 -0.378865 0.925452 0.000000
-14.756247 -13.870150 -0.461326 679 -0.378865 0.925452 0.000000
-14.754965 -13.868945 -0.455058 667 -0.378865 0.925452 0.000000
-14.754162 -13.868187 -0.448815 655 -0.378865 0.925452 0.000000
-14.754259 -13.868285 -0.442594 657 -0.378865 0.925452 0.000000
-14.754839 -13.868821 -0.436399 647 -0.378865 0.925452 0.000000
-14.755524 -13.869467 -0.430192 665 -0.378865 0.925452 0.000000
-14.754931 -13.868906 -0.423957 663 -0.378865 0.925452 0.000000
-14.754167 -13.868194 -0.417714 657 -0.378865 0.925452 0.000000
-14.754471 -13.868482 -0.411501 653 -0.378865 0.925452 0.000000
-14.754245 -13.868267 -0.405273 647 -0.378865 0.925452 0.000000
-14.754437 -13.868452 -0.399051 651 -0.378865 0.925452 0.000000
-14.754628 -13.868626 -0.392839 645 -0.378865 0.925452 0.000000
-14.754396 -13.868418 -0.386611 665 -0.378865 0.925452 0.000000
-14.754808 -13.868793 -0.380408 663 -0.378865 0.925452 0.000000
-14.754725 -13.868720 -0.374178 663 -0.378865 0.925452 0.000000
-14.752947 -13.867050 -0.367915 661 -0.378865 0.925452 0.000000
-14.753559 -13.867624 -0.361709 655 -0.378865 0.925452 0.000000
-14.754338 -13.868360 -0.355511 665 -0.378865 0.925452 0.000000
-14.753875 -13.867928 -0.349275 665 -0.378865 0.925452 0.000000
-14.754921 -13.868903 -0.343086 669 -0.378865 0.925452 0.000000
-14.755099 -13.869078 -0.336864 651 -0.378865 0.925452 0.000000
-14.754747 -13.868749 -0.330637 643 -0.378865 0.925452 0.000000
-14.754012 -13.868061 -0.324404 637 -0.378865 0.925452 0.000000
-14.753881 -13.867934 -0.318175 641 -0.378865 0.925452 0.000000
-14.754478 -13.868497 -0.311969 657 -0.378865 0.925452 0.000000
-14.754291 -13.868313 -0.305751 643 -0.378865 0.925452 0.000000
-14.753985 -13.868034 -0.299523 639 -0.378865 0.925452 0.000000
-14.754677 -13.868686 -0.293317 629 -0.378865 0.925452 0.000000
-14.753840 -13.867904 -0.287084 631 -0.378865 0.925452 0.000000
-14.751886 -13.866054 -0.280823 625 -0.378865 0.925452 0.000000
-14.752744 -13.866865 -0.274624 631 -0.378865 0.925452 0.000000
-14.774541 -13.878664 -0.673582 647 -0.378865 0.925452 0.000000
-14.775439 -13.879508 -0.667394 643 -0.378865 0.925452 0.000000
-14.776280 -13.880292 -0.661196 643 -0.378865 0.925452 0.000000
-14.775887 -13.879931 -0.654949 645 -0.378865 0.925452 0.000000
-14.774550 -13.878668 -0.648662 649 -0.378865 0.925452 0.000000
-14.773889 -13.878051 -0.642398 653 -0.378865 0.925452 0.000000
-14.774351 -13.878480 -0.636193 645 -0.378865 0.925452 0.000000
-14.773705 -13.877874 -0.629929 643 -0.378865 0.925452 0.000000
-14.773731 -13.877901 -0.623699 643 -0.378865 0.925452 0.000000
-14.773978 -13.878132 -0.617476 641 -0.378865 0.925452 0.000000
-14.773206 -13.877414 -0.611213 649 -0.378865 0.925452 0.000000
-14.773447 -13.877638 -0.605001 651 -0.378865 0.925452 0.000000
-14.773583 -13.877766 -0.598770 663 -0.378865 0.925452 0.000000
-14.772707 -13.876937 -0.592508 663 -0.378865 0.925452 0.000000
-14.772884 -13.877112 -0.586286 649 -0.378865 0.925452 0.000000
-14.773499 -13.877688 -0.580080 651 -0.378865 0.925452 0.000000
-14.773841 -13.878007 -0.573867 649 -0.378865 0.925452 0.000000
-14.773226 -13.877428 -0.567612 655 -0.378865 0.925452 0.000000
-14.773190 -13.877405 -0.561382 663 -0.378865 0.925452 0.000000
-14.772780 -13.877016 -0.555136 659 -0.378865 0.925452 0.000000
-14.771412 -13.875728 -0.548849 669 -0.378865 0.925452 0.000000
-14.772018 -13.876298 -0.542643 677 -0.378865 0.925452 0.000000
-14.773684 -13.877862 -0.536477 667 -0.378865 0.925452 0.000000
-14.774439 -13.878578 -0.530280 673 -0.378865 0.925452 0.000000
-14.773167 -13.877380 -0.524002 681 -0.378865 0.925452 0.000000
-14.771633 -13.875947 -0.517716 679 -0.378865 0.925452 0.000000
-14.772016 -13.876298 -0.511502 683 -0.378865 0.925452 0.000000
-14.773784 -13.877956 -0.505336 661 -0.378865 0.925452 0.000000
-14.773368 -13.877563 -0.499099 657 -0.378865 0.925452 0.000000
-14.773260 -13.877469 -0.492860 669 -0.378865 0.925452 0.000000
-14.772828 -13.877062 -0.486624 667 -0.378865 0.925452 0.000000
-14.772410 -13.876668 -0.480378 657 -0.378865 0.925452 0.000000
-14.773269 -13.877481 -0.474180 657 -0.378865 0.925452 0.000000
-14.771980 -13.876269 -0.467912 657 -0.378865 0.925452 0.000000
-14.771604 -13.875919 -0.461675 661 -0.378865 0.925452 0.000000
-14.771551 -13.875871 -0.455445 663 -0.378865 0.925452 0.000000
-14.770801 -13.875156 -0.449192 649 -0.378865 0.925452 0.000000
-14.770843 -13.875195 -0.442972 645 -0.378865 0.925452 0.000000
-14.770617 -13.874994 -0.436734 647 -0.378865 0.925452 0.000000
-14.770984 -13.875332 -0.430520 645 -0.378865 0.925452 0.000000
-14.771770 -13.876073 -0.424312 635 -0.378865 0.925452 0.000000
-14.771069 -13.875411 -0.418069 645 -0.378865 0.925452 0.000000
-14.769447 -13.873896 -0.411794 633 -0.378865 0.925452 0.000000
-14.769277 -13.873736 -0.405565 633 -0.378865 0.925452 0.000000
-14.770594 -13.874969 -0.399373 625 -0.378865 0.925452 0.000000
-14.771422 -13.875755 -0.393175 641 -0.378865 0.925452 0.000000
-14.771358 -13.875685 -0.386945 651 -0.378865 0.925452 0.000000
-14.770419 -13.874805 -0.380694 659 -0.378865 0.925452 0.000000
-14.769607 -13.874042 -0.374452 647 -0.378865 0.925452 0.000000
-14.769745 -13.874171 -0.368230 651 -0.378865 0.925452 0.000000
-14.769503 -13.873942 -0.361992 649 -0.378865 0.925452 0.000000
-14.770219 -13.874627 -0.355785 645 -0.378865 0.925452 0.000000
-14.770570 -13.874954 -0.349572 649 -0.378865 0.925452 0.000000
-14.770486 -13.874879 -0.343343 643 -0.378865 0.925452 0.000000
-14.770083 -13.874496 -0.337106 643 -0.378865 0.925452 0.000000
-14.770365 -13.874766 -0.330893 633 -0.378865 0.925452 0.000000
-14.771515 -13.875838 -0.324693 633 -0.378865 0.925452 0.000000
-14.770671 -13.875049 -0.318450 631 -0.378865 0.925452 0.000000
-14.769794 -13.874221 -0.312208 629 -0.378865 0.925452 0.000000
-14.770550 -13.874937 -0.306001 629 -0.378865 0.925452 0.000000
-14.771202 -13.875545 -0.299785 635 -0.378865 0.925452 0.000000
-14.769931 -13.874360 -0.293537 633 -0.378865 0.925452 0.000000
-14.769419 -13.873877 -0.287301 625 -0.378865 0.925452 0.000000
-14.768731 -13.873227 -0.281068 625 -0.378865 0.925452 0.000000
-14.768695 -13.873189 -0.274838 615 -0.378865 0.925452 0.000000
-14.792937 -13.887264 -0.674233 641 -0.378865 0.925452 0.000000
-14.792458 -13.886819 -0.667967 639 -0.378865 0.925452 0.000000
-14.791858 -13.886253 -0.661703 639 -0.378865 0.925452 0.000000
-14.793065 -13.887396 -0.655521 635 -0.378865 0.925452 0.000000
-14.793637 -13.887926 -0.649306 649 -0.378865 0.925452 0.000000
-14.793038 -13.887373 -0.643051 639 -0.378865 0.925452 0.000000
-14.793604 -13.887897 -0.636836 619 -0.378865 0.925452 0.000000
-14.793004 -13.887330 -0.630571 635 -0.378865 0.925452 0.000000
-14.791383 -13.885813 -0.624266 627 -0.378865 0.925452 0.000000
-14.791633 -13.886045 -0.618044 645 -0.378865 0.925452 0.000000
-14.791716 -13.886129 -0.611803 647 -0.378865 0.925452 0.000000
-14.791099 -13.885550 -0.605549 629 -0.378865 0.925452 0.000000
-14.791290 -13.885722 -0.599317 613 -0.378865 0.925452 0.000000
-14.791477 -13.885902 -0.593085 621 -0.378865 0.925452 0.000000
-14.791131 -13.885579 -0.586838 615 -0.378865 0.925452 0.000000
-14.791903 -13.886307 -0.580630 625 -0.378865 0.925452 0.000000
-14.792881 -13.887228 -0.574441 637 -0.378865 0.925452 0.000000
-14.791884 -13.886290 -0.568160 649 -0.378865 0.925452 0.000000
-14.790628 -13.885105 -0.561882 657 -0.378865 0.925452 0.000000
-14.790702 -13.885183 -0.555651 643 -0.378865 0.925452 0.000000
-14.792099 -13.886492 -0.549468 647 -0.378865 0.925452 0.000000
-14.792180 -13.886562 -0.543227 643 -0.378865 0.925452 0.000000
-14.790592 -13.885072 -0.536942 641 -0.378865 0.925452 0.000000
-14.789795 -13.884334 -0.530679 629 -0.378865 0.925452 0.000000
-14.790874 -13.885349 -0.524479 639 -0.378865 0.925452 0.000000
-14.791852 -13.886256 -0.518279 643 -0.378865 0.925452 0.000000
-14.791110 -13.885562 -0.512016 637 -0.378865 0.925452 0.000000
-14.790004 -13.884522 -0.505747 655 -0.378865 0.925452 0.000000
-14.789041 -13.883625 -0.499485 657 -0.378865 0.925452 0.000000
-14.789051 -13.883627 -0.493245 639 -0.378865 0.925452 0.000000
-14.789852 -13.884379 -0.487037 627 -0.378865 0.925452 0.000000
-14.790173 -13.884681 -0.480814 629 -0.378865 0.925452 0.000000
-14.790017 -13.884536 -0.474586 633 -0.378865 0.925452 0.000000
-14.789902 -13.884436 -0.468347 635 -0.378865 0.925452 0.000000
-14.789682 -13.884226 -0.462108 633 -0.378865 0.925452 0.000000
-14.790010 -13.884534 -0.455885 637 -0.378865 0.925452 0.000000
-14.790797 -13.885274 -0.449668 651 -0.378865 0.925452 0.000000
-14.790895 -13.885371 -0.443447 649 -0.378865 0.925452 0.000000
-14.790779 -13.885257 -0.437208 637 -0.378865 0.925452 0.000000
-14.790727 -13.885207 -0.430968 623 -0.378865 0.925452 0.000000
-14.790230 -13.884736 -0.424722 623 -0.378865 0.925452 0.000000
-14.790266 -13.884784 -0.418492 613 -0.378865 0.925452 0.000000
-14.789515 -13.884070 -0.412239 627 -0.378865 0.925452 0.000000
-14.788480 -13.883101 -0.405978 623 -0.378865 0.925452 0.000000
-14.788839 -13.883433 -0.399755 625 -0.378865 0.925452 0.000000
-14.788550 -13.883169 -0.393517 627 -0.378865 0.925452 0.000000
-14.788371 -13.883004 -0.387279 615 -0.378865 0.925452 0.000000
-14.788776 -13.883388 -0.381065 625 -0.378865 0.925452 0.000000
-14.788115 -13.882756 -0.374811 631 -0.378865 0.925452 0.000000
-14.787714 -13.882389 -0.368575 623 -0.378865 0.925452 0.000000
-14.787914 -13.882568 -0.362343 627 -0.378865 0.925452 0.000000
-14.787189 -13.881887 -0.356099 623 -0.378865 0.925452 0.000000
-14.786891 -13.881616 -0.349862 619 -0.378865 0.925452 0.000000
-14.787662 -13.882342 -0.343645 633 -0.378865 0.925452 0.000000
-14.786936 -13.881662 -0.337401 631 -0.378865 0.925452 0.000000
-14.787230 -13.881930 -0.331178 623 -0.378865 0.925452 0.000000
-14.788739 -13.883354 -0.324974 617 -0.378865 0.925452 0.000000
-14.788171 -13.882812 -0.318739 623 -0.378865 0.925452 0.000000
-14.788460 -13.883089 -0.312506 617 -0.378865 0.925452 0.000000
-14.788153 -13.882796 -0.306279 607 -0.378865 0.925452 0.000000
-14.786945 -13.881662 -0.300020 609 -0.378865 0.925452 0.000000
-14.787811 -13.882481 -0.293802 599 -0.378865 0.925452 0.000000
-14.788248 -13.882890 -0.287588 621 -0.378865 0.925452 0.000000
-14.787722 -13.882394 -0.281343 611 -0.378865 0.925452 0.000000
-14.788257 -13.882906 -0.275127 607 -0.378865 0.925452 0.000000
-14.805306 -13.889727 -0.487398 621 -0.378865 0.925452 0.000000
-14.805357 -13.889772 -0.481168 617 -0.378865 0.925452 0.000000
-14.805574 -13.889979 -0.400084 623 -0.378865 0.925452 0.000000
-14.805506 -13.889926 -0.381374 619 -0.378865 0.925452 0.000000
-14.805843 -13.890235 -0.368910 621 -0.378865 0.925452 0.000000
-14.805070 -13.889516 -0.362657 627 -0.378865 0.925452 0.000000
-14.805635 -13.890039 -0.356432 627 -0.378865 0.925452 0.000000
-14.805179 -13.889614 -0.350186 607 -0.378865 0.925452 0.000000
-14.805521 -13.889934 -0.343963 629 -0.378865 0.925452 0.000000
-14.805742 -13.890141 -0.325250 609 -0.378865 0.925452 0.000000
-14.804804 -13.889261 -0.318999 607 -0.378865 0.925452 0.000000
-14.804553 -13.889028 -0.312761 619 -0.378865 0.925452 0.000000
-14.803978 -13.888494 -0.306506 617 -0.378865 0.925452 0.000000
-14.804526 -13.889004 -0.300281 605 -0.378865 0.925452 0.000000
-14.804697 -13.889173 -0.294049 601 -0.378865 0.925452 0.000000
-14.804714 -13.889178 -0.287819 613 -0.378865 0.925452 0.000000
-14.804718 -13.889188 -0.281589 603 -0.378865 0.925452 0.000000
-14.805586 -13.890005 -0.275361 603 -0.378865 0.925452 0.000000
