114
-25.605274 -22.579319 -0.188747 1007 1.009331 -0.313711 -0.294530
-25.602921 -22.577177 -0.178251 1057 1.043196 -0.282891 -0.143508
-25.601330 -22.575733 -0.167761 1077 1.066084 -0.262116 0.007427
-25.601494 -22.575821 -0.157280 1073 1.063724 -0.263379 0.158233
-25.614210 -22.573658 -0.209768 907 0.880756 -0.232257 -0.596990
-25.610937 -22.570723 -0.199267 1041 0.927850 -0.190021 -0.445897
-25.605995 -22.566309 -0.188757 1113 0.998957 -0.126516 -0.294674
-25.602758 -22.563408 -0.178255 1147 1.045529 -0.084774 -0.143566
-25.600725 -22.561569 -0.167769 1151 1.074784 -0.058318 0.007312
-25.600885 -22.561655 -0.157288 1139 1.072479 -0.059553 0.158118
-25.603079 -22.563534 -0.146814 1129 1.040918 -0.086585 0.308823
-25.605385 -22.565508 -0.136351 1069 1.007739 -0.114990 0.459370
-25.610861 -22.570288 -0.125877 987 0.928947 -0.183764 0.610075
-25.625437 -22.569702 -0.220337 895 0.719221 -0.175339 -0.749062
-25.617867 -22.562983 -0.209791 1015 0.828146 -0.078654 -0.597321
-25.610462 -22.556408 -0.199265 1105 0.934683 0.015945 -0.445868
-25.605692 -22.552149 -0.188763 1175 1.003320 0.077227 -0.294760
-25.603600 -22.550266 -0.178267 1195 1.033426 0.104314 -0.143738
-25.602341 -22.549091 -0.167784 1207 1.051539 0.121220 0.007096
-25.602451 -22.549141 -0.157312 1197 1.049947 0.120506 0.157772
-25.603598 -22.550100 -0.146835 1183 1.033454 0.106702 0.308521
-25.607010 -22.553053 -0.136366 1147 0.984357 0.064219 0.459154
-25.613045 -22.558313 -0.125912 1079 0.897524 -0.011472 0.609571
-25.618185 -22.562788 -0.115440 965 0.823563 -0.075855 0.760247
-25.628325 -22.558340 -0.220345 941 0.677671 -0.011856 -0.749177
-25.619495 -22.550516 -0.209807 1077 0.804709 0.100719 -0.597551
-25.613571 -22.545248 -0.199293 1159 0.889950 0.176519 -0.446271
-25.609398 -22.541521 -0.188788 1199 0.949997 0.230144 -0.295120
-25.607044 -22.539394 -0.178291 1227 0.983863 0.260744 -0.144084
-25.606762 -22.539099 -0.167822 1249 0.987924 0.264998 0.006549
-25.608192 -22.540295 -0.157345 1243 0.967341 0.247791 0.157298
-25.608952 -22.540915 -0.146870 1217 0.956419 0.238871 0.308017
-25.610439 -22.542170 -0.136402 1187 0.935013 0.220813 0.458636
-25.614212 -22.545433 -0.125940 1121 0.880729 0.173857 0.609168
-25.621132 -22.551481 -0.115479 1021 0.781162 0.086832 0.759686
-25.632532 -22.548151 -0.220375 975 0.617130 0.134749 -0.749609
-25.623474 -22.540131 -0.209829 1095 0.747461 0.250151 -0.597868
-25.617208 -22.534565 -0.199316 1171 0.837614 0.330232 -0.446602
-25.613420 -22.531178 -0.188809 1229 0.892118 0.378972 -0.295422
-25.611284 -22.529253 -0.178322 1251 0.922855 0.406663 -0.144530
-25.611286 -22.529196 -0.167852 1257 0.922827 0.407487 0.006118
-25.611668 -22.529480 -0.157379 1245 0.917339 0.403397 0.156808
-25.611506 -22.529278 -0.146900 1231 0.919671 0.406306 0.307585
-25.614298 -22.531689 -0.136435 1207 0.879494 0.371617 0.458161
-25.620178 -22.536810 -0.125980 1167 0.794884 0.297931 0.608593
-25.627195 -22.542925 -0.115519 1087 0.693918 0.209946 0.759111
-25.650438 -22.563311 -0.105101 909 0.359487 -0.083374 0.909010
-25.641020 -22.541449 -0.220432 1023 0.495005 0.231187 -0.750429
-25.631479 -22.533010 -0.209879 1115 0.632279 0.352599 -0.598587
-25.623846 -22.526253 -0.199354 1187 0.742110 0.449832 -0.447148
-25.620337 -22.523109 -0.188854 1219 0.792606 0.495060 -0.296069
-25.619289 -22.522133 -0.178381 1253 0.807673 0.509111 -0.145379
-25.617413 -22.520433 -0.167893 1265 0.834678 0.533564 0.005528
-25.617373 -22.520346 -0.157414 1255 0.835254 0.534826 0.156305
-25.619131 -22.521841 -0.146952 1237 0.809951 0.513310 0.306837
-25.620941 -22.523369 -0.136482 1213 0.783907 0.491328 0.457485
-25.625811 -22.527603 -0.126024 1159 0.713842 0.430402 0.607960
-25.633617 -22.534416 -0.115568 1077 0.601515 0.332373 0.758406
-25.649323 -22.548170 -0.105126 919 0.375542 0.134475 0.908650
-25.646877 -22.532705 -0.220463 993 0.410725 0.356990 -0.750875
-25.638145 -22.524979 -0.209925 1111 0.536363 0.468165 -0.599249
-25.631779 -22.519331 -0.199402 1169 0.627971 0.549426 -0.447839
-25.628090 -22.516037 -0.188904 1215 0.681047 0.596822 -0.296789
-25.625359 -22.513582 -0.178421 1249 0.720347 0.632142 -0.145954
-25.623211 -22.511644 -0.167935 1247 0.751248 0.660025 0.004924
-25.623430 -22.511784 -0.157463 1249 0.748092 0.658022 0.155600
-25.626114 -22.514091 -0.146998 1221 0.709479 0.624815 0.306175
-25.629459 -22.516979 -0.136528 1201 0.661342 0.583264 0.456823
-25.633698 -22.520647 -0.126072 1149 0.600362 0.530490 0.607269
-25.639782 -22.525942 -0.115606 1065 0.512816 0.454306 0.757859
-25.658520 -22.542347 -0.105177 913 0.243208 0.218261 0.907916
-25.657482 -22.528400 -0.220535 959 0.258137 0.418931 -0.751911
-25.646214 -22.518454 -0.209982 1081 0.420275 0.562050 -0.600069
-25.640009 -22.512951 -0.199457 1159 0.509550 0.641226 -0.448630
-25.636826 -22.510101 -0.188967 1197 0.555354 0.682227 -0.297695
-25.634464 -22.507980 -0.178471 1233 0.589330 0.712745 -0.146674
-25.633083 -22.506716 -0.167990 1235 0.609199 0.730940 0.004132
-25.633032 -22.506617 -0.157520 1225 0.609940 0.732367 0.154780
-25.635061 -22.508350 -0.147047 1197 0.580740 0.707421 0.305470
-25.639231 -22.511953 -0.136583 1183 0.520747 0.655579 0.456032
-25.643681 -22.515802 -0.126127 1119 0.456721 0.600197 0.606477
-25.649660 -22.521009 -0.115662 1019 0.370684 0.525276 0.757053
-25.676168 -22.544220 -0.105246 839 -0.010731 0.191311 0.906924
-25.678797 -22.532961 -0.220686 831 -0.048548 0.353312 -0.754084
-25.661140 -22.517414 -0.210081 1031 0.205500 0.577007 -0.601494
-25.653719 -22.510853 -0.199545 1117 0.312284 0.671414 -0.449897
-25.647234 -22.505114 -0.189032 1155 0.405593 0.753993 -0.298630
-25.644495 -22.502647 -0.178539 1193 0.445002 0.789478 -0.147652
-25.644104 -22.502260 -0.168060 1203 0.450628 0.795049 0.003125
-25.643227 -22.501434 -0.157576 1193 0.463252 0.806932 0.153974
-25.644054 -22.502106 -0.147102 1167 0.451342 0.797272 0.304679
-25.648273 -22.505758 -0.136637 1137 0.390636 0.744717 0.455254
-25.655479 -22.512032 -0.126185 1071 0.286953 0.654454 0.605643
-25.664938 -22.520271 -0.115728 955 0.150859 0.535896 0.756103
-25.686281 -22.525843 -0.210247 885 -0.156238 0.455733 -0.603882
-25.666979 -22.508858 -0.199631 1027 0.121494 0.700120 -0.451134
-25.660875 -22.503454 -0.189116 1117 0.209314 0.777869 -0.299839
-25.658115 -22.500982 -0.178612 1131 0.249026 0.813436 -0.148702
-25.655096 -22.498281 -0.168120 1161 0.292469 0.852297 0.002262
-25.655815 -22.498863 -0.157646 1147 0.282123 0.843926 0.152967
-25.657839 -22.500572 -0.147175 1119 0.253005 0.819337 0.303629
-25.660429 -22.502802 -0.136700 1079 0.215736 0.787255 0.454348
-25.668287 -22.509636 -0.126253 1001 0.102668 0.688923 0.604665
-25.695469 -22.533413 -0.115843 853 -0.288435 0.346808 0.754449
-25.684967 -22.511312 -0.199747 921 -0.137329 0.664800 -0.452803
-25.673965 -22.501614 -0.189192 1023 0.020967 0.804352 -0.300932
-25.669222 -22.497412 -0.178679 1077 0.089220 0.864811 -0.149666
-25.668020 -22.496296 -0.168196 1089 0.106510 0.880866 0.001168
-25.669504 -22.497541 -0.157717 1087 0.085158 0.862945 0.151945
-25.671484 -22.499224 -0.147245 1047 0.056672 0.838739 0.302621
-25.675940 -22.503084 -0.136780 987 -0.007437 0.783193 0.453197
-25.695082 -22.519802 -0.126358 853 -0.282864 0.542648 0.603154
-25.689611 -22.501333 -0.168314 917 -0.204155 0.808387 -0.000530
-25.689220 -22.500946 -0.157827 897 -0.198529 0.813958 0.150362
