114
-24.370317 -22.450846 -0.165239 929 1.068088 -0.407953 0.007544
-24.370098 -22.450588 -0.155061 905 1.071244 -0.404248 0.153990
-24.374601 -22.441414 -0.185617 999 1.006449 -0.272243 -0.285665
-24.372028 -22.438980 -0.175422 1055 1.043471 -0.237225 -0.138974
-24.370733 -22.437746 -0.165250 1075 1.062105 -0.219469 0.007386
-24.369055 -22.436148 -0.155071 1067 1.086256 -0.196471 0.153846
-24.370846 -22.437744 -0.144899 1037 1.060486 -0.219441 0.300206
-24.380499 -22.433121 -0.195825 1043 0.921592 -0.152917 -0.432542
-24.374472 -22.427523 -0.185623 1111 1.008315 -0.072369 -0.285751
-24.371193 -22.424452 -0.175432 1141 1.055491 -0.028185 -0.139118
-24.370268 -22.423555 -0.165258 1157 1.068801 -0.015286 0.007270
-24.370710 -22.423910 -0.155084 1157 1.062434 -0.020391 0.153659
-24.371990 -22.425035 -0.144918 1145 1.044020 -0.036583 0.299933
-24.374138 -22.426958 -0.134754 1101 1.013118 -0.064246 0.446177
-24.379948 -22.432243 -0.124610 997 0.929524 -0.140293 0.592134
-24.386770 -22.425459 -0.206041 1017 0.831357 -0.042675 -0.579535
-24.380264 -22.419428 -0.195831 1115 0.924968 0.044102 -0.432629
-24.375473 -22.414968 -0.185628 1159 0.993907 0.108266 -0.285823
-24.371971 -22.411695 -0.175441 1179 1.044294 0.155360 -0.139247
-24.371332 -22.411055 -0.165264 1217 1.053488 0.164581 0.007184
-24.371874 -22.411493 -0.155101 1211 1.045694 0.158269 0.153414
-24.372944 -22.412436 -0.144935 1197 1.030298 0.144712 0.299688
-24.374666 -22.413960 -0.134775 1161 1.005516 0.122784 0.445875
-24.379171 -22.418047 -0.124628 1099 0.940693 0.063972 0.591875
-24.385038 -22.423389 -0.114473 1015 0.856276 -0.012899 0.737990
-24.398455 -22.422501 -0.216295 933 0.663236 -0.000110 -0.727075
-24.388830 -22.413607 -0.206052 1087 0.801718 0.127861 -0.579694
-24.381992 -22.407276 -0.195835 1161 0.900104 0.218947 -0.432686
-24.377470 -22.403065 -0.185642 1195 0.965173 0.279543 -0.286024
-24.375910 -22.401573 -0.175472 1231 0.987622 0.301004 -0.139694
-24.376017 -22.401627 -0.165302 1239 0.986086 0.300236 0.006638
-24.374840 -22.400486 -0.155128 1223 1.003018 0.316647 0.153026
-24.375633 -22.401157 -0.144964 1227 0.991602 0.306987 0.299271
-24.378275 -22.403543 -0.134807 1197 0.953592 0.272655 0.445414
-24.382853 -22.407688 -0.124660 1151 0.887727 0.213019 0.591414
-24.389677 -22.413916 -0.114509 1065 0.789533 0.123415 0.737472
-24.401810 -22.411304 -0.216314 987 0.614962 0.160986 -0.727348
-24.392548 -22.402739 -0.206079 1105 0.748230 0.284236 -0.580082
-24.387108 -22.397690 -0.195873 1181 0.826499 0.356880 -0.433233
-24.383875 -22.394676 -0.185682 1215 0.873017 0.400241 -0.286600
-24.383284 -22.394083 -0.175516 1247 0.881524 0.408776 -0.140326
-24.382639 -22.393433 -0.165340 1261 0.890800 0.418135 0.006091
-24.382118 -22.392895 -0.155172 1261 0.898293 0.425874 0.152393
-24.383070 -22.393732 -0.145017 1251 0.884598 0.413826 0.298508
-24.384743 -22.395205 -0.134847 1209 0.860530 0.392639 0.444839
-24.388838 -22.398911 -0.124702 1181 0.801608 0.339316 0.590810
-24.395397 -22.404879 -0.114553 1103 0.707228 0.253444 0.736839
-24.400652 -22.409664 -0.104391 957 0.631621 0.184587 0.883055
-24.407286 -22.402308 -0.216346 1013 0.536171 0.290438 -0.727809
-24.399092 -22.394739 -0.206115 1119 0.654070 0.399336 -0.580600
-24.393126 -22.389204 -0.195913 1179 0.739914 0.478978 -0.433809
-24.389523 -22.385839 -0.185724 1235 0.791755 0.527389 -0.287204
-24.387529 -22.383961 -0.175546 1245 0.820434 0.554421 -0.140758
-24.386889 -22.383314 -0.165370 1257 0.829655 0.563724 0.005659
-24.387310 -22.383661 -0.155208 1241 0.823590 0.558730 0.151875
-24.389093 -22.385237 -0.145057 1229 0.797930 0.536061 0.297933
-24.391672 -22.387556 -0.134891 1215 0.760826 0.502689 0.444206
-24.394896 -22.390453 -0.124742 1189 0.714446 0.461002 0.590235
-24.399632 -22.394747 -0.114584 1109 0.646303 0.399226 0.736393
-24.406027 -22.400574 -0.104425 979 0.554284 0.315385 0.882566
-24.417303 -22.397760 -0.216411 1003 0.392036 0.355865 -0.728744
-24.407061 -22.388315 -0.206172 1107 0.539409 0.491767 -0.581420
-24.401848 -22.383484 -0.195964 1177 0.614413 0.561282 -0.434542
-24.399158 -22.380959 -0.185781 1215 0.653109 0.597618 -0.288024
-24.395872 -22.377895 -0.175590 1253 0.700395 0.641692 -0.141391
-24.393333 -22.375513 -0.165416 1231 0.736923 0.675970 0.004997
-24.394257 -22.376305 -0.155250 1233 0.723640 0.664581 0.151271
-24.395496 -22.377392 -0.145093 1227 0.705801 0.648938 0.297415
-24.397429 -22.379118 -0.134931 1201 0.678001 0.624101 0.443630
-24.401356 -22.382666 -0.124778 1153 0.621494 0.573055 0.589717
-24.406748 -22.387548 -0.114625 1087 0.543910 0.502799 0.735803
-24.417297 -22.397175 -0.104482 971 0.392118 0.364290 0.881745
-24.427408 -22.393021 -0.216476 973 0.246638 0.424063 -0.729679
-24.417973 -22.384319 -0.206243 1079 0.382403 0.549262 -0.582442
-24.411459 -22.378294 -0.196023 1163 0.476124 0.635957 -0.435391
-24.407743 -22.374828 -0.185836 1201 0.529584 0.685822 -0.288816
-24.405483 -22.372704 -0.175649 1239 0.562105 0.716395 -0.142240
-24.404196 -22.371479 -0.165477 1235 0.580630 0.734014 0.004120
-24.403381 -22.370684 -0.155311 1229 0.592348 0.745458 0.150393
-24.404243 -22.371412 -0.145147 1201 0.579944 0.734974 0.296638
-24.408283 -22.375059 -0.134992 1179 0.521818 0.682501 0.442753
-24.411665 -22.378120 -0.124832 1125 0.473160 0.638454 0.588940
-24.416512 -22.382502 -0.114685 1061 0.403425 0.575416 0.734940
-24.420652 -22.386238 -0.104518 925 0.343844 0.521653 0.881227
-24.427677 -22.379484 -0.206300 1013 0.242768 0.618832 -0.583262
-24.419987 -22.372377 -0.196077 1103 0.353422 0.721088 -0.436168
-24.415768 -22.368462 -0.185882 1169 0.414128 0.777430 -0.289478
-24.414156 -22.366936 -0.175712 1195 0.437318 0.799385 -0.143147
-24.412163 -22.365057 -0.165535 1191 0.465997 0.826417 0.003285
-24.411182 -22.364103 -0.155361 1191 0.480103 0.840139 0.149673
-24.413927 -22.366568 -0.145204 1183 0.440611 0.804682 0.295817
-24.416683 -22.369040 -0.135047 1147 0.400955 0.769114 0.441961
-24.420727 -22.372681 -0.124893 1093 0.342774 0.716724 0.588062
-24.427393 -22.378742 -0.114732 997 0.246858 0.629507 0.734263
-24.433128 -22.370701 -0.196163 1035 0.164334 0.745211 -0.437406
-24.429089 -22.366945 -0.185966 1117 0.222460 0.799248 -0.290686
-24.426006 -22.364061 -0.175775 1145 0.266809 0.840743 -0.144053
-24.424229 -22.362391 -0.165596 1149 0.292387 0.864784 0.002407
-24.423590 -22.361744 -0.155429 1153 0.301581 0.874087 0.148695
-24.425743 -22.363668 -0.145267 1139 0.270597 0.846396 0.294911
-24.429832 -22.367355 -0.135112 1115 0.211757 0.793347 0.441026
-24.435112 -22.372137 -0.124961 1047 0.135792 0.724545 0.587083
-24.436945 -22.373762 -0.114789 913 0.109419 0.701163 0.733443
-24.445393 -22.367920 -0.196245 927 -0.012130 0.785224 -0.438586
-24.442745 -22.365450 -0.186052 1023 0.025962 0.820764 -0.291924
-24.438595 -22.361599 -0.175855 1065 0.085680 0.876173 -0.145204
-24.437122 -22.360201 -0.165676 1093 0.106866 0.896289 0.001256
-24.437140 -22.360159 -0.155506 1097 0.106619 0.896893 0.147587
-24.439180 -22.361982 -0.145334 1063 0.077254 0.870657 0.293947
-24.442739 -22.365181 -0.135181 1017 0.026044 0.824633 0.440033
-24.445215 -22.367393 -0.125017 907 -0.009578 0.792798 0.586278
-24.453205 -22.361765 -0.175939 933 -0.124540 0.873785 -0.146413
-24.452660 -22.361216 -0.165763 951 -0.116691 0.881689 0.000004
-24.453201 -22.361654 -0.155590 955 -0.124485 0.875377 0.146379
