243
-17.482296 -15.841351 -0.162477 843 0.919232 -0.437277 -0.097177
-17.483318 -15.842246 -0.155231 869 0.904522 -0.450162 0.007082
-17.481791 -15.840830 -0.147979 847 0.926505 -0.429785 0.111427
-17.485033 -15.834208 -0.184219 831 0.879850 -0.334500 -0.410011
-17.484482 -15.833681 -0.176973 935 0.887782 -0.326925 -0.305752
-17.482145 -15.831529 -0.169706 997 0.921400 -0.295955 -0.201191
-17.480736 -15.830217 -0.162454 1023 0.941681 -0.277087 -0.096846
-17.479156 -15.828749 -0.155193 1033 0.964405 -0.255955 0.007629
-17.478502 -15.828115 -0.147947 1027 0.973818 -0.246844 0.111888
-17.479952 -15.829400 -0.140720 1003 0.952961 -0.265327 0.215874
-17.481630 -15.830874 -0.133489 971 0.928810 -0.286541 0.319917
-17.483786 -15.832791 -0.126256 895 0.897799 -0.314122 0.423989
-17.489408 -15.828306 -0.191493 885 0.816894 -0.249588 -0.514673
-17.485725 -15.824930 -0.184215 993 0.869888 -0.201013 -0.409954
-17.482199 -15.821701 -0.176935 1045 0.920632 -0.154550 -0.305206
-17.478884 -15.818673 -0.169666 1079 0.968329 -0.110983 -0.200616
-17.476871 -15.816819 -0.162416 1105 0.997283 -0.084308 -0.096299
-17.476707 -15.816627 -0.155168 1109 0.999643 -0.081536 0.007989
-17.476978 -15.816832 -0.147937 1105 0.995746 -0.084486 0.112032
-17.477451 -15.817229 -0.140705 1083 0.988940 -0.090208 0.216089
-17.479342 -15.818903 -0.133472 1055 0.961743 -0.114290 0.320161
-17.483133 -15.822290 -0.126251 1009 0.907184 -0.163030 0.424061
-17.487940 -15.826609 -0.119043 953 0.838026 -0.225163 0.527773
-17.492376 -15.820918 -0.198747 901 0.774191 -0.143284 -0.619047
-17.488035 -15.816962 -0.191461 1025 0.836654 -0.086366 -0.514213
-17.484287 -15.813534 -0.184184 1083 0.890581 -0.037035 -0.409508
-17.481148 -15.810657 -0.176912 1119 0.935753 0.004364 -0.304875
-17.478697 -15.808404 -0.169656 1135 0.971019 0.036775 -0.200472
-17.477718 -15.807484 -0.162412 1147 0.985098 0.050016 -0.096242
-17.477222 -15.806998 -0.155166 1153 0.992233 0.057001 0.008017
-17.477165 -15.806912 -0.147935 1141 0.993056 0.058236 0.112061
-17.477806 -15.807451 -0.140703 1131 0.983835 0.050483 0.216118
-17.479969 -15.809374 -0.133480 1111 0.952714 0.022820 0.320046
-17.482397 -15.811539 -0.126256 1081 0.917778 -0.008329 0.423989
-17.486235 -15.814973 -0.119033 1043 0.862561 -0.057742 0.527917
-17.491806 -15.819964 -0.111822 959 0.782397 -0.129562 0.631672
-17.501785 -15.819375 -0.206062 853 0.638811 -0.121082 -0.724299
-17.492619 -15.811040 -0.198726 981 0.770706 -0.001153 -0.618745
-17.488171 -15.806993 -0.191442 1065 0.834705 0.057083 -0.513939
-17.484703 -15.803822 -0.184173 1125 0.884598 0.102709 -0.409349
-17.481657 -15.801035 -0.176910 1161 0.928426 0.142804 -0.304846
-17.480198 -15.799674 -0.169660 1179 0.949421 0.162385 -0.200529
-17.479536 -15.799045 -0.162414 1189 0.958944 0.171442 -0.096270
-17.479582 -15.799051 -0.155183 1187 0.958285 0.171346 0.007773
-17.480288 -15.799643 -0.147949 1193 0.948131 0.162838 0.111859
-17.480116 -15.799457 -0.140710 1169 0.950601 0.165514 0.216018
-17.480480 -15.799755 -0.133478 1145 0.945359 0.161219 0.320075
-17.482374 -15.801419 -0.126256 1135 0.918107 0.137274 0.423989
-17.486258 -15.804902 -0.119033 1103 0.862231 0.087162 0.527917
-17.491455 -15.809559 -0.111823 1043 0.787447 0.020158 0.631658
-17.497091 -15.814615 -0.104612 951 0.706350 -0.052596 0.735413
-17.511429 -15.818211 -0.213396 797 0.500055 -0.104328 -0.829824
-17.504211 -15.811656 -0.206067 947 0.603902 -0.010017 -0.724371
-17.496893 -15.805007 -0.198751 1041 0.709204 0.085652 -0.619105
-17.490759 -15.799423 -0.191448 1101 0.797464 0.165994 -0.514026
-17.487123 -15.796108 -0.184179 1141 0.849772 0.213692 -0.409436
-17.483978 -15.793223 -0.176917 1175 0.895027 0.255201 -0.304947
-17.481695 -15.791126 -0.169660 1203 0.927877 0.285375 -0.200529
-17.480656 -15.790157 -0.162416 1219 0.942834 0.299317 -0.096299
-17.482006 -15.791346 -0.155189 1217 0.923404 0.282219 0.007687
-17.482004 -15.791303 -0.147958 1203 0.923431 0.282836 0.111730
-17.481453 -15.790761 -0.140722 1187 0.931362 0.290631 0.215845
-17.482313 -15.791506 -0.133487 1197 0.918985 0.279914 0.319946
-17.483606 -15.792632 -0.126260 1159 0.900378 0.263708 0.423931
-17.487715 -15.796313 -0.119045 1123 0.841264 0.210741 0.527744
-17.493074 -15.801120 -0.111844 1083 0.764147 0.141583 0.631356
-17.498112 -15.805628 -0.104625 1001 0.691668 0.076719 0.735226
-17.504387 -15.811264 -0.097408 867 0.601377 -0.004377 0.839068
-17.513332 -15.810219 -0.213394 815 0.472666 0.010662 -0.829795
-17.504326 -15.802047 -0.206056 987 0.602256 0.128245 -0.724213
-17.498081 -15.796375 -0.198743 1073 0.692107 0.209850 -0.618990
-17.493240 -15.791970 -0.191461 1127 0.761759 0.273231 -0.514213
-17.489508 -15.788559 -0.184183 1163 0.815467 0.322314 -0.409493
-17.486628 -15.785929 -0.176929 1191 0.856907 0.360160 -0.305119
-17.484018 -15.783526 -0.169666 1207 0.894450 0.394725 -0.200616
-17.483248 -15.782807 -0.162429 1225 0.905538 0.405071 -0.096486
-17.484278 -15.783695 -0.155204 1239 0.890718 0.392296 0.007471
-17.484171 -15.783559 -0.147964 1225 0.892255 0.394259 0.111643
-17.483667 -15.783067 -0.140727 1211 0.899500 0.401339 0.215773
-17.484909 -15.784156 -0.133510 1197 0.881634 0.385669 0.319615
-17.487345 -15.786313 -0.126287 1195 0.846588 0.354630 0.423543
-17.490528 -15.789155 -0.119068 1153 0.800785 0.313738 0.527413
-17.494967 -15.793128 -0.111852 1125 0.736923 0.256573 0.631241
-17.499407 -15.797088 -0.104637 1065 0.673033 0.199599 0.735053
-17.506117 -15.803121 -0.097427 953 0.576486 0.112794 0.838794
-17.515984 -15.802897 -0.213396 871 0.434519 0.116005 -0.829824
-17.505781 -15.793656 -0.206046 997 0.581316 0.248971 -0.724069
-17.499762 -15.788183 -0.198741 1081 0.667929 0.327721 -0.618961
-17.496609 -15.785305 -0.191480 1147 0.713293 0.369134 -0.514486
-17.493465 -15.782433 -0.184209 1183 0.758521 0.410464 -0.409867
-17.490313 -15.779553 -0.176946 1205 0.803886 0.451891 -0.305364
-17.488628 -15.777992 -0.169696 1235 0.828119 0.474353 -0.201047
-17.487698 -15.777122 -0.162452 1239 0.841511 0.486882 -0.096817
-17.486879 -15.776338 -0.155218 1239 0.853285 0.498161 0.007269
-17.487249 -15.776643 -0.147985 1243 0.847961 0.493770 0.111341
-17.488384 -15.777624 -0.140758 1223 0.831631 0.479650 0.215327
-17.489513 -15.778614 -0.133533 1205 0.815385 0.465407 0.319284
-17.491079 -15.779987 -0.126314 1197 0.792853 0.445647 0.423154
-17.494541 -15.783071 -0.119092 1177 0.743043 0.401284 0.527068
-17.498390 -15.786504 -0.111881 1127 0.687661 0.351885 0.630823
-17.503799 -15.791346 -0.104669 1075 0.609830 0.282219 0.734593
-17.511009 -15.797813 -0.097457 967 0.506092 0.189157 0.838363
-17.516581 -15.793720 -0.213382 919 0.425929 0.248051 -0.829623
-17.510176 -15.787915 -0.206069 1029 0.518085 0.331577 -0.724400
-17.504309 -15.782584 -0.198774 1101 0.602503 0.408282 -0.619436
-17.500673 -15.779271 -0.191495 1151 0.654811 0.455952 -0.514702
-17.497465 -15.776348 -0.184234 1187 0.700971 0.498010 -0.410227
-17.494423 -15.773570 -0.176971 1215 0.744744 0.537982 -0.305724
-17.493000 -15.772243 -0.169719 1235 0.765217 0.557083 -0.201378
-17.491859 -15.771189 -0.162486 1255 0.781629 0.572246 -0.097306
-17.490936 -15.770312 -0.155242 1251 0.794912 0.584856 0.006924
-17.490707 -15.770067 -0.148004 1251 0.798205 0.588383 0.111068
-17.491682 -15.770914 -0.140777 1239 0.784181 0.576198 0.215053
-17.493578 -15.772580 -0.133558 1211 0.756902 0.552225 0.318924
-17.495352 -15.774154 -0.126336 1187 0.731379 0.529584 0.422838
-17.498491 -15.776938 -0.119119 1161 0.686206 0.489516 0.526679
-17.502228 -15.780272 -0.111907 1135 0.632444 0.441558 0.630449
-17.506935 -15.784486 -0.104690 1073 0.564712 0.380921 0.734291
-17.512739 -15.789673 -0.097474 985 0.481201 0.306287 0.838118
-17.523031 -15.790393 -0.213428 915 0.333114 0.295927 -0.830285
-17.515970 -15.783993 -0.206109 1033 0.434711 0.388015 -0.724975
-17.509615 -15.778235 -0.198808 1103 0.526154 0.470854 -0.619925
-17.504894 -15.773940 -0.191526 1157 0.594077 0.532658 -0.515148
-17.501574 -15.770916 -0.184255 1185 0.641857 0.576170 -0.410529
-17.499018 -15.768573 -0.176999 1205 0.678632 0.609885 -0.306126
-17.496412 -15.766191 -0.169746 1225 0.716120 0.644162 -0.201767
-17.495104 -15.764981 -0.162504 1239 0.734947 0.661562 -0.097565
-17.494553 -15.764437 -0.155265 1229 0.742878 0.669397 0.006593
-17.495632 -15.765377 -0.148040 1227 0.727345 0.655867 0.110550
-17.496824 -15.766416 -0.140813 1223 0.710192 0.640924 0.214536
-17.497139 -15.766664 -0.133581 1207 0.705664 0.637356 0.318593
-17.498646 -15.767982 -0.126363 1191 0.683983 0.618393 0.422449
-17.501562 -15.770581 -0.119146 1175 0.642022 0.580987 0.526291
-17.505577 -15.774157 -0.111932 1127 0.584252 0.529543 0.630089
-17.510881 -15.778906 -0.104711 1073 0.507931 0.461208 0.733989
-17.518253 -15.785509 -0.097509 989 0.401861 0.366197 0.837615
-17.527817 -15.785403 -0.213468 911 0.264257 0.367720 -0.830860
-17.520594 -15.778854 -0.206140 1029 0.368187 0.461949 -0.725421
-17.514574 -15.773396 -0.198844 1087 0.454800 0.540493 -0.620443
-17.510262 -15.769484 -0.191560 1145 0.516850 0.596781 -0.515637
-17.506416 -15.765986 -0.184293 1187 0.572177 0.647099 -0.411076
-17.503212 -15.763057 -0.177022 1197 0.618283 0.689253 -0.306457
-17.501297 -15.761304 -0.169773 1213 0.645836 0.714474 -0.202155
-17.499720 -15.759850 -0.162532 1223 0.668533 0.735400 -0.097968
-17.499393 -15.759505 -0.155294 1233 0.673225 0.740353 0.006176
-17.500320 -15.760303 -0.148069 1235 0.659888 0.728882 0.110133
-17.501278 -15.761135 -0.140844 1221 0.646111 0.716902 0.214089
-17.502632 -15.762324 -0.133615 1205 0.626626 0.699791 0.318104
-17.504465 -15.763941 -0.126394 1187 0.600252 0.676532 0.422003
-17.507175 -15.766333 -0.119178 1163 0.561255 0.642118 0.525830
-17.510305 -15.769123 -0.111961 1117 0.516219 0.601967 0.629672
-17.515675 -15.773925 -0.104749 1063 0.438965 0.532878 0.733442
-17.522673 -15.780178 -0.097539 987 0.338273 0.442903 0.837183
-17.536093 -15.782770 -0.213529 879 0.145178 0.405607 -0.831738
-17.528751 -15.776131 -0.206203 1021 0.250809 0.501139 -0.726328
-17.522020 -15.770039 -0.198902 1081 0.347659 0.588794 -0.621277
-17.516584 -15.765100 -0.191604 1127 0.425874 0.659860 -0.516270
-17.513109 -15.761936 -0.184335 1159 0.475877 0.705376 -0.411680
-17.510660 -15.759698 -0.177080 1181 0.511115 0.737581 -0.307292
-17.509073 -15.758237 -0.169828 1203 0.533948 0.758603 -0.202947
-17.507715 -15.756975 -0.162586 1231 0.553488 0.776757 -0.098745
-17.507551 -15.756796 -0.155347 1233 0.555848 0.779337 0.005413
-17.507711 -15.756900 -0.148117 1225 0.553543 0.777842 0.109442
-17.507973 -15.757099 -0.140886 1195 0.549783 0.774974 0.213485
-17.509214 -15.758175 -0.133657 1191 0.531917 0.759495 0.317500
-17.511047 -15.759789 -0.126438 1171 0.505543 0.736264 0.421370
-17.513857 -15.762281 -0.119220 1143 0.465119 0.700409 0.525226
-17.517712 -15.765722 -0.111999 1111 0.409655 0.650900 0.629125
-17.523016 -15.770457 -0.104787 1049 0.333333 0.582770 0.732895
-17.530830 -15.777452 -0.097581 943 0.220896 0.482120 0.836579
-17.534973 -15.771843 -0.206256 991 0.161288 0.562833 -0.727090
-17.527920 -15.765452 -0.198938 1055 0.262775 0.654783 -0.621795
-17.523073 -15.761068 -0.191656 1105 0.332510 0.717863 -0.517018
-17.519325 -15.757655 -0.184377 1131 0.386437 0.766974 -0.412285
-17.516706 -15.755262 -0.177123 1169 0.424118 0.801402 -0.307911
-17.514635 -15.753366 -0.169866 1183 0.453922 0.828681 -0.203493
-17.513222 -15.752061 -0.162624 1201 0.474257 0.847467 -0.099292
-17.513372 -15.752159 -0.155393 1201 0.472089 0.846053 0.004751
-17.513651 -15.752372 -0.148151 1209 0.468083 0.842993 0.108953
-17.514244 -15.752863 -0.140928 1183 0.459548 0.835926 0.212881
-17.515697 -15.754137 -0.133699 1177 0.438635 0.817594 0.316895
-17.517591 -15.755802 -0.126480 1157 0.411384 0.793635 0.420766
-17.520662 -15.758529 -0.119260 1121 0.367199 0.754404 0.524651
-17.524305 -15.761771 -0.112039 1077 0.314781 0.707750 0.628550
-17.529240 -15.766171 -0.104822 1017 0.243784 0.644437 0.732392
-17.536617 -15.772768 -0.097618 883 0.137631 0.549522 0.836046
-17.543600 -15.769709 -0.206325 903 0.037159 0.593542 -0.728083
-17.535978 -15.762827 -0.199001 1013 0.146825 0.692560 -0.622702
-17.530872 -15.758196 -0.191711 1083 0.220292 0.759193 -0.517810
-17.527115 -15.754786 -0.184432 1123 0.274356 0.808263 -0.413076
-17.524504 -15.752399 -0.177177 1153 0.311927 0.842595 -0.308688
-17.522383 -15.750453 -0.169919 1169 0.342445 0.870602 -0.204256
-17.521074 -15.749243 -0.162677 1177 0.361271 0.888015 -0.100055
-17.520144 -15.748372 -0.155433 1183 0.374664 0.900543 0.004176
-17.520351 -15.748528 -0.148202 1171 0.371672 0.898306 0.108219
-17.522135 -15.750094 -0.140981 1167 0.346012 0.875761 0.212118
-17.522955 -15.750784 -0.133747 1163 0.334211 0.865840 0.316205
-17.524076 -15.751765 -0.126520 1137 0.318074 0.851720 0.420190
-17.527763 -15.755034 -0.119298 1099 0.265025 0.804682 0.524104
-17.531885 -15.758701 -0.112085 1063 0.205719 0.751921 0.627888
-17.537584 -15.763794 -0.104871 959 0.123717 0.678646 0.731687
-17.547873 -15.763817 -0.199100 909 -0.024315 0.678316 -0.624126
-17.542379 -15.758850 -0.191801 1019 0.054723 0.749780 -0.519105
-17.537434 -15.754369 -0.184520 1081 0.125885 0.814259 -0.414342
-17.534542 -15.751740 -0.177247 1125 0.167490 0.852077 -0.309695
-17.531002 -15.748525 -0.169988 1145 0.218426 0.898347 -0.205249
-17.528278 -15.746037 -0.162725 1139 0.257616 0.934148 -0.100745
-17.528486 -15.746193 -0.155492 1145 0.254624 0.931898 0.003327
-17.529350 -15.746925 -0.148258 1155 0.242192 0.921359 0.107413
-17.530041 -15.747514 -0.141023 1145 0.232257 0.912893 0.211514
-17.532009 -15.749239 -0.133802 1129 0.203935 0.888070 0.315413
-17.534218 -15.751197 -0.126581 1105 0.172155 0.859899 0.419312
-17.537373 -15.753983 -0.119361 1041 0.126763 0.819817 0.523197
-17.542135 -15.758226 -0.112144 973 0.058236 0.758754 0.627039
-17.547026 -15.762585 -0.104925 865 -0.012130 0.696045 0.730910
-17.552839 -15.758374 -0.191890 935 -0.095779 0.756627 -0.520385
-17.547293 -15.753352 -0.184593 1009 -0.015972 0.828887 -0.415393
-17.543583 -15.749994 -0.177324 1063 0.037406 0.877202 -0.310803
-17.541124 -15.747750 -0.170059 1099 0.072781 0.909490 -0.206270
-17.539499 -15.746245 -0.162809 1115 0.096163 0.931143 -0.101954
-17.538183 -15.745028 -0.155555 1109 0.115100 0.948666 0.002420
-17.538286 -15.745089 -0.148315 1111 0.113618 0.947788 0.106593
-17.538929 -15.745629 -0.141082 1097 0.104369 0.940007 0.210665
-17.539841 -15.746412 -0.133857 1085 0.091251 0.928742 0.314622
-17.543541 -15.749697 -0.126636 1045 0.038010 0.881483 0.418521
-17.547821 -15.753507 -0.119420 985 -0.023574 0.826664 0.522348
-17.553524 -15.758592 -0.112207 893 -0.105631 0.753499 0.626133
-17.558475 -15.753695 -0.184686 905 -0.176876 0.823961 -0.416731
-17.553679 -15.749364 -0.177394 975 -0.107854 0.886272 -0.311810
-17.550415 -15.746396 -0.170123 1019 -0.060898 0.928975 -0.207191
-17.549547 -15.745578 -0.162877 1063 -0.048411 0.940748 -0.102932
-17.549593 -15.745584 -0.155637 1061 -0.049070 0.940666 0.001241
-17.549364 -15.745340 -0.148399 1059 -0.045776 0.944165 0.105384
-17.550394 -15.746228 -0.141164 1053 -0.060596 0.931390 0.209485
-17.551418 -15.747112 -0.133928 1009 -0.075333 0.918670 0.313600
-17.554943 -15.750244 -0.126707 959 -0.126050 0.873607 0.417499
-17.559181 -15.753999 -0.119483 877 -0.187030 0.819584 0.521442
-17.562843 -15.747873 -0.170219 897 -0.239722 0.907720 -0.208573
-17.561646 -15.746760 -0.162967 937 -0.222487 0.923733 -0.104227
-17.560930 -15.746083 -0.155721 963 -0.212196 0.933476 0.000032
-17.561195 -15.746282 -0.148479 971 -0.216011 0.930622 0.104233
-17.561508 -15.746529 -0.141237 939 -0.220511 0.927068 0.208435
-17.564283 -15.748974 -0.134012 883 -0.260442 0.891884 0.312392
