146
-22.423700 -19.336201 -0.135094 861 1.070585 -0.447061 0.007207
-22.428680 -19.328962 -0.171496 965 0.998929 -0.342911 -0.516563
-22.426180 -19.326767 -0.162392 1021 1.034908 -0.311323 -0.385570
-22.424911 -19.325619 -0.153288 1049 1.053158 -0.294802 -0.254577
-22.424620 -19.325327 -0.144200 1051 1.057357 -0.290603 -0.123815
-22.425512 -19.326056 -0.135115 1043 1.044513 -0.301087 0.006905
-22.427994 -19.328148 -0.126030 993 1.008809 -0.331193 0.137624
-22.430243 -19.330044 -0.116947 923 0.976453 -0.358472 0.268315
-22.431530 -19.319525 -0.180603 1001 0.957928 -0.207119 -0.647599
-22.427546 -19.316050 -0.171486 1069 1.015258 -0.157116 -0.516419
-22.425213 -19.313999 -0.162390 1117 1.048822 -0.127614 -0.385541
-22.424480 -19.313328 -0.153294 1153 1.059361 -0.117954 -0.254663
-22.423824 -19.312712 -0.144198 1137 1.068801 -0.109089 -0.123786
-22.425034 -19.313702 -0.135121 1133 1.051402 -0.123333 0.006819
-22.426407 -19.314837 -0.126032 1101 1.031642 -0.139662 0.137596
-22.429729 -19.317657 -0.116965 1057 0.983835 -0.180251 0.268056
-22.434214 -19.321472 -0.107888 967 0.919315 -0.235139 0.398660
-22.439035 -19.313864 -0.189753 995 0.849936 -0.125665 -0.779253
-22.433222 -19.308807 -0.180617 1089 0.933585 -0.052912 -0.647800
-22.429455 -19.305527 -0.171500 1147 0.987787 -0.005708 -0.516620
-22.427351 -19.303669 -0.162402 1171 1.018058 0.021022 -0.385714
-22.425457 -19.302002 -0.153302 1195 1.045309 0.045008 -0.254779
-22.424017 -19.300713 -0.144211 1183 1.066030 0.063560 -0.123973
-22.425066 -19.301565 -0.135125 1181 1.050935 0.051293 0.006761
-22.426659 -19.302896 -0.126046 1153 1.028020 0.032137 0.137394
-22.428650 -19.304558 -0.116974 1125 0.999368 0.008233 0.267926
-22.433292 -19.308514 -0.107897 1075 0.932570 -0.048685 0.398531
-22.439381 -19.313707 -0.098831 963 0.844969 -0.123415 0.528977
-22.446411 -19.308151 -0.198895 945 0.743811 -0.043471 -0.910793
-22.438480 -19.301285 -0.189740 1057 0.857923 0.055327 -0.779066
-22.433935 -19.297338 -0.180617 1137 0.923321 0.112108 -0.647800
-22.430891 -19.294672 -0.171515 1175 0.967122 0.150475 -0.516836
-22.428782 -19.292809 -0.162417 1203 0.997475 0.177287 -0.385930
-22.428007 -19.292097 -0.153321 1217 1.008617 0.187524 -0.255052
-22.428162 -19.292194 -0.144240 1219 1.006394 0.186124 -0.124390
-22.426941 -19.291094 -0.135147 1195 1.023958 0.201959 0.006444
-22.427420 -19.291462 -0.126065 1177 1.017070 0.196663 0.137121
-22.431292 -19.294743 -0.116993 1163 0.961359 0.149459 0.267653
-22.435505 -19.298325 -0.107928 1113 0.900735 0.097920 0.398085
-22.442247 -19.304079 -0.098860 1019 0.803721 0.015122 0.528560
-22.450562 -19.300274 -0.198920 1001 0.684093 0.069872 -0.911153
-22.442688 -19.293465 -0.189764 1097 0.797382 0.167847 -0.779412
-22.437532 -19.288984 -0.180645 1167 0.871562 0.232312 -0.648203
-22.433043 -19.285091 -0.171521 1201 0.936165 0.288325 -0.516922
-22.430767 -19.283083 -0.162424 1227 0.968906 0.317224 -0.386030
-22.430096 -19.282467 -0.153338 1237 0.978566 0.326088 -0.255297
-22.430256 -19.282558 -0.144257 1235 0.976261 0.324771 -0.124635
-22.430424 -19.282669 -0.135176 1223 0.973846 0.323179 0.006027
-22.432186 -19.284140 -0.126097 1191 0.948487 0.302020 0.136660
-22.434336 -19.285938 -0.117024 1175 0.917558 0.276140 0.267207
-22.437483 -19.288605 -0.107947 1135 0.872276 0.237774 0.397811
-22.444300 -19.294418 -0.098887 1085 0.774191 0.154125 0.528171
-22.452871 -19.301744 -0.089817 941 0.650859 0.048713 0.658675
-22.453625 -19.290655 -0.198937 1021 0.640018 0.208271 -0.911397
-22.446421 -19.284424 -0.189787 1127 0.743674 0.297931 -0.779743
-22.442549 -19.281042 -0.180670 1181 0.799385 0.346589 -0.648563
-22.439657 -19.278521 -0.171568 1223 0.840990 0.382869 -0.517599
-22.436333 -19.275614 -0.162466 1251 0.888824 0.424694 -0.386635
-22.434769 -19.274237 -0.153366 1267 0.911328 0.444508 -0.255699
-22.434599 -19.274033 -0.144287 1263 0.913771 0.447445 -0.125066
-22.435823 -19.275038 -0.135210 1251 0.896152 0.432982 0.005538
-22.437471 -19.276413 -0.126131 1217 0.872440 0.413195 0.136171
-22.440067 -19.278601 -0.117056 1211 0.835089 0.381717 0.266747
-22.443775 -19.281738 -0.107985 1163 0.781739 0.336572 0.397265
-22.449253 -19.286400 -0.098923 1099 0.702920 0.269499 0.527653
-22.454119 -19.290541 -0.089844 989 0.632910 0.209918 0.658286
-22.459229 -19.283779 -0.198965 1035 0.559388 0.307207 -0.911800
-22.452965 -19.278357 -0.189831 1119 0.649514 0.385230 -0.780376
-22.447701 -19.273785 -0.180703 1171 0.725259 0.451012 -0.649038
-22.443661 -19.270266 -0.171595 1209 0.783385 0.501646 -0.517987
-22.441765 -19.268599 -0.162497 1253 0.810664 0.525632 -0.387081
-22.440313 -19.267317 -0.153405 1273 0.831549 0.544075 -0.256261
-22.440699 -19.267593 -0.144324 1275 0.826005 0.540095 -0.125599
-22.441763 -19.268461 -0.135247 1259 0.810692 0.527608 0.005006
-22.441746 -19.268406 -0.126168 1207 0.810939 0.528404 0.135639
-22.443729 -19.270061 -0.117085 1195 0.782397 0.504583 0.266329
-22.448940 -19.274496 -0.108025 1165 0.707421 0.440776 0.396689
-22.455582 -19.280151 -0.098957 1095 0.611861 0.359405 0.527164
-22.460957 -19.284716 -0.089886 991 0.534524 0.293732 0.657682
-22.466679 -19.278488 -0.199023 1035 0.452193 0.383336 -0.912635
-22.458914 -19.271770 -0.189867 1123 0.563917 0.479993 -0.780894
-22.453362 -19.266964 -0.180741 1177 0.643806 0.549152 -0.649584
-22.450541 -19.264498 -0.171637 1221 0.684395 0.584637 -0.518592
-22.448927 -19.263071 -0.162546 1251 0.707613 0.605165 -0.387786
-22.448095 -19.262318 -0.153450 1271 0.719578 0.616005 -0.256908
-22.445705 -19.260212 -0.144354 1247 0.753965 0.646303 -0.126030
-22.445362 -19.259872 -0.135277 1221 0.758905 0.651188 0.004574
-22.448074 -19.262157 -0.126202 1211 0.719880 0.618310 0.135149
-22.450619 -19.264299 -0.117127 1193 0.683270 0.587491 0.265725
-22.454041 -19.267189 -0.108057 1153 0.634036 0.545913 0.396229
-22.459923 -19.272182 -0.098994 1079 0.549399 0.474065 0.526631
-22.468946 -19.279890 -0.089932 969 0.419562 0.363165 0.657020
-22.475403 -19.274052 -0.199076 1011 0.326664 0.447170 -0.913397
-22.467861 -19.267534 -0.189928 1093 0.435177 0.540946 -0.781771
-22.460297 -19.261011 -0.180792 1147 0.544020 0.634804 -0.650318
-22.456306 -19.257542 -0.171675 1201 0.601432 0.684724 -0.519138
-22.455425 -19.256737 -0.162590 1229 0.614111 0.696306 -0.388419
-22.454807 -19.256161 -0.153494 1249 0.623003 0.704594 -0.257541
-22.455027 -19.256308 -0.144413 1241 0.619847 0.702481 -0.126879
-22.455574 -19.256731 -0.135331 1221 0.611971 0.696388 0.003797
-22.456289 -19.257299 -0.126257 1211 0.601679 0.688210 0.134358
-22.459007 -19.259579 -0.117180 1183 0.562572 0.655414 0.264962
-22.463310 -19.263235 -0.108107 1139 0.500658 0.602804 0.395509
-22.468687 -19.267801 -0.099036 1071 0.423294 0.537104 0.526027
-22.474897 -19.273069 -0.089970 943 0.333937 0.461304 0.656473
-22.485016 -19.270596 -0.199150 947 0.188347 0.496899 -0.914462
-22.476353 -19.263123 -0.189991 1059 0.312997 0.604424 -0.782678
-22.470247 -19.257853 -0.180857 1125 0.400845 0.680251 -0.651253
-22.466465 -19.254572 -0.171748 1165 0.455266 0.727455 -0.520189
-22.464476 -19.252811 -0.162640 1189 0.483890 0.752785 -0.389138
-22.463242 -19.251711 -0.153548 1215 0.501646 0.768620 -0.258318
-22.463129 -19.251566 -0.144469 1215 0.503266 0.770706 -0.127685
-22.464132 -19.252384 -0.135382 1203 0.488830 0.758933 0.003063
-22.463007 -19.251371 -0.126299 1191 0.505022 0.773505 0.133754
-22.465111 -19.253132 -0.117216 1143 0.474751 0.748175 0.264444
-22.470417 -19.257641 -0.108157 1117 0.398403 0.683297 0.394790
-22.477797 -19.263914 -0.099083 1023 0.292222 0.593035 0.525351
-22.486288 -19.259964 -0.190054 973 0.170042 0.649871 -0.783584
-22.479565 -19.254168 -0.180924 1071 0.266782 0.733273 -0.652217
-22.475624 -19.250748 -0.171807 1137 0.323481 0.782479 -0.521038
-22.473455 -19.248844 -0.162699 1171 0.354685 0.809868 -0.389987
-22.472445 -19.247931 -0.153605 1181 0.369230 0.823014 -0.259138
-22.472391 -19.247841 -0.144526 1179 0.369998 0.824304 -0.128505
-22.474045 -19.249218 -0.135447 1181 0.346204 0.804489 0.002128
-22.475433 -19.250355 -0.126358 1173 0.326225 0.788133 0.132905
-22.478045 -19.252542 -0.117283 1121 0.288655 0.756655 0.263480
-22.482191 -19.256060 -0.108210 1061 0.228992 0.706048 0.394027
-22.487347 -19.260424 -0.099140 941 0.154811 0.643257 0.524531
-22.491400 -19.252382 -0.180998 993 0.096493 0.758960 -0.653282
-22.486792 -19.248404 -0.171875 1067 0.162797 0.816208 -0.522016
-22.483955 -19.245924 -0.162772 1121 0.203606 0.851885 -0.391038
-22.482950 -19.245016 -0.153677 1141 0.218069 0.864948 -0.260174
-22.482113 -19.244253 -0.144581 1153 0.230117 0.875926 -0.129297
-22.483330 -19.245253 -0.135495 1137 0.212608 0.861545 0.001437
-22.485710 -19.247248 -0.126421 1111 0.178358 0.832839 0.131998
-22.488472 -19.249567 -0.117346 1059 0.138619 0.799467 0.262574
-22.492741 -19.253176 -0.108271 975 0.077200 0.747543 0.393149
-22.501507 -19.249090 -0.171973 939 -0.048932 0.806328 -0.523426
-22.498390 -19.246382 -0.162861 1023 -0.004089 0.845299 -0.392318
-22.495663 -19.243992 -0.153755 1043 0.035156 0.879686 -0.261296
-22.495213 -19.243563 -0.144659 1065 0.041632 0.885861 -0.130419
-22.496313 -19.244465 -0.135573 1037 0.025797 0.872880 0.000315
-22.499809 -19.247406 -0.126492 999 -0.024507 0.830561 0.130977
-22.502468 -19.249630 -0.117419 913 -0.062764 0.798562 0.261524
-22.511221 -19.245159 -0.153851 875 -0.188704 0.862890 -0.262678
-22.510212 -19.244259 -0.144747 877 -0.174186 0.875844 -0.131685
