259
-17.130062 -14.757996 -0.157085 787 0.910450 -0.526607 0.007293
-17.129837 -14.757767 -0.150137 793 0.913689 -0.523313 0.107264
-17.132011 -14.750838 -0.177919 859 0.882403 -0.423624 -0.292477
-17.128906 -14.748131 -0.170958 939 0.927081 -0.384667 -0.192318
-17.127062 -14.746511 -0.163998 971 0.953619 -0.361367 -0.092175
-17.126398 -14.745902 -0.157051 999 0.963170 -0.352599 0.007782
-17.125387 -14.745001 -0.150106 991 0.977715 -0.339632 0.107710
-17.126261 -14.745721 -0.143173 971 0.965146 -0.349992 0.207466
-17.129255 -14.748260 -0.136246 937 0.922059 -0.386519 0.307135
-17.132053 -14.750638 -0.129318 863 0.881799 -0.420742 0.406818
-17.132521 -14.742206 -0.184860 929 0.875075 -0.299413 -0.392347
-17.128971 -14.739113 -0.177881 1003 0.926148 -0.254912 -0.291930
-17.127142 -14.737507 -0.170933 1049 0.952467 -0.231805 -0.191959
-17.125362 -14.735935 -0.163973 1067 0.978072 -0.209191 -0.091815
-17.123692 -14.734468 -0.157023 1075 1.002113 -0.188087 0.008185
-17.124132 -14.734812 -0.150089 1065 0.995773 -0.193026 0.107955
-17.124891 -14.735435 -0.143156 1053 0.984851 -0.201987 0.207710
-17.125996 -14.736348 -0.136229 1021 0.968961 -0.215132 0.307379
-17.128860 -14.738776 -0.129303 1005 0.927740 -0.250069 0.407034
-17.132401 -14.741784 -0.122383 941 0.876804 -0.293347 0.506602
-17.136206 -14.745023 -0.115471 807 0.822054 -0.339947 0.606056
-17.134617 -14.735103 -0.191803 957 0.844914 -0.197212 -0.492246
-17.130003 -14.731108 -0.184820 1035 0.911301 -0.139730 -0.391772
-17.126686 -14.728208 -0.177849 1085 0.959026 -0.098002 -0.291470
-17.124739 -14.726504 -0.170900 1107 0.987046 -0.073495 -0.191484
-17.123291 -14.725224 -0.163950 1115 1.007876 -0.055066 -0.091484
-17.122446 -14.724469 -0.157015 1135 1.020034 -0.044212 0.008300
-17.122944 -14.724855 -0.150082 1127 1.012871 -0.049769 0.108056
-17.123430 -14.725242 -0.143148 1105 1.005873 -0.055327 0.207825
-17.125750 -14.727201 -0.136225 1091 0.972501 -0.083525 0.307437
-17.128565 -14.729593 -0.129309 1081 0.931994 -0.117940 0.406948
-17.131149 -14.731780 -0.122385 1035 0.894807 -0.149404 0.506574
-17.135466 -14.735454 -0.115469 953 0.832702 -0.202261 0.606084
-17.139164 -14.738601 -0.108547 835 0.779488 -0.247544 0.705682
-17.139242 -14.730197 -0.198780 949 0.778363 -0.126626 -0.592635
-17.134422 -14.726017 -0.191790 1043 0.847714 -0.066483 -0.492059
-17.130312 -14.722453 -0.184813 1095 0.906855 -0.015204 -0.391671
-17.127045 -14.719601 -0.177841 1123 0.953866 0.025838 -0.291354
-17.124317 -14.717227 -0.170887 1151 0.993111 0.059992 -0.191297
-17.123213 -14.716235 -0.163944 1159 1.009001 0.074263 -0.091398
-17.123590 -14.716534 -0.157011 1169 1.003567 0.069968 0.008358
-17.123074 -14.716054 -0.150076 1151 1.011005 0.076870 0.108142
-17.123453 -14.716339 -0.143143 1153 1.005543 0.072767 0.207897
-17.124937 -14.717589 -0.136225 1117 0.984192 0.054778 0.307437
-17.127487 -14.719742 -0.129299 1121 0.947499 0.023808 0.407092
-17.129906 -14.721784 -0.122376 1095 0.912701 -0.005571 0.506703
-17.132942 -14.724361 -0.115458 1035 0.869010 -0.042661 0.606243
-17.138914 -14.729462 -0.108553 957 0.783083 -0.116046 0.705595
-17.146278 -14.726987 -0.205776 901 0.677122 -0.080438 -0.693297
-17.139561 -14.721189 -0.198765 1017 0.773780 0.002991 -0.592419
-17.133904 -14.716288 -0.191769 1087 0.855178 0.073508 -0.491757
-17.130795 -14.713588 -0.184807 1133 0.899912 0.112355 -0.391585
-17.128511 -14.711588 -0.177851 1151 0.932762 0.141130 -0.291498
-17.127401 -14.710605 -0.170906 1173 0.948734 0.155277 -0.191570
-17.126066 -14.709420 -0.163963 1187 0.967945 0.172320 -0.091671
-17.124561 -14.708098 -0.157013 1199 0.989598 0.191339 0.008329
-17.124893 -14.708339 -0.150082 1193 0.984823 0.187881 0.108056
-17.125034 -14.708436 -0.143150 1181 0.982792 0.186481 0.207797
-17.126087 -14.709301 -0.136225 1173 0.967643 0.174035 0.307437
-17.128292 -14.711162 -0.129313 1163 0.935918 0.147264 0.406890
-17.130835 -14.713305 -0.122387 1137 0.899335 0.116417 0.506545
-17.134315 -14.716258 -0.115477 1095 0.849250 0.073934 0.605969
-17.139503 -14.720688 -0.108557 1025 0.774603 0.010195 0.705538
-17.147373 -14.727405 -0.101662 925 0.661370 -0.086448 0.804746
-17.147200 -14.718504 -0.205769 963 0.663867 0.041619 -0.693196
-17.141596 -14.713654 -0.198771 1049 0.744497 0.111408 -0.592506
-17.137205 -14.709846 -0.191786 1115 0.807673 0.166200 -0.492002
-17.133383 -14.706530 -0.184818 1147 0.862670 0.213911 -0.391743
-17.131050 -14.704494 -0.177862 1163 0.896234 0.243194 -0.291657
-17.128824 -14.702551 -0.170904 1187 0.928261 0.271159 -0.191541
-17.126873 -14.700840 -0.163956 1193 0.956336 0.295776 -0.091570
-17.126257 -14.700280 -0.157019 1215 0.965201 0.303831 0.008243
-17.126303 -14.700286 -0.150089 1207 0.964542 0.303749 0.107955
-17.125740 -14.699759 -0.143152 1191 0.972638 0.311337 0.207768
-17.127283 -14.701053 -0.136234 1181 0.950436 0.292716 0.307307
-17.129925 -14.703294 -0.129318 1175 0.912426 0.260470 0.406818
-17.132862 -14.705777 -0.122402 1153 0.870163 0.224738 0.506329
-17.136402 -14.708773 -0.115492 1127 0.819227 0.181637 0.605753
-17.140825 -14.712536 -0.108576 1067 0.755584 0.127490 0.705264
-17.147129 -14.717912 -0.101669 991 0.664883 0.050140 0.804646
-17.150438 -14.720728 -0.094740 813 0.617267 0.009619 0.904343
-17.149061 -14.710816 -0.205763 1009 0.637082 0.152231 -0.693110
-17.142733 -14.705349 -0.198761 1083 0.728141 0.230899 -0.592362
-17.138407 -14.701605 -0.191786 1131 0.790383 0.284771 -0.492002
-17.135073 -14.698718 -0.184815 1165 0.838355 0.326308 -0.391700
-17.133070 -14.696960 -0.177866 1185 0.867171 0.351597 -0.291714
-17.131845 -14.695881 -0.170923 1207 0.884790 0.367130 -0.191815
-17.130007 -14.694266 -0.163975 1229 0.911246 0.390362 -0.091844
-17.129387 -14.693700 -0.157038 1233 0.920165 0.398512 0.007969
-17.129433 -14.693706 -0.150108 1229 0.919507 0.398430 0.107682
-17.128761 -14.693089 -0.143171 1205 0.929167 0.407308 0.207494
-17.129864 -14.694001 -0.136255 1195 0.913304 0.394176 0.307005
-17.133455 -14.697045 -0.129345 1199 0.861628 0.350376 0.406430
-17.136169 -14.699342 -0.122429 1151 0.822575 0.317333 0.505940
-17.138481 -14.701293 -0.115505 1127 0.789313 0.289258 0.605566
-17.142963 -14.705098 -0.108589 1101 0.724820 0.234508 0.705077
-17.148941 -14.710190 -0.101687 1025 0.638811 0.161246 0.804387
-17.153961 -14.714471 -0.094767 889 0.566579 0.099649 0.903955
-17.152107 -14.704337 -0.205782 1013 0.593254 0.245458 -0.693383
-17.145891 -14.698966 -0.198778 1085 0.682694 0.322740 -0.592606
-17.141237 -14.694945 -0.191795 1131 0.749657 0.380592 -0.492132
-17.138292 -14.692391 -0.184832 1179 0.792030 0.417339 -0.391944
-17.135563 -14.690017 -0.177877 1207 0.831302 0.451506 -0.291872
-17.133451 -14.688169 -0.170929 1227 0.861682 0.478100 -0.191901
-17.131781 -14.686702 -0.163990 1231 0.885723 0.499204 -0.092060
-17.132332 -14.687138 -0.157057 1259 0.877792 0.492933 0.007696
-17.132378 -14.687143 -0.150126 1239 0.877133 0.492851 0.107423
-17.132919 -14.687572 -0.143204 1221 0.869339 0.486690 0.207020
-17.134686 -14.689051 -0.136284 1217 0.843926 0.465407 0.306588
-17.135616 -14.689812 -0.129358 1195 0.830534 0.454457 0.406243
-17.137718 -14.691576 -0.122437 1173 0.800291 0.429071 0.505825
-17.141087 -14.694433 -0.115526 1153 0.751825 0.387960 0.605264
-17.144514 -14.697331 -0.108606 1109 0.702508 0.346259 0.704833
-17.150490 -14.702423 -0.101702 1025 0.616526 0.272998 0.804171
-17.158415 -14.709182 -0.094797 909 0.502497 0.175751 0.903523
-17.155682 -14.698476 -0.205805 1029 0.541824 0.329793 -0.693714
-17.149853 -14.693452 -0.198799 1093 0.625693 0.402080 -0.592908
-17.146132 -14.690233 -0.191830 1157 0.679236 0.448392 -0.492635
-17.141802 -14.686483 -0.184856 1179 0.741533 0.502346 -0.392290
-17.138741 -14.683833 -0.177893 1197 0.785581 0.540479 -0.292103
-17.137575 -14.682795 -0.170960 1231 0.802349 0.555423 -0.192347
-17.137014 -14.682288 -0.164024 1251 0.810417 0.562709 -0.092549
-17.136782 -14.682053 -0.157085 1247 0.813766 0.566098 0.007293
-17.136662 -14.681913 -0.150156 1239 0.815494 0.568102 0.106991
-17.137047 -14.682202 -0.143234 1235 0.809951 0.563944 0.206588
-17.138029 -14.683012 -0.136309 1217 0.795817 0.552294 0.306228
-17.139513 -14.684251 -0.129389 1197 0.774466 0.534469 0.405797
-17.141666 -14.686063 -0.122467 1179 0.743482 0.508398 0.505394
-17.145206 -14.689058 -0.115557 1149 0.692546 0.465297 0.604818
-17.149250 -14.692482 -0.108643 1109 0.634365 0.416035 0.704300
-17.153620 -14.696190 -0.101728 1045 0.571491 0.362684 0.803797
-17.160151 -14.701759 -0.094811 935 0.477523 0.282548 0.903322
-17.161169 -14.694100 -0.205839 1035 0.462868 0.392749 -0.694203
-17.155954 -14.689595 -0.198849 1099 0.537900 0.457572 -0.593628
-17.150623 -14.684994 -0.191860 1147 0.614605 0.523780 -0.493067
-17.145895 -14.680918 -0.184887 1175 0.682639 0.582427 -0.392736
-17.144001 -14.679262 -0.177929 1211 0.709890 0.606249 -0.292621
-17.142445 -14.677892 -0.170988 1233 0.732285 0.625967 -0.192750
-17.140837 -14.676473 -0.164047 1261 0.755420 0.646385 -0.092880
-17.140547 -14.676195 -0.157108 1247 0.759591 0.650378 0.006962
-17.141483 -14.676963 -0.150192 1247 0.746116 0.639332 0.106473
-17.141531 -14.676969 -0.143263 1233 0.745430 0.639250 0.206171
-17.141842 -14.677203 -0.136332 1199 0.740957 0.635874 0.305897
-17.143559 -14.678636 -0.129412 1193 0.716257 0.615264 0.405466
-17.146379 -14.681022 -0.122496 1185 0.675668 0.580932 0.504976
-17.149754 -14.683872 -0.115585 1137 0.627120 0.539917 0.604415
-17.153402 -14.686958 -0.108666 1107 0.574620 0.495513 0.703969
-17.158430 -14.691232 -0.101755 1041 0.502278 0.434025 0.803408
-17.165640 -14.697370 -0.094845 933 0.398540 0.345710 0.902833
-17.165386 -14.688609 -0.205870 1035 0.402190 0.471760 -0.694649
-17.160223 -14.684154 -0.198879 1095 0.476480 0.535869 -0.594060
-17.156441 -14.680892 -0.191902 1147 0.530902 0.582798 -0.493671
-17.152391 -14.677384 -0.184935 1179 0.589165 0.633267 -0.393426
-17.148989 -14.674443 -0.177965 1187 0.638125 0.675586 -0.293139
-17.147552 -14.673176 -0.171022 1213 0.658790 0.693822 -0.193239
-17.146147 -14.671937 -0.164082 1219 0.679016 0.711647 -0.093383
-17.145475 -14.671334 -0.157145 1229 0.688676 0.720319 0.006430
-17.145189 -14.671050 -0.150217 1211 0.692793 0.724408 0.106113
-17.145344 -14.671145 -0.143286 1211 0.690570 0.723036 0.205840
-17.147554 -14.673015 -0.136364 1205 0.658763 0.696141 0.305437
-17.149221 -14.674397 -0.129444 1195 0.634777 0.676244 0.405005
-17.150366 -14.675351 -0.122528 1163 0.618310 0.662522 0.504516
-17.155016 -14.679288 -0.115622 1145 0.551402 0.605878 0.603883
-17.159994 -14.683515 -0.108702 1117 0.479774 0.545063 0.703451
-17.165258 -14.687991 -0.101791 1035 0.404029 0.480652 0.802890
-17.172192 -14.693878 -0.094883 893 0.304270 0.395946 0.902286
-17.171907 -14.684935 -0.205919 1013 0.308359 0.524631 -0.695354
-17.166018 -14.679864 -0.198923 1073 0.393106 0.597590 -0.594693
-17.162125 -14.676494 -0.191946 1141 0.449119 0.646083 -0.494304
-17.157675 -14.672660 -0.184971 1179 0.513145 0.701246 -0.393944
-17.154783 -14.670154 -0.178007 1181 0.554750 0.737307 -0.293743
-17.152674 -14.668306 -0.171061 1203 0.585103 0.763886 -0.193800
-17.151333 -14.667128 -0.164118 1207 0.604396 0.780847 -0.093901
-17.152103 -14.667750 -0.157194 1213 0.593309 0.771886 0.005725
-17.151928 -14.667571 -0.150255 1211 0.595834 0.774466 0.105566
-17.151415 -14.667091 -0.143328 1199 0.603216 0.781368 0.205236
-17.153013 -14.668427 -0.136408 1191 0.580218 0.762144 0.304804
-17.155333 -14.670384 -0.129486 1179 0.546846 0.733986 0.404401
-17.158037 -14.672660 -0.122570 1153 0.507931 0.701246 0.503912
-17.161537 -14.675614 -0.115660 1115 0.457572 0.658735 0.603336
-17.165846 -14.679266 -0.108746 1079 0.395576 0.606194 0.702818
-17.171234 -14.683832 -0.101833 1003 0.318047 0.540493 0.802286
-17.176767 -14.688537 -0.094912 861 0.238432 0.472803 0.901869
-17.180817 -14.683281 -0.205994 991 0.180169 0.548424 -0.696434
-17.173817 -14.677267 -0.198984 1053 0.280888 0.634955 -0.595570
-17.169090 -14.673193 -0.192001 1097 0.348894 0.693575 -0.495095
-17.165031 -14.669691 -0.185024 1133 0.407294 0.743962 -0.394707
-17.162195 -14.667226 -0.178062 1157 0.448103 0.779433 -0.294534
-17.160746 -14.665958 -0.171120 1173 0.468961 0.797670 -0.194649
-17.159845 -14.665150 -0.164175 1207 0.481914 0.809306 -0.094721
-17.157726 -14.663308 -0.157229 1195 0.512404 0.835803 0.005221
-17.157890 -14.663412 -0.150297 1197 0.510044 0.834307 0.104962
-17.158993 -14.664325 -0.143381 1195 0.494182 0.821175 0.204473
-17.159981 -14.665126 -0.136456 1181 0.479966 0.809649 0.304113
-17.161802 -14.666647 -0.129524 1167 0.453757 0.787762 0.403854
-17.164618 -14.669027 -0.122608 1137 0.413250 0.753513 0.503365
-17.168108 -14.671974 -0.115698 1097 0.363027 0.711112 0.602789
-17.171598 -14.674920 -0.108778 1041 0.312805 0.668725 0.702358
-17.178358 -14.680655 -0.101870 967 0.215544 0.586215 0.801753
-17.188038 -14.680366 -0.206047 907 0.076267 0.590372 -0.697196
-17.181190 -14.674484 -0.199038 1005 0.174790 0.674996 -0.596347
-17.175299 -14.669425 -0.192041 1075 0.259564 0.747790 -0.495671
-17.171793 -14.666386 -0.185072 1115 0.310006 0.791522 -0.395398
-17.169115 -14.664075 -0.178118 1147 0.348537 0.824771 -0.295340
-17.167501 -14.662663 -0.171166 1171 0.371755 0.845079 -0.195311
-17.165937 -14.661285 -0.164225 1185 0.394259 0.864907 -0.095441
-17.165430 -14.660813 -0.157288 1193 0.401559 0.871700 0.004372
-17.164587 -14.660060 -0.150343 1183 0.413689 0.882540 0.104300
-17.164417 -14.659885 -0.143414 1179 0.416131 0.885051 0.203998
-17.166576 -14.661692 -0.136492 1157 0.385065 0.859062 0.303595
-17.168724 -14.663496 -0.129570 1143 0.354163 0.833100 0.403192
-17.170719 -14.665156 -0.122648 1107 0.325457 0.809210 0.502789
-17.174309 -14.668200 -0.115738 1071 0.273807 0.765423 0.602214
-17.179136 -14.672281 -0.108820 1005 0.204347 0.706693 0.701753
-17.185625 -14.677794 -0.101914 903 0.110983 0.627367 0.801120
-17.191206 -14.673783 -0.199125 919 0.030682 0.685081 -0.597599
-17.185595 -14.668953 -0.192129 1009 0.111422 0.754583 -0.496937
-17.180481 -14.664560 -0.185139 1071 0.184999 0.817786 -0.396362
-17.177307 -14.661813 -0.178177 1105 0.230666 0.857319 -0.296189
-17.175682 -14.660394 -0.171227 1135 0.254048 0.877737 -0.196189
-17.174177 -14.659071 -0.164284 1151 0.275701 0.896769 -0.096290
-17.172838 -14.657895 -0.157332 1157 0.294967 0.913689 0.003739
-17.172554 -14.657610 -0.150404 1143 0.299056 0.917791 0.103422
-17.173708 -14.658571 -0.143477 1139 0.282452 0.903960 0.203092
-17.174982 -14.659622 -0.136551 1129 0.264120 0.888838 0.302746
-17.177193 -14.661476 -0.129627 1097 0.232312 0.862163 0.402372
-17.180460 -14.664222 -0.122709 1073 0.185301 0.822657 0.501912
-17.184784 -14.667889 -0.115793 1023 0.123086 0.769897 0.601423
-17.189713 -14.672052 -0.108885 943 0.052171 0.709987 0.700818
-17.195221 -14.668268 -0.192207 933 -0.027087 0.764435 -0.498059
-17.190500 -14.664201 -0.185225 1025 0.040836 0.822959 -0.397599
-17.185537 -14.659937 -0.178244 1063 0.112245 0.884310 -0.297153
-17.183140 -14.657854 -0.171288 1093 0.146742 0.914279 -0.197067
-17.181690 -14.656588 -0.164335 1101 0.167600 0.932501 -0.097024
-17.181292 -14.656206 -0.157398 1115 0.173335 0.937990 0.002789
-17.182064 -14.656828 -0.150463 1119 0.162221 0.929043 0.102574
-17.183109 -14.657684 -0.143538 1117 0.147181 0.916721 0.202214
-17.183868 -14.658307 -0.136602 1103 0.136259 0.907761 0.302012
-17.185095 -14.659309 -0.129677 1071 0.118612 0.893339 0.401653
-17.188528 -14.662202 -0.122757 1027 0.069213 0.851720 0.501221
-17.194021 -14.666857 -0.115854 957 -0.009825 0.784744 0.600545
-17.201227 -14.664464 -0.185316 921 -0.113508 0.819172 -0.398908
-17.196890 -14.660720 -0.178331 995 -0.051100 0.873044 -0.298405
-17.194204 -14.658401 -0.171368 1023 -0.012460 0.906416 -0.198218
-17.193705 -14.657937 -0.164431 1065 -0.005269 0.913085 -0.098405
-17.191751 -14.656240 -0.157473 1073 0.022833 0.937496 0.001710
-17.190353 -14.655008 -0.150520 1071 0.042950 0.955225 0.101753
-17.191458 -14.655922 -0.143593 1061 0.027060 0.942079 0.201423
-17.193666 -14.657775 -0.136671 1029 -0.004720 0.915418 0.301020
-17.196777 -14.660383 -0.129753 1007 -0.049481 0.877888 0.400559
-17.200771 -14.663757 -0.122831 937 -0.106949 0.829340 0.500156
-17.206747 -14.659868 -0.178412 825 -0.192930 0.885298 -0.299570
-17.206411 -14.659549 -0.171463 925 -0.188100 0.889895 -0.199585
-17.204006 -14.657473 -0.164507 957 -0.153494 0.919767 -0.099498
-17.202608 -14.656240 -0.157545 969 -0.133377 0.937496 0.000674
-17.201153 -14.654967 -0.150604 983 -0.112438 0.955815 0.100545
-17.202541 -14.656114 -0.143667 961 -0.132417 0.939321 0.200358
-17.205414 -14.658535 -0.136749 921 -0.173747 0.904481 0.299897
-17.207178 -14.660001 -0.129820 871 -0.199133 0.883391 0.399595
