708
-10.937818 -9.640680 -0.171304 787 0.818596 -0.466806 -0.056220
-10.935786 -9.638865 -0.166806 817 0.847823 -0.440694 0.008500
-10.934404 -9.637628 -0.162305 841 0.867706 -0.422883 0.073262
-10.934126 -9.637354 -0.157827 829 0.871713 -0.418944 0.137694
-10.935418 -9.638478 -0.153369 831 0.853120 -0.435122 0.201838
-10.936774 -9.639652 -0.148900 813 0.833607 -0.452014 0.266140
-10.938307 -9.640976 -0.144443 769 0.811556 -0.471060 0.330269
-10.940866 -9.643210 -0.139997 703 0.774727 -0.503211 0.394241
-10.939582 -9.636244 -0.184741 787 0.793210 -0.402972 -0.249558
-10.935025 -9.632215 -0.180198 845 0.858773 -0.344997 -0.184191
-10.933927 -9.631219 -0.175704 901 0.874581 -0.330671 -0.119529
-10.932547 -9.629983 -0.171212 927 0.894437 -0.312888 -0.054896
-10.931158 -9.628739 -0.166721 947 0.914416 -0.294994 0.009723
-10.930766 -9.628366 -0.162244 955 0.920056 -0.289629 0.074140
-10.930927 -9.628488 -0.157762 949 0.917737 -0.291372 0.138629
-10.931350 -9.628841 -0.153300 937 0.911658 -0.296462 0.202831
-10.932380 -9.629719 -0.148833 935 0.896838 -0.309087 0.267104
-10.933460 -9.630646 -0.144378 919 0.881291 -0.322424 0.331205
-10.935637 -9.632542 -0.139924 887 0.849964 -0.349703 0.395291
-10.937813 -9.634437 -0.135472 841 0.818664 -0.376969 0.459349
-10.940931 -9.637159 -0.131024 771 0.773794 -0.416145 0.523349
-10.944231 -9.634452 -0.193740 759 0.726316 -0.377188 -0.379040
-10.938416 -9.629308 -0.189174 843 0.809992 -0.303172 -0.313342
-10.935061 -9.626338 -0.184644 913 0.858252 -0.260442 -0.248162
-10.932478 -9.624042 -0.180139 961 0.895425 -0.227400 -0.183342
-10.930884 -9.622606 -0.175639 979 0.918354 -0.206748 -0.118594
-10.930487 -9.622241 -0.171161 997 0.924076 -0.201493 -0.054162
-10.929989 -9.621776 -0.166684 1005 0.931239 -0.194797 0.010255
-10.929816 -9.621606 -0.162206 1017 0.933723 -0.192354 0.074687
-10.929199 -9.621034 -0.157729 1013 0.942601 -0.184121 0.139104
-10.928362 -9.620271 -0.153243 1005 0.954649 -0.173143 0.203651
-10.929614 -9.621354 -0.148786 1009 0.936632 -0.188731 0.267780
-10.932065 -9.623497 -0.144342 989 0.901366 -0.219565 0.331723
-10.933259 -9.624524 -0.139884 969 0.884186 -0.234343 0.395867
-10.934508 -9.625591 -0.135429 941 0.866211 -0.249698 0.459967
-10.936303 -9.627148 -0.130967 881 0.840386 -0.272092 0.524169
-10.939195 -9.629672 -0.126521 819 0.798781 -0.308414 0.588140
-10.945374 -9.635088 -0.122104 727 0.709877 -0.386341 0.651694
-10.945378 -9.629657 -0.198209 811 0.709808 -0.308195 -0.443342
-10.940042 -9.624949 -0.193650 895 0.786596 -0.240463 -0.377745
-10.936476 -9.621783 -0.189120 953 0.837902 -0.194906 -0.312565
-10.933007 -9.618716 -0.184592 983 0.887809 -0.150777 -0.247414
-10.930758 -9.616709 -0.180085 1009 0.920165 -0.121892 -0.182565
-10.930479 -9.616434 -0.175607 1041 0.924186 -0.117940 -0.118133
-10.930081 -9.616067 -0.171128 1053 0.929908 -0.112657 -0.053687
-10.928920 -9.615022 -0.166646 1065 0.946621 -0.097618 0.010802
-10.928026 -9.614216 -0.162160 1053 0.959479 -0.086023 0.075349
-10.928236 -9.614373 -0.157701 1063 0.956460 -0.088287 0.139507
-10.927682 -9.613866 -0.153222 1051 0.964432 -0.080987 0.203953
-10.928105 -9.614219 -0.148751 1045 0.958340 -0.086064 0.268284
-10.930450 -9.616257 -0.144307 1037 0.924598 -0.115388 0.332226
-10.932521 -9.618059 -0.139865 1031 0.894807 -0.141322 0.396140
-10.933439 -9.618839 -0.135400 1003 0.881593 -0.152547 0.460385
-10.935120 -9.620296 -0.130950 971 0.857415 -0.173500 0.524413
-10.937913 -9.622722 -0.126504 919 0.817223 -0.208409 0.588384
-10.941014 -9.625429 -0.122056 859 0.772600 -0.247365 0.652385
-10.945879 -9.629686 -0.117627 753 0.702604 -0.308620 0.716111
-10.947211 -9.625604 -0.202693 805 0.683435 -0.249876 -0.507860
-10.943090 -9.621957 -0.198148 905 0.742727 -0.197404 -0.442464
-10.938314 -9.617737 -0.193595 959 0.811446 -0.136684 -0.376954
-10.935349 -9.615100 -0.189073 1007 0.854108 -0.098743 -0.311889
-10.932979 -9.612988 -0.184568 1027 0.888221 -0.068363 -0.247069
-10.930777 -9.611031 -0.180061 1069 0.919905 -0.040192 -0.182220
-10.929671 -9.610042 -0.175576 1079 0.935808 -0.025962 -0.117687
-10.928785 -9.609244 -0.171092 1093 0.948556 -0.014490 -0.053169
-10.927681 -9.608241 -0.166608 1089 0.964446 -0.000055 0.011348
-10.927451 -9.608016 -0.162139 1101 0.967753 0.003183 0.075651
-10.927272 -9.607839 -0.157670 1099 0.970333 0.005736 0.139953
-10.927313 -9.607855 -0.153199 1099 0.969743 0.005502 0.204284
-10.928124 -9.608541 -0.148736 1087 0.958065 -0.004364 0.268500
-10.928773 -9.609093 -0.144282 1073 0.948734 -0.012309 0.332586
-10.928814 -9.609109 -0.139812 1055 0.948144 -0.012542 0.396903
-10.930827 -9.610855 -0.135360 1041 0.919177 -0.037667 0.460960
-10.933881 -9.613515 -0.130921 1031 0.875240 -0.075937 0.524830
-10.936503 -9.615799 -0.126477 995 0.837504 -0.108801 0.588773
-10.939612 -9.618500 -0.122029 939 0.792771 -0.147662 0.652773
-10.943105 -9.621555 -0.117589 867 0.742521 -0.191627 0.716658
-10.949347 -9.627020 -0.113172 777 0.652711 -0.270253 0.780212
-10.949877 -9.622032 -0.207185 787 0.645082 -0.198488 -0.572493
-10.944104 -9.616942 -0.202607 897 0.728141 -0.125254 -0.506623
-10.939991 -9.613301 -0.198072 957 0.787323 -0.072863 -0.441371
-10.936418 -9.610143 -0.193532 1001 0.838739 -0.027416 -0.376047
-10.934484 -9.608426 -0.189035 1033 0.866567 -0.002717 -0.311342
-10.932679 -9.606807 -0.184535 1063 0.892529 0.020583 -0.246594
-10.930902 -9.605232 -0.180045 1083 0.918107 0.043238 -0.181989
-10.929529 -9.604003 -0.175553 1105 0.937853 0.060925 -0.117356
-10.928260 -9.602865 -0.171060 1111 0.956117 0.077296 -0.052709
-10.928088 -9.602682 -0.166591 1125 0.958587 0.079930 0.011593
-10.927909 -9.602508 -0.162122 1125 0.961167 0.082441 0.075895
-10.928120 -9.602663 -0.157663 1139 0.958134 0.080205 0.140054
-10.927729 -9.602304 -0.153184 1127 0.963760 0.085364 0.204500
-10.927444 -9.602022 -0.148715 1105 0.967849 0.089426 0.268802
-10.929070 -9.603436 -0.144265 1091 0.944453 0.069076 0.332831
-10.929993 -9.604222 -0.139812 1081 0.931184 0.057769 0.396903
-10.931292 -9.605340 -0.135354 1079 0.912495 0.041687 0.461046
-10.933971 -9.607666 -0.130908 1061 0.873936 0.008219 0.525018
-10.936579 -9.609937 -0.126462 1029 0.836420 -0.024452 0.588989
-10.939038 -9.612074 -0.122018 993 0.801032 -0.055203 0.652931
-10.941922 -9.614591 -0.117572 937 0.759536 -0.091416 0.716902
-10.946404 -9.618508 -0.113135 861 0.695043 -0.147785 0.780744
-10.953687 -9.624886 -0.108724 747 0.590263 -0.239544 0.844212
-10.954899 -9.620543 -0.211721 745 0.572822 -0.177054 -0.637759
-10.947385 -9.613914 -0.207114 869 0.680937 -0.081673 -0.571472
-10.943699 -9.610656 -0.202577 941 0.733972 -0.034799 -0.506191
-10.940562 -9.607878 -0.198045 1011 0.779104 0.005173 -0.440982
-10.937265 -9.604967 -0.193524 1053 0.826541 0.047053 -0.375932
-10.934462 -9.602479 -0.189010 1081 0.866883 0.082853 -0.310982
-10.932261 -9.600520 -0.184503 1095 0.898540 0.111038 -0.246134
-10.930059 -9.598563 -0.180007 1111 0.930224 0.139195 -0.181443
-10.928897 -9.597519 -0.175523 1131 0.946951 0.154221 -0.116925
-10.928562 -9.597201 -0.171044 1137 0.951767 0.158790 -0.052479
-10.927945 -9.596643 -0.166568 1139 0.960645 0.166818 0.011924
-10.927985 -9.596659 -0.162109 1135 0.960069 0.166598 0.076082
-10.928577 -9.597155 -0.157645 1145 0.951547 0.159463 0.140313
-10.928356 -9.596936 -0.153176 1149 0.954731 0.162605 0.204615
-10.929323 -9.597764 -0.148721 1143 0.940817 0.150694 0.268716
-10.930410 -9.598699 -0.144265 1133 0.925174 0.137247 0.332831
-10.930890 -9.599094 -0.139802 1115 0.918272 0.131552 0.397046
-10.931970 -9.600023 -0.135347 1105 0.902739 0.118187 0.461147
-10.933601 -9.601430 -0.130897 1095 0.879260 0.097947 0.525176
-10.935509 -9.603086 -0.126445 1063 0.851816 0.074112 0.589234
-10.937572 -9.604868 -0.121993 1023 0.822136 0.048480 0.653291
-10.940795 -9.607681 -0.117555 987 0.775756 0.008000 0.717147
-10.944889 -9.611253 -0.113120 929 0.716847 -0.043389 0.780960
-10.949872 -9.615602 -0.108691 843 0.645150 -0.105961 0.844687
-10.953115 -9.613162 -0.211658 855 0.598482 -0.070860 -0.636853
-10.947017 -9.607790 -0.207072 927 0.686234 0.006436 -0.570867
-10.943385 -9.604573 -0.202533 987 0.738487 0.052720 -0.505558
-10.939981 -9.601570 -0.198014 1037 0.787461 0.095930 -0.440536
-10.936846 -9.598793 -0.193492 1069 0.832578 0.135888 -0.375472
-10.934531 -9.596736 -0.188985 1099 0.865881 0.165487 -0.310623
-10.932825 -9.595218 -0.184486 1117 0.890430 0.187332 -0.245889
-10.931938 -9.594419 -0.180011 1131 0.903191 0.198831 -0.181500
-10.931385 -9.593912 -0.175534 1163 0.911150 0.206117 -0.117083
-10.929841 -9.592526 -0.171043 1149 0.933366 0.226055 -0.052464
-10.929223 -9.591969 -0.166566 1157 0.942258 0.234082 0.011953
-10.929109 -9.591843 -0.162097 1181 0.943904 0.235894 0.076255
-10.929481 -9.592148 -0.157636 1165 0.938553 0.231503 0.140442
-10.930122 -9.592693 -0.153182 1173 0.929318 0.223654 0.204528
-10.930446 -9.592949 -0.148719 1165 0.924666 0.219976 0.268744
-10.930706 -9.593155 -0.144258 1165 0.920920 0.217012 0.332931
-10.930959 -9.593353 -0.139796 1149 0.917284 0.214158 0.397133
-10.931939 -9.594195 -0.135331 1127 0.903178 0.202042 0.461377
-10.934230 -9.596176 -0.130887 1115 0.870218 0.173541 0.525320
-10.936730 -9.598354 -0.126453 1099 0.834239 0.142200 0.589118
-10.938037 -9.599479 -0.121995 1053 0.815440 0.126022 0.653262
-10.940546 -9.601650 -0.117541 1031 0.779337 0.094777 0.717349
-10.943932 -9.604599 -0.113101 967 0.730624 0.052349 0.781233
-10.948633 -9.608707 -0.108674 903 0.662975 -0.006765 0.844931
-10.954763 -9.614059 -0.104249 799 0.574771 -0.083772 0.908600
-10.958243 -9.611767 -0.216193 791 0.524699 -0.050785 -0.702105
-10.951762 -9.606056 -0.211600 903 0.617954 0.031382 -0.636018
-10.947092 -9.601942 -0.207038 965 0.685150 0.090578 -0.570378
-10.943298 -9.598592 -0.202510 1015 0.739736 0.138784 -0.505227
-10.940447 -9.596055 -0.197988 1059 0.780764 0.175284 -0.440162
-10.938237 -9.594105 -0.193481 1091 0.812558 0.203345 -0.375313
-10.936481 -9.592536 -0.188991 1123 0.837820 0.225918 -0.310709
-10.934930 -9.591158 -0.184499 1157 0.860146 0.245746 -0.246076
-10.933499 -9.589872 -0.180007 1167 0.880729 0.264243 -0.181443
-10.931617 -9.588204 -0.175510 1161 0.907816 0.288243 -0.116738
-10.930348 -9.587068 -0.171027 1163 0.926066 0.304599 -0.052234
-10.929900 -9.586652 -0.166558 1171 0.932515 0.310582 0.012068
-10.930273 -9.586956 -0.162097 1183 0.927150 0.306205 0.076255
-10.930490 -9.587119 -0.157636 1187 0.924035 0.303858 0.140442
-10.930531 -9.587135 -0.153165 1169 0.923445 0.303625 0.204773
-10.930791 -9.587340 -0.148704 1169 0.919699 0.300675 0.268960
-10.931271 -9.587737 -0.144252 1173 0.912797 0.294967 0.333018
-10.932633 -9.588905 -0.139793 1163 0.893188 0.278157 0.397176
-10.934159 -9.590220 -0.135345 1159 0.871233 0.259235 0.461176
-10.935395 -9.591290 -0.130897 1145 0.853449 0.243839 0.525176
-10.936757 -9.592457 -0.126439 1115 0.833854 0.227057 0.589320
-10.938722 -9.594154 -0.121987 1087 0.805587 0.202632 0.653377
-10.941606 -9.596671 -0.117551 1051 0.764092 0.166420 0.717205
-10.945430 -9.600002 -0.113109 1011 0.709067 0.118489 0.781118
-10.949311 -9.603375 -0.108676 955 0.653219 0.069954 0.844903
-10.954239 -9.607681 -0.104238 867 0.582318 0.008000 0.908759
-10.957731 -9.605587 -0.216151 841 0.532068 0.038133 -0.701500
-10.952460 -9.600943 -0.211581 935 0.607909 0.104959 -0.635745
-10.947897 -9.596921 -0.207029 1005 0.673568 0.162824 -0.570249
-10.943990 -9.593472 -0.202491 1045 0.729787 0.212457 -0.504954
-10.941024 -9.590850 -0.197969 1085 0.772462 0.250178 -0.439889
-10.938328 -9.588468 -0.193454 1117 0.811254 0.284456 -0.374925
-10.936388 -9.586743 -0.188956 1135 0.839165 0.309265 -0.310206
-10.935842 -9.586244 -0.184489 1173 0.847027 0.316455 -0.245932
-10.934184 -9.584760 -0.179988 1179 0.870876 0.337807 -0.181169
-10.932478 -9.583241 -0.175498 1177 0.895425 0.359652 -0.116565
-10.932299 -9.583064 -0.171041 1191 0.898004 0.362204 -0.052436
-10.931745 -9.582556 -0.166564 1193 0.905977 0.369518 0.011982
-10.931849 -9.582622 -0.162103 1207 0.904481 0.368571 0.076169
-10.932222 -9.582927 -0.157642 1201 0.899102 0.364180 0.140356
-10.931816 -9.582552 -0.153173 1189 0.904948 0.369573 0.204658
-10.932190 -9.582857 -0.148711 1171 0.899569 0.365182 0.268859
-10.933277 -9.583791 -0.144254 1179 0.883926 0.351748 0.332989
-10.934196 -9.584570 -0.139800 1175 0.870698 0.340537 0.397075
-10.934837 -9.585115 -0.135347 1163 0.861477 0.332688 0.461147
-10.936086 -9.586184 -0.130889 1149 0.843515 0.317320 0.525291
-10.938375 -9.588164 -0.126445 1125 0.810568 0.288819 0.589234
-10.940722 -9.590202 -0.122001 1103 0.776799 0.259495 0.653176
-10.943173 -9.592330 -0.117557 1077 0.741533 0.228882 0.717118
-10.946014 -9.594805 -0.113111 1033 0.700656 0.193273 0.781090
-10.949671 -9.597980 -0.108670 983 0.648046 0.147593 0.844989
-10.954597 -9.602272 -0.104241 903 0.577158 0.085831 0.908715
-10.961061 -9.607914 -0.099813 771 0.484165 0.004652 0.972428
-10.957794 -9.599639 -0.216117 873 0.531162 0.123717 -0.701011
-10.953393 -9.595767 -0.211564 963 0.594489 0.179428 -0.635500
-10.949663 -9.592465 -0.207025 1019 0.648156 0.226933 -0.570191
-10.946252 -9.589455 -0.202495 1067 0.697239 0.270253 -0.505011
-10.943328 -9.586875 -0.197982 1105 0.739310 0.307371 -0.440076
-10.940470 -9.584346 -0.193469 1119 0.780435 0.343762 -0.375141
-10.938211 -9.582345 -0.188962 1135 0.812928 0.372550 -0.310292
-10.936943 -9.581208 -0.184480 1161 0.831179 0.388907 -0.245802
-10.936170 -9.580509 -0.179994 1173 0.842307 0.398965 -0.181256
-10.935107 -9.579563 -0.175521 1185 0.857593 0.412577 -0.116896
-10.934668 -9.579153 -0.171043 1203 0.863919 0.418478 -0.052464
-10.935039 -9.579459 -0.166591 1217 0.858581 0.414073 0.011593
-10.934039 -9.578562 -0.162107 1213 0.872962 0.426985 0.076111
-10.933097 -9.577707 -0.157632 1217 0.886519 0.439280 0.140500
-10.932587 -9.577241 -0.153165 1201 0.893860 0.445990 0.204773
-10.932902 -9.577490 -0.148704 1197 0.889318 0.442409 0.268960
-10.934435 -9.578813 -0.144254 1195 0.867267 0.423377 0.332989
-10.935955 -9.580122 -0.139806 1187 0.845395 0.404536 0.396989
-10.937035 -9.581049 -0.135350 1183 0.829861 0.391199 0.461104
-10.938235 -9.582067 -0.130902 1153 0.812585 0.376557 0.525104
-10.940523 -9.584047 -0.126460 1147 0.779666 0.348057 0.589018
-10.942481 -9.585752 -0.122008 1123 0.751495 0.323536 0.653075
-10.943942 -9.587005 -0.117561 1083 0.730473 0.305505 0.717061
-10.946353 -9.589091 -0.113105 1047 0.695784 0.275482 0.781176
-10.950553 -9.592754 -0.108670 1011 0.635353 0.222776 0.844989
-10.954773 -9.596424 -0.104238 943 0.574633 0.169974 0.908759
-10.959970 -9.600955 -0.099797 839 0.499849 0.104781 0.972658
-10.960233 -9.595968 -0.216128 897 0.496075 0.176533 -0.701170
-10.955124 -9.591474 -0.211558 979 0.569584 0.241204 -0.635414
-10.950942 -9.587792 -0.207013 1037 0.629754 0.294171 -0.570018
-10.947855 -9.585063 -0.202491 1071 0.674172 0.333443 -0.504954
-10.944940 -9.582491 -0.197978 1115 0.716120 0.370451 -0.440018
-10.942349 -9.580201 -0.193463 1135 0.753389 0.403397 -0.375054
-10.940473 -9.578540 -0.188974 1151 0.780394 0.427301 -0.310464
-10.939204 -9.577403 -0.184482 1169 0.798644 0.443658 -0.245831
-10.938545 -9.576803 -0.180005 1185 0.808126 0.452289 -0.181414
-10.938260 -9.576536 -0.175538 1205 0.812229 0.456131 -0.117141
-10.937318 -9.575681 -0.171064 1217 0.825786 0.468439 -0.052767
-10.936585 -9.575025 -0.166587 1207 0.836324 0.477880 0.011651
-10.936252 -9.574708 -0.162120 1213 0.841127 0.482436 0.075924
-10.935586 -9.574100 -0.157643 1215 0.850705 0.491190 0.140341
-10.935844 -9.574306 -0.153182 1221 0.846986 0.488226 0.204528
-10.936380 -9.574746 -0.148728 1203 0.839275 0.481887 0.268615
-10.936584 -9.574908 -0.144267 1191 0.836338 0.479554 0.332802
-10.937728 -9.575885 -0.139812 1185 0.819885 0.465503 0.396903
-10.939748 -9.577626 -0.135369 1187 0.790822 0.440447 0.460831
-10.940447 -9.578213 -0.130916 1159 0.780764 0.432008 0.524903
-10.942127 -9.579670 -0.126466 1143 0.756586 0.411040 0.588931
-10.944636 -9.581841 -0.122022 1127 0.720484 0.379796 0.652874
-10.946049 -9.583058 -0.117562 1101 0.700162 0.362286 0.717046
-10.948290 -9.584990 -0.113120 1067 0.667915 0.334500 0.780960
-10.952502 -9.588652 -0.108686 1019 0.607305 0.281807 0.844759
-10.957530 -9.593043 -0.104257 959 0.534963 0.218618 0.908485
-10.962676 -9.597526 -0.099816 871 0.460920 0.154125 0.972385
-10.971297 -9.605042 -0.095407 707 0.336873 0.045968 1.035823
-10.961128 -9.590955 -0.216109 909 0.483190 0.248669 -0.700896
-10.956947 -9.587274 -0.211564 985 0.543347 0.301636 -0.635500
-10.952652 -9.583491 -0.207019 1033 0.605151 0.356057 -0.570105
-10.948250 -9.579618 -0.202474 1071 0.668491 0.411781 -0.504709
-10.946112 -9.577724 -0.197967 1111 0.699256 0.439033 -0.439860
-10.944667 -9.576438 -0.193475 1137 0.720045 0.457544 -0.375227
-10.942791 -9.574778 -0.188975 1155 0.747036 0.481434 -0.310479
-10.941360 -9.573506 -0.184495 1169 0.767619 0.499725 -0.246018
-10.940969 -9.573133 -0.180026 1183 0.773245 0.505091 -0.181716
-10.940848 -9.573014 -0.175557 1215 0.774987 0.506806 -0.117414
-10.939750 -9.572018 -0.171075 1223 0.790795 0.521145 -0.052925
-10.938360 -9.570788 -0.166593 1229 0.810788 0.538833 0.011564
-10.937693 -9.570181 -0.162116 1227 0.820393 0.547574 0.075982
-10.938235 -9.570627 -0.157663 1215 0.812585 0.541152 0.140054
-10.939096 -9.571363 -0.153209 1221 0.800195 0.530559 0.204140
-10.939032 -9.571288 -0.148749 1207 0.801128 0.531643 0.268313
-10.939291 -9.571493 -0.144286 1209 0.797395 0.528692 0.332528
-10.939933 -9.572023 -0.139823 1195 0.788160 0.521063 0.396744
-10.941296 -9.573192 -0.135375 1181 0.768552 0.504254 0.460744
-10.942431 -9.574161 -0.130920 1173 0.752209 0.490312 0.524845
-10.943520 -9.575096 -0.126474 1151 0.736552 0.476851 0.588816
-10.945477 -9.576785 -0.122022 1131 0.708395 0.452549 0.652874
-10.948035 -9.579006 -0.117576 1117 0.671579 0.420591 0.716845
-10.950607 -9.581227 -0.113132 1075 0.634571 0.388633 0.780787
-10.954106 -9.584261 -0.108691 1031 0.584225 0.344983 0.844687
-10.957380 -9.587111 -0.104253 969 0.537118 0.303968 0.908543
-10.962696 -9.591735 -0.099813 887 0.460632 0.237444 0.972428
-10.970432 -9.598479 -0.095397 755 0.349319 0.140403 1.035967
-10.963886 -9.587461 -0.216130 931 0.443507 0.298932 -0.701198
-10.959159 -9.583306 -0.211568 995 0.511526 0.358719 -0.635558
-10.955246 -9.579863 -0.207030 1053 0.567827 0.408269 -0.570263
-10.951834 -9.576853 -0.202500 1087 0.616924 0.451575 -0.505083
-10.949356 -9.574661 -0.197993 1127 0.652574 0.483108 -0.440234
-10.947487 -9.573008 -0.193496 1155 0.679469 0.506902 -0.375529
-10.945385 -9.571150 -0.188998 1167 0.709712 0.533632 -0.310810
-10.943834 -9.569773 -0.184507 1175 0.732024 0.553447 -0.246191
-10.943288 -9.569271 -0.180030 1197 0.739887 0.560664 -0.181774
-10.942345 -9.568417 -0.175555 1221 0.753458 0.572959 -0.117385
-10.941239 -9.567428 -0.171071 1229 0.769361 0.587189 -0.052867
-10.940734 -9.566969 -0.166604 1235 0.776634 0.593789 0.011406
-10.940719 -9.566927 -0.162135 1237 0.776854 0.594393 0.075708
-10.941042 -9.567183 -0.157683 1231 0.772202 0.590715 0.139766
-10.940537 -9.566725 -0.153207 1221 0.779461 0.597302 0.204169
-10.940026 -9.566258 -0.148740 1213 0.786816 0.604012 0.268442
-10.941829 -9.567809 -0.144298 1219 0.760881 0.581700 0.332356
-10.943347 -9.569117 -0.139850 1197 0.739036 0.562887 0.396356
-10.943890 -9.569564 -0.135387 1189 0.731228 0.556452 0.460572
-10.944417 -9.570009 -0.130933 1167 0.723640 0.550044 0.524658
-10.945441 -9.570881 -0.126477 1153 0.708902 0.537502 0.588773
-10.947356 -9.572529 -0.122028 1133 0.681349 0.513790 0.652787
-10.950197 -9.574989 -0.117591 1109 0.640471 0.478388 0.716629
-10.953209 -9.577592 -0.113153 1077 0.597137 0.440941 0.780485
-10.956814 -9.580731 -0.108712 1037 0.545268 0.395768 0.844384
-10.961522 -9.584819 -0.104274 989 0.477523 0.336956 0.908241
-10.966401 -9.589061 -0.099837 905 0.407322 0.275921 0.972082
-10.973310 -9.595078 -0.095416 777 0.307906 0.189335 1.035694
-10.965942 -9.583338 -0.216125 935 0.413922 0.358266 -0.701126
-10.961145 -9.579125 -0.211572 1001 0.482943 0.418876 -0.635616
-10.957401 -9.575839 -0.207034 1053 0.536816 0.466161 -0.570321
-10.954322 -9.573117 -0.202512 1087 0.581124 0.505324 -0.505256
-10.951512 -9.570638 -0.197997 1117 0.621549 0.541001 -0.440292
-10.949417 -9.568787 -0.193500 1145 0.651696 0.567635 -0.375587
-10.947654 -9.567225 -0.189000 1145 0.677068 0.590098 -0.310838
-10.946768 -9.566427 -0.184526 1177 0.689815 0.601583 -0.246464
-10.946214 -9.565918 -0.180049 1197 0.697788 0.608911 -0.182047
-10.945491 -9.565269 -0.175573 1213 0.708189 0.618242 -0.117644
-10.943607 -9.563602 -0.171085 1223 0.735290 0.642228 -0.053069
-10.942381 -9.562507 -0.166600 1235 0.752936 0.657994 0.011464
-10.942987 -9.563016 -0.162149 1239 0.744209 0.650667 0.075507
-10.942971 -9.562976 -0.157687 1235 0.744442 0.651243 0.139708
-10.942905 -9.562899 -0.153218 1225 0.745389 0.652354 0.204010
-10.944050 -9.563876 -0.148772 1211 0.728923 0.638289 0.267982
-10.944854 -9.564555 -0.144317 1213 0.717355 0.628519 0.332082
-10.944732 -9.564421 -0.139848 1191 0.719112 0.630454 0.396385
-10.946363 -9.565829 -0.135408 1189 0.695633 0.610187 0.460269
-10.948059 -9.567286 -0.130960 1189 0.671236 0.589234 0.524269
-10.948644 -9.567776 -0.126495 1153 0.662824 0.582180 0.588514
-10.950552 -9.569416 -0.122054 1129 0.635367 0.558579 0.652413
-10.953231 -9.571729 -0.117608 1111 0.596822 0.525303 0.716384
-10.955972 -9.574105 -0.113162 1071 0.557385 0.491108 0.780356
-10.959358 -9.577040 -0.108724 1035 0.508658 0.448886 0.844212
-10.963409 -9.580554 -0.104289 989 0.450368 0.398320 0.908025
-10.968224 -9.584746 -0.099853 911 0.381099 0.337999 0.971852
-10.974035 -9.589795 -0.095418 779 0.297478 0.265355 1.035665
-10.968919 -9.580148 -0.216151 935 0.371096 0.404166 -0.701500
-10.964623 -9.576382 -0.211597 993 0.432900 0.458354 -0.635975
-10.960605 -9.572847 -0.207061 1051 0.490724 0.509207 -0.570709
-10.957575 -9.570176 -0.202539 1081 0.534318 0.547642 -0.505644
-10.955146 -9.568034 -0.198032 1113 0.569268 0.578462 -0.440795
-10.952831 -9.565992 -0.193526 1137 0.602571 0.607840 -0.375961
-10.951125 -9.564473 -0.189036 1175 0.627120 0.629699 -0.311356
-10.949850 -9.563343 -0.184543 1197 0.645466 0.645960 -0.246709
-10.949629 -9.563126 -0.180074 1205 0.648649 0.649089 -0.182407
-10.947965 -9.561648 -0.175593 1205 0.672594 0.670344 -0.117932
-10.946195 -9.560080 -0.171104 1225 0.698062 0.692916 -0.053342
-10.945915 -9.559805 -0.166637 1219 0.702083 0.696868 0.010931
-10.946070 -9.559918 -0.162175 1231 0.699860 0.695235 0.075133
-10.946492 -9.560273 -0.157712 1225 0.693781 0.690131 0.139349
-10.947367 -9.561009 -0.153258 1221 0.681198 0.679538 0.203435
-10.947472 -9.561074 -0.148797 1221 0.679689 0.678604 0.267622
-10.947723 -9.561273 -0.144336 1215 0.676066 0.675750 0.331809
-10.948648 -9.562057 -0.139880 1197 0.662756 0.664471 0.395924
-10.949460 -9.562745 -0.135427 1191 0.651078 0.654564 0.459996
-10.950815 -9.563905 -0.130979 1171 0.631579 0.637878 0.523996
-10.952447 -9.565313 -0.126529 1165 0.608101 0.617610 0.588025
-10.954199 -9.566813 -0.122079 1131 0.582894 0.596026 0.652054
-10.956376 -9.568695 -0.117625 1113 0.551567 0.568953 0.716140
-10.958722 -9.570717 -0.113183 1079 0.517811 0.539862 0.780054
-10.962391 -9.573906 -0.108741 1039 0.465023 0.493976 0.843967
-10.966003 -9.577038 -0.104301 983 0.413044 0.448913 0.907852
-10.970606 -9.581033 -0.099864 903 0.346822 0.391432 0.971694
-10.977125 -9.586704 -0.095435 767 0.253019 0.309828 1.035421
-10.972941 -9.578104 -0.216193 947 0.313217 0.433572 -0.702105
-10.968038 -9.573800 -0.211631 1013 0.383775 0.495499 -0.636464
-10.964188 -9.570406 -0.207093 1051 0.439170 0.544335 -0.571169
-10.961264 -9.567841 -0.202571 1091 0.481242 0.581247 -0.506105
-10.958780 -9.565644 -0.198066 1121 0.516974 0.612849 -0.441285
-10.956960 -9.564040 -0.193566 1141 0.543169 0.635929 -0.376536
-10.954971 -9.562280 -0.189067 1169 0.571779 0.661260 -0.311803
-10.952876 -9.560429 -0.184569 1185 0.601926 0.687894 -0.247083
-10.951614 -9.559299 -0.180087 1191 0.620080 0.704141 -0.182594
-10.950446 -9.558261 -0.175603 1211 0.636890 0.719084 -0.118076
-10.949998 -9.557844 -0.171136 1215 0.643339 0.725081 -0.053803
-10.949486 -9.557379 -0.166659 1213 0.650708 0.731777 0.010615
-10.948820 -9.556772 -0.162192 1213 0.660286 0.740504 0.074888
-10.949248 -9.557119 -0.157731 1213 0.654125 0.735509 0.139075
-10.949296 -9.557141 -0.153270 1219 0.653438 0.735194 0.203262
-10.949613 -9.557390 -0.148809 1219 0.648883 0.731612 0.267449
-10.950692 -9.558316 -0.144353 1203 0.633350 0.718288 0.331564
-10.951399 -9.558910 -0.139899 1195 0.623182 0.709740 0.395651
-10.952428 -9.559789 -0.135442 1171 0.608376 0.697102 0.459780
-10.953678 -9.560857 -0.130996 1163 0.590386 0.681733 0.523751
-10.954653 -9.561679 -0.126540 1155 0.576362 0.669905 0.587866
-10.956892 -9.563609 -0.122096 1133 0.544143 0.642132 0.651809
-10.959465 -9.565830 -0.117652 1109 0.507121 0.610173 0.715751
-10.961755 -9.567809 -0.113210 1067 0.474175 0.581700 0.779665
-10.965035 -9.570653 -0.108760 1033 0.426972 0.540781 0.843694
-10.969192 -9.574260 -0.104325 975 0.367171 0.488885 0.907507
-10.974233 -9.578636 -0.099887 879 0.294637 0.425915 0.971363
-10.981374 -9.584843 -0.095466 765 0.191888 0.336613 1.034974
-10.976243 -9.575196 -0.216220 949 0.265712 0.475410 -0.702493
-10.971232 -9.570801 -0.211658 997 0.337807 0.538654 -0.636853
-10.967602 -9.567612 -0.207120 1049 0.390046 0.584541 -0.571558
-10.964736 -9.565089 -0.202605 1081 0.431280 0.620835 -0.506594
-10.961975 -9.562659 -0.198081 1105 0.471005 0.655799 -0.441500
-10.959491 -9.560474 -0.193576 1141 0.506751 0.687236 -0.376680
-10.957451 -9.558666 -0.189078 1167 0.536102 0.713252 -0.311961
-10.956290 -9.557634 -0.184594 1167 0.552802 0.728099 -0.247443
-10.955404 -9.556838 -0.180120 1181 0.565549 0.739557 -0.183069
-10.953803 -9.555409 -0.175630 1197 0.588589 0.760113 -0.118464
-10.952358 -9.554138 -0.171147 1203 0.609377 0.778404 -0.053961
-10.952681 -9.554394 -0.166686 1217 0.604739 0.774727 0.010226
-10.952998 -9.554643 -0.162225 1219 0.600170 0.771145 0.074413
-10.952996 -9.554615 -0.157766 1217 0.600197 0.771543 0.138572
-10.952534 -9.554198 -0.153287 1205 0.606852 0.777540 0.203018
-10.952412 -9.554066 -0.148828 1213 0.608609 0.779447 0.267176
-10.952403 -9.554031 -0.144359 1197 0.608732 0.779941 0.331478
-10.953540 -9.555000 -0.139911 1193 0.592376 0.765999 0.395478
-10.955066 -9.556317 -0.135463 1179 0.570421 0.747049 0.459478
-10.955826 -9.556953 -0.131009 1163 0.559484 0.737897 0.523564
-10.957232 -9.558164 -0.126561 1151 0.539245 0.720484 0.587564
-10.958864 -9.559557 -0.122102 1125 0.515766 0.700436 0.651723
-10.960998 -9.561397 -0.117658 1099 0.485070 0.673966 0.715665
-10.963458 -9.563517 -0.113214 1065 0.449668 0.643463 0.779608
-10.967515 -9.567039 -0.108781 1009 0.391295 0.592788 0.843392
-10.972839 -9.571656 -0.104350 963 0.314685 0.526346 0.907147
-10.977272 -9.575495 -0.099916 879 0.250906 0.471115 0.970946
-10.983417 -9.580833 -0.095479 739 0.162495 0.394300 1.034787
-10.981821 -9.574029 -0.216283 941 0.185452 0.492206 -0.703400
-10.975984 -9.568918 -0.211707 989 0.269444 0.565742 -0.637558
-10.971137 -9.564672 -0.207145 1019 0.339179 0.626832 -0.571918
-10.967937 -9.561857 -0.202624 1057 0.385216 0.667339 -0.506867
-10.965672 -9.559864 -0.198117 1097 0.417819 0.696018 -0.442018
-10.962749 -9.557300 -0.193605 1119 0.459877 0.732916 -0.377098
-10.960485 -9.555293 -0.189098 1135 0.492439 0.761787 -0.312249
-10.959435 -9.554360 -0.184613 1161 0.507547 0.775207 -0.247716
-10.958048 -9.553132 -0.180131 1179 0.527512 0.792881 -0.183227
-10.956885 -9.552086 -0.175649 1187 0.544239 0.807934 -0.118738
-10.956382 -9.551627 -0.171182 1207 0.551484 0.814534 -0.054464
-10.955877 -9.551168 -0.166705 1197 0.558743 0.821134 0.009953
-10.955981 -9.551233 -0.162244 1201 0.557248 0.820201 0.074140
-10.956191 -9.551390 -0.157783 1193 0.554229 0.817951 0.138327
-10.955956 -9.551171 -0.153314 1197 0.557604 0.821093 0.202629
-10.956053 -9.551229 -0.148854 1187 0.556219 0.820270 0.266802
-10.956977 -9.552014 -0.144399 1187 0.542922 0.808963 0.330902
-10.958114 -9.552983 -0.139953 1189 0.526565 0.795021 0.394874
-10.959364 -9.554052 -0.135495 1179 0.508576 0.779639 0.459018
-10.960288 -9.554824 -0.131040 1145 0.495279 0.768538 0.523118
-10.961205 -9.555602 -0.126584 1127 0.482093 0.757341 0.587234
-10.963225 -9.557343 -0.122142 1113 0.453016 0.732298 0.651147
-10.966181 -9.559903 -0.117696 1093 0.410492 0.695455 0.715118
-10.969079 -9.562405 -0.113259 1061 0.368791 0.659462 0.778960
-10.972423 -9.565299 -0.108810 1017 0.320682 0.617816 0.842974
-10.976042 -9.568424 -0.104369 949 0.268607 0.572850 0.906874
-10.981960 -9.573564 -0.099944 853 0.183449 0.498902 0.970543
-10.989377 -9.580005 -0.095521 721 0.076733 0.406224 1.034183
-10.986622 -9.572197 -0.216333 917 0.116376 0.518566 -0.704119
-10.980947 -9.567234 -0.211755 979 0.198035 0.589975 -0.638248
-10.976143 -9.563029 -0.207204 1017 0.267152 0.650474 -0.572767
-10.972569 -9.559884 -0.202674 1053 0.318568 0.695729 -0.507587
-10.969532 -9.557220 -0.198152 1083 0.362273 0.734055 -0.442522
-10.966602 -9.554646 -0.193639 1111 0.404427 0.771104 -0.377587
-10.964451 -9.552752 -0.189132 1133 0.435383 0.798356 -0.312738
-10.962907 -9.551382 -0.184650 1137 0.457599 0.818060 -0.248249
-10.961243 -9.549906 -0.180160 1149 0.481544 0.839302 -0.183644
-10.960802 -9.549497 -0.175683 1181 0.487883 0.845189 -0.119227
-10.961118 -9.549759 -0.171222 1185 0.483341 0.841415 -0.055040
-10.960670 -9.549343 -0.166753 1187 0.489777 0.847398 0.009262
-10.960328 -9.549019 -0.162286 1195 0.494703 0.852063 0.073536
-10.960214 -9.548893 -0.157817 1179 0.496350 0.853875 0.137838
-10.960197 -9.548864 -0.153356 1187 0.496583 0.854286 0.202025
-10.960407 -9.549022 -0.148885 1191 0.493564 0.852022 0.266356
-10.960831 -9.549362 -0.144433 1177 0.487472 0.847124 0.330413
-10.961868 -9.550247 -0.139978 1167 0.472542 0.834390 0.394514
-10.962729 -9.550968 -0.135522 1163 0.460151 0.824016 0.458629
-10.963809 -9.551895 -0.131066 1143 0.444618 0.810678 0.522744
-10.965560 -9.553395 -0.126617 1127 0.419425 0.789093 0.586759
-10.967198 -9.554795 -0.122167 1103 0.395850 0.768950 0.650787
-10.969708 -9.556968 -0.117723 1075 0.359734 0.737691 0.714730
-10.973328 -9.560093 -0.113280 1043 0.307659 0.692724 0.778658
-10.976615 -9.562927 -0.108842 991 0.260360 0.651943 0.842514
-10.980948 -9.566683 -0.104407 917 0.198007 0.597906 0.906327
-10.986428 -9.571443 -0.099975 815 0.119161 0.529420 0.970097
-10.992799 -9.576963 -0.095548 641 0.027499 0.449983 1.033795
-10.991649 -9.570322 -0.216392 881 0.044047 0.545543 -0.704968
-10.985529 -9.564970 -0.211808 959 0.132101 0.622550 -0.639011
-10.980951 -9.560962 -0.207254 1005 0.197966 0.680224 -0.573486
-10.977193 -9.557677 -0.202716 1035 0.252044 0.727482 -0.508191
-10.974171 -9.555012 -0.198194 1071 0.295529 0.765835 -0.443126
-10.971184 -9.552398 -0.193681 1099 0.338506 0.803447 -0.378191
-10.969089 -9.550547 -0.189183 1113 0.368653 0.830081 -0.313472
-10.967481 -9.549126 -0.184692 1147 0.391789 0.850527 -0.248853
-10.965548 -9.547423 -0.180194 1157 0.419603 0.875020 -0.184134
-10.964775 -9.546723 -0.175717 1159 0.430718 0.885092 -0.119716
-10.964872 -9.546781 -0.171258 1167 0.429318 0.884269 -0.055558
-10.964636 -9.546563 -0.166789 1181 0.432721 0.887397 0.008744
-10.963862 -9.545864 -0.162313 1175 0.443850 0.897456 0.073147
-10.963345 -9.545391 -0.157836 1179 0.451301 0.904262 0.137564
-10.963887 -9.545837 -0.153384 1175 0.443493 0.897840 0.201622
-10.964649 -9.546474 -0.148929 1165 0.432529 0.888674 0.265723
-10.965525 -9.547211 -0.144473 1177 0.419932 0.878080 0.329838
-10.965940 -9.547560 -0.140012 1149 0.413950 0.873058 0.394025
-10.966815 -9.548294 -0.135556 1131 0.401367 0.862492 0.458140
-10.968780 -9.549978 -0.131105 1135 0.373099 0.838259 0.522183
-10.970029 -9.551046 -0.126649 1113 0.355124 0.822891 0.586298
-10.971498 -9.552305 -0.122199 1083 0.333992 0.804778 0.650327
-10.974516 -9.554900 -0.117763 1049 0.290562 0.767440 0.714154
-10.977414 -9.557405 -0.113315 1013 0.248861 0.731393 0.778154
-10.980199 -9.559809 -0.108869 949 0.208793 0.696813 0.842126
-10.986074 -9.564907 -0.104446 877 0.124252 0.623456 0.905766
-10.993718 -9.571531 -0.100022 767 0.014271 0.528143 0.969420
-11.001022 -9.577873 -0.095599 511 -0.090825 0.436893 1.033061
-10.997002 -9.569069 -0.216457 791 -0.032974 0.563573 -0.705903
-10.991483 -9.564248 -0.211879 901 0.046435 0.632938 -0.640033
-10.987075 -9.560396 -0.207324 969 0.109858 0.688361 -0.574493
-10.982716 -9.556580 -0.202781 1013 0.172581 0.743276 -0.509126
-10.978858 -9.553194 -0.198243 1049 0.228086 0.791989 -0.443831
-10.976091 -9.550770 -0.193729 1081 0.267893 0.826870 -0.378882
-10.974158 -9.549067 -0.189229 1113 0.295708 0.851377 -0.314133
-10.972565 -9.547647 -0.184739 1137 0.318637 0.871796 -0.249529
-10.970950 -9.546220 -0.180247 1137 0.341868 0.892337 -0.184896
-10.969399 -9.544856 -0.175758 1149 0.364180 0.911960 -0.120306
-10.968676 -9.544192 -0.171281 1167 0.374595 0.921510 -0.055889
-10.968722 -9.544215 -0.166822 1179 0.373923 0.921181 0.008269
-10.968600 -9.544096 -0.162353 1161 0.375679 0.922896 0.072572
-10.968203 -9.543715 -0.157884 1165 0.381401 0.928385 0.136874
-10.968300 -9.543787 -0.153415 1167 0.380001 0.927342 0.201176
-10.969281 -9.544614 -0.148969 1177 0.365882 0.915445 0.265147
-10.969435 -9.544728 -0.144498 1161 0.363672 0.913798 0.329478
-10.969694 -9.544920 -0.140037 1129 0.359940 0.911040 0.393665
-10.970951 -9.545996 -0.135589 1131 0.341855 0.895562 0.457665
-10.972746 -9.547538 -0.131139 1109 0.316030 0.873374 0.521694
-10.974652 -9.549178 -0.126687 1093 0.288600 0.849772 0.585751
-10.976956 -9.551159 -0.122245 1065 0.255448 0.821271 0.649665
-10.979424 -9.553273 -0.117801 1031 0.219935 0.790850 0.713607
-10.982596 -9.556010 -0.113351 985 0.174296 0.751468 0.777636
-10.986987 -9.559808 -0.108916 925 0.111120 0.696827 0.841449
-10.992531 -9.564615 -0.104495 845 0.031355 0.627655 0.905061
-10.999785 -9.570908 -0.100072 693 -0.073028 0.537118 0.968701
-11.003994 -9.569823 -0.216550 635 -0.133583 0.552719 -0.707241
-10.997536 -9.564190 -0.211957 843 -0.040658 0.633775 -0.641155
-10.991804 -9.559185 -0.207379 917 0.041811 0.705788 -0.575285
-10.986901 -9.554895 -0.202829 973 0.112355 0.767509 -0.509817
-10.983687 -9.552083 -0.198297 1023 0.158598 0.807975 -0.444608
-10.981762 -9.550373 -0.193799 1063 0.186303 0.832578 -0.379889
-10.979546 -9.548429 -0.189290 1097 0.218192 0.860557 -0.315011
-10.977062 -9.546246 -0.184785 1115 0.253924 0.891967 -0.250191
-10.975015 -9.544443 -0.180287 1127 0.283385 0.917901 -0.185472
-10.973960 -9.543504 -0.175803 1143 0.298562 0.931417 -0.120954
-10.973406 -9.542996 -0.171327 1143 0.306534 0.938717 -0.056551
-10.973558 -9.543111 -0.166865 1155 0.304339 0.937071 0.007651
-10.973550 -9.543076 -0.162397 1161 0.304462 0.937578 0.071939
-10.973258 -9.542802 -0.157928 1161 0.308661 0.941517 0.136241
-10.973361 -9.542866 -0.153468 1165 0.307179 0.940597 0.200413
-10.973565 -9.543029 -0.148996 1167 0.304243 0.938251 0.264759
-10.973118 -9.542613 -0.144529 1143 0.310678 0.944234 0.329032
-10.973540 -9.542953 -0.140067 1127 0.304599 0.939349 0.393234
-10.975066 -9.544254 -0.135617 1111 0.282644 0.920618 0.457262
-10.977200 -9.546094 -0.131175 1093 0.251948 0.894149 0.521176
-10.979121 -9.547735 -0.126725 1073 0.224299 0.870533 0.585205
-10.980590 -9.548994 -0.122266 1039 0.203167 0.852420 0.649363
-10.983928 -9.551879 -0.117828 1005 0.155140 0.810911 0.713219
-10.987991 -9.555380 -0.113393 955 0.096671 0.760538 0.777032
-10.992877 -9.559615 -0.108966 891 0.026374 0.699599 0.840730
-10.999036 -9.564939 -0.104539 775 -0.062243 0.623003 0.904428
-11.006063 -9.571033 -0.100108 559 -0.163360 0.535320 0.968183
-11.004918 -9.565291 -0.212056 747 -0.146880 0.617926 -0.642579
-10.997913 -9.559170 -0.207458 861 -0.046092 0.706007 -0.576421
-10.992671 -9.554597 -0.202897 929 0.029337 0.771804 -0.510795
-10.989415 -9.551743 -0.198367 987 0.076184 0.812874 -0.445615
-10.986321 -9.549035 -0.193845 1027 0.120698 0.851830 -0.380551
-10.983222 -9.546321 -0.189323 1059 0.165294 0.890883 -0.315486
-10.981183 -9.544526 -0.184825 1087 0.194632 0.916707 -0.250767
-10.979738 -9.543240 -0.180333 1121 0.215421 0.935218 -0.186134
-10.979121 -9.542684 -0.175857 1133 0.224299 0.943218 -0.121730
-10.978682 -9.542274 -0.171390 1129 0.230625 0.949105 -0.057457
-10.977560 -9.541285 -0.166906 1147 0.246762 0.963348 0.007061
-10.976845 -9.540628 -0.162429 1137 0.257053 0.972789 0.071478
-10.976496 -9.540311 -0.157952 1133 0.262075 0.977358 0.135895
-10.976763 -9.540524 -0.153489 1145 0.258233 0.974298 0.200111
-10.977737 -9.541346 -0.149034 1155 0.244209 0.962470 0.264212
-10.977997 -9.541552 -0.144572 1127 0.240477 0.959506 0.328413
-10.977987 -9.541517 -0.140103 1101 0.240614 0.960000 0.392715
-10.979740 -9.543016 -0.135654 1083 0.215393 0.938429 0.456730
-10.982695 -9.545563 -0.131215 1071 0.172883 0.901792 0.520600
-10.984947 -9.547493 -0.126773 1051 0.140471 0.874018 0.584514
-10.987068 -9.549317 -0.122321 1017 0.109954 0.847768 0.648572
-10.989704 -9.551588 -0.117875 983 0.072026 0.815097 0.712543
-10.992722 -9.554183 -0.113429 915 0.028610 0.777759 0.776514
-10.997940 -9.558695 -0.108998 843 -0.046476 0.712841 0.840269
-11.004148 -9.564068 -0.104573 707 -0.135792 0.635531 0.903939
-11.012321 -9.566132 -0.212157 571 -0.253403 0.605837 -0.644033
-11.004539 -9.559345 -0.207543 785 -0.141418 0.703482 -0.577644
-10.999077 -9.554581 -0.202975 887 -0.062833 0.772037 -0.511918
-10.995213 -9.551203 -0.198438 945 -0.007231 0.820640 -0.446637
-10.991017 -9.547534 -0.193891 985 0.053131 0.873428 -0.381213
-10.987747 -9.544680 -0.189370 1025 0.100184 0.914498 -0.316162
-10.986203 -9.543309 -0.184878 1065 0.122400 0.934217 -0.251529
-10.984709 -9.541988 -0.180389 1079 0.143902 0.953221 -0.186939
-10.983102 -9.540567 -0.175897 1095 0.167023 0.973667 -0.122306
-10.982647 -9.540158 -0.171420 1111 0.173569 0.979554 -0.057889
-10.982306 -9.539835 -0.166951 1117 0.178481 0.984206 0.006413
-10.981914 -9.539474 -0.162475 1121 0.184121 0.989406 0.070816
-10.981183 -9.538818 -0.157998 1117 0.194632 0.998833 0.135234
-10.981394 -9.538974 -0.153537 1111 0.191599 0.996597 0.199420
-10.982594 -9.539994 -0.149081 1121 0.174337 0.981914 0.263535
-10.982635 -9.540009 -0.144611 1107 0.173747 0.981708 0.327852
-10.983445 -9.540695 -0.140155 1095 0.162083 0.971828 0.391967
-10.985369 -9.542336 -0.135705 1075 0.134406 0.948213 0.455996
-10.987268 -9.543969 -0.131253 1063 0.107072 0.924721 0.520054
-10.989304 -9.545710 -0.126802 1027 0.077790 0.899679 0.584097
-10.991883 -9.547923 -0.122357 991 0.040672 0.867830 0.648054
-10.995325 -9.550901 -0.117917 943 -0.008851 0.824976 0.711938
-11.000500 -9.555370 -0.113488 879 -0.083306 0.760675 0.775665
-11.006765 -9.560786 -0.109071 767 -0.173459 0.682748 0.839219
-11.012261 -9.560730 -0.207652 593 -0.252538 0.683558 -0.579213
-11.007181 -9.556291 -0.203080 795 -0.179442 0.747434 -0.513428
-11.001931 -9.551711 -0.198522 891 -0.103902 0.813326 -0.447846
-10.998399 -9.548621 -0.193992 947 -0.053076 0.857785 -0.382666
-10.995964 -9.546488 -0.189475 991 -0.018044 0.888481 -0.317673
-10.993246 -9.544113 -0.184960 1019 0.021063 0.922649 -0.252709
-10.991314 -9.542411 -0.180463 1047 0.048864 0.947143 -0.188004
-10.989261 -9.540602 -0.175964 1075 0.078407 0.973173 -0.123270
-10.987879 -9.539378 -0.171472 1083 0.098290 0.990778 -0.058637
-10.987149 -9.538723 -0.166997 1085 0.108787 1.000205 0.005751
-10.986970 -9.538548 -0.162528 1093 0.111367 1.002717 0.070054
-10.987844 -9.539283 -0.158063 1101 0.098784 0.992151 0.134298
-10.987779 -9.539207 -0.153594 1083 0.099731 0.993235 0.198600
-10.988315 -9.539646 -0.149131 1083 0.092019 0.986923 0.262816
-10.989572 -9.540721 -0.144683 1079 0.073934 0.971458 0.326816
-10.990489 -9.541500 -0.140218 1063 0.060733 0.960247 0.391061
-10.991690 -9.542519 -0.135760 1037 0.043457 0.945592 0.455205
-10.993434 -9.544011 -0.131311 999 0.018360 0.924117 0.519219
-10.995852 -9.546090 -0.126866 983 -0.016439 0.894203 0.583176
-10.998861 -9.548678 -0.122420 951 -0.059732 0.856962 0.647147
-11.002984 -9.552236 -0.117986 883 -0.119051 0.805779 0.710946
-11.007324 -9.555984 -0.113542 793 -0.181500 0.751852 0.774888
-11.013985 -9.561738 -0.109122 577 -0.277334 0.669054 0.838485
-11.016650 -9.558418 -0.203214 635 -0.315687 0.716820 -0.515357
-11.009915 -9.552550 -0.198623 809 -0.218782 0.801251 -0.449299
-11.005158 -9.548409 -0.194070 889 -0.150338 0.860832 -0.383788
-11.001182 -9.544931 -0.189532 937 -0.093117 0.910876 -0.318493
-10.999030 -9.543038 -0.185025 987 -0.062160 0.938114 -0.253644
-10.997643 -9.541808 -0.180534 1017 -0.042209 0.955815 -0.189026
-10.995866 -9.540247 -0.176034 1033 -0.016631 0.978278 -0.124277
-10.994257 -9.538827 -0.171542 1049 0.006518 0.998710 -0.059644
-10.994136 -9.538707 -0.167064 1047 0.008261 1.000439 0.004787
-10.994514 -9.539004 -0.162601 1059 0.002813 0.996157 0.069003
-10.994279 -9.538788 -0.158134 1055 0.006202 0.999272 0.133277
-10.993548 -9.538131 -0.153648 1059 0.016713 1.008727 0.197823
-10.993646 -9.538188 -0.149177 1045 0.015314 1.007903 0.262154
-10.995122 -9.539440 -0.144729 1041 -0.005928 0.989887 0.326154
-10.996492 -9.540614 -0.140271 1027 -0.025646 0.972995 0.390298
-10.998018 -9.541916 -0.135821 1001 -0.047601 0.954264 0.454327
-10.999437 -9.543125 -0.131364 965 -0.068020 0.936865 0.518456
-11.001848 -9.545185 -0.126910 943 -0.102709 0.907226 0.582543
-11.005416 -9.548260 -0.122470 877 -0.154042 0.862986 0.646428
-11.009821 -9.552057 -0.118034 787 -0.217424 0.808345 0.710255
-11.017861 -9.559007 -0.113628 617 -0.333114 0.708354 0.773651
-11.019738 -9.555285 -0.198751 533 -0.360118 0.761897 -0.451141
-11.015533 -9.551624 -0.194205 763 -0.299618 0.814575 -0.385731
-11.010446 -9.547193 -0.189645 851 -0.226412 0.878341 -0.320119
-11.006859 -9.544047 -0.185115 923 -0.174804 0.923596 -0.254939
-11.005307 -9.542684 -0.180625 961 -0.152478 0.943218 -0.190335
-11.004025 -9.541547 -0.176131 981 -0.134036 0.959575 -0.125673
-11.002523 -9.540233 -0.171630 997 -0.112424 0.978484 -0.060910
-11.001461 -9.539286 -0.167146 1017 -0.097138 0.992109 0.003608
-11.001678 -9.539450 -0.162675 1021 -0.100266 0.989749 0.067939
-11.001613 -9.539371 -0.158206 1025 -0.099319 0.990888 0.132241
-11.001108 -9.538914 -0.153730 1011 -0.092060 0.997461 0.196643
-11.001092 -9.538872 -0.149259 997 -0.091827 0.998065 0.260974
-11.001513 -9.539211 -0.144786 973 -0.097879 0.993180 0.325334
-11.002608 -9.540140 -0.140330 961 -0.113645 0.979815 0.389449
-11.004800 -9.542021 -0.135879 947 -0.145178 0.952755 0.453493
-11.007548 -9.544376 -0.131433 905 -0.184725 0.918862 0.517464
-11.011281 -9.547585 -0.126990 839 -0.238432 0.872701 0.581392
-11.016017 -9.551673 -0.122563 751 -0.306575 0.813875 0.645090
-11.022320 -9.551695 -0.189811 657 -0.397264 0.813560 -0.322508
-11.017345 -9.547361 -0.185250 787 -0.325690 0.875912 -0.256882
-11.014408 -9.544795 -0.180728 859 -0.283427 0.912838 -0.191817
-11.012073 -9.542746 -0.176221 899 -0.249822 0.942326 -0.126968
-11.009638 -9.540612 -0.171716 933 -0.214789 0.973022 -0.062148
-11.008137 -9.539298 -0.167215 953 -0.193191 0.991931 0.002615
-11.008296 -9.539405 -0.162744 961 -0.195483 0.990394 0.066946
-11.008336 -9.539420 -0.158273 957 -0.196059 0.990175 0.131277
-11.008603 -9.539634 -0.153802 973 -0.199901 0.987101 0.195607
-11.009033 -9.539980 -0.149329 939 -0.206090 0.982120 0.259967
-11.009179 -9.540088 -0.144858 921 -0.208189 0.980569 0.324298
-11.010769 -9.541438 -0.140409 897 -0.231064 0.961139 0.388313
-11.013299 -9.543603 -0.135955 849 -0.267468 0.929990 0.452399
-11.016649 -9.546487 -0.131515 795 -0.315673 0.888495 0.516284
-11.021931 -9.551048 -0.127095 685 -0.391665 0.822863 0.579881
-11.026404 -9.549290 -0.185365 465 -0.456035 0.848166 -0.258536
-11.023305 -9.546576 -0.180843 667 -0.411438 0.887219 -0.193472
-11.019370 -9.543155 -0.176305 761 -0.354822 0.936440 -0.128177
-11.017762 -9.541736 -0.171804 813 -0.331687 0.956858 -0.063414
-11.016863 -9.540937 -0.167319 841 -0.318747 0.968343 0.001118
-11.016479 -9.540570 -0.162831 863 -0.313217 0.973626 0.065694
-11.016129 -9.540252 -0.158355 861 -0.308181 0.978209 0.130097
-11.017110 -9.541081 -0.153888 859 -0.322301 0.966271 0.194370
-11.017758 -9.541619 -0.149425 849 -0.331632 0.958532 0.258586
-11.017969 -9.541775 -0.144944 817 -0.334664 0.956295 0.323061
-11.020882 -9.544279 -0.140508 765 -0.376571 0.920261 0.386888
-11.024734 -9.547596 -0.136066 685 -0.431994 0.872537 0.450802
-11.025270 -9.548035 -0.131591 463 -0.439719 0.866224 0.515190
-11.030829 -9.546924 -0.167487 547 -0.519704 0.882210 -0.001299
-11.029102 -9.545411 -0.162976 605 -0.494854 0.903973 0.063608
-11.029149 -9.545433 -0.158496 633 -0.495526 0.903658 0.128068
-11.030413 -9.546502 -0.154039 613 -0.513708 0.888276 0.192198
-11.031103 -9.547082 -0.149566 533 -0.523643 0.879933 0.256557
