766
-5.374951 -4.509616 -0.117357 1517 0.814705 -0.074764 0.636535
-5.376665 -4.511040 -0.115238 1491 0.790040 -0.095258 0.667024
-5.378600 -4.512652 -0.113117 1469 0.762198 -0.118448 0.697542
-5.380699 -4.514410 -0.111005 1439 0.731996 -0.143744 0.727931
-5.383697 -4.516909 -0.108900 1393 0.688862 -0.179702 0.758219
-5.387817 -4.520361 -0.106817 1331 0.629583 -0.229369 0.788190
-5.391209 -4.523187 -0.104717 1249 0.580774 -0.270034 0.818406
-5.393701 -4.525274 -0.102604 1065 0.544919 -0.300058 0.848809
-5.396352 -4.525327 -0.217325 1137 0.506778 -0.300826 -0.801853
-5.392095 -4.521742 -0.214998 1303 0.568026 -0.249238 -0.768371
-5.387215 -4.517634 -0.212644 1365 0.638241 -0.190131 -0.734501
-5.383514 -4.514524 -0.210346 1413 0.691496 -0.145384 -0.701436
-5.380764 -4.512203 -0.208080 1459 0.731063 -0.111992 -0.668832
-5.378412 -4.510216 -0.205845 1489 0.764909 -0.083402 -0.636673
-5.376669 -4.508752 -0.203613 1517 0.789985 -0.062332 -0.604558
-5.375439 -4.507707 -0.201421 1551 0.807680 -0.047300 -0.573019
-5.373745 -4.506278 -0.199199 1577 0.832057 -0.026737 -0.541048
-5.372173 -4.504953 -0.196989 1585 0.854677 -0.007671 -0.509249
-5.371215 -4.504131 -0.194805 1601 0.868461 0.004158 -0.477825
-5.370142 -4.503225 -0.192609 1625 0.883898 0.017194 -0.446227
-5.369012 -4.502264 -0.190416 1631 0.900159 0.031018 -0.414673
-5.368055 -4.501456 -0.188232 1655 0.913929 0.042648 -0.383249
-5.366810 -4.500396 -0.186039 1675 0.931843 0.057900 -0.351695
-5.365624 -4.499393 -0.183845 1667 0.948906 0.072328 -0.320127
-5.365002 -4.498857 -0.181678 1669 0.957853 0.080040 -0.288947
-5.364379 -4.498321 -0.179502 1677 0.966820 0.087752 -0.257637
-5.363800 -4.497826 -0.177335 1685 0.975149 0.094873 -0.226458
-5.363570 -4.497618 -0.175176 1689 0.978456 0.097865 -0.195393
-5.363276 -4.497361 -0.173019 1691 0.982689 0.101563 -0.164357
-5.363204 -4.497293 -0.170858 1699 0.983725 0.102544 -0.133263
-5.363138 -4.497231 -0.168708 1697 0.984672 0.103436 -0.102328
-5.362559 -4.496737 -0.166542 1693 0.993008 0.110544 -0.071163
-5.362265 -4.496480 -0.164385 1697 0.997235 0.114242 -0.040127
-5.362592 -4.496745 -0.162243 1701 0.992528 0.110427 -0.009306
-5.362855 -4.496949 -0.160101 1701 0.988748 0.107491 0.021514
-5.362626 -4.496740 -0.157942 1693 0.992041 0.110503 0.052578
-5.362711 -4.496811 -0.155792 1691 0.990820 0.109480 0.083514
-5.362809 -4.496882 -0.153652 1693 0.989406 0.108458 0.114305
-5.362680 -4.496758 -0.151493 1691 0.991266 0.110242 0.145370
-5.363050 -4.497065 -0.149351 1693 0.985941 0.105824 0.176190
-5.363256 -4.497227 -0.147209 1685 0.982978 0.103491 0.207010
-5.363634 -4.497528 -0.145067 1675 0.977537 0.099162 0.237830
-5.363797 -4.497647 -0.142915 1677 0.975190 0.097453 0.268794
-5.364103 -4.497892 -0.140773 1683 0.970792 0.093927 0.299614
-5.365038 -4.498667 -0.138649 1675 0.957338 0.082778 0.330175
-5.365750 -4.499254 -0.136514 1653 0.947095 0.074325 0.360895
-5.366393 -4.499785 -0.134382 1641 0.937839 0.066689 0.391571
-5.367392 -4.500609 -0.132255 1647 0.923465 0.054833 0.422175
-5.368320 -4.501378 -0.130121 1641 0.910114 0.043766 0.452881
-5.369075 -4.502007 -0.127987 1625 0.899253 0.034716 0.483586
-5.369952 -4.502726 -0.125852 1615 0.886629 0.024370 0.514305
-5.371323 -4.503870 -0.123724 1603 0.866904 0.007911 0.544924
-5.372814 -4.505106 -0.121607 1589 0.845449 -0.009873 0.575384
-5.374085 -4.506153 -0.119480 1563 0.827165 -0.024940 0.605988
-5.375683 -4.507493 -0.117361 1547 0.804174 -0.044219 0.636478
-5.377453 -4.508959 -0.115240 1527 0.778706 -0.065310 0.666996
-5.378824 -4.510104 -0.113113 1485 0.758974 -0.081790 0.697600
-5.380594 -4.511569 -0.110983 1459 0.733513 -0.102866 0.728247
-5.383036 -4.513607 -0.108869 1429 0.698371 -0.132190 0.758665
-5.386427 -4.516446 -0.106781 1375 0.649583 -0.173040 0.788708
-5.389869 -4.519320 -0.104681 1305 0.600053 -0.214391 0.818924
-5.393661 -4.522480 -0.102590 1207 0.545495 -0.259859 0.849010
-5.394262 -4.520768 -0.217193 1237 0.536850 -0.235228 -0.799954
-5.390333 -4.517463 -0.214885 1331 0.593378 -0.187675 -0.766745
-5.386696 -4.514401 -0.212585 1399 0.645713 -0.143614 -0.733652
-5.384281 -4.512366 -0.210329 1449 0.680457 -0.114331 -0.701191
-5.381752 -4.510232 -0.208082 1479 0.716847 -0.083628 -0.668861
-5.379500 -4.508343 -0.205835 1509 0.749252 -0.056452 -0.636530
-5.377992 -4.507067 -0.203623 1547 0.770946 -0.038092 -0.604702
-5.375634 -4.505073 -0.201387 1563 0.804874 -0.009400 -0.572530
-5.373890 -4.503610 -0.199165 1589 0.829971 0.011650 -0.540558
-5.372368 -4.502320 -0.196954 1603 0.851871 0.030216 -0.508745
-5.371181 -4.501317 -0.194761 1623 0.868948 0.044644 -0.477191
-5.370280 -4.500550 -0.192575 1631 0.881915 0.055684 -0.445738
-5.369265 -4.499687 -0.190391 1641 0.896516 0.068095 -0.414314
-5.368250 -4.498823 -0.188207 1657 0.911123 0.080527 -0.382889
-5.367848 -4.498475 -0.186041 1673 0.916906 0.085536 -0.351724
-5.367498 -4.498176 -0.183872 1683 0.921942 0.089837 -0.320515
-5.366261 -4.497123 -0.181678 1685 0.939740 0.104993 -0.288947
-5.365246 -4.496260 -0.179495 1677 0.954347 0.117405 -0.257537
-5.364895 -4.495961 -0.177335 1679 0.959396 0.121707 -0.226458
-5.364316 -4.495467 -0.175169 1685 0.967726 0.128815 -0.195292
-5.363808 -4.495028 -0.173002 1691 0.975033 0.135134 -0.164112
-5.363742 -4.494967 -0.170843 1695 0.975986 0.136012 -0.133048
-5.363555 -4.494801 -0.168693 1699 0.978676 0.138399 -0.102112
-5.363204 -4.494488 -0.166536 1707 0.983725 0.142907 -0.071076
-5.362803 -4.494140 -0.164367 1705 0.989495 0.147909 -0.039868
-5.363066 -4.494357 -0.162227 1707 0.985708 0.144787 -0.009076
-5.363329 -4.494560 -0.160085 1711 0.981928 0.141871 0.021744
-5.363265 -4.494499 -0.157936 1709 0.982847 0.142742 0.052665
-5.363463 -4.494653 -0.155784 1707 0.980000 0.140526 0.083629
-5.363676 -4.494821 -0.153642 1705 0.976933 0.138111 0.114449
-5.364054 -4.495122 -0.151500 1711 0.971492 0.133782 0.145269
-5.364152 -4.495193 -0.149351 1709 0.970086 0.132760 0.176190
-5.363738 -4.494845 -0.147194 1693 0.976041 0.137768 0.207226
-5.363829 -4.494909 -0.145042 1685 0.974731 0.136849 0.238190
-5.364492 -4.495447 -0.142910 1697 0.965194 0.129103 0.268866
-5.364913 -4.495790 -0.140777 1697 0.959136 0.124170 0.299557
-5.365569 -4.496335 -0.138643 1689 0.949695 0.116328 0.330262
-5.366110 -4.496768 -0.136499 1683 0.941915 0.110098 0.361111
-5.366366 -4.496978 -0.134359 1675 0.938230 0.107079 0.391902
-5.366901 -4.497418 -0.132215 1657 0.930532 0.100746 0.422751
-5.368400 -4.498661 -0.130098 1651 0.908961 0.082860 0.453211
-5.369720 -4.499757 -0.127981 1645 0.889970 0.067093 0.483672
-5.370097 -4.500057 -0.125837 1627 0.884543 0.062771 0.514521
-5.371418 -4.501154 -0.123710 1617 0.865538 0.046991 0.545125
-5.372781 -4.502292 -0.121584 1605 0.845930 0.030614 0.575715
-5.373723 -4.503060 -0.119447 1585 0.832372 0.019567 0.606463
-5.375600 -4.504630 -0.117338 1575 0.805368 -0.003026 0.636809
-5.377535 -4.506242 -0.115217 1547 0.777526 -0.026216 0.667327
-5.379026 -4.507477 -0.113098 1515 0.756072 -0.043986 0.697816
-5.380954 -4.509082 -0.110977 1485 0.728333 -0.067080 0.728334
-5.383017 -4.510792 -0.108856 1453 0.698645 -0.091683 0.758852
-5.385509 -4.512878 -0.106743 1409 0.662790 -0.121700 0.789255
-5.389007 -4.515795 -0.104654 1351 0.612458 -0.163675 0.819312
-5.392406 -4.518627 -0.102544 1291 0.563553 -0.204422 0.849672
-5.396690 -4.522213 -0.100460 1161 0.501914 -0.256017 0.879657
-5.393814 -4.517534 -0.217132 1303 0.543292 -0.188690 -0.799076
-5.389842 -4.514187 -0.214815 1375 0.600444 -0.140533 -0.765738
-5.386140 -4.511077 -0.212515 1425 0.653713 -0.095786 -0.732645
-5.383661 -4.508992 -0.210270 1467 0.689383 -0.065790 -0.700343
-5.381646 -4.507291 -0.208030 1505 0.718371 -0.041310 -0.668112
-5.379673 -4.505632 -0.205801 1527 0.746761 -0.017441 -0.636040
-5.377880 -4.504120 -0.203581 1555 0.772559 0.004316 -0.604098
-5.375971 -4.502510 -0.201351 1573 0.800030 0.027478 -0.572012
-5.374564 -4.501318 -0.199150 1597 0.820270 0.044631 -0.540343
-5.373491 -4.500412 -0.196956 1619 0.835714 0.057666 -0.508774
-5.372369 -4.499457 -0.194761 1621 0.851858 0.071409 -0.477191
-5.371468 -4.498691 -0.192577 1637 0.864818 0.082428 -0.445767
-5.370502 -4.497876 -0.190391 1663 0.878718 0.094153 -0.414314
-5.368980 -4.496586 -0.188190 1665 0.900618 0.112719 -0.382645
-5.368243 -4.495966 -0.186014 1673 0.911219 0.121638 -0.351335
-5.367785 -4.495563 -0.183847 1685 0.917812 0.127436 -0.320155
-5.366541 -4.494518 -0.181654 1683 0.935712 0.142475 -0.288602
-5.365798 -4.493877 -0.179477 1689 0.946402 0.151696 -0.257278
-5.365454 -4.493586 -0.177320 1695 0.951348 0.155881 -0.226242
-5.364653 -4.492902 -0.175144 1695 0.962875 0.165727 -0.194932
-5.364030 -4.492367 -0.172979 1699 0.971842 0.173425 -0.163781
-5.364179 -4.492486 -0.170828 1703 0.969695 0.171709 -0.132832
-5.364114 -4.492424 -0.168678 1709 0.970635 0.172601 -0.101897
-5.363706 -4.492070 -0.166509 1713 0.976501 0.177692 -0.070688
-5.363476 -4.491861 -0.164362 1707 0.979815 0.180704 -0.039796
-5.363461 -4.491835 -0.162212 1713 0.980027 0.181075 -0.008861
-5.363610 -4.491954 -0.160061 1727 0.977887 0.179366 0.022089
-5.364273 -4.492492 -0.157926 1719 0.968343 0.171620 0.052809
-5.364536 -4.492710 -0.155786 1719 0.964563 0.168485 0.083600
-5.364235 -4.492445 -0.153627 1717 0.968892 0.172299 0.114665
-5.363941 -4.492188 -0.151468 1709 0.973118 0.175998 0.145729
-5.363926 -4.492161 -0.149318 1701 0.973338 0.176389 0.176665
-5.364182 -4.492372 -0.147178 1701 0.969653 0.173349 0.207456
-5.364560 -4.492673 -0.145036 1701 0.964213 0.169020 0.238276
-5.365044 -4.493064 -0.142902 1705 0.957249 0.163394 0.268981
-5.365365 -4.493323 -0.140762 1705 0.952631 0.159668 0.299773
-5.365621 -4.493533 -0.138620 1695 0.948947 0.156643 0.330593
-5.366219 -4.494022 -0.136476 1687 0.940343 0.149610 0.361442
-5.367146 -4.494791 -0.134351 1683 0.927006 0.138543 0.392017
-5.368131 -4.495601 -0.132227 1677 0.912831 0.126887 0.422578
-5.368737 -4.496097 -0.130083 1669 0.904111 0.119751 0.453427
-5.369043 -4.496342 -0.127941 1651 0.899713 0.116225 0.484247
-5.370364 -4.497438 -0.125824 1639 0.880701 0.100458 0.514708
-5.372534 -4.499238 -0.123712 1635 0.849484 0.074558 0.545096
-5.373576 -4.500104 -0.121586 1615 0.834486 0.062099 0.575686
-5.374389 -4.500775 -0.119451 1597 0.822788 0.052445 0.606406
-5.376502 -4.502533 -0.117340 1579 0.792387 0.027149 0.636780
-5.378272 -4.503998 -0.115221 1565 0.766919 0.006072 0.667269
-5.379199 -4.504766 -0.113075 1535 0.753581 -0.004981 0.698147
-5.380563 -4.505905 -0.110946 1497 0.733959 -0.021372 0.728780
-5.382797 -4.507753 -0.108835 1465 0.701815 -0.047958 0.759154
-5.385731 -4.510203 -0.106729 1435 0.659593 -0.083210 0.789456
-5.388502 -4.512519 -0.104623 1385 0.619724 -0.116534 0.819758
-5.392015 -4.515450 -0.102523 1329 0.569179 -0.158708 0.849974
-5.396249 -4.518986 -0.100441 1241 0.508260 -0.209589 0.879931
-5.397102 -4.517488 -0.219381 1269 0.495986 -0.188032 -0.831436
-5.392959 -4.514000 -0.217054 1345 0.555594 -0.137844 -0.797954
-5.389265 -4.510898 -0.214754 1403 0.608746 -0.093213 -0.764861
-5.386050 -4.508207 -0.212473 1453 0.655003 -0.054490 -0.732040
-5.383699 -4.506220 -0.210226 1495 0.688834 -0.025900 -0.699709
-5.381505 -4.504373 -0.207988 1525 0.720401 0.000672 -0.667508
-5.379483 -4.502678 -0.205759 1549 0.749492 0.025063 -0.635436
-5.377911 -4.501340 -0.203539 1571 0.772113 0.044315 -0.603494
-5.376674 -4.500301 -0.201345 1589 0.789910 0.059265 -0.571925
-5.375044 -4.498921 -0.199123 1617 0.813368 0.079121 -0.539954
-5.373358 -4.497499 -0.196912 1619 0.837628 0.099580 -0.508141
-5.371664 -4.496070 -0.194702 1625 0.861998 0.120142 -0.476343
-5.370370 -4.494977 -0.192499 1643 0.880619 0.135868 -0.444645
-5.370083 -4.494727 -0.190342 1669 0.884749 0.139463 -0.413609
-5.369061 -4.493870 -0.188158 1665 0.899452 0.151799 -0.382184
-5.367874 -4.492866 -0.185964 1671 0.916529 0.166241 -0.350616
-5.367081 -4.492191 -0.183788 1681 0.927939 0.175956 -0.319307
-5.366344 -4.491557 -0.181612 1685 0.938546 0.185075 -0.287997
-5.366221 -4.491439 -0.179462 1699 0.940316 0.186776 -0.257062
-5.366270 -4.491475 -0.177313 1711 0.939609 0.186255 -0.226141
-5.366034 -4.491260 -0.175153 1717 0.943006 0.189349 -0.195062
-5.365176 -4.490536 -0.172979 1715 0.955348 0.199764 -0.163781
-5.364382 -4.489860 -0.170803 1703 0.966779 0.209493 -0.132472
-5.364138 -4.489652 -0.168644 1715 0.970285 0.212484 -0.101407
-5.363844 -4.489395 -0.166486 1723 0.974518 0.216182 -0.070357
-5.363672 -4.489228 -0.164337 1719 0.976995 0.218590 -0.039436
-5.364442 -4.489871 -0.162203 1723 0.965914 0.209335 -0.008731
-5.364648 -4.490032 -0.160062 1723 0.962950 0.207016 0.022075
-5.364246 -4.489685 -0.157903 1711 0.968734 0.212011 0.053139
-5.364510 -4.489888 -0.155763 1717 0.964933 0.209088 0.083931
-5.364823 -4.490140 -0.153621 1711 0.960432 0.205465 0.114751
-5.364422 -4.489792 -0.151453 1705 0.966202 0.210474 0.145945
-5.364064 -4.489486 -0.149295 1703 0.971348 0.214872 0.176996
-5.364377 -4.489738 -0.147154 1699 0.966847 0.211249 0.207801
-5.364804 -4.490088 -0.145021 1699 0.960707 0.206213 0.238492
-5.365182 -4.490389 -0.142879 1705 0.955266 0.201884 0.269312
-5.365674 -4.490788 -0.140747 1699 0.948186 0.196141 0.299988
-5.366609 -4.491563 -0.138611 1701 0.934731 0.184992 0.330722
-5.367593 -4.492373 -0.136486 1689 0.920577 0.173335 0.361298
-5.368478 -4.493099 -0.134361 1691 0.907843 0.162886 0.391873
-5.369119 -4.493630 -0.132227 1683 0.898615 0.155250 0.422578
-5.369661 -4.494078 -0.130085 1683 0.890821 0.148801 0.453398
-5.370253 -4.494560 -0.127950 1665 0.882300 0.141871 0.484118
-5.371637 -4.495705 -0.125824 1657 0.862389 0.125391 0.514708
-5.372907 -4.496751 -0.123697 1639 0.844112 0.110345 0.545312
-5.373835 -4.497520 -0.121572 1631 0.830760 0.099278 0.575888
-5.374984 -4.498477 -0.119434 1609 0.814232 0.085508 0.606650
-5.376419 -4.499670 -0.117317 1593 0.793581 0.068342 0.637111
-5.377903 -4.500899 -0.115188 1573 0.772229 0.050661 0.667744
-5.379730 -4.502420 -0.113069 1547 0.745938 0.028775 0.698233
-5.381615 -4.503983 -0.110958 1519 0.718817 0.006285 0.728607
-5.383771 -4.505769 -0.108837 1495 0.687798 -0.019410 0.759125
-5.386098 -4.507709 -0.106723 1457 0.654317 -0.047327 0.789542
-5.388490 -4.509698 -0.104610 1409 0.619895 -0.075944 0.819945
-5.391881 -4.512523 -0.102512 1353 0.571107 -0.116595 0.850132
-5.395723 -4.515732 -0.100420 1271 0.515828 -0.162763 0.880233
-5.399450 -4.518844 -0.098320 1133 0.462203 -0.207544 0.910449
-5.396870 -4.514591 -0.219330 1305 0.499321 -0.146351 -0.830702
-5.392884 -4.511243 -0.217010 1373 0.556678 -0.098174 -0.797321
-5.388897 -4.507896 -0.214693 1431 0.614043 -0.050016 -0.763983
-5.385754 -4.505261 -0.212421 1471 0.659263 -0.012103 -0.731292
-5.383789 -4.503609 -0.210191 1503 0.687537 0.011664 -0.699206
-5.381823 -4.501956 -0.207952 1537 0.715825 0.035451 -0.666990
-5.380086 -4.500485 -0.205732 1561 0.740820 0.056617 -0.635048
-5.378229 -4.498924 -0.203512 1589 0.767536 0.079080 -0.603105
-5.377264 -4.498109 -0.201328 1611 0.781423 0.090805 -0.571681
-5.375863 -4.496924 -0.199115 1627 0.801580 0.107854 -0.539839
-5.374062 -4.495405 -0.196905 1633 0.827494 0.129707 -0.508040
-5.372589 -4.494164 -0.194694 1645 0.848688 0.147566 -0.476227
-5.371359 -4.493119 -0.192501 1663 0.866389 0.162605 -0.444673
-5.370394 -4.492304 -0.190315 1667 0.880269 0.174330 -0.413220
-5.369536 -4.491580 -0.188141 1675 0.892619 0.184745 -0.381940
-5.369142 -4.491239 -0.185972 1701 0.898286 0.189651 -0.350731
-5.368406 -4.490606 -0.183798 1701 0.908879 0.198762 -0.319450
-5.367611 -4.489930 -0.181621 1705 0.920316 0.208484 -0.288127
-5.366761 -4.489213 -0.179447 1699 0.932543 0.218803 -0.256846
-5.366353 -4.488858 -0.177278 1707 0.938416 0.223908 -0.225637
-5.366173 -4.488698 -0.175129 1715 0.941009 0.226213 -0.194717
-5.365601 -4.488211 -0.172952 1713 0.949235 0.233218 -0.163393
-5.365199 -4.487863 -0.170795 1713 0.955019 0.238226 -0.132357
-5.365191 -4.487844 -0.168646 1727 0.955136 0.238501 -0.101436
-5.364783 -4.487488 -0.166486 1729 0.961009 0.243626 -0.070357
-5.363982 -4.486806 -0.164312 1725 0.972528 0.253437 -0.039076
-5.364131 -4.486926 -0.162170 1729 0.970388 0.251708 -0.008256
-5.364058 -4.486857 -0.160021 1719 0.971437 0.252703 0.022665
-5.364272 -4.487025 -0.157871 1719 0.968357 0.250288 0.053600
-5.364820 -4.487466 -0.155737 1729 0.960474 0.243942 0.084305
-5.364684 -4.487348 -0.153587 1723 0.962429 0.245636 0.115240
-5.364947 -4.487551 -0.151447 1717 0.958649 0.242714 0.146032
-5.365603 -4.488097 -0.149313 1721 0.949208 0.234858 0.176737
-5.365874 -4.488307 -0.147171 1711 0.945311 0.231839 0.207557
-5.366301 -4.488657 -0.145029 1709 0.939163 0.226803 0.238377
-5.366893 -4.489139 -0.142896 1719 0.930649 0.219867 0.269068
-5.367213 -4.489398 -0.140754 1717 0.926045 0.216141 0.299888
-5.367869 -4.489929 -0.138620 1721 0.916605 0.208498 0.330593
-5.368525 -4.490474 -0.136488 1709 0.907164 0.200656 0.361269
-5.368610 -4.490530 -0.134336 1697 0.905943 0.199853 0.392233
-5.369037 -4.490880 -0.132204 1683 0.899795 0.194817 0.422909
-5.370136 -4.491788 -0.130077 1681 0.883987 0.181754 0.453514
-5.370899 -4.492410 -0.127943 1667 0.873003 0.172800 0.484219
-5.371612 -4.492996 -0.125810 1661 0.862746 0.164368 0.514909
-5.372654 -4.493863 -0.123674 1641 0.847755 0.151895 0.545643
-5.374203 -4.495139 -0.121555 1639 0.825463 0.133535 0.576132
-5.375023 -4.495817 -0.119421 1615 0.813669 0.123779 0.606837
-5.376008 -4.496626 -0.117286 1587 0.799495 0.112142 0.637557
-5.378164 -4.498427 -0.115183 1583 0.768476 0.086229 0.667816
-5.380156 -4.500081 -0.113062 1571 0.739811 0.062428 0.698334
-5.381762 -4.501414 -0.110944 1541 0.716703 0.043252 0.728809
-5.383303 -4.502684 -0.108816 1511 0.694529 0.024974 0.759427
-5.385352 -4.504394 -0.106693 1475 0.665047 0.000370 0.789974
-5.387622 -4.506278 -0.104582 1433 0.632389 -0.026737 0.820348
-5.391570 -4.509578 -0.102489 1387 0.575580 -0.074222 0.850463
-5.396098 -4.513345 -0.100404 1317 0.510428 -0.128417 0.880463
-5.399325 -4.516037 -0.098297 1219 0.464000 -0.167154 0.910780
-5.396595 -4.511723 -0.219276 1333 0.503279 -0.105083 -0.829925
-5.391995 -4.507873 -0.216932 1389 0.569467 -0.049687 -0.796199
-5.388515 -4.504951 -0.214641 1451 0.619538 -0.007643 -0.763235
-5.385930 -4.502777 -0.212385 1491 0.656732 0.023636 -0.730774
-5.383564 -4.500790 -0.210138 1515 0.690776 0.052226 -0.698443
-5.381485 -4.499040 -0.207901 1539 0.720690 0.077405 -0.666256
-5.379741 -4.497576 -0.205690 1565 0.745780 0.098469 -0.634443
-5.378898 -4.496851 -0.203495 1599 0.757910 0.108904 -0.602860
-5.377946 -4.496050 -0.201309 1621 0.771612 0.120431 -0.571407
-5.376088 -4.494489 -0.199091 1631 0.798342 0.142886 -0.539494
-5.374509 -4.493158 -0.196878 1641 0.821066 0.162042 -0.507652
-5.373550 -4.492336 -0.194694 1657 0.834863 0.173871 -0.476227
-5.372478 -4.491430 -0.192501 1667 0.850286 0.186906 -0.444673
-5.371063 -4.490245 -0.190307 1677 0.870643 0.203956 -0.413105
-5.370104 -4.489423 -0.188123 1691 0.884447 0.215784 -0.381681
-5.369475 -4.488894 -0.185947 1711 0.893497 0.223393 -0.350371
-5.369131 -4.488588 -0.183788 1711 0.898444 0.227798 -0.319307
-5.368902 -4.488394 -0.181631 1709 0.901737 0.230590 -0.288271
-5.368051 -4.487663 -0.179454 1707 0.913984 0.241108 -0.256947
-5.367200 -4.486945 -0.177280 1717 0.926230 0.251434 -0.225666
-5.367077 -4.486828 -0.175121 1719 0.928001 0.253122 -0.194601
-5.366612 -4.486431 -0.172952 1723 0.934690 0.258830 -0.163393
-5.366147 -4.486034 -0.170795 1723 0.941379 0.264545 -0.132357
-5.366310 -4.486154 -0.168644 1733 0.939033 0.262816 -0.101407
-5.365952 -4.485848 -0.166486 1727 0.944186 0.267221 -0.070357
-5.365722 -4.485640 -0.164337 1735 0.947493 0.270212 -0.039436
-5.365649 -4.485571 -0.162178 1739 0.948542 0.271207 -0.008371
-5.365684 -4.485593 -0.160038 1737 0.948041 0.270892 0.022420
-5.365562 -4.485475 -0.157879 1733 0.949798 0.272586 0.053485
-5.365546 -4.485448 -0.155729 1737 0.950024 0.272977 0.084420
-5.365531 -4.485435 -0.153589 1727 0.950244 0.273163 0.115211
-5.365965 -4.485778 -0.151447 1727 0.944000 0.268229 0.146032
-5.366279 -4.486030 -0.149305 1721 0.939479 0.264600 0.176852
-5.366378 -4.486101 -0.147165 1707 0.938059 0.263578 0.207643
-5.366977 -4.486590 -0.145021 1711 0.929435 0.256545 0.238492
-5.367854 -4.487324 -0.142896 1717 0.916817 0.245979 0.269068
-5.368339 -4.487715 -0.140764 1715 0.909840 0.240360 0.299744
-5.368716 -4.488016 -0.138622 1717 0.904419 0.236024 0.330564
-5.369308 -4.488498 -0.136488 1715 0.895898 0.229088 0.361269
-5.369514 -4.488660 -0.134336 1711 0.892934 0.226762 0.392233
-5.369378 -4.488543 -0.132188 1699 0.894890 0.228443 0.423139
-5.370191 -4.489213 -0.130054 1691 0.883192 0.218803 0.453845
-5.371410 -4.490211 -0.127937 1683 0.865655 0.204443 0.484305
-5.372174 -4.490847 -0.125803 1671 0.854664 0.195291 0.515010
-5.372994 -4.491525 -0.123668 1655 0.842863 0.185534 0.545729
-5.374372 -4.492662 -0.121540 1647 0.823035 0.169178 0.576348
-5.375463 -4.493563 -0.119415 1619 0.807337 0.156210 0.606924
-5.376677 -4.494568 -0.117288 1595 0.789869 0.141754 0.637528
-5.378446 -4.496034 -0.115167 1593 0.764415 0.120657 0.668046
-5.380267 -4.497548 -0.113048 1573 0.738213 0.098873 0.698535
-5.382109 -4.499070 -0.110927 1557 0.711709 0.076973 0.729053
-5.383757 -4.500444 -0.108808 1535 0.687997 0.057207 0.759542
-5.385298 -4.501714 -0.106680 1495 0.665829 0.038929 0.790161
-5.387848 -4.503842 -0.104566 1451 0.629137 0.008315 0.820578
-5.391082 -4.506528 -0.102468 1403 0.582606 -0.030332 0.850765
-5.394530 -4.509396 -0.100368 1349 0.532994 -0.071601 0.880981
-5.398208 -4.512458 -0.098268 1263 0.480069 -0.115655 0.911197
-5.396256 -4.508707 -0.219215 1359 0.508157 -0.061687 -0.829048
-5.391820 -4.504990 -0.216888 1407 0.571985 -0.008206 -0.795565
-5.388569 -4.502264 -0.214597 1457 0.618763 0.031018 -0.762602
-5.386090 -4.500179 -0.212351 1501 0.654433 0.061021 -0.730285
-5.384296 -4.498666 -0.210121 1525 0.680244 0.082791 -0.698199
-5.382552 -4.497202 -0.207901 1557 0.705335 0.103854 -0.666256
-5.380587 -4.495551 -0.205671 1577 0.733609 0.127607 -0.634170
-5.379008 -4.494219 -0.203460 1601 0.756332 0.146777 -0.602357
-5.377884 -4.493265 -0.201267 1619 0.772504 0.160499 -0.570803
-5.376363 -4.491990 -0.199064 1635 0.794390 0.178845 -0.539105
-5.374784 -4.490658 -0.196853 1655 0.817107 0.198014 -0.507292
-5.373989 -4.489983 -0.194668 1677 0.828544 0.207723 -0.475853
-5.373310 -4.489405 -0.192491 1685 0.838314 0.216038 -0.444530
-5.372745 -4.488924 -0.190324 1691 0.846444 0.222961 -0.413350
-5.371951 -4.488249 -0.188150 1693 0.857868 0.232676 -0.382069
-5.370986 -4.487434 -0.185964 1709 0.871754 0.244401 -0.350616
-5.370470 -4.486988 -0.183798 1717 0.879178 0.250816 -0.319450
-5.369848 -4.486452 -0.181621 1717 0.888131 0.258528 -0.288127
-5.369104 -4.485826 -0.179454 1721 0.898835 0.267537 -0.256947
-5.368710 -4.485485 -0.177288 1733 0.904502 0.272442 -0.225781
-5.368187 -4.485032 -0.175121 1729 0.912028 0.278960 -0.194601
-5.367108 -4.484120 -0.172937 1719 0.927555 0.292085 -0.163177
-5.366199 -4.483360 -0.170761 1721 0.940632 0.303021 -0.131868
-5.366363 -4.483480 -0.168621 1731 0.938271 0.301292 -0.101076
-5.366676 -4.483732 -0.166479 1735 0.933771 0.297663 -0.070256
-5.366890 -4.483901 -0.164337 1745 0.930690 0.295234 -0.039436
-5.366767 -4.483783 -0.162189 1741 0.932460 0.296936 -0.008530
-5.366916 -4.483903 -0.160038 1741 0.930313 0.295207 0.022420
-5.367237 -4.484162 -0.157896 1741 0.925695 0.291481 0.053240
-5.366492 -4.483521 -0.155731 1737 0.936419 0.300702 0.084391
-5.366141 -4.483222 -0.153572 1731 0.941469 0.305004 0.115456
-5.366690 -4.483662 -0.151439 1729 0.933565 0.298672 0.146147
-5.367003 -4.483914 -0.149297 1725 0.929064 0.295049 0.176967
-5.366652 -4.483615 -0.147138 1713 0.934114 0.299351 0.208032
-5.366573 -4.483540 -0.144989 1709 0.935253 0.300428 0.238952
-5.367457 -4.484266 -0.142864 1703 0.922532 0.289986 0.269528
-5.368221 -4.484888 -0.140731 1713 0.911541 0.281032 0.300219
-5.369327 -4.485803 -0.138614 1717 0.895624 0.267866 0.330679
-5.370475 -4.486759 -0.136488 1715 0.879109 0.254110 0.361269
-5.370567 -4.486823 -0.134338 1715 0.877785 0.253190 0.392204
-5.370552 -4.486796 -0.132188 1695 0.877998 0.253581 0.423139
-5.371480 -4.487564 -0.130062 1693 0.864646 0.242528 0.453729
-5.372578 -4.488472 -0.127937 1693 0.848846 0.229465 0.484305
-5.373120 -4.488905 -0.125793 1685 0.841052 0.223235 0.515154
-5.374004 -4.489631 -0.123668 1671 0.828331 0.212786 0.545729
-5.375324 -4.490727 -0.121542 1657 0.809340 0.197020 0.576319
-5.376809 -4.491956 -0.119423 1641 0.787968 0.179332 0.606809
-5.377958 -4.492913 -0.117298 1621 0.771440 0.165569 0.637384
-5.379228 -4.493959 -0.115169 1607 0.753163 0.150516 0.668017
-5.380663 -4.495139 -0.113043 1587 0.732518 0.133535 0.698607
-5.382604 -4.496758 -0.110922 1569 0.704587 0.110242 0.729125
-5.384481 -4.498314 -0.108801 1551 0.677582 0.087855 0.759643
-5.386423 -4.499919 -0.106680 1509 0.649637 0.064761 0.790161
-5.388751 -4.501859 -0.104568 1469 0.616142 0.036843 0.820550
-5.390964 -4.503701 -0.102455 1423 0.584300 0.010339 0.850952
-5.394305 -4.506478 -0.100347 1365 0.536226 -0.029612 0.881283
-5.398432 -4.509910 -0.098264 1295 0.476851 -0.078997 0.911255
-5.402945 -4.513676 -0.096168 1177 0.411912 -0.133185 0.941413
-5.396450 -4.505960 -0.219181 1371 0.505365 -0.022161 -0.828558
-5.393535 -4.503520 -0.216907 1429 0.547306 0.012947 -0.795839
-5.390384 -4.500877 -0.214624 1471 0.592643 0.050977 -0.762990
-5.387019 -4.498053 -0.212343 1501 0.641061 0.091608 -0.730170
-5.384875 -4.496255 -0.210106 1535 0.671915 0.117480 -0.697983
-5.383524 -4.495119 -0.207893 1565 0.691352 0.133823 -0.666141
-5.381781 -4.493655 -0.205673 1583 0.716429 0.154886 -0.634199
-5.379530 -4.491766 -0.203445 1603 0.748820 0.182069 -0.602141
-5.377565 -4.490114 -0.201215 1619 0.777094 0.205836 -0.570055
-5.376157 -4.488923 -0.199012 1637 0.797354 0.222975 -0.538357
-5.375192 -4.488107 -0.196829 1659 0.811234 0.234714 -0.506947
-5.374290 -4.487341 -0.194645 1671 0.824215 0.245739 -0.475522
-5.373504 -4.486672 -0.192468 1683 0.835522 0.255365 -0.444199
-5.372989 -4.486227 -0.190290 1693 0.842931 0.261766 -0.412861
-5.372358 -4.485698 -0.188125 1697 0.852015 0.269375 -0.381709
-5.371629 -4.485071 -0.185949 1711 0.862499 0.278397 -0.350400
-5.370943 -4.484487 -0.183773 1721 0.872372 0.286802 -0.319091
-5.370370 -4.483999 -0.181606 1729 0.880619 0.293828 -0.287911
-5.369969 -4.483651 -0.179449 1729 0.886389 0.298829 -0.256875
-5.369232 -4.483032 -0.177272 1723 0.896989 0.307735 -0.225551
-5.368482 -4.482399 -0.175096 1725 0.907781 0.316846 -0.194242
-5.367694 -4.481729 -0.172920 1721 0.919123 0.326486 -0.162933
-5.367065 -4.481186 -0.170753 1733 0.928172 0.334301 -0.131753
-5.367443 -4.481502 -0.168623 1743 0.922731 0.329752 -0.101105
-5.367656 -4.481656 -0.166481 1743 0.919665 0.327536 -0.070285
-5.367412 -4.481448 -0.164322 1743 0.923177 0.330527 -0.039220
-5.367232 -4.481288 -0.162162 1743 0.925771 0.332832 -0.008141
-5.367438 -4.481450 -0.160022 1751 0.922807 0.330500 0.022650
-5.367366 -4.481381 -0.157873 1745 0.923843 0.331494 0.053571
-5.367186 -4.481222 -0.155723 1737 0.926429 0.333779 0.084506
-5.367278 -4.481286 -0.153574 1737 0.925105 0.332860 0.115427
-5.367599 -4.481544 -0.151432 1739 0.920488 0.329148 0.146248
-5.367690 -4.481608 -0.149292 1743 0.919177 0.328229 0.177039
-5.366889 -4.480926 -0.147115 1725 0.930704 0.338040 0.208362
-5.366988 -4.480997 -0.144975 1713 0.929277 0.337018 0.239154
-5.367809 -4.481674 -0.142851 1717 0.917469 0.327275 0.269715
-5.368465 -4.482205 -0.140716 1727 0.908028 0.319639 0.300434
-5.369849 -4.483349 -0.138599 1721 0.888111 0.303179 0.330895
-5.370948 -4.484257 -0.136472 1723 0.872303 0.290109 0.361499
-5.370933 -4.484230 -0.134323 1719 0.872516 0.290500 0.392420
-5.371017 -4.484301 -0.132183 1701 0.871308 0.289478 0.423211
-5.372287 -4.485349 -0.130056 1699 0.853038 0.274397 0.453816
-5.373493 -4.486347 -0.127939 1695 0.835679 0.260037 0.484276
-5.373871 -4.486648 -0.125797 1685 0.830246 0.255708 0.515096
-5.374463 -4.487130 -0.123653 1669 0.821724 0.248772 0.545945
-5.375391 -4.487898 -0.121528 1659 0.808373 0.237726 0.576521
-5.376660 -4.488945 -0.119402 1649 0.790116 0.222659 0.607111
-5.377923 -4.489985 -0.117275 1633 0.771941 0.207695 0.637715
-5.379364 -4.491172 -0.115146 1619 0.751207 0.190618 0.668348
-5.381299 -4.492784 -0.113037 1595 0.723365 0.167421 0.698693
-5.383184 -4.494347 -0.110916 1577 0.696244 0.144931 0.729211
-5.384733 -4.495624 -0.108787 1551 0.673953 0.126557 0.759845
-5.386781 -4.497320 -0.106676 1525 0.644485 0.102153 0.790219
-5.388937 -4.499120 -0.104553 1491 0.613466 0.076253 0.820765
-5.391207 -4.501004 -0.102441 1441 0.580801 0.049145 0.851154
-5.394164 -4.503459 -0.100336 1389 0.538257 0.013825 0.881442
-5.398347 -4.506933 -0.098241 1337 0.478072 -0.036164 0.911586
-5.395858 -4.502558 -0.219112 1377 0.513886 0.026785 -0.827565
-5.392265 -4.499553 -0.216812 1433 0.565584 0.070023 -0.794472
-5.389349 -4.497099 -0.214538 1483 0.607539 0.105336 -0.761752
-5.387320 -4.495398 -0.212309 1519 0.636732 0.129809 -0.729681
-5.385405 -4.493795 -0.210079 1555 0.664286 0.152876 -0.697594
-5.383718 -4.492373 -0.207859 1579 0.688560 0.173335 -0.665652
-5.382482 -4.491334 -0.205656 1591 0.706343 0.188285 -0.633954
-5.380630 -4.489780 -0.203436 1605 0.732991 0.210645 -0.602012
-5.378438 -4.487933 -0.201208 1621 0.764531 0.237218 -0.569954
-5.377193 -4.486887 -0.199005 1647 0.782445 0.252271 -0.538256
-5.376179 -4.486023 -0.196821 1661 0.797032 0.264703 -0.506832
-5.375098 -4.485111 -0.194627 1677 0.812585 0.277821 -0.475263
-5.374476 -4.484589 -0.192461 1681 0.821539 0.285334 -0.444098
-5.373739 -4.483955 -0.190284 1693 0.832146 0.294459 -0.412774
-5.373117 -4.483433 -0.188108 1701 0.841093 0.301972 -0.381465
-5.372716 -4.483085 -0.185951 1713 0.846863 0.306973 -0.350429
-5.371694 -4.482215 -0.183765 1725 0.861566 0.319495 -0.318976
-5.370229 -4.480981 -0.181564 1717 0.882650 0.337251 -0.287307
-5.369542 -4.480410 -0.179397 1723 0.892529 0.345463 -0.256127
-5.369919 -4.480711 -0.177255 1735 0.887109 0.341134 -0.225307
-5.370082 -4.480830 -0.175115 1741 0.884763 0.339419 -0.194515
-5.369560 -4.480392 -0.172949 1741 0.892276 0.345724 -0.163350
-5.368373 -4.479389 -0.170765 1743 0.909352 0.360153 -0.131925
-5.367687 -4.478804 -0.168598 1735 0.919219 0.368571 -0.100745
-5.368286 -4.479293 -0.166465 1749 0.910601 0.361539 -0.070055
-5.367884 -4.478946 -0.164306 1749 0.916385 0.366527 -0.038990
-5.367133 -4.478312 -0.162132 1747 0.927191 0.375652 -0.007709
-5.367297 -4.478432 -0.159990 1751 0.924831 0.373923 0.023111
-5.367553 -4.478642 -0.157848 1751 0.921147 0.370904 0.053931
-5.367094 -4.478238 -0.155691 1739 0.927754 0.376715 0.084967
-5.367922 -4.478922 -0.153566 1745 0.915843 0.366876 0.115542
-5.368464 -4.479370 -0.151434 1747 0.908042 0.360427 0.146219
-5.368899 -4.479712 -0.149292 1743 0.901785 0.355508 0.177039
-5.368711 -4.479546 -0.147142 1737 0.904488 0.357895 0.207974
-5.368353 -4.479241 -0.144985 1733 0.909641 0.362286 0.239010
-5.369117 -4.479862 -0.142851 1723 0.898649 0.353347 0.269715
-5.369887 -4.480491 -0.140726 1721 0.887569 0.344297 0.300291
-5.370600 -4.481078 -0.138591 1717 0.877305 0.335851 0.331010
-5.371698 -4.481985 -0.136467 1729 0.861511 0.322802 0.361571
-5.371791 -4.482049 -0.134327 1719 0.860173 0.321882 0.392363
-5.371939 -4.482169 -0.132175 1711 0.858039 0.320153 0.423327
-5.372989 -4.483027 -0.130048 1693 0.842931 0.307810 0.453931
-5.374023 -4.483887 -0.127924 1689 0.828057 0.295433 0.484492
-5.374729 -4.484467 -0.125789 1683 0.817896 0.287090 0.515211
-5.375778 -4.485325 -0.123665 1683 0.802802 0.274747 0.545773
-5.376706 -4.486094 -0.121528 1669 0.789450 0.263681 0.576521
-5.377475 -4.486722 -0.119394 1657 0.778390 0.254645 0.607226
-5.378674 -4.487713 -0.117267 1643 0.761135 0.240388 0.637830
-5.380509 -4.489228 -0.115158 1629 0.734734 0.218590 0.668175
-5.382172 -4.490602 -0.113029 1613 0.710803 0.198817 0.698808
-5.383942 -4.492068 -0.110908 1593 0.685335 0.177726 0.729326
-5.385655 -4.493492 -0.108789 1569 0.660690 0.157233 0.759816
-5.387361 -4.494908 -0.106670 1535 0.636142 0.136863 0.790305
-5.389695 -4.496841 -0.104557 1505 0.602558 0.109048 0.820708
-5.391808 -4.498585 -0.102436 1459 0.572157 0.083951 0.851226
-5.394757 -4.501034 -0.100330 1423 0.529728 0.048720 0.881528
-5.398098 -4.503810 -0.098230 1355 0.481654 0.008775 0.911744
-5.402332 -4.507333 -0.096138 1253 0.420735 -0.041914 0.941845
-5.395802 -4.499666 -0.219059 1399 0.514689 0.068397 -0.826803
-5.392152 -4.496605 -0.216760 1453 0.567210 0.112444 -0.793724
-5.389687 -4.494535 -0.214513 1493 0.602674 0.142228 -0.761393
-5.387829 -4.492973 -0.212284 1525 0.629411 0.164704 -0.729321
-5.385963 -4.491419 -0.210054 1557 0.656258 0.187064 -0.697235
-5.384670 -4.490325 -0.207851 1589 0.674865 0.202803 -0.665537
-5.383433 -4.489286 -0.205658 1607 0.692663 0.217753 -0.633983
-5.381239 -4.487439 -0.203420 1617 0.724230 0.244326 -0.601781
-5.379382 -4.485878 -0.201200 1633 0.750946 0.266789 -0.569839
-5.378138 -4.484833 -0.198997 1659 0.768847 0.281828 -0.538141
-5.376951 -4.483829 -0.196804 1659 0.785924 0.296270 -0.506587
-5.375886 -4.482931 -0.194620 1675 0.801251 0.309189 -0.475163
-5.374814 -4.482025 -0.192436 1679 0.816675 0.322225 -0.443738
-5.373734 -4.481112 -0.190242 1691 0.832215 0.335364 -0.412170
-5.373719 -4.481099 -0.188091 1707 0.832427 0.335549 -0.381220
-5.373718 -4.481086 -0.185941 1715 0.832448 0.335741 -0.350285
-5.372809 -4.480313 -0.183767 1717 0.845525 0.346863 -0.319004
-5.371559 -4.479261 -0.181574 1711 0.863508 0.361998 -0.287450
-5.371108 -4.478878 -0.179407 1721 0.869998 0.367508 -0.256271
-5.371435 -4.479130 -0.177274 1737 0.865291 0.363885 -0.225580
-5.371256 -4.478971 -0.175115 1741 0.867871 0.366170 -0.194515
-5.370004 -4.477919 -0.172933 1733 0.885881 0.381305 -0.163119
-5.369211 -4.477243 -0.170757 1745 0.897291 0.391034 -0.131810
-5.368917 -4.476986 -0.168598 1743 0.901524 0.394732 -0.100745
-5.368738 -4.476827 -0.166439 1749 0.904097 0.397017 -0.069681
-5.368601 -4.476710 -0.164291 1753 0.906073 0.398704 -0.038774
-5.368764 -4.476829 -0.162149 1757 0.903727 0.396989 -0.007954
-5.368977 -4.476998 -0.160009 1757 0.900660 0.394560 0.022837
-5.368726 -4.476782 -0.157850 1763 0.904275 0.397668 0.053902
-5.368718 -4.476762 -0.155700 1753 0.904385 0.397957 0.084837
-5.369031 -4.477015 -0.153568 1745 0.899884 0.394313 0.115514
-5.369744 -4.477601 -0.151434 1737 0.889627 0.385881 0.146219
-5.370071 -4.477853 -0.149292 1743 0.884921 0.382259 0.177039
-5.369435 -4.477317 -0.147136 1739 0.894073 0.389970 0.208060
-5.369698 -4.477520 -0.144994 1737 0.890286 0.387048 0.238880
-5.370511 -4.478191 -0.142860 1729 0.878588 0.377394 0.269586
-5.370946 -4.478548 -0.140728 1731 0.872331 0.372255 0.300262
-5.371381 -4.478890 -0.138586 1725 0.866073 0.367336 0.331082
-5.372143 -4.479526 -0.136461 1717 0.855110 0.358184 0.361657
-5.372963 -4.480189 -0.134327 1727 0.843309 0.348647 0.392363
-5.373456 -4.480587 -0.132194 1711 0.836215 0.342918 0.423053
-5.373926 -4.480979 -0.130050 1695 0.829450 0.337278 0.453902
-5.374689 -4.481601 -0.127916 1687 0.818472 0.328325 0.484607
-5.375352 -4.482139 -0.125784 1675 0.808935 0.320586 0.515283
-5.376558 -4.483138 -0.123657 1683 0.791584 0.306212 0.545888
-5.377550 -4.483954 -0.121532 1675 0.777306 0.294473 0.576463
-5.378534 -4.484765 -0.119396 1659 0.763152 0.282802 0.607197
-5.379855 -4.485847 -0.117279 1641 0.744140 0.267235 0.637657
-5.381517 -4.487221 -0.115160 1635 0.720230 0.247468 0.668147
-5.383288 -4.488687 -0.113041 1623 0.694748 0.226371 0.698636
-5.384551 -4.489741 -0.110912 1601 0.676574 0.211208 0.729269
-5.386207 -4.491109 -0.108783 1571 0.652745 0.191524 0.759902
-5.388598 -4.493083 -0.106670 1539 0.618345 0.163119 0.790305
-5.390875 -4.494974 -0.104559 1515 0.585584 0.135909 0.820679
-5.393038 -4.496768 -0.102445 1483 0.554462 0.110098 0.851096
-5.394916 -4.498324 -0.100315 1435 0.527437 0.087711 0.881744
-5.397750 -4.500675 -0.098209 1369 0.486662 0.053879 0.912046
-5.402098 -4.504295 -0.096117 1287 0.424097 0.001798 0.942147
-5.396913 -4.497885 -0.219059 1417 0.498703 0.094023 -0.826803
-5.393991 -4.495438 -0.216795 1463 0.540747 0.129233 -0.794227
-5.391283 -4.493172 -0.214531 1505 0.579710 0.161836 -0.761652
-5.389318 -4.491520 -0.212301 1533 0.607985 0.185610 -0.729566
-5.387124 -4.489687 -0.210064 1561 0.639552 0.211983 -0.697378
-5.384652 -4.487609 -0.207807 1581 0.675119 0.241883 -0.664904
-5.382680 -4.485965 -0.205589 1595 0.703496 0.265540 -0.632990
-5.381321 -4.484822 -0.203386 1613 0.723050 0.281986 -0.601292
-5.380428 -4.484062 -0.201200 1643 0.735900 0.292915 -0.569839
-5.378849 -4.482731 -0.198990 1659 0.758617 0.312071 -0.538040
-5.377212 -4.481358 -0.196779 1665 0.782171 0.331824 -0.506227
-5.376475 -4.480739 -0.194603 1679 0.792778 0.340729 -0.474918
-5.375903 -4.480251 -0.192436 1693 0.801004 0.347755 -0.443738
-5.375281 -4.479715 -0.190260 1707 0.809958 0.355467 -0.412429
-5.374708 -4.479228 -0.188093 1713 0.818198 0.362472 -0.381249
-5.373921 -4.478559 -0.185917 1715 0.829525 0.372098 -0.349940
-5.373178 -4.477932 -0.183740 1721 0.840215 0.381120 -0.318616
-5.372491 -4.477348 -0.181564 1717 0.850101 0.389525 -0.287307
-5.372261 -4.477153 -0.179416 1721 0.853408 0.392331 -0.256400
-5.371746 -4.476708 -0.177250 1733 0.860818 0.398732 -0.225235
-5.370945 -4.476026 -0.175073 1737 0.872344 0.408543 -0.193911
-5.371044 -4.476096 -0.172924 1751 0.870917 0.407535 -0.162990
-5.370864 -4.475937 -0.170774 1761 0.873511 0.409826 -0.132055
-5.370128 -4.475317 -0.168607 1761 0.884097 0.418745 -0.100875
-5.369720 -4.474963 -0.166441 1757 0.889970 0.423836 -0.069709
-5.369082 -4.474427 -0.164274 1759 0.899150 0.431548 -0.038530
-5.368731 -4.474113 -0.162115 1753 0.904200 0.436069 -0.007465
-5.369166 -4.474470 -0.159982 1759 0.897943 0.430930 0.023226
-5.369709 -4.474918 -0.157850 1761 0.890128 0.424488 0.053902
-5.369921 -4.475086 -0.155710 1759 0.887075 0.422066 0.084693
-5.369963 -4.475101 -0.153558 1757 0.886471 0.421853 0.115657
-5.369605 -4.474795 -0.151411 1759 0.891624 0.426258 0.146550
-5.369426 -4.474636 -0.149252 1747 0.894203 0.428543 0.177614
-5.370081 -4.475167 -0.147119 1735 0.884776 0.420907 0.208305
-5.370902 -4.475844 -0.144994 1735 0.872962 0.411164 0.238880
-5.371443 -4.476278 -0.142860 1737 0.865182 0.404921 0.269586
-5.371593 -4.476398 -0.140720 1737 0.863020 0.403192 0.300377
-5.371741 -4.476503 -0.138569 1723 0.860893 0.401682 0.331327
-5.372347 -4.476999 -0.136436 1723 0.852173 0.394547 0.362017
-5.373103 -4.477628 -0.134311 1711 0.841292 0.385490 0.392593
-5.373645 -4.478061 -0.132169 1709 0.833498 0.379261 0.423413
-5.374244 -4.478550 -0.130035 1699 0.824873 0.372228 0.454118
-5.375400 -4.479500 -0.127908 1695 0.808242 0.358561 0.484722
-5.376777 -4.480638 -0.125791 1699 0.788428 0.342184 0.515183
-5.377940 -4.481594 -0.123665 1695 0.771694 0.328428 0.545773
-5.378196 -4.481804 -0.121524 1675 0.768017 0.325409 0.576578
-5.378788 -4.482286 -0.119381 1659 0.759495 0.318472 0.607413
-5.380330 -4.483557 -0.117262 1637 0.737307 0.300181 0.637902
-5.382000 -4.484939 -0.115143 1633 0.713280 0.280298 0.668391
-5.383877 -4.486494 -0.113033 1619 0.686275 0.257924 0.698751
-5.385876 -4.488141 -0.110922 1597 0.657507 0.234227 0.729125
-5.387589 -4.489565 -0.108793 1577 0.632862 0.213740 0.759758
-5.389416 -4.491072 -0.106672 1551 0.606571 0.192052 0.790276
-5.391472 -4.492775 -0.104561 1525 0.576994 0.167552 0.820650
-5.393521 -4.494471 -0.102440 1487 0.547512 0.143147 0.851168
-5.395627 -4.496222 -0.100319 1437 0.517207 0.117954 0.881686
-5.399303 -4.499270 -0.098217 1383 0.464316 0.074098 0.911931
-5.403430 -4.502702 -0.096124 1315 0.404934 0.024713 0.942046
-5.407457 -4.506037 -0.094032 1203 0.346993 -0.023272 0.972147
-5.397333 -4.495667 -0.219043 1421 0.492659 0.125940 -0.826573
-5.394453 -4.493262 -0.216768 1471 0.534099 0.160547 -0.793839
-5.392159 -4.491330 -0.214521 1507 0.567107 0.188340 -0.761508
-5.389902 -4.489448 -0.212284 1541 0.599580 0.215421 -0.729321
-5.387651 -4.487559 -0.210037 1565 0.631970 0.242604 -0.696990
-5.385578 -4.485816 -0.207807 1585 0.661795 0.267681 -0.664904
-5.383207 -4.483837 -0.205570 1605 0.695915 0.296154 -0.632717
-5.381348 -4.482275 -0.203352 1613 0.722659 0.318630 -0.600803
-5.380447 -4.481523 -0.201166 1629 0.735626 0.329450 -0.569350
-5.379547 -4.480757 -0.198980 1643 0.748573 0.340469 -0.537897
-5.378638 -4.479983 -0.196796 1661 0.761656 0.351611 -0.506472
-5.377680 -4.479176 -0.194612 1675 0.775440 0.363220 -0.475048
-5.377222 -4.478786 -0.192444 1693 0.782027 0.368832 -0.443853
-5.376986 -4.478585 -0.190284 1713 0.785423 0.371727 -0.412774
-5.375798 -4.477581 -0.188091 1705 0.802514 0.386169 -0.381220
-5.374726 -4.476675 -0.185907 1709 0.817944 0.399205 -0.349796
-5.374040 -4.476091 -0.183731 1717 0.827810 0.407610 -0.318486
-5.373410 -4.475562 -0.181566 1725 0.836873 0.415219 -0.287335
-5.373116 -4.475305 -0.179407 1731 0.841106 0.418917 -0.256271
-5.372715 -4.474957 -0.177250 1741 0.846877 0.423925 -0.225235
-5.372372 -4.474665 -0.175090 1743 0.851810 0.428124 -0.194155
-5.371742 -4.474122 -0.172914 1747 0.860880 0.435939 -0.162846
-5.371169 -4.473634 -0.170757 1749 0.869120 0.442965 -0.131810
-5.370482 -4.473050 -0.168581 1753 0.879006 0.451362 -0.100501
-5.370410 -4.472981 -0.166431 1753 0.880042 0.452357 -0.069565
-5.370680 -4.473191 -0.164301 1755 0.876159 0.449338 -0.038918
-5.370379 -4.472941 -0.162141 1757 0.880488 0.452934 -0.007839
-5.370143 -4.472726 -0.159984 1755 0.883885 0.456028 0.023197
-5.370013 -4.472616 -0.157835 1761 0.885751 0.457606 0.054118
-5.369841 -4.472449 -0.155685 1757 0.888228 0.460014 0.085053
-5.369925 -4.472520 -0.153536 1745 0.887020 0.458992 0.115974
-5.369796 -4.472395 -0.151386 1753 0.888879 0.460789 0.146909
-5.370116 -4.472654 -0.149244 1753 0.884269 0.457064 0.177729
-5.370772 -4.473186 -0.147119 1747 0.874835 0.449407 0.208305
-5.371086 -4.473437 -0.144979 1723 0.870314 0.445798 0.239096
-5.372141 -4.474304 -0.142852 1725 0.855137 0.433318 0.269701
-5.373133 -4.475121 -0.140737 1737 0.840859 0.421565 0.300132
-5.373561 -4.475471 -0.138595 1733 0.834705 0.416529 0.330952
-5.373602 -4.475485 -0.136444 1723 0.834115 0.416330 0.361902
-5.374030 -4.475835 -0.134311 1715 0.827954 0.411294 0.392593
-5.374793 -4.476457 -0.132179 1713 0.816976 0.402341 0.423269
-5.375670 -4.477176 -0.130052 1709 0.804359 0.391994 0.453873
-5.376491 -4.477853 -0.127918 1703 0.792545 0.382259 0.484578
-5.377196 -4.478433 -0.125786 1691 0.782404 0.373909 0.515254
-5.378067 -4.479146 -0.123649 1681 0.769869 0.363652 0.546003
-5.378723 -4.479676 -0.121517 1671 0.760428 0.356029 0.576679
-5.379486 -4.480298 -0.119383 1663 0.749451 0.347076 0.607384
-5.380756 -4.481345 -0.117256 1641 0.731180 0.332009 0.637988
-5.382526 -4.482810 -0.115146 1633 0.705712 0.310932 0.668348
-5.384410 -4.484374 -0.113025 1617 0.678604 0.288428 0.698866
-5.385952 -4.485644 -0.110906 1595 0.656416 0.270157 0.729355
-5.387900 -4.487256 -0.108785 1577 0.628389 0.246960 0.759873
-5.390121 -4.489091 -0.106674 1553 0.596431 0.220559 0.790247
-5.392112 -4.490745 -0.104553 1531 0.567786 0.196759 0.820765
-5.394112 -4.492392 -0.102432 1499 0.539004 0.173061 0.851283
-5.396495 -4.494373 -0.100319 1449 0.504720 0.144561 0.881686
-5.400065 -4.497331 -0.098219 1403 0.453352 0.101995 0.911902
-5.404257 -4.500812 -0.096126 1327 0.393037 0.051910 0.942017
-5.408434 -4.504279 -0.094032 1215 0.332935 0.002024 0.972147
-5.398029 -4.493566 -0.219024 1433 0.482648 0.156169 -0.826299
-5.395106 -4.491118 -0.216751 1477 0.524706 0.191394 -0.793594
-5.392463 -4.488915 -0.214496 1505 0.562730 0.223091 -0.761148
-5.390320 -4.487116 -0.212257 1543 0.593570 0.248978 -0.728932
-5.388233 -4.485374 -0.210020 1569 0.623593 0.274041 -0.696746
-5.386553 -4.483959 -0.207809 1599 0.647771 0.294397 -0.664932
-5.384524 -4.482258 -0.205579 1617 0.676965 0.318877 -0.632846
-5.382658 -4.480703 -0.203359 1619 0.703812 0.341251 -0.600904
-5.381644 -4.479840 -0.201166 1637 0.718405 0.353669 -0.569350
-5.380465 -4.478844 -0.198972 1657 0.735365 0.367995 -0.537781
-5.379442 -4.477987 -0.196788 1677 0.750082 0.380331 -0.506357
-5.378934 -4.477549 -0.194620 1681 0.757396 0.386629 -0.475163
-5.378369 -4.477068 -0.192444 1695 0.765526 0.393552 -0.443853
-5.377518 -4.476351 -0.190269 1711 0.777766 0.403871 -0.412558
-5.376552 -4.475536 -0.188083 1709 0.791666 0.415596 -0.381105
-5.375916 -4.475000 -0.185917 1719 0.800819 0.423308 -0.349940
-5.375129 -4.474331 -0.183742 1729 0.812139 0.432934 -0.318645
-5.374278 -4.473614 -0.181556 1731 0.824386 0.443246 -0.287191
-5.373763 -4.473169 -0.179399 1733 0.831796 0.449654 -0.256155
-5.373190 -4.472681 -0.177232 1737 0.840043 0.456673 -0.224976
-5.372561 -4.472153 -0.175066 1743 0.849093 0.464268 -0.193810
-5.372096 -4.471756 -0.172899 1755 0.855782 0.469983 -0.162630
-5.371802 -4.471498 -0.170740 1757 0.860015 0.473695 -0.131565
-5.371451 -4.471200 -0.168583 1765 0.865065 0.477983 -0.100530
-5.371671 -4.471362 -0.166441 1767 0.861895 0.475650 -0.069709
-5.372042 -4.471670 -0.164308 1761 0.856557 0.471218 -0.039019
-5.372369 -4.471921 -0.162166 1763 0.851858 0.467609 -0.008199
-5.372525 -4.472048 -0.160026 1763 0.849607 0.465784 0.022593
-5.372003 -4.471595 -0.157859 1767 0.857120 0.472302 0.053773
-5.371080 -4.470823 -0.155685 1757 0.870403 0.483410 0.085053
-5.371072 -4.470803 -0.153545 1757 0.870519 0.483698 0.115844
-5.371107 -4.470824 -0.151394 1751 0.870012 0.483396 0.146794
-5.371370 -4.471027 -0.149254 1747 0.866231 0.480473 0.177586
-5.372083 -4.471614 -0.147129 1741 0.855967 0.472028 0.208161
-5.372568 -4.472006 -0.144987 1725 0.848990 0.466388 0.238981
-5.373174 -4.472503 -0.142862 1725 0.840269 0.459232 0.269557
-5.374215 -4.473354 -0.140737 1733 0.825292 0.446992 0.300132
-5.374879 -4.473892 -0.138603 1733 0.815741 0.439246 0.330837
-5.374742 -4.473775 -0.136455 1731 0.817711 0.440934 0.361744
-5.375005 -4.473978 -0.134313 1725 0.813930 0.438011 0.392564
-5.375711 -4.474558 -0.132179 1709 0.803769 0.429668 0.423269
-5.376481 -4.475186 -0.130045 1705 0.792689 0.420632 0.453974
-5.377295 -4.475857 -0.127920 1699 0.780977 0.410979 0.484550
-5.378229 -4.476618 -0.125786 1685 0.767536 0.400029 0.515254
-5.378992 -4.477239 -0.123651 1669 0.756559 0.391089 0.545974
-5.379527 -4.477680 -0.121519 1667 0.748861 0.384742 0.576650
-5.380340 -4.478350 -0.119384 1659 0.737163 0.375103 0.607370
-5.381446 -4.479250 -0.117258 1645 0.721252 0.362156 0.637960
-5.383444 -4.480912 -0.115146 1629 0.692505 0.338239 0.668348
-5.385900 -4.482934 -0.113043 1623 0.657164 0.309148 0.698607
-5.387556 -4.484303 -0.110914 1611 0.633336 0.289450 0.729240
-5.388825 -4.485350 -0.108787 1589 0.615079 0.274384 0.759845
-5.390817 -4.487003 -0.106666 1561 0.586414 0.250604 0.790363
-5.392759 -4.488608 -0.104555 1531 0.558476 0.227510 0.820737
-5.395315 -4.490716 -0.102441 1505 0.521694 0.197177 0.851154
-5.397699 -4.492697 -0.100328 1449 0.487396 0.168677 0.881557
-5.400426 -4.494957 -0.098213 1409 0.448158 0.136156 0.911988
-5.404503 -4.498341 -0.096121 1339 0.389497 0.087464 0.942089
-5.408466 -4.501626 -0.094019 1223 0.332476 0.040198 0.972334
-5.399174 -4.491734 -0.219026 1441 0.466168 0.182529 -0.826328
-5.396302 -4.489336 -0.216751 1477 0.507492 0.217033 -0.793594
-5.394001 -4.487411 -0.214513 1515 0.540603 0.244731 -0.761393
-5.391408 -4.485244 -0.212259 1543 0.577913 0.275914 -0.728961
-5.389435 -4.483585 -0.210029 1567 0.606304 0.299783 -0.696875
-5.388091 -4.482456 -0.207817 1601 0.625638 0.316023 -0.665048
-5.386620 -4.481229 -0.205614 1619 0.646804 0.333683 -0.633350
-5.385375 -4.480185 -0.203411 1633 0.664718 0.348702 -0.601652
-5.384253 -4.479229 -0.201217 1659 0.680862 0.362458 -0.570083
-5.382838 -4.478045 -0.199016 1677 0.701225 0.379494 -0.538415
-5.381208 -4.476679 -0.196804 1685 0.724676 0.399150 -0.506587
-5.379958 -4.475627 -0.194612 1685 0.742658 0.414286 -0.475048
-5.379049 -4.474868 -0.192436 1691 0.755742 0.425208 -0.443738
-5.378713 -4.474569 -0.190269 1711 0.760572 0.429510 -0.412558
-5.378198 -4.474137 -0.188101 1713 0.767982 0.435726 -0.381364
