507
-13.083069 -10.997229 -0.159790 691 0.716669 -0.597398 -0.296018
-13.079746 -10.994419 -0.154511 735 0.764476 -0.556973 -0.220062
-13.079068 -10.993821 -0.149254 743 0.774233 -0.548370 -0.144421
-13.080852 -10.995292 -0.144024 731 0.748573 -0.569529 -0.069169
-13.083464 -10.997472 -0.138798 691 0.710988 -0.600897 0.006025
-13.085624 -10.991932 -0.175551 713 0.679908 -0.521186 -0.522795
-13.077661 -10.985226 -0.170206 817 0.794486 -0.424694 -0.445889
-13.074186 -10.982274 -0.164927 881 0.844475 -0.382224 -0.369932
-13.071771 -10.980221 -0.159651 903 0.879233 -0.352681 -0.294018
-13.070352 -10.979011 -0.154398 921 0.899651 -0.335268 -0.218436
-13.069565 -10.978323 -0.149143 923 0.910972 -0.325374 -0.142824
-13.070729 -10.979268 -0.143917 917 0.894217 -0.338973 -0.067630
-13.073166 -10.981297 -0.138693 897 0.859158 -0.368159 0.007535
-13.074783 -10.982624 -0.133463 871 0.835885 -0.387260 0.082787
-13.077451 -10.984844 -0.128248 817 0.797505 -0.419205 0.157823
-13.086672 -10.992567 -0.123076 715 0.664828 -0.530325 0.232241
-13.094378 -10.992385 -0.186144 679 0.553941 -0.527704 -0.675213
-13.079423 -10.979802 -0.180699 821 0.769128 -0.346657 -0.596867
-13.075273 -10.976297 -0.175413 909 0.828846 -0.296229 -0.520810
-13.072408 -10.973863 -0.170128 947 0.870067 -0.261197 -0.444767
-13.070945 -10.972610 -0.164877 989 0.891116 -0.243180 -0.369213
-13.069650 -10.971501 -0.159615 1007 0.909750 -0.227221 -0.293500
-13.068011 -10.970096 -0.154364 1007 0.933325 -0.206995 -0.217947
-13.068110 -10.970160 -0.149124 1015 0.931898 -0.207915 -0.142551
-13.068934 -10.970825 -0.143889 1005 0.920042 -0.217493 -0.067227
-13.069149 -10.970972 -0.138647 1007 0.916954 -0.219606 0.008197
-13.070199 -10.971834 -0.133421 979 0.901847 -0.232010 0.083392
-13.072642 -10.973857 -0.128199 941 0.866691 -0.261115 0.158528
-13.075871 -10.976548 -0.122980 905 0.820229 -0.299838 0.233622
-13.080334 -10.980264 -0.117775 829 0.756024 -0.353299 0.308514
-13.090221 -10.988544 -0.112599 695 0.613755 -0.472446 0.382989
-13.089498 -10.981495 -0.191301 755 0.624170 -0.371014 -0.749414
-13.079805 -10.973341 -0.185927 879 0.763626 -0.253691 -0.672090
-13.075213 -10.969460 -0.180634 937 0.829697 -0.197843 -0.595932
-13.071898 -10.966659 -0.175352 985 0.877394 -0.157542 -0.519932
-13.070661 -10.965590 -0.170090 1037 0.895205 -0.142159 -0.444220
-13.069473 -10.964568 -0.164837 1053 0.912289 -0.127463 -0.368637
-13.067569 -10.962940 -0.159578 1059 0.939692 -0.104040 -0.292968
-13.066431 -10.961967 -0.154335 1073 0.956062 -0.090043 -0.217529
-13.066820 -10.962263 -0.149092 1069 0.950463 -0.094297 -0.142090
-13.067194 -10.962560 -0.143860 1067 0.945084 -0.098565 -0.066810
-13.067801 -10.963033 -0.138626 1071 0.936344 -0.105371 0.008500
-13.069186 -10.964169 -0.133398 1045 0.916419 -0.121714 0.083723
-13.070619 -10.965352 -0.128170 1027 0.895809 -0.138742 0.158946
-13.072729 -10.967101 -0.122948 989 0.865442 -0.163908 0.234082
-13.076074 -10.969874 -0.117739 941 0.817319 -0.203812 0.309032
-13.080420 -10.973495 -0.112524 855 0.754789 -0.255900 0.384068
-13.087461 -10.979373 -0.107334 739 0.653466 -0.340482 0.458744
-13.089467 -10.974742 -0.196524 757 0.624609 -0.273849 -0.824565
-13.081339 -10.967907 -0.191170 899 0.741561 -0.175504 -0.747529
-13.076515 -10.963836 -0.185867 965 0.810966 -0.116925 -0.671227
-13.073599 -10.961369 -0.180594 1027 0.852928 -0.081426 -0.595357
-13.071577 -10.959643 -0.175326 1069 0.882018 -0.056603 -0.519558
-13.070223 -10.958492 -0.170073 1101 0.901504 -0.040041 -0.443975
-13.068201 -10.956770 -0.164814 1107 0.930594 -0.015259 -0.368306
-13.066564 -10.955366 -0.159554 1113 0.954155 0.004940 -0.292623
-13.065827 -10.954726 -0.154308 1107 0.964748 0.014147 -0.217141
-13.066091 -10.954920 -0.149077 1113 0.960961 0.011362 -0.141874
-13.066365 -10.955121 -0.143845 1111 0.957009 0.008466 -0.066594
-13.067298 -10.955889 -0.138611 1109 0.943589 -0.002580 0.008715
-13.069416 -10.957631 -0.133398 1101 0.913112 -0.027650 0.083723
-13.070457 -10.958487 -0.128172 1073 0.898128 -0.039958 0.158917
-13.071564 -10.959390 -0.122936 1041 0.882210 -0.052953 0.234255
-13.073674 -10.961126 -0.117714 1007 0.851844 -0.077941 0.309392
-13.076685 -10.963628 -0.112497 955 0.808524 -0.113933 0.384456
-13.082259 -10.968277 -0.107294 883 0.728319 -0.180828 0.459320
-13.089692 -10.974483 -0.102102 755 0.621370 -0.270116 0.534025
-13.094507 -10.972631 -0.201822 709 0.552088 -0.243482 -0.900795
-13.084475 -10.964199 -0.196440 885 0.696443 -0.122153 -0.823357
-13.079766 -10.960223 -0.191126 971 0.764188 -0.064946 -0.746896
-13.076002 -10.957052 -0.185839 1023 0.818349 -0.019320 -0.670824
-13.073311 -10.954768 -0.180563 1063 0.857072 0.013544 -0.594911
-13.071624 -10.953331 -0.175314 1107 0.881346 0.034222 -0.519385
-13.069935 -10.951896 -0.170054 1119 0.905648 0.054874 -0.443702
-13.068080 -10.950315 -0.164793 1131 0.932337 0.077611 -0.368004
-13.067285 -10.949619 -0.159548 1147 0.943781 0.087628 -0.292536
-13.066939 -10.949308 -0.154310 1141 0.948748 0.092102 -0.217170
-13.066638 -10.949039 -0.149073 1155 0.953084 0.095971 -0.141817
-13.067020 -10.949327 -0.143839 1151 0.947582 0.091827 -0.066508
-13.067394 -10.949624 -0.138607 1133 0.942203 0.087560 0.008773
-13.068728 -10.950713 -0.133381 1133 0.923006 0.071889 0.083967
-13.070336 -10.952032 -0.128161 1111 0.899871 0.052912 0.159075
-13.072395 -10.953733 -0.122940 1099 0.870245 0.028432 0.234197
-13.074331 -10.955332 -0.117718 1065 0.842389 0.005434 0.309334
-13.077276 -10.957786 -0.112501 1021 0.800016 -0.029873 0.384399
-13.080671 -10.960608 -0.107283 969 0.751166 -0.070476 0.459478
-13.085701 -10.964787 -0.102074 877 0.678797 -0.130605 0.534428
-13.096996 -10.974226 -0.096899 711 0.516274 -0.266425 0.608888
-13.090716 -10.962136 -0.201738 847 0.606633 -0.092472 -0.899587
-13.084091 -10.956564 -0.196406 951 0.701959 -0.012295 -0.822867
-13.079948 -10.953064 -0.191109 1031 0.761567 0.038065 -0.746652
-13.076693 -10.950317 -0.185827 1079 0.808414 0.077584 -0.670652
-13.073545 -10.947659 -0.180546 1101 0.853696 0.115841 -0.594666
-13.071349 -10.945800 -0.175289 1121 0.885298 0.142585 -0.519026
-13.070168 -10.944783 -0.170036 1147 0.902299 0.157212 -0.443443
-13.068698 -10.943523 -0.164784 1163 0.923445 0.175339 -0.367875
-13.067860 -10.942789 -0.159538 1167 0.935506 0.185905 -0.292393
-13.067901 -10.942799 -0.154308 1175 0.934916 0.185768 -0.217141
-13.067664 -10.942576 -0.149071 1161 0.938320 0.188965 -0.141788
-13.067762 -10.942640 -0.143839 1171 0.936906 0.188045 -0.066508
-13.068697 -10.943395 -0.138605 1171 0.923459 0.177191 0.008802
-13.069753 -10.944250 -0.133389 1159 0.908268 0.164883 0.083852
-13.070068 -10.944491 -0.128147 1137 0.903727 0.161411 0.159276
-13.072288 -10.946330 -0.122934 1145 0.871796 0.134955 0.234284
-13.074913 -10.948496 -0.117720 1115 0.834019 0.103793 0.309305
-13.077807 -10.950901 -0.112503 1069 0.792373 0.069186 0.384370
-13.081878 -10.954272 -0.107290 1029 0.733808 0.020679 0.459377
-13.084823 -10.956713 -0.102074 951 0.691434 -0.014435 0.534428
-13.090460 -10.961411 -0.096861 837 0.610324 -0.082043 0.609435
-13.102635 -10.965356 -0.212381 787 0.435136 -0.138797 -1.052724
-13.097368 -10.960923 -0.207050 787 0.510922 -0.075018 -0.976018
-13.089072 -10.953959 -0.201689 919 0.630290 0.025180 -0.898882
-13.084304 -10.949941 -0.196386 997 0.698899 0.083004 -0.822580
-13.081157 -10.947283 -0.191103 1063 0.744182 0.121247 -0.746565
-13.077567 -10.944249 -0.185814 1105 0.795831 0.164896 -0.670464
-13.074368 -10.941557 -0.180542 1123 0.841868 0.203633 -0.594608
-13.072396 -10.939879 -0.175284 1153 0.870231 0.227770 -0.518954
-13.071217 -10.938865 -0.170031 1165 0.887205 0.242371 -0.443371
-13.070646 -10.938355 -0.164793 1181 0.895411 0.249698 -0.368004
-13.070027 -10.937814 -0.159548 1177 0.904317 0.257492 -0.292536
-13.069167 -10.937072 -0.154303 1193 0.916694 0.268168 -0.217069
-13.069156 -10.937035 -0.149073 1193 0.916858 0.268703 -0.141817
-13.069196 -10.937043 -0.143843 1187 0.916282 0.268579 -0.066565
-13.069352 -10.937149 -0.138601 1177 0.914032 0.267056 0.008859
-13.070010 -10.937670 -0.133377 1167 0.904564 0.259564 0.084025
-13.071844 -10.939188 -0.128157 1165 0.878176 0.237719 0.159133
-13.073793 -10.940786 -0.122936 1155 0.850129 0.214721 0.234255
-13.075119 -10.941867 -0.117720 1125 0.831055 0.199174 0.309305
-13.077454 -10.943801 -0.112496 1085 0.797464 0.171346 0.384471
-13.080683 -10.946480 -0.107277 1045 0.751001 0.132801 0.459564
-13.085312 -10.950323 -0.102072 1001 0.684395 0.077501 0.534456
-13.091111 -10.955158 -0.096869 915 0.600952 0.007931 0.609320
-13.103264 -10.965293 -0.091700 747 0.426093 -0.137892 0.683694
-13.105529 -10.960980 -0.212395 697 0.393504 -0.075841 -1.052925
-13.097572 -10.954294 -0.207031 837 0.507986 0.020363 -0.975745
-13.090281 -10.948177 -0.201683 951 0.612904 0.108376 -0.898795
-13.086137 -10.944678 -0.196386 1025 0.672526 0.158722 -0.822580
-13.081364 -10.940668 -0.191084 1071 0.741204 0.216422 -0.746292
-13.078783 -10.938474 -0.185808 1109 0.778335 0.247996 -0.670378
-13.077209 -10.937132 -0.180557 1145 0.800977 0.267303 -0.594824
-13.074512 -10.934855 -0.175284 1159 0.839796 0.300058 -0.518954
-13.072819 -10.933412 -0.170033 1177 0.864152 0.320833 -0.443400
-13.071573 -10.932350 -0.164789 1187 0.882073 0.336105 -0.367947
-13.069827 -10.930859 -0.159529 1191 0.907198 0.357566 -0.292263
-13.069424 -10.930491 -0.154291 1199 0.913002 0.362849 -0.216896
-13.070082 -10.931026 -0.149069 1195 0.903534 0.355151 -0.141759
-13.070971 -10.931738 -0.143843 1199 0.890746 0.344914 -0.066565
-13.071513 -10.932165 -0.138620 1195 0.882938 0.338767 0.008586
-13.072513 -10.932980 -0.133394 1187 0.868557 0.327049 0.083780
-13.073946 -10.934149 -0.128166 1191 0.847933 0.310225 0.159003
-13.075388 -10.935341 -0.122948 1179 0.827186 0.293073 0.234082
-13.077170 -10.936795 -0.117727 1149 0.801539 0.272147 0.309205
-13.079287 -10.938539 -0.112507 1115 0.771090 0.247063 0.384313
-13.082625 -10.941305 -0.107298 1091 0.723050 0.207256 0.459262
-13.086353 -10.944399 -0.102076 1029 0.669411 0.162742 0.534399
-13.090990 -10.948250 -0.096871 951 0.602695 0.107333 0.609291
-13.097690 -10.953835 -0.091662 827 0.506298 0.026977 0.684241
-13.105025 -10.953616 -0.212361 749 0.400749 0.030120 -1.052436
-13.097905 -10.947633 -0.207010 887 0.503197 0.116211 -0.975443
-13.092066 -10.942731 -0.201685 981 0.587216 0.186742 -0.898824
-13.086449 -10.938012 -0.196365 1041 0.668039 0.254638 -0.822277
-13.082299 -10.934520 -0.191071 1091 0.727743 0.304888 -0.746105
-13.079880 -10.932476 -0.185804 1113 0.762555 0.334294 -0.670321
-13.077639 -10.930574 -0.180536 1145 0.794802 0.361655 -0.594522
-13.076000 -10.929185 -0.175285 1177 0.818376 0.381648 -0.518968
-13.074423 -10.927837 -0.170035 1189 0.841072 0.401037 -0.443429
-13.073191 -10.926776 -0.164782 1201 0.858801 0.416310 -0.367846
-13.073058 -10.926648 -0.159554 1221 0.860708 0.418148 -0.292623
-13.072211 -10.925906 -0.154308 1221 0.872893 0.428824 -0.217141
-13.071641 -10.925410 -0.149071 1219 0.881099 0.435960 -0.141788
-13.072185 -10.925838 -0.143849 1213 0.873278 0.429798 -0.066652
-13.073407 -10.926837 -0.138620 1211 0.855686 0.415431 0.008586
-13.073565 -10.926941 -0.133391 1207 0.853422 0.413936 0.083823
-13.074438 -10.927639 -0.128166 1193 0.840853 0.403891 0.159003
-13.076838 -10.929620 -0.122952 1183 0.806328 0.375391 0.234025
-13.078724 -10.931172 -0.117731 1159 0.779186 0.353052 0.309147
-13.081168 -10.933197 -0.112517 1133 0.744017 0.323920 0.384169
-13.084846 -10.936242 -0.107306 1103 0.691105 0.280106 0.459147
-13.088415 -10.939199 -0.102097 1051 0.639744 0.237554 0.534097
-13.091990 -10.942163 -0.096876 995 0.588300 0.194906 0.609219
-13.097630 -10.946846 -0.091673 885 0.507163 0.127532 0.684082
-13.106071 -10.947556 -0.212345 799 0.385696 0.117323 -1.052206
-13.099626 -10.942141 -0.207003 921 0.478443 0.195236 -0.975342
-13.094075 -10.937483 -0.201685 1013 0.558304 0.262254 -0.898824
-13.089804 -10.933890 -0.196388 1067 0.619765 0.313944 -0.822608
-13.086045 -10.930727 -0.191101 1099 0.673843 0.359460 -0.746536
-13.082449 -10.927700 -0.185822 1133 0.725588 0.403013 -0.670579
-13.079582 -10.925280 -0.180548 1153 0.766836 0.437839 -0.594695
-13.078003 -10.923930 -0.175297 1183 0.789560 0.457256 -0.519141
-13.076883 -10.922972 -0.170042 1199 0.805670 0.471047 -0.443529
-13.075812 -10.922048 -0.164799 1229 0.821079 0.484343 -0.368090
-13.075127 -10.921455 -0.159563 1229 0.830945 0.492864 -0.292752
-13.074273 -10.920720 -0.154318 1221 0.843226 0.503444 -0.217285
-13.074422 -10.920819 -0.149086 1239 0.841086 0.502017 -0.142004
-13.075871 -10.922003 -0.143870 1249 0.820229 0.484988 -0.066954
-13.075912 -10.922013 -0.138638 1215 0.819638 0.484837 0.008327
-13.076571 -10.922533 -0.133415 1201 0.810157 0.477359 0.083478
-13.077903 -10.923621 -0.128187 1207 0.791001 0.461702 0.158701
-13.079110 -10.924605 -0.122971 1185 0.773629 0.447541 0.233751
-13.081453 -10.926533 -0.117758 1169 0.739914 0.419809 0.308759
-13.084354 -10.928931 -0.112541 1145 0.698172 0.385298 0.383823
-13.087307 -10.931377 -0.107325 1121 0.655689 0.350101 0.458874
-13.090425 -10.933951 -0.102106 1071 0.610832 0.313066 0.533967
-13.094102 -10.936996 -0.096895 1011 0.557920 0.269252 0.608946
-13.099466 -10.941448 -0.091684 919 0.480734 0.205198 0.683924
-13.107522 -10.941839 -0.212340 863 0.364825 0.199572 -1.052133
-13.100670 -10.936095 -0.206999 927 0.463417 0.282219 -0.975285
-13.096238 -10.932364 -0.201695 1015 0.527183 0.335899 -0.898968
-13.091980 -10.928786 -0.196388 1087 0.588451 0.387384 -0.822608
-13.087765 -10.925247 -0.191103 1125 0.649102 0.438306 -0.746565
-13.084894 -10.922821 -0.185829 1153 0.690405 0.473215 -0.670680
-13.082654 -10.920919 -0.180561 1187 0.722638 0.500576 -0.594882
-13.080566 -10.919162 -0.175303 1201 0.752675 0.525866 -0.519227
-13.079155 -10.917957 -0.170052 1227 0.772984 0.543196 -0.443673
-13.078083 -10.917030 -0.164808 1235 0.788407 0.556534 -0.368220
-13.077296 -10.916344 -0.159573 1237 0.799728 0.566414 -0.292896
-13.076996 -10.916075 -0.154333 1239 0.804050 0.570284 -0.217500
-13.077769 -10.916692 -0.149109 1247 0.792922 0.561405 -0.142335
-13.078326 -10.917130 -0.143887 1251 0.784908 0.555093 -0.067198
-13.077857 -10.916718 -0.138649 1245 0.791659 0.561035 0.008169
-13.078238 -10.917006 -0.133417 1219 0.786184 0.556891 0.083449
-13.079957 -10.918415 -0.128197 1207 0.761444 0.536610 0.158557
-13.080947 -10.919222 -0.122982 1195 0.747200 0.525001 0.233593
-13.082672 -10.920638 -0.117762 1173 0.722377 0.504624 0.308701
-13.086575 -10.923867 -0.112549 1151 0.666227 0.458162 0.383708
-13.089643 -10.926409 -0.107342 1131 0.622084 0.421593 0.458629
-13.092485 -10.928752 -0.102116 1081 0.581179 0.387878 0.533823
-13.096505 -10.932077 -0.096903 1017 0.523341 0.340030 0.608831
-13.101077 -10.935867 -0.091698 931 0.457558 0.285499 0.683723
-13.111268 -10.944351 -0.086510 797 0.310925 0.163428 0.758370
-13.110367 -10.937281 -0.212355 895 0.323893 0.265163 -1.052349
-13.104199 -10.932111 -0.207020 939 0.412632 0.339549 -0.975587
-13.098184 -10.927071 -0.201695 1023 0.499190 0.412070 -0.898968
-13.093584 -10.923198 -0.196390 1071 0.565371 0.467794 -0.822637
-13.090836 -10.920887 -0.191116 1123 0.604918 0.501043 -0.746752
-13.088364 -10.918795 -0.185850 1157 0.640485 0.531149 -0.670982
-13.085885 -10.916710 -0.180584 1173 0.676148 0.561145 -0.595213
-13.083913 -10.915033 -0.175326 1209 0.704525 0.585268 -0.519558
-13.082051 -10.913460 -0.170067 1217 0.731310 0.607909 -0.443889
-13.081031 -10.912581 -0.164822 1221 0.745993 0.620547 -0.368421
-13.081079 -10.912599 -0.159592 1245 0.745307 0.620300 -0.293170
-13.080509 -10.912090 -0.154356 1247 0.753499 0.627614 -0.217831
-13.080156 -10.911771 -0.149128 1245 0.758576 0.632211 -0.142608
-13.080038 -10.911645 -0.143889 1241 0.760277 0.634022 -0.067227
-13.079511 -10.911190 -0.138651 1223 0.767866 0.640567 0.008140
-13.080788 -10.912224 -0.133434 1211 0.749492 0.625693 0.083205
-13.082577 -10.913686 -0.128214 1201 0.723750 0.604657 0.158313
-13.085245 -10.915893 -0.123009 1203 0.685356 0.572904 0.233205
-13.087479 -10.917730 -0.117787 1183 0.653219 0.546462 0.308341
-13.089196 -10.919139 -0.112566 1155 0.628506 0.526195 0.383464
-13.092264 -10.921668 -0.107359 1119 0.584362 0.489804 0.458384
-13.094599 -10.923587 -0.102137 1073 0.550771 0.462196 0.533521
-13.098392 -10.926729 -0.096924 1015 0.496199 0.416982 0.608528
-13.103872 -10.931275 -0.091713 937 0.417339 0.351570 0.683507
-13.113213 -10.939043 -0.086521 793 0.282946 0.239804 0.758212
-13.115080 -10.934150 -0.212391 867 0.256079 0.310212 -1.052867
-13.108108 -10.928320 -0.207050 957 0.356400 0.394094 -0.976018
-13.102499 -10.923620 -0.201733 1035 0.437098 0.461716 -0.899515
-13.098510 -10.920266 -0.196436 1075 0.494497 0.509976 -0.823299
-13.094860 -10.917192 -0.191147 1111 0.547011 0.554201 -0.747198
-13.091939 -10.914731 -0.185873 1139 0.589041 0.589618 -0.671313
-13.089743 -10.912885 -0.180615 1183 0.620643 0.616183 -0.595659
-13.087938 -10.911352 -0.175356 1219 0.646605 0.638235 -0.519990
-13.086251 -10.909915 -0.170105 1217 0.670879 0.658913 -0.444436
-13.084889 -10.908756 -0.164852 1219 0.690474 0.675586 -0.368853
-13.084211 -10.908159 -0.159617 1237 0.700230 0.684176 -0.293529
-13.084417 -10.908311 -0.154387 1259 0.697266 0.681994 -0.218277
-13.084465 -10.908328 -0.149155 1251 0.696580 0.681747 -0.142997
-13.084455 -10.908290 -0.143925 1249 0.696731 0.682296 -0.067745
-13.084663 -10.908443 -0.138695 1237 0.693726 0.680086 0.007507
-13.085886 -10.909428 -0.133467 1225 0.676135 0.665925 0.082730
-13.086601 -10.910004 -0.128245 1211 0.665843 0.657637 0.157867
-13.087585 -10.910805 -0.123018 1195 0.651682 0.646111 0.233075
-13.089594 -10.912445 -0.117808 1171 0.622784 0.622509 0.308039
-13.091710 -10.914187 -0.112585 1145 0.592335 0.597439 0.383190
-13.094887 -10.916803 -0.107376 1113 0.546627 0.559800 0.458140
-13.097948 -10.919338 -0.102160 1075 0.502580 0.523327 0.533190
-13.102191 -10.922848 -0.096945 1023 0.441531 0.472830 0.608226
-13.108063 -10.927722 -0.091742 945 0.357045 0.402698 0.683089
-13.116852 -10.935024 -0.086542 809 0.230583 0.297629 0.757910
-13.117779 -10.929659 -0.212406 873 0.217246 0.374828 -1.053083
-13.111430 -10.924346 -0.207073 967 0.308593 0.451273 -0.976349
-13.105873 -10.919683 -0.201754 1029 0.388550 0.518360 -0.899817
-13.101374 -10.915918 -0.196449 1061 0.453290 0.572534 -0.823486
-13.097895 -10.912988 -0.191170 1111 0.503348 0.614701 -0.747529
-13.095481 -10.910951 -0.185904 1141 0.538078 0.644011 -0.671759
-13.093443 -10.909225 -0.180636 1173 0.567402 0.668834 -0.595961
-13.091356 -10.907469 -0.175377 1185 0.597426 0.694110 -0.520292
-13.089785 -10.906127 -0.170126 1211 0.620039 0.713417 -0.444738
-13.088758 -10.905256 -0.164881 1223 0.634804 0.725945 -0.369270
-13.087803 -10.904426 -0.159638 1217 0.648553 0.737897 -0.293831
-13.087620 -10.904252 -0.154408 1229 0.651188 0.740394 -0.218579
-13.088224 -10.904725 -0.149185 1251 0.642488 0.733588 -0.143429
-13.088206 -10.904694 -0.143946 1229 0.642749 0.734041 -0.068047
-13.088928 -10.905262 -0.138722 1223 0.632362 0.725863 0.007118
-13.089529 -10.905744 -0.133497 1219 0.623717 0.718933 0.082298
-13.090468 -10.906503 -0.128273 1201 0.610201 0.708011 0.157464
-13.092470 -10.908137 -0.123051 1195 0.581398 0.684491 0.232600
-13.094536 -10.909832 -0.117840 1175 0.551677 0.660107 0.307579
-13.096413 -10.911376 -0.112620 1149 0.524672 0.637891 0.382687
-13.098531 -10.913118 -0.107397 1107 0.494195 0.612822 0.457838
-13.101482 -10.915551 -0.102181 1063 0.451726 0.577817 0.532888
-13.106400 -10.919626 -0.096972 999 0.380976 0.519183 0.607838
-13.112163 -10.924398 -0.091770 929 0.298054 0.450518 0.682687
-13.121301 -10.931988 -0.086578 789 0.166571 0.341319 0.757392
-13.120126 -10.926609 -0.212423 827 0.183476 0.418711 -1.053328
-13.116311 -10.923405 -0.207125 955 0.238364 0.464817 -0.977097
-13.110078 -10.918186 -0.201790 1021 0.328050 0.539903 -0.900335
-13.105131 -10.914042 -0.196478 1079 0.399226 0.599525 -0.823903
-13.101307 -10.910830 -0.191191 1109 0.454251 0.645754 -0.747831
-13.098828 -10.908746 -0.185925 1141 0.489914 0.675737 -0.672062
-13.096916 -10.907125 -0.180666 1171 0.517427 0.699050 -0.596393
-13.095446 -10.905878 -0.175413 1195 0.538586 0.716998 -0.520810
-13.093759 -10.904442 -0.170164 1201 0.562860 0.737664 -0.445285
-13.091779 -10.902773 -0.164904 1209 0.591347 0.761677 -0.369601
-13.091776 -10.902740 -0.159674 1237 0.591388 0.762157 -0.294349
-13.091592 -10.902566 -0.154436 1231 0.594036 0.764655 -0.218983
-13.091080 -10.902112 -0.149199 1243 0.601405 0.771186 -0.143630
-13.090553 -10.901643 -0.143961 1223 0.608979 0.777938 -0.068263
-13.090485 -10.901565 -0.138733 1209 0.609967 0.779063 0.006960
-13.091259 -10.902182 -0.133509 1195 0.598825 0.770185 0.082126
-13.092591 -10.903269 -0.128281 1183 0.579656 0.754542 0.157349
-13.093917 -10.904349 -0.123062 1173 0.560582 0.738995 0.232442
-13.096601 -10.906556 -0.117848 1161 0.521969 0.707242 0.307464
-13.099276 -10.908754 -0.112633 1131 0.483479 0.675613 0.382500
-13.101893 -10.910914 -0.107418 1093 0.445812 0.644533 0.457536
-13.104794 -10.913299 -0.102202 1053 0.404083 0.610228 0.532586
-13.109037 -10.916808 -0.096987 997 0.343021 0.559731 0.607622
-13.114850 -10.921626 -0.091784 899 0.259386 0.490408 0.682485
-13.127916 -10.932485 -0.086611 747 0.071381 0.334170 0.756917
-13.127319 -10.924244 -0.212492 781 0.079971 0.452741 -1.054321
-13.122051 -10.919825 -0.207173 921 0.155771 0.516329 -0.977788
-13.115804 -10.914609 -0.201838 1015 0.245664 0.591374 -0.901026
-13.110689 -10.910319 -0.196528 1061 0.319254 0.653095 -0.824623
-13.106867 -10.907123 -0.191239 1091 0.374252 0.699091 -0.748522
-13.103995 -10.904696 -0.185965 1119 0.415569 0.734000 -0.672637
-13.101633 -10.902706 -0.180699 1161 0.449558 0.762638 -0.596867
-13.099713 -10.901093 -0.175440 1183 0.477180 0.785855 -0.521198
-13.098642 -10.900167 -0.170197 1179 0.492590 0.799165 -0.445759
-13.097847 -10.899487 -0.164950 1217 0.504034 0.808963 -0.370263
-13.096945 -10.898706 -0.159716 1223 0.517015 0.820187 -0.294954
-13.096200 -10.898059 -0.154471 1223 0.527732 0.829505 -0.219486
-13.095282 -10.897279 -0.149225 1221 0.540946 0.840729 -0.144004
-13.095271 -10.897240 -0.143995 1197 0.541097 0.841292 -0.068752
-13.096045 -10.897857 -0.138771 1191 0.529969 0.832414 0.006413
-13.097159 -10.898752 -0.133545 1187 0.513928 0.819529 0.081608
-13.097868 -10.899323 -0.128321 1179 0.503732 0.811309 0.156773
-13.099542 -10.900688 -0.123100 1163 0.479650 0.791673 0.231895
-13.101542 -10.902336 -0.117880 1141 0.450862 0.767962 0.307003
-13.104326 -10.904625 -0.112675 1129 0.410807 0.735029 0.381895
-13.107852 -10.907526 -0.107454 1099 0.360077 0.693287 0.457018
-13.110135 -10.909397 -0.102242 1041 0.327227 0.666364 0.532010
-13.113929 -10.912539 -0.097019 969 0.272641 0.621164 0.607161
-13.120590 -10.918047 -0.091822 875 0.176793 0.541907 0.681938
-13.137813 -10.925917 -0.212626 665 -0.071011 0.428673 -1.056249
-13.128377 -10.918046 -0.207239 899 0.064754 0.541920 -0.978738
-13.120278 -10.911281 -0.201876 985 0.181280 0.639264 -0.901572
-13.114940 -10.906821 -0.196566 1031 0.258096 0.703427 -0.825170
-13.112134 -10.904456 -0.191292 1079 0.298466 0.737458 -0.749285
-13.109255 -10.902037 -0.186009 1115 0.339892 0.772270 -0.673270
-13.106841 -10.900000 -0.180742 1145 0.374622 0.801580 -0.597486
-13.104245 -10.897819 -0.175476 1151 0.411974 0.832963 -0.521716
-13.103117 -10.896852 -0.170233 1177 0.428207 0.846877 -0.446277
-13.102881 -10.896631 -0.164993 1191 0.431596 0.850046 -0.370882
-13.101187 -10.895201 -0.159744 1205 0.455980 0.870629 -0.295356
-13.099710 -10.893947 -0.154492 1199 0.477221 0.888674 -0.219788
-13.099198 -10.893493 -0.149256 1191 0.484590 0.895205 -0.144450
-13.099856 -10.894014 -0.144032 1179 0.475122 0.887699 -0.069285
-13.101188 -10.895102 -0.138815 1171 0.455966 0.872056 0.005780
-13.101852 -10.895629 -0.133581 1177 0.446402 0.864468 0.081090
-13.102112 -10.895817 -0.128349 1161 0.442670 0.861765 0.156370
-13.104066 -10.897422 -0.123139 1151 0.414553 0.838671 0.231334
-13.106402 -10.899328 -0.117914 1121 0.380935 0.811241 0.306514
-13.108809 -10.901303 -0.112702 1097 0.346300 0.782823 0.381507
-13.111877 -10.903831 -0.107483 1057 0.302157 0.746459 0.456600
-13.115228 -10.906596 -0.102274 1015 0.253952 0.706666 0.531550
-13.120147 -10.910657 -0.097057 951 0.183174 0.648238 0.606615
-13.127883 -10.917067 -0.091864 839 0.071862 0.556013 0.681334
-13.127909 -10.910699 -0.201964 931 0.071491 0.647634 -0.902839
-13.121881 -10.905674 -0.196638 1007 0.158228 0.719935 -0.826205
-13.118114 -10.902517 -0.191340 1061 0.212416 0.765355 -0.749975
-13.114962 -10.899866 -0.186068 1085 0.257780 0.803501 -0.674119
-13.112089 -10.897453 -0.180794 1123 0.299111 0.838218 -0.598234
-13.109612 -10.895370 -0.175528 1147 0.334747 0.868200 -0.522465
-13.108707 -10.894587 -0.170282 1145 0.347769 0.879466 -0.446983
-13.107853 -10.893852 -0.165037 1171 0.360064 0.890032 -0.371515
-13.106668 -10.892845 -0.159784 1179 0.377106 0.904522 -0.295932
-13.105307 -10.891688 -0.154543 1179 0.396701 0.921167 -0.220522
-13.104157 -10.890717 -0.149300 1179 0.413236 0.935150 -0.145083
-13.105438 -10.891756 -0.144072 1191 0.394807 0.920193 -0.069860
-13.106277 -10.892422 -0.138847 1177 0.382732 0.910615 0.005320
-13.107275 -10.893221 -0.133621 1185 0.368379 0.899116 0.080514
-13.108767 -10.894445 -0.128403 1165 0.346918 0.881497 0.155593
-13.109715 -10.895197 -0.123179 1129 0.333265 0.870684 0.230759
-13.111490 -10.896646 -0.117958 1111 0.307728 0.849840 0.305881
-13.113993 -10.898710 -0.112734 1073 0.271722 0.820132 0.381046
-13.116792 -10.901011 -0.107517 1033 0.231448 0.787021 0.456111
-13.120482 -10.904042 -0.102306 981 0.178344 0.743413 0.531089
-13.125960 -10.908575 -0.097096 893 0.099525 0.678193 0.606053
-13.136058 -10.916944 -0.091919 769 -0.045763 0.557783 0.680543
-13.135779 -10.910592 -0.202049 881 -0.041756 0.649171 -0.904062
-13.127513 -10.903696 -0.196686 959 0.077186 0.748394 -0.826896
-13.121942 -10.899047 -0.191378 1023 0.157349 0.815289 -0.750522
-13.118789 -10.896409 -0.186096 1073 0.202714 0.853244 -0.674522
-13.117267 -10.895115 -0.180834 1101 0.224614 0.871864 -0.598810
-13.115013 -10.893215 -0.175577 1139 0.257039 0.899198 -0.523169
-13.113093 -10.891601 -0.170319 1155 0.284662 0.922430 -0.447515
-13.111681 -10.890396 -0.165066 1153 0.304984 0.939760 -0.371932
-13.110880 -10.889710 -0.159821 1159 0.316510 0.949626 -0.296465
-13.110536 -10.889400 -0.154583 1169 0.321464 0.954100 -0.221098
-13.110241 -10.889122 -0.149344 1169 0.325704 0.958093 -0.145716
-13.110499 -10.889322 -0.144114 1173 0.321985 0.955211 -0.070464
-13.111446 -10.890075 -0.138888 1163 0.308359 0.944385 0.004730
-13.112780 -10.891163 -0.133659 1155 0.289176 0.928728 0.079967
-13.113553 -10.891780 -0.128435 1143 0.278048 0.919850 0.155133
-13.115335 -10.893235 -0.123217 1125 0.252401 0.898910 0.230212
-13.117344 -10.894876 -0.117994 1095 0.223503 0.875308 0.305363
-13.119684 -10.896788 -0.112772 1055 0.189829 0.847796 0.380500
-13.123269 -10.899745 -0.107561 1019 0.138248 0.805244 0.455478
-13.127853 -10.903519 -0.102356 943 0.072287 0.750946 0.530370
-13.134295 -10.908851 -0.097149 839 -0.020405 0.674227 0.605291
-13.135672 -10.903955 -0.196779 889 -0.040205 0.744662 -0.828234
-13.130427 -10.899585 -0.191469 975 0.035252 0.807549 -0.751831
-13.126380 -10.896191 -0.186173 1023 0.093488 0.856386 -0.675630
-13.122885 -10.893273 -0.180891 1061 0.143778 0.898361 -0.599630
-13.120964 -10.891644 -0.175623 1103 0.171414 0.921812 -0.523831
-13.119044 -10.890032 -0.170364 1129 0.199037 0.945002 -0.448162
-13.116564 -10.887945 -0.165108 1125 0.234727 0.975026 -0.372536
-13.115655 -10.887173 -0.159853 1125 0.247804 0.986140 -0.296925
-13.116035 -10.887461 -0.154631 1135 0.242329 0.981996 -0.221788
-13.116083 -10.887478 -0.149391 1153 0.241643 0.981749 -0.146392
-13.116406 -10.887712 -0.144159 1149 0.236991 0.978388 -0.071112
-13.117739 -10.888799 -0.138941 1139 0.217822 0.962745 0.003967
-13.119130 -10.889927 -0.133713 1147 0.197802 0.946512 0.079190
-13.119460 -10.890169 -0.128481 1119 0.193054 0.943026 0.154471
-13.120669 -10.891154 -0.123255 1077 0.175654 0.928851 0.229665
-13.123127 -10.893162 -0.118031 1045 0.140293 0.899967 0.304830
-13.126266 -10.895742 -0.112824 1019 0.095134 0.862835 0.379751
-13.130344 -10.899108 -0.107611 965 0.036445 0.814410 0.454759
-13.135777 -10.903586 -0.102400 901 -0.041728 0.749972 0.529737
-13.147231 -10.913065 -0.097235 769 -0.206529 0.613590 0.604053
-13.154862 -10.913108 -0.197012 785 -0.316332 0.612972 -0.831587
-13.139557 -10.900388 -0.191568 901 -0.096108 0.795996 -0.753256
-13.134144 -10.895874 -0.186249 967 -0.018223 0.860942 -0.676723
-13.130590 -10.892902 -0.180969 1011 0.032905 0.903699 -0.600752
-13.127676 -10.890449 -0.175686 1053 0.074839 0.939006 -0.524738
-13.126193 -10.889203 -0.170433 1091 0.096177 0.956926 -0.449155
-13.124554 -10.887814 -0.165173 1099 0.119765 0.976919 -0.373472
-13.122977 -10.886480 -0.159922 1107 0.142447 0.996103 -0.297918
-13.122233 -10.885835 -0.154677 1113 0.153150 1.005392 -0.222450
-13.121881 -10.885517 -0.149439 1111 0.158228 1.009962 -0.147083
-13.121419 -10.885109 -0.144201 1105 0.164869 1.015835 -0.071716
-13.121910 -10.885488 -0.138968 1111 0.157802 1.010387 0.003579
-13.123861 -10.887087 -0.133747 1091 0.129727 0.987375 0.078701
-13.126151 -10.888965 -0.128534 1077 0.096781 0.960357 0.153708
-13.128499 -10.890884 -0.123312 1047 0.062997 0.932735 0.228845
-13.130848 -10.892804 -0.118088 1023 0.029200 0.905112 0.304010
-13.133408 -10.894909 -0.112873 979 -0.007629 0.874828 0.379046
-13.137267 -10.898085 -0.107653 911 -0.063162 0.829134 0.454154
-13.144059 -10.903687 -0.102453 809 -0.160890 0.748531 0.528974
-13.159342 -10.909741 -0.191799 763 -0.380784 0.661411 -0.756580
-13.142168 -10.895486 -0.186337 883 -0.133679 0.866526 -0.677990
-13.137998 -10.892002 -0.181040 955 -0.073673 0.916653 -0.601774
-13.135295 -10.889733 -0.175764 1003 -0.034785 0.949297 -0.525860
-13.132750 -10.887600 -0.170488 1035 0.001839 0.979993 -0.449946
-13.131055 -10.886170 -0.165239 1055 0.026223 1.000562 -0.374421
-13.130652 -10.885804 -0.159990 1071 0.032013 1.005831 -0.298896
-13.130752 -10.885870 -0.154751 1077 0.030586 1.004885 -0.223515
-13.130466 -10.885600 -0.149511 1077 0.034689 1.008768 -0.148119
-13.129380 -10.884674 -0.144268 1079 0.050318 1.022092 -0.072680
-13.130037 -10.885196 -0.139034 1075 0.040864 1.014586 0.002629
-13.132002 -10.886795 -0.133814 1061 0.012597 0.991574 0.077737
-13.132992 -10.887589 -0.128578 1031 -0.001647 0.980144 0.153075
-13.134883 -10.889132 -0.123358 997 -0.028857 0.957956 0.228183
-13.137849 -10.891563 -0.118141 953 -0.071532 0.922965 0.303248
-13.141600 -10.894650 -0.112930 901 -0.125501 0.878547 0.378226
-13.149458 -10.901145 -0.107735 799 -0.238570 0.785100 0.452974
-13.150407 -10.895463 -0.181170 851 -0.252223 0.866856 -0.603644
-13.145228 -10.891141 -0.175860 925 -0.177713 0.929043 -0.527241
-13.142516 -10.888878 -0.170586 969 -0.138688 0.961606 -0.451357
-13.140590 -10.887259 -0.165325 1003 -0.110969 0.984905 -0.375659
-13.139128 -10.886019 -0.160074 1017 -0.089934 1.002744 -0.300105
-13.137592 -10.884712 -0.154814 1025 -0.067841 1.021543 -0.224421
-13.137189 -10.884359 -0.149565 1039 -0.062037 1.026620 -0.148896
-13.137506 -10.884601 -0.144333 1013 -0.066593 1.023148 -0.073616
-13.138395 -10.885314 -0.139099 1011 -0.079395 1.012884 0.001694
-13.139452 -10.886155 -0.133873 989 -0.094599 1.000782 0.076888
-13.140334 -10.886861 -0.128637 963 -0.107292 0.990627 0.152226
-13.143299 -10.889291 -0.123421 923 -0.149953 0.955664 0.227277
-13.148631 -10.893686 -0.118221 857 -0.226673 0.892420 0.302097
-13.157667 -10.901153 -0.113039 749 -0.356688 0.784991 0.376658
-13.161825 -10.898046 -0.176046 777 -0.416516 0.829697 -0.529918
-13.152303 -10.890134 -0.170691 865 -0.279502 0.943534 -0.452867
-13.148801 -10.887210 -0.165402 919 -0.229115 0.985605 -0.376767
-13.148168 -10.886668 -0.160154 947 -0.220004 0.993399 -0.301256
-13.147366 -10.885982 -0.154900 953 -0.208464 1.003279 -0.225659
-13.145663 -10.884544 -0.149639 959 -0.183970 1.023958 -0.149961
-13.144978 -10.883954 -0.144392 947 -0.174104 1.032452 -0.074464
-13.146883 -10.885498 -0.139172 925 -0.201520 1.010236 0.000643
-13.149283 -10.887466 -0.133949 913 -0.236058 0.981914 0.075795
-13.151238 -10.889057 -0.128727 871 -0.264188 0.959026 0.150931
-13.155331 -10.892423 -0.123514 793 -0.323069 0.910601 0.225938
-13.165187 -10.893284 -0.160324 723 -0.464885 0.898210 -0.303702
-13.161452 -10.890169 -0.155035 763 -0.411150 0.943026 -0.227601
-13.161275 -10.890001 -0.149786 783 -0.408598 0.945441 -0.152076
-13.161880 -10.890474 -0.144543 775 -0.417298 0.938635 -0.076637
-13.162880 -10.891274 -0.139307 743 -0.431692 0.927122 -0.001299
