788
3.538628 0.008257 0.085296 -298 -0.946405 0.155703 0.282974
3.547637 0.007949 0.136157 319 -0.950581 0.154184 0.269488
3.558854 0.007770 0.166290 1503 -0.953619 0.156047 0.257410
3.562597 0.007556 0.201799 1491 -0.956692 0.160554 0.242822
3.575030 0.007277 0.248695 1487 -0.959799 0.170308 0.223117
3.581272 0.007251 0.253517 -164 -0.960566 0.169977 0.220047
3.572825 0.007219 0.255883 -250 -0.961120 0.170075 0.217537
3.582574 0.007217 0.259550 -154 -0.960686 0.172634 0.217439
3.581025 0.007098 0.278315 1445 -0.962786 0.174694 0.206217
3.592300 0.006799 0.327890 1469 -0.965647 0.183747 0.183747
3.452247 0.008972 -0.132038 1503 -0.906415 0.200944 0.371529
3.476839 0.008739 -0.090201 151 -0.915099 0.195583 0.352620
3.476080 0.008632 -0.073318 1491 -0.919685 0.191897 0.342572
3.479248 0.008587 -0.065546 1485 -0.920121 0.191397 0.341678
3.486287 0.008470 -0.046255 1505 -0.925412 0.184519 0.331007
3.501646 0.008205 -0.000570 611 -0.934021 0.173481 0.312265
3.514617 0.008054 0.025470 979 -0.938545 0.169021 0.300939
3.518055 0.008022 0.032265 999 -0.939302 0.165921 0.300302
3.538554 0.007911 0.054660 -184 -0.942195 0.162259 0.293157
3.527713 0.007706 0.082213 -310 -0.945677 0.155584 0.285462
3.521692 0.007673 0.086433 -232 -0.946355 0.152551 0.284852
3.532180 0.007690 0.086268 -272 -0.945677 0.155584 0.285462
3.543494 0.007710 0.086601 -290 -0.946405 0.155703 0.282974
3.553774 0.007599 0.106224 -250 -0.947681 0.155026 0.279047
3.587484 0.006386 0.303607 1487 -0.964294 0.179251 0.194952
3.458139 0.008385 -0.122002 1479 -0.908401 0.200107 0.367103
3.471982 0.008144 -0.082043 1491 -0.917435 0.192021 0.348483
3.506030 0.007639 0.003910 999 -0.934373 0.173032 0.311458
3.514011 0.007546 0.020070 977 -0.937434 0.169316 0.304219
3.538874 0.007231 0.074880 -306 -0.945390 0.155983 0.286194
3.552953 0.007195 0.083221 -288 -0.945677 0.155584 0.285462
3.549046 0.007160 0.087322 -276 -0.946405 0.155703 0.282974
3.527973 0.007110 0.090362 -304 -0.947080 0.152668 0.282368
3.541591 0.006998 0.110789 941 -0.948346 0.152004 0.278451
3.545508 0.006951 0.118758 1499 -0.949320 0.151730 0.275263
3.553869 0.006880 0.131982 -182 -0.950971 0.151565 0.269598
3.551981 0.006802 0.143593 1487 -0.951908 0.151288 0.266427
3.554333 0.006704 0.158817 1493 -0.953741 0.150731 0.260111
3.563172 0.006067 0.259899 -246 -0.961943 0.166667 0.216536
3.578595 0.006070 0.262923 1001 -0.961866 0.169741 0.214479
3.585973 0.005787 0.308578 1465 -0.965142 0.178441 0.191465
3.589003 0.005728 0.319048 1471 -0.965641 0.181139 0.186352
3.448076 0.007962 -0.140137 1493 -0.903932 0.201034 0.377482
3.472101 0.007586 -0.076655 1465 -0.919284 0.188972 0.345264
3.492183 0.007309 -0.030603 1493 -0.927932 0.180548 0.326106
3.498045 0.007248 -0.019784 1487 -0.930003 0.177077 0.322085
3.502079 0.007158 -0.005503 313 -0.933209 0.173330 0.314767
3.509056 0.007088 0.007987 983 -0.935966 0.170050 0.308302
3.524482 0.006823 0.051902 -276 -0.942608 0.159602 0.293286
3.532125 0.006679 0.075899 -304 -0.946072 0.152942 0.285581
3.533306 0.006582 0.091101 -228 -0.947358 0.152278 0.281647
3.539613 0.006580 0.092325 -282 -0.947080 0.152668 0.282368
3.542931 0.006549 0.097028 -278 -0.947358 0.152278 0.281647
3.547121 0.006480 0.108810 -44 -0.948346 0.152004 0.278451
3.546677 0.006380 0.125256 131 -0.950663 0.148834 0.272193
3.558454 0.006382 0.127344 -164 -0.950280 0.151455 0.272083
3.553750 0.006221 0.151167 1505 -0.952831 0.151010 0.263265
3.560200 0.006011 0.184323 1497 -0.955777 0.152871 0.251240
3.566233 0.005844 0.212094 1499 -0.958148 0.157268 0.239207
3.569022 0.005762 0.224642 1495 -0.959157 0.159640 0.233522
3.572859 0.005654 0.242681 1479 -0.960286 0.164658 0.225252
3.582180 0.005407 0.283245 1439 -0.963601 0.171278 0.205272
3.585538 0.005318 0.298099 1459 -0.964871 0.173651 0.197152
3.448087 0.007475 -0.146081 1493 -0.902407 0.201340 0.380952
3.464453 0.007136 -0.090896 569 -0.916067 0.192331 0.351895
3.499390 0.006674 -0.012864 1489 -0.932028 0.173627 0.318084
3.511308 0.006642 -0.005835 28 -0.933209 0.173330 0.314767
3.494334 0.006582 -0.000984 -198 -0.934009 0.170197 0.314104
3.507033 0.006508 0.014143 923 -0.937079 0.166500 0.306856
3.518739 0.006256 0.054521 -270 -0.943317 0.156539 0.292660
3.535163 0.006008 0.095886 -228 -0.947743 0.149644 0.281761
3.550380 0.006029 0.096548 -280 -0.947358 0.152278 0.281647
3.539702 0.005975 0.101602 -240 -0.948017 0.149262 0.281043
3.547705 0.005992 0.101652 -204 -0.948017 0.149262 0.281043
3.563714 0.005327 0.206675 1501 -0.957933 0.154591 0.241796
3.570182 0.005152 0.235040 1469 -0.960533 0.159430 0.227945
3.579480 0.004955 0.267854 1457 -0.963215 0.166433 0.210990
3.455356 0.006810 -0.128681 1497 -0.906477 0.197436 0.373255
3.458105 0.006738 -0.117144 1493 -0.909931 0.194061 0.366560
3.462494 0.006665 -0.106340 1483 -0.912803 0.193451 0.359676
3.471191 0.006578 -0.090632 293 -0.916566 0.189585 0.352087
3.513500 0.005833 0.030444 961 -0.940462 0.160166 0.299798
3.524768 0.005818 0.034417 -234 -0.940046 0.162832 0.299665
3.516211 0.005749 0.043831 -314 -0.942258 0.156816 0.295904
3.533515 0.005728 0.050105 -304 -0.941851 0.159474 0.295777
3.558299 0.005451 0.097684 -264 -0.947743 0.149644 0.281761
3.527472 0.005397 0.100736 -276 -0.948663 0.146258 0.280439
3.540328 0.005230 0.128335 -280 -0.951294 0.145838 0.271607
3.549017 0.005216 0.131692 -154 -0.951294 0.145838 0.271607
3.560850 0.005227 0.132150 -170 -0.950920 0.148456 0.271500
3.557702 0.004939 0.176740 1477 -0.955750 0.149792 0.253188
3.562508 0.004833 0.192998 1507 -0.956862 0.152198 0.247487
3.566094 0.004683 0.217025 1487 -0.959358 0.154395 0.236210
3.591171 0.004475 0.253306 -304 -0.961613 0.164435 0.219685
3.578351 0.004432 0.257408 -88 -0.962361 0.164113 0.216630
3.587034 0.004438 0.259455 -238 -0.961943 0.166667 0.216536
3.583956 0.004224 0.290935 1451 -0.964299 0.170938 0.202255
3.589075 0.004015 0.324008 1453 -0.966881 0.175207 0.185589
3.443799 0.006387 -0.150901 1477 -0.901388 0.198857 0.384650
3.481627 0.005837 -0.061491 1497 -0.922439 0.182228 0.340441
3.482866 0.005801 -0.056208 1473 -0.923739 0.181927 0.337059
3.488064 0.005721 -0.042126 1491 -0.926295 0.177972 0.332121
3.491807 0.005620 -0.025698 1477 -0.929620 0.174217 0.324740
3.508137 0.005473 -0.001194 149 -0.934795 0.167076 0.313439
3.509609 0.005329 0.020981 981 -0.939366 0.160446 0.303065
3.527316 0.005200 0.044029 -264 -0.942258 0.156816 0.295904
3.522434 0.005177 0.045510 -298 -0.942258 0.156816 0.295904
3.545617 0.004904 0.091913 -246 -0.947021 0.149530 0.284241
3.546020 0.004758 0.113787 1327 -0.949639 0.145995 0.277257
3.567520 0.004715 0.124072 -230 -0.949966 0.148725 0.274673
3.551417 0.004610 0.138132 1499 -0.952233 0.145573 0.268442
3.556586 0.004450 0.163074 1477 -0.954596 0.147372 0.258896
3.568723 0.004029 0.229577 1471 -0.960557 0.156370 0.229955
3.575269 0.003886 0.253064 -138 -0.962222 0.161464 0.219224
3.566874 0.003870 0.254330 -200 -0.962818 0.158505 0.218763
3.588329 0.003521 0.312416 1459 -0.966374 0.172520 0.190680
3.451111 0.005743 -0.136772 1495 -0.905492 0.194962 0.376927
3.467921 0.005482 -0.095113 1369 -0.915643 0.189394 0.354580
3.476811 0.005321 -0.069623 1485 -0.921122 0.182526 0.343829
3.484838 0.005207 -0.051003 1507 -0.924620 0.178732 0.336353
3.490961 0.005106 -0.035381 1493 -0.928392 0.174510 0.328078
3.502919 0.004847 0.006900 981 -0.936372 0.164106 0.310285
3.515986 0.004570 0.050371 -188 -0.942960 0.153758 0.295270
3.524432 0.004302 0.093297 -222 -0.948044 0.143888 0.283741
3.532836 0.004244 0.103121 -314 -0.949033 0.143630 0.280549
3.543708 0.004238 0.104630 -156 -0.948663 0.146258 0.280439
3.558494 0.003829 0.169570 1495 -0.955851 0.144505 0.255866
3.562247 0.003648 0.197938 1495 -0.958087 0.149329 0.244477
3.585685 0.003309 0.253954 -180 -0.962222 0.161464 0.219224
3.580740 0.003178 0.272785 1479 -0.964004 0.163059 0.210020
3.463950 0.004962 -0.100586 1511 -0.914741 0.186944 0.358190
3.510391 0.004160 0.025801 961 -0.940095 0.157367 0.302418
3.532223 0.003986 0.055110 -278 -0.943261 0.153365 0.294514
3.533834 0.003640 0.108507 -298 -0.949298 0.143265 0.279835
3.554271 0.003539 0.125912 -270 -0.951222 0.142750 0.273493
3.544162 0.003502 0.131391 -236 -0.952164 0.142492 0.270335
3.551964 0.003400 0.147400 1501 -0.953765 0.142333 0.264713
3.584481 0.002417 0.302499 1461 -0.966256 0.167312 0.195845
3.460541 0.004486 -0.113145 1511 -0.911412 0.190295 0.364851
3.468092 0.004321 -0.087029 1469 -0.918438 0.183120 0.350625
3.496261 0.003872 -0.016375 1483 -0.932449 0.167647 0.320053
3.499729 0.003830 -0.008570 1505 -0.934059 0.164671 0.316888
3.524556 0.003416 0.055689 -166 -0.943946 0.150327 0.293883
3.551118 0.003114 0.104706 -232 -0.949298 0.143265 0.279835
3.538377 0.003071 0.110959 -188 -0.950627 0.140388 0.276765
3.559925 0.002999 0.123395 -220 -0.950967 0.143113 0.274189
3.554904 0.002787 0.154925 1501 -0.954005 0.141973 0.264043
3.560642 0.002575 0.188114 1491 -0.957579 0.143967 0.249631
3.564598 0.002490 0.202244 1519 -0.958677 0.146373 0.243955
3.567041 0.002367 0.221378 1491 -0.960159 0.151051 0.235114
3.571805 0.002254 0.238827 1471 -0.961921 0.153122 0.226411
3.574759 0.002215 0.245906 1471 -0.962099 0.155768 0.223835
3.573411 0.002131 0.258583 -222 -0.963742 0.157798 0.215179
3.568066 0.002118 0.259230 -300 -0.964135 0.155253 0.215267
3.580441 0.002006 0.277734 1481 -0.965116 0.160201 0.207090
3.455849 0.004048 -0.124436 1497 -0.908505 0.190887 0.371726
3.475907 0.003737 -0.074954 1497 -0.920694 0.179613 0.346498
3.478451 0.003667 -0.064948 1499 -0.922441 0.178855 0.342219
3.485134 0.003543 -0.046171 1509 -0.925887 0.175092 0.334776
3.495365 0.003389 -0.021718 1481 -0.931252 0.167931 0.323371
3.501754 0.003245 0.000476 227 -0.935987 0.161282 0.312915
3.515446 0.003086 0.026454 983 -0.940412 0.156963 0.301642
3.518769 0.003044 0.032717 309 -0.941124 0.153903 0.300996
3.527992 0.002945 0.048880 -246 -0.943650 0.150712 0.294636
3.532866 0.002734 0.081279 -308 -0.947318 0.143777 0.286211
3.538856 0.002708 0.085239 -284 -0.947318 0.143777 0.286211
3.545404 0.002711 0.085345 -314 -0.947318 0.143777 0.286211
3.531955 0.002697 0.087341 -280 -0.947681 0.141144 0.286321
3.546954 0.002483 0.120841 1373 -0.950884 0.140032 0.276063
3.561299 0.002110 0.178766 1505 -0.957305 0.141285 0.252200
3.580186 0.001582 0.261207 533 -0.963742 0.157798 0.215179
3.581997 0.001416 0.286526 1477 -0.965405 0.162417 0.203995
3.583402 0.001366 0.295330 1445 -0.966588 0.162179 0.198507
3.589367 0.001230 0.316811 1469 -0.968031 0.166724 0.187402
3.448002 0.003620 -0.142858 1485 -0.904015 0.191761 0.382080
3.451830 0.003547 -0.132020 1489 -0.907026 0.191180 0.375172
3.472325 0.003235 -0.084284 1505 -0.919353 0.179904 0.349892
3.506940 0.002630 0.009775 1003 -0.937873 0.157914 0.308962
3.532809 0.002393 0.045764 -260 -0.942892 0.150591 0.297113
3.535592 0.002206 0.075073 -304 -0.946306 0.144032 0.289411
3.543460 0.002177 0.079451 -266 -0.947041 0.144144 0.286941
3.550695 0.002100 0.092114 -312 -0.948677 0.140893 0.283127
3.541601 0.001896 0.123324 105 -0.952184 0.137168 0.273004
3.531384 0.001879 0.125542 -300 -0.952431 0.136821 0.272313
3.553665 0.001780 0.141825 1511 -0.953448 0.139626 0.267285
3.564483 0.001336 0.209915 1497 -0.959709 0.145729 0.240255
3.572163 0.001193 0.232212 1475 -0.961730 0.150475 0.228983
3.596746 0.001034 0.257598 -228 -0.963009 0.158106 0.218212
3.562594 0.001011 0.259877 -168 -0.964704 0.152322 0.214813
3.585905 0.000712 0.307442 1457 -0.967494 0.164048 0.192465
3.445183 0.003082 -0.147330 1479 -0.903486 0.192262 0.383078
3.463069 0.002745 -0.095090 721 -0.916620 0.180482 0.356700
3.472431 0.002638 -0.078886 1503 -0.919790 0.179437 0.348983
3.479079 0.002504 -0.058530 1487 -0.925063 0.172660 0.338301
3.490752 0.002321 -0.031032 1501 -0.930040 0.168214 0.326696
3.502394 0.002146 -0.004485 955 -0.935177 0.161142 0.315399
3.490520 0.002133 -0.001744 -258 -0.935932 0.158050 0.314726
3.509235 0.002016 0.016644 963 -0.938929 0.154438 0.307509
3.513570 0.001979 0.021707 995 -0.939715 0.154567 0.305031
3.505919 0.001903 0.033771 -50 -0.941824 0.150855 0.300351
3.516185 0.001755 0.055774 -270 -0.944992 0.144655 0.293367
3.527570 0.001594 0.081089 -248 -0.947681 0.141144 0.286321
3.522212 0.001573 0.084175 -290 -0.948308 0.138155 0.285700
3.558968 0.001421 0.106953 -222 -0.949921 0.140284 0.279231
3.545731 0.001416 0.108861 -288 -0.950274 0.137663 0.279335
3.549337 0.001291 0.126717 -290 -0.952184 0.137168 0.273004
3.557296 0.001275 0.130117 -262 -0.952184 0.137168 0.273004
3.552480 0.001265 0.132019 133 -0.952431 0.136821 0.272313
3.553955 0.001078 0.159884 1493 -0.955491 0.138764 0.260348
3.571594 0.000484 0.252013 387 -0.963427 0.152532 0.220324
3.563335 0.000475 0.252731 -128 -0.963992 0.149607 0.219858
3.577837 0.000391 0.265646 1449 -0.964854 0.154950 0.212242
3.458852 0.002364 -0.119977 1507 -0.911434 0.184576 0.367722
3.459039 0.002289 -0.108645 1499 -0.913344 0.183809 0.363343
3.472278 0.002193 -0.094582 345 -0.916620 0.180482 0.356700
3.489702 0.001836 -0.039067 1485 -0.928812 0.168495 0.330028
3.512180 0.001579 -0.000501 -168 -0.935932 0.158050 0.314726
3.506420 0.001567 0.001661 639 -0.936739 0.158186 0.312246
3.551202 0.001019 0.084391 -306 -0.947954 0.140785 0.285593
3.538519 0.000877 0.106015 -262 -0.950877 0.134696 0.278728
3.549727 0.000841 0.111897 -216 -0.950532 0.137314 0.278627
3.536987 0.000727 0.130130 -294 -0.953019 0.133873 0.271723
3.568038 0.000721 0.129520 -268 -0.952184 0.137168 0.273004
3.557195 0.000434 0.173443 1475 -0.957018 0.138603 0.254765
3.567184 0.000170 0.214214 1483 -0.960878 0.142886 0.237270
3.568346 0.000098 0.226266 1467 -0.961894 0.145266 0.231640
3.580554 -0.000081 0.253479 -154 -0.963978 0.152619 0.217841
3.589935 -0.000109 0.257712 -218 -0.963591 0.155165 0.217753
3.589007 -0.000521 0.321765 1463 -0.968764 0.163390 0.186548
3.463360 0.001729 -0.105945 1503 -0.913819 0.181053 0.363532
3.482576 0.001380 -0.053502 1491 -0.925909 0.169493 0.337586
3.498514 0.001112 -0.012812 1491 -0.934424 0.158728 0.318836
3.496136 0.001049 -0.002275 -34 -0.936335 0.155368 0.314861
3.516411 0.000730 0.045409 -276 -0.943946 0.144910 0.296591
3.530693 0.000530 0.075402 -254 -0.947304 0.138400 0.288894
3.538561 0.000501 0.079771 -256 -0.947579 0.138049 0.288161
3.529777 0.000373 0.100014 -292 -0.950168 0.134596 0.281186
3.542087 0.000286 0.112897 -128 -0.951132 0.134356 0.278023
3.545535 0.000257 0.116521 1115 -0.951833 0.134455 0.275566
3.552671 0.000029 0.151173 1467 -0.954851 0.133389 0.265456
3.555956 -0.000060 0.165267 1481 -0.956066 0.135827 0.259786
3.560769 -0.000183 0.183705 1481 -0.958094 0.137997 0.251023
3.561613 -0.000243 0.192454 1497 -0.958935 0.137740 0.247933
3.582247 -0.000823 0.281552 1439 -0.966428 0.153956 0.205706
3.585048 -0.000881 0.290891 1455 -0.967056 0.156645 0.200661
3.467588 0.001099 -0.091856 1235 -0.917537 0.177268 0.355953
3.493273 0.000661 -0.026418 1495 -0.931267 0.162382 0.326151
3.514487 0.000267 0.032505 -170 -0.941434 0.148076 0.302944
3.526641 0.000197 0.042957 -230 -0.943185 0.144793 0.299059
3.519705 -0.000021 0.076718 -198 -0.947926 0.135418 0.288266
3.551519 -0.000325 0.121107 491 -0.952082 0.134115 0.274869
3.550629 -0.000427 0.137039 1497 -0.953942 0.133631 0.268586
3.572781 -0.001121 0.242633 1469 -0.963427 0.144710 0.225538
3.577471 -0.001220 0.257390 -184 -0.964721 0.149318 0.216835
3.583969 -0.001239 0.259475 -116 -0.964721 0.149318 0.216835
3.579598 -0.001307 0.270012 1439 -0.965594 0.151644 0.211264
3.586133 -0.001497 0.298598 1461 -0.967884 0.155944 0.197185
3.587819 -0.001579 0.312385 1465 -0.969097 0.158299 0.189186
3.449158 0.000864 -0.138706 1485 -0.906038 0.185228 0.380507
3.454415 0.000790 -0.128603 1495 -0.909012 0.184665 0.373625
3.477067 0.000403 -0.071315 1483 -0.921564 0.173057 0.347521
3.486184 0.000215 -0.042513 1487 -0.928387 0.165634 0.332660
3.507990 -0.000065 -0.002845 -134 -0.936335 0.155368 0.314861
3.499376 -0.000096 0.003380 713 -0.937401 0.151900 0.313379
3.509916 -0.000354 0.042116 -258 -0.943552 0.142142 0.299175
3.541903 -0.000584 0.074066 -290 -0.947304 0.138400 0.288894
3.533505 -0.000832 0.112863 -248 -0.951720 0.131409 0.277419
3.565794 -0.000926 0.124686 -256 -0.952082 0.134115 0.274869
3.564350 -0.001396 0.197284 1511 -0.959764 0.137483 0.244851
3.564278 -0.001454 0.205513 1487 -0.960579 0.137226 0.241778
3.465319 0.000041 -0.100247 1235 -0.916153 0.177549 0.359359
3.470503 -0.000046 -0.087885 1501 -0.918880 0.173613 0.354284
3.505577 -0.000695 0.006078 993 -0.937401 0.151900 0.313379
3.509344 -0.000794 0.022046 949 -0.940720 0.145669 0.306312
3.519827 -0.000933 0.041321 -240 -0.943552 0.142142 0.299175
3.521155 -0.000971 0.047754 -234 -0.943848 0.141780 0.298413
3.544932 -0.001335 0.100683 -300 -0.950505 0.131978 0.281286
3.558258 -0.001502 0.125097 -278 -0.952664 0.131173 0.274272
3.541178 -0.001510 0.127696 -296 -0.953234 0.128244 0.273675
3.549838 -0.001613 0.143093 1471 -0.954511 0.130701 0.268003
3.557838 -0.001850 0.178324 1467 -0.958355 0.132413 0.253027
3.567847 -0.002125 0.219125 1491 -0.961978 0.137052 0.236252
3.570417 -0.002234 0.235531 1457 -0.963405 0.141715 0.227525
3.574879 -0.002314 0.248076 1473 -0.964357 0.144069 0.221945
3.586854 -0.002356 0.253336 -200 -0.964546 0.146694 0.219392
3.568747 -0.002363 0.256445 -126 -0.965633 0.143873 0.216457
3.580910 -0.002495 0.274947 1467 -0.966667 0.148818 0.208345
3.587054 -0.002684 0.303549 1469 -0.968918 0.153122 0.194298
3.592006 -0.002836 0.326169 1477 -0.970332 0.157663 0.183299
3.458453 -0.000392 -0.115620 1475 -0.912381 0.177921 0.368653
3.478230 -0.000768 -0.062241 1481 -0.924582 0.166453 0.342697
3.484491 -0.000855 -0.049388 1493 -0.927560 0.163195 0.336153
3.489061 -0.000957 -0.034682 1487 -0.930836 0.159532 0.328775
3.494698 -0.001059 -0.019516 1469 -0.933174 0.155759 0.323923
3.499481 -0.001138 -0.008037 1465 -0.935917 0.152550 0.317470
3.517445 -0.001208 0.000082 -284 -0.937067 0.152291 0.314185
3.509117 -0.001283 0.012819 973 -0.939237 0.148588 0.309444
3.511591 -0.001387 0.027834 931 -0.941032 0.145296 0.305530
3.531249 -0.001476 0.039851 -180 -0.943552 0.142142 0.299175
3.514301 -0.001522 0.049372 -242 -0.944498 0.138778 0.297766
3.524535 -0.001724 0.077455 -272 -0.947804 0.132345 0.290090
3.536236 -0.001882 0.100132 -310 -0.950379 0.128932 0.283120
3.555339 -0.002252 0.154864 1487 -0.955415 0.130464 0.264881
3.559904 -0.002473 0.188111 1493 -0.959198 0.132168 0.249941
3.569415 -0.002755 0.230617 1475 -0.963184 0.139083 0.230072
3.573647 -0.002951 0.260190 387 -0.965807 0.143514 0.215917
3.443290 -0.000683 -0.151416 1481 -0.903474 0.183000 0.387615
3.451826 -0.000799 -0.134750 1485 -0.908012 0.182176 0.377262
3.456490 -0.000880 -0.123473 1509 -0.910938 0.178196 0.372073
3.475209 -0.001212 -0.076535 1497 -0.921105 0.170158 0.350160
3.520198 -0.001960 0.031466 -308 -0.942483 0.142390 0.302408
3.536628 -0.002060 0.043791 -278 -0.943848 0.141780 0.298413
3.541533 -0.002550 0.118382 821 -0.952617 0.125867 0.276908
3.553093 -0.002626 0.127027 -276 -0.953234 0.128244 0.273675
3.557396 -0.002902 0.169572 1499 -0.957829 0.130076 0.256209
3.578303 -0.003524 0.262313 1383 -0.966344 0.143593 0.213449
3.580902 -0.003679 0.285949 1469 -0.968025 0.148233 0.202370
3.589066 -0.003891 0.316772 1483 -0.970179 0.152512 0.188397
3.447574 -0.001260 -0.146067 1507 -0.905004 0.182727 0.384159
3.461456 -0.001506 -0.111137 1491 -0.914265 0.174890 0.365422
3.471166 -0.001601 -0.098810 199 -0.916130 0.174164 0.361071
3.471060 -0.001704 -0.083091 1513 -0.919763 0.170431 0.353538
3.481915 -0.001869 -0.058872 1497 -0.925412 0.163308 0.341970
3.500310 -0.002271 -0.001607 135 -0.936980 0.149096 0.315974
3.534308 -0.003030 0.107886 -306 -0.951666 0.126092 0.280058
3.539813 -0.003041 0.109191 -230 -0.951916 0.125775 0.279352
3.549476 -0.003096 0.115177 59 -0.952617 0.125867 0.276908
3.547055 -0.003145 0.124073 -254 -0.953554 0.125642 0.273767
3.547941 -0.003191 0.130592 557 -0.953794 0.125326 0.273078
3.552982 -0.003303 0.147303 1497 -0.955617 0.124874 0.266837
3.556051 -0.003397 0.160854 1507 -0.956852 0.127318 0.261198
3.565011 -0.003732 0.210415 1501 -0.962250 0.131512 0.238284
3.461428 -0.002076 -0.103031 1175 -0.916579 0.171416 0.361248
3.477983 -0.002341 -0.067105 1495 -0.924120 0.163573 0.345322
3.490501 -0.002601 -0.029959 1477 -0.931976 0.156020 0.327227
3.498273 -0.002706 -0.016081 1489 -0.933924 0.152674 0.323228
3.533575 -0.003056 0.029802 -260 -0.942483 0.142390 0.302408
3.515645 -0.003091 0.039464 -200 -0.943793 0.136371 0.301096
3.555667 -0.003548 0.101085 -276 -0.950701 0.126317 0.283216
3.526659 -0.003563 0.109986 -310 -0.952229 0.123167 0.279444
3.546307 -0.003590 0.109882 -160 -0.951916 0.125775 0.279352
3.559464 -0.003628 0.112933 -198 -0.951916 0.125775 0.279352
3.569218 -0.004363 0.223463 1473 -0.963288 0.133898 0.232697
3.592826 -0.004576 0.252100 -262 -0.965445 0.141253 0.219007
3.576585 -0.004564 0.252978 -258 -0.965969 0.138365 0.218539
3.585067 -0.004842 0.294173 1477 -0.968845 0.147572 0.198902
3.587508 -0.004939 0.308498 1455 -0.970083 0.149934 0.190941
3.463437 -0.002624 -0.096254 939 -0.917030 0.170972 0.360312
3.504556 -0.003392 0.011039 995 -0.939508 0.142762 0.311357
3.507678 -0.003434 0.017280 941 -0.940615 0.142517 0.308109
3.516885 -0.003520 0.027922 953 -0.942067 0.139616 0.304986
3.523825 -0.003607 0.039882 -126 -0.943793 0.136371 0.301096
3.536758 -0.004158 0.120833 -300 -0.953415 0.122638 0.275607
3.563606 -0.004720 0.201123 1511 -0.961370 0.128790 0.243270
3.573800 -0.004985 0.239286 1463 -0.964467 0.135932 0.226553
3.566754 -0.005059 0.252076 -230 -0.966482 0.135488 0.218071
3.591017 -0.005129 0.257108 -142 -0.966163 0.140980 0.215996
3.582650 -0.005249 0.278755 1473 -0.967893 0.142677 0.206947
3.587245 -0.005531 0.321182 1455 -0.971312 0.149334 0.185073
3.488699 -0.003565 -0.039544 1497 -0.929535 0.156539 0.333857
3.493318 -0.003678 -0.023738 1489 -0.933124 0.150237 0.326662
3.513178 -0.004013 0.022241 963 -0.941286 0.139500 0.307442
3.507999 -0.004068 0.031380 -204 -0.943023 0.136259 0.303548
3.507788 -0.004118 0.039548 -276 -0.944429 0.133379 0.300439
3.516543 -0.004166 0.044276 -268 -0.944719 0.133040 0.299676
3.531671 -0.004386 0.073667 -250 -0.948730 0.126764 0.289556
3.538545 -0.004394 0.074276 -268 -0.948730 0.126764 0.289556
3.536505 -0.004525 0.094086 -302 -0.950555 0.123294 0.285034
3.549704 -0.004601 0.101998 -314 -0.951271 0.123387 0.282595
3.539438 -0.004588 0.103186 -314 -0.951522 0.123076 0.281883
3.537105 -0.004658 0.114253 -240 -0.952781 0.120254 0.278831
3.533818 -0.004742 0.128630 -218 -0.954646 0.119825 0.272568
3.548419 -0.004815 0.135486 1509 -0.955024 0.122506 0.270041
3.558892 -0.005077 0.173872 1507 -0.958896 0.124277 0.255095
3.560087 -0.005127 0.181504 1491 -0.959740 0.124048 0.252013
3.562021 -0.005210 0.193493 1491 -0.960878 0.126466 0.246413
3.567061 -0.005360 0.215284 1501 -0.962767 0.128629 0.237768
3.582133 -0.005634 0.252306 -230 -0.966141 0.138020 0.217994
3.580111 -0.005655 0.257306 -154 -0.966682 0.138097 0.215535
3.579397 -0.005717 0.266679 1461 -0.967383 0.137829 0.212541
3.448517 -0.003398 -0.141352 1493 -0.906967 0.176235 0.382560
3.456748 -0.003559 -0.119209 1507 -0.912804 0.171772 0.370516
3.468270 -0.003742 -0.094684 1499 -0.917915 0.167791 0.359552
3.483317 -0.004032 -0.054163 1427 -0.927030 0.157053 0.340513
3.486057 -0.004090 -0.045775 1485 -0.928290 0.156796 0.337182
3.513674 -0.004454 0.001492 -294 -0.938060 0.143372 0.315418
3.502433 -0.004442 0.003070 69 -0.938386 0.143005 0.314611
3.525092 -0.004657 0.029406 -15 -0.942723 0.136607 0.304322
3.530587 -0.004764 0.043702 -284 -0.944429 0.133379 0.300439
3.530699 -0.005079 0.092824 -308 -0.950555 0.123294 0.285034
3.546013 -0.005282 0.118647 -264 -0.953721 0.120040 0.275695
3.553074 -0.005307 0.121528 -270 -0.953415 0.122638 0.275607
3.559751 -0.005321 0.121695 -298 -0.953415 0.122638 0.275607
3.573691 -0.006148 0.244227 1477 -0.965717 0.132802 0.223056
3.572359 -0.006183 0.250304 819 -0.966270 0.132878 0.220604
3.585613 -0.006260 0.257746 -138 -0.966141 0.138020 0.217994
3.579757 -0.006334 0.271628 1467 -0.968072 0.137561 0.209556
3.582621 -0.006452 0.289767 1469 -0.969224 0.142119 0.201015
3.585762 -0.006518 0.299119 1451 -0.970361 0.141910 0.195606
3.452827 -0.004028 -0.130583 1511 -0.909903 0.172298 0.377346
3.471186 -0.004407 -0.078798 1503 -0.922326 0.160952 0.351296
3.475918 -0.004455 -0.072301 1503 -0.923643 0.160694 0.347938
3.500872 -0.004897 -0.012000 1495 -0.935386 0.146539 0.321838
3.493331 -0.004969 0.000105 -130 -0.937941 0.140215 0.317185
3.526596 -0.005508 0.073469 -204 -0.948311 0.124041 0.292096
3.541220 -0.005661 0.092135 -252 -0.950862 0.120681 0.285126
3.547722 -0.005679 0.092800 -276 -0.950555 0.123294 0.285034
3.516820 -0.005640 0.095902 -308 -0.951415 0.117769 0.284498
3.551700 -0.005803 0.110640 -282 -0.952781 0.120254 0.278831
3.544392 -0.005904 0.127488 -206 -0.953958 0.119738 0.275003
3.550423 -0.005999 0.140298 1475 -0.955786 0.119309 0.268774
3.552824 -0.006071 0.151672 1485 -0.956679 0.119094 0.265672
3.552799 -0.006111 0.157152 1473 -0.957560 0.118879 0.262578
3.555883 -0.006165 0.165233 1501 -0.958214 0.118960 0.260143
3.566317 -0.006448 0.205408 1509 -0.961884 0.125915 0.242743
3.566569 -0.006793 0.257552 -120 -0.967152 0.132293 0.217063
3.587161 -0.007191 0.313449 1477 -0.971254 0.143842 0.189668
3.589073 -0.007273 0.325589 1475 -0.971963 0.146112 0.184228
3.453584 -0.004658 -0.125289 1495 -0.911805 0.169274 0.374110
3.459101 -0.004778 -0.108163 1207 -0.915133 0.168316 0.366336
3.465315 -0.004807 -0.106772 721 -0.915133 0.168316 0.366336
3.471378 -0.004836 -0.104281 -152 -0.916532 0.168054 0.362941
3.470446 -0.004924 -0.090080 1525 -0.920144 0.164362 0.355415
3.475279 -0.005108 -0.063571 1135 -0.925754 0.157309 0.343851
3.501431 -0.005542 -0.006079 1503 -0.937249 0.143248 0.317874
3.539026 -0.006499 0.127230 -236 -0.954490 0.116850 0.274399
3.561944 -0.006930 0.185810 1503 -0.960454 0.120869 0.250836
3.567778 -0.007210 0.227329 1479 -0.964808 0.125283 0.231192
3.570037 -0.007251 0.232762 1471 -0.965242 0.127582 0.228101
3.587041 -0.007755 0.304064 1471 -0.970509 0.141559 0.195122
3.445680 -0.005053 -0.149082 1449 -0.904904 0.173524 0.388636
3.450313 -0.005150 -0.136746 1495 -0.908426 0.172558 0.380769
3.459165 -0.005314 -0.114657 1503 -0.913716 0.168577 0.369736
3.456650 -0.005385 -0.103542 -268 -0.916964 0.165308 0.363112
3.478391 -0.005730 -0.057424 693 -0.926551 0.154194 0.343115
3.490283 -0.005907 -0.034845 1493 -0.931451 0.147652 0.332563
3.496440 -0.006026 -0.019723 1463 -0.934584 0.144099 0.325252
3.504825 -0.006162 -0.002049 1041 -0.937941 0.140215 0.317185
3.508740 -0.006197 0.003020 25 -0.939071 0.139977 0.313930
3.509381 -0.006254 0.010037 1027 -0.939743 0.136961 0.313248
3.532421 -0.006914 0.103609 -296 -0.952376 0.117561 0.281354
3.543674 -0.007005 0.113852 -152 -0.953562 0.117058 0.277519
3.565007 -0.007109 0.121385 -312 -0.954256 0.117143 0.275089
3.550755 -0.007122 0.128773 673 -0.954490 0.116850 0.274399
3.572390 -0.007999 0.255782 -212 -0.967477 0.129768 0.217136
3.581215 -0.008197 0.282611 1469 -0.969904 0.134176 0.203181
3.462757 -0.005915 -0.099974 1107 -0.917835 0.162137 0.362340
3.480374 -0.006195 -0.064148 311 -0.926156 0.154591 0.344001
3.487235 -0.006258 -0.057319 167 -0.926551 0.154194 0.343115
3.480263 -0.006293 -0.048968 541 -0.928595 0.150845 0.339055
3.509508 -0.006859 0.025795 987 -0.942927 0.130850 0.306215
3.532263 -0.007381 0.097614 -314 -0.951665 0.117473 0.283784
3.537071 -0.007453 0.106592 -280 -0.952912 0.114666 0.280733
3.546393 -0.007475 0.106565 -300 -0.952620 0.117266 0.280648
3.532699 -0.007555 0.124309 -284 -0.954780 0.114258 0.274483
3.550975 -0.007737 0.145182 1481 -0.956594 0.113849 0.268265
3.558263 -0.007915 0.169495 1493 -0.959574 0.115878 0.256494
3.563904 -0.008111 0.197252 1517 -0.962084 0.120422 0.244729
3.567406 -0.008265 0.219648 1483 -0.964538 0.122665 0.233710
3.579814 -0.008566 0.261693 1411 -0.968176 0.129518 0.214153
3.581404 -0.008784 0.294169 1447 -0.970711 0.136486 0.197714
3.470504 -0.006545 -0.085230 1507 -0.921406 0.158476 0.354818
3.490466 -0.006734 -0.064741 -164 -0.925266 0.154443 0.346453
3.497894 -0.006785 -0.059577 -200 -0.926156 0.154591 0.344001
3.468827 -0.006752 -0.052606 -114 -0.928979 0.148138 0.339195
3.475360 -0.006786 -0.050071 -130 -0.928979 0.148138 0.339195
3.492941 -0.006968 -0.029695 1485 -0.933394 0.144339 0.328544
3.505300 -0.007248 0.007139 989 -0.940089 0.134298 0.313363
3.510407 -0.007338 0.019190 967 -0.941841 0.131074 0.309443
3.544361 -0.007758 0.070550 -258 -0.948888 0.121106 0.291454
3.549149 -0.008062 0.114609 -126 -0.953852 0.114462 0.277604
3.539073 -0.008054 0.117939 -252 -0.954089 0.114176 0.276909
3.532234 -0.008050 0.118881 -274 -0.954372 0.111584 0.276991
3.559565 -0.008506 0.177665 1525 -0.960415 0.115666 0.253425
3.564251 -0.008725 0.209852 1503 -0.963664 0.119974 0.238658
3.578158 -0.009031 0.251262 -290 -0.967419 0.126854 0.219111
3.589429 -0.009059 0.251584 -248 -0.966935 0.129695 0.219583
3.581286 -0.009202 0.275994 1463 -0.969214 0.131527 0.208145
3.587888 -0.009485 0.317841 1461 -0.972696 0.138232 0.186423
3.466243 -0.006912 -0.111777 577 -0.915037 0.162642 0.369126
3.454231 -0.006905 -0.108107 -166 -0.916445 0.162390 0.365731
3.483258 -0.007235 -0.069907 -56 -0.924864 0.154842 0.347347
3.491086 -0.007260 -0.069699 -180 -0.924864 0.154842 0.347347
3.474052 -0.007308 -0.055338 -230 -0.927719 0.148380 0.342521
3.486658 -0.007367 -0.052372 -298 -0.928595 0.150845 0.339055
3.493170 -0.007408 -0.048727 -136 -0.928979 0.148138 0.339195
3.497200 -0.007635 -0.014926 1489 -0.935992 0.138008 0.323840
3.498536 -0.007743 0.000688 -112 -0.938967 0.134526 0.316613
3.494745 -0.007759 0.004290 -270 -0.939287 0.134184 0.315807
3.507720 -0.007862 0.014529 979 -0.941051 0.130964 0.311883
3.514560 -0.007963 0.026448 967 -0.943553 0.127871 0.305544
3.530369 -0.008241 0.062816 -292 -0.947879 0.121318 0.294629
3.535056 -0.008316 0.071753 -232 -0.948717 0.118092 0.293240
3.526603 -0.008430 0.093070 -308 -0.951241 0.114782 0.286296
3.549348 -0.008525 0.097607 -312 -0.951957 0.114869 0.283871
3.557903 -0.008668 0.116282 -172 -0.953852 0.114462 0.277604
3.544008 -0.008667 0.122024 -292 -0.954605 0.111305 0.276299
3.554866 -0.008952 0.160873 1507 -0.958567 0.113155 0.261427
3.572711 -0.009497 0.237073 1487 -0.966208 0.121899 0.227117
3.568559 -0.009572 0.250902 49 -0.967730 0.124331 0.219181
3.585959 -0.009994 0.308467 1459 -0.972103 0.135613 0.191379
3.435669 -0.007129 -0.151487 -130 -0.904859 0.170108 0.390247
3.446482 -0.007204 -0.144339 1297 -0.906378 0.169857 0.386817
3.472813 -0.007514 -0.109896 -258 -0.915496 0.162222 0.368173
3.466475 -0.007615 -0.091788 1499 -0.920487 0.158318 0.357267
3.474102 -0.007733 -0.076452 833 -0.923966 0.154691 0.349797
3.471130 -0.007767 -0.069621 -286 -0.924765 0.151578 0.349047
3.471333 -0.007841 -0.059909 -302 -0.926836 0.148238 0.344966
3.460877 -0.007824 -0.056593 -276 -0.928104 0.147999 0.341642
3.489289 -0.007991 -0.045060 27 -0.929357 0.147758 0.338325
3.486178 -0.008012 -0.040401 907 -0.930969 0.144817 0.335149
3.538469 -0.009052 0.095024 -220 -0.951526 0.112177 0.286382
3.555530 -0.009308 0.126295 -88 -0.955293 0.111385 0.273877
3.549603 -0.009337 0.133196 1511 -0.955521 0.111107 0.273193
3.562534 -0.009738 0.190157 1499 -0.962058 0.115240 0.247312
3.562534 -0.009819 0.202227 1507 -0.963049 0.114741 0.243663
3.574780 -0.010156 0.247470 1485 -0.967184 0.124261 0.221620
3.585164 -0.010227 0.254424 -256 -0.967730 0.124331 0.219181
3.590344 -0.010260 0.257086 -142 -0.968120 0.126610 0.216133
3.583899 -0.010434 0.286972 1481 -0.970531 0.131015 0.202247
3.455952 -0.007904 -0.121838 1449 -0.913613 0.162892 0.372528
3.479640 -0.008292 -0.074381 -252 -0.924361 0.151969 0.349947
3.497917 -0.008529 -0.047618 -232 -0.929357 0.147758 0.338325
3.480701 -0.008495 -0.044159 -238 -0.930106 0.144683 0.337594
3.493205 -0.008661 -0.024854 1499 -0.933978 0.138114 0.329559
3.524493 -0.009383 0.070870 -284 -0.949012 0.115474 0.293331
3.529717 -0.009408 0.072133 -250 -0.949274 0.115184 0.292594
3.544753 -0.009602 0.094613 -248 -0.951775 0.111896 0.285664
3.541523 -0.009625 0.099191 -306 -0.952488 0.111980 0.283243
3.549492 -0.009816 0.124441 -300 -0.954880 0.108717 0.276378
3.560582 -0.009846 0.124912 -310 -0.954605 0.111305 0.276299
3.558505 -0.010220 0.182632 1513 -0.961098 0.112538 0.252240
3.566442 -0.010446 0.214162 1489 -0.964141 0.117139 0.238139
3.572903 -0.010646 0.242008 1497 -0.966936 0.121667 0.224124
3.578929 -0.010769 0.257288 -194 -0.968431 0.124092 0.216202
3.578791 -0.010828 0.266107 1469 -0.968810 0.126367 0.213164
3.585852 -0.011024 0.293018 1487 -0.971173 0.130759 0.199313
3.590378 -0.011222 0.322244 1481 -0.973303 0.135076 0.185571
3.471042 -0.008517 -0.114561 -270 -0.914080 0.162472 0.371566
3.484432 -0.008801 -0.077646 -178 -0.923457 0.151820 0.352390
3.478351 -0.008840 -0.068277 -310 -0.925551 0.148477 0.348296
3.482003 -0.008906 -0.060010 469 -0.926836 0.148238 0.344966
3.482049 -0.008957 -0.053520 651 -0.928481 0.145291 0.341781
3.493481 -0.009065 -0.042255 -232 -0.930106 0.144683 0.337594
3.498363 -0.009298 -0.009616 1501 -0.937011 0.134636 0.322310
3.516075 -0.009740 0.049722 -286 -0.946682 0.118502 0.299583
3.540840 -0.010181 0.104701 -308 -0.953008 0.109103 0.282616
3.553069 -0.010325 0.120393 -312 -0.954880 0.108717 0.276378
3.549127 -0.010431 0.138144 1515 -0.956698 0.108330 0.270173
3.552906 -0.010511 0.148902 1501 -0.957803 0.107867 0.266417
3.553172 -0.010546 0.154365 1489 -0.958464 0.107941 0.264000
3.556517 -0.010676 0.173389 1485 -0.960745 0.109910 0.254733
3.569335 -0.011049 0.223418 1489 -0.965662 0.116700 0.232118
3.580396 -0.011391 0.271029 1467 -0.969797 0.123614 0.210271
3.586270 -0.011588 0.298529 1481 -0.972121 0.128011 0.196452
3.589337 -0.011693 0.312300 1491 -0.973030 0.129990 0.190567
3.433052 -0.008704 -0.147374 -244 -0.905810 0.166897 0.389427
3.438495 -0.008732 -0.145960 -80 -0.907320 0.166651 0.386003
3.449935 -0.008807 -0.140506 1069 -0.909239 0.163635 0.382763
3.452898 -0.008860 -0.134416 1433 -0.909731 0.163212 0.381775
3.452223 -0.008895 -0.128922 1437 -0.911197 0.162967 0.378367
3.465045 -0.009026 -0.116514 -98 -0.914496 0.159719 0.371735
3.451460 -0.008989 -0.113710 -176 -0.914957 0.159307 0.370776
3.461663 -0.009043 -0.111758 -296 -0.915911 0.159473 0.368340
3.462041 -0.009073 -0.106404 945 -0.916771 0.156316 0.367554
3.464444 -0.009155 -0.096420 1499 -0.919535 0.155830 0.360795
3.472242 -0.009282 -0.081122 643 -0.923045 0.152212 0.353299
3.480206 -0.009308 -0.080422 99 -0.923045 0.152212 0.353299
3.468611 -0.009288 -0.077448 -238 -0.923844 0.149097 0.352538
3.494737 -0.009376 -0.077758 -310 -0.923457 0.151820 0.352390
3.465240 -0.009305 -0.072741 -236 -0.925152 0.148859 0.349193
3.484426 -0.009536 -0.047809 689 -0.929605 0.141851 0.340167
3.498448 -0.009627 -0.041150 -220 -0.931702 0.141751 0.334422
3.501500 -0.009896 -0.002858 1461 -0.938818 0.131407 0.318358
3.524058 -0.010304 0.048548 -274 -0.946682 0.118502 0.299583
3.529062 -0.010329 0.048698 -252 -0.946682 0.118502 0.299583
3.535594 -0.010693 0.101744 -290 -0.953008 0.109103 0.282616
3.537980 -0.010850 0.124529 -304 -0.955378 0.105863 0.275766
3.543032 -0.010885 0.126979 311 -0.955605 0.105599 0.275079
3.556529 -0.011185 0.165165 1501 -0.959533 0.107478 0.260278
3.560596 -0.011386 0.195146 1489 -0.962998 0.109578 0.246228
3.570138 -0.011639 0.228332 1477 -0.966404 0.116480 0.229121
3.454585 -0.009308 -0.151953 -290 -0.905296 0.167330 0.390436
3.449656 -0.009305 -0.149652 -310 -0.905810 0.166897 0.389427
3.454080 -0.009342 -0.146478 -102 -0.907747 0.163879 0.386185
3.458601 -0.009546 -0.117862 41 -0.914957 0.159307 0.370776
3.486181 -0.009881 -0.082207 -58 -0.923045 0.152212 0.353299
3.492766 -0.010209 -0.035670 629 -0.932422 0.138696 0.333695
3.488465 -0.010211 -0.033063 1051 -0.932780 0.138342 0.332842
3.507010 -0.010496 0.000973 -308 -0.939468 0.128416 0.317662
3.514514 -0.010542 0.003558 -22 -0.940272 0.128526 0.315228
3.505350 -0.010678 0.028837 -258 -0.944302 0.119210 0.306731
3.534078 -0.011191 0.092015 -304 -0.951333 0.109213 0.288163
3.536093 -0.011321 0.109896 -304 -0.953755 0.105973 0.281286
3.531053 -0.011306 0.111296 -306 -0.953755 0.105973 0.281286
3.582341 -0.012591 0.279811 1445 -0.971116 0.123135 0.204379
3.587683 -0.012761 0.303475 1493 -0.972875 0.127445 0.193061
3.444871 -0.009829 -0.152784 515 -0.905228 0.163939 0.392028
3.466230 -0.010365 -0.082589 375 -0.922934 0.148950 0.354975
3.477863 -0.010544 -0.063363 1199 -0.926324 0.145387 0.347544
3.493451 -0.010883 -0.020007 1499 -0.935357 0.132066 0.328124
3.508534 -0.011103 0.005724 783 -0.940907 0.125544 0.314536
3.506421 -0.011130 0.010813 997 -0.941215 0.125226 0.313738
3.510972 -0.011227 0.022379 981 -0.942923 0.122057 0.309837
3.542665 -0.011916 0.109497 -258 -0.953755 0.105973 0.281286
3.548480 -0.012059 0.128856 1481 -0.955865 0.103020 0.275153
3.564136 -0.012630 0.206544 1495 -0.964570 0.109172 0.240179
3.571430 -0.012826 0.233237 1495 -0.966856 0.113673 0.228622
3.573619 -0.012980 0.255729 -160 -0.968809 0.118396 0.217696
3.439499 -0.010350 -0.150961 565 -0.906238 0.164122 0.389611
3.460310 -0.010493 -0.142454 -66 -0.908247 0.163456 0.385188
3.447608 -0.010481 -0.135880 649 -0.910149 0.160447 0.381950
3.456554 -0.010586 -0.126261 643 -0.912501 0.157035 0.377733
3.451455 -0.010574 -0.123972 391 -0.913941 0.156797 0.374334
3.460370 -0.010627 -0.122423 -72 -0.913941 0.156797 0.374334
3.447070 -0.010650 -0.111015 -152 -0.916669 0.153012 0.369195
3.463569 -0.010771 -0.101730 1517 -0.918060 0.152776 0.365822
3.469038 -0.010877 -0.088875 1361 -0.921601 0.149185 0.358323
3.475295 -0.011016 -0.071743 695 -0.925031 0.145620 0.350874
3.497984 -0.011346 -0.035676 -110 -0.933130 0.135653 0.332967
3.520717 -0.011687 0.002982 -114 -0.940106 0.125437 0.316965
3.541165 -0.012194 0.069107 -284 -0.949363 0.109593 0.294448
3.548721 -0.012373 0.091593 -314 -0.951851 0.106345 0.287525
3.528152 -0.012341 0.098938 -306 -0.953072 0.103566 0.284479
3.555113 -0.012513 0.109287 -304 -0.954016 0.103384 0.281363
3.549598 -0.012498 0.110172 -274 -0.954016 0.103384 0.281363
3.543176 -0.012509 0.115478 -284 -0.954947 0.103202 0.278254
3.564230 -0.012622 0.120838 -276 -0.954686 0.105786 0.278178
3.550322 -0.012713 0.142990 1499 -0.957875 0.102398 0.268309
3.561190 -0.013039 0.185790 1483 -0.962484 0.104087 0.250580
3.566490 -0.013275 0.218533 1481 -0.966093 0.108765 0.234166
3.595044 -0.013597 0.250889 -286 -0.968400 0.116106 0.220729
3.578927 -0.013596 0.261679 1421 -0.969497 0.118169 0.214738
3.589794 -0.014068 0.326639 1465 -0.975101 0.126751 0.181969
3.434707 -0.010929 -0.140082 -256 -0.909159 0.160273 0.384372
3.454868 -0.010992 -0.141722 -262 -0.908666 0.160687 0.385365
3.461991 -0.011111 -0.128060 189 -0.912501 0.157035 0.377733
3.476978 -0.011219 -0.121861 -312 -0.913941 0.156797 0.374334
3.479619 -0.011814 -0.033252 -210 -0.933825 0.132622 0.332239
3.491021 -0.011889 -0.028999 1029 -0.934173 0.132284 0.331393
3.509421 -0.012263 0.016526 1017 -0.942441 0.119313 0.312360
3.544677 -0.012964 0.102799 -220 -0.953311 0.103308 0.283770
3.530075 -0.013038 0.122234 -282 -0.955656 0.100116 0.276945
3.521474 -0.013002 0.123279 -302 -0.955656 0.100116 0.276945
3.559305 -0.013515 0.177087 1479 -0.961924 0.101730 0.253680
3.563214 -0.013665 0.198877 1495 -0.963636 0.106500 0.245079
3.582898 -0.014088 0.251134 -308 -0.968840 0.113307 0.220249
3.565807 -0.014030 0.253124 -280 -0.969534 0.113091 0.217287
3.587207 -0.014524 0.316149 1465 -0.974506 0.124165 0.186874
3.442396 -0.011446 -0.142739 -268 -0.907668 0.160511 0.387783
3.456503 -0.011584 -0.131669 28 -0.911524 0.156867 0.380155
3.441193 -0.011539 -0.128571 19 -0.911524 0.156867 0.380155
3.479589 -0.012175 -0.057067 1475 -0.928712 0.139376 0.343610
3.486044 -0.012286 -0.043672 1459 -0.931054 0.135750 0.338690
3.486726 -0.012327 -0.037775 893 -0.932619 0.132840 0.335524
3.495744 -0.012512 -0.015365 1481 -0.937514 0.126178 0.324263
3.511961 -0.012858 0.027178 -118 -0.944112 0.116178 0.308472
3.521570 -0.013066 0.052534 -236 -0.947337 0.109971 0.300763
3.516443 -0.013061 0.054563 -298 -0.948090 0.110058 0.298350
3.527580 -0.013107 0.054254 -308 -0.948090 0.110058 0.298350
3.533166 -0.013123 0.054370 -300 -0.948090 0.110058 0.298350
3.523923 -0.013350 0.093749 -302 -0.952613 0.100896 0.286963
3.549637 -0.013523 0.103585 -306 -0.953311 0.103308 0.283770
3.548687 -0.013622 0.119526 -310 -0.955429 0.100366 0.277635
3.557188 -0.013689 0.124531 101 -0.956342 0.100188 0.274542
3.554060 -0.013896 0.158131 1479 -0.959859 0.099474 0.262250
3.556048 -0.013977 0.169551 1487 -0.961293 0.101663 0.256087
3.572576 -0.014495 0.238147 1495 -0.968019 0.110667 0.225150
3.575215 -0.014544 0.244684 1513 -0.968570 0.110730 0.222733
3.572096 -0.014563 0.249153 889 -0.969271 0.110520 0.219769
3.577603 -0.014591 0.250138 65 -0.968996 0.113028 0.219707
3.587120 -0.014681 0.257663 0 -0.969253 0.115599 0.217224
3.581613 -0.014769 0.274848 1461 -0.971490 0.117488 0.205921
3.584213 -0.014836 0.284184 1479 -0.971993 0.117549 0.203499
3.584569 -0.014876 0.289688 1465 -0.972336 0.119808 0.200521
3.583377 -0.014909 0.295766 1457 -0.972960 0.119575 0.197613
3.586450 -0.015002 0.307877 1477 -0.973751 0.121876 0.192237
3.437508 -0.012036 -0.132392 -270 -0.911924 0.154108 0.380322
3.447206 -0.012087 -0.129905 -312 -0.911924 0.154108 0.380322
3.472153 -0.012271 -0.118536 -234 -0.914804 0.153642 0.373533
3.456086 -0.012238 -0.113786 647 -0.916106 0.150112 0.371774
3.458433 -0.012276 -0.109213 1427 -0.917060 0.150269 0.369352
3.459755 -0.012437 -0.085079 -302 -0.922769 0.143356 0.357695
3.476441 -0.012535 -0.081633 -236 -0.924093 0.143130 0.354352
3.484382 -0.012908 -0.030492 -230 -0.934507 0.129603 0.331511
3.498543 -0.012964 -0.030851 61 -0.934173 0.132284 0.331393
3.499752 -0.013131 -0.006518 1487 -0.938481 0.122880 0.322729
3.502131 -0.013192 0.000865 601 -0.939613 0.122675 0.319496
3.519537 -0.013434 0.026529 -302 -0.944112 0.116178 0.308472
3.511904 -0.013557 0.050014 -246 -0.947337 0.109971 0.300763
3.538663 -0.013697 0.053400 -236 -0.948090 0.110058 0.298350
3.535459 -0.013788 0.069499 -298 -0.949893 0.106715 0.293795
3.532652 -0.014000 0.104092 -238 -0.953802 0.100469 0.283140
3.536881 -0.014083 0.114745 -292 -0.954736 0.100293 0.280038
3.548666 -0.014269 0.133762 1503 -0.957702 0.097196 0.270852
3.561586 -0.014689 0.190703 1513 -0.963541 0.101358 0.247621
3.566101 -0.014839 0.210848 1493 -0.965449 0.103578 0.239124
3.581689 -0.015211 0.257205 -124 -0.969686 0.112813 0.216753
3.445511 -0.012498 -0.148566 765 -0.907075 0.157567 0.390369
3.470436 -0.012712 -0.132968 -306 -0.911924 0.154108 0.380322
3.449879 -0.012728 -0.116772 -212 -0.915653 0.150499 0.372731
3.465821 -0.012950 -0.092832 1369 -0.921057 0.146310 0.360898
3.475486 -0.013019 -0.089116 -15 -0.922398 0.146081 0.357551
3.472009 -0.013079 -0.077870 887 -0.924860 0.140046 0.353582
3.484168 -0.013305 -0.052149 1505 -0.929816 0.135970 0.341986
3.496064 -0.013720 0.001961 323 -0.940234 0.119715 0.318792
3.489765 -0.013696 0.003079 -166 -0.940234 0.119715 0.318792
3.531762 -0.014165 0.045728 -292 -0.947065 0.110247 0.301520
3.527424 -0.014309 0.070075 -296 -0.950157 0.104109 0.293876
3.543816 -0.014535 0.094089 -310 -0.952855 0.100644 0.286249
3.540550 -0.014559 0.100317 -126 -0.953802 0.100469 0.283140
3.552845 -0.014704 0.114350 -306 -0.954982 0.097713 0.280111
3.541008 -0.014712 0.122692 -312 -0.956125 0.097299 0.276329
3.546546 -0.014748 0.124567 95 -0.956125 0.097299 0.276329
3.553015 -0.014953 0.151602 1509 -0.959450 0.096849 0.264720
3.578482 -0.015813 0.266629 1443 -0.971032 0.112382 0.210874
3.588752 -0.016215 0.321103 1485 -0.975797 0.118695 0.183665
3.465450 -0.013176 -0.138831 -292 -0.910459 0.154339 0.383724
3.464113 -0.013293 -0.119134 265 -0.915653 0.150499 0.372731
3.476284 -0.013694 -0.067541 1461 -0.926906 0.136757 0.349489
3.495211 -0.014050 -0.026722 619 -0.935177 0.126596 0.330783
3.489903 -0.014036 -0.024564 1021 -0.935517 0.126274 0.329943
3.498120 -0.014170 -0.011262 1471 -0.938157 0.123192 0.323549
3.504516 -0.014308 0.006072 587 -0.941644 0.116866 0.315672
3.521654 -0.014738 0.058504 -218 -0.949158 0.104289 0.297024
3.540191 -0.015137 0.106350 -298 -0.954282 0.097641 0.282509
3.548409 -0.015384 0.138692 1491 -0.957915 0.096955 0.270181
3.556163 -0.015572 0.162410 1491 -0.960504 0.096436 0.261021
3.567625 -0.016022 0.222876 1481 -0.967118 0.102939 0.232566
3.560885 -0.016193 0.253210 -244 -0.970377 0.107539 0.216342
3.585227 -0.016612 0.300153 1469 -0.973991 0.116578 0.194297
3.457970 -0.013655 -0.138369 -278 -0.910459 0.154339 0.383724
3.475022 -0.013727 -0.139569 -264 -0.910459 0.154339 0.383724
3.467122 -0.013785 -0.125488 -258 -0.914231 0.150728 0.376116
3.455110 -0.013764 -0.119607 375 -0.914691 0.150341 0.375150
3.471032 -0.014075 -0.083718 265 -0.923544 0.140268 0.356919
3.491004 -0.014509 -0.033357 1077 -0.933986 0.126804 0.334053
3.523951 -0.015188 0.046333 -300 -0.946852 0.107266 0.303258
3.530837 -0.015319 0.060542 -270 -0.949158 0.104289 0.297024
3.524212 -0.015307 0.064306 -248 -0.949675 0.101422 0.296362
3.546247 -0.015428 0.066525 -306 -0.949418 0.104028 0.296282
3.521428 -0.015328 0.069408 -258 -0.949933 0.101169 0.295622
3.552492 -0.015664 0.097908 -314 -0.953341 0.097812 0.285611
3.546976 -0.015639 0.098803 -214 -0.953341 0.097812 0.285611
3.524973 -0.015570 0.104555 -156 -0.954522 0.095062 0.282580
3.554291 -0.015817 0.120287 -302 -0.956363 0.094728 0.276398
3.551975 -0.015983 0.146714 1503 -0.959028 0.094225 0.267185
3.559319 -0.016242 0.181458 1521 -0.962793 0.096151 0.252557
3.563638 -0.016404 0.203232 1479 -0.965527 0.098211 0.241063
3.571147 -0.016609 0.228267 1485 -0.967848 0.102747 0.229594
3.590533 -0.016860 0.253161 -202 -0.969843 0.107479 0.218752
3.588879 -0.017233 0.311716 1491 -0.975053 0.116406 0.189003
3.449701 -0.014106 -0.145375 127 -0.907977 0.154399 0.389538
3.459781 -0.014152 -0.146205 -114 -0.907977 0.154399 0.389538
3.452086 -0.014170 -0.137591 -128 -0.910346 0.151019 0.385309
3.465194 -0.014277 -0.131751 -292 -0.912791 0.150956 0.379507
3.462444 -0.014425 -0.105947 1521 -0.918700 0.144028 0.367760
3.466849 -0.014501 -0.098923 1523 -0.920073 0.143805 0.364399
3.481042 -0.014609 -0.092502 -212 -0.921848 0.143213 0.360119
3.483509 -0.014654 -0.087907 -138 -0.922627 0.140128 0.359339
3.508640 -0.015413 0.009496 1087 -0.942238 0.113926 0.314973
3.513261 -0.015514 0.021062 1065 -0.943903 0.110812 0.311074
3.502190 -0.015634 0.046962 -312 -0.947390 0.104385 0.302583
3.516207 -0.015705 0.046942 -268 -0.947390 0.104385 0.302583
3.535546 -0.015814 0.049244 -192 -0.948145 0.104468 0.300180
3.514424 -0.015771 0.059044 -194 -0.948932 0.101342 0.298762
3.540846 -0.015919 0.061977 -196 -0.949675 0.101422 0.296362
3.552340 -0.016277 0.107233 -280 -0.954522 0.095062 0.282580
3.545862 -0.016252 0.108179 -290 -0.954752 0.094826 0.281879
3.575704 -0.017377 0.258410 399 -0.970524 0.107275 0.215812
3.581294 -0.017539 0.279236 1471 -0.972602 0.109465 0.205090
3.451774 -0.014734 -0.131068 101 -0.911811 0.150794 0.381918
3.456056 -0.015024 -0.090594 -222 -0.922982 0.137406 0.359477
3.478536 -0.015328 -0.061850 1491 -0.928022 0.133360 0.347836
3.483727 -0.015452 -0.047238 1475 -0.931229 0.129907 0.340494
3.494711 -0.015677 -0.021258 1161 -0.936480 0.120618 0.329327
3.515612 -0.015931 0.001231 -116 -0.940843 0.116767 0.318088
3.532645 -0.016442 0.065312 -154 -0.949933 0.101169 0.295622
3.557440 -0.017273 0.173302 1485 -0.962401 0.093549 0.255017
3.562981 -0.017439 0.195018 1497 -0.964568 0.095565 0.245920
3.566664 -0.017595 0.215205 1499 -0.967036 0.097847 0.235088
3.571290 -0.017743 0.234301 1483 -0.968815 0.100048 0.226690
3.570151 -0.017870 0.255211 -184 -0.970929 0.104523 0.215342
3.580806 -0.018032 0.270977 1435 -0.972362 0.106922 0.207555
3.455739 -0.015288 -0.127812 723 -0.913643 0.147816 0.378690
3.474023 -0.015740 -0.073799 1471 -0.926355 0.133914 0.352042
3.501217 -0.016190 -0.026797 73 -0.934993 0.123490 0.332472
3.483117 -0.016116 -0.023897 -196 -0.935642 0.120510 0.331740
