ply
format ascii 1.0
element vertex 725
property float x
property float y
property float z
property uchar red
property uchar green
property uchar blue
property float nx
property float ny
property float nz
element face 0
property list uchar int vertex_indices
end_header
0.154650 0.243234 0.902713 137 116 87 -0.379152 0.191847 0.905229
0.154649 0.244791 0.902688 140 129 115 -0.005799 0.016057 0.999854
0.154647 0.246347 0.902663 148 135 143 -0.005798 0.016058 0.999854
0.154646 0.247903 0.902638 156 130 132 -0.369984 0.133278 0.919429
0.154644 0.249460 0.902613 146 124 122 -0.407599 0.538379 0.737571
0.154131 0.250302 0.899993 137 122 114 -0.161216 0.856722 0.489936
0.153620 0.251140 0.897388 135 121 106 -0.161351 0.528397 0.833524
0.153617 0.254235 0.897338 133 115 98 -0.005801 0.016045 0.999854
0.153616 0.255783 0.897313 128 109 91 -0.005741 0.015926 0.999857
0.153615 0.257330 0.897289 123 101 90 -0.005701 0.015823 0.999859
0.153613 0.258878 0.897264 119 98 89 -0.005658 0.016030 0.999856
0.153612 0.260425 0.897239 115 97 83 -0.005658 0.016029 0.999856
0.154119 0.262717 0.899794 106 88 78 -0.207688 -0.353507 0.912085
0.154118 0.264269 0.899769 98 79 73 -0.005640 0.015886 0.999858
0.154116 0.265821 0.899745 98 81 68 -0.005593 0.015886 0.999858
0.154115 0.267373 0.899720 98 84 66 -0.005707 0.015929 0.999857
0.154113 0.268925 0.899695 121 99 65 -0.005736 0.015982 0.999856
0.153601 0.271257 0.897065 145 114 93 0.219027 0.845085 0.487708
0.153094 0.272033 0.894475 146 125 122 0.355597 0.754311 0.551875
0.153092 0.273576 0.894450 148 124 123 0.595544 0.567705 0.568364
0.152587 0.274343 0.891873 150 130 124 0.633507 0.457179 0.624225
0.152586 0.275882 0.891849 152 133 124 0.222462 0.320554 0.920736
0.152584 0.277420 0.891824 148 133 125 -0.005785 0.016139 0.999853
0.152583 0.278959 0.891799 144 135 119 -0.005756 0.016076 0.999854
0.152581 0.280498 0.891775 137 129 114 0.245801 0.683279 0.687541
0.152079 0.281243 0.889212 130 114 90 0.175275 0.962969 0.204865
0.152578 0.283575 0.891725 122 105 67 0.592175 0.405006 0.696634
0.151576 0.285043 0.886614 113 84 81 0.361056 0.584107 0.726951
0.151079 0.285770 0.884078 124 104 96 0.076756 0.718108 0.691686
0.151078 0.287296 0.884054 136 133 117 0.076292 0.715379 0.694559
0.150584 0.288015 0.881532 142 135 139 0.399480 0.611925 0.682616
0.150582 0.289536 0.881508 148 136 128 0.221008 0.311090 0.924326
0.150581 0.291058 0.881483 138 127 117 -0.005687 0.016093 0.999854
0.150579 0.292579 0.881459 128 112 110 -0.005757 0.015991 0.999856
0.150578 0.294101 0.881434 125 109 104 -0.005726 0.015931 0.999857
0.150576 0.295622 0.881410 123 108 89 -0.005613 0.016003 0.999856
0.150575 0.297144 0.881386 123 106 74 -0.354010 -0.012295 0.935161
0.150572 0.300187 0.881337 124 106 82 -0.547741 0.158332 0.821529
0.150080 0.300867 0.878829 124 103 91 -0.468664 -0.071909 0.880445
0.150079 0.302384 0.878804 125 103 85 -0.660374 0.141831 0.737421
0.150568 0.304751 0.881264 125 104 80 0.040413 0.852092 0.521829
0.150076 0.305419 0.878756 126 107 91 -0.146071 0.633472 0.759853
0.150075 0.306936 0.878731 126 104 103 -0.005723 0.015991 0.999856
0.150073 0.308453 0.878707 127 99 96 -0.005688 0.016043 0.999855
0.150072 0.309970 0.878683 119 97 90 0.177316 0.608350 0.773608
0.149583 0.310622 0.876188 112 92 91 -0.035519 0.904229 0.425569
0.148614 0.310407 0.871263 140 114 92 -0.115167 0.992064 0.050453
0.148132 0.311051 0.868807 169 136 126 -0.058658 0.998274 0.002759
0.184125 0.027757 1.064280 133 114 96 -0.092211 0.776903 0.622831
0.183433 0.031308 1.060700 139 122 96 0.211430 0.794675 0.569024
0.182748 0.033022 1.057160 145 131 119 -0.062289 0.672025 0.737904
0.182747 0.034835 1.057130 158 138 143 -0.023537 0.733016 0.679804
0.182066 0.036532 1.053620 171 138 131 -0.115919 0.890254 0.440466
0.181389 0.038218 1.050140 162 143 119 0.033020 0.863179 0.503817
0.180717 0.039892 1.046670 154 134 114 -0.130755 0.756627 0.640639
0.180715 0.041688 1.046640 148 133 110 0.101465 0.759393 0.642672
0.180047 0.043346 1.043190 143 118 111 0.124904 0.738120 0.663006
0.180045 0.045136 1.043160 141 111 112 0.129379 0.754596 0.643309
0.179380 0.048562 1.039710 139 113 111 -0.005616 0.016820 0.999843
0.179378 0.050346 1.039680 138 121 111 -0.005628 0.016829 0.999843
0.179376 0.052130 1.039650 138 125 101 0.159036 0.625413 0.763915
0.178716 0.053744 1.036250 140 133 92 0.159211 0.626527 0.762965
0.178715 0.055522 1.036220 142 121 97 -0.005642 0.016850 0.999842
0.178713 0.057301 1.036190 134 121 103 -0.006106 0.015907 0.999855
0.178711 0.059080 1.036160 126 113 109 -0.006700 0.014067 0.999879
0.178709 0.060858 1.036140 136 106 115 -0.005988 0.014974 0.999870
0.178708 0.062637 1.036110 146 124 121 -0.005636 0.015911 0.999858
0.178704 0.066194 1.036050 151 135 127 0.501582 0.461524 0.731718
0.178049 0.067757 1.032670 157 133 122 0.448424 0.744955 0.493921
0.178047 0.069530 1.032640 149 130 117 0.376616 0.659753 0.650297
0.177395 0.071077 1.029280 141 124 114 0.393111 0.813766 0.428075
0.176747 0.072614 1.025940 139 120 112 0.534132 0.493498 0.686413
0.176745 0.074376 1.025910 138 124 113 0.624908 0.224990 0.747576
0.176744 0.076137 1.025880 144 126 114 0.861594 0.203069 0.465208
0.176742 0.077899 1.025850 150 125 112 0.809540 0.343724 0.475920
0.176740 0.079661 1.025830 149 125 110 0.410014 0.128064 0.903044
0.176737 0.083184 1.025770 149 120 109 0.524383 0.384089 0.759933
0.176093 0.084677 1.022450 140 117 109 0.153358 0.434085 0.887723
0.176092 0.086433 1.022420 132 118 105 -0.005704 0.017067 0.999838
0.176090 0.088189 1.022390 127 120 100 -0.005845 0.014698 0.999875
0.176088 0.089945 1.022370 123 107 99 0.399579 0.215000 0.891129
0.176087 0.091701 1.022340 126 105 98 0.378821 0.580017 0.721162
0.175447 0.093163 1.019040 130 110 99 0.497080 0.834551 0.237562
0.174180 0.094319 1.012530 135 120 101 0.235686 0.902156 0.361341
0.173551 0.095759 1.009290 140 125 105 -0.075308 0.858766 0.506804
0.172926 0.097189 1.006070 142 126 110 -0.269916 0.779810 0.564838
0.172304 0.100333 1.002840 145 127 109 -0.452196 0.621084 0.640136
0.171686 0.101740 0.999655 146 130 110 -0.288817 0.740809 0.606454
0.171685 0.103458 0.999627 148 132 116 -0.281085 0.710670 0.644934
0.171071 0.104850 0.996464 144 137 122 -0.291423 0.501084 0.814854
0.172782 0.106564 0.996446 141 133 114 -0.339710 0.313057 0.886900
0.172780 0.108277 0.996419 134 131 106 -0.005760 0.015987 0.999856
0.172779 0.109989 0.996391 127 118 103 -0.005754 0.016058 0.999855
0.172777 0.111701 0.996364 121 116 101 -0.005851 0.016106 0.999853
0.172775 0.113413 0.996336 116 102 93 -0.005748 0.015954 0.999856
0.172772 0.116838 0.996282 110 94 85 -0.005683 0.015890 0.999858
0.172770 0.118550 0.996254 105 86 77 -0.005728 0.016030 0.999855
0.172769 0.120262 0.996227 101 79 70 -0.005746 0.016095 0.999854
0.172767 0.121975 0.996199 98 79 70 -0.005739 0.015987 0.999856
0.171053 0.123685 0.996162 89 74 71 -0.005795 0.016003 0.999855
0.171052 0.125397 0.996135 80 74 71 -0.005727 0.015978 0.999856
0.171050 0.127110 0.996107 86 63 71 -0.005829 0.016049 0.999854
0.171048 0.128822 0.996080 93 66 66 -0.005730 0.016111 0.999854
0.171047 0.130534 0.996052 95 65 60 0.159729 -0.392730 0.905676
0.171656 0.134374 0.999132 97 67 41 -0.005759 0.015965 0.999856
0.171654 0.136092 0.999104 100 72 22 -0.005772 0.016007 0.999855
0.171652 0.137810 0.999077 104 79 43 -0.005706 0.015998 0.999856
0.172266 0.139962 1.002200 111 90 64 0.104814 0.329096 0.938462
0.171649 0.141245 0.999022 119 86 67 -0.146388 0.171999 0.974160
0.171648 0.142962 0.998994 126 99 71 -0.005780 0.016110 0.999853
0.171646 0.144680 0.998966 134 97 76 -0.005738 0.016111 0.999854
0.171644 0.146398 0.998939 129 100 82 -0.046702 0.451344 0.891127
0.171031 0.147657 0.995778 125 104 81 0.069542 0.714614 0.696054
0.170419 0.150614 0.992608 125 110 80 0.767814 0.063005 0.637568
0.170418 0.152321 0.992580 126 112 84 0.573826 -0.388271 0.721089
0.171024 0.154505 0.995668 134 115 87 -0.005657 0.016054 0.999855
0.171023 0.156218 0.995640 142 122 97 0.159618 0.296313 0.941658
0.172120 0.157444 0.992508 149 130 107 0.251970 0.569070 0.782732
0.172118 0.159151 0.992481 156 133 117 -0.005770 0.016049 0.999855
0.172117 0.160858 0.992453 142 129 129 -0.005761 0.016079 0.999854
0.170408 0.162563 0.992416 128 112 96 0.552458 -0.221841 0.803478
0.171015 0.164779 0.995503 103 90 63 0.427674 -0.467725 0.773516
0.171013 0.166491 0.995476 78 67 55 0.487972 -0.491246 0.721499
0.171622 0.170444 0.998553 74 49 47 0.717966 0.082774 0.691140
0.171620 0.172161 0.998526 71 46 34 0.674079 0.027137 0.738160
0.171618 0.173879 0.998498 73 47 22 0.668873 -0.031780 0.742697
0.171617 0.175597 0.998471 75 64 46 0.841414 0.440764 0.312648
0.171003 0.176765 0.995311 109 87 70 0.473635 0.809385 0.347227
0.170884 0.176833 0.986007 144 110 84 0.397024 0.757755 0.517860
0.170280 0.177982 0.982921 147 117 99 0.323363 0.814463 0.481753
0.170278 0.179674 0.982894 150 130 112 0.214588 0.853400 0.475037
0.169677 0.180810 0.979826 154 140 125 0.130537 0.882726 0.451391
0.168486 0.183062 0.973743 158 138 126 0.332284 0.897190 0.290924
0.166728 0.183067 0.964803 158 139 128 0.180441 0.978155 -0.103212
0.166147 0.184172 0.961839 158 136 119 0.475845 0.864189 0.163549
0.165570 0.185270 0.958893 157 139 111 0.482147 0.833571 0.269618
0.164997 0.186362 0.955963 156 136 116 0.581469 0.706091 0.404140
0.164995 0.188007 0.955937 154 130 122 0.600673 0.745278 0.289402
0.164425 0.189087 0.953024 152 128 112 0.732768 0.612480 0.296513
0.163857 0.190160 0.950127 137 120 103 0.662007 0.444217 0.603670
0.163856 0.191795 0.950101 122 96 88 0.781188 0.427729 0.454745
0.163854 0.193431 0.950075 121 82 73 0.721997 0.464562 0.512741
0.162730 0.195538 0.944332 120 100 92 0.703433 0.684627 0.190967
0.162728 0.197164 0.944306 133 127 110 0.673912 0.729824 0.114884
0.160520 0.196462 0.933088 147 128 116 0.536871 0.843501 -0.016607
0.159434 0.196914 0.927560 146 133 123 0.718726 0.522538 0.458679
0.159433 0.198512 0.927535 145 121 99 0.799175 0.412238 0.437469
0.159431 0.200109 0.927509 149 104 76 0.793532 0.454825 0.404279
0.158892 0.201120 0.924755 153 116 83 0.804270 0.503003 0.316445
0.158356 0.202125 0.922017 149 124 91 0.852711 0.251066 0.458093
0.159406 0.203126 0.919302 145 119 95 0.808409 0.132297 0.573561
0.159404 0.204710 0.919277 144 112 100 0.790713 0.228712 0.567858
0.159401 0.207877 0.919226 144 124 111 0.812441 0.178134 0.555165
0.159400 0.209460 0.919201 142 134 124 0.834971 -0.034549 0.549208
0.159398 0.211043 0.919175 141 121 107 0.858951 0.023168 0.511533
0.159397 0.212627 0.919150 120 113 91 0.810596 0.002642 0.585600
0.159395 0.214210 0.919125 100 88 82 0.814287 0.231914 0.532122
0.159394 0.215794 0.919099 110 78 73 0.800769 0.211167 0.560515
0.158859 0.216750 0.916391 121 91 77 0.468934 0.073036 0.880208
0.158339 0.219594 0.921737 123 102 82 0.542310 0.251949 0.801512
0.157806 0.220543 0.919014 126 101 85 0.660175 0.505518 0.555535
0.157804 0.222126 0.918989 127 105 87 0.689100 0.451508 0.566817
0.158851 0.224645 0.916265 129 109 90 0.481839 0.059759 0.874220
0.158850 0.226224 0.916239 129 112 94 -0.005769 0.016010 0.999855
0.158848 0.227802 0.916214 130 98 78 -0.005724 0.015948 0.999856
0.158847 0.229381 0.916189 129 91 63 -0.046616 0.266629 0.962671
0.158315 0.230296 0.913496 129 98 53 0.391467 0.467230 0.792748
0.158313 0.231870 0.913471 136 117 43 -0.005767 0.016047 0.999855
0.158312 0.233444 0.913446 143 124 75 -0.005827 0.016090 0.999854
0.158310 0.235018 0.913420 148 145 108 -0.005739 0.016084 0.999854
0.158309 0.236593 0.913395 153 137 113 -0.005735 0.016010 0.999855
0.158308 0.238167 0.913370 137 112 119 -0.005731 0.015870 0.999858
0.156730 0.239249 0.905406 121 97 101 -0.005782 0.016010 0.999855
0.156729 0.240809 0.905381 128 102 83 -0.272583 0.287435 0.918194
0.156727 0.242370 0.905356 135 110 89 -0.477551 0.422935 0.770111
0.156207 0.243236 0.902722 135 112 96 -0.478449 0.423500 0.769243
0.156205 0.244792 0.902697 136 125 111 -0.005798 0.016059 0.999854
0.156204 0.246349 0.902672 150 142 127 -0.005797 0.016062 0.999854
0.156202 0.247905 0.902647 164 135 121 -0.005800 0.016058 0.999854
0.156201 0.249461 0.902622 149 122 116 -0.144479 0.628214 0.764508
0.155683 0.250304 0.900002 135 114 104 -0.106140 0.903653 0.414904
0.155682 0.251856 0.899977 133 106 91 -0.099336 0.732275 0.673725
0.155165 0.254237 0.897347 132 111 88 -0.005800 0.016005 0.999855
0.155164 0.255784 0.897322 128 117 85 -0.005727 0.015965 0.999856
0.155162 0.257332 0.897297 124 106 85 -0.005661 0.015932 0.999857
0.155161 0.258879 0.897273 120 100 85 -0.005589 0.015963 0.999857
0.155159 0.260427 0.897248 117 95 74 -0.239866 -0.283283 0.928555
0.155671 0.262719 0.899803 104 85 63 -0.005817 0.016101 0.999853
0.155670 0.264271 0.899778 92 76 50 -0.005637 0.015996 0.999856
0.155668 0.265823 0.899753 95 79 38 -0.005656 0.015822 0.999859
0.155667 0.267375 0.899729 98 86 57 -0.005672 0.015884 0.999858
0.155665 0.268927 0.899704 121 103 78 -0.186416 0.116038 0.975594
0.154638 0.270492 0.894508 144 119 105 0.286854 0.922003 0.260049
0.154637 0.272035 0.894483 146 130 133 0.489215 0.775834 0.398435
0.154127 0.272806 0.891907 149 129 126 0.633302 0.457670 0.624073
0.154126 0.274345 0.891882 150 133 119 0.328655 0.222586 0.917846
0.154125 0.275883 0.891857 152 134 118 -0.005652 0.016061 0.999855
0.154123 0.277422 0.891833 149 134 119 -0.005652 0.016033 0.999855
0.154122 0.278961 0.891808 146 136 110 0.220669 0.316732 0.922489
0.154120 0.280499 0.891783 139 136 102 0.398663 0.613633 0.681559
0.153614 0.281244 0.889221 133 118 92 0.216996 0.921751 0.321384
0.153110 0.281985 0.886671 128 109 83 0.369763 0.751514 0.546354
0.152607 0.284246 0.884111 123 100 89 0.166124 0.450096 0.877392
0.152605 0.285772 0.884087 131 106 96 0.128245 0.311720 0.941480
0.152604 0.287298 0.884063 139 126 107 0.002937 0.802283 0.596936
0.152105 0.288017 0.881541 146 134 119 0.174684 0.607611 0.774787
0.152104 0.289538 0.881516 154 132 116 -0.005748 0.015982 0.999856
0.152102 0.291060 0.881492 139 130 112 -0.005711 0.016079 0.999854
0.152101 0.292581 0.881467 125 118 107 -0.005795 0.016095 0.999854
0.152100 0.294102 0.881443 123 115 103 -0.005711 0.016027 0.999855
0.152098 0.295624 0.881419 121 108 94 -0.005712 0.015989 0.999856
0.152097 0.297145 0.881394 122 107 86 -0.005699 0.015929 0.999857
0.152094 0.300188 0.881346 124 106 87 -0.331695 0.021596 0.943139
0.152092 0.301710 0.881321 124 104 90 -0.005713 0.016119 0.999854
0.152091 0.303231 0.881297 125 103 84 -0.329798 -0.057073 0.942325
0.152090 0.304753 0.881272 125 103 79 -0.093395 0.270131 0.958283
0.151594 0.305420 0.878764 125 105 84 -0.416428 0.540538 0.731031
0.151592 0.306938 0.878740 125 108 90 -0.340774 0.210339 0.916314
0.151591 0.308455 0.878716 125 103 82 -0.005737 0.015982 0.999856
0.151589 0.309972 0.878691 117 101 76 -0.065762 0.278595 0.958155
0.151096 0.310623 0.876197 109 94 81 -0.078686 0.977896 0.193721
0.150605 0.311270 0.873716 136 105 86 -0.081741 0.996448 0.020245
0.149633 0.311053 0.868816 163 151 123 -0.052880 0.998364 -0.021737
0.185253 0.031310 1.060710 139 123 101 0.073302 0.854556 0.514160
0.184562 0.033024 1.057180 149 138 125 0.039707 0.600651 0.798525
0.184560 0.034837 1.057150 154 137 150 -0.001714 0.763592 0.645697
0.183874 0.036534 1.053640 160 137 134 -0.004047 0.899991 0.435890
0.183191 0.038219 1.050150 154 131 119 -0.100342 0.782209 0.614882
0.183190 0.040021 1.050120 149 122 108 -0.108492 0.714686 0.690981
0.182511 0.041690 1.046650 146 122 97 -0.154230 0.861776 0.483276
0.181837 0.043348 1.043200 143 114 104 -0.021825 0.733267 0.679590
0.181836 0.045138 1.043170 142 116 111 -0.048652 0.538515 0.841210
0.181164 0.048564 1.039720 141 122 112 -0.005612 0.016817 0.999843
0.181162 0.050348 1.039690 138 126 113 -0.005624 0.016817 0.999843
0.181161 0.052132 1.039660 137 129 103 0.109293 0.688511 0.716943
0.180495 0.053746 1.036260 132 121 94 -0.005643 0.016855 0.999842
0.180493 0.055524 1.036230 127 103 102 -0.005642 0.016861 0.999842
0.180492 0.057303 1.036200 128 114 110 -0.005983 0.014971 0.999870
0.180490 0.059082 1.036180 130 117 115 -0.006571 0.014633 0.999871
0.180488 0.060860 1.036150 137 122 120 -0.006111 0.015921 0.999855
0.180487 0.062639 1.036120 145 133 129 -0.005632 0.016861 0.999842
0.179823 0.065986 1.032710 147 133 139 0.273394 0.877078 0.394955
0.179822 0.067759 1.032680 150 131 128 0.241597 0.823648 0.513065
0.179164 0.069312 1.029320 147 126 117 0.457893 0.751858 0.474388
0.179162 0.071079 1.029290 144 122 119 0.144021 0.885490 0.441775
0.178509 0.072616 1.025950 147 124 122 0.153169 0.435930 0.886851
0.178507 0.074378 1.025920 150 131 131 0.428274 0.293790 0.854558
0.178506 0.076139 1.025890 149 130 140 0.621904 0.481480 0.617586
0.177856 0.077655 1.022570 148 126 127 0.706797 0.331541 0.624914
0.177854 0.079411 1.022540 148 121 115 0.702852 0.089309 0.705707
0.177851 0.082923 1.022490 148 117 117 0.543270 0.177652 0.820547
0.177849 0.084679 1.022460 141 123 120 -0.005714 0.017080 0.999838
0.177848 0.086435 1.022430 135 122 114 -0.005701 0.017077 0.999838
0.177846 0.088191 1.022400 131 120 108 0.513723 0.551268 0.657413
0.177200 0.089664 1.019100 128 119 100 0.732918 0.449776 0.510424
0.177199 0.091414 1.019080 129 111 93 0.665044 0.678219 0.312626
0.176557 0.092872 1.015800 130 108 98 0.214247 0.927478 0.306403
0.175919 0.094321 1.012540 134 110 103 0.030774 0.909935 0.413607
0.175285 0.095760 1.009300 138 124 107 -0.145107 0.833789 0.532672
0.175283 0.097494 1.009270 140 123 111 -0.215459 0.755089 0.619207
0.176380 0.100649 1.006030 142 121 111 -0.410082 0.693933 0.591853
0.175748 0.102060 1.002830 142 125 112 -0.378166 0.730020 0.569263
0.175120 0.103461 0.999647 144 127 111 -0.437671 0.503976 0.744615
0.175119 0.105179 0.999619 140 130 110 -0.458725 0.511010 0.726938
0.175117 0.106896 0.999592 138 129 106 -0.532698 0.370679 0.760808
0.174493 0.108279 0.996429 132 123 102 -0.159378 0.346546 0.924394
0.174491 0.109991 0.996401 126 114 97 -0.005806 0.016071 0.999854
0.174489 0.111703 0.996374 122 112 92 -0.005864 0.016096 0.999853
0.174488 0.113415 0.996346 118 109 91 -0.005783 0.016095 0.999854
0.174485 0.116840 0.996291 113 99 91 -0.005762 0.015914 0.999857
0.174483 0.118552 0.996264 110 95 83 -0.005656 0.015990 0.999856
0.174481 0.120264 0.996237 106 91 76 -0.005748 0.015990 0.999856
0.174480 0.121976 0.996209 103 95 72 -0.005728 0.016040 0.999855
0.174478 0.123689 0.996182 96 88 69 -0.005716 0.015976 0.999856
0.174477 0.125401 0.996154 90 81 70 -0.005665 0.016057 0.999855
0.174475 0.127113 0.996127 91 74 71 -0.005699 0.016058 0.999855
0.174473 0.128825 0.996099 94 76 65 -0.005712 0.015923 0.999857
0.174472 0.130538 0.996072 91 71 59 -0.005734 0.015941 0.999856
0.175091 0.134378 0.999151 89 66 31 -0.005709 0.016057 0.999855
0.175090 0.136096 0.999124 93 68 4 -0.005731 0.015938 0.999857
0.175088 0.137813 0.999096 98 59 37 -0.005724 0.016003 0.999856
0.175086 0.139531 0.999069 96 65 71 -0.005687 0.016009 0.999856
0.175085 0.141248 0.999041 95 65 75 -0.005685 0.016043 0.999855
0.175083 0.142966 0.999014 107 80 79 -0.005676 0.015999 0.999856
0.175081 0.144684 0.998986 120 95 79 -0.005760 0.016009 0.999855
0.175080 0.146401 0.998959 121 99 80 0.011960 0.564596 0.825281
0.174456 0.147660 0.995797 123 110 77 -0.004655 0.600170 0.799859
0.174452 0.151085 0.995742 125 112 75 -0.005875 0.016016 0.999855
0.174451 0.152797 0.995715 128 115 82 -0.005877 0.015984 0.999855
0.174449 0.154509 0.995687 135 117 89 -0.005728 0.016034 0.999855
0.174447 0.156221 0.995660 142 117 96 -0.132832 0.274392 0.952399
0.173827 0.157446 0.992518 147 124 104 -0.083595 0.443510 0.892363
0.173825 0.159153 0.992491 153 128 105 -0.005737 0.016035 0.999855
0.173824 0.160859 0.992463 149 132 107 -0.005786 0.016095 0.999854
0.173822 0.162566 0.992436 145 139 115 0.237923 0.009172 0.971241
0.173820 0.164273 0.992408 117 114 124 0.399806 -0.483400 0.778768
0.174438 0.166495 0.995495 88 92 88 0.418355 -0.353591 0.836631
0.174435 0.169919 0.995440 76 56 53 0.788808 -0.024727 0.614142
0.174433 0.171631 0.995413 64 42 27 0.804162 0.247266 0.540539
0.174431 0.173344 0.995386 74 50 1 0.826510 0.330995 0.455327
0.173811 0.174515 0.992244 83 70 42 0.844170 0.483054 0.232456
0.173809 0.176222 0.992217 114 98 84 0.679134 0.714865 0.166569
0.172581 0.176835 0.986017 146 121 83 0.375313 0.810679 0.449377
0.171971 0.177984 0.982930 149 122 82 0.465764 0.763957 0.446580
0.171970 0.179675 0.982903 151 133 107 0.468462 0.782468 0.410227
0.171363 0.180812 0.979835 154 134 132 0.478245 0.834887 0.272480
0.170162 0.183064 0.973752 156 135 128 0.352954 0.903405 0.243481
0.167805 0.182519 0.961875 156 132 125 0.236919 0.955804 0.174092
0.167223 0.183622 0.958929 156 128 110 0.248832 0.904115 0.347359
0.166644 0.184718 0.955999 156 133 96 0.562608 0.755166 0.336447
0.166642 0.186363 0.955973 157 138 104 0.364543 0.894395 0.259163
0.166067 0.187448 0.953060 156 137 113 0.440166 0.849694 0.290299
0.165495 0.188526 0.950163 155 135 110 0.668754 0.634172 0.388064
0.165493 0.190161 0.950137 140 118 108 0.781017 0.428343 0.454461
0.165492 0.191797 0.950111 124 91 86 0.661637 0.443974 0.604255
0.164923 0.192859 0.947231 127 95 65 0.639450 0.635891 0.432141
0.164356 0.195540 0.944341 130 118 97 0.714121 0.691574 0.108432
0.162681 0.195429 0.935898 142 128 129 0.511981 0.858700 -0.022582
0.162631 0.195320 0.927604 154 136 138 0.757955 0.561533 0.331940
0.162082 0.196346 0.924850 150 133 147 0.707786 0.649958 0.276754
0.161537 0.197365 0.922111 145 126 106 0.637091 0.690751 0.342019
0.160994 0.198377 0.919388 142 116 65 0.775988 0.424981 0.466083
0.160992 0.199961 0.919362 140 116 77 0.765513 0.322648 0.556676
0.160991 0.201544 0.919337 141 119 89 0.843198 0.241140 0.480488
0.160989 0.203128 0.919311 143 120 94 0.815066 0.282582 0.505782
0.160988 0.204711 0.919286 143 117 99 0.719028 0.247936 0.649250
0.160447 0.207279 0.916552 144 118 104 0.890397 0.288803 0.351833
0.160445 0.208858 0.916527 146 123 110 0.915576 -0.132797 0.379585
0.160444 0.210436 0.916502 149 122 108 0.891042 -0.150201 0.428350
0.160442 0.212015 0.916476 124 111 106 0.793195 -0.086931 0.602731
0.160441 0.213594 0.916451 99 85 85 0.767159 0.016725 0.641239
0.160439 0.215173 0.916426 107 81 64 0.694827 0.086570 0.713948
0.160438 0.216752 0.916400 115 85 70 0.468935 0.073035 0.880208
0.160436 0.218331 0.916375 119 95 77 -0.005815 0.016050 0.999854
0.160435 0.219910 0.916350 124 99 81 0.471236 -0.054236 0.880338
0.160433 0.221489 0.916324 125 102 85 0.646000 0.182933 0.741093
0.160430 0.224646 0.916274 127 105 82 0.765446 0.217069 0.605784
0.160429 0.226225 0.916248 131 106 80 0.726895 -0.008947 0.686691
0.160428 0.227804 0.916223 135 103 63 0.765666 0.015548 0.643050
0.160426 0.229383 0.916198 130 94 46 0.599882 0.305975 0.739270
0.160425 0.230962 0.916173 126 87 40 -0.114364 0.666345 0.736821
0.159888 0.231871 0.913480 132 103 34 -0.017226 0.343696 0.938923
0.159886 0.233446 0.913455 137 116 70 -0.005733 0.016144 0.999853
0.159885 0.235020 0.913429 149 133 106 -0.005694 0.016196 0.999853
0.159883 0.236594 0.913404 160 151 117 -0.005733 0.015994 0.999856
0.159882 0.238169 0.913379 137 119 128 -0.005733 0.015873 0.999858
0.158291 0.239250 0.905415 115 89 103 -0.005782 0.016007 0.999855
0.158290 0.240811 0.905390 124 100 78 -0.005784 0.016014 0.999855
0.158288 0.242372 0.905365 133 111 91 -0.005782 0.016013 0.999855
0.158287 0.243932 0.905340 131 115 105 -0.379294 0.633118 0.674757
0.157762 0.244794 0.902706 130 117 108 -0.069295 0.308219 0.948788
0.157760 0.246350 0.902681 141 133 112 -0.005795 0.016058 0.999854
0.157759 0.247906 0.902656 153 147 111 -0.005797 0.016062 0.999854
0.157757 0.249463 0.902631 143 128 111 0.170471 0.608016 0.775407
0.157235 0.250306 0.900011 134 108 94 -0.114312 0.787976 0.605001
0.157234 0.251858 0.899986 131 106 77 -0.128532 0.663038 0.737468
0.156713 0.254238 0.897356 130 107 78 0.097994 -0.054419 0.993698
0.156711 0.255786 0.897331 126 106 80 0.197766 -0.121087 0.972742
0.156710 0.257333 0.897306 123 107 81 -0.005685 0.016012 0.999856
0.156708 0.258881 0.897281 121 101 82 -0.005646 0.015994 0.999856
0.157225 0.261169 0.899837 119 100 65 -0.241432 -0.441416 0.864212
0.157223 0.262721 0.899812 108 86 49 -0.005812 0.016107 0.999853
0.157222 0.264273 0.899787 99 63 28 -0.005812 0.016105 0.999853
0.157220 0.265824 0.899762 98 71 8 -0.005682 0.015923 0.999857
0.157740 0.268139 0.902331 98 78 49 -0.525050 0.057735 0.849111
0.157217 0.268928 0.899713 121 102 91 -0.412398 -0.018550 0.910815
0.156182 0.270493 0.894517 145 132 117 0.221178 0.848883 0.480080
0.155668 0.271269 0.891940 149 131 144 0.397233 0.613509 0.682504
0.155666 0.272807 0.891916 154 133 129 0.362196 0.701210 0.614100
0.155665 0.274346 0.891891 153 135 114 0.658101 0.237284 0.714562
0.155663 0.275885 0.891866 152 139 113 0.586014 -0.135387 0.798911
0.155662 0.277424 0.891841 148 139 113 0.583325 0.166239 0.795045
0.155661 0.278962 0.891817 144 140 101 0.600850 0.393744 0.695662
0.155150 0.279711 0.889254 137 130 90 0.463237 0.640764 0.612236
0.155148 0.281246 0.889229 131 116 95 -0.000439 0.879362 0.476154
0.154640 0.281986 0.886680 124 108 100 -0.187172 0.836393 0.515184
0.154133 0.284248 0.884120 117 104 98 -0.005788 0.016045 0.999855
0.154131 0.285774 0.884096 128 111 97 -0.005731 0.015936 0.999857
0.154130 0.287299 0.884071 140 131 98 0.173989 0.606561 0.775765
0.153627 0.288018 0.881549 144 131 100 -0.145411 0.629819 0.763010
0.153625 0.289540 0.881525 149 130 104 -0.005670 0.015982 0.999856
0.153624 0.291061 0.881501 138 127 108 -0.005803 0.016093 0.999854
0.153623 0.292583 0.881476 129 119 105 -0.005750 0.016077 0.999854
0.153621 0.294104 0.881452 126 112 102 -0.005797 0.016062 0.999854
0.153620 0.295626 0.881427 123 105 100 -0.005749 0.016006 0.999855
0.153618 0.297147 0.881403 124 109 98 -0.005666 0.016024 0.999856
0.153615 0.300190 0.881354 125 109 93 -0.005763 0.016069 0.999854
0.153614 0.301711 0.881330 123 105 89 -0.005683 0.016094 0.999854
0.153613 0.303233 0.881305 121 106 83 -0.005803 0.016093 0.999854
0.153611 0.304754 0.881281 123 105 78 -0.005644 0.015966 0.999857
0.153610 0.306276 0.881257 124 105 77 -0.339907 0.209694 0.916784
0.153608 0.307797 0.881232 125 106 77 -0.417090 0.539531 0.731398
0.153108 0.308456 0.878724 125 107 69 -0.227053 0.327223 0.917263
0.153107 0.309974 0.878700 113 96 62 0.032626 0.720107 0.693096
0.153105 0.311491 0.878676 102 80 71 -0.245221 0.776279 0.580739
0.152114 0.311272 0.873724 131 115 80 -0.120424 0.990441 0.067265
0.186378 0.031212 1.057210 139 121 107 0.230687 0.481820 0.845360
0.186376 0.033026 1.057190 153 129 121 -0.006474 0.014587 0.999873
0.186374 0.034839 1.057160 151 138 136 0.158037 0.628729 0.761396
0.185682 0.036536 1.053650 149 132 126 0.109697 0.885435 0.451632
0.184993 0.038221 1.050160 147 126 117 -0.000541 0.764339 0.644814
0.184992 0.040023 1.050130 145 122 111 -0.001024 0.716375 0.697714
0.184308 0.041692 1.046660 144 119 105 0.060272 0.869469 0.490297
0.183628 0.043350 1.043210 143 119 114 -0.075636 0.743388 0.664571
0.183626 0.045140 1.043180 143 119 124 -0.080748 0.802522 0.591133
0.182949 0.048565 1.039730 143 124 119 -0.005617 0.016803 0.999843
0.182947 0.050350 1.039700 139 136 115 -0.005623 0.016803 0.999843
0.182275 0.051969 1.036300 136 125 102 0.098623 0.660825 0.744032
0.182274 0.053748 1.036270 124 119 89 -0.005645 0.016867 0.999842
0.182272 0.055526 1.036240 112 114 101 -0.005641 0.016870 0.999842
0.182270 0.057305 1.036210 123 116 112 -0.005981 0.014035 0.999884
0.182269 0.059083 1.036190 134 126 114 -0.005632 0.014397 0.999880
0.182267 0.060862 1.036160 139 135 116 -0.005632 0.015806 0.999859
0.182265 0.062641 1.036130 145 134 119 -0.005634 0.016860 0.999842
0.181596 0.065988 1.032720 144 133 123 0.305770 0.770228 0.559691
0.180933 0.067546 1.029360 144 126 122 -0.096327 0.681549 0.725404
0.180932 0.069314 1.029330 146 125 121 0.320621 0.814910 0.482829
0.180272 0.070856 1.025990 148 128 117 0.099357 0.662694 0.742270
0.180271 0.072618 1.025960 155 126 114 0.045472 0.387491 0.920751
0.180269 0.074380 1.025930 162 133 118 0.054557 0.405042 0.912669
0.179614 0.075901 1.022610 154 141 123 0.246137 0.637986 0.729651
0.179612 0.077657 1.022580 147 126 120 0.214033 0.645809 0.732885
0.179610 0.079413 1.022550 147 118 118 0.256950 0.053695 0.964932
0.179607 0.082925 1.022500 148 125 115 -0.006075 0.015597 0.999860
0.179605 0.084681 1.022470 143 139 112 -0.005713 0.017081 0.999838
0.179604 0.086437 1.022440 138 125 110 0.250967 0.447440 0.858378
0.178953 0.087915 1.019140 136 123 109 0.378695 0.570956 0.728422
0.178951 0.089666 1.019110 134 123 97 0.403377 0.679906 0.612385
0.178949 0.091416 1.019090 132 116 86 0.329775 0.653463 0.681348
0.180047 0.092876 1.015820 130 102 88 0.267447 0.843423 0.465950
0.179398 0.094325 1.012560 133 89 89 0.201287 0.828110 0.523180
0.179397 0.096064 1.012530 137 113 99 0.156998 0.729427 0.665798
0.178752 0.097498 1.009290 138 123 110 -0.082924 0.556192 0.826907
0.178109 0.100651 1.006040 139 120 109 -0.360781 0.717031 0.596409
0.177472 0.102062 1.002840 139 122 108 -0.440129 0.733171 0.518409
0.177470 0.103785 1.002810 140 125 109 -0.449226 0.588594 0.672125
0.176836 0.105181 0.999629 137 128 111 -0.271878 0.420341 0.865676
0.176835 0.106898 0.999602 135 123 108 -0.005728 0.015986 0.999856
0.176833 0.108616 0.999574 130 120 105 -0.338230 0.594241 0.729711
0.176203 0.109992 0.996411 126 113 100 -0.005792 0.016074 0.999854
0.176202 0.111705 0.996384 123 110 94 -0.005730 0.016051 0.999855
0.176200 0.113417 0.996356 120 105 91 -0.005810 0.016078 0.999854
0.176197 0.116842 0.996301 117 101 89 -0.005764 0.016014 0.999855
0.176195 0.118554 0.996274 115 99 87 -0.005764 0.015972 0.999856
0.176194 0.120266 0.996246 111 98 85 -0.005759 0.016006 0.999855
0.176192 0.121978 0.996219 108 99 78 -0.005655 0.016062 0.999855
0.176190 0.123690 0.996191 104 104 72 -0.005747 0.016000 0.999855
0.176189 0.125403 0.996164 100 88 71 -0.005654 0.016041 0.999855
0.176187 0.127115 0.996136 97 80 70 -0.005760 0.015992 0.999856
0.176186 0.128827 0.996109 95 80 69 -0.005716 0.015960 0.999856
0.176184 0.130539 0.996082 88 80 67 -0.260737 -0.379683 0.887613
0.176809 0.134380 0.999161 82 77 58 -0.005769 0.016019 0.999855
0.176807 0.136097 0.999134 87 79 49 -0.005748 0.015960 0.999856
0.176806 0.137815 0.999106 92 67 57 -0.005711 0.016008 0.999856
0.176804 0.139532 0.999079 81 49 65 -0.005742 0.016052 0.999855
0.176802 0.141250 0.999051 71 66 60 -0.005637 0.016057 0.999855
0.176801 0.142968 0.999023 89 62 54 -0.005720 0.016001 0.999856
0.176799 0.144685 0.998996 107 83 63 -0.005637 0.016012 0.999856
0.176798 0.146403 0.998968 114 92 72 -0.150764 0.646042 0.748265
0.176168 0.147662 0.995807 122 100 68 -0.122355 0.531125 0.838412
0.176165 0.151086 0.995752 126 116 64 -0.005832 0.016003 0.999855
0.176163 0.152799 0.995725 130 117 75 -0.005845 0.016013 0.999855
0.176161 0.154511 0.995697 136 121 87 -0.005846 0.016088 0.999853
0.176160 0.156223 0.995670 143 120 94 -0.005747 0.016064 0.999854
0.176158 0.157935 0.995642 146 123 102 -0.173433 0.551463 0.815972
0.175532 0.159154 0.992500 150 127 104 -0.103350 0.562845 0.820076
0.175531 0.160861 0.992473 156 134 106 0.022362 0.224421 0.974236
0.174909 0.162067 0.989349 163 137 115 0.738389 0.125697 0.662557
0.175528 0.164275 0.992418 131 139 125 0.829993 0.060046 0.554533
0.175526 0.165982 0.992391 99 99 95 0.941975 -0.019064 0.335141
0.174902 0.168874 0.989240 78 44 66 0.875219 0.286448 0.389794
0.174901 0.170576 0.989213 58 48 35 0.851866 0.000689 0.523759
0.174899 0.172277 0.989186 75 43 4 0.924585 0.165358 0.343219
0.174897 0.173979 0.989158 92 71 35 0.932980 0.125036 0.337513
0.174279 0.175140 0.986054 120 115 67 0.548580 0.762422 0.343181
0.173664 0.176295 0.982967 149 121 72 0.531337 0.772070 0.348695
0.173662 0.177986 0.982940 151 120 78 0.525685 0.775055 0.350636
0.173051 0.179128 0.979872 153 123 90 0.621624 0.740839 0.254443
0.171841 0.179715 0.973816 154 129 103 0.631068 0.717938 0.293800
0.171838 0.183066 0.973762 155 129 113 0.511419 0.806277 0.297268
0.169460 0.182520 0.961885 154 130 123 -0.003715 0.994064 0.108737
0.168873 0.183623 0.958938 154 127 112 -0.066247 0.933841 0.351500
0.168290 0.184720 0.956008 156 130 101 0.415423 0.904640 0.095132
0.168870 0.186924 0.958885 159 138 110 0.064880 0.964569 0.255727
0.167708 0.187450 0.953069 159 148 119 0.680830 0.695722 0.229003
0.167131 0.188528 0.950172 159 135 110 0.732909 0.612746 0.295613
0.166557 0.189599 0.947292 143 126 103 0.661690 0.444327 0.603938
0.166555 0.191230 0.947266 127 100 92 0.716703 0.392913 0.576156
0.166554 0.192860 0.947240 134 92 82 0.711384 0.437353 0.550142
0.164853 0.194390 0.938723 141 116 104 0.551061 0.821906 -0.144226
0.163678 0.193162 0.924910 151 131 127 0.698252 0.686925 0.201440
0.163677 0.194754 0.924885 162 133 128 0.715256 0.659895 0.230103
0.163126 0.195778 0.922146 154 138 130 0.619014 0.730337 0.288842
0.162579 0.196796 0.919422 146 131 112 0.577586 0.686662 0.441463
0.162578 0.198379 0.919397 136 120 93 0.569781 0.684392 0.454926
0.162576 0.199962 0.919371 127 113 91 0.653012 0.439033 0.617110
0.162032 0.200965 0.916662 134 119 89 0.592253 0.402614 0.697953
0.162030 0.202544 0.916637 141 118 95 0.544559 -0.087452 0.834151
0.162029 0.204123 0.916612 142 119 101 0.463907 0.166657 0.870067
0.161486 0.206684 0.913893 144 119 102 0.533099 0.193468 0.823636
0.161485 0.208258 0.913868 151 120 104 0.533099 0.193471 0.823635
0.161483 0.209833 0.913842 158 124 105 0.613043 -0.356920 0.704831
0.162021 0.212017 0.916485 128 128 106 0.781496 -0.237281 0.577028
0.162020 0.213596 0.916460 99 96 86 0.727863 -0.007747 0.685678
0.162018 0.215175 0.916435 104 78 65 0.766235 0.016552 0.642347
0.162017 0.216754 0.916409 110 81 73 0.606513 -0.127114 0.784847
0.162016 0.218332 0.916384 116 95 81 0.766257 0.016327 0.642326
0.162014 0.219911 0.916359 122 99 81 0.410131 0.185610 0.892940
0.162013 0.221490 0.916333 124 99 81 0.096319 0.053156 0.993930
0.161470 0.224001 0.913615 126 101 83 0.400313 0.083025 0.912610
0.161468 0.225576 0.913590 133 106 86 0.591620 0.180863 0.785668
0.161467 0.227150 0.913565 141 103 73 0.606363 -0.129188 0.784624
0.161465 0.228724 0.913539 132 97 60 0.606399 -0.129565 0.784534
0.161464 0.230299 0.913514 124 89 58 0.665537 0.247990 0.703962
0.161462 0.231873 0.913489 128 96 57 0.128744 0.350001 0.927860
0.161461 0.233447 0.913464 132 108 83 -0.005732 0.016104 0.999854
0.161459 0.235022 0.913438 150 122 109 -0.005732 0.016114 0.999854
0.161458 0.236596 0.913413 168 135 118 -0.005734 0.015875 0.999858
0.161456 0.238170 0.913388 138 125 128 -0.005733 0.015873 0.999858
0.159852 0.239252 0.905424 109 99 99 -0.005780 0.016006 0.999855
0.159851 0.240813 0.905399 120 99 70 -0.005784 0.016012 0.999855
0.159849 0.242373 0.905374 131 110 90 -0.005783 0.016012 0.999855
0.159848 0.243934 0.905349 127 120 110 -0.145197 0.627930 0.764605
0.159318 0.244795 0.902715 124 122 116 0.002199 0.792060 0.610440
0.159317 0.246352 0.902690 133 128 123 0.330010 0.134649 0.934325
0.159315 0.247908 0.902665 142 135 116 0.490616 0.336580 0.803747
0.159314 0.249464 0.902640 137 136 110 0.473378 0.662995 0.579958
0.158787 0.250307 0.900020 133 117 96 0.421291 0.846991 0.324222
0.158786 0.251859 0.899995 130 107 83 0.485558 0.463872 0.740983
0.158260 0.254240 0.897365 128 102 82 -0.020169 0.012134 0.999723
0.157739 0.255064 0.894773 125 94 82 0.274819 -0.152849 0.949269
0.158257 0.257335 0.897315 123 94 81 -0.005832 0.016144 0.999853
0.158256 0.258882 0.897290 122 99 81 -0.092792 -0.349649 0.932274
0.158777 0.261170 0.899846 121 97 67 -0.192188 -0.330319 0.924096
0.158775 0.262722 0.899821 113 99 54 -0.005815 0.016107 0.999853
0.158774 0.264274 0.899796 106 76 48 -0.348186 -0.185120 0.918965
0.158772 0.265826 0.899771 102 67 42 -0.463335 0.020656 0.885943
0.159296 0.268140 0.902340 99 82 68 -0.367030 0.180723 0.912485
0.158770 0.268930 0.899721 122 96 95 -0.478765 -0.241313 0.844128
0.157725 0.270495 0.894526 146 121 109 -0.049491 0.941046 0.334638
0.157207 0.271270 0.891949 153 132 124 -0.086184 0.782894 0.616156
0.157205 0.272809 0.891924 160 130 120 -0.017478 0.308613 0.951027
0.156690 0.273576 0.889361 156 136 116 0.034512 0.733197 0.679140
0.156688 0.275110 0.889337 152 136 115 0.455645 0.491899 0.741905
0.156687 0.276644 0.889312 147 146 115 0.587215 -0.135671 0.797979
0.156686 0.278179 0.889287 142 135 106 0.660229 0.236725 0.712782
0.156684 0.279713 0.889263 136 130 97 0.221449 0.318694 0.921626
0.156683 0.281247 0.889238 130 114 97 -0.005638 0.015940 0.999857
0.156681 0.282782 0.889214 120 103 98 -0.214527 0.265499 0.939940
0.155659 0.284249 0.884129 111 104 95 -0.005837 0.016029 0.999855
0.155657 0.285775 0.884104 126 105 94 -0.005773 0.016047 0.999855
0.155656 0.287301 0.884080 142 116 94 -0.095818 0.475645 0.874403
0.155149 0.288020 0.881558 143 132 95 -0.412354 0.538069 0.735151
0.155147 0.289541 0.881534 144 131 102 -0.510384 0.127933 0.850377
0.155146 0.291063 0.881509 138 132 109 -0.230078 0.041470 0.972288
0.155144 0.292584 0.881485 133 118 107 -0.512510 -0.026961 0.858258
0.155649 0.294930 0.883958 129 109 106 -0.519710 0.152197 0.840677
0.155141 0.295627 0.881436 126 109 101 -0.569573 -0.022539 0.821632
0.155140 0.297148 0.881412 126 116 96 -0.481478 0.108611 0.869703
0.155137 0.300191 0.881363 126 109 91 -0.005661 0.016076 0.999855
0.155136 0.301713 0.881339 122 104 86 -0.005794 0.016093 0.999854
0.155134 0.303234 0.881314 118 106 78 -0.005683 0.016093 0.999854
0.155133 0.304756 0.881290 121 110 71 -0.005747 0.015982 0.999856
0.155131 0.306277 0.881265 124 107 70 -0.005708 0.015979 0.999856
0.155130 0.307799 0.881241 125 107 71 -0.226362 0.325896 0.917906
0.154625 0.308458 0.878733 126 105 72 -0.278014 0.797160 0.535952
0.154624 0.309975 0.878709 110 99 74 -0.480177 0.623525 0.616965
0.154122 0.310626 0.876214 95 95 78 -0.381609 0.830654 0.405447
0.153623 0.311273 0.873733 126 111 82 -0.025171 0.981088 0.191918
0.155123 0.315406 0.881119 158 154 124 -0.487568 -0.280478 0.826807
0.188893 0.031314 1.060730 136 121 114 0.221931 0.750734 0.622209
0.188190 0.033027 1.057190 147 123 118 0.130361 0.779758 0.612358
0.188188 0.034841 1.057170 147 128 122 0.293242 0.618156 0.729309
0.187490 0.036538 1.053660 147 127 118 0.137859 0.866831 0.479165
0.186795 0.038223 1.050170 147 124 115 0.078621 0.856079 0.510831
0.186794 0.040025 1.050140 148 123 114 0.078863 0.813865 0.575678
0.186104 0.041694 1.046670 149 123 114 0.095007 0.860029 0.501322
0.186102 0.043490 1.046640 150 125 125 0.091682 0.700916 0.707327
0.185416 0.045142 1.043200 146 125 137 -0.124584 0.709613 0.693490
0.184733 0.048567 1.039740 143 121 127 -0.006011 0.015757 0.999858
0.184731 0.050352 1.039710 140 120 117 -0.006314 0.015743 0.999856
0.184730 0.052136 1.039680 137 118 101 0.175369 0.578629 0.796514
0.184053 0.053749 1.036280 131 119 85 -0.186981 0.428167 0.884144
0.184051 0.055528 1.036250 125 119 100 -0.005829 0.015650 0.999861
0.184049 0.057307 1.036220 132 124 115 -0.005575 0.014984 0.999872
0.184048 0.059085 1.036200 140 138 114 -0.005685 0.014985 0.999872
0.184046 0.060864 1.036170 141 136 113 -0.005654 0.015656 0.999861
0.184044 0.062642 1.036140 143 135 110 -0.005638 0.016874 0.999842
0.183369 0.065990 1.032730 144 129 108 -0.078851 0.718147 0.691409
0.183368 0.067763 1.032700 146 118 117 -0.193996 0.716037 0.670564
0.182699 0.069315 1.029340 147 126 126 -0.124136 0.805888 0.578909
0.182697 0.071083 1.029310 149 140 116 -0.358201 0.651130 0.669120
0.182032 0.072620 1.025970 151 136 107 -0.188784 0.455921 0.869768
0.183793 0.074383 1.025950 154 135 106 -0.233872 0.565996 0.790539
0.183791 0.076145 1.025920 147 131 106 -0.172726 0.645979 0.743557
0.183124 0.077661 1.022600 141 123 114 -0.101095 0.556374 0.824759
0.183123 0.079417 1.022580 146 124 122 -0.006392 0.015243 0.999863
0.183119 0.082929 1.022520 152 130 113 -0.005709 0.017079 0.999838
0.183118 0.084685 1.022490 144 128 105 0.199460 0.771262 0.604458
0.182455 0.086169 1.019190 136 116 107 0.235440 0.561997 0.792923
0.182454 0.087919 1.019160 139 122 110 0.222820 0.233999 0.946359
0.182452 0.089669 1.019130 143 136 95 0.125609 0.573113 0.809793
0.181794 0.091133 1.015850 133 121 80 0.342216 0.875667 0.340728
0.181139 0.092587 1.012600 123 98 78 0.384619 0.741218 0.550149
0.181138 0.094326 1.012570 129 101 76 0.401484 0.775144 0.487813
0.180487 0.095766 1.009330 136 119 92 0.416473 0.672134 0.612198
0.180486 0.097500 1.009300 136 119 109 0.350682 0.481644 0.803145
0.180482 0.100967 1.009240 137 118 107 0.005840 0.616433 0.787385
0.179836 0.102381 1.006020 137 120 105 -0.209928 0.806655 0.552483
0.179193 0.103786 1.002820 138 123 108 -0.401304 0.704218 0.585689
0.179191 0.105509 1.002790 134 120 112 -0.414097 0.624941 0.661795
0.178553 0.106900 0.999612 132 117 110 -0.284316 0.509423 0.812190
0.178551 0.108618 0.999584 128 113 109 -0.263800 0.713935 0.648619
0.177916 0.109994 0.996421 125 110 103 -0.147203 0.637232 0.756483
0.177914 0.111707 0.996393 122 105 97 -0.005727 0.016050 0.999855
0.177913 0.113419 0.996366 120 101 92 -0.005802 0.016031 0.999855
0.177909 0.116843 0.996311 117 102 88 -0.005808 0.016036 0.999855
0.177908 0.118555 0.996284 115 103 91 -0.005739 0.016057 0.999855
0.177906 0.120268 0.996256 111 100 95 -0.005667 0.016070 0.999855
0.177905 0.121980 0.996229 109 99 85 -0.005738 0.016053 0.999855
0.177903 0.123692 0.996201 103 95 75 -0.005662 0.016006 0.999856
0.177901 0.125404 0.996174 97 88 72 -0.005779 0.016092 0.999854
0.177900 0.127117 0.996146 97 84 70 -0.005730 0.016008 0.999855
0.177898 0.128829 0.996119 97 87 73 -0.132007 -0.364347 0.921860
0.178530 0.130946 0.999226 92 83 76 -0.311633 -0.429004 0.847845
0.178527 0.134382 0.999171 88 84 85 -0.005787 0.016016 0.999855
0.178525 0.136099 0.999143 92 82 94 -0.005718 0.016001 0.999856
0.178523 0.137817 0.999116 96 83 77 -0.005712 0.016009 0.999856
0.178522 0.139534 0.999088 89 78 60 -0.005736 0.016008 0.999855
0.178520 0.141252 0.999061 84 90 45 -0.005751 0.016098 0.999854
0.178519 0.142970 0.999033 94 82 30 -0.005800 0.016003 0.999855
0.178517 0.144687 0.999006 105 83 47 -0.005827 0.016038 0.999854
0.178515 0.146405 0.998978 110 86 65 -0.005746 0.015965 0.999856
0.177880 0.147664 0.995817 115 84 59 -0.389796 0.491345 0.778870
0.177877 0.151088 0.995762 119 99 53 -0.005808 0.016038 0.999855
0.177876 0.152800 0.995735 124 118 69 -0.005736 0.016050 0.999855
0.177874 0.154513 0.995707 133 118 86 -0.005653 0.016061 0.999855
0.177872 0.156225 0.995680 142 121 93 -0.005714 0.016076 0.999854
0.177871 0.157937 0.995652 145 122 101 -0.032077 0.728984 0.683779
0.177240 0.159156 0.992510 149 124 103 0.250177 0.845138 0.472392
0.177238 0.160863 0.992483 152 130 106 0.567441 0.505316 0.650128
0.176610 0.162069 0.989359 156 138 116 0.724962 0.571648 0.384250
0.176609 0.163771 0.989332 138 137 127 0.935779 0.109810 0.335053
0.176607 0.165472 0.989304 121 125 103 0.880003 0.052121 0.472100
0.175982 0.168357 0.986172 94 84 79 0.818446 0.086277 0.568069
0.175980 0.170053 0.986145 67 64 43 0.757830 0.047700 0.650706
0.175979 0.171749 0.986118 78 43 7 0.800975 0.018849 0.598401
0.175977 0.173446 0.986091 88 57 28 0.848964 0.274978 0.451272
0.175976 0.175142 0.986063 117 102 50 0.671883 0.637270 0.377441
0.175355 0.176297 0.982977 146 131 62 0.488481 0.836141 0.249508
0.174739 0.177444 0.979909 142 123 74 0.547105 0.804415 0.231500
0.174126 0.178584 0.976858 138 111 74 0.622723 0.771581 0.129918
0.173517 0.179716 0.973825 144 118 74 0.744763 0.619355 0.248449
0.173515 0.181392 0.973798 150 126 98 0.631068 0.717939 0.293797
0.171710 0.183073 0.964831 150 123 122 0.164642 0.921600 0.351491
0.171114 0.184177 0.961868 152 120 114 -0.159264 0.827191 0.538878
0.169351 0.184170 0.953131 156 129 107 0.566739 0.740894 0.360392
0.168770 0.185258 0.950234 161 137 116 0.473958 0.787813 0.393339
0.168768 0.186894 0.950208 157 138 125 0.426675 0.832481 0.353445
0.168189 0.187970 0.947328 154 133 111 0.431381 0.583169 0.688349
0.168188 0.189600 0.947302 142 112 98 0.614322 0.529549 0.584967
0.168186 0.191231 0.947276 131 94 98 0.771610 0.447763 0.451803
0.168089 0.191161 0.938793 138 104 99 0.584884 0.811115 0.001893
0.166953 0.191648 0.933202 145 127 112 0.558768 0.821452 -0.113998
0.165271 0.193163 0.924920 151 128 125 0.691260 0.693499 0.203026
0.164716 0.194192 0.922180 158 130 119 0.713164 0.611460 0.342804
0.164715 0.195780 0.922155 154 135 114 0.699122 0.596421 0.394348
0.164163 0.196797 0.919431 151 140 118 0.406239 0.832630 0.376426
0.163614 0.197809 0.916722 141 123 122 0.388537 0.519364 0.761118
0.163612 0.199387 0.916697 132 101 105 0.487725 0.364104 0.793443
0.163611 0.200966 0.916672 135 108 89 0.337554 0.150708 0.929163
0.163609 0.202545 0.916646 139 115 96 -0.005821 0.016043 0.999854
0.163608 0.204124 0.916621 140 118 104 0.318615 0.144922 0.936740
0.163061 0.206686 0.913902 141 120 101 -0.005680 0.016125 0.999854
0.163059 0.208260 0.913877 146 122 98 -0.005733 0.016143 0.999853
0.163058 0.209834 0.913851 151 128 102 -0.005728 0.016098 0.999854
0.163056 0.211409 0.913826 134 119 107 0.490184 -0.077868 0.868134
0.163055 0.212983 0.913801 118 94 87 0.767031 0.016755 0.641391
0.163053 0.214557 0.913776 106 82 67 0.608095 -0.126633 0.783699
0.163052 0.216132 0.913750 95 70 76 0.590710 0.182896 0.785882
0.163050 0.217706 0.913725 108 87 86 0.616266 0.047295 0.786116
0.163049 0.219280 0.913700 122 104 82 0.335226 -0.465309 0.819214
0.163047 0.220854 0.913675 123 100 78 0.396905 0.070496 0.915148
0.163044 0.224003 0.913624 124 97 85 -0.005687 0.016009 0.999856
0.163043 0.225577 0.913599 130 102 92 -0.005735 0.015875 0.999858
0.163041 0.227152 0.913574 136 109 83 -0.005733 0.016152 0.999853
0.163040 0.228726 0.913548 125 99 74 -0.005692 0.016177 0.999853
0.163038 0.230300 0.913523 115 77 77 0.329518 0.235360 0.914343
0.163037 0.231875 0.913498 121 84 81 0.691898 0.082323 0.717287
0.163035 0.233449 0.913473 128 98 96 0.421147 -0.019784 0.906777
0.163034 0.235023 0.913447 147 122 112 -0.005828 0.016086 0.999854
0.163032 0.236598 0.913422 166 146 120 0.383895 0.227033 0.895031
0.163031 0.238172 0.913397 138 121 128 0.321464 0.133162 0.937512
0.161413 0.239253 0.905433 112 85 95 -0.005783 0.016007 0.999855
0.161411 0.240814 0.905408 122 97 62 -0.005781 0.016012 0.999855
0.161410 0.242375 0.905383 132 114 89 -0.005780 0.016015 0.999855
0.161409 0.243936 0.905358 131 119 116 0.001929 0.791316 0.611404
0.160875 0.244797 0.902723 130 125 125 0.002155 0.792154 0.610318
0.160873 0.246353 0.902699 135 127 135 0.072725 0.712887 0.697498
0.160342 0.247205 0.900079 141 129 122 0.389239 0.694880 0.604677
0.160341 0.248757 0.900054 136 126 110 0.421625 0.846635 0.324718
0.159812 0.249599 0.897448 132 120 99 0.536979 0.499604 0.679743
0.159811 0.251147 0.897423 127 110 89 0.501701 0.223307 0.835721
0.159808 0.254242 0.897374 124 103 86 -0.110394 0.230387 0.966817
0.159807 0.255789 0.897349 117 94 84 0.084978 -0.145190 0.985748
0.159805 0.257337 0.897324 112 77 82 -0.005832 0.016146 0.999853
0.160330 0.259620 0.899880 113 88 81 -0.136460 -0.582578 0.801238
0.160329 0.261172 0.899855 115 92 70 -0.005676 0.016010 0.999856
0.160327 0.262724 0.899830 107 87 60 -0.005812 0.016109 0.999853
0.160856 0.265029 0.902399 101 76 68 -0.459622 -0.226907 0.858639
0.160854 0.266586 0.902374 100 76 76 -0.347028 -0.184802 0.919467
0.160853 0.268142 0.902349 99 89 87 -0.005799 0.016056 0.999854
0.160851 0.269698 0.902324 119 100 99 -0.217411 0.276980 0.935956
0.159268 0.270496 0.894535 139 124 102 -0.265870 0.823050 0.501899
0.158746 0.271272 0.891958 145 125 105 -0.383819 0.636903 0.668609
0.158744 0.272811 0.891933 151 122 111 -0.200951 0.396757 0.895658
0.158743 0.274349 0.891908 149 126 118 -0.043374 0.625623 0.778919
0.158223 0.275112 0.889345 148 124 118 -0.068920 0.295131 0.952968
0.158221 0.276646 0.889321 143 128 118 -0.005660 0.016108 0.999854
0.158220 0.278180 0.889296 139 124 111 -0.005667 0.016030 0.999855
0.158219 0.279715 0.889271 134 117 104 -0.005711 0.016039 0.999855
0.158217 0.281249 0.889247 129 108 100 -0.005672 0.015958 0.999857
0.158216 0.282783 0.889222 122 103 96 -0.154223 -0.086434 0.984248
0.157185 0.284251 0.884138 116 104 93 -0.319698 0.280424 0.905072
0.157183 0.285777 0.884113 124 102 91 -0.364239 0.121745 0.923314
