789
0.667591 0.429928 0.102800 1681 -0.392885 -0.919557 0.007500
0.663936 0.431640 0.102800 1697 -0.392885 -0.919557 0.007500
0.659923 0.432658 0.102800 1681 -0.392885 -0.919557 0.007500
0.675841 0.427879 0.106900 1665 -0.392885 -0.919557 0.007500
0.671803 0.429212 0.106900 1665 -0.392885 -0.919557 0.007500
0.675536 0.427315 0.111000 1681 -0.392885 -0.919557 0.007500
0.671629 0.428596 0.111000 1681 -0.392885 -0.919557 0.007500
0.667698 0.430190 0.106900 1697 -0.392885 -0.919557 0.007500
0.663883 0.431508 0.106900 1681 -0.392885 -0.919557 0.007500
0.660135 0.433181 0.106900 1681 -0.392885 -0.919557 0.007500
0.667485 0.429666 0.111000 1681 -0.392885 -0.919557 0.007500
0.663989 0.431771 0.111000 1681 -0.392885 -0.919557 0.007500
0.660348 0.433706 0.111000 1681 -0.392885 -0.919557 0.007500
0.656388 0.434854 0.094600 1681 -0.392885 -0.919557 0.007500
0.656176 0.434330 0.098700 1665 -0.392885 -0.919557 0.007500
0.652684 0.437197 0.094600 1681 -0.392885 -0.919557 0.007500
0.652577 0.436935 0.098700 1665 -0.392885 -0.919557 0.007500
0.656283 0.434592 0.102800 1665 -0.392885 -0.919557 0.007500
0.652273 0.436372 0.102800 1681 -0.392885 -0.919557 0.007500
0.649107 0.438725 0.094600 1681 -0.392885 -0.919557 0.007500
0.649319 0.439248 0.098800 1681 -0.392885 -0.919557 0.007500
0.645147 0.439873 0.094600 1697 -0.392885 -0.919557 0.007500
0.641372 0.441099 0.094600 1681 -0.392885 -0.919557 0.007500
0.644934 0.439349 0.098700 1681 -0.392885 -0.919557 0.007500
0.641477 0.441361 0.098700 1665 -0.392885 -0.919557 0.007500
0.649054 0.438593 0.102800 1665 -0.392885 -0.919557 0.007500
0.644934 0.439349 0.102800 1697 -0.392885 -0.919557 0.007500
0.641569 0.441400 0.102800 1681 -0.392885 -0.919557 0.007500
0.656283 0.434592 0.106900 1681 -0.392885 -0.919557 0.007500
0.652152 0.435886 0.106900 1681 -0.392885 -0.919557 0.007500
0.656388 0.434854 0.111000 1681 -0.392885 -0.919557 0.007500
0.652205 0.436017 0.111000 1681 -0.392885 -0.919557 0.007500
0.648522 0.437282 0.106900 1697 -0.392885 -0.919557 0.007500
0.644721 0.438824 0.106900 1681 -0.392885 -0.919557 0.007500
0.641623 0.441532 0.106900 1681 -0.392885 -0.919557 0.007500
0.648696 0.437900 0.111000 1681 -0.392885 -0.919557 0.007500
0.641516 0.441269 0.111000 1681 -0.392885 -0.919557 0.007500
0.675217 0.426529 0.115100 1697 -0.392885 -0.919557 0.007500
0.671736 0.428857 0.115100 1697 -0.392885 -0.919557 0.007500
0.675415 0.426831 0.119200 1681 -0.392885 -0.919557 0.007500
0.675522 0.427093 0.123300 1697 -0.392885 -0.919557 0.007500
0.671803 0.429212 0.119200 1681 -0.392885 -0.919557 0.007500
0.671895 0.429251 0.123300 1665 -0.392885 -0.919557 0.007500
0.667645 0.430059 0.115100 1681 -0.392885 -0.919557 0.007500
0.664202 0.432296 0.115100 1681 -0.392885 -0.919557 0.007500
0.660348 0.433706 0.115100 1665 -0.392885 -0.919557 0.007500
0.667552 0.430020 0.119200 1681 -0.392885 -0.919557 0.007500
0.664096 0.432033 0.119200 1681 -0.392885 -0.919557 0.007500
0.667591 0.429928 0.123300 1697 -0.392885 -0.919557 0.007500
0.663936 0.431640 0.123300 1681 -0.392885 -0.919557 0.007500
0.660189 0.433313 0.119200 1681 -0.392885 -0.919557 0.007500
0.660097 0.433274 0.123300 1681 -0.392885 -0.919557 0.007500
0.675788 0.427748 0.127400 1665 -0.392885 -0.919557 0.007500
0.672001 0.429513 0.127400 1665 -0.392885 -0.919557 0.007500
0.675788 0.427748 0.131500 1681 -0.392885 -0.919557 0.007500
0.671948 0.429382 0.131500 1665 -0.392885 -0.919557 0.007500
0.667698 0.430190 0.127400 1681 -0.392885 -0.919557 0.007500
0.664096 0.432033 0.127400 1681 -0.392885 -0.919557 0.007500
0.660242 0.433444 0.127400 1681 -0.392885 -0.919557 0.007500
0.667591 0.429928 0.131500 1697 -0.392885 -0.919557 0.007500
0.664043 0.431902 0.131500 1681 -0.392885 -0.919557 0.007500
0.660508 0.434099 0.131500 1681 -0.392885 -0.919557 0.007500
0.656601 0.435378 0.115100 1681 -0.392885 -0.919557 0.007500
0.652166 0.436110 0.115100 1681 -0.392885 -0.919557 0.007500
0.656441 0.434986 0.119200 1681 -0.392885 -0.919557 0.007500
0.655964 0.433806 0.123200 1697 -0.392885 -0.919557 0.007500
0.652060 0.435847 0.119200 1681 -0.392885 -0.919557 0.007500
0.652365 0.436411 0.123300 1665 -0.392885 -0.919557 0.007500
0.648947 0.438331 0.115100 1681 -0.392885 -0.919557 0.007500
0.644616 0.438562 0.115100 1681 -0.392885 -0.919557 0.007500
0.641623 0.441532 0.115100 1665 -0.392885 -0.919557 0.007500
0.648894 0.438200 0.119200 1681 -0.392885 -0.919557 0.007500
0.648749 0.438030 0.123300 1681 -0.392885 -0.919557 0.007500
0.645132 0.439649 0.119200 1681 -0.392885 -0.919557 0.007500
0.641623 0.441532 0.119200 1681 -0.392885 -0.919557 0.007500
0.645239 0.439912 0.123300 1681 -0.392885 -0.919557 0.007500
0.641463 0.441138 0.123300 1697 -0.392885 -0.919557 0.007500
0.655818 0.433636 0.127300 1697 -0.392885 -0.919557 0.007500
0.652220 0.436241 0.127300 1681 -0.392885 -0.919557 0.007500
0.656548 0.435247 0.131500 1665 -0.392885 -0.919557 0.007500
0.652152 0.435886 0.131500 1681 -0.392885 -0.919557 0.007500
0.648802 0.438161 0.127400 1665 -0.392885 -0.919557 0.007500
0.645200 0.440004 0.127400 1681 -0.392885 -0.919557 0.007500
0.641411 0.441007 0.127400 1681 -0.392885 -0.919557 0.007500
0.649054 0.438593 0.131500 1665 -0.392885 -0.919557 0.007500
0.645200 0.440004 0.131500 1665 -0.392885 -0.919557 0.007500
0.641729 0.441794 0.131500 1665 -0.392885 -0.919557 0.007500
0.629693 0.445608 0.098700 1681 -0.392885 -0.919557 0.007500
0.626223 0.447398 0.098700 1681 -0.392885 -0.919557 0.007500
0.629389 0.445045 0.102800 1681 -0.392885 -0.919557 0.007500
0.629269 0.444560 0.106800 1697 -0.392885 -0.919557 0.007500
0.626169 0.447267 0.106900 1697 -0.392885 -0.919557 0.007500
0.629374 0.444822 0.110900 1697 -0.392885 -0.919557 0.007500
0.625957 0.446742 0.111000 1681 -0.392885 -0.919557 0.007500
0.622040 0.448561 0.094600 1681 -0.392885 -0.919557 0.007500
0.618495 0.451296 0.094600 1681 -0.392885 -0.919557 0.007500
0.622359 0.449347 0.098700 1681 -0.392885 -0.919557 0.007500
0.618534 0.451203 0.098700 1665 -0.392885 -0.919557 0.007500
0.614737 0.453507 0.094700 1665 -0.392885 -0.919557 0.007500
0.614577 0.453114 0.098700 1681 -0.392885 -0.919557 0.007500
0.622451 0.449386 0.102800 1681 -0.392885 -0.919557 0.007500
0.618335 0.450903 0.102800 1665 -0.392885 -0.919557 0.007500
0.614670 0.453153 0.102800 1649 -0.392885 -0.919557 0.007500
0.622252 0.449084 0.106900 1681 -0.392885 -0.919557 0.007500
0.617977 0.450208 0.106900 1665 -0.392885 -0.919557 0.007500
0.614312 0.452458 0.106900 1649 -0.392885 -0.919557 0.007500
0.622199 0.448953 0.111000 1681 -0.392885 -0.919557 0.007500
0.618123 0.450378 0.111000 1665 -0.392885 -0.919557 0.007500
0.614524 0.452983 0.111000 1649 -0.392885 -0.919557 0.007500
0.629602 0.445569 0.119200 1681 -0.392885 -0.919557 0.007500
0.629374 0.444822 0.123200 1697 -0.392885 -0.919557 0.007500
0.626329 0.447659 0.123300 1697 -0.392885 -0.919557 0.007500
0.633557 0.443659 0.127300 1681 -0.392885 -0.919557 0.007500
0.629549 0.445438 0.127300 1681 -0.392885 -0.919557 0.007500
0.629747 0.445739 0.131500 1681 -0.392885 -0.919557 0.007500
0.622252 0.449084 0.115100 1665 -0.392885 -0.919557 0.007500
0.618442 0.451164 0.115100 1665 -0.392885 -0.919557 0.007500
0.622146 0.448823 0.119200 1681 -0.392885 -0.919557 0.007500
0.618442 0.451164 0.119200 1665 -0.392885 -0.919557 0.007500
0.622040 0.448561 0.123300 1681 -0.392885 -0.919557 0.007500
0.618229 0.450641 0.123300 1665 -0.392885 -0.919557 0.007500
0.614737 0.453507 0.119200 1649 -0.392885 -0.919557 0.007500
0.614791 0.453638 0.123300 1649 -0.392885 -0.919557 0.007500
0.622252 0.449084 0.127400 1665 -0.392885 -0.919557 0.007500
0.618427 0.450942 0.127400 1665 -0.392885 -0.919557 0.007500
0.622306 0.449216 0.131400 1665 -0.392885 -0.919557 0.007500
0.614791 0.453638 0.131500 1649 -0.392885 -0.919557 0.007500
0.637344 0.441894 0.094600 1697 -0.392885 -0.919557 0.007500
0.637556 0.442419 0.098700 1681 -0.392885 -0.919557 0.007500
0.633824 0.444314 0.094600 1665 -0.392885 -0.919557 0.007500
0.633756 0.443960 0.098700 1681 -0.392885 -0.919557 0.007500
0.637610 0.442549 0.102800 1665 -0.392885 -0.919557 0.007500
0.633756 0.443960 0.102800 1681 -0.392885 -0.919557 0.007500
0.629747 0.445739 0.094600 1665 -0.392885 -0.919557 0.007500
0.626368 0.447568 0.094600 1681 -0.392885 -0.919557 0.007500
0.626542 0.448184 0.102800 1665 -0.392885 -0.919557 0.007500
0.637716 0.442811 0.106900 1681 -0.392885 -0.919557 0.007500
0.633824 0.444314 0.106900 1681 -0.392885 -0.919557 0.007500
0.637677 0.442903 0.111000 1665 -0.392885 -0.919557 0.007500
0.633916 0.444353 0.111000 1665 -0.392885 -0.919557 0.007500
0.611738 0.457776 0.094800 1393 -0.392885 -0.919557 0.007500
0.611897 0.458170 0.098900 1377 -0.392885 -0.919557 0.007500
0.608533 0.460221 0.094800 1345 -0.392885 -0.919557 0.007500
0.608175 0.459527 0.098900 1361 -0.392885 -0.919557 0.007500
0.611540 0.457475 0.102900 1393 -0.392885 -0.919557 0.007500
0.608122 0.459396 0.102900 1361 -0.392885 -0.919557 0.007500
0.611365 0.456859 0.107000 1393 -0.392885 -0.919557 0.007500
0.608267 0.459566 0.107100 1361 -0.392885 -0.919557 0.007500
0.611684 0.457645 0.111100 1377 -0.392885 -0.919557 0.007500
0.608625 0.460260 0.111200 1345 -0.392885 -0.919557 0.007500
0.637503 0.442287 0.115100 1665 -0.392885 -0.919557 0.007500
0.633916 0.444353 0.115100 1681 -0.392885 -0.919557 0.007500
0.637358 0.442117 0.119200 1665 -0.392885 -0.919557 0.007500
0.637716 0.442811 0.123300 1681 -0.392885 -0.919557 0.007500
0.633983 0.444708 0.119200 1681 -0.392885 -0.919557 0.007500
0.633810 0.444091 0.123300 1697 -0.392885 -0.919557 0.007500
0.629800 0.445870 0.115100 1681 -0.392885 -0.919557 0.007500
0.626329 0.447659 0.115100 1665 -0.392885 -0.919557 0.007500
0.626474 0.447829 0.119200 1681 -0.392885 -0.919557 0.007500
0.637730 0.443034 0.127400 1665 -0.392885 -0.919557 0.007500
0.637610 0.442549 0.131500 1665 -0.392885 -0.919557 0.007500
0.633756 0.443960 0.131500 1681 -0.392885 -0.919557 0.007500
0.626383 0.447791 0.127400 1697 -0.392885 -0.919557 0.007500
0.626595 0.448315 0.131500 1681 -0.392885 -0.919557 0.007500
0.614804 0.453861 0.115100 1649 -0.392885 -0.919557 0.007500
0.612163 0.458825 0.115300 1377 -0.392885 -0.919557 0.007500
0.608639 0.460483 0.115300 1345 -0.392885 -0.919557 0.007500
0.612376 0.459349 0.119400 1377 -0.392885 -0.919557 0.007500
0.612429 0.459479 0.123500 1393 -0.392885 -0.919557 0.007500
0.608387 0.460051 0.119400 1361 -0.392885 -0.919557 0.007500
0.608320 0.459697 0.123500 1345 -0.392885 -0.919557 0.007500
0.615003 0.454163 0.127400 1649 -0.392885 -0.919557 0.007500
0.618814 0.452082 0.131500 1665 -0.392885 -0.919557 0.007500
0.612429 0.459479 0.127600 1377 -0.392885 -0.919557 0.007500
0.608281 0.459789 0.127500 1345 -0.392885 -0.919557 0.007500
0.612004 0.458431 0.131600 1409 -0.392885 -0.919557 0.007500
0.608426 0.459958 0.131600 1361 -0.392885 -0.919557 0.007500
0.580888 0.470139 0.000500 1329 -0.392885 -0.919557 0.007500
0.580888 0.470139 0.004600 1329 -0.392885 -0.919557 0.007500
0.577272 0.471759 0.000500 1329 -0.392885 -0.919557 0.007500
0.573514 0.473970 0.000600 1345 -0.392885 -0.919557 0.007500
0.573249 0.473314 0.004600 1361 -0.392885 -0.919557 0.007500
0.584278 0.467772 0.008700 1345 -0.392885 -0.919557 0.007500
0.580782 0.469877 0.008700 1345 -0.392885 -0.919557 0.007500
0.584437 0.468165 0.012800 1329 -0.392885 -0.919557 0.007500
0.580821 0.469784 0.012800 1345 -0.392885 -0.919557 0.007500
0.577524 0.472190 0.008800 1345 -0.392885 -0.919557 0.007500
0.573234 0.473091 0.008700 1377 -0.392885 -0.919557 0.007500
0.577272 0.471759 0.012800 1345 -0.392885 -0.919557 0.007500
0.573394 0.473484 0.012800 1361 -0.392885 -0.919557 0.007500
0.604413 0.460977 0.000600 1345 -0.392885 -0.919557 0.007500
0.600376 0.462310 0.000500 1361 -0.392885 -0.919557 0.007500
0.604360 0.460845 0.004600 1377 -0.392885 -0.919557 0.007500
0.600376 0.462310 0.004600 1377 -0.392885 -0.919557 0.007500
0.596936 0.465307 0.000600 1313 -0.392885 -0.919557 0.007500
0.592991 0.466679 0.000600 1329 -0.392885 -0.919557 0.007500
0.588940 0.467788 0.000600 1313 -0.392885 -0.919557 0.007500
0.596512 0.464259 0.004600 1345 -0.392885 -0.919557 0.007500
0.592938 0.466547 0.004700 1361 -0.392885 -0.919557 0.007500
0.588818 0.467303 0.004600 1329 -0.392885 -0.919557 0.007500
0.604466 0.461108 0.008800 1345 -0.392885 -0.919557 0.007500
0.600337 0.462402 0.008800 1361 -0.392885 -0.919557 0.007500
0.604307 0.460714 0.012800 1345 -0.392885 -0.919557 0.007500
0.600603 0.463057 0.012900 1329 -0.392885 -0.919557 0.007500
0.596033 0.463079 0.008700 1345 -0.392885 -0.919557 0.007500
0.592778 0.466155 0.008800 1345 -0.392885 -0.919557 0.007500
0.588726 0.467264 0.008800 1345 -0.392885 -0.919557 0.007500
0.596245 0.463603 0.012800 1345 -0.392885 -0.919557 0.007500
0.592406 0.465237 0.012800 1345 -0.392885 -0.919557 0.007500
0.588567 0.466871 0.012800 1377 -0.392885 -0.919557 0.007500
0.585153 0.469554 0.000600 1329 -0.392885 -0.919557 0.007500
0.584848 0.468990 0.004600 1329 -0.392885 -0.919557 0.007500
0.577683 0.472584 0.004700 1361 -0.392885 -0.919557 0.007500
0.568998 0.474123 0.000500 1345 -0.392885 -0.919557 0.007500
0.564961 0.475456 0.000500 1345 -0.392885 -0.919557 0.007500
0.561508 0.478230 0.000500 1345 -0.392885 -0.919557 0.007500
0.569264 0.474778 0.004600 1345 -0.392885 -0.919557 0.007500
0.565372 0.476281 0.004600 1345 -0.392885 -0.919557 0.007500
0.561773 0.478886 0.004600 1329 -0.392885 -0.919557 0.007500
0.557112 0.478869 0.000500 1345 -0.392885 -0.919557 0.007500
0.553829 0.481498 0.000500 1313 -0.392885 -0.919557 0.007500
0.556885 0.478122 0.004500 1329 -0.392885 -0.919557 0.007500
0.554148 0.482284 0.004600 1313 -0.392885 -0.919557 0.007500
0.569583 0.475564 0.008700 1361 -0.392885 -0.919557 0.007500
0.565531 0.476674 0.008700 1329 -0.392885 -0.919557 0.007500
0.561985 0.479410 0.008800 1329 -0.392885 -0.919557 0.007500
0.565464 0.476320 0.012800 1329 -0.392885 -0.919557 0.007500
0.562131 0.479580 0.012900 1345 -0.392885 -0.919557 0.007500
0.557257 0.479039 0.008600 1329 -0.392885 -0.919557 0.007500
0.554201 0.482416 0.008700 1313 -0.392885 -0.919557 0.007500
0.557643 0.480180 0.012800 1313 -0.392885 -0.919557 0.007500
0.553950 0.481983 0.012800 1329 -0.392885 -0.919557 0.007500
0.549497 0.481730 0.000400 1345 -0.392885 -0.919557 0.007500
0.545526 0.483417 0.000400 1345 -0.392885 -0.919557 0.007500
0.542137 0.485784 0.000400 1329 -0.392885 -0.919557 0.007500
0.550014 0.482817 0.004600 1313 -0.392885 -0.919557 0.007500
0.545619 0.483456 0.004500 1345 -0.392885 -0.919557 0.007500
0.541938 0.485482 0.004600 1345 -0.392885 -0.919557 0.007500
0.538244 0.487287 0.000400 1313 -0.392885 -0.919557 0.007500
0.534947 0.489692 0.000500 1329 -0.392885 -0.919557 0.007500
0.538830 0.488728 0.004600 1329 -0.392885 -0.919557 0.007500
0.534590 0.488998 0.004600 1329 -0.392885 -0.919557 0.007500
0.549975 0.482909 0.008700 1297 -0.392885 -0.919557 0.007500
0.545884 0.484111 0.008600 1329 -0.392885 -0.919557 0.007500
0.542137 0.485784 0.008700 1345 -0.392885 -0.919557 0.007500
0.549922 0.482778 0.012800 1313 -0.392885 -0.919557 0.007500
0.545991 0.484373 0.012800 1329 -0.392885 -0.919557 0.007500
0.542190 0.485915 0.012700 1345 -0.392885 -0.919557 0.007500
0.538922 0.488767 0.008700 1313 -0.392885 -0.919557 0.007500
0.534217 0.488080 0.008600 1345 -0.392885 -0.919557 0.007500
0.538496 0.487718 0.012800 1313 -0.392885 -0.919557 0.007500
0.534111 0.487819 0.012700 1345 -0.392885 -0.919557 0.007500
0.569995 0.476389 0.012900 1345 -0.392885 -0.919557 0.007500
0.592140 0.464582 0.016900 1345 -0.392885 -0.919557 0.007500
0.580821 0.469784 0.016900 1361 -0.392885 -0.919557 0.007500
0.580424 0.469183 0.020900 1361 -0.392885 -0.919557 0.007500
0.580835 0.470008 0.025100 1329 -0.392885 -0.919557 0.007500
0.573553 0.473878 0.016900 1345 -0.392885 -0.919557 0.007500
0.577524 0.472190 0.021000 1329 -0.392885 -0.919557 0.007500
0.576954 0.470972 0.025100 1345 -0.392885 -0.919557 0.007500
0.576847 0.470710 0.029100 1361 -0.392885 -0.919557 0.007500
0.577577 0.472322 0.033300 1361 -0.392885 -0.919557 0.007500
0.573674 0.474363 0.033300 1361 -0.392885 -0.919557 0.007500
0.588407 0.466478 0.049700 1361 -0.392885 -0.919557 0.007500
0.592286 0.464752 0.053800 1361 -0.392885 -0.919557 0.007500
0.581140 0.470570 0.041500 1361 -0.392885 -0.919557 0.007500
0.573341 0.473353 0.037400 1345 -0.392885 -0.919557 0.007500
0.577219 0.471628 0.041500 1361 -0.392885 -0.919557 0.007500
0.573036 0.472790 0.041500 1345 -0.392885 -0.919557 0.007500
0.584689 0.468597 0.045600 1361 -0.392885 -0.919557 0.007500
0.584689 0.468597 0.049700 1361 -0.392885 -0.919557 0.007500
0.580835 0.470008 0.045600 1361 -0.392885 -0.919557 0.007500
0.581034 0.470309 0.049700 1361 -0.392885 -0.919557 0.007500
0.584636 0.468466 0.053800 1361 -0.392885 -0.919557 0.007500
0.581193 0.470702 0.053800 1361 -0.392885 -0.919557 0.007500
0.577311 0.471667 0.045600 1345 -0.392885 -0.919557 0.007500
0.576954 0.470972 0.049600 1393 -0.392885 -0.919557 0.007500
0.573181 0.472960 0.045600 1345 -0.392885 -0.919557 0.007500
0.573341 0.473353 0.049700 1345 -0.392885 -0.919557 0.007500
0.568428 0.472905 0.049600 1377 -0.392885 -0.919557 0.007500
0.577524 0.472190 0.053800 1345 -0.392885 -0.919557 0.007500
0.573501 0.473747 0.053800 1345 -0.392885 -0.919557 0.007500
0.604186 0.460230 0.016900 1345 -0.392885 -0.919557 0.007500
0.600549 0.462926 0.017000 1313 -0.392885 -0.919557 0.007500
0.604094 0.460191 0.021000 1361 -0.392885 -0.919557 0.007500
0.604520 0.461238 0.025200 1345 -0.392885 -0.919557 0.007500
0.600588 0.462833 0.021100 1329 -0.392885 -0.919557 0.007500
0.600656 0.463188 0.025200 1361 -0.392885 -0.919557 0.007500
0.596617 0.464521 0.017000 1345 -0.392885 -0.919557 0.007500
0.588567 0.466871 0.016900 1361 -0.392885 -0.919557 0.007500
0.596405 0.463996 0.021000 1329 -0.392885 -0.919557 0.007500
0.592247 0.464844 0.021000 1345 -0.392885 -0.919557 0.007500
0.596140 0.463341 0.025100 1345 -0.392885 -0.919557 0.007500
0.592406 0.465237 0.025100 1361 -0.392885 -0.919557 0.007500
0.588780 0.467395 0.021100 1361 -0.392885 -0.919557 0.007500
0.589297 0.468483 0.025200 1329 -0.392885 -0.919557 0.007500
0.605143 0.462588 0.029300 1313 -0.392885 -0.919557 0.007500
0.600695 0.463096 0.029300 1345 -0.392885 -0.919557 0.007500
0.604931 0.462064 0.033400 1345 -0.392885 -0.919557 0.007500
0.600481 0.462572 0.033400 1329 -0.392885 -0.919557 0.007500
0.596140 0.463341 0.029200 1377 -0.392885 -0.919557 0.007500
0.592406 0.465237 0.029200 1361 -0.392885 -0.919557 0.007500
0.589403 0.468744 0.029300 1345 -0.392885 -0.919557 0.007500
0.596512 0.464259 0.033300 1377 -0.392885 -0.919557 0.007500
0.592711 0.465800 0.033300 1345 -0.392885 -0.919557 0.007500
0.589205 0.468444 0.033400 1345 -0.392885 -0.919557 0.007500
0.584848 0.468990 0.016900 1329 -0.392885 -0.919557 0.007500
0.584756 0.468951 0.021000 1329 -0.392885 -0.919557 0.007500
0.584848 0.468990 0.025100 1329 -0.392885 -0.919557 0.007500
0.577737 0.472715 0.017000 1345 -0.392885 -0.919557 0.007500
0.573819 0.474533 0.021100 1329 -0.392885 -0.919557 0.007500
0.574032 0.475056 0.025200 1313 -0.392885 -0.919557 0.007500
0.584848 0.468990 0.029200 1361 -0.392885 -0.919557 0.007500
0.581193 0.470702 0.029200 1329 -0.392885 -0.919557 0.007500
0.585327 0.470169 0.033400 1361 -0.392885 -0.919557 0.007500
0.581406 0.471227 0.033300 1345 -0.392885 -0.919557 0.007500
0.573978 0.474926 0.029300 1329 -0.392885 -0.919557 0.007500
0.604520 0.461238 0.037500 1361 -0.392885 -0.919557 0.007500
0.600230 0.462139 0.037400 1345 -0.392885 -0.919557 0.007500
0.604452 0.460884 0.041500 1361 -0.392885 -0.919557 0.007500
0.599965 0.461485 0.041500 1377 -0.392885 -0.919557 0.007500
0.596724 0.464783 0.037500 1361 -0.392885 -0.919557 0.007500
0.593257 0.467334 0.037500 1329 -0.392885 -0.919557 0.007500
0.588886 0.467657 0.037400 1377 -0.392885 -0.919557 0.007500
0.596564 0.464389 0.041500 1345 -0.392885 -0.919557 0.007500
0.592991 0.466679 0.041600 1329 -0.392885 -0.919557 0.007500
0.588886 0.467657 0.041500 1361 -0.392885 -0.919557 0.007500
0.604240 0.460360 0.045600 1345 -0.392885 -0.919557 0.007500
0.604360 0.460845 0.049700 1329 -0.392885 -0.919557 0.007500
0.600284 0.462271 0.045600 1345 -0.392885 -0.919557 0.007500
0.600748 0.463227 0.049800 1329 -0.392885 -0.919557 0.007500
0.604307 0.460714 0.053800 1329 -0.392885 -0.919557 0.007500
0.600230 0.462139 0.053800 1345 -0.392885 -0.919557 0.007500
0.596459 0.464127 0.045600 1329 -0.392885 -0.919557 0.007500
0.592566 0.465630 0.045600 1361 -0.392885 -0.919557 0.007500
0.596564 0.464389 0.049700 1313 -0.392885 -0.919557 0.007500
0.592445 0.465145 0.049700 1345 -0.392885 -0.919557 0.007500
0.588673 0.467133 0.045600 1361 -0.392885 -0.919557 0.007500
0.596459 0.464127 0.053800 1361 -0.392885 -0.919557 0.007500
0.588620 0.467002 0.053800 1361 -0.392885 -0.919557 0.007500
0.585433 0.470432 0.037500 1361 -0.392885 -0.919557 0.007500
0.581618 0.471750 0.037500 1361 -0.392885 -0.919557 0.007500
0.584901 0.469121 0.041500 1329 -0.392885 -0.919557 0.007500
0.577644 0.472676 0.037500 1361 -0.392885 -0.919557 0.007500
0.565477 0.476543 0.016900 1361 -0.392885 -0.919557 0.007500
0.561933 0.479279 0.017000 1329 -0.392885 -0.919557 0.007500
0.565903 0.477592 0.021000 1345 -0.392885 -0.919557 0.007500
0.566049 0.477761 0.025100 1345 -0.392885 -0.919557 0.007500
0.561880 0.479147 0.021000 1313 -0.392885 -0.919557 0.007500
0.561985 0.479410 0.025100 1329 -0.392885 -0.919557 0.007500
0.557484 0.479786 0.016900 1329 -0.392885 -0.919557 0.007500
0.554027 0.481800 0.016900 1313 -0.392885 -0.919557 0.007500
0.557112 0.478869 0.020900 1377 -0.392885 -0.919557 0.007500
0.557218 0.479131 0.025000 1361 -0.392885 -0.919557 0.007500
0.553722 0.481236 0.021000 1345 -0.392885 -0.919557 0.007500
0.553683 0.481328 0.025100 1345 -0.392885 -0.919557 0.007500
0.569476 0.475303 0.029200 1345 -0.392885 -0.919557 0.007500
0.566102 0.477892 0.029300 1345 -0.392885 -0.919557 0.007500
0.562237 0.479842 0.029300 1329 -0.392885 -0.919557 0.007500
0.569158 0.474516 0.033300 1345 -0.392885 -0.919557 0.007500
0.565942 0.477499 0.033300 1361 -0.392885 -0.919557 0.007500
0.562024 0.479317 0.033300 1345 -0.392885 -0.919557 0.007500
0.557842 0.480480 0.029200 1361 -0.392885 -0.919557 0.007500
0.553775 0.481367 0.029200 1345 -0.392885 -0.919557 0.007500
0.558108 0.481136 0.033300 1313 -0.392885 -0.919557 0.007500
0.553617 0.480974 0.033300 1361 -0.392885 -0.919557 0.007500
0.550241 0.483564 0.016900 1329 -0.392885 -0.919557 0.007500
0.545937 0.484242 0.016900 1329 -0.392885 -0.919557 0.007500
0.541991 0.485613 0.016900 1377 -0.392885 -0.919557 0.007500
0.550333 0.483603 0.021000 1329 -0.392885 -0.919557 0.007500
0.550188 0.483433 0.025100 1329 -0.392885 -0.919557 0.007500
0.545991 0.484373 0.021000 1329 -0.392885 -0.919557 0.007500
0.542152 0.486006 0.021000 1329 -0.392885 -0.919557 0.007500
0.546561 0.485591 0.025100 1313 -0.392885 -0.919557 0.007500
0.542098 0.485876 0.025000 1329 -0.392885 -0.919557 0.007500
0.538511 0.487942 0.016900 1329 -0.392885 -0.919557 0.007500
0.534536 0.488866 0.016900 1313 -0.392885 -0.919557 0.007500
0.538723 0.488465 0.021000 1345 -0.392885 -0.919557 0.007500
0.538655 0.488112 0.025100 1329 -0.392885 -0.919557 0.007500
0.534803 0.489523 0.021000 1313 -0.392885 -0.919557 0.007500
0.535015 0.490046 0.025100 1313 -0.392885 -0.919557 0.007500
0.549869 0.482647 0.029200 1329 -0.392885 -0.919557 0.007500
0.541938 0.485482 0.029100 1313 -0.392885 -0.919557 0.007500
0.546629 0.485945 0.029300 1313 -0.392885 -0.919557 0.007500
0.549709 0.482254 0.033200 1345 -0.392885 -0.919557 0.007500
0.541833 0.485220 0.033200 1329 -0.392885 -0.919557 0.007500
0.545937 0.484242 0.033300 1345 -0.392885 -0.919557 0.007500
0.538390 0.487456 0.029100 1313 -0.392885 -0.919557 0.007500
0.535054 0.489954 0.029200 1297 -0.392885 -0.919557 0.007500
0.538602 0.487980 0.033300 1313 -0.392885 -0.919557 0.007500
0.535107 0.490085 0.033300 1297 -0.392885 -0.919557 0.007500
0.569317 0.474909 0.037400 1345 -0.392885 -0.919557 0.007500
0.565477 0.476543 0.037400 1361 -0.392885 -0.919557 0.007500
0.561362 0.478061 0.037400 1345 -0.392885 -0.919557 0.007500
0.569462 0.475079 0.041500 1377 -0.392885 -0.919557 0.007500
0.565477 0.476543 0.041500 1345 -0.392885 -0.919557 0.007500
0.561294 0.477706 0.041500 1329 -0.392885 -0.919557 0.007500
0.557749 0.480441 0.037400 1345 -0.392885 -0.919557 0.007500
0.553829 0.481498 0.037400 1329 -0.392885 -0.919557 0.007500
0.557736 0.480219 0.041500 1329 -0.392885 -0.919557 0.007500
0.553989 0.481891 0.041500 1329 -0.392885 -0.919557 0.007500
0.569090 0.474162 0.045500 1345 -0.392885 -0.919557 0.007500
0.565637 0.476936 0.045600 1345 -0.392885 -0.919557 0.007500
0.565637 0.476936 0.049700 1345 -0.392885 -0.919557 0.007500
0.561294 0.477706 0.045500 1345 -0.392885 -0.919557 0.007500
0.561241 0.477575 0.049600 1361 -0.392885 -0.919557 0.007500
0.568679 0.473337 0.053700 1377 -0.392885 -0.919557 0.007500
0.565783 0.477106 0.053800 1361 -0.392885 -0.919557 0.007500
0.561401 0.477969 0.053700 1345 -0.392885 -0.919557 0.007500
0.557682 0.480088 0.045600 1345 -0.392885 -0.919557 0.007500
0.557537 0.479917 0.049700 1345 -0.392885 -0.919557 0.007500
0.553829 0.481498 0.045600 1329 -0.392885 -0.919557 0.007500
0.553935 0.481761 0.049700 1313 -0.392885 -0.919557 0.007500
0.557469 0.479563 0.053700 1345 -0.392885 -0.919557 0.007500
0.553736 0.481459 0.053700 1345 -0.392885 -0.919557 0.007500
0.549763 0.482384 0.037300 1345 -0.392885 -0.919557 0.007500
0.545725 0.483717 0.037300 1361 -0.392885 -0.919557 0.007500
0.541886 0.485351 0.037300 1313 -0.392885 -0.919557 0.007500
0.549763 0.482384 0.041400 1329 -0.392885 -0.919557 0.007500
0.546310 0.485159 0.041500 1313 -0.392885 -0.919557 0.007500
0.542045 0.485745 0.041400 1297 -0.392885 -0.919557 0.007500
0.538670 0.488334 0.037400 1313 -0.392885 -0.919557 0.007500
0.534962 0.489915 0.037400 1329 -0.392885 -0.919557 0.007500
0.538351 0.487548 0.041400 1313 -0.392885 -0.919557 0.007500
0.534788 0.489299 0.041400 1329 -0.392885 -0.919557 0.007500
0.550014 0.482817 0.045600 1329 -0.392885 -0.919557 0.007500
0.550188 0.483433 0.049700 1345 -0.392885 -0.919557 0.007500
0.546469 0.485552 0.045600 1313 -0.392885 -0.919557 0.007500
0.542349 0.486307 0.045600 1313 -0.392885 -0.919557 0.007500
0.546629 0.485945 0.049700 1313 -0.392885 -0.919557 0.007500
0.542775 0.487356 0.049700 1297 -0.392885 -0.919557 0.007500
0.550347 0.483826 0.053800 1345 -0.392885 -0.919557 0.007500
0.546827 0.486247 0.053800 1313 -0.392885 -0.919557 0.007500
0.542775 0.487356 0.053800 1313 -0.392885 -0.919557 0.007500
0.538085 0.486893 0.045500 1313 -0.392885 -0.919557 0.007500
0.538443 0.487587 0.049600 1313 -0.392885 -0.919557 0.007500
0.534536 0.488866 0.045500 1313 -0.392885 -0.919557 0.007500
0.534430 0.488605 0.049600 1313 -0.392885 -0.919557 0.007500
0.538670 0.488334 0.053800 1329 -0.392885 -0.919557 0.007500
0.534522 0.488644 0.053700 1313 -0.392885 -0.919557 0.007500
0.569955 0.476482 0.017000 1329 -0.392885 -0.919557 0.007500
0.570260 0.477045 0.021100 1329 -0.392885 -0.919557 0.007500
0.570061 0.476744 0.025200 1313 -0.392885 -0.919557 0.007500
0.531413 0.491890 0.000500 1297 -0.392885 -0.919557 0.007500
0.527478 0.492722 0.000500 1313 -0.392885 -0.919557 0.007500
0.531200 0.491365 0.004600 1313 -0.392885 -0.919557 0.007500
0.527159 0.491936 0.004600 1329 -0.392885 -0.919557 0.007500
0.523294 0.493886 0.000400 1313 -0.392885 -0.919557 0.007500
0.519618 0.496674 0.000500 1281 -0.392885 -0.919557 0.007500
0.514958 0.496657 0.000400 1297 -0.392885 -0.919557 0.007500
0.523202 0.493847 0.004500 1329 -0.392885 -0.919557 0.007500
0.519710 0.496713 0.004600 1313 -0.392885 -0.919557 0.007500
0.515421 0.497613 0.004500 1281 -0.392885 -0.919557 0.007500
0.531307 0.491627 0.008700 1297 -0.392885 -0.919557 0.007500
0.527120 0.492028 0.008600 1313 -0.392885 -0.919557 0.007500
0.531147 0.491233 0.012800 1297 -0.392885 -0.919557 0.007500
0.527570 0.492761 0.012800 1297 -0.392885 -0.919557 0.007500
0.523188 0.493623 0.008600 1313 -0.392885 -0.919557 0.007500
0.515542 0.498099 0.008700 1297 -0.392885 -0.919557 0.007500
0.519832 0.497198 0.008700 1281 -0.392885 -0.919557 0.007500
0.523613 0.494672 0.012800 1313 -0.392885 -0.919557 0.007500
0.519406 0.496150 0.012800 1313 -0.392885 -0.919557 0.007500
0.515368 0.497483 0.012700 1297 -0.392885 -0.919557 0.007500
0.511664 0.499824 0.000500 1265 -0.392885 -0.919557 0.007500
0.507452 0.500541 0.000400 1041 -0.392885 -0.919557 0.007500
0.511504 0.499432 0.004600 1297 -0.392885 -0.919557 0.007500
0.507519 0.500896 0.004500 1041 -0.392885 -0.919557 0.007500
0.503269 0.501704 0.000400 929 -0.392885 -0.919557 0.007500
0.499735 0.503901 0.000400 929 -0.392885 -0.919557 0.007500
0.503801 0.503015 0.004600 929 -0.392885 -0.919557 0.007500
0.499483 0.503469 0.004500 929 -0.392885 -0.919557 0.007500
0.511451 0.499301 0.008700 1281 -0.392885 -0.919557 0.007500
0.507293 0.500149 0.008600 1089 -0.392885 -0.919557 0.007500
0.511557 0.499563 0.012800 1297 -0.392885 -0.919557 0.007500
0.507360 0.500502 0.012700 1057 -0.392885 -0.919557 0.007500
0.503573 0.502267 0.008600 961 -0.392885 -0.919557 0.007500
0.499164 0.502683 0.008500 945 -0.392885 -0.919557 0.007500
0.503322 0.501835 0.012700 977 -0.392885 -0.919557 0.007500
0.499164 0.502683 0.012700 961 -0.392885 -0.919557 0.007500
0.491616 0.505897 0.004500 945 -0.392885 -0.919557 0.007500
0.495949 0.505666 0.000400 945 -0.392885 -0.919557 0.007500
0.491776 0.506291 0.000400 945 -0.392885 -0.919557 0.007500
0.488876 0.509298 0.000500 913 -0.392885 -0.919557 0.007500
0.495842 0.505404 0.004500 945 -0.392885 -0.919557 0.007500
0.488784 0.509259 0.004600 913 -0.392885 -0.919557 0.007500
0.484519 0.509845 0.000400 897 -0.392885 -0.919557 0.007500
0.484412 0.509583 0.004500 913 -0.392885 -0.919557 0.007500
0.481027 0.512712 0.000500 897 -0.392885 -0.919557 0.007500
0.480761 0.512056 0.004500 897 -0.392885 -0.919557 0.007500
0.495682 0.505011 0.008600 929 -0.392885 -0.919557 0.007500
0.491921 0.506461 0.008600 913 -0.392885 -0.919557 0.007500
0.489354 0.510478 0.008700 881 -0.392885 -0.919557 0.007500
0.495682 0.505011 0.012700 913 -0.392885 -0.919557 0.007500
0.491829 0.506422 0.012700 929 -0.392885 -0.919557 0.007500
0.489340 0.510255 0.012800 897 -0.392885 -0.919557 0.007500
0.480336 0.511008 0.008600 929 -0.392885 -0.919557 0.007500
0.484625 0.510107 0.008600 913 -0.392885 -0.919557 0.007500
0.484784 0.510500 0.012700 929 -0.392885 -0.919557 0.007500
0.480854 0.512095 0.012700 929 -0.392885 -0.919557 0.007500
0.476299 0.512341 0.000400 945 -0.392885 -0.919557 0.007500
0.472725 0.514629 0.000400 897 -0.392885 -0.919557 0.007500
0.476153 0.512171 0.004400 977 -0.392885 -0.919557 0.007500
0.472367 0.513936 0.004400 929 -0.392885 -0.919557 0.007500
0.465050 0.518659 0.000400 897 -0.392885 -0.919557 0.007500
0.461370 0.520686 0.000400 897 -0.392885 -0.919557 0.007500
0.469073 0.517103 0.004500 881 -0.392885 -0.919557 0.007500
0.464731 0.517873 0.004500 913 -0.392885 -0.919557 0.007500
0.461437 0.521040 0.004500 913 -0.392885 -0.919557 0.007500
0.469498 0.518151 0.000500 897 -0.392885 -0.919557 0.007500
0.476723 0.513389 0.008600 945 -0.392885 -0.919557 0.007500
0.472937 0.515154 0.008600 945 -0.392885 -0.919557 0.007500
0.477028 0.513953 0.012700 913 -0.392885 -0.919557 0.007500
0.473257 0.515940 0.012700 945 -0.392885 -0.919557 0.007500
0.468860 0.516579 0.008600 897 -0.392885 -0.919557 0.007500
0.465103 0.518791 0.008600 913 -0.392885 -0.919557 0.007500
0.461317 0.520555 0.008600 913 -0.392885 -0.919557 0.007500
0.468860 0.516579 0.012700 897 -0.392885 -0.919557 0.007500
0.464890 0.518266 0.012700 897 -0.392885 -0.919557 0.007500
0.461011 0.519992 0.012700 913 -0.392885 -0.919557 0.007500
0.531094 0.491103 0.016900 1297 -0.392885 -0.919557 0.007500
0.527691 0.493247 0.016900 1313 -0.392885 -0.919557 0.007500
0.531466 0.492021 0.021000 1297 -0.392885 -0.919557 0.007500
0.531466 0.492021 0.025100 1281 -0.392885 -0.919557 0.007500
0.527478 0.492722 0.021000 1329 -0.392885 -0.919557 0.007500
0.527637 0.493116 0.025100 1281 -0.392885 -0.919557 0.007500
0.524078 0.495628 0.016900 1297 -0.392885 -0.919557 0.007500
0.518888 0.495063 0.016800 1329 -0.392885 -0.919557 0.007500
0.515063 0.496919 0.016800 1297 -0.392885 -0.919557 0.007500
0.523773 0.495065 0.021000 1281 -0.392885 -0.919557 0.007500
0.523880 0.495327 0.025100 1265 -0.392885 -0.919557 0.007500
0.519141 0.495494 0.020900 1297 -0.392885 -0.919557 0.007500
0.515116 0.497050 0.020900 1313 -0.392885 -0.919557 0.007500
0.519246 0.495757 0.025000 1297 -0.392885 -0.919557 0.007500
0.515116 0.497050 0.025000 1313 -0.392885 -0.919557 0.007500
0.531360 0.491758 0.029200 1297 -0.392885 -0.919557 0.007500
0.527637 0.493116 0.029200 1281 -0.392885 -0.919557 0.007500
0.531254 0.491496 0.033300 1313 -0.392885 -0.919557 0.007500
0.527372 0.492461 0.033300 1329 -0.392885 -0.919557 0.007500
0.523827 0.495196 0.029200 1297 -0.392885 -0.919557 0.007500
0.518927 0.494970 0.029100 1297 -0.392885 -0.919557 0.007500
0.514958 0.496657 0.029100 1297 -0.392885 -0.919557 0.007500
0.523773 0.495065 0.033300 1297 -0.392885 -0.919557 0.007500
0.518980 0.495102 0.033200 1297 -0.392885 -0.919557 0.007500
0.515170 0.497182 0.033200 1313 -0.392885 -0.919557 0.007500
0.511557 0.499563 0.016900 1297 -0.392885 -0.919557 0.007500
0.507452 0.500541 0.016800 1057 -0.392885 -0.919557 0.007500
0.511132 0.498515 0.020900 1297 -0.392885 -0.919557 0.007500
0.511557 0.499563 0.025100 1281 -0.392885 -0.919557 0.007500
0.507094 0.499847 0.020900 1057 -0.392885 -0.919557 0.007500
0.507346 0.500279 0.025000 1073 -0.392885 -0.919557 0.007500
0.503733 0.502660 0.016800 945 -0.392885 -0.919557 0.007500
0.499483 0.503469 0.016800 945 -0.392885 -0.919557 0.007500
0.503733 0.502660 0.020900 929 -0.392885 -0.919557 0.007500
0.503893 0.503054 0.025100 913 -0.392885 -0.919557 0.007500
0.499841 0.504163 0.020900 945 -0.392885 -0.919557 0.007500
0.499855 0.504387 0.025100 929 -0.392885 -0.919557 0.007500
0.511557 0.499563 0.029200 1297 -0.392885 -0.919557 0.007500
0.507863 0.501366 0.029200 1041 -0.392885 -0.919557 0.007500
0.511199 0.498868 0.033200 1297 -0.392885 -0.919557 0.007500
0.507558 0.500804 0.033200 1041 -0.392885 -0.919557 0.007500
0.503733 0.502660 0.029100 929 -0.392885 -0.919557 0.007500
0.499682 0.503771 0.029100 913 -0.392885 -0.919557 0.007500
0.503057 0.501180 0.033200 961 -0.392885 -0.919557 0.007500
0.499788 0.504032 0.033200 945 -0.392885 -0.919557 0.007500
0.531466 0.492021 0.037400 1313 -0.392885 -0.919557 0.007500
0.527584 0.492984 0.037400 1313 -0.392885 -0.919557 0.007500
0.531785 0.492807 0.041500 1297 -0.392885 -0.919557 0.007500
0.527903 0.493771 0.041500 1313 -0.392885 -0.919557 0.007500
0.523574 0.494764 0.037400 1297 -0.392885 -0.919557 0.007500
0.519618 0.496674 0.037400 1297 -0.392885 -0.919557 0.007500
0.515489 0.497968 0.037400 1313 -0.392885 -0.919557 0.007500
0.523294 0.493886 0.041400 1297 -0.392885 -0.919557 0.007500
0.519552 0.496320 0.041500 1313 -0.392885 -0.919557 0.007500
0.515421 0.497613 0.041400 1313 -0.392885 -0.919557 0.007500
0.531679 0.492544 0.045600 1297 -0.392885 -0.919557 0.007500
0.531611 0.492190 0.049700 1313 -0.392885 -0.919557 0.007500
0.527691 0.493247 0.049700 1329 -0.392885 -0.919557 0.007500
0.527744 0.493378 0.045600 1313 -0.392885 -0.919557 0.007500
0.531360 0.491758 0.053800 1297 -0.392885 -0.919557 0.007500
0.527744 0.493378 0.053800 1329 -0.392885 -0.919557 0.007500
0.523241 0.493754 0.045500 1313 -0.392885 -0.919557 0.007500
0.523309 0.494108 0.049600 1313 -0.392885 -0.919557 0.007500
0.519832 0.497198 0.045600 1297 -0.392885 -0.919557 0.007500
0.515024 0.497012 0.045500 1329 -0.392885 -0.919557 0.007500
0.515330 0.497575 0.049600 1313 -0.392885 -0.919557 0.007500
0.520097 0.497854 0.049700 1297 -0.392885 -0.919557 0.007500
0.523720 0.494933 0.053800 1297 -0.392885 -0.919557 0.007500
0.519832 0.497198 0.053800 1297 -0.392885 -0.919557 0.007500
0.515528 0.497876 0.053700 1281 -0.392885 -0.919557 0.007500
0.511146 0.498738 0.037300 1297 -0.392885 -0.919557 0.007500
0.507413 0.500633 0.037300 1057 -0.392885 -0.919557 0.007500
0.510827 0.497951 0.041400 1313 -0.392885 -0.919557 0.007500
0.507413 0.500633 0.041400 1073 -0.392885 -0.919557 0.007500
0.503269 0.501704 0.037300 945 -0.392885 -0.919557 0.007500
0.500000 0.504557 0.037400 945 -0.392885 -0.919557 0.007500
0.503534 0.502360 0.041400 929 -0.392885 -0.919557 0.007500
0.499947 0.504426 0.041400 913 -0.392885 -0.919557 0.007500
0.511132 0.498515 0.045500 1313 -0.392885 -0.919557 0.007500
0.511982 0.500611 0.049700 1281 -0.392885 -0.919557 0.007500
0.507916 0.501498 0.045500 1057 -0.392885 -0.919557 0.007500
0.508303 0.502638 0.049700 1073 -0.392885 -0.919557 0.007500
0.512089 0.500873 0.053800 1265 -0.392885 -0.919557 0.007500
0.508607 0.503201 0.053800 1057 -0.392885 -0.919557 0.007500
0.503216 0.501573 0.045500 961 -0.392885 -0.919557 0.007500
0.503641 0.502621 0.049600 945 -0.392885 -0.919557 0.007500
0.499735 0.503901 0.045500 945 -0.392885 -0.919557 0.007500
0.500000 0.504557 0.049600 945 -0.392885 -0.919557 0.007500
0.503893 0.503054 0.053700 945 -0.392885 -0.919557 0.007500
0.500213 0.505080 0.053800 929 -0.392885 -0.919557 0.007500
0.488305 0.508081 0.025000 929 -0.392885 -0.919557 0.007500
0.495789 0.505273 0.016800 945 -0.392885 -0.919557 0.007500
0.492400 0.507640 0.016800 913 -0.392885 -0.919557 0.007500
0.488716 0.508906 0.016800 929 -0.392885 -0.919557 0.007500
0.496001 0.505797 0.020900 929 -0.392885 -0.919557 0.007500
0.492400 0.507640 0.020900 929 -0.392885 -0.919557 0.007500
0.495789 0.505273 0.025000 897 -0.392885 -0.919557 0.007500
0.491829 0.506422 0.025000 945 -0.392885 -0.919557 0.007500
0.488663 0.508774 0.020900 929 -0.392885 -0.919557 0.007500
0.484519 0.509845 0.025000 913 -0.392885 -0.919557 0.007500
0.480548 0.511532 0.025000 913 -0.392885 -0.919557 0.007500
0.484838 0.510631 0.016800 897 -0.392885 -0.919557 0.007500
0.481292 0.513367 0.016900 897 -0.392885 -0.919557 0.007500
0.484823 0.510408 0.020900 897 -0.392885 -0.919557 0.007500
0.481066 0.512620 0.020900 881 -0.392885 -0.919557 0.007500
0.495629 0.504880 0.029100 945 -0.392885 -0.919557 0.007500
0.492042 0.506946 0.029100 961 -0.392885 -0.919557 0.007500
0.488411 0.508342 0.029100 913 -0.392885 -0.919557 0.007500
0.495736 0.505142 0.033200 945 -0.392885 -0.919557 0.007500
0.492081 0.506854 0.033200 945 -0.392885 -0.919557 0.007500
0.488465 0.508473 0.033200 929 -0.392885 -0.919557 0.007500
0.484465 0.509714 0.029100 897 -0.392885 -0.919557 0.007500
0.484200 0.509059 0.033100 929 -0.392885 -0.919557 0.007500
0.481027 0.512712 0.029100 913 -0.392885 -0.919557 0.007500
0.481187 0.513105 0.033300 929 -0.392885 -0.919557 0.007500
0.476671 0.513258 0.016800 897 -0.392885 -0.919557 0.007500
0.473043 0.515417 0.016800 913 -0.392885 -0.919557 0.007500
0.476312 0.512564 0.020800 929 -0.392885 -0.919557 0.007500
0.476260 0.512433 0.024900 929 -0.392885 -0.919557 0.007500
0.472618 0.514368 0.020900 913 -0.392885 -0.919557 0.007500
0.472048 0.513149 0.024900 945 -0.392885 -0.919557 0.007500
0.469179 0.517365 0.016800 881 -0.392885 -0.919557 0.007500
0.464784 0.518004 0.016700 913 -0.392885 -0.919557 0.007500
0.461210 0.520293 0.016800 897 -0.392885 -0.919557 0.007500
0.469233 0.517497 0.020900 897 -0.392885 -0.919557 0.007500
0.465103 0.518791 0.020900 897 -0.392885 -0.919557 0.007500
0.469233 0.517497 0.025000 897 -0.392885 -0.919557 0.007500
0.465103 0.518791 0.025000 881 -0.392885 -0.919557 0.007500
0.461011 0.519992 0.020900 913 -0.392885 -0.919557 0.007500
0.461104 0.520031 0.025000 897 -0.392885 -0.919557 0.007500
0.476723 0.513389 0.029100 929 -0.392885 -0.919557 0.007500
0.472367 0.513936 0.029000 945 -0.392885 -0.919557 0.007500
0.472990 0.515285 0.033200 913 -0.392885 -0.919557 0.007500
0.477202 0.514569 0.033200 929 -0.392885 -0.919557 0.007500
0.469286 0.517628 0.029100 897 -0.392885 -0.919557 0.007500
0.465475 0.519708 0.029100 897 -0.392885 -0.919557 0.007500
0.461225 0.520516 0.029100 881 -0.392885 -0.919557 0.007500
0.469378 0.517667 0.033200 897 -0.392885 -0.919557 0.007500
0.465673 0.520008 0.033300 881 -0.392885 -0.919557 0.007500
0.460959 0.519861 0.033200 881 -0.392885 -0.919557 0.007500
0.488251 0.507949 0.037300 945 -0.392885 -0.919557 0.007500
0.496001 0.505797 0.037300 929 -0.392885 -0.919557 0.007500
0.491989 0.506814 0.037300 929 -0.392885 -0.919557 0.007500
0.495789 0.505273 0.041400 929 -0.392885 -0.919557 0.007500
0.491935 0.506683 0.041400 929 -0.392885 -0.919557 0.007500
0.488557 0.508512 0.041400 961 -0.392885 -0.919557 0.007500
0.484412 0.509583 0.037300 929 -0.392885 -0.919557 0.007500
0.484678 0.510239 0.041400 913 -0.392885 -0.919557 0.007500
0.480907 0.512226 0.037300 929 -0.392885 -0.919557 0.007500
0.480907 0.512226 0.041400 913 -0.392885 -0.919557 0.007500
0.491670 0.506028 0.049500 961 -0.392885 -0.919557 0.007500
0.491921 0.506461 0.053600 961 -0.392885 -0.919557 0.007500
0.495842 0.505404 0.045500 913 -0.392885 -0.919557 0.007500
0.492028 0.506722 0.045500 929 -0.392885 -0.919557 0.007500
0.495736 0.505142 0.049600 929 -0.392885 -0.919557 0.007500
0.488943 0.509653 0.045500 913 -0.392885 -0.919557 0.007500
0.488837 0.509391 0.049600 913 -0.392885 -0.919557 0.007500
0.495842 0.505404 0.053700 913 -0.392885 -0.919557 0.007500
0.488876 0.509298 0.053700 913 -0.392885 -0.919557 0.007500
0.484465 0.509714 0.045500 913 -0.392885 -0.919557 0.007500
0.480747 0.511834 0.045500 913 -0.392885 -0.919557 0.007500
0.480655 0.511795 0.049600 897 -0.392885 -0.919557 0.007500
0.480761 0.512056 0.053700 929 -0.392885 -0.919557 0.007500
0.484838 0.510631 0.049600 897 -0.392885 -0.919557 0.007500
0.484838 0.510631 0.053700 913 -0.392885 -0.919557 0.007500
0.473150 0.515678 0.037300 913 -0.392885 -0.919557 0.007500
0.477043 0.514175 0.041400 945 -0.392885 -0.919557 0.007500
0.473150 0.515678 0.041400 913 -0.392885 -0.919557 0.007500
0.477134 0.514214 0.037300 945 -0.392885 -0.919557 0.007500
0.465514 0.519616 0.037300 881 -0.392885 -0.919557 0.007500
0.460534 0.518813 0.037200 913 -0.392885 -0.919557 0.007500
0.465408 0.519353 0.041400 913 -0.392885 -0.919557 0.007500
0.460442 0.518773 0.041300 945 -0.392885 -0.919557 0.007500
0.469552 0.518283 0.037300 897 -0.392885 -0.919557 0.007500
0.469590 0.518190 0.041400 913 -0.392885 -0.919557 0.007500
0.477043 0.514175 0.049600 913 -0.392885 -0.919557 0.007500
0.472937 0.515154 0.045500 961 -0.392885 -0.919557 0.007500
0.472473 0.514198 0.049500 945 -0.392885 -0.919557 0.007500
0.477043 0.514175 0.053700 945 -0.392885 -0.919557 0.007500
0.472367 0.513936 0.053600 929 -0.392885 -0.919557 0.007500
0.477202 0.514569 0.045500 897 -0.392885 -0.919557 0.007500
0.465620 0.519878 0.045500 897 -0.392885 -0.919557 0.007500
0.465475 0.519708 0.049600 913 -0.392885 -0.919557 0.007500
0.460959 0.519861 0.045500 929 -0.392885 -0.919557 0.007500
0.460799 0.519467 0.049500 929 -0.392885 -0.919557 0.007500
0.468701 0.516186 0.053600 929 -0.392885 -0.919557 0.007500
0.464997 0.518528 0.053700 929 -0.392885 -0.919557 0.007500
0.460693 0.519206 0.053600 913 -0.392885 -0.919557 0.007500
0.469697 0.518453 0.045600 897 -0.392885 -0.919557 0.007500
0.469552 0.518283 0.049600 881 -0.392885 -0.919557 0.007500
0.592286 0.464752 0.061900 1377 -0.392885 -0.919557 0.007500
0.588475 0.466832 0.062000 1345 -0.392885 -0.919557 0.007500
0.592140 0.464582 0.066000 1377 -0.392885 -0.919557 0.007500
0.588248 0.466084 0.066000 1361 -0.392885 -0.919557 0.007500
0.592339 0.464883 0.070100 1377 -0.392885 -0.919557 0.007500
0.581193 0.470702 0.062000 1377 -0.392885 -0.919557 0.007500
0.573447 0.473615 0.057900 1345 -0.392885 -0.919557 0.007500
0.577166 0.471496 0.062000 1393 -0.392885 -0.919557 0.007500
0.573341 0.473353 0.062000 1377 -0.392885 -0.919557 0.007500
0.584689 0.468597 0.066100 1361 -0.392885 -0.919557 0.007500
0.580995 0.470401 0.066100 1361 -0.392885 -0.919557 0.007500
0.584636 0.468466 0.070200 1393 -0.392885 -0.919557 0.007500
0.576833 0.470487 0.066000 1377 -0.392885 -0.919557 0.007500
0.573553 0.473878 0.066100 1361 -0.392885 -0.919557 0.007500
0.577417 0.471928 0.070200 1377 -0.392885 -0.919557 0.007500
0.573302 0.473445 0.070200 1361 -0.392885 -0.919557 0.007500
0.573447 0.473615 0.074300 1361 -0.392885 -0.919557 0.007500
0.584795 0.468859 0.082500 1361 -0.392885 -0.919557 0.007500
0.581101 0.470663 0.082500 1361 -0.392885 -0.919557 0.007500
0.577683 0.472584 0.078400 1361 -0.392885 -0.919557 0.007500
0.573819 0.474533 0.078400 1361 -0.392885 -0.919557 0.007500
0.577524 0.472190 0.082500 1345 -0.392885 -0.919557 0.007500
0.573766 0.474402 0.082500 1361 -0.392885 -0.919557 0.007500
0.581154 0.470794 0.086600 1361 -0.392885 -0.919557 0.007500
0.581101 0.470663 0.090700 1345 -0.392885 -0.919557 0.007500
0.577470 0.472059 0.086600 1345 -0.392885 -0.919557 0.007500
0.573713 0.474270 0.086600 1361 -0.392885 -0.919557 0.007500
0.577630 0.472453 0.090700 1329 -0.392885 -0.919557 0.007500
0.604360 0.460845 0.057900 1361 -0.392885 -0.919557 0.007500
0.599965 0.461485 0.057800 1361 -0.392885 -0.919557 0.007500
0.604732 0.461763 0.062000 1361 -0.392885 -0.919557 0.007500
0.600071 0.461746 0.062000 1361 -0.392885 -0.919557 0.007500
0.596366 0.464088 0.057900 1361 -0.392885 -0.919557 0.007500
0.592406 0.465237 0.057900 1361 -0.392885 -0.919557 0.007500
0.588940 0.467788 0.057900 1345 -0.392885 -0.919557 0.007500
0.596352 0.463866 0.062000 1345 -0.392885 -0.919557 0.007500
0.604839 0.462025 0.066200 1345 -0.392885 -0.919557 0.007500
0.600428 0.462440 0.066100 1329 -0.392885 -0.919557 0.007500
0.604520 0.461238 0.070200 1361 -0.392885 -0.919557 0.007500
0.604399 0.460753 0.074300 1377 -0.392885 -0.919557 0.007500
0.600124 0.461877 0.070200 1345 -0.392885 -0.919557 0.007500
0.599858 0.461222 0.074200 1377 -0.392885 -0.919557 0.007500
0.596245 0.463603 0.066100 1361 -0.392885 -0.919557 0.007500
0.596564 0.464389 0.070200 1313 -0.392885 -0.919557 0.007500
0.596831 0.465045 0.074300 1345 -0.392885 -0.919557 0.007500
0.592778 0.466155 0.074300 1329 -0.392885 -0.919557 0.007500
0.588886 0.467657 0.070200 1361 -0.392885 -0.919557 0.007500
0.589510 0.469007 0.074400 1345 -0.392885 -0.919557 0.007500
0.584862 0.469213 0.057900 1361 -0.392885 -0.919557 0.007500
0.581353 0.471095 0.057900 1361 -0.392885 -0.919557 0.007500
0.584848 0.468990 0.062000 1361 -0.392885 -0.919557 0.007500
0.578109 0.473633 0.058000 1345 -0.392885 -0.919557 0.007500
0.585008 0.469383 0.074300 1377 -0.392885 -0.919557 0.007500
0.581459 0.471357 0.070200 1345 -0.392885 -0.919557 0.007500
0.581633 0.471974 0.074300 1377 -0.392885 -0.919557 0.007500
0.577750 0.472937 0.074300 1377 -0.392885 -0.919557 0.007500
0.604771 0.461671 0.078400 1361 -0.392885 -0.919557 0.007500
0.600337 0.462402 0.078400 1361 -0.392885 -0.919557 0.007500
0.604307 0.460714 0.082500 1377 -0.392885 -0.919557 0.007500
0.600695 0.463096 0.082500 1377 -0.392885 -0.919557 0.007500
0.596671 0.464652 0.078400 1345 -0.392885 -0.919557 0.007500
0.592924 0.466324 0.078400 1345 -0.392885 -0.919557 0.007500
0.589563 0.469138 0.078400 1361 -0.392885 -0.919557 0.007500
0.596473 0.464351 0.082500 1361 -0.392885 -0.919557 0.007500
0.592938 0.466547 0.082500 1361 -0.392885 -0.919557 0.007500
0.589403 0.468744 0.082500 1361 -0.392885 -0.919557 0.007500
0.603988 0.459928 0.086500 1377 -0.392885 -0.919557 0.007500
0.600761 0.463450 0.086600 1345 -0.392885 -0.919557 0.007500
0.604041 0.460059 0.090600 1377 -0.392885 -0.919557 0.007500
0.600428 0.462440 0.090700 1361 -0.392885 -0.919557 0.007500
0.596724 0.464783 0.086600 1361 -0.392885 -0.919557 0.007500
0.593242 0.467111 0.086600 1361 -0.392885 -0.919557 0.007500
0.589137 0.468089 0.086600 1361 -0.392885 -0.919557 0.007500
0.596671 0.464652 0.090700 1329 -0.392885 -0.919557 0.007500
0.592991 0.466679 0.090700 1329 -0.392885 -0.919557 0.007500
0.589045 0.468050 0.090700 1361 -0.392885 -0.919557 0.007500
0.585061 0.469515 0.078400 1361 -0.392885 -0.919557 0.007500
0.581406 0.471227 0.078400 1393 -0.392885 -0.919557 0.007500
0.585114 0.469646 0.086600 1361 -0.392885 -0.919557 0.007500
0.585114 0.469646 0.090700 1361 -0.392885 -0.919557 0.007500
