764
-3.719284 3.749176 -0.333474 -199 0.609471 -0.792790 0.005331
-3.719500 3.749431 -0.335121 -199 0.609765 -0.792563 0.005554
-3.719807 3.749793 -0.336778 -199 0.607209 -0.794522 0.005691
-3.719649 3.749606 -0.338388 -215 0.604818 -0.796345 0.005439
-3.719439 3.749358 -0.339993 -215 0.608153 -0.793807 0.004596
-3.719131 3.748997 -0.341588 -247 0.617162 -0.786827 0.003847
-3.719302 3.749198 -0.343231 -215 0.617674 -0.786426 0.003562
-3.719704 3.749671 -0.344898 -215 0.634598 -0.772835 0.003490
-3.719726 3.749696 -0.346526 -215 0.641206 -0.767361 0.003377
-3.719850 3.749842 -0.348166 -215 0.655756 -0.754969 0.002628
-3.719211 3.749090 -0.349726 -215 0.646860 -0.762601 0.003500
-3.718714 3.748506 -0.351301 -215 0.630061 -0.776531 0.004790
-3.719399 3.749312 -0.352998 -215 0.632074 -0.774902 0.003104
-3.719238 3.749122 -0.354608 -247 0.640494 -0.767961 0.001998
-3.718928 3.748756 -0.356202 -231 0.643209 -0.765688 0.001909
-3.719141 3.749007 -0.357851 -231 0.642355 -0.766405 0.001850
-3.719069 3.748922 -0.359470 -247 0.647798 -0.761810 0.001638
-3.719422 3.749339 -0.361134 -231 0.652512 -0.757776 0.001462
-3.719298 3.749192 -0.362748 -199 0.660096 -0.751181 0.000676
-3.718992 3.748833 -0.364342 -199 0.660364 -0.750946 0.000253
-3.719436 3.749355 -0.366016 -215 0.657494 -0.753459 -0.000347
-3.719550 3.749489 -0.367656 -215 0.661226 -0.750185 -0.001526
-3.719385 3.749295 -0.369265 -215 0.656412 -0.754402 -0.000998
-3.719169 3.749041 -0.370868 -231 0.652773 -0.757552 -0.001421
-3.719469 3.749393 -0.372529 -215 0.638072 -0.769976 -0.001495
-3.719820 3.749808 -0.374195 -183 0.625280 -0.780400 -0.001325
-3.720030 3.750053 -0.375846 -167 0.620770 -0.783990 -0.002205
-3.719954 3.749964 -0.377465 -183 0.648599 -0.761128 -0.001770
-3.719026 3.748872 -0.378989 -215 0.655889 -0.754857 -0.001003
-3.718859 3.748675 -0.380598 -215 0.653736 -0.756720 -0.001669
-3.719067 3.748920 -0.382249 -231 0.664987 -0.746852 -0.001658
-3.719507 3.749437 -0.383926 -231 0.677250 -0.735753 -0.000676
-3.719474 3.749400 -0.385550 -215 0.604881 -0.796315 -0.001467
-3.718977 3.748814 -0.387121 -247 0.607271 -0.794489 -0.002839
-3.718661 3.748442 -0.388713 -231 0.605220 -0.796053 -0.002966
-3.718770 3.748571 -0.390353 -199 0.611264 -0.791419 -0.003660
-3.719162 3.749033 -0.392027 -183 0.610513 -0.792002 -0.002688
-3.719084 3.748940 -0.393646 -183 0.615620 -0.788040 -0.002171
-3.718818 3.748627 -0.395243 -183 0.616205 -0.787581 -0.002793
-3.719352 3.749256 -0.396933 -167 0.612930 -0.790129 -0.003579
-3.719414 3.749329 -0.398569 -151 0.612708 -0.790302 -0.003332
-3.719476 3.749401 -0.400205 -151 0.624557 -0.780966 -0.004568
-3.719770 3.749747 -0.401868 -151 0.620240 -0.784396 -0.004965
-3.719502 3.749432 -0.403465 -151 0.626524 -0.779388 -0.004725
-3.719704 3.749670 -0.405118 -135 0.632637 -0.774439 -0.003792
-3.719579 3.749522 -0.406732 -119 0.624691 -0.780864 -0.003544
-3.719496 3.749426 -0.408351 -135 0.644499 -0.764598 -0.003341
-3.719415 3.749329 -0.409970 -151 0.646218 -0.763145 -0.003520
-3.719707 3.749674 -0.411635 -119 0.633998 -0.773325 -0.004002
-3.720095 3.750131 -0.413312 -119 0.628908 -0.777460 -0.005471
-3.719683 3.749645 -0.414891 -135 0.627248 -0.778803 -0.005112
-3.718845 3.748658 -0.416417 -151 0.627361 -0.778709 -0.005593
-3.719277 3.749167 -0.418100 -167 0.623911 -0.781468 -0.006510
-3.720090 3.750124 -0.419830 -135 0.640643 -0.767821 -0.005278
-3.719961 3.749973 -0.421444 -135 0.649187 -0.760617 -0.004287
-3.719076 3.748931 -0.422963 -167 0.648049 -0.761589 -0.003947
-3.719081 3.748937 -0.424593 -135 0.657263 -0.753652 -0.003821
-3.719422 3.749337 -0.426266 -87 0.659865 -0.751368 -0.004868
-3.719105 3.748964 -0.427856 -103 0.596355 -0.802706 -0.004832
-3.718825 3.748634 -0.429450 -151 0.660121 -0.751147 -0.004197
-3.718461 3.748207 -0.431034 -199 0.613924 -0.789357 -0.003649
-3.718988 3.748827 -0.432731 -151 0.609096 -0.793091 -0.002851
-3.718849 3.748664 -0.434343 -151 0.618478 -0.785798 -0.002410
-3.718575 3.748340 -0.435938 -199 0.634967 -0.772531 -0.003598
-3.719430 3.749346 -0.437678 -183 0.645523 -0.763737 -0.002104
-3.720097 3.750132 -0.439395 -199 0.661492 -0.749938 -0.004682
-3.719821 3.749808 -0.440990 -183 0.664973 -0.746859 -0.003759
-3.718694 3.748481 -0.442474 -199 0.657687 -0.753285 -0.003216
-3.718935 3.748764 -0.444135 -199 0.660461 -0.750847 -0.004376
-3.719697 3.749661 -0.445866 -183 0.652902 -0.757437 -0.002983
-3.720079 3.750110 -0.447548 -167 0.662558 -0.749003 -0.003168
-3.719847 3.749836 -0.449148 -183 0.657041 -0.753850 -0.002769
-3.719376 3.749283 -0.450717 -199 0.656341 -0.754453 -0.003956
-3.719338 3.749238 -0.452343 -183 0.665549 -0.746340 -0.004717
-3.719105 3.748964 -0.453943 -199 0.662363 -0.749163 -0.005640
-3.718872 3.748689 -0.455543 -183 0.655859 -0.754868 -0.004916
-3.718593 3.748362 -0.457136 -199 0.649150 -0.760640 -0.005577
-3.718502 3.748253 -0.458755 -183 0.661969 -0.749516 -0.004837
-3.718030 3.747697 -0.460322 -199 0.669065 -0.743196 -0.003624
-3.718318 3.748036 -0.461992 -215 0.673767 -0.738928 -0.004685
-3.719637 3.749590 -0.463804 -199 0.668118 -0.744039 -0.004987
-3.720485 3.750588 -0.465553 -167 0.664230 -0.747512 -0.004955
-3.720392 3.750478 -0.467172 -151 0.664765 -0.747017 -0.007377
-3.720060 3.750088 -0.468759 -151 0.664675 -0.747106 -0.006257
-3.719547 3.749483 -0.470320 -135 0.662962 -0.748623 -0.006621
-3.719072 3.748924 -0.471886 -135 0.662368 -0.749146 -0.006990
-3.718790 3.748593 -0.473479 -167 0.662820 -0.748758 -0.005609
-3.718793 3.748595 -0.475112 -215 0.667442 -0.744631 -0.006635
-3.719497 3.749424 -0.476843 -199 0.660726 -0.750603 -0.006080
-3.719774 3.749752 -0.478515 -183 0.661597 -0.749838 -0.005718
-3.718976 3.748811 -0.480034 -167 0.657301 -0.753601 -0.006436
-3.718409 3.748144 -0.481586 -167 0.660917 -0.750424 -0.007356
-3.718874 3.748690 -0.483285 -183 0.663919 -0.747782 -0.005741
-3.718970 3.748804 -0.484932 -215 0.653940 -0.756519 -0.006334
-3.719060 3.748910 -0.486577 -183 0.649294 -0.760510 -0.006438
-3.719620 3.749568 -0.488291 -151 0.643489 -0.765417 -0.007791
-3.719902 3.749900 -0.489965 -135 0.646314 -0.763038 -0.007143
-3.719140 3.749003 -0.491488 -119 0.645432 -0.763788 -0.006673
-3.718668 3.748448 -0.493053 -103 0.642972 -0.765844 -0.008333
-3.719838 3.749826 -0.494857 -71 0.639900 -0.768403 -0.009210
-3.720539 3.750649 -0.496593 -87 0.644323 -0.764717 -0.007463
-3.720632 3.750760 -0.498241 -103 0.650315 -0.759639 -0.006347
-3.721093 3.751303 -0.499943 -87 0.658087 -0.752922 -0.005562
-3.720477 3.750578 -0.501487 -119 0.664876 -0.746933 -0.005525
-3.720468 3.750566 -0.503120 -135 0.665546 -0.746325 -0.006898
-3.720791 3.750947 -0.504803 -135 0.663337 -0.748297 -0.005955
-3.720078 3.750108 -0.506331 -151 0.663983 -0.747730 -0.005077
-3.719886 3.749882 -0.507937 -183 0.660284 -0.750994 -0.005664
-3.720017 3.750035 -0.509591 -167 0.664120 -0.747599 -0.006268
-3.719490 3.749414 -0.511146 -183 0.659081 -0.752052 -0.005477
-3.719110 3.748967 -0.512724 -183 0.656255 -0.754516 -0.005993
-3.719007 3.748847 -0.514343 -167 0.656388 -0.754400 -0.005944
-3.718950 3.748777 -0.515969 -183 0.654829 -0.755759 -0.005278
-3.719129 3.748991 -0.517631 -167 0.660797 -0.750531 -0.007141
-3.719354 3.749254 -0.519300 -167 0.648599 -0.761107 -0.005824
-3.719534 3.749465 -0.520962 -151 0.633741 -0.773530 -0.004952
-3.720229 3.750284 -0.522705 -151 0.624964 -0.780633 -0.005653
-3.719982 3.749993 -0.524302 -135 0.612667 -0.790331 -0.004008
-3.719503 3.749430 -0.525864 -135 0.612548 -0.790425 -0.003671
-3.719398 3.749306 -0.527483 -151 0.621683 -0.783252 -0.005191
-3.719711 3.749674 -0.529167 -151 0.631236 -0.775570 -0.005740
-3.720314 3.750384 -0.530897 -119 0.638434 -0.769656 -0.005656
-3.720252 3.750311 -0.532524 -103 0.636395 -0.771344 -0.005512
-3.720287 3.750352 -0.534166 -119 0.641921 -0.766753 -0.005245
-3.720135 3.750173 -0.535778 -135 0.648395 -0.761286 -0.005341
-3.719699 3.749661 -0.537346 -135 0.657375 -0.753548 -0.004935
-3.719592 3.749533 -0.538965 -135 0.650456 -0.759530 -0.004595
-3.719104 3.748959 -0.540524 -167 0.647657 -0.761915 -0.005127
-3.718951 3.748779 -0.542135 -135 0.652911 -0.757424 -0.004054
-3.719544 3.749476 -0.543867 -119 0.641793 -0.766869 -0.003687
-3.719628 3.749575 -0.545517 -103 0.649327 -0.760494 -0.004811
-3.719520 3.749447 -0.547136 -135 0.653137 -0.757232 -0.003406
-3.719970 3.749978 -0.548846 -135 0.664313 -0.747447 -0.003421
-3.720143 3.750182 -0.550511 -167 0.662040 -0.749446 -0.005843
-3.720174 3.750218 -0.552154 -151 0.658445 -0.752615 -0.004566
-3.720109 3.750141 -0.553781 -151 0.657006 -0.753878 -0.003174
-3.719812 3.749790 -0.555369 -183 0.657714 -0.753261 -0.003321
-3.719610 3.749553 -0.556974 -167 0.656358 -0.754443 -0.003251
-3.719872 3.749862 -0.558655 -151 0.655939 -0.754803 -0.004012
-3.719946 3.749950 -0.560305 -199 0.659499 -0.751685 -0.005506
-3.720028 3.750044 -0.561956 -167 0.654972 -0.755635 -0.005112
-3.720050 3.750072 -0.563598 -151 0.652513 -0.757768 -0.003796
-3.719893 3.749885 -0.565210 -183 0.654304 -0.756204 -0.006493
-3.720578 3.750693 -0.566962 -151 0.660983 -0.750369 -0.006847
-3.721031 3.751225 -0.568677 -135 0.665841 -0.746056 -0.007389
-3.720774 3.750924 -0.570273 -151 0.668552 -0.743628 -0.007450
-3.720757 3.750903 -0.571909 -151 0.670537 -0.741848 -0.006483
-3.720733 3.750875 -0.573544 -151 0.666494 -0.745482 -0.006571
-3.720946 3.751126 -0.575219 -199 0.673407 -0.739242 -0.006681
-3.720503 3.750604 -0.576783 -199 0.672356 -0.740196 -0.006924
-3.720014 3.750028 -0.578339 -167 0.674400 -0.738341 -0.006048
-3.720510 3.750612 -0.580063 -135 0.672445 -0.740129 -0.005154
-3.720252 3.750308 -0.581659 -135 0.675906 -0.736972 -0.004787
-3.719949 3.749951 -0.583246 -151 0.678447 -0.734631 -0.005360
-3.720251 3.750306 -0.584938 -151 0.681080 -0.732192 -0.004981
-3.720418 3.750502 -0.586606 -151 0.678320 -0.734752 -0.004750
-3.719547 3.749478 -0.588095 -167 0.674370 -0.738375 -0.005150
-3.719101 3.748952 -0.589657 -151 0.658300 -0.752738 -0.005056
-3.719691 3.749646 -0.591400 -151 0.664014 -0.747710 -0.003981
-3.719103 3.748954 -0.592937 -183 0.659476 -0.751710 -0.004839
-3.719074 3.748919 -0.594572 -199 0.659754 -0.751470 -0.004209
-3.719567 3.749500 -0.596298 -167 0.659966 -0.751274 -0.005759
-3.719781 3.749753 -0.597976 -151 0.665663 -0.746220 -0.006940
-3.720362 3.750437 -0.599719 -135 0.662829 -0.748728 -0.007897
-3.720288 3.750348 -0.601346 -135 0.670478 -0.741873 -0.009127
-3.720263 3.750320 -0.602983 -151 0.672691 -0.739866 -0.009180
-3.720285 3.750345 -0.604628 -151 0.677472 -0.735509 -0.007624
-3.719790 3.749763 -0.606181 -151 0.678997 -0.734095 -0.008222
-3.719432 3.749340 -0.607758 -167 0.676584 -0.736321 -0.008056
-3.719354 3.749250 -0.609385 -199 0.674094 -0.738615 -0.006668
-3.720223 3.750272 -0.611182 -199 0.666523 -0.745445 -0.007626
-3.720615 3.750733 -0.612894 -183 0.664482 -0.747276 -0.006653
-3.719509 3.749432 -0.614336 -183 0.670352 -0.742013 -0.006687
-3.719149 3.749007 -0.615912 -199 0.668365 -0.743802 -0.006846
-3.719450 3.749360 -0.617608 -199 0.669599 -0.742699 -0.005966
-3.719423 3.749329 -0.619245 -183 0.664848 -0.746967 -0.004167
-3.719858 3.749840 -0.620967 -199 0.670387 -0.742001 -0.003966
-3.719830 3.749807 -0.622603 -199 0.670255 -0.742126 -0.002388
-3.718953 3.748776 -0.624085 -199 0.662064 -0.749447 -0.000641
-3.719015 3.748848 -0.625738 -167 0.651032 -0.759051 0.000017
-3.719217 3.749087 -0.627417 -151 0.652083 -0.758146 0.001082
-3.719375 3.749272 -0.629089 -183 0.654254 -0.756275 0.000428
-3.719718 3.749676 -0.630795 -183 0.656249 -0.754539 -0.002789
-3.719643 3.749588 -0.632424 -183 0.659648 -0.751568 -0.003177
-3.720263 3.750316 -0.634182 -167 0.660309 -0.750985 -0.003707
-3.720373 3.750447 -0.635846 -151 0.658867 -0.752250 -0.003793
-3.720060 3.750078 -0.637431 -135 0.659218 -0.751949 -0.002402
-3.719978 3.749981 -0.639059 -151 0.670801 -0.741630 -0.003169
-3.720415 3.750495 -0.640785 -151 0.673265 -0.739389 -0.004180
-3.720101 3.750125 -0.642369 -151 0.678587 -0.734510 -0.003793
-3.718842 3.748642 -0.643774 -215 0.674107 -0.738627 -0.002989
-3.718995 3.748823 -0.645447 -199 0.673447 -0.739235 -0.001239
-3.719759 3.749723 -0.647236 -183 0.673666 -0.739035 -0.001342
-3.720330 3.750395 -0.648989 -151 0.668848 -0.743394 -0.002728
-3.719970 3.749969 -0.650564 -151 0.666798 -0.745234 -0.002687
-3.720025 3.750036 -0.652219 -199 0.659110 -0.752046 0.000350
-3.720550 3.750654 -0.653965 -199 0.650978 -0.759083 -0.004484
-3.720047 3.750060 -0.655513 -167 0.658488 -0.752570 -0.005544
-3.719632 3.749574 -0.657077 -167 0.657465 -0.753469 -0.004902
-3.719642 3.749585 -0.658724 -183 0.655136 -0.755491 -0.005570
-3.719891 3.749876 -0.660417 -151 0.659072 -0.752039 -0.007852
-3.719616 3.749554 -0.662009 -151 0.653761 -0.756674 -0.006462
-3.719151 3.749005 -0.663563 -167 0.646287 -0.763084 -0.003803
-3.719351 3.749241 -0.665247 -167 0.646915 -0.762553 -0.003745
-3.720529 3.750627 -0.667123 -151 0.650596 -0.759373 -0.008818
-3.720960 3.751136 -0.668854 -135 0.660491 -0.750756 -0.010769
-3.720640 3.750758 -0.670437 -151 0.682211 -0.731056 -0.012017
-3.720365 3.750434 -0.672029 -119 0.682417 -0.730907 -0.009024
-3.719852 3.749829 -0.673574 -151 0.681569 -0.731736 -0.004990
-3.719717 3.749671 -0.675193 -183 0.679454 -0.733680 -0.007469
-3.719865 3.749844 -0.676869 -167 0.684483 -0.728937 -0.011538
-3.720012 3.750018 -0.678544 -199 0.688897 -0.724751 -0.012494
-3.719831 3.749805 -0.680155 -199 0.684258 -0.729206 -0.007046
-3.720209 3.750250 -0.681877 -183 0.681312 -0.731965 -0.006377
-3.719931 3.749922 -0.683468 -215 0.679069 -0.734068 -0.003103
-3.719698 3.749648 -0.685068 -215 0.676488 -0.736447 -0.003216
-3.720036 3.750045 -0.686784 -199 0.677688 -0.735313 -0.007252
-3.719661 3.749604 -0.688355 -199 0.678500 -0.734569 -0.006828
-3.719287 3.749162 -0.689926 -199 0.677393 -0.735607 -0.004566
-3.718963 3.748781 -0.691507 -183 0.673955 -0.738772 0.001134
-3.718966 3.748784 -0.693155 -199 0.676134 -0.736776 0.001846
-3.719251 3.749119 -0.694860 -247 0.673120 -0.739528 0.002882
-3.719017 3.748842 -0.696460 -247 0.673657 -0.739021 0.005969
-3.719299 3.749177 -0.698166 -199 0.678243 -0.734834 0.002042
-3.720194 3.750230 -0.699997 -183 0.676241 -0.736676 -0.002759
-3.720246 3.750291 -0.701657 -167 0.672720 -0.739895 -0.001385
-3.720523 3.750617 -0.703363 -183 0.662748 -0.748796 -0.008327
-3.720946 3.751116 -0.705099 -231 0.668775 -0.743368 -0.011988
-3.720665 3.750784 -0.706690 -215 0.666503 -0.745465 -0.007466
-3.717441 3.749787 -0.294437 -167 0.640968 -0.767518 0.008782
-3.717291 3.749610 -0.296047 -183 0.646706 -0.762686 0.009038
-3.717607 3.749981 -0.297699 -215 0.648187 -0.761433 0.008556
-3.718205 3.750687 -0.299376 -199 0.646587 -0.762810 0.006821
-3.718145 3.750616 -0.300995 -183 0.639586 -0.768684 0.007460
-3.718323 3.750826 -0.302636 -167 0.644463 -0.764594 0.008065
-3.717978 3.750420 -0.304230 -215 0.637196 -0.770654 0.008537
-3.717916 3.750347 -0.305849 -199 0.627477 -0.778598 0.007630
-3.717856 3.750275 -0.307468 -199 0.636773 -0.771019 0.007035
-3.717510 3.749867 -0.309061 -183 0.632540 -0.774490 0.007642
-3.717776 3.750182 -0.310710 -151 0.636124 -0.771549 0.007664
-3.717811 3.750223 -0.312338 -183 0.636871 -0.770939 0.006973
-3.718077 3.750536 -0.313987 -199 0.656227 -0.754537 0.006263
-3.717826 3.750242 -0.315589 -199 0.662404 -0.749125 0.005790
-3.717996 3.750440 -0.317230 -183 0.662531 -0.749016 0.005288
-3.717983 3.750426 -0.318854 -167 0.650373 -0.759597 0.005298
-3.717538 3.749901 -0.320436 -199 0.645451 -0.763781 0.005608
-3.717525 3.749886 -0.322060 -231 0.642057 -0.766638 0.005463
-3.717125 3.749414 -0.323647 -215 0.625871 -0.779902 0.006185
-3.717485 3.749840 -0.325306 -167 0.620483 -0.784197 0.006128
-3.717705 3.750097 -0.326953 -183 0.620913 -0.783861 0.005246
-3.717735 3.750134 -0.328581 -215 0.624925 -0.780668 0.005249
-3.717902 3.750330 -0.330223 -215 0.628099 -0.778117 0.005110
-3.718022 3.750471 -0.331860 -199 0.618631 -0.785668 0.004742
-3.718149 3.750622 -0.333498 -199 0.618690 -0.785621 0.004740
-3.718224 3.750710 -0.335131 -199 0.606482 -0.795079 0.005279
-3.718531 3.751072 -0.336788 -183 0.611392 -0.791309 0.005467
-3.718322 3.750825 -0.338393 -183 0.615151 -0.788391 0.005249
-3.717879 3.750303 -0.339975 -215 0.620405 -0.784268 0.004543
-3.717952 3.750390 -0.341608 -231 0.623185 -0.782067 0.003495
-3.718259 3.750750 -0.343265 -231 0.632639 -0.774440 0.003269
-3.717860 3.750281 -0.344851 -199 0.641008 -0.767531 0.002473
-3.717462 3.749811 -0.346436 -231 0.633930 -0.773384 0.003133
-3.717483 3.749836 -0.348064 -247 0.638781 -0.769382 0.003033
-3.717368 3.749699 -0.349678 -231 0.652955 -0.757390 0.002981
-3.717439 3.749785 -0.351312 -215 0.646237 -0.763129 0.003663
-3.717466 3.749815 -0.352940 -215 0.638018 -0.770016 0.002638
-3.717298 3.749618 -0.354549 -247 0.647405 -0.762145 0.001037
-3.717794 3.750203 -0.356228 -247 0.646511 -0.762903 0.002007
-3.718335 3.750841 -0.357911 -215 0.647930 -0.761697 0.001732
-3.717696 3.750088 -0.359470 -247 0.657826 -0.753168 0.002058
-3.717578 3.749948 -0.361084 -264 0.664696 -0.747112 0.001763
-3.717926 3.750358 -0.362748 -264 0.660622 -0.750718 0.001290
-3.718421 3.750942 -0.364428 -231 0.667239 -0.744843 0.001159
-3.718393 3.750909 -0.366053 -215 0.659647 -0.751576 0.000039
-3.717989 3.750434 -0.367636 -231 0.659660 -0.751563 -0.001943
-3.717490 3.749844 -0.369209 -231 0.659547 -0.751661 -0.001669
-3.717558 3.749924 -0.370843 -215 0.656163 -0.754618 -0.001474
-3.718006 3.750453 -0.372519 -215 0.649003 -0.760785 -0.001492
-3.717977 3.750417 -0.374143 -215 0.631285 -0.775551 -0.000892
-3.718372 3.750884 -0.375815 -215 0.617714 -0.786403 -0.000305
-3.719007 3.751631 -0.377513 -215 0.618243 -0.785986 -0.001300
-3.718177 3.750654 -0.379048 -264 0.608373 -0.793651 -0.000248
-3.717299 3.749620 -0.380577 -264 0.662551 -0.749017 -0.000322
-3.717740 3.750139 -0.382254 -247 0.597555 -0.801827 -0.001549
-3.718179 3.750656 -0.383932 -215 0.591097 -0.806600 -0.000234
-3.718295 3.750793 -0.385573 -215 0.606040 -0.795433 -0.001343
-3.718451 3.750976 -0.387219 -199 0.609145 -0.793050 -0.003807
-3.718469 3.750998 -0.388849 -183 0.603958 -0.797011 -0.002755
-3.718577 3.751126 -0.390490 -199 0.611407 -0.791311 -0.002734
-3.718171 3.750647 -0.392071 -183 0.612100 -0.790771 -0.003967
-3.717428 3.749771 -0.393613 -199 0.612581 -0.790403 -0.002803
-3.717445 3.749791 -0.395243 -215 0.624884 -0.780712 -0.003017
-3.717792 3.750200 -0.396912 -199 0.624642 -0.780900 -0.004158
-3.718467 3.750995 -0.398620 -151 0.617339 -0.786691 -0.003050
-3.719142 3.751791 -0.400328 -167 0.619849 -0.784714 -0.003283
-3.718682 3.751247 -0.401903 -215 0.622612 -0.782521 -0.004050
-3.718175 3.750650 -0.403471 -199 0.628956 -0.777430 -0.004219
-3.718429 3.750950 -0.405131 -167 0.630883 -0.775874 -0.002664
-3.718251 3.750741 -0.406738 -151 0.629075 -0.777339 -0.002867
-3.717930 3.750363 -0.408329 -167 0.638387 -0.769710 -0.003116
-3.717661 3.750046 -0.409925 -183 0.643787 -0.765199 -0.003079
-3.717767 3.750169 -0.411567 -183 0.641601 -0.767028 -0.004032
-3.718252 3.750741 -0.413255 -183 0.640593 -0.767869 -0.004134
-3.718265 3.750757 -0.414886 -199 0.633555 -0.773689 -0.003482
-3.718370 3.750880 -0.416528 -199 0.636544 -0.771233 -0.003264
-3.718285 3.750781 -0.418147 -167 0.638188 -0.769872 -0.003731
-3.718105 3.750568 -0.419755 -135 0.631721 -0.775180 -0.005003
-3.718259 3.750750 -0.421404 -135 0.639896 -0.768450 -0.004222
-3.717795 3.750201 -0.422975 -183 0.634412 -0.772986 -0.003895
-3.717948 3.750383 -0.424624 -167 0.638173 -0.769884 -0.003778
-3.718192 3.750670 -0.426285 -119 0.617408 -0.786638 -0.002757
-3.718390 3.750904 -0.427939 -119 0.662221 -0.749305 -0.002194
-3.718491 3.751023 -0.429582 -151 0.652335 -0.757925 -0.002959
-3.718031 3.750480 -0.431154 -167 0.655954 -0.754796 -0.002641
-3.717519 3.749878 -0.432719 -135 0.612287 -0.790632 -0.002392
-3.717619 3.749996 -0.434362 -135 0.628817 -0.777550 -0.002383
-3.717628 3.750007 -0.435993 -167 0.645300 -0.763924 -0.002923
-3.717303 3.749622 -0.437581 -215 0.650373 -0.759611 -0.002789
-3.717402 3.749740 -0.439224 -215 0.658170 -0.752854 -0.004818
-3.717978 3.750418 -0.440929 -199 0.658660 -0.752425 -0.004862
-3.717748 3.750147 -0.442530 -199 0.657905 -0.753092 -0.003548
-3.718317 3.750817 -0.444235 -199 0.663297 -0.748346 -0.004012
-3.718982 3.751601 -0.445954 -183 0.664155 -0.747586 -0.003656
-3.718937 3.751548 -0.447579 -199 0.665512 -0.746381 -0.002974
-3.718990 3.751610 -0.449217 -215 0.661980 -0.749513 -0.003563
-3.718146 3.750614 -0.450737 -183 0.652124 -0.758103 -0.003602
-3.717165 3.749460 -0.452237 -183 0.651121 -0.758960 -0.004477
-3.717636 3.750015 -0.453931 -167 0.659300 -0.751859 -0.005595
-3.718209 3.750689 -0.455639 -167 0.662804 -0.748769 -0.005980
-3.718021 3.750467 -0.457245 -183 0.667049 -0.744990 -0.006029
-3.717362 3.749692 -0.458787 -215 0.666670 -0.745334 -0.005325
-3.717179 3.749476 -0.460394 -215 0.669112 -0.743148 -0.004476
-3.718402 3.750916 -0.462192 -183 0.674417 -0.738334 -0.004977
-3.718690 3.751256 -0.463863 -199 0.670257 -0.742110 -0.005373
-3.718127 3.750591 -0.465418 -215 0.663496 -0.748157 -0.005845
-3.718266 3.750755 -0.467069 -199 0.662742 -0.748828 -0.005541
-3.718409 3.750926 -0.468721 -167 0.660144 -0.751122 -0.005032
-3.718078 3.750535 -0.470307 -183 0.659142 -0.751991 -0.006381
-3.718498 3.751031 -0.471998 -151 0.662952 -0.748645 -0.004927
-3.718314 3.750813 -0.473605 -151 0.664292 -0.747452 -0.005695
-3.717511 3.749866 -0.475125 -215 0.668595 -0.743597 -0.006612
-3.717512 3.749867 -0.476757 -215 0.669269 -0.742996 -0.006028
-3.718260 3.750750 -0.478495 -215 0.667390 -0.744672 -0.007341
-3.718307 3.750802 -0.480134 -183 0.661548 -0.749848 -0.009031
-3.717791 3.750197 -0.481694 -183 0.662169 -0.749325 -0.006622
-3.717412 3.749749 -0.483273 -183 0.659700 -0.751501 -0.006509
-3.717502 3.749855 -0.484918 -183 0.656867 -0.753986 -0.005492
-3.717637 3.750014 -0.486571 -167 0.658223 -0.752811 -0.004270
-3.718434 3.750954 -0.488318 -151 0.653178 -0.757183 -0.005784
-3.719515 3.752228 -0.490108 -119 0.655265 -0.755376 -0.005983
-3.718618 3.751170 -0.491612 -135 0.654335 -0.756178 -0.006351
-3.717766 3.750166 -0.493122 -135 0.655525 -0.755140 -0.007094
-3.718466 3.750991 -0.494857 -119 0.655920 -0.754782 -0.008566
-3.718366 3.750875 -0.496477 -135 0.652967 -0.757347 -0.007705
-3.718507 3.751039 -0.498131 -151 0.652182 -0.758023 -0.007765
-3.718735 3.751307 -0.499799 -135 0.660060 -0.751183 -0.006644
-3.718634 3.751189 -0.501418 -119 0.665371 -0.746489 -0.006096
-3.719005 3.751625 -0.503107 -119 0.667063 -0.744965 -0.007351
-3.719232 3.751893 -0.504776 -135 0.666070 -0.745865 -0.005963
-3.719033 3.751660 -0.506381 -167 0.666377 -0.745590 -0.006046
-3.718604 3.751154 -0.507951 -167 0.662710 -0.748834 -0.007928
-3.718219 3.750699 -0.509528 -167 0.667305 -0.744757 -0.006338
-3.717744 3.750140 -0.511091 -199 0.664818 -0.746984 -0.005720
-3.717499 3.749851 -0.512689 -199 0.660024 -0.751223 -0.005633
-3.717584 3.749950 -0.514336 -199 0.658100 -0.752914 -0.005013
-3.718003 3.750444 -0.516034 -183 0.661335 -0.750077 -0.004562
-3.717616 3.749987 -0.517610 -199 0.659652 -0.751548 -0.005877
-3.717273 3.749585 -0.519192 -215 0.664362 -0.747381 -0.006577
-3.718677 3.751238 -0.521042 -199 0.639292 -0.768946 -0.005303
-3.719512 3.752223 -0.522807 -151 0.625857 -0.779916 -0.005879
-3.719221 3.751879 -0.524398 -183 0.620474 -0.784208 -0.005597
-3.718788 3.751369 -0.525966 -199 0.625529 -0.780180 -0.005732
-3.717646 3.750022 -0.527425 -231 0.621141 -0.783672 -0.006512
-3.717495 3.749846 -0.529036 -231 0.618890 -0.785459 -0.005445
-3.718374 3.750880 -0.530809 -183 0.631196 -0.775603 -0.005577
-3.718082 3.750536 -0.532399 -167 0.637855 -0.770136 -0.005581
-3.717647 3.750024 -0.533967 -167 0.642361 -0.766382 -0.005656
-3.717302 3.749616 -0.535548 -183 0.643900 -0.765090 -0.005447
-3.717902 3.750325 -0.537279 -199 0.657580 -0.753358 -0.006300
-3.718496 3.751024 -0.539010 -199 0.655420 -0.755247 -0.005336
-3.718202 3.750677 -0.540599 -215 0.648366 -0.761311 -0.005236
-3.718281 3.750769 -0.542248 -183 0.652197 -0.758043 -0.003140
-3.718596 3.751143 -0.543935 -151 0.645723 -0.763563 -0.003633
-3.718629 3.751180 -0.545578 -135 0.650811 -0.759235 -0.002808
-3.718333 3.750832 -0.547167 -167 0.661505 -0.749935 -0.003038
-3.718321 3.750817 -0.548802 -167 0.664117 -0.747623 -0.002938
-3.718584 3.751128 -0.550482 -167 0.658418 -0.752643 -0.003656
-3.718615 3.751163 -0.552124 -183 0.663327 -0.748314 -0.004917
-3.718080 3.750534 -0.553674 -183 0.662223 -0.749291 -0.004885
-3.717925 3.750350 -0.555286 -215 0.661956 -0.749532 -0.004027
-3.717813 3.750218 -0.556905 -215 0.659338 -0.751842 -0.002813
-3.717702 3.750087 -0.558524 -215 0.656538 -0.754285 -0.003577
-3.717680 3.750062 -0.560158 -231 0.659150 -0.751994 -0.005027
-3.717851 3.750262 -0.561824 -199 0.657968 -0.753031 -0.004557
-3.717649 3.750024 -0.563428 -199 0.659248 -0.751911 -0.004603
-3.717343 3.749664 -0.565014 -231 0.660534 -0.750768 -0.006447
-3.718220 3.750697 -0.566799 -231 0.662479 -0.749049 -0.006894
-3.719284 3.751952 -0.568615 -183 0.669496 -0.742782 -0.007019
-3.719119 3.751756 -0.570226 -167 0.673610 -0.739057 -0.006732
-3.718960 3.751569 -0.571838 -183 0.670826 -0.741596 -0.005233
-3.719083 3.751713 -0.573498 -199 0.673043 -0.739580 -0.006000
-3.719059 3.751685 -0.575133 -199 0.674939 -0.737845 -0.006515
-3.718854 3.751443 -0.576737 -199 0.672500 -0.740072 -0.006108
-3.718642 3.751193 -0.578340 -183 0.675639 -0.737204 -0.006515
-3.718758 3.751330 -0.579999 -167 0.681693 -0.731616 -0.005773
-3.718693 3.751254 -0.581627 -167 0.681292 -0.731993 -0.005280
-3.718339 3.750836 -0.583206 -183 0.679789 -0.733399 -0.003399
-3.718646 3.751198 -0.584898 -183 0.674694 -0.738087 -0.004009
-3.719282 3.751946 -0.586648 -167 0.680309 -0.732917 -0.003590
-3.719164 3.751808 -0.588267 -151 0.680840 -0.732415 -0.005052
-3.718198 3.750670 -0.589740 -135 0.678230 -0.734839 -0.003857
-3.717328 3.749645 -0.591228 -183 0.669147 -0.743123 -0.003375
-3.717165 3.749452 -0.592839 -215 0.676831 -0.736127 -0.004082
-3.717703 3.750085 -0.594572 -215 0.669405 -0.742886 -0.004046
-3.718529 3.751058 -0.596357 -199 0.671239 -0.741226 -0.004742
-3.719206 3.751858 -0.598117 -183 0.674442 -0.738292 -0.007241
-3.719369 3.752050 -0.599787 -135 0.675262 -0.737531 -0.008315
-3.719249 3.751908 -0.601407 -151 0.674580 -0.738142 -0.009370
-3.719078 3.751705 -0.603017 -167 0.676371 -0.736503 -0.009316
-3.718397 3.750904 -0.604537 -199 0.680320 -0.732876 -0.007546
-3.718322 3.750814 -0.606164 -199 0.680344 -0.732850 -0.007921
-3.718201 3.750671 -0.607784 -215 0.682673 -0.730689 -0.007196
-3.717982 3.750414 -0.609385 -264 0.681648 -0.731642 -0.007483
-3.718799 3.751377 -0.611174 -231 0.676166 -0.736707 -0.007881
-3.719012 3.751626 -0.612853 -199 0.674528 -0.738206 -0.007924
-3.718510 3.751035 -0.614404 -231 0.676064 -0.736811 -0.006908
-3.718387 3.750891 -0.616024 -231 0.674230 -0.738486 -0.007174
-3.719202 3.751851 -0.617814 -215 0.675069 -0.737729 -0.006124
-3.719643 3.752371 -0.619536 -199 0.672317 -0.740252 -0.004085
-3.719147 3.751785 -0.621088 -231 0.666616 -0.745386 -0.004657
-3.718548 3.751079 -0.622621 -215 0.670043 -0.742317 -0.002809
-3.718519 3.751046 -0.624258 -231 0.671174 -0.741296 -0.002138
-3.719191 3.751837 -0.626024 -231 0.660712 -0.750639 -0.000343
-3.718976 3.751583 -0.627627 -199 0.655650 -0.755065 0.000099
-3.718286 3.750769 -0.629142 -215 0.647736 -0.761865 -0.000046
-3.717735 3.750122 -0.630682 -264 0.644895 -0.764270 -0.001515
-3.718220 3.750692 -0.632415 -231 0.650118 -0.759831 -0.001874
-3.718703 3.751262 -0.634148 -183 0.663494 -0.748176 -0.003151
-3.718628 3.751173 -0.635777 -199 0.659871 -0.751366 -0.004268
-3.718687 3.751243 -0.637431 -183 0.671255 -0.741220 -0.003319
-3.718702 3.751259 -0.639078 -151 0.675312 -0.737521 -0.004009
-3.718664 3.751214 -0.640714 -119 0.678199 -0.734870 -0.003605
-3.718772 3.751344 -0.642378 -167 0.677353 -0.735654 -0.002435
-3.718362 3.750859 -0.643944 -215 0.676868 -0.736093 -0.004133
-3.717906 3.750322 -0.645501 -215 0.681488 -0.731824 -0.002599
-3.717918 3.750335 -0.647147 -183 0.677896 -0.735153 -0.002485
-3.718072 3.750515 -0.648820 -167 0.677608 -0.735419 -0.002569
-3.718642 3.751188 -0.650574 -199 0.662664 -0.748911 -0.002789
-3.718980 3.751587 -0.652283 -231 0.667332 -0.744760 -0.000680
-3.719274 3.751933 -0.653984 -215 0.659241 -0.751919 -0.004558
-3.718956 3.751559 -0.655568 -215 0.672220 -0.740316 -0.007319
-3.718447 3.750959 -0.657114 -215 0.665113 -0.746722 -0.005603
-3.718368 3.750864 -0.658743 -215 0.649454 -0.760386 -0.004788
-3.718466 3.750980 -0.660408 -215 0.645750 -0.763520 -0.006661
-3.718572 3.751106 -0.662073 -231 0.645950 -0.763350 -0.006742
-3.718529 3.751055 -0.663710 -215 0.649985 -0.759929 -0.005320
-3.718822 3.751398 -0.665413 -199 0.644243 -0.764810 -0.004188
-3.718784 3.751354 -0.667051 -167 0.652065 -0.758131 -0.006887
-3.718837 3.751416 -0.668707 -151 0.656481 -0.754294 -0.008570
-3.718421 3.750925 -0.670271 -183 0.674375 -0.738357 -0.006892
-3.717915 3.750329 -0.671817 -183 0.677806 -0.735202 -0.007566
-3.718153 3.750610 -0.673510 -167 0.676531 -0.736392 -0.005763
-3.718255 3.750731 -0.675176 -215 0.675872 -0.736980 -0.007486
-3.718537 3.751063 -0.676878 -215 0.679735 -0.733346 -0.012815
-3.718826 3.751402 -0.678582 -183 0.679710 -0.733315 -0.015603
-3.718222 3.750690 -0.680108 -215 0.680646 -0.732589 -0.005888
-3.718040 3.750477 -0.681718 -247 0.684690 -0.728831 -0.002363
-3.718463 3.750974 -0.683450 -264 0.675248 -0.737583 -0.003201
-3.718281 3.750761 -0.685060 -264 0.673190 -0.739452 -0.005070
-3.717445 3.749774 -0.686538 -264 0.673656 -0.739042 -0.002235
-3.717398 3.749719 -0.688175 -247 0.676191 -0.736718 -0.003570
-3.718620 3.751159 -0.690070 -215 0.669588 -0.742668 -0.009800
-3.719233 3.751881 -0.691842 -183 0.675050 -0.737565 -0.017464
-3.718627 3.751166 -0.693366 -215 0.670185 -0.742144 -0.008673
-3.718391 3.750888 -0.694966 -264 0.668481 -0.743719 -0.003934
-3.718818 3.751390 -0.696701 -264 0.667480 -0.744609 -0.005319
-3.718960 3.751559 -0.698379 -247 0.666240 -0.745720 -0.005143
-3.719013 3.751621 -0.700038 -231 0.664066 -0.747659 -0.004712
-3.718866 3.751448 -0.701656 -231 0.664108 -0.747612 -0.006007
-3.718540 3.751064 -0.703237 -231 0.656359 -0.754439 -0.003928
-3.718913 3.751503 -0.704963 -247 0.656989 -0.753892 -0.003630
-3.719383 3.752055 -0.706709 -231 0.658254 -0.752705 -0.011688
-3.716402 3.751152 -0.294458 -215 0.637593 -0.770319 0.009133
-3.717047 3.751912 -0.296139 -199 0.638745 -0.769365 0.009156
-3.717510 3.752459 -0.297804 -183 0.641795 -0.766845 0.007030
-3.716785 3.751605 -0.299364 -183 0.643015 -0.765813 0.007864
-3.716493 3.751259 -0.300963 -151 0.641893 -0.766763 0.006866
-3.716334 3.751073 -0.302573 -199 0.637811 -0.770165 0.006404
-3.716086 3.750781 -0.304175 -215 0.642351 -0.766387 0.005953
-3.716071 3.750762 -0.305798 -215 0.628156 -0.778058 0.006701
-3.716202 3.750918 -0.307434 -215 0.631525 -0.775326 0.006856
-3.716657 3.751454 -0.309100 -215 0.623903 -0.781469 0.007126
-3.716924 3.751769 -0.310750 -183 0.618781 -0.785533 0.006893
-3.717663 3.752639 -0.312443 -183 0.632853 -0.774251 0.005819
-3.717225 3.752123 -0.314027 -183 0.644743 -0.764379 0.005674
-3.716548 3.751326 -0.315589 -199 0.653772 -0.756665 0.006365
-3.716814 3.751639 -0.317239 -199 0.650321 -0.759642 0.005264
-3.716706 3.751510 -0.318854 -183 0.649325 -0.760498 0.004521
-3.716641 3.751435 -0.320473 -183 0.644653 -0.764462 0.004657
-3.716576 3.751358 -0.322092 -215 0.633466 -0.773752 0.005390
-3.716228 3.750947 -0.323684 -247 0.618195 -0.786002 0.005973
-3.715834 3.750483 -0.325271 -231 0.623536 -0.781775 0.005469
-3.715716 3.750345 -0.326885 -215 0.619379 -0.785079 0.004648
-3.715889 3.750549 -0.328527 -231 0.623792 -0.781574 0.004985
-3.716198 3.750911 -0.330182 -247 0.617318 -0.786699 0.004783
-3.716557 3.751335 -0.331842 -231 0.625214 -0.780441 0.004289
-3.716872 3.751707 -0.333499 -247 0.615044 -0.788480 0.004470
-3.716753 3.751567 -0.335113 -247 0.607888 -0.794010 0.004479
-3.716499 3.751266 -0.336713 -247 0.609745 -0.792584 0.004831
-3.716857 3.751688 -0.338375 -247 0.611005 -0.791613 0.004706
-3.716878 3.751714 -0.340003 -215 0.619929 -0.784648 0.003939
-3.716766 3.751581 -0.341618 -247 0.626876 -0.779112 0.003226
-3.716883 3.751721 -0.343256 -231 0.624783 -0.780793 0.003117
-3.716956 3.751807 -0.344889 -215 0.620524 -0.784182 0.002841
-3.717268 3.752175 -0.346548 -215 0.623812 -0.781571 0.002477
-3.716631 3.751422 -0.348108 -231 0.636871 -0.770967 0.002149
-3.716277 3.751005 -0.349698 -215 0.635779 -0.771866 0.002609
-3.716633 3.751424 -0.351361 -215 0.636562 -0.771219 0.003165
-3.717130 3.752011 -0.353039 -215 0.640866 -0.767650 0.002341
-3.717059 3.751927 -0.354659 -231 0.643304 -0.765609 0.001542
-3.716608 3.751395 -0.356238 -215 0.644640 -0.764483 0.002553
-3.716535 3.751310 -0.357857 -215 0.649193 -0.760623 0.001316
-3.716560 3.751339 -0.359486 -231 0.656871 -0.754002 0.001475
-3.716436 3.751193 -0.361100 -231 0.661161 -0.750241 0.001914
-3.716698 3.751503 -0.362754 -231 0.657976 -0.753038 0.001204
-3.716769 3.751584 -0.364389 -247 0.665035 -0.746811 0.001180
-3.716830 3.751658 -0.366023 -231 0.663122 -0.748511 0.000845
-3.716854 3.751685 -0.367652 -215 0.665117 -0.746739 -0.000641
-3.716354 3.751096 -0.369225 -215 0.667099 -0.744968 -0.001354
-3.716609 3.751397 -0.370880 -215 0.666360 -0.745628 -0.001604
-3.717057 3.751925 -0.372556 -183 0.657276 -0.753649 -0.000726
-3.716459 3.751220 -0.374118 -215 0.639837 -0.768509 -0.001461
-3.716527 3.751299 -0.375752 -215 0.621128 -0.783710 0.000287
-3.716690 3.751493 -0.377398 -199 0.610960 -0.791661 0.000302
-3.716375 3.751121 -0.378990 -231 0.662038 -0.749470 -0.000156
-3.716583 3.751367 -0.380641 -231 0.596650 -0.802501 0.000262
-3.716694 3.751497 -0.382281 -215 0.590349 -0.807148 -0.000771
-3.715960 3.750631 -0.383826 -215 0.677205 -0.735795 -0.000167
-3.715650 3.750265 -0.385418 -215 0.590494 -0.807042 -0.000586
-3.716230 3.750950 -0.387112 -231 0.601592 -0.798800 -0.002671
-3.716385 3.751132 -0.388757 -199 0.601930 -0.798542 -0.003368
-3.716308 3.751040 -0.390376 -183 0.595509 -0.803344 -0.002462
-3.716654 3.751450 -0.392044 -183 0.607417 -0.794378 -0.002779
-3.717098 3.751973 -0.393724 -167 0.606313 -0.795222 -0.002551
-3.717348 3.752267 -0.395382 -183 0.614052 -0.789260 -0.002890
-3.717217 3.752113 -0.396995 -199 0.609626 -0.792682 -0.003180
-3.716950 3.751798 -0.398592 -183 0.616635 -0.787243 -0.003067
-3.716967 3.751819 -0.400223 -199 0.614334 -0.789038 -0.003649
-3.717170 3.752058 -0.401876 -183 0.621615 -0.783315 -0.003354
-3.716760 3.751575 -0.403456 -183 0.611599 -0.791166 -0.002048
-3.716344 3.751084 -0.405035 -167 0.614872 -0.788626 -0.001706
-3.716121 3.750821 -0.406637 -151 0.641043 -0.767503 -0.001686
-3.715479 3.750063 -0.408188 -199 0.640875 -0.767644 -0.001057
-3.715584 3.750187 -0.409829 -215 0.646691 -0.762752 -0.000918
-3.716443 3.751200 -0.411562 -231 0.645276 -0.763945 -0.002474
-3.717019 3.751878 -0.413261 -199 0.630856 -0.775894 -0.003330
-3.717219 3.752115 -0.414915 -199 0.635719 -0.771917 -0.002395
-3.717045 3.751910 -0.416523 -199 0.643122 -0.765753 -0.004041
-3.717336 3.752254 -0.418189 -167 0.642274 -0.766464 -0.004149
-3.717723 3.752710 -0.419866 -151 0.632726 -0.774363 -0.004464
-3.717549 3.752504 -0.421475 -151 0.631893 -0.775046 -0.003842
-3.717321 3.752236 -0.423077 -183 0.628025 -0.778184 -0.003883
-3.716902 3.751742 -0.424654 -183 0.635672 -0.771954 -0.003133
-3.716868 3.751701 -0.426279 -151 0.653399 -0.757011 -0.002154
-3.716783 3.751600 -0.427899 -135 0.654413 -0.756137 -0.000927
-3.717212 3.752108 -0.429583 -167 0.659701 -0.751527 -0.001195
-3.717268 3.752174 -0.431220 -167 0.595746 -0.803172 -0.001449
-3.716615 3.751402 -0.432767 -167 0.599501 -0.800374 -0.000823
-3.716387 3.751132 -0.434368 -167 0.613032 -0.790057 -0.001432
-3.716113 3.750809 -0.435963 -215 0.627259 -0.778809 -0.001087
-3.716025 3.750706 -0.437582 -199 0.635021 -0.772492 -0.002194
-3.716317 3.751051 -0.439250 -215 0.640053 -0.768321 -0.003839
-3.716983 3.751837 -0.440967 -199 0.643443 -0.765487 -0.003122
-3.717082 3.751953 -0.442611 -199 0.651006 -0.759070 -0.002135
-3.716806 3.751628 -0.444205 -199 0.652164 -0.758072 -0.003111
-3.717278 3.752183 -0.445898 -167 0.653432 -0.756979 -0.003153
-3.718039 3.753081 -0.447630 -167 0.652805 -0.757519 -0.003337
-3.717905 3.752923 -0.449244 -151 0.651327 -0.758784 -0.004429
-3.717150 3.752034 -0.450775 -151 0.650362 -0.759611 -0.004499
-3.716919 3.751760 -0.452375 -183 0.643715 -0.765249 -0.004834
-3.717021 3.751881 -0.454020 -199 0.656886 -0.753970 -0.005506
-3.717021 3.751880 -0.455652 -199 0.654946 -0.755648 -0.006510
-3.717309 3.752221 -0.457322 -183 0.645426 -0.763797 -0.006336
-3.717966 3.752994 -0.459043 -183 0.653363 -0.757023 -0.005756
-3.718298 3.753386 -0.460720 -183 0.656530 -0.754276 -0.006096
-3.717645 3.752617 -0.462264 -183 0.661480 -0.749935 -0.006420
-3.717456 3.752393 -0.463870 -199 0.656172 -0.754594 -0.005090
-3.717460 3.752399 -0.465503 -199 0.660437 -0.750861 -0.005441
-3.716704 3.751506 -0.467031 -215 0.658886 -0.752226 -0.005016
-3.716520 3.751288 -0.468637 -215 0.657469 -0.753470 -0.004281
-3.716940 3.751786 -0.470328 -199 0.658056 -0.752955 -0.004597
-3.717362 3.752283 -0.472019 -167 0.656009 -0.754742 -0.004216
-3.717603 3.752566 -0.473685 -183 0.653434 -0.756958 -0.006226
-3.717366 3.752287 -0.475284 -199 0.658546 -0.752511 -0.006537
-3.717078 3.751946 -0.476877 -199 0.658269 -0.752757 -0.006274
-3.717266 3.752168 -0.478536 -183 0.656686 -0.754135 -0.006599
-3.716887 3.751721 -0.480115 -167 0.653633 -0.756789 -0.005830
-3.716558 3.751334 -0.481701 -183 0.653739 -0.756698 -0.005690
-3.716507 3.751274 -0.483327 -199 0.654405 -0.756116 -0.006574
-3.716693 3.751494 -0.484986 -183 0.653280 -0.757092 -0.006089
-3.716313 3.751045 -0.486565 -183 0.650857 -0.759183 -0.005083
-3.716357 3.751097 -0.488204 -151 0.649540 -0.760313 -0.004610
-3.717624 3.752591 -0.490020 -119 0.648091 -0.761539 -0.006061
-3.717996 3.753030 -0.491708 -151 0.650790 -0.759230 -0.006507
-3.717801 3.752800 -0.493314 -119 0.648682 -0.761025 -0.007226
-3.717702 3.752684 -0.494933 -119 0.652306 -0.757920 -0.007280
-3.717327 3.752240 -0.496512 -135 0.655179 -0.755448 -0.006179
-3.717176 3.752062 -0.498124 -151 0.660360 -0.750932 -0.005235
-3.716986 3.751838 -0.499730 -151 0.662433 -0.749104 -0.005090
-3.716835 3.751659 -0.501342 -151 0.661367 -0.750030 -0.007005
-3.717114 3.751988 -0.503017 -199 0.660455 -0.750838 -0.006461
-3.717058 3.751922 -0.504643 -199 0.655142 -0.755483 -0.005821
-3.717286 3.752190 -0.506311 -183 0.656865 -0.753992 -0.005012
-3.717043 3.751905 -0.507909 -167 0.651097 -0.758971 -0.006006
-3.716993 3.751845 -0.509537 -167 0.656682 -0.754142 -0.006111
-3.716653 3.751443 -0.511120 -199 0.657918 -0.753066 -0.005943
-3.715983 3.750656 -0.512653 -215 0.647487 -0.762062 -0.004784
-3.716492 3.751256 -0.514365 -183 0.644988 -0.764177 -0.004881
-3.717194 3.752083 -0.516106 -151 0.645892 -0.763411 -0.005236
-3.715912 3.750572 -0.517546 -199 0.642630 -0.766157 -0.005508
-3.715385 3.749949 -0.519099 -231 0.651936 -0.758255 -0.005445
-3.716555 3.751329 -0.520913 -215 0.635290 -0.772262 -0.004206
-3.717719 3.752701 -0.522728 -167 0.620763 -0.783985 -0.004643
-3.717988 3.753018 -0.524405 -167 0.613238 -0.789877 -0.005932
-3.717882 3.752893 -0.526025 -199 0.615338 -0.788243 -0.005534
-3.717217 3.752109 -0.527557 -183 0.618434 -0.785814 -0.005947
-3.716919 3.751758 -0.529147 -183 0.616376 -0.787431 -0.005673
-3.717141 3.752019 -0.530817 -167 0.615594 -0.788045 -0.005374
-3.717272 3.752174 -0.532474 -151 0.624148 -0.781290 -0.004988
-3.717166 3.752049 -0.534093 -167 0.638413 -0.769670 -0.006108
-3.716962 3.751808 -0.535697 -167 0.640992 -0.767526 -0.005830
-3.717325 3.752237 -0.537391 -183 0.634345 -0.773031 -0.005380
-3.717412 3.752337 -0.539041 -183 0.636989 -0.770857 -0.004959
-3.717206 3.752096 -0.540645 -183 0.647144 -0.762358 -0.003911
-3.717613 3.752576 -0.542347 -151 0.638565 -0.769562 -0.003163
-3.717414 3.752341 -0.543952 -151 0.633910 -0.773403 -0.002213
-3.717730 3.752713 -0.545639 -151 0.630850 -0.775902 -0.002195
-3.717667 3.752638 -0.547266 -151 0.641403 -0.767202 -0.001849
-3.717087 3.751956 -0.548810 -151 0.655063 -0.755572 -0.001869
-3.716836 3.751659 -0.550406 -135 0.660832 -0.750525 -0.003792
-3.716726 3.751529 -0.552025 -167 0.661714 -0.749750 -0.003095
-3.717457 3.752392 -0.553782 -151 0.659208 -0.751949 -0.004277
-3.717681 3.752654 -0.555456 -183 0.658227 -0.752812 -0.003556
-3.716958 3.751804 -0.556975 -183 0.658781 -0.752325 -0.003824
-3.716186 3.750891 -0.558485 -215 0.656058 -0.754706 -0.002775
-3.716543 3.751313 -0.560182 -199 0.658353 -0.752702 -0.003353
-3.717466 3.752402 -0.561972 -183 0.658972 -0.752156 -0.004221
-3.717495 3.752436 -0.563615 -183 0.663606 -0.748064 -0.005135
-3.716676 3.751469 -0.565117 -231 0.662438 -0.749094 -0.005942
-3.716517 3.751282 -0.566728 -231 0.661401 -0.750008 -0.006074
-3.716732 3.751535 -0.568402 -231 0.668404 -0.743771 -0.006421
-3.716760 3.751568 -0.570045 -215 0.670506 -0.741883 -0.005531
-3.717167 3.752048 -0.571752 -199 0.667923 -0.744209 -0.005639
-3.717329 3.752239 -0.573418 -183 0.668467 -0.743726 -0.004809
-3.717497 3.752437 -0.575085 -151 0.668986 -0.743255 -0.005417
-3.717151 3.752028 -0.576666 -183 0.673182 -0.739452 -0.005999
-3.717176 3.752058 -0.578309 -199 0.676417 -0.736501 -0.005112
-3.717530 3.752476 -0.580009 -199 0.678453 -0.734627 -0.004834
-3.717363 3.752279 -0.581619 -199 0.673555 -0.739130 -0.003335
-3.717201 3.752087 -0.583231 -183 0.662947 -0.748661 -0.002715
-3.717323 3.752230 -0.584891 -199 0.662304 -0.749231 -0.002559
-3.717438 3.752365 -0.586551 -199 0.666261 -0.745717 -0.001721
-3.717700 3.752674 -0.588236 -167 0.660578 -0.750755 -0.001813
-3.717485 3.752422 -0.589839 -183 0.652517 -0.757772 -0.002211
-3.717040 3.751896 -0.591401 -215 0.667643 -0.744479 -0.001989
-3.717345 3.752257 -0.593094 -215 0.671798 -0.740726 -0.003426
-3.717882 3.752889 -0.594829 -231 0.671771 -0.740748 -0.003939
-3.718091 3.753137 -0.596506 -215 0.672680 -0.739913 -0.005471
-3.717547 3.752495 -0.598051 -167 0.673027 -0.739581 -0.007300
-3.717197 3.752081 -0.599630 -151 0.674722 -0.738034 -0.007444
-3.717309 3.752213 -0.601290 -151 0.678673 -0.734396 -0.008056
-3.717798 3.752791 -0.603018 -167 0.675958 -0.736888 -0.008827
-3.717447 3.752375 -0.604596 -199 0.680514 -0.732695 -0.007557
-3.716529 3.751293 -0.606073 -199 0.682265 -0.731055 -0.008544
-3.716826 3.751643 -0.607767 -215 0.682455 -0.730877 -0.008573
-3.717083 3.751946 -0.609454 -247 0.684152 -0.729294 -0.008212
-3.716866 3.751689 -0.611056 -264 0.677928 -0.735093 -0.007214
-3.717450 3.752378 -0.612803 -215 0.672415 -0.740132 -0.007809
-3.717656 3.752620 -0.614482 -215 0.672960 -0.739648 -0.006772
-3.717153 3.752028 -0.616032 -215 0.676209 -0.736672 -0.007558
-3.717126 3.751996 -0.617669 -215 0.678900 -0.734210 -0.005585
-3.717240 3.752131 -0.619332 -231 0.676366 -0.736550 -0.004818
-3.717020 3.751871 -0.620934 -231 0.669914 -0.742425 -0.004546
-3.716800 3.751611 -0.622535 -247 0.669523 -0.742786 -0.002688
-3.716630 3.751411 -0.624146 -247 0.663619 -0.748071 -0.000753
-3.716602 3.751378 -0.625783 -247 0.658424 -0.752647 -0.000438
-3.716850 3.751669 -0.627471 -247 0.646276 -0.763102 0.001572
-3.716679 3.751468 -0.629082 -247 0.640154 -0.768246 0.001406
-3.716553 3.751320 -0.630701 -280 0.640456 -0.767994 -0.001641
-3.717081 3.751944 -0.632442 -264 0.645981 -0.763354 -0.000491
-3.717849 3.752847 -0.634228 -231 0.659856 -0.751386 -0.002814
-3.717535 3.752478 -0.635813 -215 0.664140 -0.747601 -0.002990
-3.716984 3.751827 -0.637353 -199 0.671609 -0.740901 -0.002784
-3.717423 3.752344 -0.639078 -151 0.677264 -0.735730 -0.003872
-3.717853 3.752852 -0.640803 -135 0.671302 -0.741180 -0.002203
-3.718195 3.753255 -0.642511 -167 0.677873 -0.735177 -0.001516
-3.717975 3.752996 -0.644114 -199 0.677003 -0.735971 -0.003724
-3.717564 3.752511 -0.645680 -183 0.679002 -0.734131 -0.002990
-3.716684 3.751474 -0.647156 -215 0.676692 -0.736256 -0.003998
-3.716184 3.750882 -0.648704 -231 0.665892 -0.746045 -0.002079
-3.716239 3.750949 -0.650359 -215 0.657433 -0.753513 -0.001152
-3.717002 3.751846 -0.652149 -264 0.676160 -0.736754 -0.000969
-3.717763 3.752745 -0.653940 -264 0.668148 -0.744018 -0.003930
-3.717395 3.752311 -0.655514 -264 0.668258 -0.743916 -0.004638
-3.716982 3.751823 -0.657079 -280 0.666871 -0.745166 -0.003325
-3.717460 3.752387 -0.658816 -264 0.653631 -0.756805 -0.003714
-3.717656 3.752619 -0.660500 -264 0.651156 -0.758895 -0.008706
-3.717338 3.752243 -0.662083 -280 0.648326 -0.761331 -0.006998
-3.717206 3.752087 -0.663702 -264 0.656165 -0.754600 -0.005213
-3.717258 3.752149 -0.665358 -231 0.652946 -0.757393 -0.004352
-3.717453 3.752379 -0.667042 -231 0.663111 -0.748481 -0.007770
-3.717371 3.752281 -0.668671 -183 0.669079 -0.743155 -0.007324
-3.717097 3.751958 -0.670263 -215 0.675970 -0.736875 -0.008933
-3.717149 3.752019 -0.671919 -247 0.675045 -0.737736 -0.007776
-3.717015 3.751861 -0.673538 -247 0.673667 -0.738990 -0.008184
-3.716880 3.751702 -0.675157 -264 0.675017 -0.737760 -0.007899
-3.717028 3.751876 -0.676833 -231 0.676913 -0.736000 -0.009689
-3.717316 3.752216 -0.678537 -183 0.676039 -0.736783 -0.011088
-3.717128 3.751995 -0.680146 -199 0.677926 -0.735107 -0.005914
-3.716621 3.751396 -0.681691 -264 0.671607 -0.740907 -0.000113
-3.716158 3.750849 -0.683244 -296 0.677737 -0.735300 0.002420
-3.716348 3.751073 -0.684929 -264 0.675619 -0.737246 -0.002922
-3.716821 3.751631 -0.686671 -280 0.675621 -0.737233 -0.005026
-3.717011 3.751855 -0.688356 -296 0.673359 -0.739306 -0.004008
-3.717483 3.752410 -0.690099 -264 0.675222 -0.737544 -0.010232
-3.718050 3.753079 -0.691862 -215 0.677942 -0.734823 -0.020734
-3.718188 3.753242 -0.693538 -199 0.669786 -0.742228 -0.022022
-3.717959 3.752973 -0.695140 -247 0.673961 -0.738647 -0.013257
-3.717211 3.752089 -0.696635 -264 0.670726 -0.741701 -0.002459
-3.717073 3.751926 -0.698254 -280 0.668715 -0.743514 0.002705
-3.717632 3.752587 -0.700017 -247 0.662574 -0.748975 -0.005706
-3.717165 3.752035 -0.701569 -247 0.668626 -0.743590 -0.003517
-3.717165 3.752037 -0.703218 -264 0.674538 -0.738240 -0.000838
-3.717634 3.752588 -0.704964 -280 0.668214 -0.743965 -0.002622
-3.717917 3.752921 -0.706671 -247 0.664257 -0.747442 -0.009638
-3.715267 3.752207 -0.294463 -199 0.640050 -0.768269 0.009998
-3.715724 3.752745 -0.296127 -199 0.639135 -0.769045 0.008776
-3.716420 3.753567 -0.297813 -183 0.642953 -0.765866 0.007793
-3.716172 3.753276 -0.299415 -183 0.638371 -0.769693 0.007437
-3.715499 3.752480 -0.300980 -183 0.640695 -0.767768 0.006549
-3.715483 3.752463 -0.302603 -215 0.646726 -0.762701 0.005761
-3.715519 3.752505 -0.304231 -215 0.650848 -0.759180 0.006567
-3.715174 3.752098 -0.305824 -215 0.636193 -0.771500 0.006795
-3.715067 3.751972 -0.307439 -247 0.637677 -0.770276 0.006488
-3.715522 3.752508 -0.309105 -247 0.638101 -0.769925 0.006551
-3.715840 3.752883 -0.310759 -247 0.632818 -0.774273 0.006495
-3.716152 3.753252 -0.312413 -199 0.639156 -0.769049 0.006621
-3.715857 3.752903 -0.314011 -183 0.648384 -0.761287 0.006416
-3.715227 3.752159 -0.315577 -231 0.640209 -0.768183 0.005293
-3.715678 3.752693 -0.317244 -215 0.639734 -0.768583 0.004544
-3.715899 3.752953 -0.318890 -199 0.634642 -0.772792 0.004588
-3.716022 3.753098 -0.320527 -215 0.639446 -0.768827 0.003684
-3.715816 3.752854 -0.322133 -231 0.630716 -0.776005 0.003609
-3.715235 3.752168 -0.323702 -247 0.630026 -0.776564 0.003764
-3.715073 3.751978 -0.325312 -247 0.628558 -0.777750 0.004593
-3.715485 3.752464 -0.326977 -215 0.630390 -0.776266 0.004299
-3.715651 3.752661 -0.328619 -215 0.639093 -0.769119 0.004122
-3.715444 3.752416 -0.330224 -215 0.634002 -0.773321 0.004048
-3.715473 3.752452 -0.331853 -247 0.625373 -0.780316 0.003841
-3.715691 3.752707 -0.333500 -280 0.625337 -0.780347 0.003454
-3.715765 3.752796 -0.335133 -280 0.612926 -0.790135 0.002903
-3.716215 3.753325 -0.336803 -247 0.612522 -0.790446 0.003398
-3.715909 3.752964 -0.338399 -247 0.627749 -0.778412 0.002717
-3.715420 3.752389 -0.339976 -215 0.628526 -0.777784 0.002873
