799
0.411456 0.603694 0.188800 177 -0.719974 -0.693961 0.007517
0.408755 0.607093 0.188800 177 -0.719974 -0.693961 0.007517
0.401355 0.611493 0.176400 209 -0.719974 -0.693961 0.007517
0.396955 0.612993 0.176300 177 -0.719974 -0.693961 0.007517
0.402155 0.612293 0.180500 193 -0.719974 -0.693961 0.007517
0.397055 0.612993 0.180400 161 -0.719974 -0.693961 0.007517
0.393755 0.615493 0.176300 241 -0.719974 -0.693961 0.007517
0.392155 0.619794 0.176400 209 -0.719974 -0.693961 0.007517
0.391255 0.624593 0.176500 145 -0.719974 -0.693961 0.007517
0.393855 0.615594 0.180400 225 -0.719974 -0.693961 0.007517
0.391655 0.619293 0.180400 209 -0.719974 -0.693961 0.007517
0.390255 0.623693 0.180500 209 -0.719974 -0.693961 0.007517
0.402155 0.612293 0.184700 209 -0.719974 -0.693961 0.007517
0.397755 0.613793 0.184600 177 -0.719974 -0.693961 0.007517
0.401555 0.611593 0.188700 177 -0.719974 -0.693961 0.007517
0.399055 0.614993 0.188700 209 -0.719974 -0.693961 0.007517
0.394755 0.616493 0.184600 209 -0.719974 -0.693961 0.007517
0.392755 0.620393 0.184600 241 -0.719974 -0.693961 0.007517
0.389755 0.623193 0.184600 241 -0.719974 -0.693961 0.007517
0.396155 0.617794 0.188700 161 -0.719974 -0.693961 0.007517
0.392655 0.620193 0.188700 177 -0.719974 -0.693961 0.007517
0.388955 0.622493 0.188600 241 -0.719974 -0.693961 0.007517
0.412255 0.599093 0.192800 273 -0.719974 -0.693961 0.007517
0.412255 0.599093 0.196900 241 -0.719974 -0.693961 0.007517
0.410255 0.602593 0.192800 241 -0.719974 -0.693961 0.007517
0.410355 0.602693 0.196900 241 -0.719974 -0.693961 0.007517
0.407855 0.606193 0.196900 177 -0.719974 -0.693961 0.007517
0.403756 0.608193 0.192800 209 -0.719974 -0.693961 0.007517
0.403555 0.608093 0.196900 241 -0.719974 -0.693961 0.007517
0.410455 0.602793 0.201000 257 -0.719974 -0.693961 0.007517
0.407855 0.606193 0.201000 161 -0.719974 -0.693961 0.007517
0.403756 0.608193 0.201000 241 -0.719974 -0.693961 0.007517
0.404255 0.608594 0.205100 209 -0.719974 -0.693961 0.007517
0.410655 0.602893 0.209200 209 -0.719974 -0.693961 0.007517
0.407055 0.605493 0.209100 225 -0.719974 -0.693961 0.007517
0.404355 0.608693 0.209200 225 -0.719974 -0.693961 0.007517
0.416255 0.597293 0.192900 225 -0.719974 -0.693961 0.007517
0.416255 0.597293 0.196900 225 -0.719974 -0.693961 0.007517
0.416356 0.597493 0.201000 209 -0.719974 -0.693961 0.007517
0.413455 0.600194 0.201000 241 -0.719974 -0.693961 0.007517
0.408455 0.606793 0.192900 193 -0.719974 -0.693961 0.007517
0.417255 0.598293 0.205200 193 -0.719974 -0.693961 0.007517
0.413755 0.600493 0.205100 225 -0.719974 -0.693961 0.007517
0.416455 0.597593 0.209200 177 -0.719974 -0.693961 0.007517
0.414155 0.600793 0.209300 193 -0.719974 -0.693961 0.007517
0.410855 0.603093 0.205100 241 -0.719974 -0.693961 0.007517
0.408355 0.606693 0.205100 209 -0.719974 -0.693961 0.007517
0.400555 0.610793 0.192700 209 -0.719974 -0.693961 0.007517
0.400555 0.610793 0.196900 209 -0.719974 -0.693961 0.007517
0.398555 0.614493 0.192800 241 -0.719974 -0.693961 0.007517
0.396855 0.612893 0.196800 241 -0.719974 -0.693961 0.007517
0.401455 0.611593 0.201000 225 -0.719974 -0.693961 0.007517
0.396855 0.612794 0.200900 273 -0.719974 -0.693961 0.007517
0.395555 0.617293 0.192800 225 -0.719974 -0.693961 0.007517
0.395055 0.616693 0.196800 241 -0.719974 -0.693961 0.007517
0.392855 0.620393 0.192800 225 -0.719974 -0.693961 0.007517
0.389055 0.622594 0.192700 241 -0.719974 -0.693961 0.007517
0.393855 0.621393 0.196900 209 -0.719974 -0.693961 0.007517
0.389655 0.623193 0.196800 273 -0.719974 -0.693961 0.007517
0.394955 0.616593 0.200900 193 -0.719974 -0.693961 0.007517
0.393555 0.621093 0.201000 193 -0.719974 -0.693961 0.007517
0.389655 0.623193 0.201000 225 -0.719974 -0.693961 0.007517
0.401955 0.611993 0.205100 241 -0.719974 -0.693961 0.007517
0.397355 0.613293 0.205000 257 -0.719974 -0.693961 0.007517
0.402255 0.612193 0.209200 225 -0.719974 -0.693961 0.007517
0.398555 0.614493 0.209100 225 -0.719974 -0.693961 0.007517
0.395655 0.617293 0.205100 193 -0.719974 -0.693961 0.007517
0.392955 0.620594 0.205100 177 -0.719974 -0.693961 0.007517
0.390455 0.623893 0.205100 193 -0.719974 -0.693961 0.007517
0.396655 0.618293 0.209200 209 -0.719974 -0.693961 0.007517
0.393555 0.621093 0.209200 161 -0.719974 -0.693961 0.007517
0.390155 0.623593 0.209100 209 -0.719974 -0.693961 0.007517
0.387055 0.626194 0.176400 193 -0.719974 -0.693961 0.007517
0.383455 0.628194 0.176300 225 -0.719974 -0.693961 0.007517
0.387455 0.626593 0.180500 209 -0.719974 -0.693961 0.007517
0.383655 0.628493 0.180400 257 -0.719974 -0.693961 0.007517
0.381455 0.631893 0.176400 225 -0.719974 -0.693961 0.007517
0.378155 0.634293 0.176300 225 -0.719974 -0.693961 0.007517
0.382955 0.633293 0.180500 225 -0.719974 -0.693961 0.007517
0.378355 0.634494 0.180400 225 -0.719974 -0.693961 0.007517
0.386155 0.625394 0.184500 257 -0.719974 -0.693961 0.007517
0.383855 0.628693 0.184500 241 -0.719974 -0.693961 0.007517
0.386155 0.625394 0.188600 225 -0.719974 -0.693961 0.007517
0.384455 0.629293 0.188700 225 -0.719974 -0.693961 0.007517
0.382155 0.632494 0.184600 193 -0.719974 -0.693961 0.007517
0.378655 0.634793 0.184500 225 -0.719974 -0.693961 0.007517
0.380755 0.631193 0.188600 209 -0.719974 -0.693961 0.007517
0.378655 0.634793 0.188600 225 -0.719974 -0.693961 0.007517
0.374656 0.636694 0.176300 241 -0.719974 -0.693961 0.007517
0.373256 0.641293 0.176400 225 -0.719974 -0.693961 0.007517
0.370855 0.644693 0.176400 209 -0.719974 -0.693961 0.007517
0.374956 0.636993 0.180400 225 -0.719974 -0.693961 0.007517
0.372156 0.640293 0.180400 225 -0.719974 -0.693961 0.007517
0.370756 0.644593 0.180500 209 -0.719974 -0.693961 0.007517
0.366956 0.646494 0.176300 177 -0.719974 -0.693961 0.007517
0.364455 0.649893 0.176300 209 -0.719974 -0.693961 0.007517
0.367856 0.647393 0.180500 193 -0.719974 -0.693961 0.007517
0.365556 0.650893 0.180500 193 -0.719974 -0.693961 0.007517
0.372255 0.640393 0.184500 209 -0.719974 -0.693961 0.007517
0.375855 0.637893 0.184500 193 -0.719974 -0.693961 0.007517
0.369856 0.643694 0.184500 193 -0.719974 -0.693961 0.007517
0.376455 0.638493 0.188700 193 -0.719974 -0.693961 0.007517
0.374156 0.642093 0.188700 145 -0.719974 -0.693961 0.007517
0.369756 0.643593 0.188600 177 -0.719974 -0.693961 0.007517
0.366956 0.646593 0.184500 193 -0.719974 -0.693961 0.007517
0.364655 0.650094 0.184600 209 -0.719974 -0.693961 0.007517
0.366956 0.646593 0.188600 193 -0.719974 -0.693961 0.007517
0.363255 0.648793 0.188600 193 -0.719974 -0.693961 0.007517
0.387155 0.626293 0.192800 225 -0.719974 -0.693961 0.007517
0.387755 0.626894 0.196900 225 -0.719974 -0.693961 0.007517
0.384055 0.628894 0.192700 257 -0.719974 -0.693961 0.007517
0.384155 0.628994 0.196800 225 -0.719974 -0.693961 0.007517
0.386955 0.626094 0.201000 225 -0.719974 -0.693961 0.007517
0.383955 0.628793 0.200900 257 -0.719974 -0.693961 0.007517
0.381055 0.631493 0.192700 241 -0.719974 -0.693961 0.007517
0.382155 0.632494 0.196900 257 -0.719974 -0.693961 0.007517
0.379555 0.635693 0.192800 193 -0.719974 -0.693961 0.007517
0.379455 0.635493 0.196900 225 -0.719974 -0.693961 0.007517
0.382255 0.632593 0.201000 225 -0.719974 -0.693961 0.007517
0.378855 0.634893 0.200900 241 -0.719974 -0.693961 0.007517
0.386855 0.625993 0.205000 241 -0.719974 -0.693961 0.007517
0.384655 0.629393 0.205100 241 -0.719974 -0.693961 0.007517
0.387055 0.626194 0.209100 209 -0.719974 -0.693961 0.007517
0.384755 0.629493 0.209200 209 -0.719974 -0.693961 0.007517
0.381255 0.631694 0.205000 209 -0.719974 -0.693961 0.007517
0.379655 0.635793 0.205100 193 -0.719974 -0.693961 0.007517
0.381155 0.631593 0.209100 193 -0.719974 -0.693961 0.007517
0.378855 0.634993 0.209100 193 -0.719974 -0.693961 0.007517
0.375055 0.637193 0.192700 177 -0.719974 -0.693961 0.007517
0.374956 0.637093 0.196800 209 -0.719974 -0.693961 0.007517
0.372156 0.640293 0.196800 193 -0.719974 -0.693961 0.007517
0.373456 0.641493 0.192800 177 -0.719974 -0.693961 0.007517
0.370656 0.644493 0.192800 177 -0.719974 -0.693961 0.007517
0.370656 0.644493 0.196900 145 -0.719974 -0.693961 0.007517
0.376455 0.638493 0.201000 193 -0.719974 -0.693961 0.007517
0.373356 0.641393 0.200900 193 -0.719974 -0.693961 0.007517
0.369956 0.643893 0.200900 193 -0.719974 -0.693961 0.007517
0.367555 0.647093 0.192800 209 -0.719974 -0.693961 0.007517
0.367455 0.647093 0.196800 177 -0.719974 -0.693961 0.007517
0.363656 0.649193 0.192700 209 -0.719974 -0.693961 0.007517
0.364455 0.649893 0.196800 241 -0.719974 -0.693961 0.007517
0.366256 0.645893 0.200900 193 -0.719974 -0.693961 0.007517
0.364256 0.649693 0.200900 225 -0.719974 -0.693961 0.007517
0.376455 0.638493 0.205000 193 -0.719974 -0.693961 0.007517
0.373556 0.641594 0.205000 209 -0.719974 -0.693961 0.007517
0.368855 0.642793 0.204900 193 -0.719974 -0.693961 0.007517
0.372856 0.640894 0.209100 225 -0.719974 -0.693961 0.007517
0.376255 0.638293 0.209100 177 -0.719974 -0.693961 0.007517
0.368755 0.642793 0.209100 177 -0.719974 -0.693961 0.007517
0.366356 0.645993 0.205000 225 -0.719974 -0.693961 0.007517
0.363656 0.649193 0.205000 177 -0.719974 -0.693961 0.007517
0.368456 0.647894 0.209200 177 -0.719974 -0.693961 0.007517
0.363356 0.648893 0.209100 177 -0.719974 -0.693961 0.007517
0.470356 0.540793 0.213400 913 -0.719974 -0.693961 0.007517
0.468255 0.544093 0.213400 913 -0.719974 -0.693961 0.007517
0.471056 0.541393 0.217500 929 -0.719974 -0.693961 0.007517
0.471756 0.542093 0.221600 913 -0.719974 -0.693961 0.007517
0.466855 0.542793 0.217400 961 -0.719974 -0.693961 0.007517
0.466956 0.542893 0.221500 945 -0.719974 -0.693961 0.007517
0.465255 0.547093 0.213400 913 -0.719974 -0.693961 0.007517
0.462056 0.549993 0.213400 897 -0.719974 -0.693961 0.007517
0.459155 0.552593 0.213400 881 -0.719974 -0.693961 0.007517
0.464955 0.546794 0.217500 913 -0.719974 -0.693961 0.007517
0.464755 0.546693 0.221500 897 -0.719974 -0.693961 0.007517
0.458555 0.552093 0.217400 897 -0.719974 -0.693961 0.007517
0.462255 0.550193 0.217500 913 -0.719974 -0.693961 0.007517
0.463055 0.550893 0.221600 897 -0.719974 -0.693961 0.007517
0.458955 0.552493 0.221500 897 -0.719974 -0.693961 0.007517
0.471156 0.541493 0.225700 913 -0.719974 -0.693961 0.007517
0.467055 0.542993 0.225600 945 -0.719974 -0.693961 0.007517
0.470456 0.540893 0.229700 929 -0.719974 -0.693961 0.007517
0.467656 0.543593 0.229700 913 -0.719974 -0.693961 0.007517
0.464655 0.546593 0.225600 881 -0.719974 -0.693961 0.007517
0.464255 0.552093 0.225700 849 -0.719974 -0.693961 0.007517
0.459455 0.552893 0.225600 897 -0.719974 -0.693961 0.007517
0.464755 0.546693 0.229700 881 -0.719974 -0.693961 0.007517
0.463655 0.551493 0.229800 865 -0.719974 -0.693961 0.007517
0.459755 0.553293 0.229800 913 -0.719974 -0.693961 0.007517
0.456855 0.556193 0.213400 865 -0.719974 -0.693961 0.007517
0.452855 0.557893 0.213300 897 -0.719974 -0.693961 0.007517
0.455755 0.555093 0.221500 881 -0.719974 -0.693961 0.007517
0.456355 0.555593 0.217400 865 -0.719974 -0.693961 0.007517
0.453655 0.558693 0.217500 881 -0.719974 -0.693961 0.007517
0.453755 0.558794 0.221500 865 -0.719974 -0.693961 0.007517
0.450455 0.561594 0.213400 897 -0.719974 -0.693961 0.007517
0.448055 0.565293 0.213400 833 -0.719974 -0.693961 0.007517
0.451055 0.562193 0.217500 849 -0.719974 -0.693961 0.007517
0.450855 0.561993 0.221500 849 -0.719974 -0.693961 0.007517
0.447555 0.564793 0.217400 881 -0.719974 -0.693961 0.007517
0.447755 0.564993 0.221500 865 -0.719974 -0.693961 0.007517
0.456055 0.555393 0.225600 881 -0.719974 -0.693961 0.007517
0.452955 0.557993 0.225600 897 -0.719974 -0.693961 0.007517
0.456655 0.555893 0.229700 897 -0.719974 -0.693961 0.007517
0.452755 0.557793 0.229700 929 -0.719974 -0.693961 0.007517
0.451055 0.562093 0.225600 865 -0.719974 -0.693961 0.007517
0.447855 0.564993 0.225600 849 -0.719974 -0.693961 0.007517
0.451255 0.562393 0.229800 897 -0.719974 -0.693961 0.007517
0.447555 0.564793 0.229700 881 -0.719974 -0.693961 0.007517
0.470755 0.541093 0.233800 881 -0.719974 -0.693961 0.007517
0.468356 0.544293 0.233800 897 -0.719974 -0.693961 0.007517
0.471555 0.541894 0.237900 881 -0.719974 -0.693961 0.007517
0.468755 0.544593 0.237900 897 -0.719974 -0.693961 0.007517
0.464455 0.546293 0.233800 865 -0.719974 -0.693961 0.007517
0.462855 0.550693 0.233900 897 -0.719974 -0.693961 0.007517
0.460255 0.553693 0.233900 897 -0.719974 -0.693961 0.007517
0.464755 0.546693 0.237900 865 -0.719974 -0.693961 0.007517
0.463155 0.550994 0.238000 849 -0.719974 -0.693961 0.007517
0.460555 0.553993 0.238000 881 -0.719974 -0.693961 0.007517
0.472556 0.542893 0.242100 881 -0.719974 -0.693961 0.007517
0.471156 0.541493 0.246100 913 -0.719974 -0.693961 0.007517
0.469556 0.545394 0.242100 897 -0.719974 -0.693961 0.007517
0.469155 0.544993 0.246200 897 -0.719974 -0.693961 0.007517
0.470456 0.540793 0.250200 929 -0.719974 -0.693961 0.007517
0.468255 0.544193 0.250200 897 -0.719974 -0.693961 0.007517
0.465655 0.547494 0.242100 865 -0.719974 -0.693961 0.007517
0.464955 0.546794 0.246100 865 -0.719974 -0.693961 0.007517
0.463055 0.550994 0.242100 865 -0.719974 -0.693961 0.007517
0.459755 0.553193 0.242000 881 -0.719974 -0.693961 0.007517
0.463055 0.550994 0.246200 881 -0.719974 -0.693961 0.007517
0.459955 0.553393 0.246100 897 -0.719974 -0.693961 0.007517
0.465255 0.547093 0.250200 881 -0.719974 -0.693961 0.007517
0.463255 0.551093 0.250200 881 -0.719974 -0.693961 0.007517
0.459655 0.553093 0.250200 881 -0.719974 -0.693961 0.007517
0.456955 0.556193 0.233800 865 -0.719974 -0.693961 0.007517
0.453455 0.558493 0.233800 849 -0.719974 -0.693961 0.007517
0.457255 0.556493 0.237900 865 -0.719974 -0.693961 0.007517
0.454055 0.559093 0.237900 865 -0.719974 -0.693961 0.007517
0.451255 0.562393 0.233800 849 -0.719974 -0.693961 0.007517
0.448055 0.565293 0.233800 865 -0.719974 -0.693961 0.007517
0.450355 0.561493 0.237900 881 -0.719974 -0.693961 0.007517
0.449155 0.566293 0.238000 865 -0.719974 -0.693961 0.007517
0.457555 0.556793 0.242000 865 -0.719974 -0.693961 0.007517
0.457255 0.556493 0.246100 865 -0.719974 -0.693961 0.007517
0.453555 0.558593 0.246100 865 -0.719974 -0.693961 0.007517
0.454155 0.559193 0.242000 881 -0.719974 -0.693961 0.007517
0.457055 0.556293 0.250200 865 -0.719974 -0.693961 0.007517
0.453255 0.558293 0.250200 881 -0.719974 -0.693961 0.007517
0.449855 0.561093 0.241900 865 -0.719974 -0.693961 0.007517
0.450455 0.561594 0.246100 865 -0.719974 -0.693961 0.007517
0.449055 0.566193 0.242000 833 -0.719974 -0.693961 0.007517
0.448355 0.565493 0.246100 849 -0.719974 -0.693961 0.007517
0.450555 0.561693 0.250200 881 -0.719974 -0.693961 0.007517
0.447655 0.564793 0.250200 849 -0.719974 -0.693961 0.007517
0.445555 0.568193 0.213400 849 -0.719974 -0.693961 0.007517
0.442455 0.570793 0.213300 833 -0.719974 -0.693961 0.007517
0.439155 0.573193 0.213300 849 -0.719974 -0.693961 0.007517
0.442055 0.570393 0.217400 833 -0.719974 -0.693961 0.007517
0.442255 0.570593 0.221500 817 -0.719974 -0.693961 0.007517
0.446055 0.568793 0.217500 833 -0.719974 -0.693961 0.007517
0.446155 0.568893 0.221600 865 -0.719974 -0.693961 0.007517
0.440256 0.574293 0.217500 833 -0.719974 -0.693961 0.007517
0.440055 0.574093 0.221600 849 -0.719974 -0.693961 0.007517
0.436355 0.576294 0.213300 785 -0.719974 -0.693961 0.007517
0.432855 0.578793 0.213300 833 -0.719974 -0.693961 0.007517
0.436455 0.576393 0.217400 801 -0.719974 -0.693961 0.007517
0.436155 0.576093 0.221500 833 -0.719974 -0.693961 0.007517
0.432055 0.577993 0.217400 833 -0.719974 -0.693961 0.007517
0.432655 0.578693 0.221500 817 -0.719974 -0.693961 0.007517
0.445355 0.568093 0.225600 849 -0.719974 -0.693961 0.007517
0.442356 0.570694 0.225600 865 -0.719974 -0.693961 0.007517
0.439355 0.573393 0.225600 865 -0.719974 -0.693961 0.007517
0.444555 0.567293 0.229700 881 -0.719974 -0.693961 0.007517
0.442555 0.570893 0.229700 801 -0.719974 -0.693961 0.007517
0.438455 0.572593 0.229600 833 -0.719974 -0.693961 0.007517
0.436355 0.576294 0.225600 849 -0.719974 -0.693961 0.007517
0.434255 0.580093 0.225600 801 -0.719974 -0.693961 0.007517
0.436355 0.576393 0.229700 833 -0.719974 -0.693961 0.007517
0.434255 0.580093 0.229700 785 -0.719974 -0.693961 0.007517
0.420955 0.590493 0.213300 257 -0.719974 -0.693961 0.007517
0.420556 0.590093 0.217300 257 -0.719974 -0.693961 0.007517
0.417855 0.593293 0.221500 225 -0.719974 -0.693961 0.007517
0.418355 0.593693 0.225600 193 -0.719974 -0.693961 0.007517
0.432255 0.584293 0.213400 801 -0.719974 -0.693961 0.007517
0.428555 0.586194 0.213400 449 -0.719974 -0.693961 0.007517
0.424755 0.588393 0.213300 321 -0.719974 -0.693961 0.007517
0.432255 0.584093 0.217500 769 -0.719974 -0.693961 0.007517
0.431955 0.583993 0.221600 769 -0.719974 -0.693961 0.007517
0.428355 0.585993 0.217400 433 -0.719974 -0.693961 0.007517
0.424255 0.587893 0.217400 321 -0.719974 -0.693961 0.007517
0.427255 0.584993 0.221500 449 -0.719974 -0.693961 0.007517
0.425055 0.588593 0.221500 289 -0.719974 -0.693961 0.007517
0.418955 0.594293 0.213300 241 -0.719974 -0.693961 0.007517
0.421255 0.590793 0.221400 225 -0.719974 -0.693961 0.007517
0.418456 0.593894 0.217400 225 -0.719974 -0.693961 0.007517
0.431555 0.583593 0.225700 785 -0.719974 -0.693961 0.007517
0.426855 0.584693 0.225600 449 -0.719974 -0.693961 0.007517
0.425055 0.588693 0.225600 321 -0.719974 -0.693961 0.007517
0.431555 0.583493 0.229700 785 -0.719974 -0.693961 0.007517
0.427655 0.585293 0.229700 449 -0.719974 -0.693961 0.007517
0.423955 0.587594 0.229600 337 -0.719974 -0.693961 0.007517
0.422055 0.591493 0.225600 225 -0.719974 -0.693961 0.007517
0.422155 0.591593 0.229700 257 -0.719974 -0.693961 0.007517
0.419156 0.594493 0.229700 225 -0.719974 -0.693961 0.007517
0.444955 0.567693 0.233800 865 -0.719974 -0.693961 0.007517
0.442155 0.570493 0.233800 833 -0.719974 -0.693961 0.007517
0.439355 0.573393 0.233800 849 -0.719974 -0.693961 0.007517
0.445655 0.568293 0.237900 849 -0.719974 -0.693961 0.007517
0.442356 0.570694 0.237900 833 -0.719974 -0.693961 0.007517
0.439855 0.573893 0.237900 833 -0.719974 -0.693961 0.007517
0.437555 0.577393 0.233900 785 -0.719974 -0.693961 0.007517
0.433355 0.579293 0.233800 833 -0.719974 -0.693961 0.007517
0.437755 0.577694 0.237900 833 -0.719974 -0.693961 0.007517
0.432855 0.578793 0.237900 833 -0.719974 -0.693961 0.007517
0.443056 0.571394 0.242000 833 -0.719974 -0.693961 0.007517
0.445755 0.568393 0.246100 833 -0.719974 -0.693961 0.007517
0.442855 0.571193 0.246100 833 -0.719974 -0.693961 0.007517
0.445955 0.568594 0.242000 833 -0.719974 -0.693961 0.007517
0.439655 0.573693 0.242000 817 -0.719974 -0.693961 0.007517
0.439255 0.573293 0.246100 833 -0.719974 -0.693961 0.007517
0.445555 0.568293 0.250200 849 -0.719974 -0.693961 0.007517
0.442555 0.570893 0.250200 865 -0.719974 -0.693961 0.007517
0.438555 0.572693 0.250100 833 -0.719974 -0.693961 0.007517
0.437456 0.577293 0.242000 833 -0.719974 -0.693961 0.007517
0.437055 0.576893 0.246100 817 -0.719974 -0.693961 0.007517
0.432755 0.578693 0.241900 817 -0.719974 -0.693961 0.007517
0.433555 0.579493 0.246100 817 -0.719974 -0.693961 0.007517
0.436855 0.576693 0.250200 817 -0.719974 -0.693961 0.007517
0.433755 0.579693 0.250200 817 -0.719974 -0.693961 0.007517
0.423655 0.587293 0.233700 321 -0.719974 -0.693961 0.007517
0.430755 0.582793 0.233800 785 -0.719974 -0.693961 0.007517
0.428155 0.585793 0.233800 433 -0.719974 -0.693961 0.007517
0.429555 0.581693 0.237800 785 -0.719974 -0.693961 0.007517
0.428055 0.585693 0.237900 401 -0.719974 -0.693961 0.007517
0.424055 0.587693 0.237800 289 -0.719974 -0.693961 0.007517
0.421255 0.590793 0.233700 241 -0.719974 -0.693961 0.007517
0.419355 0.594693 0.233800 209 -0.719974 -0.693961 0.007517
0.421955 0.591393 0.237900 273 -0.719974 -0.693961 0.007517
0.418855 0.594193 0.237900 257 -0.719974 -0.693961 0.007517
0.429955 0.581993 0.241900 785 -0.719974 -0.693961 0.007517
0.431055 0.583093 0.246100 769 -0.719974 -0.693961 0.007517
0.428455 0.586194 0.242000 401 -0.719974 -0.693961 0.007517
0.424655 0.588294 0.242000 289 -0.719974 -0.693961 0.007517
0.428155 0.585893 0.246100 417 -0.719974 -0.693961 0.007517
0.424555 0.588193 0.246000 321 -0.719974 -0.693961 0.007517
0.430855 0.582893 0.250100 785 -0.719974 -0.693961 0.007517
0.426955 0.584794 0.250100 433 -0.719974 -0.693961 0.007517
0.424555 0.588193 0.250100 353 -0.719974 -0.693961 0.007517
0.422055 0.591493 0.242000 289 -0.719974 -0.693961 0.007517
0.421655 0.591193 0.246000 289 -0.719974 -0.693961 0.007517
0.418655 0.594093 0.241900 225 -0.719974 -0.693961 0.007517
0.418955 0.594293 0.246000 241 -0.719974 -0.693961 0.007517
0.421955 0.591393 0.250100 305 -0.719974 -0.693961 0.007517
0.419055 0.594393 0.250100 257 -0.719974 -0.693961 0.007517
0.471656 0.541993 0.254300 897 -0.719974 -0.693961 0.007517
0.468455 0.544393 0.254300 881 -0.719974 -0.693961 0.007517
0.470855 0.541194 0.258400 913 -0.719974 -0.693961 0.007517
0.468856 0.544694 0.258400 865 -0.719974 -0.693961 0.007517
0.465055 0.546893 0.254300 913 -0.719974 -0.693961 0.007517
0.463055 0.550994 0.254300 897 -0.719974 -0.693961 0.007517
0.458955 0.552493 0.254300 881 -0.719974 -0.693961 0.007517
0.464856 0.546794 0.258400 913 -0.719974 -0.693961 0.007517
0.463255 0.551193 0.258400 881 -0.719974 -0.693961 0.007517
0.459755 0.553193 0.258400 849 -0.719974 -0.693961 0.007517
0.469855 0.540193 0.262400 929 -0.719974 -0.693961 0.007517
0.468755 0.544593 0.262500 929 -0.719974 -0.693961 0.007517
0.470555 0.540893 0.266500 897 -0.719974 -0.693961 0.007517
0.470155 0.540593 0.270600 913 -0.719974 -0.693961 0.007517
0.468356 0.544293 0.266600 897 -0.719974 -0.693961 0.007517
0.468455 0.544293 0.270700 913 -0.719974 -0.693961 0.007517
0.464555 0.546493 0.262400 897 -0.719974 -0.693961 0.007517
0.463055 0.550893 0.262500 865 -0.719974 -0.693961 0.007517
0.459855 0.553293 0.262500 865 -0.719974 -0.693961 0.007517
0.464156 0.546094 0.266500 897 -0.719974 -0.693961 0.007517
0.464755 0.546693 0.270700 897 -0.719974 -0.693961 0.007517
0.462056 0.549993 0.266500 865 -0.719974 -0.693961 0.007517
0.460055 0.553493 0.266600 865 -0.719974 -0.693961 0.007517
0.462155 0.550193 0.270600 881 -0.719974 -0.693961 0.007517
0.459655 0.553093 0.270600 881 -0.719974 -0.693961 0.007517
0.456455 0.555693 0.254300 865 -0.719974 -0.693961 0.007517
0.452755 0.557893 0.254200 897 -0.719974 -0.693961 0.007517
0.456855 0.556193 0.258400 865 -0.719974 -0.693961 0.007517
0.453155 0.558193 0.258400 881 -0.719974 -0.693961 0.007517
0.451555 0.562593 0.254300 865 -0.719974 -0.693961 0.007517
0.447155 0.564394 0.254200 865 -0.719974 -0.693961 0.007517
0.452255 0.563293 0.258400 849 -0.719974 -0.693961 0.007517
0.447956 0.565094 0.258400 849 -0.719974 -0.693961 0.007517
0.458255 0.557493 0.262500 849 -0.719974 -0.693961 0.007517
0.454255 0.559193 0.262500 865 -0.719974 -0.693961 0.007517
0.456355 0.555593 0.270600 881 -0.719974 -0.693961 0.007517
0.457055 0.556293 0.266600 865 -0.719974 -0.693961 0.007517
0.454255 0.559293 0.266600 865 -0.719974 -0.693961 0.007517
0.454655 0.559593 0.270700 849 -0.719974 -0.693961 0.007517
0.451755 0.562893 0.262500 833 -0.719974 -0.693961 0.007517
0.447855 0.565094 0.262500 881 -0.719974 -0.693961 0.007517
0.450555 0.561693 0.266500 881 -0.719974 -0.693961 0.007517
0.451055 0.562193 0.270600 849 -0.719974 -0.693961 0.007517
0.448255 0.565493 0.270600 833 -0.719974 -0.693961 0.007517
0.448555 0.565693 0.266600 897 -0.719974 -0.693961 0.007517
0.470155 0.540593 0.274700 881 -0.719974 -0.693961 0.007517
0.468956 0.544793 0.274800 913 -0.719974 -0.693961 0.007517
0.471156 0.541493 0.278900 881 -0.719974 -0.693961 0.007517
0.469455 0.545293 0.278900 897 -0.719974 -0.693961 0.007517
0.464955 0.546794 0.274700 897 -0.719974 -0.693961 0.007517
0.463355 0.551293 0.274800 881 -0.719974 -0.693961 0.007517
0.459555 0.553093 0.274800 865 -0.719974 -0.693961 0.007517
0.464755 0.546693 0.278800 881 -0.719974 -0.693961 0.007517
0.462855 0.550693 0.278900 897 -0.719974 -0.693961 0.007517
0.460755 0.554093 0.278900 849 -0.719974 -0.693961 0.007517
0.471455 0.541793 0.282900 881 -0.719974 -0.693961 0.007517
0.469556 0.545394 0.283000 881 -0.719974 -0.693961 0.007517
0.471856 0.542193 0.287000 865 -0.719974 -0.693961 0.007517
0.468755 0.544593 0.287100 865 -0.719974 -0.693961 0.007517
0.464955 0.546794 0.282900 881 -0.719974 -0.693961 0.007517
0.462355 0.550294 0.282900 865 -0.719974 -0.693961 0.007517
0.460955 0.554393 0.283000 865 -0.719974 -0.693961 0.007517
0.465355 0.547193 0.287000 849 -0.719974 -0.693961 0.007517
0.462355 0.550294 0.287000 881 -0.719974 -0.693961 0.007517
0.460255 0.553693 0.287000 865 -0.719974 -0.693961 0.007517
0.456555 0.555793 0.274700 865 -0.719974 -0.693961 0.007517
0.454655 0.559593 0.274800 865 -0.719974 -0.693961 0.007517
0.456255 0.555593 0.278800 865 -0.719974 -0.693961 0.007517
0.454355 0.559393 0.278900 865 -0.719974 -0.693961 0.007517
0.452655 0.563593 0.274800 801 -0.719974 -0.693961 0.007517
0.447055 0.564193 0.274700 833 -0.719974 -0.693961 0.007517
0.452156 0.563193 0.278900 817 -0.719974 -0.693961 0.007517
0.448055 0.565293 0.278800 833 -0.719974 -0.693961 0.007517
0.456955 0.556193 0.282900 849 -0.719974 -0.693961 0.007517
0.453655 0.558794 0.282900 849 -0.719974 -0.693961 0.007517
0.457155 0.556393 0.287000 849 -0.719974 -0.693961 0.007517
0.453155 0.558193 0.287000 849 -0.719974 -0.693961 0.007517
0.450555 0.561693 0.282900 849 -0.719974 -0.693961 0.007517
0.448455 0.565593 0.282900 849 -0.719974 -0.693961 0.007517
0.450955 0.562093 0.287000 849 -0.719974 -0.693961 0.007517
0.447055 0.564293 0.287000 849 -0.719974 -0.693961 0.007517
0.445055 0.567793 0.254300 833 -0.719974 -0.693961 0.007517
0.442155 0.570593 0.254300 849 -0.719974 -0.693961 0.007517
0.439655 0.573693 0.254300 801 -0.719974 -0.693961 0.007517
0.445255 0.567993 0.258400 849 -0.719974 -0.693961 0.007517
0.441155 0.569593 0.258300 865 -0.719974 -0.693961 0.007517
0.439755 0.573893 0.258400 833 -0.719974 -0.693961 0.007517
0.436756 0.576693 0.254300 833 -0.719974 -0.693961 0.007517
0.433655 0.579593 0.254300 817 -0.719974 -0.693961 0.007517
0.436355 0.576294 0.258300 849 -0.719974 -0.693961 0.007517
0.434656 0.580494 0.258400 785 -0.719974 -0.693961 0.007517
0.444855 0.567693 0.262500 865 -0.719974 -0.693961 0.007517
0.441656 0.570093 0.262400 817 -0.719974 -0.693961 0.007517
0.438655 0.572794 0.262400 849 -0.719974 -0.693961 0.007517
0.444955 0.567693 0.266500 849 -0.719974 -0.693961 0.007517
0.442356 0.570694 0.266500 817 -0.719974 -0.693961 0.007517
0.445455 0.568193 0.270600 849 -0.719974 -0.693961 0.007517
0.442255 0.570593 0.270600 817 -0.719974 -0.693961 0.007517
0.438355 0.572493 0.266500 865 -0.719974 -0.693961 0.007517
0.438555 0.572693 0.270600 881 -0.719974 -0.693961 0.007517
0.436655 0.576593 0.262400 817 -0.719974 -0.693961 0.007517
0.434555 0.580393 0.262500 801 -0.719974 -0.693961 0.007517
0.437255 0.577193 0.266600 817 -0.719974 -0.693961 0.007517
0.436655 0.576693 0.270600 833 -0.719974 -0.693961 0.007517
0.434555 0.580393 0.266600 769 -0.719974 -0.693961 0.007517
0.434555 0.580393 0.270700 785 -0.719974 -0.693961 0.007517
0.421055 0.590593 0.266400 289 -0.719974 -0.693961 0.007517
0.420255 0.589893 0.270500 305 -0.719974 -0.693961 0.007517
0.430456 0.582493 0.254200 769 -0.719974 -0.693961 0.007517
0.426855 0.584593 0.254200 433 -0.719974 -0.693961 0.007517
0.425155 0.588793 0.254300 321 -0.719974 -0.693961 0.007517
0.430555 0.582594 0.258300 737 -0.719974 -0.693961 0.007517
0.427555 0.585293 0.258300 401 -0.719974 -0.693961 0.007517
0.425355 0.588994 0.258400 305 -0.719974 -0.693961 0.007517
0.422055 0.591493 0.254200 273 -0.719974 -0.693961 0.007517
0.419455 0.594793 0.254300 209 -0.719974 -0.693961 0.007517
0.422255 0.591693 0.258300 273 -0.719974 -0.693961 0.007517
0.419055 0.594393 0.258300 273 -0.719974 -0.693961 0.007517
0.430155 0.582293 0.262400 785 -0.719974 -0.693961 0.007517
0.427855 0.585593 0.262400 449 -0.719974 -0.693961 0.007517
0.425155 0.588793 0.262400 305 -0.719974 -0.693961 0.007517
0.430955 0.582893 0.266500 769 -0.719974 -0.693961 0.007517
0.430555 0.582594 0.270600 753 -0.719974 -0.693961 0.007517
0.428655 0.586393 0.266500 417 -0.719974 -0.693961 0.007517
0.425355 0.588994 0.266500 289 -0.719974 -0.693961 0.007517
0.429255 0.586894 0.270700 337 -0.719974 -0.693961 0.007517
0.424955 0.588593 0.270600 241 -0.719974 -0.693961 0.007517
0.421755 0.591293 0.262400 257 -0.719974 -0.693961 0.007517
0.418855 0.594193 0.262400 273 -0.719974 -0.693961 0.007517
0.419156 0.594493 0.266500 241 -0.719974 -0.693961 0.007517
0.419355 0.594693 0.270600 209 -0.719974 -0.693961 0.007517
0.442356 0.570694 0.274700 849 -0.719974 -0.693961 0.007517
0.445955 0.568594 0.274700 801 -0.719974 -0.693961 0.007517
0.439655 0.573693 0.274700 833 -0.719974 -0.693961 0.007517
0.445156 0.567894 0.278800 817 -0.719974 -0.693961 0.007517
0.442255 0.570593 0.278800 833 -0.719974 -0.693961 0.007517
0.440655 0.574593 0.278800 833 -0.719974 -0.693961 0.007517
0.436255 0.576193 0.274700 833 -0.719974 -0.693961 0.007517
0.433655 0.579493 0.274700 785 -0.719974 -0.693961 0.007517
0.436655 0.576493 0.278800 833 -0.719974 -0.693961 0.007517
0.434455 0.580293 0.278800 785 -0.719974 -0.693961 0.007517
0.444655 0.567393 0.282900 849 -0.719974 -0.693961 0.007517
0.442255 0.570593 0.282900 833 -0.719974 -0.693961 0.007517
0.439655 0.573693 0.282900 849 -0.719974 -0.693961 0.007517
0.445455 0.568193 0.287000 849 -0.719974 -0.693961 0.007517
0.442755 0.571093 0.287000 817 -0.719974 -0.693961 0.007517
0.439155 0.573293 0.287000 817 -0.719974 -0.693961 0.007517
0.436855 0.576693 0.282900 833 -0.719974 -0.693961 0.007517
0.434656 0.580494 0.282900 817 -0.719974 -0.693961 0.007517
0.437355 0.577293 0.287000 817 -0.719974 -0.693961 0.007517
0.434455 0.580293 0.287000 801 -0.719974 -0.693961 0.007517
0.420355 0.589893 0.274600 289 -0.719974 -0.693961 0.007517
0.418155 0.593593 0.282800 209 -0.719974 -0.693961 0.007517
0.417455 0.592893 0.286900 225 -0.719974 -0.693961 0.007517
0.429255 0.581393 0.274600 753 -0.719974 -0.693961 0.007517
0.427955 0.585593 0.274700 417 -0.719974 -0.693961 0.007517
0.424755 0.588393 0.274700 305 -0.719974 -0.693961 0.007517
0.430055 0.582193 0.278800 769 -0.719974 -0.693961 0.007517
0.426955 0.584794 0.278700 401 -0.719974 -0.693961 0.007517
0.425155 0.588793 0.278800 257 -0.719974 -0.693961 0.007517
0.419156 0.594493 0.274700 257 -0.719974 -0.693961 0.007517
0.421755 0.591193 0.278800 257 -0.719974 -0.693961 0.007517
0.419355 0.594693 0.278800 225 -0.719974 -0.693961 0.007517
0.430456 0.582493 0.282900 785 -0.719974 -0.693961 0.007517
0.427055 0.584893 0.282900 353 -0.719974 -0.693961 0.007517
0.424655 0.588294 0.282800 289 -0.719974 -0.693961 0.007517
0.430155 0.582293 0.287000 785 -0.719974 -0.693961 0.007517
0.427055 0.584794 0.286900 385 -0.719974 -0.693961 0.007517
0.424655 0.588294 0.287000 289 -0.719974 -0.693961 0.007517
0.422455 0.591893 0.282900 241 -0.719974 -0.693961 0.007517
0.422655 0.592093 0.287000 225 -0.719974 -0.693961 0.007517
0.413155 0.599893 0.221500 273 -0.719974 -0.693961 0.007517
0.409155 0.601493 0.213200 241 -0.719974 -0.693961 0.007517
0.406255 0.604793 0.213200 273 -0.719974 -0.693961 0.007517
0.405156 0.609493 0.213300 193 -0.719974 -0.693961 0.007517
0.409555 0.601893 0.217300 241 -0.719974 -0.693961 0.007517
0.407256 0.605693 0.217400 273 -0.719974 -0.693961 0.007517
0.409855 0.602193 0.221400 225 -0.719974 -0.693961 0.007517
0.407655 0.605993 0.221500 241 -0.719974 -0.693961 0.007517
0.404855 0.609294 0.217400 225 -0.719974 -0.693961 0.007517
0.403855 0.608293 0.221400 241 -0.719974 -0.693961 0.007517
0.415455 0.596593 0.225600 209 -0.719974 -0.693961 0.007517
0.415755 0.596893 0.229700 225 -0.719974 -0.693961 0.007517
0.409555 0.601993 0.225500 193 -0.719974 -0.693961 0.007517
0.404855 0.609193 0.225500 225 -0.719974 -0.693961 0.007517
0.410255 0.602593 0.229600 177 -0.719974 -0.693961 0.007517
0.406556 0.605094 0.229600 241 -0.719974 -0.693961 0.007517
0.416155 0.597193 0.213300 209 -0.719974 -0.693961 0.007517
0.414755 0.601393 0.213400 193 -0.719974 -0.693961 0.007517
0.416855 0.597893 0.217400 193 -0.719974 -0.693961 0.007517
0.416356 0.597394 0.221500 193 -0.719974 -0.693961 0.007517
0.413855 0.600593 0.217400 241 -0.719974 -0.693961 0.007517
0.413655 0.600393 0.225600 241 -0.719974 -0.693961 0.007517
0.413355 0.600093 0.229700 225 -0.719974 -0.693961 0.007517
0.408055 0.606393 0.225600 241 -0.719974 -0.693961 0.007517
0.405455 0.609793 0.229700 209 -0.719974 -0.693961 0.007517
0.401555 0.611693 0.213300 209 -0.719974 -0.693961 0.007517
0.400555 0.610793 0.217300 225 -0.719974 -0.693961 0.007517
0.400555 0.610793 0.221400 273 -0.719974 -0.693961 0.007517
0.398755 0.614593 0.221400 225 -0.719974 -0.693961 0.007517
0.395555 0.617193 0.213200 209 -0.719974 -0.693961 0.007517
0.393755 0.621194 0.213300 193 -0.719974 -0.693961 0.007517
0.389555 0.622993 0.213200 225 -0.719974 -0.693961 0.007517
0.394555 0.616294 0.217300 225 -0.719974 -0.693961 0.007517
0.395455 0.617193 0.221400 225 -0.719974 -0.693961 0.007517
0.392355 0.619993 0.217300 209 -0.719974 -0.693961 0.007517
0.390355 0.623793 0.217400 209 -0.719974 -0.693961 0.007517
0.392555 0.620193 0.221400 209 -0.719974 -0.693961 0.007517
0.389655 0.623093 0.221400 225 -0.719974 -0.693961 0.007517
0.400956 0.611093 0.225500 241 -0.719974 -0.693961 0.007517
0.397655 0.613593 0.225500 209 -0.719974 -0.693961 0.007517
0.401355 0.611394 0.229600 209 -0.719974 -0.693961 0.007517
0.397955 0.613893 0.229600 225 -0.719974 -0.693961 0.007517
0.395455 0.617193 0.225500 209 -0.719974 -0.693961 0.007517
0.392255 0.619894 0.225500 241 -0.719974 -0.693961 0.007517
0.389855 0.623294 0.225500 193 -0.719974 -0.693961 0.007517
0.395155 0.616893 0.229600 209 -0.719974 -0.693961 0.007517
0.391455 0.619094 0.229600 225 -0.719974 -0.693961 0.007517
0.390655 0.624094 0.229600 209 -0.719974 -0.693961 0.007517
0.400655 0.616493 0.213300 209 -0.719974 -0.693961 0.007517
0.400655 0.616493 0.217500 209 -0.719974 -0.693961 0.007517
0.409755 0.602093 0.233700 209 -0.719974 -0.693961 0.007517
0.406655 0.605193 0.233700 225 -0.719974 -0.693961 0.007517
0.404655 0.609093 0.233700 209 -0.719974 -0.693961 0.007517
0.409455 0.601893 0.237800 209 -0.719974 -0.693961 0.007517
0.407455 0.605893 0.237800 209 -0.719974 -0.693961 0.007517
0.415755 0.596793 0.241900 209 -0.719974 -0.693961 0.007517
0.414155 0.595393 0.245900 241 -0.719974 -0.693961 0.007517
0.414855 0.595994 0.250100 225 -0.719974 -0.693961 0.007517
0.407055 0.605493 0.241900 257 -0.719974 -0.693961 0.007517
0.406855 0.605293 0.246000 241 -0.719974 -0.693961 0.007517
0.403756 0.608193 0.246000 209 -0.719974 -0.693961 0.007517
0.410756 0.602994 0.250100 257 -0.719974 -0.693961 0.007517
0.406455 0.604993 0.250100 257 -0.719974 -0.693961 0.007517
0.403655 0.608093 0.250100 209 -0.719974 -0.693961 0.007517
0.416655 0.597693 0.233800 209 -0.719974 -0.693961 0.007517
0.413455 0.600194 0.233800 209 -0.719974 -0.693961 0.007517
0.417056 0.598094 0.237900 225 -0.719974 -0.693961 0.007517
0.414255 0.600894 0.237900 193 -0.719974 -0.693961 0.007517
0.406155 0.610393 0.237900 225 -0.719974 -0.693961 0.007517
0.414355 0.600993 0.242000 209 -0.719974 -0.693961 0.007517
0.413556 0.600293 0.246000 225 -0.719974 -0.693961 0.007517
0.413556 0.600293 0.250100 241 -0.719974 -0.693961 0.007517
0.411155 0.603493 0.242000 225 -0.719974 -0.693961 0.007517
0.411456 0.603694 0.246100 241 -0.719974 -0.693961 0.007517
0.405955 0.610293 0.242000 209 -0.719974 -0.693961 0.007517
0.401255 0.611394 0.233700 241 -0.719974 -0.693961 0.007517
0.397655 0.613593 0.233700 225 -0.719974 -0.693961 0.007517
0.401656 0.611793 0.237800 225 -0.719974 -0.693961 0.007517
0.397955 0.613893 0.237800 225 -0.719974 -0.693961 0.007517
0.395555 0.617293 0.233700 225 -0.719974 -0.693961 0.007517
0.392055 0.619693 0.233700 225 -0.719974 -0.693961 0.007517
0.390655 0.624094 0.233700 209 -0.719974 -0.693961 0.007517
0.395355 0.617094 0.237800 225 -0.719974 -0.693961 0.007517
0.392255 0.619894 0.237800 225 -0.719974 -0.693961 0.007517
0.390155 0.623593 0.237800 225 -0.719974 -0.693961 0.007517
0.401555 0.611593 0.241900 209 -0.719974 -0.693961 0.007517
0.401656 0.611793 0.246000 209 -0.719974 -0.693961 0.007517
0.399055 0.614893 0.241900 225 -0.719974 -0.693961 0.007517
0.399155 0.615093 0.246000 225 -0.719974 -0.693961 0.007517
0.402055 0.612094 0.250100 193 -0.719974 -0.693961 0.007517
0.400055 0.615893 0.250200 225 -0.719974 -0.693961 0.007517
0.395555 0.617193 0.241900 209 -0.719974 -0.693961 0.007517
0.395255 0.616994 0.246000 225 -0.719974 -0.693961 0.007517
0.392455 0.620093 0.241900 209 -0.719974 -0.693961 0.007517
0.389255 0.622793 0.241800 209 -0.719974 -0.693961 0.007517
0.392955 0.620594 0.246000 225 -0.719974 -0.693961 0.007517
0.389755 0.623294 0.245900 209 -0.719974 -0.693961 0.007517
0.395155 0.616793 0.250100 209 -0.719974 -0.693961 0.007517
0.391955 0.619693 0.250000 209 -0.719974 -0.693961 0.007517
0.390355 0.623793 0.250100 209 -0.719974 -0.693961 0.007517
0.387155 0.626293 0.213200 225 -0.719974 -0.693961 0.007517
0.383955 0.628793 0.213200 193 -0.719974 -0.693961 0.007517
0.387655 0.626794 0.217400 209 -0.719974 -0.693961 0.007517
0.387555 0.626693 0.221400 193 -0.719974 -0.693961 0.007517
0.382955 0.627893 0.217300 193 -0.719974 -0.693961 0.007517
0.383455 0.628194 0.221400 209 -0.719974 -0.693961 0.007517
0.381455 0.631893 0.213200 193 -0.719974 -0.693961 0.007517
0.378655 0.634793 0.213200 257 -0.719974 -0.693961 0.007517
0.380755 0.631293 0.217300 225 -0.719974 -0.693961 0.007517
0.381755 0.632093 0.221400 225 -0.719974 -0.693961 0.007517
0.378855 0.634993 0.217300 241 -0.719974 -0.693961 0.007517
0.378855 0.634993 0.221400 177 -0.719974 -0.693961 0.007517
0.386755 0.625893 0.225500 209 -0.719974 -0.693961 0.007517
0.384855 0.629594 0.225500 209 -0.719974 -0.693961 0.007517
0.386855 0.625993 0.229600 193 -0.719974 -0.693961 0.007517
0.385355 0.630093 0.229600 177 -0.719974 -0.693961 0.007517
0.381955 0.632293 0.225500 225 -0.719974 -0.693961 0.007517
0.378655 0.634693 0.225500 225 -0.719974 -0.693961 0.007517
0.381555 0.631993 0.229600 241 -0.719974 -0.693961 0.007517
0.378755 0.634893 0.229600 241 -0.719974 -0.693961 0.007517
0.372455 0.640493 0.213200 177 -0.719974 -0.693961 0.007517
0.376555 0.638493 0.213200 193 -0.719974 -0.693961 0.007517
0.370355 0.644193 0.213200 225 -0.719974 -0.693961 0.007517
0.371456 0.639693 0.217200 193 -0.719974 -0.693961 0.007517
0.375755 0.637793 0.221400 225 -0.719974 -0.693961 0.007517
0.372355 0.640393 0.221400 193 -0.719974 -0.693961 0.007517
0.375955 0.637994 0.217300 241 -0.719974 -0.693961 0.007517
0.370056 0.643893 0.217300 225 -0.719974 -0.693961 0.007517
0.369956 0.643793 0.221400 225 -0.719974 -0.693961 0.007517
0.367455 0.646993 0.213200 209 -0.719974 -0.693961 0.007517
0.364956 0.650293 0.213200 193 -0.719974 -0.693961 0.007517
0.366655 0.646293 0.217300 209 -0.719974 -0.693961 0.007517
0.367056 0.646593 0.221400 241 -0.719974 -0.693961 0.007517
0.364555 0.649994 0.221400 209 -0.719974 -0.693961 0.007517
0.366655 0.651893 0.217400 177 -0.719974 -0.693961 0.007517
0.376055 0.638094 0.225500 225 -0.719974 -0.693961 0.007517
0.373755 0.641793 0.225500 193 -0.719974 -0.693961 0.007517
0.370155 0.643993 0.225500 225 -0.719974 -0.693961 0.007517
0.375455 0.637493 0.229600 241 -0.719974 -0.693961 0.007517
0.373155 0.641193 0.229600 209 -0.719974 -0.693961 0.007517
0.369455 0.643393 0.229500 241 -0.719974 -0.693961 0.007517
0.367255 0.646793 0.225500 241 -0.719974 -0.693961 0.007517
0.363955 0.649394 0.225500 177 -0.719974 -0.693961 0.007517
0.367756 0.647294 0.229600 225 -0.719974 -0.693961 0.007517
0.364555 0.649893 0.229600 161 -0.719974 -0.693961 0.007517
0.386555 0.625793 0.233700 225 -0.719974 -0.693961 0.007517
0.384855 0.629594 0.233700 225 -0.719974 -0.693961 0.007517
0.385655 0.624893 0.237700 225 -0.719974 -0.693961 0.007517
0.383855 0.628693 0.237800 209 -0.719974 -0.693961 0.007517
0.382155 0.632593 0.233700 257 -0.719974 -0.693961 0.007517
0.379255 0.635393 0.233700 241 -0.719974 -0.693961 0.007517
0.381155 0.631694 0.237800 257 -0.719974 -0.693961 0.007517
0.378855 0.634993 0.237800 257 -0.719974 -0.693961 0.007517
0.386055 0.625293 0.241800 225 -0.719974 -0.693961 0.007517
0.387255 0.626393 0.246000 209 -0.719974 -0.693961 0.007517
0.383455 0.628294 0.245900 225 -0.719974 -0.693961 0.007517
0.383655 0.628593 0.241800 209 -0.719974 -0.693961 0.007517
0.388555 0.627693 0.250100 209 -0.719974 -0.693961 0.007517
0.383455 0.628294 0.250000 241 -0.719974 -0.693961 0.007517
0.379755 0.630294 0.241800 257 -0.719974 -0.693961 0.007517
0.379755 0.630294 0.245900 257 -0.719974 -0.693961 0.007517
0.379255 0.635393 0.241900 193 -0.719974 -0.693961 0.007517
0.379555 0.635593 0.246000 193 -0.719974 -0.693961 0.007517
0.380855 0.631393 0.250000 209 -0.719974 -0.693961 0.007517
0.379555 0.635693 0.250100 193 -0.719974 -0.693961 0.007517
0.375755 0.637793 0.233700 257 -0.719974 -0.693961 0.007517
0.372255 0.640393 0.233600 241 -0.719974 -0.693961 0.007517
0.369455 0.643393 0.233600 225 -0.719974 -0.693961 0.007517
0.372656 0.640794 0.237800 225 -0.719974 -0.693961 0.007517
0.376555 0.638593 0.237800 225 -0.719974 -0.693961 0.007517
0.369356 0.643293 0.237700 193 -0.719974 -0.693961 0.007517
0.368055 0.647493 0.233700 225 -0.719974 -0.693961 0.007517
0.363955 0.649394 0.233600 209 -0.719974 -0.693961 0.007517
0.368656 0.648093 0.237800 177 -0.719974 -0.693961 0.007517
0.364756 0.650193 0.237700 177 -0.719974 -0.693961 0.007517
0.372955 0.640993 0.241900 225 -0.719974 -0.693961 0.007517
0.372255 0.640393 0.245900 257 -0.719974 -0.693961 0.007517
0.376155 0.638094 0.241900 225 -0.719974 -0.693961 0.007517
0.376455 0.638493 0.246000 193 -0.719974 -0.693961 0.007517
0.369856 0.643793 0.241800 209 -0.719974 -0.693961 0.007517
0.370556 0.644394 0.246000 209 -0.719974 -0.693961 0.007517
0.377355 0.639193 0.250100 177 -0.719974 -0.693961 0.007517
0.373256 0.641293 0.250000 193 -0.719974 -0.693961 0.007517
0.370056 0.643993 0.250000 193 -0.719974 -0.693961 0.007517
0.367756 0.647294 0.241900 177 -0.719974 -0.693961 0.007517
0.366856 0.646393 0.245900 209 -0.719974 -0.693961 0.007517
0.364655 0.650094 0.241900 193 -0.719974 -0.693961 0.007517
0.365456 0.650794 0.246000 209 -0.719974 -0.693961 0.007517
0.366755 0.646293 0.250000 225 -0.719974 -0.693961 0.007517
0.366256 0.651593 0.250100 225 -0.719974 -0.693961 0.007517
0.415955 0.596993 0.254200 209 -0.719974 -0.693961 0.007517
0.415355 0.596493 0.258300 241 -0.719974 -0.693961 0.007517
0.412955 0.599693 0.258300 225 -0.719974 -0.693961 0.007517
0.410555 0.602893 0.254200 241 -0.719974 -0.693961 0.007517
0.406955 0.605393 0.254200 257 -0.719974 -0.693961 0.007517
0.403855 0.608293 0.254200 177 -0.719974 -0.693961 0.007517
0.410255 0.602593 0.258300 257 -0.719974 -0.693961 0.007517
0.406855 0.605293 0.258300 193 -0.719974 -0.693961 0.007517
0.403455 0.607894 0.258200 209 -0.719974 -0.693961 0.007517
0.415656 0.596793 0.262400 225 -0.719974 -0.693961 0.007517
0.412655 0.599393 0.262400 209 -0.719974 -0.693961 0.007517
0.415755 0.596793 0.270600 241 -0.719974 -0.693961 0.007517
0.413155 0.599893 0.266500 193 -0.719974 -0.693961 0.007517
0.410555 0.602793 0.262400 209 -0.719974 -0.693961 0.007517
0.407256 0.605693 0.262400 225 -0.719974 -0.693961 0.007517
0.403855 0.608293 0.262400 209 -0.719974 -0.693961 0.007517
0.407355 0.605794 0.270500 225 -0.719974 -0.693961 0.007517
0.404755 0.609193 0.266500 225 -0.719974 -0.693961 0.007517
0.405156 0.609493 0.270600 225 -0.719974 -0.693961 0.007517
0.413455 0.600194 0.254200 225 -0.719974 -0.693961 0.007517
0.416055 0.597093 0.266500 225 -0.719974 -0.693961 0.007517
0.413556 0.600293 0.270600 209 -0.719974 -0.693961 0.007517
0.411456 0.603694 0.266500 209 -0.719974 -0.693961 0.007517
0.408255 0.606593 0.266500 209 -0.719974 -0.693961 0.007517
0.411255 0.603593 0.270600 225 -0.719974 -0.693961 0.007517
0.402356 0.612393 0.254200 193 -0.719974 -0.693961 0.007517
0.400055 0.615893 0.254200 225 -0.719974 -0.693961 0.007517
0.400655 0.610893 0.258200 225 -0.719974 -0.693961 0.007517
0.399755 0.615594 0.258300 193 -0.719974 -0.693961 0.007517
0.395555 0.617293 0.254200 241 -0.719974 -0.693961 0.007517
0.392055 0.619693 0.254100 257 -0.719974 -0.693961 0.007517
0.390055 0.623493 0.254200 241 -0.719974 -0.693961 0.007517
0.395555 0.617293 0.258200 289 -0.719974 -0.693961 0.007517
0.392455 0.620093 0.258200 209 -0.719974 -0.693961 0.007517
0.389655 0.623093 0.258200 225 -0.719974 -0.693961 0.007517
0.400555 0.610694 0.262300 193 -0.719974 -0.693961 0.007517
0.399355 0.615193 0.262400 209 -0.719974 -0.693961 0.007517
0.401555 0.611593 0.266500 209 -0.719974 -0.693961 0.007517
0.401555 0.611693 0.270500 241 -0.719974 -0.693961 0.007517
0.398255 0.614193 0.266400 209 -0.719974 -0.693961 0.007517
0.397555 0.613494 0.270500 193 -0.719974 -0.693961 0.007517
0.395755 0.617393 0.262400 257 -0.719974 -0.693961 0.007517
0.393255 0.620793 0.262400 209 -0.719974 -0.693961 0.007517
0.389655 0.623093 0.262300 177 -0.719974 -0.693961 0.007517
0.395655 0.617293 0.266400 257 -0.719974 -0.693961 0.007517
0.394855 0.616593 0.270500 241 -0.719974 -0.693961 0.007517
0.394055 0.621593 0.266500 241 -0.719974 -0.693961 0.007517
0.389555 0.623093 0.266400 225 -0.719974 -0.693961 0.007517
0.393155 0.620693 0.270500 225 -0.719974 -0.693961 0.007517
0.389655 0.623093 0.270500 225 -0.719974 -0.693961 0.007517
0.415955 0.597093 0.274700 225 -0.719974 -0.693961 0.007517
0.413355 0.600093 0.278800 241 -0.719974 -0.693961 0.007517
0.410655 0.602994 0.274700 225 -0.719974 -0.693961 0.007517
0.407355 0.605794 0.274700 193 -0.719974 -0.693961 0.007517
0.403855 0.608293 0.274600 225 -0.719974 -0.693961 0.007517
0.404255 0.608693 0.278700 209 -0.719974 -0.693961 0.007517
0.412255 0.599093 0.282800 225 -0.719974 -0.693961 0.007517
0.412955 0.599793 0.286900 225 -0.719974 -0.693961 0.007517
0.411055 0.603293 0.282900 193 -0.719974 -0.693961 0.007517
0.405055 0.609393 0.282800 209 -0.719974 -0.693961 0.007517
0.410955 0.603293 0.286900 177 -0.719974 -0.693961 0.007517
0.404555 0.608893 0.286900 209 -0.719974 -0.693961 0.007517
0.413556 0.600293 0.274700 241 -0.719974 -0.693961 0.007517
0.416455 0.597493 0.278800 209 -0.719974 -0.693961 0.007517
0.411155 0.603493 0.278800 209 -0.719974 -0.693961 0.007517
0.408656 0.606993 0.278800 193 -0.719974 -0.693961 0.007517
0.417255 0.598293 0.282900 193 -0.719974 -0.693961 0.007517
0.417255 0.598293 0.287000 193 -0.719974 -0.693961 0.007517
0.409255 0.607593 0.282900 177 -0.719974 -0.693961 0.007517
0.409155 0.607493 0.287000 177 -0.719974 -0.693961 0.007517
0.401055 0.611193 0.274600 241 -0.719974 -0.693961 0.007517
0.398155 0.614093 0.274600 225 -0.719974 -0.693961 0.007517
0.400755 0.610893 0.278700 225 -0.719974 -0.693961 0.007517
0.399755 0.615594 0.278800 193 -0.719974 -0.693961 0.007517
0.395555 0.617193 0.274600 209 -0.719974 -0.693961 0.007517
0.393055 0.620594 0.274700 209 -0.719974 -0.693961 0.007517
0.390155 0.623593 0.274600 241 -0.719974 -0.693961 0.007517
0.395655 0.617393 0.278700 193 -0.719974 -0.693961 0.007517
0.393555 0.621194 0.278800 225 -0.719974 -0.693961 0.007517
0.389655 0.623193 0.278700 273 -0.719974 -0.693961 0.007517
0.401455 0.611593 0.282800 209 -0.719974 -0.693961 0.007517
0.399255 0.615093 0.282800 161 -0.719974 -0.693961 0.007517
0.400355 0.610593 0.286900 193 -0.719974 -0.693961 0.007517
0.398856 0.614793 0.286900 209 -0.719974 -0.693961 0.007517
0.396555 0.618193 0.282800 193 -0.719974 -0.693961 0.007517
0.393755 0.621294 0.282800 273 -0.719974 -0.693961 0.007517
0.389755 0.623193 0.282800 257 -0.719974 -0.693961 0.007517
0.397155 0.618693 0.286900 177 -0.719974 -0.693961 0.007517
0.394255 0.621793 0.286900 209 -0.719974 -0.693961 0.007517
0.390055 0.623593 0.286900 289 -0.719974 -0.693961 0.007517
0.389155 0.628194 0.254200 241 -0.719974 -0.693961 0.007517
0.383755 0.628593 0.254100 241 -0.719974 -0.693961 0.007517
0.388855 0.627893 0.258300 193 -0.719974 -0.693961 0.007517
0.384155 0.628994 0.258200 225 -0.719974 -0.693961 0.007517
0.381355 0.631794 0.254100 209 -0.719974 -0.693961 0.007517
