774
-7.617020 -7.101908 -0.556483 373 -0.243428 0.969909 0.004330
-7.616720 -7.101624 -0.553256 375 -0.243428 0.969909 0.004330
-7.616620 -7.101538 -0.550037 379 -0.243428 0.969909 0.004330
-7.616366 -7.101292 -0.546819 379 -0.243428 0.969909 0.004330
-7.616061 -7.101015 -0.543592 363 -0.243428 0.969909 0.004330
-7.616495 -7.101414 -0.540418 371 -0.243428 0.969909 0.004330
-7.617207 -7.102075 -0.537251 387 -0.243428 0.969909 0.004330
-7.618233 -7.103029 -0.534122 389 -0.243428 0.969909 0.004330
-7.618297 -7.103090 -0.530921 395 -0.243428 0.969909 0.004330
-7.617178 -7.102053 -0.527631 385 -0.243428 0.969909 0.004330
-7.616169 -7.101119 -0.524361 371 -0.243428 0.969909 0.004330
-7.615427 -7.100425 -0.521107 373 -0.243428 0.969909 0.004330
-7.615492 -7.100487 -0.517907 353 -0.243428 0.969909 0.004330
-7.616139 -7.101083 -0.514741 369 -0.243428 0.969909 0.004330
-7.616511 -7.101431 -0.511567 401 -0.243428 0.969909 0.004330
-7.616473 -7.101397 -0.508357 397 -0.243428 0.969909 0.004330
-7.616040 -7.100991 -0.505121 385 -0.243428 0.969909 0.004330
-7.616846 -7.101742 -0.501964 383 -0.243428 0.969909 0.004330
-7.617177 -7.102044 -0.498781 399 -0.243428 0.969909 0.004330
-7.616745 -7.101653 -0.495555 409 -0.243428 0.969909 0.004330
-7.617172 -7.102046 -0.492371 417 -0.243428 0.969909 0.004330
-7.617275 -7.102138 -0.489179 421 -0.243428 0.969909 0.004330
-7.616266 -7.101203 -0.485909 389 -0.243428 0.969909 0.004330
-7.615840 -7.100804 -0.482673 387 -0.243428 0.969909 0.004330
-7.616206 -7.101147 -0.479499 383 -0.243428 0.969909 0.004330
-7.617168 -7.102036 -0.476350 409 -0.243428 0.969909 0.004330
-7.617485 -7.102341 -0.473167 405 -0.243428 0.969909 0.004330
-7.616831 -7.101731 -0.469923 415 -0.243428 0.969909 0.004330
-7.617692 -7.102526 -0.466765 403 -0.243428 0.969909 0.004330
-7.617843 -7.102670 -0.463574 387 -0.243428 0.969909 0.004330
-7.617135 -7.102016 -0.460330 389 -0.243428 0.969909 0.004330
-7.616337 -7.101265 -0.457078 405 -0.243428 0.969909 0.004330
-7.616006 -7.100956 -0.453851 415 -0.243428 0.969909 0.004330
-7.616317 -7.101254 -0.450668 393 -0.243428 0.969909 0.004330
-7.616412 -7.101340 -0.447467 387 -0.243428 0.969909 0.004330
-7.616830 -7.101726 -0.444293 397 -0.243428 0.969909 0.004330
-7.616500 -7.101416 -0.441066 403 -0.243428 0.969909 0.004330
-7.616382 -7.101305 -0.437857 385 -0.243428 0.969909 0.004330
-7.616849 -7.101742 -0.434682 391 -0.243428 0.969909 0.004330
-7.617475 -7.102334 -0.431506 415 -0.243428 0.969909 0.004330
-7.617198 -7.102068 -0.428289 413 -0.243428 0.969909 0.004330
-7.616805 -7.101708 -0.425062 393 -0.243428 0.969909 0.004330
-7.616852 -7.101743 -0.421862 387 -0.243428 0.969909 0.004330
-7.617311 -7.102174 -0.418688 385 -0.243428 0.969909 0.004330
-7.617566 -7.102415 -0.415495 393 -0.243428 0.969909 0.004330
-7.617384 -7.102239 -0.412287 383 -0.243428 0.969909 0.004330
-7.617465 -7.102326 -0.409086 373 -0.243428 0.969909 0.004330
-7.616920 -7.101804 -0.405851 349 -0.243428 0.969909 0.004330
-7.616788 -7.101695 -0.402642 365 -0.243428 0.969909 0.004330
-7.618059 -7.102872 -0.399510 381 -0.243428 0.969909 0.004330
-7.618036 -7.102849 -0.396300 357 -0.243428 0.969909 0.004330
-7.617533 -7.102387 -0.393075 357 -0.243428 0.969909 0.004330
-7.617612 -7.102461 -0.389874 375 -0.243428 0.969909 0.004330
-7.617376 -7.102241 -0.386666 373 -0.243428 0.969909 0.004330
-7.617416 -7.102269 -0.383466 345 -0.243428 0.969909 0.004330
-7.617331 -7.102197 -0.380256 339 -0.243428 0.969909 0.004330
-7.617947 -7.102768 -0.377081 359 -0.243428 0.969909 0.004330
-7.618563 -7.103339 -0.373905 371 -0.243428 0.969909 0.004330
-7.617309 -7.102168 -0.370646 351 -0.243428 0.969909 0.004330
-7.618084 -7.102893 -0.367479 361 -0.243428 0.969909 0.004330
-7.618376 -7.103164 -0.364296 379 -0.243428 0.969909 0.004330
-7.616847 -7.101744 -0.361020 369 -0.243428 0.969909 0.004330
-7.617140 -7.102016 -0.357828 367 -0.243428 0.969909 0.004330
-7.617370 -7.102237 -0.354645 373 -0.243428 0.969909 0.004330
-7.618302 -7.103102 -0.351477 385 -0.243428 0.969909 0.004330
-7.618334 -7.103124 -0.348276 389 -0.243428 0.969909 0.004330
-7.617656 -7.102495 -0.345053 375 -0.243428 0.969909 0.004330
-7.621087 -7.101342 -0.691440 371 -0.243428 0.969909 0.004330
-7.621553 -7.101780 -0.688276 379 -0.243428 0.969909 0.004330
-7.622352 -7.102525 -0.685128 385 -0.243428 0.969909 0.004330
-7.623301 -7.103416 -0.681999 373 -0.243428 0.969909 0.004330
-7.623609 -7.103700 -0.678816 381 -0.243428 0.969909 0.004330
-7.622631 -7.102791 -0.675515 371 -0.243428 0.969909 0.004330
-7.622363 -7.102531 -0.672278 343 -0.243428 0.969909 0.004330
-7.621598 -7.101819 -0.669005 351 -0.243428 0.969909 0.004330
-7.621315 -7.101562 -0.665768 331 -0.243428 0.969909 0.004330
-7.622160 -7.102344 -0.662630 341 -0.243428 0.969909 0.004330
-7.622516 -7.102679 -0.659446 349 -0.243428 0.969909 0.004330
-7.622612 -7.102765 -0.656235 355 -0.243428 0.969909 0.004330
-7.622273 -7.102449 -0.652998 347 -0.243428 0.969909 0.004330
-7.621825 -7.102031 -0.649752 361 -0.243428 0.969909 0.004330
-7.622558 -7.102711 -0.646595 377 -0.243428 0.969909 0.004330
-7.622214 -7.102403 -0.643359 361 -0.243428 0.969909 0.004330
-7.621455 -7.101683 -0.640086 351 -0.243428 0.969909 0.004330
-7.621805 -7.102013 -0.636902 363 -0.243428 0.969909 0.004330
-7.620977 -7.101250 -0.633630 351 -0.243428 0.969909 0.004330
-7.621017 -7.101278 -0.630419 335 -0.243428 0.969909 0.004330
-7.622486 -7.102655 -0.627326 343 -0.243428 0.969909 0.004330
-7.622195 -7.102377 -0.624098 363 -0.243428 0.969909 0.004330
-7.622118 -7.102311 -0.620879 371 -0.243428 0.969909 0.004330
-7.621825 -7.102033 -0.617642 375 -0.243428 0.969909 0.004330
-7.621700 -7.101914 -0.614423 373 -0.243428 0.969909 0.004330
-7.622308 -7.102479 -0.611257 371 -0.243428 0.969909 0.004330
-7.622499 -7.102655 -0.608065 381 -0.243428 0.969909 0.004330
-7.622950 -7.103081 -0.604891 389 -0.243428 0.969909 0.004330
-7.622762 -7.102912 -0.601662 401 -0.243428 0.969909 0.004330
-7.622525 -7.102678 -0.598435 389 -0.243428 0.969909 0.004330
-7.621855 -7.102056 -0.595181 385 -0.243428 0.969909 0.004330
-7.621447 -7.101683 -0.591935 367 -0.243428 0.969909 0.004330
-7.622323 -7.102491 -0.588796 359 -0.243428 0.969909 0.004330
-7.622127 -7.102316 -0.585568 347 -0.243428 0.969909 0.004330
-7.622419 -7.102587 -0.582385 345 -0.243428 0.969909 0.004330
-7.622656 -7.102800 -0.579193 349 -0.243428 0.969909 0.004330
-7.622413 -7.102574 -0.575965 359 -0.243428 0.969909 0.004330
-7.622910 -7.103037 -0.572791 351 -0.243428 0.969909 0.004330
-7.622809 -7.102952 -0.569571 357 -0.243428 0.969909 0.004330
-7.621982 -7.102176 -0.566309 365 -0.243428 0.969909 0.004330
-7.622844 -7.102984 -0.563161 365 -0.243428 0.969909 0.004330
-7.623128 -7.103250 -0.559968 379 -0.243428 0.969909 0.004330
-7.622079 -7.102269 -0.556688 385 -0.243428 0.969909 0.004330
-7.622521 -7.102674 -0.553514 383 -0.243428 0.969909 0.004330
-7.623329 -7.103438 -0.550366 375 -0.243428 0.969909 0.004330
-7.623613 -7.103704 -0.547173 357 -0.243428 0.969909 0.004330
-7.623314 -7.103419 -0.543946 363 -0.243428 0.969909 0.004330
-7.623371 -7.103474 -0.540735 361 -0.243428 0.969909 0.004330
-7.623324 -7.103433 -0.537526 371 -0.243428 0.969909 0.004330
-7.623127 -7.103244 -0.534307 383 -0.243428 0.969909 0.004330
-7.622820 -7.102953 -0.531080 399 -0.243428 0.969909 0.004330
-7.622450 -7.102612 -0.527844 405 -0.243428 0.969909 0.004330
-7.623312 -7.103421 -0.524696 395 -0.243428 0.969909 0.004330
-7.623155 -7.103278 -0.521477 385 -0.243428 0.969909 0.004330
-7.622579 -7.102731 -0.518232 375 -0.243428 0.969909 0.004330
-7.623282 -7.103386 -0.515066 381 -0.243428 0.969909 0.004330
-7.623820 -7.103894 -0.511901 387 -0.243428 0.969909 0.004330
-7.622866 -7.103003 -0.508629 377 -0.243428 0.969909 0.004330
-7.621423 -7.101652 -0.505333 379 -0.243428 0.969909 0.004330
-7.622497 -7.102659 -0.502193 383 -0.243428 0.969909 0.004330
-7.623990 -7.104055 -0.499079 413 -0.243428 0.969909 0.004330
-7.623565 -7.103656 -0.495843 397 -0.243428 0.969909 0.004330
-7.622870 -7.103001 -0.492599 401 -0.243428 0.969909 0.004330
-7.622975 -7.103106 -0.489398 415 -0.243428 0.969909 0.004330
-7.622872 -7.103007 -0.486179 417 -0.243428 0.969909 0.004330
-7.622447 -7.102608 -0.482953 419 -0.243428 0.969909 0.004330
-7.622976 -7.103096 -0.479778 407 -0.243428 0.969909 0.004330
-7.623618 -7.103701 -0.476612 413 -0.243428 0.969909 0.004330
-7.622916 -7.103053 -0.473358 403 -0.243428 0.969909 0.004330
-7.622262 -7.102444 -0.470114 401 -0.243428 0.969909 0.004330
-7.622910 -7.103041 -0.466948 407 -0.243428 0.969909 0.004330
-7.622848 -7.102986 -0.463738 395 -0.243428 0.969909 0.004330
-7.622035 -7.102223 -0.460486 385 -0.243428 0.969909 0.004330
-7.621925 -7.102118 -0.457277 399 -0.243428 0.969909 0.004330
-7.622187 -7.102364 -0.454084 419 -0.243428 0.969909 0.004330
-7.623348 -7.103454 -0.450943 413 -0.243428 0.969909 0.004330
-7.623239 -7.103348 -0.447734 407 -0.243428 0.969909 0.004330
-7.623224 -7.103333 -0.444525 395 -0.243428 0.969909 0.004330
-7.623753 -7.103821 -0.441350 409 -0.243428 0.969909 0.004330
-7.623897 -7.103959 -0.438158 405 -0.243428 0.969909 0.004330
-7.623827 -7.103899 -0.434949 405 -0.243428 0.969909 0.004330
-7.623345 -7.103441 -0.431713 403 -0.243428 0.969909 0.004330
-7.623063 -7.103183 -0.428496 393 -0.243428 0.969909 0.004330
-7.622614 -7.102765 -0.425260 395 -0.243428 0.969909 0.004330
-7.623135 -7.103247 -0.422085 407 -0.243428 0.969909 0.004330
-7.623499 -7.103590 -0.418901 391 -0.243428 0.969909 0.004330
-7.622996 -7.103127 -0.415666 387 -0.243428 0.969909 0.004330
-7.622973 -7.103105 -0.412466 377 -0.243428 0.969909 0.004330
-7.623605 -7.103689 -0.409290 377 -0.243428 0.969909 0.004330
-7.623156 -7.103271 -0.406064 369 -0.243428 0.969909 0.004330
-7.622976 -7.103109 -0.402856 353 -0.243428 0.969909 0.004330
-7.624026 -7.104082 -0.399696 361 -0.243428 0.969909 0.004330
-7.624650 -7.104660 -0.396530 365 -0.243428 0.969909 0.004330
-7.624675 -7.104690 -0.393320 381 -0.243428 0.969909 0.004330
-7.625030 -7.105011 -0.390136 389 -0.243428 0.969909 0.004330
-7.623508 -7.103597 -0.386860 383 -0.243428 0.969909 0.004330
-7.622847 -7.102981 -0.383617 345 -0.243428 0.969909 0.004330
-7.624796 -7.104798 -0.380508 337 -0.243428 0.969909 0.004330
-7.625792 -7.105728 -0.377349 341 -0.243428 0.969909 0.004330
-7.623945 -7.104000 -0.374066 365 -0.243428 0.969909 0.004330
-7.622961 -7.103085 -0.370815 365 -0.243428 0.969909 0.004330
-7.624697 -7.104703 -0.367689 371 -0.243428 0.969909 0.004330
-7.625314 -7.105275 -0.364513 377 -0.243428 0.969909 0.004330
-7.624795 -7.104800 -0.361288 379 -0.243428 0.969909 0.004330
-7.624827 -7.104822 -0.358078 391 -0.243428 0.969909 0.004330
-7.624259 -7.104295 -0.354853 377 -0.243428 0.969909 0.004330
-7.624166 -7.104217 -0.351644 395 -0.243428 0.969909 0.004330
-7.624087 -7.104136 -0.348434 399 -0.243428 0.969909 0.004330
-7.623513 -7.103603 -0.345209 381 -0.243428 0.969909 0.004330
-7.628752 -7.104145 -0.691930 377 -0.243428 0.969909 0.004330
-7.628910 -7.104281 -0.688729 387 -0.243428 0.969909 0.004330
-7.628249 -7.103679 -0.685455 385 -0.243428 0.969909 0.004330
-7.628353 -7.103771 -0.682254 371 -0.243428 0.969909 0.004330
-7.629086 -7.104451 -0.679107 387 -0.243428 0.969909 0.004330
-7.628275 -7.103702 -0.675814 363 -0.243428 0.969909 0.004330
-7.628592 -7.103992 -0.672631 343 -0.243428 0.969909 0.004330
-7.629428 -7.104768 -0.669493 333 -0.243428 0.969909 0.004330
-7.628932 -7.104311 -0.666228 335 -0.243428 0.969909 0.004330
-7.628594 -7.103996 -0.662991 329 -0.243428 0.969909 0.004330
-7.628050 -7.103488 -0.659726 345 -0.243428 0.969909 0.004330
-7.628833 -7.104219 -0.656579 369 -0.243428 0.969909 0.004330
-7.629409 -7.104746 -0.653413 351 -0.243428 0.969909 0.004330
-7.629015 -7.104385 -0.650167 361 -0.243428 0.969909 0.004330
-7.629262 -7.104620 -0.646974 349 -0.243428 0.969909 0.004330
-7.629570 -7.104904 -0.643791 349 -0.243428 0.969909 0.004330
-7.628750 -7.104134 -0.640509 365 -0.243428 0.969909 0.004330
-7.627551 -7.103019 -0.637200 353 -0.243428 0.969909 0.004330
-7.627260 -7.102755 -0.633963 345 -0.243428 0.969909 0.004330
-7.627189 -7.102681 -0.630744 333 -0.243428 0.969909 0.004330
-7.627428 -7.102908 -0.627551 343 -0.243428 0.969909 0.004330
-7.628265 -7.103684 -0.624403 355 -0.243428 0.969909 0.004330
-7.629528 -7.104856 -0.621291 379 -0.243428 0.969909 0.004330
-7.630138 -7.105435 -0.618136 385 -0.243428 0.969909 0.004330
-7.629687 -7.105003 -0.614880 379 -0.243428 0.969909 0.004330
-7.628063 -7.103493 -0.611545 357 -0.243428 0.969909 0.004330
-7.627606 -7.103068 -0.608299 387 -0.243428 0.969909 0.004330
-7.628491 -7.103896 -0.605151 391 -0.243428 0.969909 0.004330
-7.629526 -7.104857 -0.602021 395 -0.243428 0.969909 0.004330
-7.630032 -7.105326 -0.598846 399 -0.243428 0.969909 0.004330
-7.630593 -7.105854 -0.595681 395 -0.243428 0.969909 0.004330
-7.630404 -7.105671 -0.592453 389 -0.243428 0.969909 0.004330
-7.629451 -7.104795 -0.589171 379 -0.243428 0.969909 0.004330
-7.629965 -7.105270 -0.585996 361 -0.243428 0.969909 0.004330
-7.630147 -7.105439 -0.582795 363 -0.243428 0.969909 0.004330
-7.629785 -7.105104 -0.579558 365 -0.243428 0.969909 0.004330
-7.629224 -7.104570 -0.576303 353 -0.243428 0.969909 0.004330
-7.629406 -7.104740 -0.573111 365 -0.243428 0.969909 0.004330
-7.629748 -7.105063 -0.569928 385 -0.243428 0.969909 0.004330
-7.628423 -7.103834 -0.566620 387 -0.243428 0.969909 0.004330
-7.628013 -7.103447 -0.563374 367 -0.243428 0.969909 0.004330
-7.628670 -7.104065 -0.560218 371 -0.243428 0.969909 0.004330
-7.628789 -7.104170 -0.557017 391 -0.243428 0.969909 0.004330
-7.628008 -7.103445 -0.553744 363 -0.243428 0.969909 0.004330
-7.627638 -7.103104 -0.550517 371 -0.243428 0.969909 0.004330
-7.629264 -7.104607 -0.547412 365 -0.243428 0.969909 0.004330
-7.629968 -7.105262 -0.544255 347 -0.243428 0.969909 0.004330
-7.629662 -7.104985 -0.541028 363 -0.243428 0.969909 0.004330
-7.630262 -7.105544 -0.537853 385 -0.243428 0.969909 0.004330
-7.629623 -7.104946 -0.534598 401 -0.243428 0.969909 0.004330
-7.629695 -7.105014 -0.531398 419 -0.243428 0.969909 0.004330
-7.629854 -7.105165 -0.528196 403 -0.243428 0.969909 0.004330
-7.629649 -7.104969 -0.524978 411 -0.243428 0.969909 0.004330
-7.629927 -7.105228 -0.521785 403 -0.243428 0.969909 0.004330
-7.630314 -7.105589 -0.518602 411 -0.243428 0.969909 0.004330
-7.631120 -7.106340 -0.515444 411 -0.243428 0.969909 0.004330
-7.630537 -7.105800 -0.512199 401 -0.243428 0.969909 0.004330
-7.629417 -7.104750 -0.508910 405 -0.243428 0.969909 0.004330
-7.628985 -7.104358 -0.505674 421 -0.243428 0.969909 0.004330
-7.629096 -7.104456 -0.502473 409 -0.243428 0.969909 0.004330
-7.628726 -7.104116 -0.499246 417 -0.243428 0.969909 0.004330
-7.628947 -7.104316 -0.496054 409 -0.243428 0.969909 0.004330
-7.629532 -7.104863 -0.492878 413 -0.243428 0.969909 0.004330
-7.629479 -7.104815 -0.489669 431 -0.243428 0.969909 0.004330
-7.629320 -7.104658 -0.486450 427 -0.243428 0.969909 0.004330
-7.629638 -7.104962 -0.483257 417 -0.243428 0.969909 0.004330
-7.629907 -7.105215 -0.480065 403 -0.243428 0.969909 0.004330
-7.630334 -7.105607 -0.476891 403 -0.243428 0.969909 0.004330
-7.630272 -7.105554 -0.473671 415 -0.243428 0.969909 0.004330
-7.629089 -7.104452 -0.470392 415 -0.243428 0.969909 0.004330
-7.629728 -7.105042 -0.467226 413 -0.243428 0.969909 0.004330
-7.630203 -7.105487 -0.464041 403 -0.243428 0.969909 0.004330
-7.628964 -7.104328 -0.460763 399 -0.243428 0.969909 0.004330
-7.629447 -7.104778 -0.457588 399 -0.243428 0.969909 0.004330
-7.629914 -7.105216 -0.454404 401 -0.243428 0.969909 0.004330
-7.629906 -7.105206 -0.451194 403 -0.243428 0.969909 0.004330
-7.629742 -7.105057 -0.447985 401 -0.243428 0.969909 0.004330
-7.629514 -7.104843 -0.444757 403 -0.243428 0.969909 0.004330
-7.630035 -7.105324 -0.441582 391 -0.243428 0.969909 0.004330
-7.630510 -7.105769 -0.438398 399 -0.243428 0.969909 0.004330
-7.630393 -7.105657 -0.435189 401 -0.243428 0.969909 0.004330
-7.629897 -7.105201 -0.431953 385 -0.243428 0.969909 0.004330
-7.629509 -7.104833 -0.428727 371 -0.243428 0.969909 0.004330
-7.629600 -7.104928 -0.425526 383 -0.243428 0.969909 0.004330
-7.629694 -7.105013 -0.422325 407 -0.243428 0.969909 0.004330
-7.630752 -7.105993 -0.419175 399 -0.243428 0.969909 0.004330
-7.630240 -7.105525 -0.415940 397 -0.243428 0.969909 0.004330
-7.629318 -7.104659 -0.412678 401 -0.243428 0.969909 0.004330
-7.630210 -7.105493 -0.409520 389 -0.243428 0.969909 0.004330
-7.631158 -7.106371 -0.406361 371 -0.243428 0.969909 0.004330
-7.629905 -7.105212 -0.403093 373 -0.243428 0.969909 0.004330
-7.628816 -7.104187 -0.399833 379 -0.243428 0.969909 0.004330
-7.629434 -7.104772 -0.396657 379 -0.243428 0.969909 0.004330
-7.630168 -7.105453 -0.393490 375 -0.243428 0.969909 0.004330
-7.629979 -7.105269 -0.390272 369 -0.243428 0.969909 0.004330
-7.630060 -7.105358 -0.387071 379 -0.243428 0.969909 0.004330
-7.631487 -7.106675 -0.383938 381 -0.243428 0.969909 0.004330
-7.631149 -7.106359 -0.380711 351 -0.243428 0.969909 0.004330
-7.630527 -7.105789 -0.377476 351 -0.243428 0.969909 0.004330
-7.630237 -7.105511 -0.374259 367 -0.243428 0.969909 0.004330
-7.631224 -7.106433 -0.371100 363 -0.243428 0.969909 0.004330
-7.631406 -7.106603 -0.367898 379 -0.243428 0.969909 0.004330
-7.630262 -7.105533 -0.364639 365 -0.243428 0.969909 0.004330
-7.630500 -7.105760 -0.361446 381 -0.243428 0.969909 0.004330
-7.630896 -7.106128 -0.358262 393 -0.243428 0.969909 0.004330
-7.630439 -7.105703 -0.355037 385 -0.243428 0.969909 0.004330
-7.630882 -7.106122 -0.351842 409 -0.243428 0.969909 0.004330
-7.631127 -7.106342 -0.348650 397 -0.243428 0.969909 0.004330
-7.629811 -7.105120 -0.345392 375 -0.243428 0.969909 0.004330
-7.634644 -7.105101 -0.692258 403 -0.243428 0.969909 0.004330
-7.633990 -7.104505 -0.688984 393 -0.243428 0.969909 0.004330
-7.634684 -7.105139 -0.685827 397 -0.243428 0.969909 0.004330
-7.635577 -7.105973 -0.682689 385 -0.243428 0.969909 0.004330
-7.636045 -7.106411 -0.679514 387 -0.243428 0.969909 0.004330
-7.634490 -7.104958 -0.676159 365 -0.243428 0.969909 0.004330
-7.634207 -7.104700 -0.672921 343 -0.243428 0.969909 0.004330
-7.636125 -7.106478 -0.669873 353 -0.243428 0.969909 0.004330
-7.635519 -7.105919 -0.666599 347 -0.243428 0.969909 0.004330
-7.634005 -7.104512 -0.663263 323 -0.243428 0.969909 0.004330
-7.634526 -7.104994 -0.660088 345 -0.243428 0.969909 0.004330
-7.634346 -7.104832 -0.656860 361 -0.243428 0.969909 0.004330
-7.634709 -7.105160 -0.653676 363 -0.243428 0.969909 0.004330
-7.634426 -7.104901 -0.650439 349 -0.243428 0.969909 0.004330
-7.633874 -7.104388 -0.647174 367 -0.243428 0.969909 0.004330
-7.635453 -7.105853 -0.644089 397 -0.243428 0.969909 0.004330
-7.635975 -7.106335 -0.640914 363 -0.243428 0.969909 0.004330
-7.636007 -7.106370 -0.637704 349 -0.243428 0.969909 0.004330
-7.635394 -7.105807 -0.634439 341 -0.243428 0.969909 0.004330
-7.634897 -7.105337 -0.631184 345 -0.243428 0.969909 0.004330
-7.635135 -7.105564 -0.627992 339 -0.243428 0.969909 0.004330
-7.634789 -7.105242 -0.624755 327 -0.243428 0.969909 0.004330
-7.635253 -7.105665 -0.621570 353 -0.243428 0.969909 0.004330
-7.636139 -7.106493 -0.618432 363 -0.243428 0.969909 0.004330
-7.636275 -7.106625 -0.615221 377 -0.243428 0.969909 0.004330
-7.635605 -7.106002 -0.611957 367 -0.243428 0.969909 0.004330
-7.634887 -7.105328 -0.608684 351 -0.243428 0.969909 0.004330
-7.635015 -7.105453 -0.605482 371 -0.243428 0.969909 0.004330
-7.634558 -7.105029 -0.602236 401 -0.243428 0.969909 0.004330
-7.635015 -7.105447 -0.599062 383 -0.243428 0.969909 0.004330
-7.636217 -7.106568 -0.595941 381 -0.243428 0.969909 0.004330
-7.636075 -7.106437 -0.592712 393 -0.243428 0.969909 0.004330
-7.635239 -7.105654 -0.589440 391 -0.243428 0.969909 0.004330
-7.635367 -7.105780 -0.586239 377 -0.243428 0.969909 0.004330
-7.635557 -7.105955 -0.583037 379 -0.243428 0.969909 0.004330
-7.634990 -7.105429 -0.579782 379 -0.243428 0.969909 0.004330
-7.634896 -7.105336 -0.576563 379 -0.243428 0.969909 0.004330
-7.635773 -7.106157 -0.573414 393 -0.243428 0.969909 0.004330
-7.635899 -7.106268 -0.570213 395 -0.243428 0.969909 0.004330
-7.635490 -7.105896 -0.566967 395 -0.243428 0.969909 0.004330
-7.636091 -7.106454 -0.563801 375 -0.243428 0.969909 0.004330
-7.636328 -7.106668 -0.560599 359 -0.243428 0.969909 0.004330
-7.636076 -7.106435 -0.557371 361 -0.243428 0.969909 0.004330
-7.637056 -7.107339 -0.554232 365 -0.243428 0.969909 0.004330
-7.636528 -7.106857 -0.550977 387 -0.243428 0.969909 0.004330
-7.636757 -7.107064 -0.547785 397 -0.243428 0.969909 0.004330
-7.636657 -7.106979 -0.544565 391 -0.243428 0.969909 0.004330
-7.635284 -7.105699 -0.541258 385 -0.243428 0.969909 0.004330
-7.635238 -7.105657 -0.538049 395 -0.243428 0.969909 0.004330
-7.635570 -7.105960 -0.534855 403 -0.243428 0.969909 0.004330
-7.635895 -7.106271 -0.531662 403 -0.243428 0.969909 0.004330
-7.635855 -7.106222 -0.528453 391 -0.243428 0.969909 0.004330
-7.635754 -7.106137 -0.525234 403 -0.243428 0.969909 0.004330
-7.635708 -7.106095 -0.522024 425 -0.243428 0.969909 0.004330
-7.635614 -7.106002 -0.518805 405 -0.243428 0.969909 0.004330
-7.635780 -7.106160 -0.515603 399 -0.243428 0.969909 0.004330
-7.636215 -7.106558 -0.512419 401 -0.243428 0.969909 0.004330
-7.636532 -7.106863 -0.509226 417 -0.243428 0.969909 0.004330
-7.636705 -7.107011 -0.506034 429 -0.243428 0.969909 0.004330
-7.635689 -7.106071 -0.502754 435 -0.243428 0.969909 0.004330
-7.635587 -7.105971 -0.499534 431 -0.243428 0.969909 0.004330
-7.636228 -7.106575 -0.496368 399 -0.243428 0.969909 0.004330
-7.635961 -7.106330 -0.493141 413 -0.243428 0.969909 0.004330
-7.635962 -7.106327 -0.489931 439 -0.243428 0.969909 0.004330
-7.635584 -7.105979 -0.486694 427 -0.243428 0.969909 0.004330
-7.636760 -7.107068 -0.483563 419 -0.243428 0.969909 0.004330
-7.636862 -7.107160 -0.480352 413 -0.243428 0.969909 0.004330
-7.636865 -7.107171 -0.477142 421 -0.243428 0.969909 0.004330
-7.638192 -7.108407 -0.474020 425 -0.243428 0.969909 0.004330
-7.637765 -7.108007 -0.470783 427 -0.243428 0.969909 0.004330
-7.636858 -7.107154 -0.467512 417 -0.243428 0.969909 0.004330
-7.636418 -7.106756 -0.464276 419 -0.243428 0.969909 0.004330
-7.636845 -7.107149 -0.461092 419 -0.243428 0.969909 0.004330
-7.636775 -7.107089 -0.457882 427 -0.243428 0.969909 0.004330
-7.636499 -7.106823 -0.454655 399 -0.243428 0.969909 0.004330
-7.636713 -7.107018 -0.451463 411 -0.243428 0.969909 0.004330
-7.635681 -7.106064 -0.448192 407 -0.243428 0.969909 0.004330
-7.634980 -7.105417 -0.444939 391 -0.243428 0.969909 0.004330
-7.635075 -7.105503 -0.441738 401 -0.243428 0.969909 0.004330
-7.635170 -7.105588 -0.438537 399 -0.243428 0.969909 0.004330
-7.635802 -7.106173 -0.435361 401 -0.243428 0.969909 0.004330
-7.636159 -7.106509 -0.432178 403 -0.243428 0.969909 0.004330
-7.636736 -7.107049 -0.428992 383 -0.243428 0.969909 0.004330
-7.636824 -7.107129 -0.425791 383 -0.243428 0.969909 0.004330
-7.635530 -7.105925 -0.422513 401 -0.243428 0.969909 0.004330
-7.635144 -7.105557 -0.419287 401 -0.243428 0.969909 0.004330
-7.635287 -7.105695 -0.416085 395 -0.243428 0.969909 0.004330
-7.634894 -7.105335 -0.412859 397 -0.243428 0.969909 0.004330
-7.635683 -7.106059 -0.409691 395 -0.243428 0.969909 0.004330
-7.636354 -7.106688 -0.406515 395 -0.243428 0.969909 0.004330
-7.636340 -7.106672 -0.403305 385 -0.243428 0.969909 0.004330
-7.637651 -7.107895 -0.400163 381 -0.243428 0.969909 0.004330
-7.637684 -7.107931 -0.396962 407 -0.243428 0.969909 0.004330
-7.637227 -7.107507 -0.393727 379 -0.243428 0.969909 0.004330
-7.637053 -7.107337 -0.390508 379 -0.243428 0.969909 0.004330
-7.636068 -7.106421 -0.387257 379 -0.243428 0.969909 0.004330
-7.636094 -7.106451 -0.384047 369 -0.243428 0.969909 0.004330
-7.636551 -7.106868 -0.380863 369 -0.243428 0.969909 0.004330
-7.637595 -7.107850 -0.377703 371 -0.243428 0.969909 0.004330
-7.637571 -7.107827 -0.374493 391 -0.243428 0.969909 0.004330
-7.637067 -7.107351 -0.371268 387 -0.243428 0.969909 0.004330
-7.637196 -7.107477 -0.368066 379 -0.243428 0.969909 0.004330
-7.637661 -7.107901 -0.364882 373 -0.243428 0.969909 0.004330
-7.637142 -7.107426 -0.361647 385 -0.243428 0.969909 0.004330
-7.636795 -7.107103 -0.358420 393 -0.243428 0.969909 0.004330
-7.638050 -7.108268 -0.355268 383 -0.243428 0.969909 0.004330
-7.639030 -7.109185 -0.352109 415 -0.243428 0.969909 0.004330
-7.638202 -7.108409 -0.348866 409 -0.243428 0.969909 0.004330
-7.637414 -7.107678 -0.345624 381 -0.243428 0.969909 0.004330
-7.641187 -7.106838 -0.689428 401 -0.243428 0.969909 0.004330
-7.641455 -7.107076 -0.686236 385 -0.243428 0.969909 0.004330
-7.641439 -7.107060 -0.683016 377 -0.243428 0.969909 0.004330
-7.641426 -7.107059 -0.679796 363 -0.243428 0.969909 0.004330
-7.641789 -7.107387 -0.676602 343 -0.243428 0.969909 0.004330
-7.641775 -7.107385 -0.673392 343 -0.243428 0.969909 0.004330
-7.641759 -7.107368 -0.670173 335 -0.243428 0.969909 0.004330
-7.641491 -7.107109 -0.666925 347 -0.243428 0.969909 0.004330
-7.641422 -7.107049 -0.663705 353 -0.243428 0.969909 0.004330
-7.641509 -7.107129 -0.660495 343 -0.243428 0.969909 0.004330
-7.641329 -7.106966 -0.657266 355 -0.243428 0.969909 0.004330
-7.641859 -7.107455 -0.654091 353 -0.243428 0.969909 0.004330
-7.641781 -7.107388 -0.650872 359 -0.243428 0.969909 0.004330
-7.640968 -7.106625 -0.647579 379 -0.243428 0.969909 0.004330
-7.641000 -7.106660 -0.644369 377 -0.243428 0.969909 0.004330
-7.641356 -7.106982 -0.641186 361 -0.243428 0.969909 0.004330
-7.642084 -7.107670 -0.638029 347 -0.243428 0.969909 0.004330
-7.642385 -7.107948 -0.634836 349 -0.243428 0.969909 0.004330
-7.641825 -7.107428 -0.631571 325 -0.243428 0.969909 0.004330
-7.642229 -7.107801 -0.628387 327 -0.243428 0.969909 0.004330
-7.641841 -7.107433 -0.625141 345 -0.243428 0.969909 0.004330
-7.640746 -7.106415 -0.621841 353 -0.243428 0.969909 0.004330
-7.641464 -7.107082 -0.618674 373 -0.243428 0.969909 0.004330
-7.641174 -7.106818 -0.615437 389 -0.243428 0.969909 0.004330
-7.640291 -7.105998 -0.612155 371 -0.243428 0.969909 0.004330
-7.640750 -7.106429 -0.608980 383 -0.243428 0.969909 0.004330
-7.641421 -7.107045 -0.605814 383 -0.243428 0.969909 0.004330
-7.641500 -7.107118 -0.602603 385 -0.243428 0.969909 0.004330
-7.640879 -7.106547 -0.599339 369 -0.243428 0.969909 0.004330
-7.641811 -7.107413 -0.596200 353 -0.243428 0.969909 0.004330
-7.642269 -7.107831 -0.593016 373 -0.243428 0.969909 0.004330
-7.641426 -7.107055 -0.589744 381 -0.243428 0.969909 0.004330
-7.641932 -7.107525 -0.586559 377 -0.243428 0.969909 0.004330
-7.642004 -7.107592 -0.583358 397 -0.243428 0.969909 0.004330
-7.642084 -7.107666 -0.580147 413 -0.243428 0.969909 0.004330
-7.642368 -7.107931 -0.576955 391 -0.243428 0.969909 0.004330
-7.642068 -7.107646 -0.573717 389 -0.243428 0.969909 0.004330
-7.642189 -7.107765 -0.570506 401 -0.243428 0.969909 0.004330
-7.642110 -7.107685 -0.567287 397 -0.243428 0.969909 0.004330
-7.642174 -7.107746 -0.564076 389 -0.243428 0.969909 0.004330
-7.642246 -7.107813 -0.560875 387 -0.243428 0.969909 0.004330
-7.642365 -7.107918 -0.557664 393 -0.243428 0.969909 0.004330
-7.642808 -7.108336 -0.554480 409 -0.243428 0.969909 0.004330
-7.643196 -7.108698 -0.551296 405 -0.243428 0.969909 0.004330
-7.643322 -7.108809 -0.548095 397 -0.243428 0.969909 0.004330
-7.643284 -7.108774 -0.544875 405 -0.243428 0.969909 0.004330
-7.642330 -7.107883 -0.541594 409 -0.243428 0.969909 0.004330
-7.642663 -7.108201 -0.538401 415 -0.243428 0.969909 0.004330
-7.643255 -7.108753 -0.535235 423 -0.243428 0.969909 0.004330
-7.642350 -7.107914 -0.531954 415 -0.243428 0.969909 0.004330
-7.641891 -7.107475 -0.528708 409 -0.243428 0.969909 0.004330
-7.642587 -7.108124 -0.525551 407 -0.243428 0.969909 0.004330
-7.643084 -7.108587 -0.522367 423 -0.243428 0.969909 0.004330
-7.643031 -7.108540 -0.519147 413 -0.243428 0.969909 0.004330
-7.643198 -7.108696 -0.515945 407 -0.243428 0.969909 0.004330
-7.642401 -7.107959 -0.512683 391 -0.243428 0.969909 0.004330
-7.643310 -7.108805 -0.509534 419 -0.243428 0.969909 0.004330
-7.643800 -7.109262 -0.506350 429 -0.243428 0.969909 0.004330
-7.643224 -7.108716 -0.503095 433 -0.243428 0.969909 0.004330
-7.642894 -7.108419 -0.499868 411 -0.243428 0.969909 0.004330
-7.642895 -7.108416 -0.496648 417 -0.243428 0.969909 0.004330
-7.643329 -7.108815 -0.493464 431 -0.243428 0.969909 0.004330
-7.643750 -7.109215 -0.490280 443 -0.243428 0.969909 0.004330
-7.643701 -7.109159 -0.487070 453 -0.243428 0.969909 0.004330
-7.643222 -7.108716 -0.483824 433 -0.243428 0.969909 0.004330
-7.642685 -7.108215 -0.480579 409 -0.243428 0.969909 0.004330
-7.643319 -7.108813 -0.477403 421 -0.243428 0.969909 0.004330
-7.644021 -7.109454 -0.474237 425 -0.243428 0.969909 0.004330
-7.642721 -7.108258 -0.470949 413 -0.243428 0.969909 0.004330
-7.641964 -7.107553 -0.467696 389 -0.243428 0.969909 0.004330
-7.642390 -7.107945 -0.464502 409 -0.243428 0.969909 0.004330
-7.642440 -7.107994 -0.461301 413 -0.243428 0.969909 0.004330
-7.642756 -7.108284 -0.458108 419 -0.243428 0.969909 0.004330
-7.642850 -7.108370 -0.454897 417 -0.243428 0.969909 0.004330
-7.642686 -7.108221 -0.451679 403 -0.243428 0.969909 0.004330
-7.642892 -7.108408 -0.448477 397 -0.243428 0.969909 0.004330
-7.642664 -7.108195 -0.445259 375 -0.243428 0.969909 0.004330
-7.643675 -7.109137 -0.442099 375 -0.243428 0.969909 0.004330
-7.644630 -7.110021 -0.438940 419 -0.243428 0.969909 0.004330
-7.643700 -7.109163 -0.435679 421 -0.243428 0.969909 0.004330
-7.642668 -7.108209 -0.432408 407 -0.243428 0.969909 0.004330
-7.642818 -7.108339 -0.429207 395 -0.243428 0.969909 0.004330
-7.642859 -7.108381 -0.426007 397 -0.243428 0.969909 0.004330
-7.643113 -7.108621 -0.422804 407 -0.243428 0.969909 0.004330
-7.643311 -7.108803 -0.419602 405 -0.243428 0.969909 0.004330
-7.642924 -7.108435 -0.416376 389 -0.243428 0.969909 0.004330
-7.642475 -7.108017 -0.413140 369 -0.243428 0.969909 0.004330
-7.642619 -7.108155 -0.409938 363 -0.243428 0.969909 0.004330
-7.643717 -7.109180 -0.406788 367 -0.243428 0.969909 0.004330
-7.643812 -7.109266 -0.403577 399 -0.243428 0.969909 0.004330
-7.643205 -7.108695 -0.400343 407 -0.243428 0.969909 0.004330
-7.642914 -7.108430 -0.397115 401 -0.243428 0.969909 0.004330
-7.644279 -7.109697 -0.393973 385 -0.243428 0.969909 0.004330
-7.645014 -7.110378 -0.390796 397 -0.243428 0.969909 0.004330
-7.645087 -7.110458 -0.387595 393 -0.243428 0.969909 0.004330
-7.644693 -7.110085 -0.384358 377 -0.243428 0.969909 0.004330
-7.644292 -7.109719 -0.381132 353 -0.243428 0.969909 0.004330
-7.644537 -7.109938 -0.377930 349 -0.243428 0.969909 0.004330
-7.644522 -7.109922 -0.374720 363 -0.243428 0.969909 0.004330
-7.643900 -7.109352 -0.371485 385 -0.243428 0.969909 0.004330
-7.644358 -7.109769 -0.368291 383 -0.243428 0.969909 0.004330
-7.644919 -7.110297 -0.365116 369 -0.243428 0.969909 0.004330
-7.644029 -7.109470 -0.361864 383 -0.243428 0.969909 0.004330
-7.643572 -7.109046 -0.358628 375 -0.243428 0.969909 0.004330
-7.642736 -7.108263 -0.355386 363 -0.243428 0.969909 0.004330
-7.643401 -7.108887 -0.352210 417 -0.243428 0.969909 0.004330
-7.644009 -7.109452 -0.349024 407 -0.243428 0.969909 0.004330
-7.644577 -7.109972 -0.345839 393 -0.243428 0.969909 0.004330
-7.647476 -7.108335 -0.689791 377 -0.243428 0.969909 0.004330
-7.647683 -7.108523 -0.686589 381 -0.243428 0.969909 0.004330
-7.648149 -7.108962 -0.683415 391 -0.243428 0.969909 0.004330
-7.647125 -7.108013 -0.680104 383 -0.243428 0.969909 0.004330
-7.646311 -7.107249 -0.676812 363 -0.243428 0.969909 0.004330
-7.646833 -7.107732 -0.673637 377 -0.243428 0.969909 0.004330
-7.647300 -7.108170 -0.670462 383 -0.243428 0.969909 0.004330
-7.647505 -7.108357 -0.667260 379 -0.243428 0.969909 0.004330
-7.648453 -7.109236 -0.664122 353 -0.243428 0.969909 0.004330
-7.648494 -7.109278 -0.660901 353 -0.243428 0.969909 0.004330
-7.647461 -7.108324 -0.657601 371 -0.243428 0.969909 0.004330
-7.648251 -7.109048 -0.654443 357 -0.243428 0.969909 0.004330
-7.647321 -7.108190 -0.651152 339 -0.243428 0.969909 0.004330
-7.646872 -7.107771 -0.647896 345 -0.243428 0.969909 0.004330
-7.647606 -7.108451 -0.644739 357 -0.243428 0.969909 0.004330
-7.647054 -7.107937 -0.641474 361 -0.243428 0.969909 0.004330
-7.647190 -7.108068 -0.638263 351 -0.243428 0.969909 0.004330
-7.648508 -7.109284 -0.635150 347 -0.243428 0.969909 0.004330
-7.648225 -7.109026 -0.631913 335 -0.243428 0.969909 0.004330
-7.647501 -7.108360 -0.628640 341 -0.243428 0.969909 0.004330
-7.648338 -7.109136 -0.625492 353 -0.243428 0.969909 0.004330
-7.648638 -7.109413 -0.622289 363 -0.243428 0.969909 0.004330
-7.648931 -7.109684 -0.619096 375 -0.243428 0.969909 0.004330
-7.649231 -7.109962 -0.615903 385 -0.243428 0.969909 0.004330
-7.648079 -7.108886 -0.612594 375 -0.243428 0.969909 0.004330
-7.648215 -7.109017 -0.609392 393 -0.243428 0.969909 0.004330
-7.647489 -7.108337 -0.606119 405 -0.243428 0.969909 0.004330
-7.647515 -7.108367 -0.602899 381 -0.243428 0.969909 0.004330
-7.648131 -7.108938 -0.599733 389 -0.243428 0.969909 0.004330
-7.647453 -7.108309 -0.596459 373 -0.243428 0.969909 0.004330
-7.648818 -7.109577 -0.593346 379 -0.243428 0.969909 0.004330
-7.648095 -7.108911 -0.590083 399 -0.243428 0.969909 0.004330
-7.647795 -7.108626 -0.586836 395 -0.243428 0.969909 0.004330
-7.648452 -7.109243 -0.583670 407 -0.243428 0.969909 0.004330
-7.647567 -7.108408 -0.580388 399 -0.243428 0.969909 0.004330
-7.647757 -7.108584 -0.577186 383 -0.243428 0.969909 0.004330
-7.648682 -7.109443 -0.574037 393 -0.243428 0.969909 0.004330
-7.647942 -7.108764 -0.570774 397 -0.243428 0.969909 0.004330
-7.647161 -7.108039 -0.567501 399 -0.243428 0.969909 0.004330
-7.648622 -7.109396 -0.564388 407 -0.243428 0.969909 0.004330
-7.648371 -7.109164 -0.561160 413 -0.243428 0.969909 0.004330
-7.648276 -7.109071 -0.557931 399 -0.243428 0.969909 0.004330
-7.648348 -7.109138 -0.554720 387 -0.243428 0.969909 0.004330
-7.648522 -7.109301 -0.551518 381 -0.243428 0.969909 0.004330
-7.648477 -7.109260 -0.548299 377 -0.243428 0.969909 0.004330
-7.647901 -7.108727 -0.545044 391 -0.243428 0.969909 0.004330
-7.648936 -7.109687 -0.541904 405 -0.243428 0.969909 0.004330
-7.649529 -7.110240 -0.538728 409 -0.243428 0.969909 0.004330
-7.649380 -7.110104 -0.535500 407 -0.243428 0.969909 0.004330
-7.648811 -7.109563 -0.532245 403 -0.243428 0.969909 0.004330
-7.649247 -7.109975 -0.529061 405 -0.243428 0.969909 0.004330
-7.648821 -7.109576 -0.525815 395 -0.243428 0.969909 0.004330
-7.648726 -7.109483 -0.522596 409 -0.243428 0.969909 0.004330
-7.648949 -7.109698 -0.519404 417 -0.243428 0.969909 0.004330
-7.647562 -7.108406 -0.516096 399 -0.243428 0.969909 0.004330
-7.647618 -7.108460 -0.512886 411 -0.243428 0.969909 0.004330
-7.649014 -7.109753 -0.509763 425 -0.243428 0.969909 0.004330
-7.649284 -7.110005 -0.506560 447 -0.243428 0.969909 0.004330
-7.649183 -7.109920 -0.503341 433 -0.243428 0.969909 0.004330
-7.649618 -7.110318 -0.500157 441 -0.243428 0.969909 0.004330
-7.649453 -7.110169 -0.496928 421 -0.243428 0.969909 0.004330
-7.649192 -7.109916 -0.493701 431 -0.243428 0.969909 0.004330
-7.648925 -7.109670 -0.490473 445 -0.243428 0.969909 0.004330
-7.648925 -7.109667 -0.487253 433 -0.243428 0.969909 0.004330
-7.649023 -7.109767 -0.484052 427 -0.243428 0.969909 0.004330
-7.649284 -7.110013 -0.480849 421 -0.243428 0.969909 0.004330
-7.649236 -7.109958 -0.477630 413 -0.243428 0.969909 0.004330
-7.648110 -7.108915 -0.474350 417 -0.243428 0.969909 0.004330
-7.647195 -7.108069 -0.471089 397 -0.243428 0.969909 0.004330
-7.648529 -7.109297 -0.467956 407 -0.243428 0.969909 0.004330
-7.649547 -7.110246 -0.464797 407 -0.243428 0.969909 0.004330
-7.648034 -7.108839 -0.461501 409 -0.243428 0.969909 0.004330
-7.647491 -7.108345 -0.458256 403 -0.243428 0.969909 0.004330
-7.649086 -7.109822 -0.455131 419 -0.243428 0.969909 0.004330
-7.649670 -7.110368 -0.451955 395 -0.243428 0.969909 0.004330
-7.648968 -7.109707 -0.448702 379 -0.243428 0.969909 0.004330
-7.649593 -7.110299 -0.445526 383 -0.243428 0.969909 0.004330
-7.649427 -7.110135 -0.442297 405 -0.243428 0.969909 0.004330
-7.648458 -7.109231 -0.439036 419 -0.243428 0.969909 0.004330
-7.649509 -7.110219 -0.435886 429 -0.243428 0.969909 0.004330
-7.650093 -7.110752 -0.432701 415 -0.243428 0.969909 0.004330
-7.650292 -7.110948 -0.429499 411 -0.243428 0.969909 0.004330
-7.649527 -7.110235 -0.426246 413 -0.243428 0.969909 0.004330
-7.648653 -7.109422 -0.422984 397 -0.243428 0.969909 0.004330
-7.649489 -7.110198 -0.419816 419 -0.243428 0.969909 0.004330
-7.649372 -7.110086 -0.416597 403 -0.243428 0.969909 0.004330
-7.648766 -7.109528 -0.413353 381 -0.243428 0.969909 0.004330
-7.649554 -7.110251 -0.410185 383 -0.243428 0.969909 0.004330
-7.650282 -7.110940 -0.407008 393 -0.243428 0.969909 0.004330
-7.649723 -7.110419 -0.403774 397 -0.243428 0.969909 0.004330
-7.649487 -7.110198 -0.400546 409 -0.243428 0.969909 0.004330
-7.649362 -7.110080 -0.397327 393 -0.243428 0.969909 0.004330
-7.648968 -7.109707 -0.394100 381 -0.243428 0.969909 0.004330
-7.650341 -7.110981 -0.390957 419 -0.243428 0.969909 0.004330
-7.650587 -7.111214 -0.387755 409 -0.243428 0.969909 0.004330
-7.650612 -7.111243 -0.384545 409 -0.243428 0.969909 0.004330
-7.650644 -7.111265 -0.381334 385 -0.243428 0.969909 0.004330
-7.649437 -7.110145 -0.378066 367 -0.243428 0.969909 0.004330
-7.649304 -7.110020 -0.374847 353 -0.243428 0.969909 0.004330
-7.649542 -7.110248 -0.371644 369 -0.243428 0.969909 0.004330
-7.649258 -7.109975 -0.368427 371 -0.243428 0.969909 0.004330
-7.649173 -7.109903 -0.365208 367 -0.243428 0.969909 0.004330
-7.649458 -7.110168 -0.362015 381 -0.243428 0.969909 0.004330
-7.649861 -7.110542 -0.358821 379 -0.243428 0.969909 0.004330
-7.650264 -7.110916 -0.355627 373 -0.243428 0.969909 0.004330
-7.650178 -7.110829 -0.352408 395 -0.243428 0.969909 0.004330
-7.649666 -7.110360 -0.349173 399 -0.243428 0.969909 0.004330
-7.649517 -7.110223 -0.345964 395 -0.243428 0.969909 0.004330
-7.653848 -7.109731 -0.690154 387 -0.243428 0.969909 0.004330
-7.654218 -7.110065 -0.686971 369 -0.243428 0.969909 0.004330
-7.654157 -7.110012 -0.683741 385 -0.243428 0.969909 0.004330
-7.654410 -7.110252 -0.680539 401 -0.243428 0.969909 0.004330
-7.654781 -7.110586 -0.677355 389 -0.243428 0.969909 0.004330
-7.655185 -7.110973 -0.674161 365 -0.243428 0.969909 0.004330
-7.654003 -7.109872 -0.670842 359 -0.243428 0.969909 0.004330
-7.653615 -7.109504 -0.667586 337 -0.243428 0.969909 0.004330
-7.654295 -7.110140 -0.664430 341 -0.243428 0.969909 0.004330
-7.654501 -7.110328 -0.661218 365 -0.243428 0.969909 0.004330
-7.654376 -7.110209 -0.657989 377 -0.243428 0.969909 0.004330
-7.653556 -7.109454 -0.654706 355 -0.243428 0.969909 0.004330
-7.652943 -7.108890 -0.651432 351 -0.243428 0.969909 0.004330
-7.653361 -7.109276 -0.648248 337 -0.243428 0.969909 0.004330
-7.654252 -7.110095 -0.645099 343 -0.243428 0.969909 0.004330
-7.654981 -7.110783 -0.641943 371 -0.243428 0.969909 0.004330
-7.654902 -7.110703 -0.638713 355 -0.243428 0.969909 0.004330
-7.655210 -7.110987 -0.635520 357 -0.243428 0.969909 0.004330
-7.655559 -7.111316 -0.632327 353 -0.243428 0.969909 0.004330
-7.654684 -7.110502 -0.629035 351 -0.243428 0.969909 0.004330
-7.656214 -7.111916 -0.625941 347 -0.243428 0.969909 0.004330
-7.657156 -7.112801 -0.622792 365 -0.243428 0.969909 0.004330
-7.656327 -7.112025 -0.619510 361 -0.243428 0.969909 0.004330
-7.654805 -7.110611 -0.616164 355 -0.243428 0.969909 0.004330
-7.653811 -7.109688 -0.612873 361 -0.243428 0.969909 0.004330
-7.654697 -7.110516 -0.609724 387 -0.243428 0.969909 0.004330
-7.655801 -7.111534 -0.606584 397 -0.243428 0.969909 0.004330
-7.655771 -7.111505 -0.603364 397 -0.243428 0.969909 0.004330
-7.654289 -7.110136 -0.600028 379 -0.243428 0.969909 0.004330
-7.653998 -7.109858 -0.596791 385 -0.243428 0.969909 0.004330
-7.653809 -7.109689 -0.593562 393 -0.243428 0.969909 0.004330
-7.654631 -7.110452 -0.590405 389 -0.243428 0.969909 0.004330
-7.655088 -7.110870 -0.587220 405 -0.243428 0.969909 0.004330
-7.654624 -7.110439 -0.583965 411 -0.243428 0.969909 0.004330
-7.654965 -7.110763 -0.580771 409 -0.243428 0.969909 0.004330
-7.653695 -7.109578 -0.577463 381 -0.243428 0.969909 0.004330
-7.654146 -7.110003 -0.574279 383 -0.243428 0.969909 0.004330
-7.655394 -7.111162 -0.571147 387 -0.243428 0.969909 0.004330
-7.656325 -7.112027 -0.567998 407 -0.243428 0.969909 0.004330
-7.656066 -7.111788 -0.564761 425 -0.243428 0.969909 0.004330
-7.655079 -7.110858 -0.561470 425 -0.243428 0.969909 0.004330
-7.655617 -7.111366 -0.558295 393 -0.243428 0.969909 0.004330
-7.655902 -7.111631 -0.555102 383 -0.243428 0.969909 0.004330
-7.655761 -7.111501 -0.551873 401 -0.243428 0.969909 0.004330
-7.655399 -7.111166 -0.548626 411 -0.243428 0.969909 0.004330
-7.654666 -7.110479 -0.545363 395 -0.243428 0.969909 0.004330
-7.654998 -7.110783 -0.542170 387 -0.243428 0.969909 0.004330
-7.655598 -7.111341 -0.538994 393 -0.243428 0.969909 0.004330
-7.654535 -7.110362 -0.535704 385 -0.243428 0.969909 0.004330
-7.653629 -7.109523 -0.532423 383 -0.243428 0.969909 0.004330
-7.654448 -7.110271 -0.529265 393 -0.243428 0.969909 0.004330
-7.654671 -7.110487 -0.526063 393 -0.243428 0.969909 0.004330
-7.655643 -7.111384 -0.522914 407 -0.243428 0.969909 0.004330
-7.656820 -7.112486 -0.519773 401 -0.243428 0.969909 0.004330
-7.656132 -7.111836 -0.516509 421 -0.243428 0.969909 0.004330
-7.655337 -7.111099 -0.513236 423 -0.243428 0.969909 0.004330
-7.655339 -7.111110 -0.510026 417 -0.243428 0.969909 0.004330
-7.655189 -7.110959 -0.506798 411 -0.243428 0.969909 0.004330
-7.655396 -7.111161 -0.503595 419 -0.243428 0.969909 0.004330
-7.655459 -7.111222 -0.500385 413 -0.243428 0.969909 0.004330
-7.655838 -7.111563 -0.497191 413 -0.243428 0.969909 0.004330
-7.655722 -7.111465 -0.493972 407 -0.243428 0.969909 0.004330
-7.655043 -7.110822 -0.490709 415 -0.243428 0.969909 0.004330
-7.655889 -7.111619 -0.487550 423 -0.243428 0.969909 0.004330
-7.656797 -7.112464 -0.484392 425 -0.243428 0.969909 0.004330
-7.655725 -7.111465 -0.481112 391 -0.243428 0.969909 0.004330
-7.655567 -7.111308 -0.477883 397 -0.243428 0.969909 0.004330
-7.656098 -7.111810 -0.474698 403 -0.243428 0.969909 0.004330
-7.656682 -7.112357 -0.471523 401 -0.243428 0.969909 0.004330
-7.656675 -7.112347 -0.468303 423 -0.243428 0.969909 0.004330
-7.655981 -7.111691 -0.465049 429 -0.243428 0.969909 0.004330
-7.656447 -7.112130 -0.461855 409 -0.243428 0.969909 0.004330
-7.656983 -7.112624 -0.458670 413 -0.243428 0.969909 0.004330
-7.655313 -7.111076 -0.455365 401 -0.243428 0.969909 0.004330
-7.654818 -7.110621 -0.452120 377 -0.243428 0.969909 0.004330
-7.655079 -7.110867 -0.448917 389 -0.243428 0.969909 0.004330
-7.655339 -7.111099 -0.445725 417 -0.243428 0.969909 0.004330
-7.656240 -7.111939 -0.442556 403 -0.243428 0.969909 0.004330
-7.655957 -7.111681 -0.439329 403 -0.243428 0.969909 0.004330
-7.655357 -7.111115 -0.436084 407 -0.243428 0.969909 0.004330
-7.655398 -7.111157 -0.432864 405 -0.243428 0.969909 0.004330
-7.655976 -7.111698 -0.429688 403 -0.243428 0.969909 0.004330
-7.656071 -7.111784 -0.426477 403 -0.243428 0.969909 0.004330
-7.655148 -7.110918 -0.423216 399 -0.243428 0.969909 0.004330
-7.655118 -7.110903 -0.419996 401 -0.243428 0.969909 0.004330
-7.654953 -7.110740 -0.416778 375 -0.243428 0.969909 0.004330
-7.654985 -7.110775 -0.413567 363 -0.243428 0.969909 0.004330
-7.656682 -7.112350 -0.410441 369 -0.243428 0.969909 0.004330
-7.656178 -7.111887 -0.407196 373 -0.243428 0.969909 0.004330
-7.655358 -7.111117 -0.403944 383 -0.243428 0.969909 0.004330
-7.655879 -7.111598 -0.400759 405 -0.243428 0.969909 0.004330
-7.655857 -7.111577 -0.397539 375 -0.243428 0.969909 0.004330
-7.656426 -7.112111 -0.394353 373 -0.243428 0.969909 0.004330
-7.657043 -7.112682 -0.391178 399 -0.243428 0.969909 0.004330
-7.656696 -7.112360 -0.387941 395 -0.243428 0.969909 0.004330
-7.656357 -7.112043 -0.384714 379 -0.243428 0.969909 0.004330
-7.657510 -7.113113 -0.381553 387 -0.243428 0.969909 0.004330
-7.657322 -7.112944 -0.378335 371 -0.243428 0.969909 0.004330
-7.657189 -7.112820 -0.375116 379 -0.243428 0.969909 0.004330
-7.657537 -7.113149 -0.371912 355 -0.243428 0.969909 0.004330
-7.657246 -7.112872 -0.368685 339 -0.243428 0.969909 0.004330
-7.655978 -7.111701 -0.365417 351 -0.243428 0.969909 0.004330
-7.655796 -7.111525 -0.362198 371 -0.243428 0.969909 0.004330
-7.656673 -7.112346 -0.359020 383 -0.243428 0.969909 0.004330
-7.657068 -7.112712 -0.355826 373 -0.243428 0.969909 0.004330
-7.657038 -7.112684 -0.352617 379 -0.243428 0.969909 0.004330
-7.657275 -7.112897 -0.349414 415 -0.243428 0.969909 0.004330
-7.658365 -7.113916 -0.346244 393 -0.243428 0.969909 0.004330
-7.661309 -7.112214 -0.690617 403 -0.243428 0.969909 0.004330
-7.661301 -7.112204 -0.687397 407 -0.243428 0.969909 0.004330
-7.661453 -7.112348 -0.684185 401 -0.243428 0.969909 0.004330
-7.661486 -7.112384 -0.680965 401 -0.243428 0.969909 0.004330
-7.661430 -7.112322 -0.677735 363 -0.243428 0.969909 0.004330
-7.661738 -7.112606 -0.674542 359 -0.243428 0.969909 0.004330
-7.663011 -7.113798 -0.671430 383 -0.243428 0.969909 0.004330
-7.662996 -7.113782 -0.668200 353 -0.243428 0.969909 0.004330
-7.662506 -7.113318 -0.664935 365 -0.243428 0.969909 0.004330
-7.661743 -7.112620 -0.661652 363 -0.243428 0.969909 0.004330
-7.660923 -7.111851 -0.658360 357 -0.243428 0.969909 0.004330
-7.660419 -7.111389 -0.655094 349 -0.243428 0.969909 0.004330
-7.661263 -7.112170 -0.651936 333 -0.243428 0.969909 0.004330
-7.661723 -7.112601 -0.648752 327 -0.243428 0.969909 0.004330
-7.660903 -7.111832 -0.645470 345 -0.243428 0.969909 0.004330
-7.662008 -7.112863 -0.642329 337 -0.243428 0.969909 0.004330
-7.662309 -7.113141 -0.639136 349 -0.243428 0.969909 0.004330
-7.660857 -7.111784 -0.635800 343 -0.243428 0.969909 0.004330
-7.661150 -7.112069 -0.632597 347 -0.243428 0.969909 0.004330
-7.661767 -7.112640 -0.629431 347 -0.243428 0.969909 0.004330
-7.660512 -7.111468 -0.626103 347 -0.243428 0.969909 0.004330
-7.660387 -7.111350 -0.622874 335 -0.243428 0.969909 0.004330
-7.660901 -7.111826 -0.619689 357 -0.243428 0.969909 0.004330
-7.661242 -7.112149 -0.616496 359 -0.243428 0.969909 0.004330
-7.661706 -7.112573 -0.613311 371 -0.243428 0.969909 0.004330
-7.662907 -7.113694 -0.610190 395 -0.243428 0.969909 0.004330
-7.661922 -7.112778 -0.606889 397 -0.243428 0.969909 0.004330
-7.660447 -7.111401 -0.603553 389 -0.243428 0.969909 0.004330
-7.661695 -7.112575 -0.600431 381 -0.243428 0.969909 0.004330
-7.661878 -7.112743 -0.597219 393 -0.243428 0.969909 0.004330
-7.661799 -7.112663 -0.594000 391 -0.243428 0.969909 0.004330
-7.662092 -7.112935 -0.590797 411 -0.243428 0.969909 0.004330
-7.662273 -7.113104 -0.587595 417 -0.243428 0.969909 0.004330
-7.663309 -7.114065 -0.584446 403 -0.243428 0.969909 0.004330
-7.663175 -7.113941 -0.581217 403 -0.243428 0.969909 0.004330
-7.662608 -7.113414 -0.577952 395 -0.243428 0.969909 0.004330
-7.662459 -7.113277 -0.574723 395 -0.243428 0.969909 0.004330
-7.662269 -7.113094 -0.571485 381 -0.243428 0.969909 0.004330
-7.661379 -7.112267 -0.568203 397 -0.243428 0.969909 0.004330
-7.660267 -7.111237 -0.564904 409 -0.243428 0.969909 0.004330
-7.661088 -7.112000 -0.561746 409 -0.243428 0.969909 0.004330
-7.662984 -7.113759 -0.558658 415 -0.243428 0.969909 0.004330
-7.662244 -7.113080 -0.555395 401 -0.243428 0.969909 0.004330
-7.662473 -7.113287 -0.552183 411 -0.243428 0.969909 0.004330
-7.663074 -7.113846 -0.549007 415 -0.243428 0.969909 0.004330
-7.661741 -7.112611 -0.545699 405 -0.243428 0.969909 0.004330
-7.662191 -7.113023 -0.542505 387 -0.243428 0.969909 0.004330
-7.662414 -7.113237 -0.539303 373 -0.243428 0.969909 0.004330
-7.662319 -7.113144 -0.536084 389 -0.243428 0.969909 0.004330
-7.663133 -7.113901 -0.532916 397 -0.243428 0.969909 0.004330
-7.662653 -7.113458 -0.529670 387 -0.243428 0.969909 0.004330
-7.661967 -7.112822 -0.526397 401 -0.243428 0.969909 0.004330
-7.662677 -7.113470 -0.523230 419 -0.243428 0.969909 0.004330
-7.663380 -7.114124 -0.520054 425 -0.243428 0.969909 0.004330
-7.663547 -7.114281 -0.516852 423 -0.243428 0.969909 0.004330
-7.662806 -7.113588 -0.513579 415 -0.243428 0.969909 0.004330
