778
-7.540386 -7.053736 -0.380373 1037 0.282458 0.959280 0.000000
-7.539401 -7.052820 -0.377152 1035 0.282458 0.959280 0.000000
-7.538896 -7.052344 -0.373957 1001 0.282458 0.959280 0.000000
-7.538116 -7.051620 -0.370744 1021 0.282458 0.959280 0.000000
-7.538465 -7.051950 -0.367580 1015 0.282458 0.959280 0.000000
-7.539659 -7.053064 -0.364469 1009 0.282458 0.959280 0.000000
-7.539256 -7.052683 -0.361273 1011 0.282458 0.959280 0.000000
-7.539074 -7.052507 -0.358094 983 0.282458 0.959280 0.000000
-7.539636 -7.053034 -0.354939 975 0.282458 0.959280 0.000000
-7.539646 -7.053051 -0.351769 1003 0.282458 0.959280 0.000000
-7.538707 -7.052174 -0.348558 989 0.282458 0.959280 0.000000
-7.538464 -7.051947 -0.345370 979 0.282458 0.959280 0.000000
-7.539444 -7.052864 -0.342241 989 0.282458 0.959280 0.000000
-7.539310 -7.052739 -0.339062 963 0.282458 0.959280 0.000000
-7.539003 -7.052449 -0.335875 971 0.282458 0.959280 0.000000
-7.539660 -7.053065 -0.332728 991 0.282458 0.959280 0.000000
-7.539573 -7.052978 -0.329549 981 0.282458 0.959280 0.000000
-7.538681 -7.052138 -0.326337 987 0.282458 0.959280 0.000000
-7.538699 -7.052162 -0.323167 973 0.282458 0.959280 0.000000
-7.539299 -7.052720 -0.320021 961 0.282458 0.959280 0.000000
-7.538993 -7.052443 -0.316834 971 0.282458 0.959280 0.000000
-7.538748 -7.052203 -0.313646 983 0.282458 0.959280 0.000000
-7.542876 -7.051336 -0.707881 1041 0.282458 0.959280 0.000000
-7.541857 -7.050381 -0.704600 1035 0.282458 0.959280 0.000000
-7.541528 -7.050086 -0.701383 1039 0.282458 0.959280 0.000000
-7.542058 -7.050573 -0.698248 1029 0.282458 0.959280 0.000000
-7.542099 -7.050615 -0.695068 1031 0.282458 0.959280 0.000000
-7.541341 -7.049910 -0.691815 1011 0.282458 0.959280 0.000000
-7.541224 -7.049798 -0.688626 1017 0.282458 0.959280 0.000000
-7.541760 -7.050292 -0.685491 1031 0.282458 0.959280 0.000000
-7.542330 -7.050826 -0.682355 1021 0.282458 0.959280 0.000000
-7.542221 -7.050721 -0.679156 1021 0.282458 0.959280 0.000000
-7.541511 -7.050066 -0.675913 1015 0.282458 0.959280 0.000000
-7.541496 -7.050051 -0.672733 1005 0.282458 0.959280 0.000000
-7.541805 -7.050334 -0.669570 1007 0.282458 0.959280 0.000000
-7.541798 -7.050324 -0.666390 1005 0.282458 0.959280 0.000000
-7.540970 -7.049563 -0.663138 999 0.282458 0.959280 0.000000
-7.540915 -7.049501 -0.659948 1007 0.282458 0.959280 0.000000
-7.542234 -7.050730 -0.656876 1025 0.282458 0.959280 0.000000
-7.542955 -7.051411 -0.653759 1025 0.282458 0.959280 0.000000
-7.542679 -7.051146 -0.650551 1011 0.282458 0.959280 0.000000
-7.542601 -7.051079 -0.647362 1007 0.282458 0.959280 0.000000
-7.541726 -7.050265 -0.644100 1005 0.282458 0.959280 0.000000
-7.541490 -7.050045 -0.640902 995 0.282458 0.959280 0.000000
-7.541426 -7.049977 -0.637713 1011 0.282458 0.959280 0.000000
-7.541128 -7.049707 -0.634505 1017 0.282458 0.959280 0.000000
-7.542076 -7.050584 -0.631406 1033 0.282458 0.959280 0.000000
-7.541840 -7.050364 -0.628199 1035 0.282458 0.959280 0.000000
-7.541431 -7.049991 -0.624992 1003 0.282458 0.959280 0.000000
-7.542530 -7.051016 -0.621892 1009 0.282458 0.959280 0.000000
-7.542405 -7.050899 -0.618703 1005 0.282458 0.959280 0.000000
-7.542594 -7.051074 -0.615541 1019 0.282458 0.959280 0.000000
-7.542523 -7.051000 -0.612352 1031 0.282458 0.959280 0.000000
-7.541481 -7.050026 -0.609082 1039 0.282458 0.959280 0.000000
-7.541822 -7.050349 -0.605928 1023 0.282458 0.959280 0.000000
-7.542164 -7.050672 -0.602775 1015 0.282458 0.959280 0.000000
-7.542030 -7.050547 -0.599586 1023 0.282458 0.959280 0.000000
-7.541256 -7.049816 -0.596343 1009 0.282458 0.959280 0.000000
-7.540848 -7.049443 -0.593137 1011 0.282458 0.959280 0.000000
-7.541780 -7.050307 -0.590028 1021 0.282458 0.959280 0.000000
-7.542499 -7.050975 -0.586901 1031 0.282458 0.959280 0.000000
-7.542145 -7.050646 -0.583695 1017 0.282458 0.959280 0.000000
-7.542217 -7.050714 -0.580514 1033 0.282458 0.959280 0.000000
-7.542550 -7.051030 -0.577361 1045 0.282458 0.959280 0.000000
-7.542093 -7.050606 -0.574145 1033 0.282458 0.959279 0.000000
-7.541958 -7.050467 -0.570956 1015 0.282458 0.959280 0.000000
-7.542876 -7.051334 -0.567847 1029 0.282458 0.959280 0.000000
-7.542893 -7.051343 -0.564667 1011 0.282458 0.959280 0.000000
-7.542484 -7.050971 -0.561461 1031 0.282458 0.959280 0.000000
-7.542025 -7.050531 -0.558245 1011 0.282458 0.959280 0.000000
-7.541822 -7.050351 -0.555047 1013 0.282458 0.959280 0.000000
-7.541412 -7.049964 -0.551841 1017 0.282458 0.959280 0.000000
-7.541468 -7.050019 -0.548670 1027 0.282458 0.959280 0.000000
-7.542021 -7.050526 -0.545525 1039 0.282458 0.959280 0.000000
-7.542403 -7.050894 -0.542371 1041 0.282458 0.959280 0.000000
-7.541985 -7.050501 -0.539165 1027 0.282458 0.959280 0.000000
-7.541788 -7.050313 -0.535977 1029 0.282458 0.959280 0.000000
-7.542223 -7.050725 -0.532823 1041 0.282458 0.959280 0.000000
-7.542768 -7.051226 -0.529688 1039 0.282458 0.959280 0.000000
-7.542881 -7.051339 -0.526516 1023 0.282458 0.959280 0.000000
-7.542353 -7.050844 -0.523301 1017 0.282458 0.959280 0.000000
-7.542257 -7.050750 -0.520112 1015 0.282458 0.959280 0.000000
-7.542211 -7.050709 -0.516932 1007 0.282458 0.959280 0.000000
-7.541834 -7.050362 -0.513726 1021 0.282458 0.959280 0.000000
-7.542001 -7.050519 -0.510564 1031 0.282458 0.959280 0.000000
-7.541362 -7.049922 -0.507340 1029 0.282458 0.959280 0.000000
-7.541157 -7.049726 -0.504152 1025 0.282458 0.959280 0.000000
-7.542169 -7.050668 -0.501042 1045 0.282458 0.959280 0.000000
-7.541861 -7.050377 -0.497845 1031 0.282458 0.959280 0.000000
-7.540947 -7.049532 -0.494604 1015 0.282458 0.959280 0.000000
-7.541698 -7.050225 -0.491477 1033 0.282458 0.959280 0.000000
-7.542180 -7.050674 -0.488332 1023 0.282458 0.959280 0.000000
-7.542174 -7.050679 -0.485152 1031 0.282458 0.959280 0.000000
-7.542387 -7.050873 -0.481990 1029 0.282458 0.959280 0.000000
-7.542704 -7.051164 -0.478827 1025 0.282458 0.959280 0.000000
-7.542491 -7.050962 -0.475639 1035 0.282458 0.959280 0.000000
-7.542643 -7.051106 -0.472467 1045 0.282458 0.959280 0.000000
-7.542478 -7.050957 -0.469289 1023 0.282458 0.959280 0.000000
-7.542053 -7.050558 -0.466083 1021 0.282458 0.959280 0.000000
-7.542250 -7.050739 -0.462921 1015 0.282458 0.959280 0.000000
-7.542347 -7.050840 -0.459750 1005 0.282458 0.959280 0.000000
-7.542987 -7.051430 -0.456604 1019 0.282458 0.959280 0.000000
-7.543461 -7.051873 -0.453459 1029 0.282458 0.959280 0.000000
-7.542484 -7.050964 -0.450228 1027 0.282458 0.959280 0.000000
-7.542003 -7.050507 -0.447023 1017 0.282458 0.959280 0.000000
-7.541995 -7.050497 -0.443843 1017 0.282458 0.959280 0.000000
-7.541823 -7.050342 -0.440654 1017 0.282458 0.959280 0.000000
-7.542021 -7.050523 -0.437492 1013 0.282458 0.959280 0.000000
-7.541896 -7.050419 -0.434313 1021 0.282458 0.959280 0.000000
-7.542260 -7.050747 -0.431150 1029 0.282458 0.959280 0.000000
-7.542624 -7.051089 -0.427996 1033 0.282458 0.959280 0.000000
-7.542293 -7.050779 -0.424809 1035 0.282458 0.959280 0.000000
-7.542105 -7.050611 -0.421621 1017 0.282458 0.959279 0.000000
-7.542201 -7.050697 -0.418450 1019 0.282458 0.959280 0.000000
-7.541862 -7.050381 -0.415253 1021 0.282458 0.959280 0.000000
-7.541524 -7.050065 -0.412066 1009 0.282458 0.959280 0.000000
-7.541509 -7.050049 -0.408887 1005 0.282458 0.959280 0.000000
-7.541431 -7.049983 -0.405707 1015 0.282458 0.959280 0.000000
-7.541739 -7.050266 -0.402544 1007 0.282458 0.959280 0.000000
-7.542617 -7.051087 -0.399416 1021 0.282458 0.959280 0.000000
-7.543029 -7.051467 -0.396262 1025 0.282458 0.959280 0.000000
-7.542469 -7.050947 -0.393057 1001 0.282458 0.959280 0.000000
-7.542185 -7.050675 -0.389870 997 0.282458 0.959280 0.000000
-7.542059 -7.050556 -0.386691 1001 0.282458 0.959280 0.000000
-7.541974 -7.050484 -0.383512 1003 0.282458 0.959280 0.000000
-7.542331 -7.050820 -0.380358 1015 0.282458 0.959280 0.000000
-7.542567 -7.051033 -0.377186 1017 0.282458 0.959280 0.000000
-7.542806 -7.051260 -0.374023 1011 0.282458 0.959280 0.000000
-7.542996 -7.051436 -0.370862 1005 0.282458 0.959280 0.000000
-7.543235 -7.051663 -0.367699 1019 0.282458 0.959280 0.000000
-7.543748 -7.052139 -0.364544 1015 0.282458 0.959280 0.000000
-7.543869 -7.052257 -0.361373 1017 0.282458 0.959280 0.000000
-7.542504 -7.050984 -0.358136 991 0.282458 0.959280 0.000000
-7.541565 -7.050106 -0.354925 967 0.282458 0.959280 0.000000
-7.542766 -7.051226 -0.351803 969 0.282458 0.959280 0.000000
-7.542727 -7.051192 -0.348624 975 0.282458 0.959280 0.000000
-7.542594 -7.051067 -0.345445 985 0.282458 0.959280 0.000000
-7.543154 -7.051580 -0.342299 973 0.282458 0.959280 0.000000
-7.542952 -7.051400 -0.339111 955 0.282458 0.959280 0.000000
-7.542921 -7.051371 -0.335941 971 0.282458 0.959280 0.000000
-7.542139 -7.050633 -0.332729 967 0.282458 0.959280 0.000000
-7.542149 -7.050650 -0.329559 967 0.282458 0.959280 0.000000
-7.542813 -7.051272 -0.326412 979 0.282458 0.959280 0.000000
-7.542567 -7.051032 -0.323224 969 0.282458 0.959280 0.000000
-7.542633 -7.051093 -0.320054 969 0.282458 0.959280 0.000000
-7.542752 -7.051212 -0.316893 971 0.282458 0.959280 0.000000
-7.542658 -7.051119 -0.313713 969 0.282458 0.959280 0.000000
-7.545757 -7.049537 -0.707946 1033 0.282458 0.959280 0.000000
-7.545648 -7.049432 -0.704747 1041 0.282458 0.959280 0.000000
-7.545427 -7.049224 -0.701539 1029 0.282458 0.959280 0.000000
-7.545626 -7.049419 -0.698377 1013 0.282458 0.959280 0.000000
-7.545729 -7.049512 -0.695196 1029 0.282458 0.959280 0.000000
-7.545034 -7.048856 -0.691953 1009 0.282458 0.959280 0.000000
-7.544965 -7.048796 -0.688763 1023 0.282458 0.959280 0.000000
-7.545652 -7.049438 -0.685637 1033 0.282458 0.959280 0.000000
-7.545322 -7.049129 -0.682420 1027 0.282458 0.959280 0.000000
-7.544557 -7.048417 -0.679167 1015 0.282458 0.959280 0.000000
-7.545032 -7.048862 -0.676032 1009 0.282458 0.959280 0.000000
-7.545078 -7.048895 -0.672852 991 0.282458 0.959280 0.000000
-7.545002 -7.048829 -0.669662 1005 0.282458 0.959280 0.000000
-7.545263 -7.049075 -0.666500 1013 0.282458 0.959280 0.000000
-7.545517 -7.049314 -0.663337 1009 0.282458 0.959280 0.000000
-7.545872 -7.049636 -0.660184 1013 0.282458 0.959280 0.000000
-7.545534 -7.049320 -0.656967 1009 0.282458 0.959279 0.000000
-7.545250 -7.049062 -0.653760 1007 0.282458 0.959280 0.000000
-7.545228 -7.049040 -0.650580 993 0.282458 0.959280 0.000000
-7.545916 -7.049682 -0.647453 999 0.282458 0.959280 0.000000
-7.545830 -7.049609 -0.644264 1011 0.282458 0.959280 0.000000
-7.544859 -7.048692 -0.640993 1001 0.282458 0.959280 0.000000
-7.544892 -7.048728 -0.637813 1001 0.282458 0.959280 0.000000
-7.546093 -7.049849 -0.634731 1029 0.282458 0.959280 0.000000
-7.546181 -7.049928 -0.631560 1021 0.282458 0.959280 0.000000
-7.546055 -7.049810 -0.628361 1037 0.282458 0.959280 0.000000
-7.546507 -7.050235 -0.625217 1005 0.282458 0.959280 0.000000
-7.546435 -7.050161 -0.622028 1015 0.282458 0.959280 0.000000
-7.545712 -7.049495 -0.618794 1007 0.282458 0.959280 0.000000
-7.545901 -7.049670 -0.615623 1019 0.282458 0.959280 0.000000
-7.545453 -7.049253 -0.612407 1019 0.282458 0.959280 0.000000
-7.545745 -7.049523 -0.609244 1011 0.282458 0.959280 0.000000
-7.545928 -7.049693 -0.606082 1013 0.282458 0.959280 0.000000
-7.544996 -7.048820 -0.602821 1017 0.282458 0.959280 0.000000
-7.545124 -7.048946 -0.599649 1011 0.282458 0.959280 0.000000
-7.545472 -7.049262 -0.596496 1003 0.282458 0.959280 0.000000
-7.545710 -7.049489 -0.593334 1013 0.282458 0.959280 0.000000
-7.545893 -7.049658 -0.590172 1021 0.282458 0.959280 0.000000
-7.546131 -7.049885 -0.587010 1019 0.282458 0.959280 0.000000
-7.545934 -7.049696 -0.583812 1019 0.282458 0.959280 0.000000
-7.546062 -7.049822 -0.580640 1021 0.282458 0.959280 0.000000
-7.545967 -7.049728 -0.577451 1027 0.282458 0.959280 0.000000
-7.545620 -7.049406 -0.574244 1009 0.282458 0.959280 0.000000
-7.546009 -7.049767 -0.571091 1019 0.282458 0.959280 0.000000
-7.545868 -7.049636 -0.567902 1021 0.282458 0.959280 0.000000
-7.545781 -7.049550 -0.564713 1001 0.282458 0.959280 0.000000
-7.546169 -7.049911 -0.561559 1009 0.282458 0.959280 0.000000
-7.545760 -7.049538 -0.558353 1021 0.282458 0.959280 0.000000
-7.546092 -7.049840 -0.555199 1031 0.282458 0.959280 0.000000
-7.546487 -7.050208 -0.552046 1039 0.282458 0.959280 0.000000
-7.545802 -7.049573 -0.548812 1033 0.282458 0.959280 0.000000
-7.545171 -7.048982 -0.545588 1011 0.282458 0.959280 0.000000
-7.544698 -7.048545 -0.542382 1017 0.282458 0.959280 0.000000
-7.544714 -7.048554 -0.539202 1009 0.282458 0.959280 0.000000
-7.545316 -7.049113 -0.536066 1021 0.282458 0.959280 0.000000
-7.545269 -7.049072 -0.532877 1017 0.282458 0.959280 0.000000
-7.545223 -7.049030 -0.529697 1005 0.282458 0.959280 0.000000
-7.545926 -7.049685 -0.526570 1017 0.282458 0.959280 0.000000
-7.546307 -7.050040 -0.523417 1033 0.282458 0.959280 0.000000
-7.546371 -7.050100 -0.520236 1029 0.282458 0.959280 0.000000
-7.546268 -7.050001 -0.517057 1025 0.282458 0.959280 0.000000
-7.545527 -7.049308 -0.513824 1015 0.282458 0.959280 0.000000
-7.545640 -7.049421 -0.510653 1031 0.282458 0.959280 0.000000
-7.545206 -7.049016 -0.507447 1015 0.282458 0.959280 0.000000
-7.544787 -7.048623 -0.504240 1029 0.282458 0.959280 0.000000
-7.545270 -7.049073 -0.501096 1035 0.282458 0.959280 0.000000
-7.546077 -7.049823 -0.497968 1047 0.282458 0.959280 0.000000
-7.545699 -7.049476 -0.494772 1033 0.282458 0.959280 0.000000
-7.545012 -7.048826 -0.491548 1019 0.282458 0.959280 0.000000
-7.544950 -7.048773 -0.488369 1013 0.282458 0.959280 0.000000
-7.545702 -7.049479 -0.485231 1015 0.282458 0.959280 0.000000
-7.546453 -7.050172 -0.482104 1041 0.282458 0.959280 0.000000
-7.546225 -7.049972 -0.478906 1047 0.282458 0.959280 0.000000
-7.546391 -7.050114 -0.475745 1027 0.282458 0.959280 0.000000
-7.546763 -7.050463 -0.472591 1029 0.282458 0.959280 0.000000
-7.546157 -7.049905 -0.469377 1013 0.282458 0.959280 0.000000
-7.545793 -7.049555 -0.466170 1027 0.282458 0.959280 0.000000
-7.546149 -7.049891 -0.463017 1023 0.282458 0.959280 0.000000
-7.546894 -7.050591 -0.459879 1007 0.282458 0.959280 0.000000
-7.546838 -7.050530 -0.456700 1001 0.282458 0.959280 0.000000
-7.546817 -7.050521 -0.453520 1025 0.282458 0.959280 0.000000
-7.545901 -7.049662 -0.450299 1015 0.282458 0.959280 0.000000
-7.545522 -7.049301 -0.447092 1019 0.282458 0.959280 0.000000
-7.546479 -7.050198 -0.443973 1015 0.282458 0.959280 0.000000
-7.546299 -7.050036 -0.440785 1013 0.282458 0.959280 0.000000
-7.545597 -7.049375 -0.437571 1013 0.282458 0.959280 0.000000
-7.545961 -7.049717 -0.434418 1015 0.282458 0.959280 0.000000
-7.546428 -7.050154 -0.431263 1031 0.282458 0.959280 0.000000
-7.546311 -7.050043 -0.428084 1025 0.282458 0.959280 0.000000
-7.546336 -7.050073 -0.424904 1023 0.282458 0.959280 0.000000
-7.546651 -7.050363 -0.421741 1013 0.282458 0.959280 0.000000
-7.546526 -7.050244 -0.418562 1021 0.282458 0.959280 0.000000
-7.546449 -7.050178 -0.415383 1029 0.282458 0.959280 0.000000
-7.546496 -7.050212 -0.412212 1015 0.282458 0.959280 0.000000
-7.546419 -7.050146 -0.409023 1007 0.282458 0.959280 0.000000
-7.546183 -7.049926 -0.405835 1013 0.282458 0.959280 0.000000
-7.546057 -7.049807 -0.402656 1001 0.282458 0.959280 0.000000
-7.545781 -7.049542 -0.399469 1011 0.282458 0.959280 0.000000
-7.545009 -7.048824 -0.396256 995 0.282458 0.959280 0.000000
-7.545996 -7.049747 -0.393126 1013 0.282458 0.959280 0.000000
-7.546456 -7.050179 -0.389972 1007 0.282458 0.959280 0.000000
-7.547293 -7.050953 -0.386834 1027 0.282458 0.959280 0.000000
-7.547421 -7.051079 -0.383673 1033 0.282458 0.959280 0.000000
-7.546380 -7.050105 -0.380442 1003 0.282458 0.959280 0.000000
-7.546846 -7.050543 -0.377288 1019 0.282458 0.959280 0.000000
-7.546706 -7.050412 -0.374109 1027 0.282458 0.959279 0.000000
-7.546303 -7.050032 -0.370913 1023 0.282458 0.959279 0.000000
-7.546542 -7.050259 -0.367751 999 0.282458 0.959280 0.000000
-7.546732 -7.050435 -0.364579 993 0.282458 0.959280 0.000000
-7.546488 -7.050209 -0.361401 993 0.282458 0.959280 0.000000
-7.546781 -7.050479 -0.358238 989 0.282458 0.959280 0.000000
-7.546853 -7.050547 -0.355067 973 0.282458 0.959280 0.000000
-7.546933 -7.050620 -0.351887 977 0.282458 0.959280 0.000000
-7.546627 -7.050343 -0.348699 957 0.282458 0.959280 0.000000
-7.547022 -7.050710 -0.345546 969 0.282458 0.959280 0.000000
-7.546991 -7.050682 -0.342366 959 0.282458 0.959280 0.000000
-7.546266 -7.050002 -0.339162 953 0.282458 0.959280 0.000000
-7.545904 -7.049668 -0.335976 957 0.282458 0.959280 0.000000
-7.546677 -7.050377 -0.332829 965 0.282458 0.959280 0.000000
-7.546482 -7.050204 -0.329650 959 0.282458 0.959280 0.000000
-7.545700 -7.049466 -0.326438 963 0.282458 0.959280 0.000000
-7.546144 -7.049884 -0.323283 967 0.282458 0.959280 0.000000
-7.546152 -7.049887 -0.320113 961 0.282458 0.959280 0.000000
-7.545523 -7.049311 -0.316909 955 0.282458 0.959280 0.000000
-7.546075 -7.049817 -0.313764 961 0.282458 0.959280 0.000000
-7.547288 -7.046814 -0.707893 1009 0.282458 0.959280 0.000000
-7.548616 -7.048064 -0.704830 1021 0.282458 0.959280 0.000000
-7.548348 -7.047804 -0.701622 1019 0.282458 0.959280 0.000000
-7.547701 -7.047200 -0.698379 1003 0.282458 0.959280 0.000000
-7.548286 -7.047747 -0.695243 1013 0.282458 0.959280 0.000000
-7.548753 -7.048184 -0.692098 1015 0.282458 0.959280 0.000000
-7.549062 -7.048469 -0.688945 1013 0.282458 0.959280 0.000000
-7.548841 -7.048260 -0.685737 1005 0.282458 0.959280 0.000000
-7.548890 -7.048309 -0.682557 1017 0.282458 0.959280 0.000000
-7.549570 -7.048944 -0.679430 1023 0.282458 0.959280 0.000000
-7.549509 -7.048891 -0.676241 1009 0.282458 0.959280 0.000000
-7.548633 -7.048077 -0.672979 987 0.282458 0.959280 0.000000
-7.548143 -7.047613 -0.669754 1005 0.282458 0.959280 0.000000
-7.548501 -7.047949 -0.666600 1031 0.282458 0.959280 0.000000
-7.549393 -7.048782 -0.663492 1037 0.282458 0.959280 0.000000
-7.549219 -7.048612 -0.660293 1017 0.282458 0.959280 0.000000
-7.548409 -7.047863 -0.657041 989 0.282458 0.959280 0.000000
-7.547801 -7.047291 -0.653806 981 0.282458 0.959280 0.000000
-7.548165 -7.047633 -0.650653 999 0.282458 0.959280 0.000000
-7.549002 -7.048408 -0.647535 987 0.282458 0.959280 0.000000
-7.549888 -7.049235 -0.644426 1003 0.282458 0.959280 0.000000
-7.550395 -7.049719 -0.641282 1003 0.282458 0.959280 0.000000
-7.549685 -7.049051 -0.638038 1009 0.282458 0.959280 0.000000
-7.549235 -7.048633 -0.634822 1009 0.282458 0.959280 0.000000
-7.549315 -7.048706 -0.631642 1007 0.282458 0.959280 0.000000
-7.549513 -7.048888 -0.628480 1029 0.282458 0.959280 0.000000
-7.548527 -7.047972 -0.625219 1001 0.282458 0.959280 0.000000
-7.548986 -7.048403 -0.622074 1003 0.282458 0.959280 0.000000
-7.549603 -7.048975 -0.618939 989 0.282458 0.959280 0.000000
-7.548988 -7.048397 -0.615704 1005 0.282458 0.959280 0.000000
-7.549336 -7.048726 -0.612551 1019 0.282458 0.959280 0.000000
-7.549417 -7.048800 -0.609370 1021 0.282458 0.959280 0.000000
-7.548919 -7.048330 -0.606155 1009 0.282458 0.959280 0.000000
-7.548889 -7.048301 -0.602965 1011 0.282458 0.959280 0.000000
-7.548906 -7.048324 -0.599785 1015 0.282458 0.959280 0.000000
-7.548606 -7.048039 -0.596588 1011 0.282458 0.959280 0.000000
-7.547944 -7.047423 -0.593354 995 0.282458 0.959280 0.000000
-7.547913 -7.047395 -0.590164 1013 0.282458 0.959280 0.000000
-7.548570 -7.048012 -0.587038 1013 0.282458 0.959280 0.000000
-7.548752 -7.048181 -0.583866 1027 0.282458 0.959280 0.000000
-7.548776 -7.048196 -0.580685 1009 0.282458 0.959280 0.000000
-7.549646 -7.049010 -0.577567 1015 0.282458 0.959280 0.000000
-7.549877 -7.049232 -0.574405 1025 0.282458 0.959280 0.000000
-7.549418 -7.048793 -0.571189 1023 0.282458 0.959280 0.000000
-7.548686 -7.048121 -0.567956 997 0.282458 0.959280 0.000000
-7.548441 -7.047881 -0.564758 977 0.282458 0.959280 0.000000
-7.548079 -7.047546 -0.561552 983 0.282458 0.959280 0.000000
-7.548040 -7.047510 -0.558372 995 0.282458 0.959280 0.000000
-7.548910 -7.048325 -0.555254 1013 0.282458 0.959280 0.000000
-7.549139 -7.048532 -0.552091 1019 0.282458 0.959280 0.000000
-7.548888 -7.048300 -0.548894 1009 0.282458 0.959280 0.000000
-7.548368 -7.047811 -0.545669 1007 0.282458 0.959280 0.000000
-7.548321 -7.047770 -0.542489 1005 0.282458 0.959280 0.000000
-7.549026 -7.048438 -0.539362 1017 0.282458 0.959280 0.000000
-7.549088 -7.048485 -0.536182 1015 0.282458 0.959280 0.000000
-7.547977 -7.047454 -0.532922 999 0.282458 0.959280 0.000000
-7.547772 -7.047259 -0.529734 1005 0.282458 0.959279 0.000000
-7.548745 -7.048170 -0.526625 1015 0.282458 0.959280 0.000000
-7.548856 -7.048268 -0.523453 1017 0.282458 0.959280 0.000000
-7.549346 -7.048725 -0.520299 1019 0.282458 0.959280 0.000000
-7.549672 -7.049035 -0.517145 1015 0.282458 0.959280 0.000000
-7.549192 -7.048593 -0.513930 1013 0.282458 0.959279 0.000000
-7.549041 -7.048441 -0.510741 1031 0.282458 0.959280 0.000000
-7.548561 -7.047998 -0.507536 1015 0.282458 0.959280 0.000000
-7.548995 -7.048396 -0.504382 1019 0.282458 0.959280 0.000000
-7.549905 -7.049256 -0.501263 1031 0.282458 0.959280 0.000000
-7.549960 -7.049296 -0.498082 1043 0.282458 0.959280 0.000000
-7.548841 -7.048260 -0.494833 1001 0.282458 0.959280 0.000000
-7.548834 -7.048250 -0.491653 1005 0.282458 0.959280 0.000000
-7.548567 -7.048005 -0.488465 1007 0.282458 0.959280 0.000000
-7.548354 -7.047803 -0.485267 1015 0.282458 0.959280 0.000000
-7.548465 -7.047903 -0.482096 1015 0.282458 0.959280 0.000000
-7.548727 -7.048148 -0.478934 1027 0.282458 0.959280 0.000000
-7.548775 -7.048197 -0.475763 1043 0.282458 0.959280 0.000000
-7.548293 -7.047740 -0.472558 1021 0.282458 0.959280 0.000000
-7.548611 -7.048044 -0.469394 1019 0.282458 0.959280 0.000000
-7.548928 -7.048334 -0.466241 1019 0.282458 0.959280 0.000000
-7.548384 -7.047827 -0.463026 995 0.282458 0.959280 0.000000
-7.549396 -7.048769 -0.459907 997 0.282458 0.959280 0.000000
-7.550352 -7.049666 -0.456788 1005 0.282458 0.959280 0.000000
-7.549539 -7.048903 -0.453565 999 0.282458 0.959280 0.000000
-7.549580 -7.048944 -0.450385 1007 0.282458 0.959280 0.000000
-7.550103 -7.049440 -0.447240 1001 0.282458 0.959280 0.000000
-7.550680 -7.049979 -0.444094 1011 0.282458 0.959280 0.000000
-7.550191 -7.049516 -0.440889 1019 0.282458 0.959280 0.000000
-7.549757 -7.049110 -0.437683 1029 0.282458 0.959279 0.000000
-7.549688 -7.049051 -0.434503 1017 0.282458 0.959279 0.000000
-7.549349 -7.048735 -0.431306 1019 0.282458 0.959280 0.000000
-7.549019 -7.048426 -0.428120 1003 0.282458 0.959280 0.000000
-7.548955 -7.048357 -0.424940 1011 0.282458 0.959280 0.000000
-7.549250 -7.048643 -0.421777 1001 0.282458 0.959280 0.000000
-7.549827 -7.049182 -0.418632 1019 0.282458 0.959279 0.000000
-7.550017 -7.049358 -0.415460 1017 0.282458 0.959280 0.000000
-7.550174 -7.049494 -0.412288 1005 0.282458 0.959280 0.000000
-7.550682 -7.049977 -0.409143 1021 0.282458 0.959280 0.000000
-7.551142 -7.050409 -0.405989 1023 0.282458 0.959280 0.000000
-7.550699 -7.049983 -0.402793 1021 0.282458 0.959280 0.000000
-7.549238 -7.048620 -0.399537 1007 0.282458 0.959280 0.000000
-7.548790 -7.048203 -0.396341 1003 0.282458 0.959280 0.000000
-7.549289 -7.048679 -0.393186 1027 0.282458 0.959280 0.000000
-7.549274 -7.048663 -0.390016 1013 0.282458 0.959280 0.000000
-7.549203 -7.048589 -0.386837 1007 0.282458 0.959279 0.000000
-7.549924 -7.049270 -0.383690 1009 0.282458 0.959280 0.000000
-7.550430 -7.049739 -0.380535 1015 0.282458 0.959280 0.000000
-7.550194 -7.049519 -0.377347 1025 0.282458 0.959279 0.000000
-7.549847 -7.049196 -0.374160 1015 0.282458 0.959280 0.000000
-7.549390 -7.048772 -0.370965 1003 0.282458 0.959280 0.000000
-7.549572 -7.048942 -0.367793 995 0.282458 0.959280 0.000000
-7.549653 -7.049015 -0.364622 979 0.282458 0.959280 0.000000
-7.549787 -7.049132 -0.361451 975 0.282458 0.959280 0.000000
-7.550397 -7.049711 -0.358305 993 0.282458 0.959280 0.000000
-7.550744 -7.050027 -0.355142 987 0.282458 0.959280 0.000000
-7.550012 -7.049355 -0.351938 983 0.282458 0.959280 0.000000
-7.549934 -7.049274 -0.348759 967 0.282458 0.959280 0.000000
-7.550385 -7.049699 -0.345605 961 0.282458 0.959280 0.000000
-7.549810 -7.049167 -0.342400 949 0.282458 0.959280 0.000000
-7.549036 -7.048435 -0.339197 947 0.282458 0.959280 0.000000
-7.549156 -7.048553 -0.336026 965 0.282458 0.959280 0.000000
-7.549757 -7.049112 -0.332870 979 0.282458 0.959280 0.000000
-7.549457 -7.048827 -0.329683 977 0.282458 0.959280 0.000000
-7.548993 -7.048397 -0.326497 965 0.282458 0.959280 0.000000
-7.548528 -7.047966 -0.323302 959 0.282458 0.959280 0.000000
-7.549026 -7.048429 -0.320147 955 0.282458 0.959280 0.000000
-7.549366 -7.048738 -0.316984 967 0.282458 0.959280 0.000000
-7.549155 -7.048552 -0.313805 969 0.282458 0.959280 0.000000
-7.552934 -7.047943 -0.708220 1033 0.282458 0.959280 0.000000
-7.553147 -7.048137 -0.705058 1033 0.282458 0.959280 0.000000
-7.553623 -7.048582 -0.701913 1027 0.282458 0.959280 0.000000
-7.554043 -7.048982 -0.698759 1027 0.282458 0.959280 0.000000
-7.554036 -7.048972 -0.695579 1021 0.282458 0.959280 0.000000
-7.553594 -7.048560 -0.692353 1021 0.282458 0.959280 0.000000
-7.552522 -7.047561 -0.689063 1003 0.282458 0.959280 0.000000
-7.552404 -7.047449 -0.685875 1007 0.282458 0.959280 0.000000
-7.552871 -7.047887 -0.682730 1005 0.282458 0.959280 0.000000
-7.552918 -7.047921 -0.679540 1011 0.282458 0.959280 0.000000
-7.552106 -7.047171 -0.676287 1007 0.282458 0.959280 0.000000
-7.552352 -7.047405 -0.673125 1007 0.282458 0.959280 0.000000
-7.552723 -7.047739 -0.669971 1003 0.282458 0.959280 0.000000
-7.552116 -7.047181 -0.666737 1009 0.282458 0.959280 0.000000
-7.551840 -7.046916 -0.663529 1019 0.282458 0.959280 0.000000
-7.551921 -7.047002 -0.660349 995 0.282458 0.959280 0.000000
-7.552071 -7.047132 -0.657177 1003 0.282458 0.959280 0.000000
-7.551843 -7.046919 -0.653969 997 0.282458 0.959280 0.000000
-7.552744 -7.047759 -0.650861 1011 0.282458 0.959280 0.000000
-7.552722 -7.047736 -0.647681 1013 0.282458 0.959280 0.000000
-7.552107 -7.047172 -0.644446 1003 0.282458 0.959280 0.000000
-7.552621 -7.047647 -0.641302 997 0.282458 0.959280 0.000000
-7.552662 -7.047690 -0.638121 1013 0.282458 0.959280 0.000000
-7.551896 -7.046964 -0.634868 999 0.282458 0.959280 0.000000
-7.551605 -7.046700 -0.631661 1005 0.282458 0.959280 0.000000
-7.551684 -7.046772 -0.628490 1013 0.282458 0.959280 0.000000
-7.552460 -7.047498 -0.625373 999 0.282458 0.959280 0.000000
-7.552919 -7.047929 -0.622218 1007 0.282458 0.959280 0.000000
-7.552683 -7.047709 -0.619020 1013 0.282458 0.959280 0.000000
-7.552288 -7.047335 -0.615804 1017 0.282458 0.959280 0.000000
-7.551941 -7.047012 -0.612597 1013 0.282458 0.959280 0.000000
-7.552338 -7.047380 -0.609443 1005 0.282458 0.959280 0.000000
-7.552954 -7.047951 -0.606308 1013 0.282458 0.959280 0.000000
-7.552608 -7.047629 -0.603101 999 0.282458 0.959280 0.000000
-7.551827 -7.046904 -0.599858 1001 0.282458 0.959280 0.000000
-7.552010 -7.047074 -0.596686 1009 0.282458 0.959280 0.000000
-7.552949 -7.047945 -0.593577 1011 0.282458 0.959280 0.000000
-7.552705 -7.047718 -0.590380 1021 0.282458 0.959280 0.000000
-7.552241 -7.047288 -0.587154 1011 0.282458 0.959280 0.000000
-7.552960 -7.047955 -0.584027 1021 0.282458 0.959280 0.000000
-7.553088 -7.048080 -0.580856 1033 0.282458 0.959280 0.000000
-7.552780 -7.047789 -0.577649 1025 0.282458 0.959280 0.000000
-7.552971 -7.047965 -0.574487 1017 0.282458 0.959280 0.000000
-7.552711 -7.047725 -0.571279 1017 0.282458 0.959280 0.000000
-7.552516 -7.047551 -0.568091 999 0.282458 0.959280 0.000000
-7.553117 -7.048109 -0.564955 983 0.282458 0.959280 0.000000
-7.553188 -7.048176 -0.561774 991 0.282458 0.959280 0.000000
-7.552889 -7.047892 -0.558567 1003 0.282458 0.959280 0.000000
-7.553222 -7.048209 -0.555414 1017 0.282458 0.959280 0.000000
-7.553135 -7.048121 -0.552225 995 0.282458 0.959280 0.000000
-7.552450 -7.047487 -0.548991 997 0.282458 0.959280 0.000000
-7.552032 -7.047094 -0.545785 1005 0.282458 0.959280 0.000000
-7.551993 -7.047059 -0.542605 1017 0.282458 0.959280 0.000000
-7.552373 -7.047414 -0.539451 1017 0.282458 0.959280 0.000000
-7.552492 -7.047519 -0.536280 1027 0.282458 0.959280 0.000000
-7.552556 -7.047579 -0.533100 1019 0.282458 0.959280 0.000000
-7.552084 -7.047143 -0.529884 1007 0.282458 0.959280 0.000000
-7.551879 -7.046948 -0.526696 1013 0.282458 0.959280 0.000000
-7.553223 -7.048210 -0.523603 1021 0.282458 0.959280 0.000000
-7.553658 -7.048608 -0.520449 1013 0.282458 0.959280 0.000000
-7.552695 -7.047711 -0.517208 1005 0.282458 0.959279 0.000000
-7.552388 -7.047421 -0.514011 1023 0.282458 0.959280 0.000000
-7.552444 -7.047475 -0.510830 1013 0.282458 0.959280 0.000000
-7.552659 -7.047683 -0.507668 1023 0.282458 0.959280 0.000000
-7.553142 -7.048134 -0.504523 1033 0.282458 0.959280 0.000000
-7.553900 -7.048832 -0.501386 1037 0.282458 0.959280 0.000000
-7.553688 -7.048631 -0.498198 1035 0.282458 0.959280 0.000000
-7.553689 -7.048641 -0.495018 1021 0.282458 0.959280 0.000000
-7.552506 -7.047540 -0.491759 1009 0.282458 0.959280 0.000000
-7.551558 -7.046642 -0.488518 1009 0.282458 0.959280 0.000000
-7.552032 -7.047085 -0.485373 1029 0.282458 0.959280 0.000000
-7.552184 -7.047230 -0.482202 1011 0.282458 0.959280 0.000000
-7.552502 -7.047534 -0.479049 1007 0.282458 0.959280 0.000000
-7.553308 -7.048284 -0.475911 1037 0.282458 0.959280 0.000000
-7.553411 -7.048377 -0.472740 1021 0.282458 0.959280 0.000000
-7.552543 -7.047569 -0.469508 1009 0.282458 0.959280 0.000000
-7.552331 -7.047368 -0.466320 1003 0.282458 0.959280 0.000000
-7.552380 -7.047416 -0.463140 979 0.282458 0.959280 0.000000
-7.552949 -7.047950 -0.460004 993 0.282458 0.959280 0.000000
-7.553597 -7.048546 -0.456858 1011 0.282458 0.959280 0.000000
-7.553155 -7.048134 -0.453652 1009 0.282458 0.959280 0.000000
-7.553142 -7.048132 -0.450472 1033 0.282458 0.959280 0.000000
-7.553189 -7.048166 -0.447302 1023 0.282458 0.959280 0.000000
-7.553071 -7.048055 -0.444113 1009 0.282458 0.959280 0.000000
-7.553807 -7.048748 -0.440975 1023 0.282458 0.959280 0.000000
-7.553476 -7.048439 -0.437779 1017 0.282458 0.959280 0.000000
-7.552663 -7.047675 -0.434556 1019 0.282458 0.959280 0.000000
-7.552381 -7.047418 -0.431369 1017 0.282458 0.959280 0.000000
-7.552317 -7.047349 -0.428179 1001 0.282458 0.959280 0.000000
-7.552296 -7.047341 -0.425009 1005 0.282458 0.959279 0.000000
-7.553079 -7.048072 -0.421872 1007 0.282458 0.959280 0.000000
-7.553759 -7.048708 -0.418725 1011 0.282458 0.959280 0.000000
-7.553103 -7.048085 -0.415522 997 0.282458 0.959280 0.000000
-7.552560 -7.047577 -0.412307 1003 0.282458 0.959280 0.000000
-7.552647 -7.047657 -0.409136 1011 0.282458 0.959280 0.000000
-7.553368 -7.048338 -0.405999 1027 0.282458 0.959280 0.000000
-7.553407 -7.048366 -0.402828 1013 0.282458 0.959280 0.000000
-7.553488 -7.048453 -0.399647 1015 0.282458 0.959280 0.000000
-7.553417 -7.048379 -0.396468 1023 0.282458 0.959280 0.000000
-7.552218 -7.047266 -0.393229 1003 0.282458 0.959280 0.000000
-7.552298 -7.047339 -0.390059 1003 0.282458 0.959280 0.000000
-7.553507 -7.048466 -0.386947 1005 0.282458 0.959280 0.000000
-7.553541 -7.048502 -0.383767 999 0.282458 0.959280 0.000000
-7.553998 -7.048919 -0.380612 1011 0.282458 0.959280 0.000000
-7.554126 -7.049044 -0.377441 1021 0.282458 0.959280 0.000000
-7.552823 -7.047821 -0.374203 1003 0.282458 0.959280 0.000000
-7.553007 -7.048004 -0.371041 1001 0.282458 0.959280 0.000000
-7.553354 -7.048319 -0.367878 991 0.282458 0.959280 0.000000
-7.553269 -7.048247 -0.364699 981 0.282458 0.959280 0.000000
-7.553349 -7.048320 -0.361528 977 0.282458 0.959280 0.000000
-7.552631 -7.047647 -0.358315 973 0.282458 0.959280 0.000000
-7.552600 -7.047618 -0.355135 953 0.282458 0.959280 0.000000
-7.554014 -7.048936 -0.352021 979 0.282458 0.959280 0.000000
-7.554086 -7.049003 -0.348851 973 0.282458 0.959280 0.000000
-7.552982 -7.047979 -0.345631 965 0.282458 0.959280 0.000000
-7.552683 -7.047695 -0.342434 969 0.282458 0.959280 0.000000
-7.552494 -7.047513 -0.339255 943 0.282458 0.959280 0.000000
-7.552566 -7.047579 -0.336085 961 0.282458 0.959280 0.000000
-7.553271 -7.048248 -0.332938 975 0.282458 0.959280 0.000000
-7.553769 -7.048711 -0.329783 989 0.282458 0.959280 0.000000
-7.553525 -7.048485 -0.326595 967 0.282458 0.959280 0.000000
-7.553004 -7.047996 -0.323400 963 0.282458 0.959280 0.000000
-7.552057 -7.047112 -0.320189 951 0.282458 0.959280 0.000000
-7.552176 -7.047216 -0.317018 963 0.282458 0.959280 0.000000
-7.553205 -7.048185 -0.313878 969 0.282458 0.959280 0.000000
-7.556586 -7.047036 -0.708357 1023 0.282458 0.959280 0.000000
-7.556413 -7.046880 -0.705159 1027 0.282458 0.959280 0.000000
-7.555608 -7.046123 -0.701896 1015 0.282458 0.959280 0.000000
-7.555870 -7.046369 -0.698734 1013 0.282458 0.959280 0.000000
-7.555594 -7.046117 -0.695526 999 0.282458 0.959280 0.000000
-7.555863 -7.046356 -0.692364 1007 0.282458 0.959280 0.000000
-7.556007 -7.046494 -0.689182 1001 0.282458 0.959280 0.000000
-7.555724 -7.046236 -0.685975 1019 0.282458 0.959279 0.000000
-7.556040 -7.046526 -0.682822 1033 0.282458 0.959280 0.000000
-7.556459 -7.046912 -0.679668 1015 0.282458 0.959280 0.000000
-7.556286 -7.046756 -0.676469 1005 0.282458 0.959280 0.000000
-7.555522 -7.046044 -0.673217 1005 0.282458 0.959280 0.000000
-7.555198 -7.045740 -0.670000 1009 0.282458 0.959280 0.000000
-7.555286 -7.045820 -0.666819 1007 0.282458 0.959280 0.000000
-7.555430 -7.045958 -0.663647 999 0.282458 0.959280 0.000000
-7.555684 -7.046198 -0.660485 993 0.282458 0.959280 0.000000
-7.555882 -7.046380 -0.657313 997 0.282458 0.959280 0.000000
-7.555440 -7.045968 -0.654097 1009 0.282458 0.959280 0.000000
-7.555685 -7.046187 -0.650935 1025 0.282458 0.959280 0.000000
-7.555346 -7.045871 -0.647718 995 0.282458 0.959280 0.000000
-7.555111 -7.045665 -0.644510 987 0.282458 0.959280 0.000000
-7.555577 -7.046089 -0.641365 989 0.282458 0.959280 0.000000
-7.555775 -7.046270 -0.638203 993 0.282458 0.959280 0.000000
-7.555539 -7.046050 -0.634996 1003 0.282458 0.959280 0.000000
-7.555620 -7.046138 -0.631815 1015 0.282458 0.959280 0.000000
-7.555488 -7.046014 -0.628626 997 0.282458 0.959280 0.000000
-7.555211 -7.045748 -0.625418 971 0.282458 0.959280 0.000000
-7.555552 -7.046071 -0.622265 983 0.282458 0.959280 0.000000
-7.556216 -7.046694 -0.619129 995 0.282458 0.959280 0.000000
-7.556517 -7.046971 -0.615976 1021 0.282458 0.959280 0.000000
-7.555688 -7.046196 -0.612724 1003 0.282458 0.959280 0.000000
-7.555563 -7.046077 -0.609525 995 0.282458 0.959279 0.000000
-7.556068 -7.046546 -0.606380 1003 0.282458 0.959280 0.000000
-7.555874 -7.046372 -0.603182 991 0.282458 0.959280 0.000000
-7.556118 -7.046591 -0.600019 1003 0.282458 0.959280 0.000000
-7.557368 -7.047764 -0.596937 1039 0.282458 0.959280 0.000000
-7.557123 -7.047537 -0.593729 1023 0.282458 0.959280 0.000000
-7.557203 -7.047611 -0.590559 1031 0.282458 0.959280 0.000000
-7.556106 -7.046578 -0.587289 1011 0.282458 0.959280 0.000000
-7.555159 -7.045694 -0.584038 1009 0.282458 0.959280 0.000000
-7.555659 -7.046171 -0.580893 1007 0.282458 0.959280 0.000000
-7.556164 -7.046640 -0.577748 1031 0.282458 0.959280 0.000000
-7.556126 -7.046606 -0.574558 1023 0.282458 0.959280 0.000000
-7.556735 -7.047170 -0.571423 1019 0.282458 0.959280 0.000000
-7.557123 -7.047531 -0.568269 1019 0.282458 0.959280 0.000000
-7.556555 -7.047004 -0.565044 1003 0.282458 0.959280 0.000000
-7.556729 -7.047167 -0.561872 995 0.282458 0.959280 0.000000
-7.556643 -7.047081 -0.558683 991 0.282458 0.959280 0.000000
-7.556494 -7.046944 -0.555495 991 0.282458 0.959280 0.000000
-7.556140 -7.046615 -0.552288 1001 0.282458 0.959280 0.000000
-7.556631 -7.047072 -0.549143 1003 0.282458 0.959280 0.000000
-7.557492 -7.047880 -0.546015 1011 0.282458 0.959280 0.000000
-7.556386 -7.046842 -0.542755 1023 0.282458 0.959280 0.000000
-7.555976 -7.046455 -0.539549 1021 0.282458 0.959280 0.000000
-7.556192 -7.046664 -0.536387 1015 0.282458 0.959280 0.000000
-7.555830 -7.046329 -0.533180 993 0.282458 0.959280 0.000000
-7.555893 -7.046376 -0.530000 997 0.282458 0.959280 0.000000
-7.555522 -7.046034 -0.526793 1011 0.282458 0.959280 0.000000
-7.555587 -7.046095 -0.523622 1015 0.282458 0.959280 0.000000
-7.555706 -7.046200 -0.520451 1021 0.282458 0.959280 0.000000
-7.555700 -7.046205 -0.517271 1003 0.282458 0.959280 0.000000
-7.556199 -7.046668 -0.514116 1013 0.282458 0.959280 0.000000
-7.555559 -7.046070 -0.510892 1021 0.282458 0.959280 0.000000
-7.555883 -7.046367 -0.507739 1035 0.282458 0.959280 0.000000
-7.556792 -7.047213 -0.504621 1041 0.282458 0.959280 0.000000
-7.556643 -7.047075 -0.501422 1017 0.282458 0.959280 0.000000
-7.556209 -7.046670 -0.498216 1017 0.282458 0.959280 0.000000
-7.556803 -7.047223 -0.495080 1021 0.282458 0.959280 0.000000
-7.557223 -7.047623 -0.491926 1015 0.282458 0.959280 0.000000
-7.556956 -7.047377 -0.488729 1017 0.282458 0.959280 0.000000
-7.557280 -7.047674 -0.485565 1037 0.282458 0.959280 0.000000
-7.556207 -7.046675 -0.482316 1011 0.282458 0.959280 0.000000
-7.555512 -7.046020 -0.479102 1009 0.282458 0.959280 0.000000
-7.555995 -7.046470 -0.475947 1005 0.282458 0.959280 0.000000
-7.556904 -7.047316 -0.472819 1007 0.282458 0.959280 0.000000
-7.557103 -7.047511 -0.469657 1005 0.282458 0.959280 0.000000
-7.556724 -7.047150 -0.466450 997 0.282458 0.959280 0.000000
-7.556339 -7.046796 -0.463254 979 0.282458 0.959280 0.000000
-7.556340 -7.046793 -0.460074 999 0.282458 0.959280 0.000000
-7.556704 -7.047135 -0.456920 1001 0.282458 0.959280 0.000000
-7.556429 -7.046883 -0.453723 991 0.282458 0.959280 0.000000
-7.556263 -7.046720 -0.450534 1001 0.282458 0.959280 0.000000
-7.556255 -7.046710 -0.447354 1009 0.282458 0.959280 0.000000
-7.556076 -7.046548 -0.444166 1003 0.282458 0.959280 0.000000
-7.556866 -7.047286 -0.441028 1001 0.282458 0.959280 0.000000
-7.557072 -7.047474 -0.437866 1013 0.282458 0.959280 0.000000
-7.556101 -7.046570 -0.434635 999 0.282458 0.959280 0.000000
-7.555922 -7.046409 -0.431447 1021 0.282458 0.959280 0.000000
-7.555969 -7.046443 -0.428267 1013 0.282458 0.959280 0.000000
-7.555204 -7.045731 -0.425044 987 0.282458 0.959280 0.000000
-7.554866 -7.045415 -0.421857 987 0.282458 0.959280 0.000000
-7.556612 -7.047054 -0.418770 1009 0.282458 0.959280 0.000000
-7.557134 -7.047535 -0.415615 1023 0.282458 0.959280 0.000000
-7.556259 -7.046721 -0.412393 1017 0.282458 0.959280 0.000000
-7.555913 -7.046400 -0.409197 1001 0.282458 0.959280 0.000000
-7.556593 -7.047035 -0.406060 1027 0.282458 0.959280 0.000000
-7.556412 -7.046859 -0.402872 1023 0.282458 0.959280 0.000000
-7.555488 -7.045993 -0.399640 1019 0.282458 0.959280 0.000000
-7.556003 -7.046483 -0.396495 999 0.282458 0.959280 0.000000
-7.556461 -7.046900 -0.393341 1003 0.282458 0.959280 0.000000
-7.555688 -7.046182 -0.390128 981 0.282458 0.959280 0.000000
-7.556036 -7.046512 -0.386965 987 0.282458 0.959280 0.000000
-7.556661 -7.047089 -0.383819 1005 0.282458 0.959280 0.000000
-7.557168 -7.047558 -0.380664 1005 0.282458 0.959280 0.000000
-7.556767 -7.047192 -0.377468 995 0.282458 0.959280 0.000000
-7.556523 -7.046966 -0.374280 993 0.282458 0.959280 0.000000
-7.556341 -7.046789 -0.371092 995 0.282458 0.959280 0.000000
-7.555245 -7.045772 -0.367862 975 0.282458 0.959280 0.000000
-7.555853 -7.046336 -0.364716 977 0.282458 0.959280 0.000000
-7.557599 -7.047961 -0.361620 979 0.282458 0.959280 0.000000
-7.557719 -7.048080 -0.358448 963 0.282458 0.959280 0.000000
-7.557263 -7.047656 -0.355253 963 0.282458 0.959280 0.000000
-7.557499 -7.047869 -0.352090 961 0.282458 0.959280 0.000000
-7.557580 -7.047943 -0.348909 961 0.282458 0.959280 0.000000
-7.557864 -7.048207 -0.345747 957 0.282458 0.959280 0.000000
-7.558254 -7.048583 -0.342583 961 0.282458 0.959280 0.000000
-7.557590 -7.047953 -0.339379 957 0.282458 0.959280 0.000000
-7.557015 -7.047420 -0.336184 965 0.282458 0.959280 0.000000
-7.557135 -7.047539 -0.333013 967 0.282458 0.959280 0.000000
-7.556566 -7.046999 -0.329809 971 0.282458 0.959279 0.000000
-7.555991 -7.046466 -0.326614 965 0.282458 0.959280 0.000000
-7.556222 -7.046687 -0.323442 967 0.282458 0.959280 0.000000
-7.556073 -7.046550 -0.320263 955 0.282458 0.959280 0.000000
-7.556256 -7.046719 -0.317091 965 0.282458 0.959280 0.000000
-7.556911 -7.047322 -0.313945 967 0.282458 0.959280 0.000000
-7.558949 -7.044922 -0.708387 1017 0.282458 0.959280 0.000000
-7.559748 -7.045666 -0.705269 1023 0.282458 0.959280 0.000000
-7.560436 -7.046308 -0.702143 1003 0.282458 0.959280 0.000000
-7.560477 -7.046350 -0.698962 1007 0.282458 0.959280 0.000000
-7.560256 -7.046142 -0.695754 1007 0.282458 0.959280 0.000000
-7.559451 -7.045385 -0.692492 1007 0.282458 0.959280 0.000000
-7.558694 -7.044680 -0.689239 999 0.282458 0.959280 0.000000
-7.559004 -7.044977 -0.686076 995 0.282458 0.959280 0.000000
-7.559684 -7.045613 -0.682949 1007 0.282458 0.959280 0.000000
-7.558720 -7.044702 -0.679678 983 0.282458 0.959280 0.000000
-7.557798 -7.043850 -0.676407 991 0.282458 0.959280 0.000000
-7.558478 -7.044486 -0.673280 993 0.282458 0.959280 0.000000
-7.559474 -7.045415 -0.670191 1003 0.282458 0.959280 0.000000
-7.558882 -7.044856 -0.666946 993 0.282458 0.959280 0.000000
-7.558173 -7.044201 -0.663703 993 0.282458 0.959280 0.000000
-7.558047 -7.044084 -0.660504 977 0.282458 0.959280 0.000000
-7.559257 -7.045211 -0.657423 989 0.282458 0.959280 0.000000
-7.560109 -7.045999 -0.654305 995 0.282458 0.959280 0.000000
-7.558752 -7.044731 -0.651007 983 0.282458 0.959279 0.000000
-7.558572 -7.044569 -0.647809 983 0.282458 0.959280 0.000000
-7.559835 -7.045740 -0.644727 991 0.282458 0.959280 0.000000
-7.559340 -7.045285 -0.641502 979 0.282458 0.959280 0.000000
-7.559095 -7.045058 -0.638294 999 0.282458 0.959280 0.000000
-7.559348 -7.045283 -0.635131 1013 0.282458 0.959280 0.000000
-7.559216 -7.045173 -0.631942 1017 0.282458 0.959280 0.000000
-7.559674 -7.045590 -0.628788 1005 0.282458 0.959280 0.000000
-7.559548 -7.045472 -0.625599 987 0.282458 0.959280 0.000000
-7.558610 -7.044609 -0.622338 991 0.282458 0.959280 0.000000
-7.558114 -7.044138 -0.619113 981 0.282458 0.959280 0.000000
-7.558565 -7.044563 -0.615968 987 0.282458 0.959280 0.000000
-7.559457 -7.045383 -0.612850 1001 0.282458 0.959280 0.000000
-7.559909 -7.045808 -0.609705 999 0.282458 0.959280 0.000000
-7.559390 -7.045334 -0.606480 991 0.282458 0.959280 0.000000
-7.559476 -7.045413 -0.603299 1013 0.282458 0.959280 0.000000
-7.558963 -7.044930 -0.600074 1003 0.282458 0.959280 0.000000
-7.558293 -7.044308 -0.596840 1009 0.282458 0.959280 0.000000
-7.558792 -7.044771 -0.593696 1009 0.282458 0.959280 0.000000
-7.560206 -7.046090 -0.590622 1025 0.282458 0.959280 0.000000
-7.560871 -7.046713 -0.587486 1005 0.282458 0.959280 0.000000
-7.560681 -7.046530 -0.584287 1011 0.282458 0.959280 0.000000
-7.559853 -7.045754 -0.581045 1015 0.282458 0.959280 0.000000
-7.559436 -7.045375 -0.577829 1007 0.282458 0.959280 0.000000
-7.559943 -7.045845 -0.574684 1007 0.282458 0.959280 0.000000
-7.560764 -7.046607 -0.571566 1017 0.282458 0.959280 0.000000
-7.560828 -7.046668 -0.568386 1007 0.282458 0.959280 0.000000
-7.560742 -7.046582 -0.565197 999 0.282458 0.959280 0.000000
-7.560436 -7.046305 -0.561989 999 0.282458 0.959280 0.000000
-7.560080 -7.045962 -0.558783 987 0.282458 0.959280 0.000000
-7.560254 -7.046124 -0.555611 1003 0.282458 0.959280 0.000000
-7.561386 -7.047190 -0.552510 1021 0.282458 0.959280 0.000000
-7.562310 -7.048048 -0.549391 1019 0.282458 0.959280 0.000000
-7.561514 -7.047310 -0.546149 1015 0.282458 0.959280 0.000000
-7.560195 -7.046075 -0.542881 1007 0.282458 0.959280 0.000000
-7.559675 -7.045586 -0.539656 993 0.282458 0.959280 0.000000
-7.559313 -7.045251 -0.536449 985 0.282458 0.959280 0.000000
-7.559954 -7.045855 -0.533313 997 0.282458 0.959280 0.000000
-7.560507 -7.046362 -0.530168 999 0.282458 0.959280 0.000000
-7.560089 -7.045969 -0.526962 1009 0.282458 0.959280 0.000000
-7.560091 -7.045979 -0.523782 1003 0.282458 0.959280 0.000000
-7.560479 -7.046340 -0.520628 1015 0.282458 0.959280 0.000000
-7.560314 -7.046191 -0.517429 1021 0.282458 0.959280 0.000000
-7.559950 -7.045842 -0.514223 1017 0.282458 0.959279 0.000000
-7.559802 -7.045705 -0.511034 1011 0.282458 0.959280 0.000000
-7.560443 -7.046309 -0.507898 1021 0.282458 0.959280 0.000000
-7.561139 -7.046957 -0.504761 1019 0.282458 0.959280 0.000000
-7.560713 -7.046558 -0.501555 1033 0.282458 0.959280 0.000000
-7.560019 -7.045903 -0.498322 1017 0.282458 0.959280 0.000000
-7.559759 -7.045664 -0.495124 1003 0.282458 0.959280 0.000000
-7.559333 -7.045265 -0.491918 997 0.282458 0.959280 0.000000
-7.559540 -7.045467 -0.488756 991 0.282458 0.959280 0.000000
-7.560125 -7.046012 -0.485610 1011 0.282458 0.959280 0.000000
-7.560181 -7.046054 -0.482430 1009 0.282458 0.959280 0.000000
-7.560608 -7.046459 -0.479276 1019 0.282458 0.959280 0.000000
-7.560822 -7.046655 -0.476114 997 0.282458 0.959280 0.000000
-7.560602 -7.046447 -0.472916 1009 0.282458 0.959280 0.000000
-7.559901 -7.045800 -0.469692 1009 0.282458 0.959280 0.000000
-7.559357 -7.045292 -0.466487 997 0.282458 0.959280 0.000000
-7.559460 -7.045384 -0.463306 991 0.282458 0.959280 0.000000
-7.560094 -7.045982 -0.460170 997 0.282458 0.959280 0.000000
-7.559770 -7.045678 -0.456973 991 0.282458 0.959280 0.000000
-7.559707 -7.045610 -0.453784 993 0.282458 0.959280 0.000000
-7.560293 -7.046157 -0.450638 995 0.282458 0.959280 0.000000
-7.559953 -7.045840 -0.447441 1011 0.282458 0.959280 0.000000
-7.559465 -7.045391 -0.444236 1001 0.282458 0.959280 0.000000
-7.559561 -7.045478 -0.441065 991 0.282458 0.959280 0.000000
-7.559657 -7.045563 -0.437894 999 0.282458 0.959280 0.000000
-7.559910 -7.045803 -0.434721 995 0.282458 0.959280 0.000000
-7.560378 -7.046241 -0.431567 1005 0.282458 0.959280 0.000000
-7.559083 -7.045038 -0.428319 981 0.282458 0.959280 0.000000
-7.558098 -7.044122 -0.425088 967 0.282458 0.959280 0.000000
-7.559156 -7.045101 -0.421968 973 0.282458 0.959280 0.000000
-7.560373 -7.046235 -0.418856 1013 0.282458 0.959280 0.000000
-7.560034 -7.045918 -0.415660 1007 0.282458 0.959280 0.000000
-7.559799 -7.045699 -0.412472 993 0.282458 0.959280 0.000000
-7.560265 -7.046136 -0.409317 1011 0.282458 0.959280 0.000000
-7.559768 -7.045667 -0.406112 1007 0.282458 0.959280 0.000000
-7.559257 -7.045198 -0.402907 991 0.282458 0.959280 0.000000
-7.559566 -7.045482 -0.399744 993 0.282458 0.959280 0.000000
-7.560127 -7.046009 -0.396598 983 0.282458 0.959280 0.000000
-7.560215 -7.046089 -0.393417 989 0.282458 0.959280 0.000000
-7.559553 -7.045473 -0.390213 993 0.282458 0.959280 0.000000
-7.559474 -7.045393 -0.387024 997 0.282458 0.959280 0.000000
-7.560730 -7.046571 -0.383912 995 0.282458 0.959280 0.000000
-7.560874 -7.046695 -0.380741 999 0.282458 0.959280 0.000000
-7.560527 -7.046373 -0.377544 999 0.282458 0.959280 0.000000
-7.560559 -7.046409 -0.374374 1003 0.282458 0.959280 0.000000
-7.560094 -7.045978 -0.371168 991 0.282458 0.959280 0.000000
-7.561083 -7.046901 -0.368039 987 0.282458 0.959280 0.000000
-7.561163 -7.046974 -0.364868 977 0.282458 0.959280 0.000000
-7.560176 -7.046045 -0.361637 975 0.282458 0.959280 0.000000
-7.559932 -7.045818 -0.358449 961 0.282458 0.959280 0.000000
-7.560486 -7.046340 -0.355304 951 0.282458 0.959280 0.000000
-7.560779 -7.046610 -0.352141 941 0.282458 0.959280 0.000000
-7.561609 -7.047379 -0.348993 965 0.282458 0.959280 0.000000
-7.562486 -7.048200 -0.345855 969 0.282458 0.959280 0.000000
-7.562021 -7.047769 -0.342659 949 0.282458 0.959280 0.000000
-7.560380 -7.046234 -0.339415 949 0.282458 0.959280 0.000000
-7.560025 -7.045905 -0.336218 957 0.282458 0.959279 0.000000
-7.561329 -7.047122 -0.333095 965 0.282458 0.959280 0.000000
-7.561339 -7.047139 -0.329915 971 0.282458 0.959280 0.000000
-7.560716 -7.046554 -0.326721 981 0.282458 0.959280 0.000000
-7.560519 -7.046365 -0.323533 973 0.282458 0.959280 0.000000
-7.560488 -7.046337 -0.320353 967 0.282458 0.959280 0.000000
-7.560711 -7.046551 -0.317191 965 0.282458 0.959280 0.000000
-7.560032 -7.045909 -0.313987 953 0.282458 0.959280 0.000000
-7.563540 -7.044812 -0.708606 1013 0.282458 0.959280 0.000000
-7.563595 -7.044852 -0.705415 1011 0.282458 0.959280 0.000000
-7.563533 -7.044799 -0.702226 1017 0.282458 0.959280 0.000000
-7.562729 -7.044055 -0.698963 989 0.282458 0.959280 0.000000
-7.561964 -7.043343 -0.695710 985 0.282458 0.959280 0.000000
-7.561956 -7.043334 -0.692520 993 0.282458 0.959280 0.000000
