762
-7.468535 -7.101851 -0.614375 717 -0.411237 0.911520 0.003845
-7.468876 -7.102177 -0.611232 703 -0.411237 0.911520 0.003845
-7.468531 -7.101852 -0.608025 689 -0.411237 0.911520 0.003845
-7.468406 -7.101735 -0.604836 687 -0.411237 0.911520 0.003845
-7.468958 -7.102258 -0.601711 687 -0.411237 0.911520 0.003845
-7.469243 -7.102525 -0.598558 693 -0.411237 0.911520 0.003845
-7.468637 -7.101950 -0.595334 703 -0.411237 0.911520 0.003845
-7.468819 -7.102121 -0.592172 697 -0.411237 0.911520 0.003845
-7.469261 -7.102542 -0.589028 711 -0.411237 0.911520 0.003845
-7.469121 -7.102411 -0.585839 713 -0.411237 0.911520 0.003845
-7.470098 -7.103345 -0.582740 713 -0.411237 0.911520 0.003845
-7.470068 -7.103317 -0.579570 709 -0.411237 0.911520 0.003845
-7.469454 -7.102723 -0.576346 701 -0.411237 0.911520 0.003845
-7.469684 -7.102945 -0.573184 699 -0.411237 0.911520 0.003845
-7.469962 -7.103220 -0.570031 699 -0.411237 0.911520 0.003845
-7.469766 -7.103029 -0.566843 699 -0.411237 0.911520 0.003845
-7.468939 -7.102236 -0.563610 715 -0.411237 0.911520 0.003845
-7.468420 -7.101746 -0.560395 731 -0.411237 0.911520 0.003845
-7.469234 -7.102520 -0.557277 731 -0.411237 0.911520 0.003845
-7.468935 -7.102235 -0.554080 717 -0.411237 0.911520 0.003845
-7.468629 -7.101943 -0.550893 719 -0.411237 0.911520 0.003845
-7.469694 -7.102962 -0.547793 737 -0.411237 0.911520 0.003845
-7.469285 -7.102573 -0.544587 747 -0.411237 0.911520 0.003845
-7.468663 -7.101973 -0.541372 743 -0.411237 0.911520 0.003845
-7.468775 -7.102086 -0.538201 733 -0.411237 0.911520 0.003845
-7.469744 -7.103001 -0.535102 739 -0.411237 0.911520 0.003845
-7.469912 -7.103172 -0.531940 739 -0.411237 0.911520 0.003845
-7.469227 -7.102520 -0.528717 731 -0.411237 0.911520 0.003845
-7.469236 -7.102524 -0.525547 737 -0.411237 0.911520 0.003845
-7.469300 -7.102585 -0.522376 749 -0.411237 0.911520 0.003845
-7.469207 -7.102492 -0.519197 741 -0.411237 0.911520 0.003845
-7.469413 -7.102695 -0.516035 737 -0.411237 0.911520 0.003845
-7.469477 -7.102757 -0.512864 733 -0.411237 0.911520 0.003845
-7.469588 -7.102856 -0.509703 727 -0.411237 0.911520 0.003845
-7.468801 -7.102108 -0.506480 717 -0.411237 0.911520 0.003845
-7.468906 -7.102216 -0.503309 713 -0.411237 0.911520 0.003845
-7.469859 -7.103118 -0.500200 709 -0.411237 0.911520 0.003845
-7.469656 -7.102922 -0.497012 713 -0.411237 0.911520 0.003845
-7.468641 -7.101963 -0.493781 723 -0.411237 0.911520 0.003845
-7.468382 -7.101709 -0.490594 715 -0.411237 0.911520 0.003845
-7.469541 -7.102818 -0.487493 731 -0.411237 0.911520 0.003845
-7.470124 -7.103366 -0.484357 727 -0.411237 0.911520 0.003845
-7.469268 -7.102562 -0.481135 723 -0.411237 0.911520 0.003845
-7.469598 -7.102866 -0.477982 731 -0.411237 0.911520 0.003845
-7.470119 -7.103364 -0.474837 725 -0.411237 0.911520 0.003845
-7.469420 -7.102701 -0.471624 703 -0.411237 0.911520 0.003845
-7.469359 -7.102647 -0.468454 707 -0.411237 0.911520 0.003845
-7.468297 -7.101636 -0.465214 705 -0.411237 0.911520 0.003845
-7.468880 -7.102185 -0.462078 713 -0.411237 0.911520 0.003845
-7.469929 -7.103191 -0.458969 717 -0.411237 0.911520 0.003845
-7.469024 -7.102320 -0.455747 727 -0.411237 0.911520 0.003845
-7.468640 -7.101965 -0.452550 721 -0.411237 0.911520 0.003845
-7.469215 -7.102508 -0.449415 721 -0.411237 0.911520 0.003845
-7.469318 -7.102601 -0.446254 723 -0.411237 0.911520 0.003845
-7.469139 -7.102437 -0.443066 719 -0.411237 0.911520 0.003845
-7.469297 -7.102589 -0.439904 715 -0.411237 0.911520 0.003845
-7.468913 -7.102220 -0.436718 715 -0.411237 0.911520 0.003845
-7.469056 -7.102359 -0.433556 721 -0.411237 0.911520 0.003845
-7.469577 -7.102857 -0.430411 717 -0.411237 0.911520 0.003845
-7.469356 -7.102635 -0.427223 709 -0.411237 0.911520 0.003845
-7.469326 -7.102620 -0.424053 711 -0.411237 0.911520 0.003845
-7.470327 -7.103560 -0.420944 717 -0.411237 0.911520 0.003845
-7.470518 -7.103751 -0.417782 717 -0.411237 0.911520 0.003845
-7.470662 -7.103890 -0.414621 719 -0.411237 0.911520 0.003845
-7.470330 -7.103565 -0.411424 727 -0.411237 0.911520 0.003845
-7.470364 -7.103601 -0.408263 711 -0.411237 0.911520 0.003845
-7.470711 -7.103932 -0.405110 705 -0.411237 0.911520 0.003845
-7.470066 -7.103312 -0.401906 701 -0.411237 0.911520 0.003845
-7.469721 -7.102989 -0.398719 699 -0.411237 0.911520 0.003845
-7.470077 -7.103326 -0.395566 709 -0.411237 0.911520 0.003845
-7.470315 -7.103555 -0.392403 717 -0.411237 0.911520 0.003845
-7.470292 -7.103533 -0.389233 689 -0.411237 0.911520 0.003845
-7.470687 -7.103916 -0.386080 681 -0.411237 0.911520 0.003845
-7.471411 -7.104592 -0.382953 695 -0.411237 0.911520 0.003845
-7.471224 -7.104424 -0.379774 703 -0.411237 0.911520 0.003845
-7.470823 -7.104042 -0.376578 713 -0.411237 0.911520 0.003845
-7.470761 -7.103974 -0.373409 705 -0.411237 0.911520 0.003845
-7.470888 -7.104100 -0.370247 699 -0.411237 0.911520 0.003845
-7.470756 -7.103976 -0.367069 689 -0.411237 0.911520 0.003845
-7.469977 -7.103234 -0.363866 683 -0.411237 0.911520 0.003845
-7.469954 -7.103212 -0.360696 659 -0.411237 0.911520 0.003845
-7.470136 -7.103382 -0.357534 653 -0.411237 0.911520 0.003845
-7.469682 -7.102956 -0.354338 651 -0.411237 0.911520 0.003845
-7.469706 -7.102972 -0.351168 647 -0.411237 0.911520 0.003845
-7.470622 -7.103857 -0.348049 653 -0.411237 0.911520 0.003845
-7.471228 -7.104424 -0.344904 663 -0.411237 0.911520 0.003845
-7.471040 -7.104242 -0.341725 673 -0.411237 0.911520 0.003845
-7.471318 -7.104516 -0.338573 669 -0.411237 0.911520 0.003845
-7.471342 -7.104532 -0.335402 671 -0.411237 0.911520 0.003845
-7.470831 -7.104047 -0.332207 671 -0.411237 0.911520 0.003845
-7.470423 -7.103660 -0.329021 651 -0.411237 0.911520 0.003845
-7.470322 -7.103574 -0.325852 649 -0.411237 0.911520 0.003845
-7.470668 -7.103891 -0.322698 655 -0.411237 0.911520 0.003845
-7.471213 -7.104408 -0.319553 665 -0.411237 0.911520 0.003845
-7.471175 -7.104373 -0.316373 651 -0.411237 0.911520 0.003845
-7.476741 -7.105051 -0.611671 691 -0.411237 0.911520 0.003845
-7.476190 -7.104520 -0.608456 685 -0.411237 0.911520 0.003845
-7.477058 -7.105353 -0.605338 679 -0.411237 0.911520 0.003845
-7.477398 -7.105678 -0.602194 697 -0.411237 0.911520 0.003845
-7.477210 -7.105495 -0.598996 695 -0.411237 0.911520 0.003845
-7.477501 -7.105768 -0.595843 699 -0.411237 0.911520 0.003845
-7.477582 -7.105842 -0.592673 695 -0.411237 0.911520 0.003845
-7.477599 -7.105865 -0.589492 701 -0.411237 0.911520 0.003845
-7.477150 -7.105432 -0.586286 713 -0.411237 0.911520 0.003845
-7.477066 -7.105359 -0.583097 715 -0.411237 0.911520 0.003845
-7.478617 -7.106826 -0.580042 713 -0.411237 0.911520 0.003845
-7.478375 -7.106598 -0.576845 695 -0.411237 0.911520 0.003845
-7.477809 -7.106070 -0.573620 705 -0.411237 0.911520 0.003845
-7.477936 -7.106182 -0.570459 707 -0.411237 0.911520 0.003845
-7.477575 -7.105845 -0.567252 703 -0.411237 0.911520 0.003845
-7.477592 -7.105855 -0.564072 703 -0.411237 0.911520 0.003845
-7.478986 -7.107182 -0.560999 723 -0.411237 0.911520 0.003845
-7.478838 -7.107044 -0.557810 727 -0.411237 0.911520 0.003845
-7.477587 -7.105853 -0.554542 721 -0.411237 0.911520 0.003845
-7.476809 -7.105112 -0.551309 715 -0.411237 0.911520 0.003845
-7.477299 -7.105585 -0.548174 713 -0.411237 0.911520 0.003845
-7.478213 -7.106455 -0.545055 725 -0.411237 0.911520 0.003845
-7.477961 -7.106207 -0.541868 737 -0.411237 0.911520 0.003845
-7.477174 -7.105460 -0.538635 733 -0.411237 0.911520 0.003845
-7.477129 -7.105418 -0.535455 721 -0.411237 0.911520 0.003845
-7.477563 -7.105833 -0.532311 729 -0.411237 0.911520 0.003845
-7.477785 -7.106049 -0.529149 735 -0.411237 0.911520 0.003845
-7.478218 -7.106450 -0.526005 729 -0.411237 0.911520 0.003845
-7.477912 -7.106158 -0.522808 721 -0.411237 0.911520 0.003845
-7.477859 -7.106111 -0.519628 723 -0.411237 0.911520 0.003845
-7.477765 -7.106018 -0.516439 725 -0.411237 0.911520 0.003845
-7.477656 -7.105926 -0.513260 713 -0.411237 0.911520 0.003845
-7.478090 -7.106327 -0.510116 719 -0.411237 0.911520 0.003845
-7.477933 -7.106183 -0.506927 713 -0.411237 0.911520 0.003845
-7.478682 -7.106892 -0.503800 717 -0.411237 0.911520 0.003845
-7.478787 -7.106999 -0.500639 713 -0.411237 0.911520 0.003845
-7.478364 -7.106599 -0.497433 711 -0.411237 0.911520 0.003845
-7.478474 -7.106698 -0.494262 731 -0.411237 0.911520 0.003845
-7.478522 -7.106747 -0.491091 717 -0.411237 0.911520 0.003845
-7.478468 -7.106699 -0.487912 701 -0.411237 0.911520 0.003845
-7.477887 -7.106144 -0.484697 713 -0.411237 0.911520 0.003845
-7.477407 -7.105685 -0.481502 721 -0.411237 0.911520 0.003845
-7.477826 -7.106087 -0.478348 717 -0.411237 0.911520 0.003845
-7.478787 -7.106996 -0.475228 711 -0.411237 0.911520 0.003845
-7.478828 -7.107038 -0.472058 713 -0.411237 0.911520 0.003845
-7.478560 -7.106778 -0.468870 707 -0.411237 0.911520 0.003845
-7.477807 -7.106070 -0.465647 705 -0.411237 0.911520 0.003845
-7.477753 -7.106021 -0.462478 701 -0.411237 0.911520 0.003845
-7.478383 -7.106608 -0.459332 715 -0.411237 0.911520 0.003845
-7.478109 -7.106356 -0.456144 713 -0.411237 0.911520 0.003845
-7.477890 -7.106148 -0.452956 725 -0.411237 0.911520 0.003845
-7.477985 -7.106235 -0.449795 721 -0.411237 0.911520 0.003845
-7.477978 -7.106225 -0.446615 711 -0.411237 0.911520 0.003845
-7.478971 -7.107173 -0.443506 711 -0.411237 0.911520 0.003845
-7.479170 -7.107369 -0.440334 707 -0.411237 0.911520 0.003845
-7.478470 -7.106706 -0.437120 707 -0.411237 0.911520 0.003845
-7.477825 -7.106085 -0.433916 687 -0.411237 0.911520 0.003845
-7.478709 -7.106931 -0.430788 687 -0.411237 0.911520 0.003845
-7.479819 -7.107974 -0.427678 703 -0.411237 0.911520 0.003845
-7.479057 -7.107259 -0.424465 705 -0.411237 0.911520 0.003845
-7.479466 -7.107641 -0.421311 701 -0.411237 0.911520 0.003845
-7.479398 -7.107580 -0.418131 695 -0.411237 0.911520 0.003845
-7.479163 -7.107359 -0.414953 695 -0.411237 0.911520 0.003845
-7.479990 -7.108147 -0.411816 713 -0.411237 0.911520 0.003845
-7.480354 -7.108490 -0.408662 715 -0.411237 0.911520 0.003845
-7.479803 -7.107960 -0.405467 707 -0.411237 0.911520 0.003845
-7.478301 -7.106539 -0.402211 693 -0.411237 0.911520 0.003845
-7.478278 -7.106517 -0.399041 695 -0.411237 0.911520 0.003845
-7.479208 -7.107400 -0.395913 695 -0.411237 0.911520 0.003845
-7.479612 -7.107790 -0.392759 695 -0.411237 0.911520 0.003845
-7.478738 -7.106958 -0.389547 683 -0.411237 0.911520 0.003845
-7.478667 -7.106884 -0.386367 671 -0.411237 0.911520 0.003845
-7.479755 -7.107922 -0.383247 685 -0.411237 0.911520 0.003845
-7.479198 -7.107399 -0.380052 687 -0.411237 0.911520 0.003845
-7.479498 -7.107679 -0.376889 697 -0.411237 0.911520 0.003845
-7.480421 -7.108555 -0.373761 691 -0.411237 0.911520 0.003845
-7.480240 -7.108379 -0.370582 693 -0.411237 0.911520 0.003845
-7.479998 -7.108151 -0.367394 689 -0.411237 0.911520 0.003845
-7.479755 -7.107924 -0.364217 685 -0.411237 0.911520 0.003845
-7.479622 -7.107800 -0.361038 665 -0.411237 0.911520 0.003845
-7.480064 -7.108221 -0.357884 633 -0.411237 0.911520 0.003845
-7.480412 -7.108552 -0.354720 633 -0.411237 0.911520 0.003845
-7.479853 -7.108015 -0.351525 655 -0.411237 0.911520 0.003845
-7.479501 -7.107686 -0.348339 661 -0.411237 0.911520 0.003845
-7.479423 -7.107605 -0.345159 651 -0.411237 0.911520 0.003845
-7.479330 -7.107526 -0.341990 655 -0.411237 0.911520 0.003845
-7.479292 -7.107491 -0.338810 649 -0.411237 0.911520 0.003845
-7.479206 -7.107405 -0.335641 647 -0.411237 0.911520 0.003845
-7.479970 -7.108127 -0.332504 659 -0.411237 0.911520 0.003845
-7.481043 -7.109151 -0.329374 669 -0.411237 0.911520 0.003845
-7.479894 -7.108057 -0.326154 659 -0.411237 0.911520 0.003845
-7.479431 -7.107625 -0.322959 647 -0.411237 0.911520 0.003845
-7.480352 -7.108488 -0.319830 665 -0.411237 0.911520 0.003845
-7.480370 -7.108511 -0.316660 653 -0.411237 0.911520 0.003845
-7.487086 -7.110281 -0.612316 671 -0.411237 0.911520 0.003845
-7.487379 -7.110555 -0.609154 695 -0.411237 0.911520 0.003845
-7.487829 -7.110982 -0.606009 703 -0.411237 0.911520 0.003845
-7.487546 -7.110709 -0.602812 705 -0.411237 0.911520 0.003845
-7.486721 -7.109929 -0.599559 705 -0.411237 0.911520 0.003845
-7.485998 -7.109246 -0.596326 703 -0.411237 0.911520 0.003845
-7.486501 -7.109717 -0.593181 719 -0.411237 0.911520 0.003845
-7.486471 -7.109689 -0.590002 717 -0.411237 0.911520 0.003845
-7.486551 -7.109764 -0.586821 709 -0.411237 0.911520 0.003845
-7.487151 -7.110339 -0.583695 717 -0.411237 0.911520 0.003845
-7.487483 -7.110657 -0.580532 715 -0.411237 0.911520 0.003845
-7.487453 -7.110629 -0.577352 715 -0.411237 0.911520 0.003845
-7.486942 -7.110144 -0.574137 695 -0.411237 0.911520 0.003845
-7.486486 -7.109704 -0.570921 687 -0.411237 0.911520 0.003845
-7.486023 -7.109272 -0.567705 697 -0.411237 0.911520 0.003845
-7.485615 -7.108884 -0.564499 695 -0.411237 0.911520 0.003845
-7.485260 -7.108540 -0.561292 707 -0.411237 0.911520 0.003845
-7.486073 -7.109314 -0.558175 721 -0.411237 0.911520 0.003845
-7.486987 -7.110184 -0.555056 741 -0.411237 0.911520 0.003845
-7.486044 -7.109296 -0.551815 711 -0.411237 0.911520 0.003845
-7.486958 -7.110153 -0.548696 715 -0.411237 0.911520 0.003845
-7.487818 -7.110979 -0.545578 721 -0.411237 0.911520 0.003845
-7.487093 -7.110282 -0.542345 713 -0.411237 0.911520 0.003845
-7.487095 -7.110292 -0.539165 715 -0.411237 0.911520 0.003845
-7.487907 -7.111053 -0.536047 723 -0.411237 0.911520 0.003845
-7.487758 -7.110915 -0.532858 725 -0.411237 0.911520 0.003845
-7.486760 -7.109969 -0.529608 705 -0.411237 0.911520 0.003845
-7.486556 -7.109773 -0.526419 695 -0.411237 0.911520 0.003845
-7.486942 -7.110136 -0.523266 697 -0.411237 0.911520 0.003845
-7.487149 -7.110339 -0.520104 713 -0.411237 0.911520 0.003845
-7.487583 -7.110754 -0.516949 719 -0.411237 0.911520 0.003845
-7.487372 -7.110552 -0.513761 727 -0.411237 0.911520 0.003845
-7.486907 -7.110106 -0.510546 717 -0.411237 0.911520 0.003845
-7.486744 -7.109956 -0.507357 713 -0.411237 0.911520 0.003845
-7.486862 -7.110062 -0.504186 715 -0.411237 0.911520 0.003845
-7.486706 -7.109917 -0.500997 695 -0.411237 0.911520 0.003845
-7.486597 -7.109812 -0.497818 703 -0.411237 0.911520 0.003845
-7.487023 -7.110220 -0.494664 713 -0.411237 0.911520 0.003845
-7.487031 -7.110223 -0.491484 705 -0.411237 0.911520 0.003845
-7.487231 -7.110420 -0.488322 707 -0.411237 0.911520 0.003845
-7.487609 -7.110776 -0.485168 713 -0.411237 0.911520 0.003845
-7.487492 -7.110664 -0.481979 725 -0.411237 0.911520 0.003845
-7.486807 -7.110013 -0.478766 721 -0.411237 0.911520 0.003845
-7.486904 -7.110113 -0.475595 719 -0.411237 0.911520 0.003845
-7.487117 -7.110309 -0.472433 711 -0.411237 0.911520 0.003845
-7.487796 -7.110962 -0.469296 693 -0.411237 0.911520 0.003845
-7.488914 -7.112010 -0.466186 695 -0.411237 0.911520 0.003845
-7.488901 -7.112009 -0.463006 697 -0.411237 0.911520 0.003845
-7.488153 -7.111293 -0.459783 701 -0.411237 0.911520 0.003845
-7.488202 -7.111342 -0.456612 703 -0.411237 0.911520 0.003845
-7.488454 -7.111583 -0.453450 707 -0.411237 0.911520 0.003845
-7.488235 -7.111374 -0.450252 713 -0.411237 0.911520 0.003845
-7.488126 -7.111269 -0.447073 703 -0.411237 0.911520 0.003845
-7.488057 -7.111209 -0.443893 713 -0.411237 0.911520 0.003845
-7.487931 -7.111090 -0.440704 711 -0.411237 0.911520 0.003845
-7.487507 -7.110676 -0.437508 725 -0.411237 0.911520 0.003845
-7.487336 -7.110519 -0.434320 695 -0.411237 0.911520 0.003845
-7.487430 -7.110606 -0.431149 695 -0.411237 0.911520 0.003845
-7.487415 -7.110590 -0.427969 691 -0.411237 0.911520 0.003845
-7.487778 -7.110934 -0.424815 689 -0.411237 0.911520 0.003845
-7.487701 -7.110868 -0.421636 693 -0.411237 0.911520 0.003845
-7.488112 -7.111263 -0.418482 701 -0.411237 0.911520 0.003845
-7.488734 -7.111844 -0.415336 699 -0.411237 0.911520 0.003845
-7.488027 -7.111173 -0.412123 703 -0.411237 0.911520 0.003845
-7.487840 -7.111004 -0.408934 687 -0.411237 0.911520 0.003845
-7.488565 -7.111694 -0.405798 683 -0.411237 0.911520 0.003845
-7.488070 -7.111223 -0.402602 697 -0.411237 0.911520 0.003845
-7.487630 -7.110796 -0.399396 685 -0.411237 0.911520 0.003845
-7.488726 -7.111839 -0.396286 687 -0.411237 0.911520 0.003845
-7.488915 -7.112016 -0.393114 685 -0.411237 0.911520 0.003845
-7.488618 -7.111745 -0.389927 679 -0.411237 0.911520 0.003845
-7.488067 -7.111215 -0.386722 691 -0.411237 0.911520 0.003845
-7.488155 -7.111295 -0.383551 683 -0.411237 0.911520 0.003845
-7.488660 -7.111781 -0.380396 667 -0.411237 0.911520 0.003845
-7.487835 -7.111001 -0.377184 675 -0.411237 0.911520 0.003845
-7.488183 -7.111332 -0.374020 675 -0.411237 0.911520 0.003845
-7.488633 -7.111760 -0.370876 685 -0.411237 0.911520 0.003845
-7.488286 -7.111423 -0.367679 681 -0.411237 0.911520 0.003845
-7.487783 -7.110944 -0.364484 661 -0.411237 0.911520 0.003845
-7.488132 -7.111275 -0.361321 663 -0.411237 0.911520 0.003845
-7.490062 -7.113115 -0.358232 651 -0.411237 0.911520 0.003845
-7.489913 -7.112978 -0.355054 645 -0.411237 0.911520 0.003845
-7.488891 -7.111999 -0.351833 655 -0.411237 0.911520 0.003845
-7.488428 -7.111567 -0.348637 659 -0.411237 0.911520 0.003845
-7.488082 -7.111229 -0.345451 659 -0.411237 0.911520 0.003845
-7.488421 -7.111554 -0.342287 647 -0.411237 0.911520 0.003845
-7.488061 -7.111218 -0.339101 655 -0.411237 0.911520 0.003845
-7.488085 -7.111233 -0.335920 643 -0.411237 0.911520 0.003845
-7.489055 -7.112162 -0.332791 655 -0.411237 0.911520 0.003845
-7.489922 -7.112981 -0.329653 659 -0.411237 0.911520 0.003845
-7.489671 -7.112747 -0.326465 659 -0.411237 0.911520 0.003845
-7.489317 -7.112403 -0.323279 657 -0.411237 0.911520 0.003845
-7.489019 -7.112118 -0.320091 651 -0.411237 0.911520 0.003845
-7.488871 -7.111980 -0.316913 639 -0.411237 0.911520 0.003845
-7.495818 -7.114041 -0.612837 685 -0.411237 0.911520 0.003845
-7.495849 -7.114063 -0.609656 695 -0.411237 0.911520 0.003845
-7.496079 -7.114286 -0.606484 697 -0.411237 0.911520 0.003845
-7.495528 -7.113756 -0.603259 693 -0.411237 0.911520 0.003845
-7.495704 -7.113934 -0.600087 709 -0.411237 0.911520 0.003845
-7.495783 -7.114007 -0.596907 695 -0.411237 0.911520 0.003845
-7.495382 -7.113626 -0.593700 717 -0.411237 0.911520 0.003845
-7.494721 -7.112993 -0.590467 713 -0.411237 0.911520 0.003845
-7.494527 -7.112818 -0.587268 709 -0.411237 0.911520 0.003845
-7.495724 -7.113944 -0.584167 715 -0.411237 0.911520 0.003845
-7.496638 -7.114814 -0.581058 717 -0.411237 0.911520 0.003845
-7.496820 -7.114985 -0.577886 721 -0.411237 0.911520 0.003845
-7.496940 -7.115105 -0.574715 725 -0.411237 0.911520 0.003845
-7.496483 -7.114664 -0.571500 703 -0.411237 0.911520 0.003845
-7.495439 -7.113680 -0.568239 689 -0.411237 0.911520 0.003845
-7.495352 -7.113593 -0.565050 681 -0.411237 0.911520 0.003845
-7.495794 -7.114014 -0.561896 699 -0.411237 0.911520 0.003845
-7.495968 -7.114178 -0.558724 721 -0.411237 0.911520 0.003845
-7.496032 -7.114239 -0.555553 715 -0.411237 0.911520 0.003845
-7.495309 -7.113556 -0.552310 717 -0.411237 0.911520 0.003845
-7.495524 -7.113766 -0.549148 717 -0.411237 0.911520 0.003845
-7.496651 -7.114835 -0.546047 717 -0.411237 0.911520 0.003845
-7.497037 -7.115198 -0.542894 715 -0.411237 0.911520 0.003845
-7.496731 -7.114905 -0.539686 715 -0.411237 0.911520 0.003845
-7.495992 -7.114210 -0.536453 725 -0.411237 0.911520 0.003845
-7.495961 -7.114168 -0.533264 723 -0.411237 0.911520 0.003845
-7.495750 -7.113979 -0.530075 713 -0.411237 0.911520 0.003845
-7.495334 -7.113585 -0.526859 717 -0.411237 0.911520 0.003845
-7.495240 -7.113492 -0.523670 717 -0.411237 0.911520 0.003845
-7.495619 -7.113848 -0.520516 717 -0.411237 0.911520 0.003845
-7.495517 -7.113749 -0.517327 717 -0.411237 0.911520 0.003845
-7.495779 -7.114010 -0.514165 727 -0.411237 0.911520 0.003845
-7.496851 -7.115021 -0.511055 731 -0.411237 0.911520 0.003845
-7.496537 -7.114723 -0.507857 713 -0.411237 0.911520 0.003845
-7.495798 -7.114028 -0.504624 703 -0.411237 0.911520 0.003845
-7.495861 -7.114075 -0.501454 713 -0.411237 0.911520 0.003845
-7.495855 -7.114079 -0.498264 713 -0.411237 0.911520 0.003845
-7.495596 -7.113825 -0.495066 701 -0.411237 0.911520 0.003845
-7.496653 -7.114837 -0.491956 707 -0.411237 0.911520 0.003845
-7.497024 -7.115188 -0.488802 705 -0.411237 0.911520 0.003845
-7.496229 -7.114433 -0.485570 709 -0.411237 0.911520 0.003845
-7.495593 -7.113834 -0.482346 711 -0.411237 0.911520 0.003845
-7.496333 -7.114523 -0.479219 709 -0.411237 0.911520 0.003845
-7.496697 -7.114881 -0.476055 715 -0.411237 0.911520 0.003845
-7.496479 -7.114673 -0.472867 703 -0.411237 0.911520 0.003845
-7.496430 -7.114617 -0.469678 687 -0.411237 0.911520 0.003845
-7.496581 -7.114762 -0.466506 681 -0.411237 0.911520 0.003845
-7.496945 -7.115106 -0.463353 687 -0.411237 0.911520 0.003845
-7.497041 -7.115207 -0.460182 691 -0.411237 0.911520 0.003845
-7.496822 -7.114998 -0.456984 689 -0.411237 0.911520 0.003845
-7.497247 -7.115393 -0.453830 689 -0.411237 0.911520 0.003845
-7.497768 -7.115891 -0.450675 695 -0.411237 0.911520 0.003845
-7.497328 -7.115478 -0.447469 697 -0.411237 0.911520 0.003845
-7.496479 -7.114666 -0.444247 677 -0.411237 0.911520 0.003845
-7.496890 -7.115061 -0.441093 687 -0.411237 0.911520 0.003845
-7.497197 -7.115346 -0.437930 695 -0.411237 0.911520 0.003845
-7.496538 -7.114728 -0.434706 687 -0.411237 0.911520 0.003845
-7.496373 -7.114564 -0.431517 669 -0.411237 0.911520 0.003845
-7.496728 -7.114902 -0.428364 685 -0.411237 0.911520 0.003845
-7.497091 -7.115245 -0.425200 685 -0.411237 0.911520 0.003845
-7.497282 -7.115435 -0.422038 691 -0.411237 0.911520 0.003845
-7.496999 -7.115162 -0.418841 683 -0.411237 0.911520 0.003845
-7.496670 -7.114851 -0.415644 681 -0.411237 0.911520 0.003845
-7.496703 -7.114888 -0.412464 677 -0.411237 0.911520 0.003845
-7.496578 -7.114769 -0.409285 673 -0.411237 0.911520 0.003845
-7.496980 -7.115145 -0.406121 679 -0.411237 0.911520 0.003845
-7.496862 -7.115032 -0.402942 675 -0.411237 0.911520 0.003845
-7.496573 -7.114768 -0.399745 675 -0.411237 0.911520 0.003845
-7.496927 -7.115090 -0.396581 683 -0.411237 0.911520 0.003845
-7.497275 -7.115422 -0.393428 675 -0.411237 0.911520 0.003845
-7.498103 -7.116209 -0.390290 669 -0.411237 0.911520 0.003845
-7.498182 -7.116282 -0.387109 659 -0.411237 0.911520 0.003845
-7.497255 -7.115407 -0.383888 669 -0.411237 0.911520 0.003845
-7.497815 -7.115937 -0.380732 673 -0.411237 0.911520 0.003845
-7.498060 -7.116172 -0.377570 671 -0.411237 0.911520 0.003845
-7.497557 -7.115694 -0.374365 683 -0.411237 0.911520 0.003845
-7.496732 -7.114915 -0.371152 671 -0.411237 0.911520 0.003845
-7.496860 -7.115041 -0.367981 669 -0.411237 0.911520 0.003845
-7.497474 -7.115615 -0.364825 663 -0.411237 0.911520 0.003845
-7.497334 -7.115483 -0.361647 657 -0.411237 0.911520 0.003845
-7.497413 -7.115558 -0.358466 633 -0.411237 0.911520 0.003845
-7.497965 -7.116082 -0.355320 627 -0.411237 0.911520 0.003845
-7.498203 -7.116310 -0.352148 627 -0.411237 0.911520 0.003845
-7.497267 -7.115428 -0.348927 633 -0.411237 0.911520 0.003845
-7.497024 -7.115187 -0.345739 633 -0.411237 0.911520 0.003845
-7.497782 -7.115917 -0.342602 635 -0.411237 0.911520 0.003845
-7.497325 -7.115476 -0.339396 633 -0.411237 0.911520 0.003845
-7.496924 -7.115095 -0.336210 631 -0.411237 0.911520 0.003845
-7.497681 -7.115811 -0.333063 657 -0.411237 0.911520 0.003845
-7.498549 -7.116643 -0.329924 653 -0.411237 0.911520 0.003845
-7.498203 -7.116306 -0.326728 641 -0.411237 0.911520 0.003845
-7.497842 -7.115970 -0.323531 637 -0.411237 0.911520 0.003845
-7.497797 -7.115929 -0.320361 631 -0.411237 0.911520 0.003845
-7.497924 -7.116055 -0.317180 629 -0.411237 0.911520 0.003845
-7.503987 -7.117525 -0.613321 699 -0.411237 0.911520 0.003845
-7.504601 -7.118098 -0.610175 695 -0.411237 0.911520 0.003845
-7.505106 -7.118584 -0.607030 671 -0.411237 0.911520 0.003845
-7.504760 -7.118247 -0.603814 679 -0.411237 0.911520 0.003845
-7.504786 -7.118277 -0.600633 695 -0.411237 0.911520 0.003845
-7.505385 -7.118852 -0.597488 699 -0.411237 0.911520 0.003845
-7.505308 -7.118771 -0.594298 719 -0.411237 0.911520 0.003845
-7.505016 -7.118492 -0.591091 711 -0.411237 0.911520 0.003845
-7.504616 -7.118110 -0.587875 707 -0.411237 0.911520 0.003845
-7.504577 -7.118075 -0.584685 705 -0.411237 0.911520 0.003845
-7.505075 -7.118555 -0.581530 707 -0.411237 0.911520 0.003845
-7.504729 -7.118217 -0.578323 709 -0.411237 0.911520 0.003845
-7.504526 -7.118035 -0.575125 713 -0.411237 0.911520 0.003845
-7.504346 -7.117858 -0.571927 693 -0.411237 0.911520 0.003845
-7.503875 -7.117420 -0.568701 691 -0.411237 0.911520 0.003845
-7.504427 -7.117943 -0.565556 687 -0.411237 0.911520 0.003845
-7.504389 -7.117908 -0.562366 695 -0.411237 0.911520 0.003845
-7.504138 -7.117661 -0.559168 693 -0.411237 0.911520 0.003845
-7.505100 -7.118583 -0.556049 697 -0.411237 0.911520 0.003845
-7.505494 -7.118952 -0.552895 719 -0.411237 0.911520 0.003845
-7.504763 -7.118262 -0.549652 719 -0.411237 0.911520 0.003845
-7.504299 -7.117816 -0.546437 715 -0.411237 0.911520 0.003845
-7.504474 -7.117980 -0.543265 721 -0.411237 0.911520 0.003845
-7.504798 -7.118292 -0.540102 711 -0.411237 0.911520 0.003845
-7.504499 -7.118007 -0.536895 719 -0.411237 0.911520 0.003845
-7.504398 -7.117907 -0.533705 711 -0.411237 0.911520 0.003845
-7.504880 -7.118374 -0.530551 715 -0.411237 0.911520 0.003845
-7.504573 -7.118082 -0.527354 709 -0.411237 0.911520 0.003845
-7.504740 -7.118239 -0.524172 721 -0.411237 0.911520 0.003845
-7.505071 -7.118544 -0.521019 725 -0.411237 0.911520 0.003845
-7.504482 -7.117996 -0.517794 713 -0.411237 0.911520 0.003845
-7.504018 -7.117550 -0.514579 719 -0.411237 0.911520 0.003845
-7.504389 -7.117900 -0.511415 707 -0.411237 0.911520 0.003845
-7.505035 -7.118513 -0.508279 709 -0.411237 0.911520 0.003845
-7.504880 -7.118370 -0.505080 715 -0.411237 0.911520 0.003845
-7.504936 -7.118425 -0.501899 711 -0.411237 0.911520 0.003845
-7.505046 -7.118524 -0.498728 703 -0.411237 0.911520 0.003845
-7.504883 -7.118373 -0.495530 691 -0.411237 0.911520 0.003845
-7.504993 -7.118473 -0.492349 695 -0.411237 0.911520 0.003845
-7.504781 -7.118271 -0.489161 699 -0.411237 0.911520 0.003845
-7.504570 -7.118069 -0.485963 693 -0.411237 0.911520 0.003845
-7.505044 -7.118529 -0.482808 703 -0.411237 0.911520 0.003845
-7.504879 -7.118365 -0.479610 701 -0.411237 0.911520 0.003845
-7.504236 -7.117759 -0.476395 697 -0.411237 0.911520 0.003845
-7.504819 -7.118308 -0.473240 705 -0.411237 0.911520 0.003845
-7.505025 -7.118511 -0.470078 693 -0.411237 0.911520 0.003845
-7.504333 -7.117854 -0.466844 685 -0.411237 0.911520 0.003845
-7.504382 -7.117902 -0.463674 671 -0.411237 0.911520 0.003845
-7.505280 -7.118746 -0.460545 683 -0.411237 0.911520 0.003845
-7.504628 -7.118134 -0.457321 669 -0.411237 0.911520 0.003845
-7.504518 -7.118028 -0.454132 673 -0.411237 0.911520 0.003845
-7.504819 -7.118321 -0.450969 673 -0.411237 0.911520 0.003845
-7.505567 -7.119017 -0.447822 673 -0.411237 0.911520 0.003845
-7.505978 -7.119412 -0.444668 677 -0.411237 0.911520 0.003845
-7.505429 -7.118896 -0.441453 683 -0.411237 0.911520 0.003845
-7.505051 -7.118534 -0.438247 683 -0.411237 0.911520 0.003845
-7.505201 -7.118678 -0.435075 687 -0.411237 0.911520 0.003845
-7.506194 -7.119612 -0.431946 677 -0.411237 0.911520 0.003845
-7.506392 -7.119809 -0.428784 685 -0.411237 0.911520 0.003845
-7.505481 -7.118946 -0.425543 681 -0.411237 0.911520 0.003845
-7.505349 -7.118822 -0.422354 689 -0.411237 0.911520 0.003845
-7.505231 -7.118710 -0.419175 677 -0.411237 0.911520 0.003845
-7.505689 -7.119143 -0.416010 669 -0.411237 0.911520 0.003845
-7.505682 -7.119134 -0.412830 665 -0.411237 0.911520 0.003845
-7.505337 -7.118810 -0.409634 661 -0.411237 0.911520 0.003845
-7.505432 -7.118896 -0.406453 677 -0.411237 0.911520 0.003845
-7.505307 -7.118778 -0.403264 663 -0.411237 0.911520 0.003845
-7.506237 -7.119661 -0.400135 673 -0.411237 0.911520 0.003845
-7.506852 -7.120249 -0.396979 673 -0.411237 0.911520 0.003845
-7.506041 -7.119469 -0.393757 659 -0.411237 0.911520 0.003845
-7.505162 -7.118645 -0.390535 639 -0.411237 0.911520 0.003845
-7.505517 -7.118982 -0.387371 631 -0.411237 0.911520 0.003845
-7.506131 -7.119556 -0.384225 661 -0.411237 0.911520 0.003845
-7.505944 -7.119388 -0.381027 661 -0.411237 0.911520 0.003845
-7.506236 -7.119660 -0.377864 671 -0.411237 0.911520 0.003845
-7.506372 -7.119793 -0.374693 667 -0.411237 0.911520 0.003845
-7.506025 -7.119455 -0.371496 663 -0.411237 0.911520 0.003845
-7.505728 -7.119184 -0.368299 659 -0.411237 0.911520 0.003845
-7.505390 -7.118853 -0.365102 651 -0.411237 0.911520 0.003845
-7.506258 -7.119685 -0.361964 647 -0.411237 0.911520 0.003845
-7.506392 -7.119803 -0.358782 627 -0.411237 0.911520 0.003845
-7.505354 -7.118825 -0.355562 603 -0.411237 0.911520 0.003845
-7.505221 -7.118701 -0.352373 613 -0.411237 0.911520 0.003845
-7.506308 -7.119724 -0.349243 609 -0.411237 0.911520 0.003845
-7.507230 -7.120600 -0.346104 613 -0.411237 0.911520 0.003845
-7.507302 -7.120668 -0.342924 621 -0.411237 0.911520 0.003845
-7.507051 -7.120434 -0.339726 621 -0.411237 0.911520 0.003845
-7.507384 -7.120753 -0.336563 625 -0.411237 0.911520 0.003845
-7.507195 -7.120570 -0.333374 645 -0.411237 0.911520 0.003845
-7.506355 -7.119778 -0.330162 639 -0.411237 0.911520 0.003845
-7.506749 -7.120147 -0.326998 637 -0.411237 0.911520 0.003845
-7.506930 -7.120317 -0.323827 629 -0.411237 0.911520 0.003845
-7.507099 -7.120489 -0.320645 631 -0.411237 0.911520 0.003845
-7.507067 -7.120446 -0.317465 627 -0.411237 0.911520 0.003845
-7.512901 -7.121615 -0.613859 683 -0.411237 0.911520 0.003845
-7.513667 -7.122351 -0.610722 677 -0.411237 0.911520 0.003845
-7.513164 -7.121872 -0.607496 673 -0.411237 0.911520 0.003845
-7.513188 -7.121888 -0.604306 679 -0.411237 0.911520 0.003845
-7.513376 -7.122064 -0.601134 693 -0.411237 0.911520 0.003845
-7.513127 -7.121831 -0.597926 699 -0.411237 0.911520 0.003845
-7.513898 -7.122559 -0.594799 707 -0.411237 0.911520 0.003845
-7.514459 -7.123089 -0.591644 703 -0.411237 0.911520 0.003845
-7.513256 -7.121951 -0.588365 713 -0.411237 0.911520 0.003845
-7.513013 -7.121723 -0.585157 703 -0.411237 0.911520 0.003845
-7.513084 -7.121790 -0.581976 713 -0.411237 0.911520 0.003845
-7.513156 -7.121859 -0.578796 725 -0.411237 0.911520 0.003845
-7.513811 -7.122478 -0.575649 717 -0.411237 0.911520 0.003845
-7.513616 -7.122303 -0.572451 703 -0.411237 0.911520 0.003845
-7.513261 -7.121958 -0.569234 687 -0.411237 0.911520 0.003845
-7.512806 -7.121533 -0.566019 673 -0.411237 0.911520 0.003845
-7.513193 -7.121896 -0.562855 671 -0.411237 0.911520 0.003845
-7.513579 -7.122258 -0.559691 695 -0.411237 0.911520 0.003845
-7.513171 -7.121870 -0.556475 687 -0.411237 0.911520 0.003845
-7.513983 -7.122644 -0.553347 691 -0.411237 0.911520 0.003845
-7.513623 -7.122308 -0.550131 697 -0.411237 0.911520 0.003845
-7.513096 -7.121811 -0.546905 693 -0.411237 0.911520 0.003845
-7.514127 -7.122776 -0.543796 701 -0.411237 0.911520 0.003845
-7.513767 -7.122440 -0.540579 705 -0.411237 0.911520 0.003845
-7.513138 -7.121847 -0.537345 707 -0.411237 0.911520 0.003845
-7.513470 -7.122165 -0.534182 695 -0.411237 0.911520 0.003845
-7.514699 -7.123316 -0.531080 699 -0.411237 0.911520 0.003845
-7.514440 -7.123077 -0.527872 703 -0.411237 0.911520 0.003845
-7.513071 -7.121777 -0.524595 711 -0.411237 0.911520 0.003845
-7.513127 -7.121832 -0.521415 709 -0.411237 0.911520 0.003845
-7.513978 -7.122638 -0.518287 705 -0.411237 0.911520 0.003845
-7.514468 -7.123110 -0.515132 723 -0.411237 0.911520 0.003845
-7.513996 -7.122657 -0.511906 713 -0.411237 0.911520 0.003845
-7.513997 -7.122654 -0.508726 719 -0.411237 0.911520 0.003845
-7.514163 -7.122812 -0.505545 711 -0.411237 0.911520 0.003845
-7.513583 -7.122271 -0.502320 707 -0.411237 0.911520 0.003845
-7.513213 -7.121914 -0.499113 709 -0.411237 0.911520 0.003845
-7.513419 -7.122117 -0.495941 701 -0.411237 0.911520 0.003845
-7.514121 -7.122775 -0.492795 699 -0.411237 0.911520 0.003845
-7.514271 -7.122920 -0.489623 703 -0.411237 0.911520 0.003845
-7.513265 -7.121967 -0.486372 705 -0.411237 0.911520 0.003845
-7.513794 -7.122472 -0.483217 711 -0.411237 0.911520 0.003845
-7.514535 -7.123175 -0.480080 709 -0.411237 0.911520 0.003845
-7.513794 -7.122465 -0.476847 697 -0.411237 0.911520 0.003845
-7.513891 -7.122566 -0.473666 695 -0.411237 0.911520 0.003845
-7.514254 -7.122909 -0.470503 697 -0.411237 0.911520 0.003845
-7.514145 -7.122804 -0.467314 693 -0.411237 0.911520 0.003845
-7.513980 -7.122640 -0.464115 671 -0.411237 0.911520 0.003845
-7.513769 -7.122438 -0.460917 667 -0.411237 0.911520 0.003845
-7.514029 -7.122684 -0.457745 677 -0.411237 0.911520 0.003845
-7.513700 -7.122374 -0.454538 675 -0.411237 0.911520 0.003845
-7.513206 -7.121917 -0.451332 669 -0.411237 0.911520 0.003845
-7.513781 -7.122459 -0.448177 677 -0.411237 0.911520 0.003845
-7.514254 -7.122905 -0.445022 673 -0.411237 0.911520 0.003845
-7.515042 -7.123646 -0.441875 683 -0.411237 0.911520 0.003845
-7.515020 -7.123638 -0.438695 683 -0.411237 0.911520 0.003845
-7.513471 -7.122165 -0.435419 669 -0.411237 0.911520 0.003845
-7.513887 -7.122553 -0.432255 673 -0.411237 0.911520 0.003845
-7.515512 -7.124104 -0.429160 675 -0.411237 0.911520 0.003845
-7.515718 -7.124294 -0.425988 673 -0.411237 0.911520 0.003845
-7.514482 -7.123116 -0.422740 669 -0.411237 0.911520 0.003845
-7.514782 -7.123408 -0.419567 671 -0.411237 0.911520 0.003845
-7.515248 -7.123849 -0.416412 673 -0.411237 0.911520 0.003845
-7.514431 -7.123075 -0.413180 661 -0.411237 0.911520 0.003845
-7.514676 -7.123311 -0.410007 663 -0.411237 0.911520 0.003845
-7.515613 -7.124199 -0.406868 671 -0.411237 0.911520 0.003845
-7.515653 -7.124228 -0.403688 651 -0.411237 0.911520 0.003845
-7.515056 -7.123660 -0.400474 661 -0.411237 0.911520 0.003845
-7.514758 -7.123388 -0.397276 657 -0.411237 0.911520 0.003845
-7.515058 -7.123667 -0.394103 643 -0.411237 0.911520 0.003845
-7.514665 -7.123292 -0.390907 629 -0.411237 0.911520 0.003845
-7.514746 -7.123380 -0.387726 613 -0.411237 0.911520 0.003845
-7.514826 -7.123454 -0.384545 629 -0.411237 0.911520 0.003845
-7.515078 -7.123682 -0.381373 633 -0.411237 0.911520 0.003845
-7.514992 -7.123609 -0.378184 633 -0.411237 0.911520 0.003845
-7.515018 -7.123638 -0.375003 637 -0.411237 0.911520 0.003845
-7.515317 -7.123918 -0.371830 635 -0.411237 0.911520 0.003845
-7.514916 -7.123536 -0.368624 625 -0.411237 0.911520 0.003845
-7.515469 -7.124059 -0.365469 625 -0.411237 0.911520 0.003845
-7.515918 -7.124486 -0.362305 629 -0.411237 0.911520 0.003845
-7.515786 -7.124362 -0.359116 631 -0.411237 0.911520 0.003845
-7.516078 -7.124634 -0.355943 605 -0.411237 0.911520 0.003845
-7.515985 -7.124556 -0.352754 613 -0.411237 0.911520 0.003845
-7.514318 -7.122973 -0.349499 579 -0.411237 0.911520 0.003845
-7.514073 -7.122732 -0.346312 587 -0.411237 0.911520 0.003845
-7.515366 -7.123962 -0.343179 581 -0.411237 0.911520 0.003845
-7.515327 -7.123927 -0.340000 585 -0.411237 0.911520 0.003845
-7.514763 -7.123399 -0.336785 601 -0.411237 0.911520 0.003845
-7.514518 -7.123157 -0.333597 611 -0.411237 0.911520 0.003845
-7.514268 -7.122924 -0.330399 631 -0.411237 0.911520 0.003845
-7.514498 -7.123146 -0.327227 637 -0.411237 0.911520 0.003845
-7.515419 -7.124008 -0.324088 641 -0.411237 0.911520 0.003845
-7.516177 -7.124738 -0.320931 637 -0.411237 0.911520 0.003845
-7.515555 -7.124137 -0.317727 625 -0.411237 0.911520 0.003845
-7.522342 -7.126198 -0.614432 681 -0.411237 0.911520 0.003845
-7.521996 -7.125875 -0.611215 679 -0.411237 0.911520 0.003845
-7.521809 -7.125705 -0.608007 677 -0.411237 0.911520 0.003845
-7.522424 -7.126279 -0.604861 681 -0.411237 0.911520 0.003845
-7.522866 -7.126700 -0.601707 679 -0.411237 0.911520 0.003845
-7.521938 -7.125824 -0.598445 693 -0.411237 0.911520 0.003845
-7.521379 -7.125288 -0.595210 685 -0.411237 0.911520 0.003845
-7.522254 -7.126113 -0.592082 699 -0.411237 0.911520 0.003845
-7.522483 -7.126335 -0.588910 687 -0.411237 0.911520 0.003845
-7.523201 -7.127019 -0.585773 691 -0.411237 0.911520 0.003845
-7.523053 -7.126882 -0.582564 701 -0.411237 0.911520 0.003845
-7.522172 -7.126044 -0.579313 703 -0.411237 0.911520 0.003845
-7.521983 -7.125861 -0.576104 699 -0.411237 0.911520 0.003845
-7.521741 -7.125633 -0.572896 681 -0.411237 0.911520 0.003845
-7.521332 -7.125246 -0.569670 677 -0.411237 0.911520 0.003845
-7.521396 -7.125307 -0.566490 669 -0.411237 0.911520 0.003845
-7.522161 -7.126029 -0.563352 675 -0.411237 0.911520 0.003845
-7.522965 -7.126797 -0.560215 679 -0.411237 0.911520 0.003845
-7.523298 -7.127116 -0.557051 683 -0.411237 0.911520 0.003845
-7.523053 -7.126874 -0.553844 693 -0.411237 0.911520 0.003845
-7.523235 -7.127044 -0.550662 677 -0.411237 0.911520 0.003845
-7.523772 -7.127555 -0.547507 681 -0.411237 0.911520 0.003845
-7.524152 -7.127926 -0.544343 691 -0.411237 0.911520 0.003845
-7.523152 -7.126979 -0.541082 687 -0.411237 0.911520 0.003845
-7.521996 -7.125878 -0.537813 671 -0.411237 0.911520 0.003845
-7.522492 -7.126343 -0.534659 685 -0.411237 0.911520 0.003845
-7.522817 -7.126655 -0.531485 691 -0.411237 0.911520 0.003845
-7.522449 -7.126312 -0.528279 689 -0.411237 0.911520 0.003845
-7.522725 -7.126573 -0.525106 685 -0.411237 0.911520 0.003845
-7.522891 -7.126730 -0.521924 687 -0.411237 0.911520 0.003845
-7.523112 -7.126932 -0.518752 691 -0.411237 0.911520 0.003845
-7.523388 -7.127192 -0.515580 697 -0.411237 0.911520 0.003845
-7.523012 -7.126843 -0.512363 697 -0.411237 0.911520 0.003845
-7.523343 -7.127148 -0.509190 707 -0.411237 0.911520 0.003845
-7.523825 -7.127614 -0.506035 711 -0.411237 0.911520 0.003845
-7.523235 -7.127052 -0.502811 701 -0.411237 0.911520 0.003845
-7.523024 -7.126850 -0.499603 689 -0.411237 0.911520 0.003845
-7.522766 -7.126611 -0.496395 691 -0.411237 0.911520 0.003845
-7.522341 -7.126210 -0.493179 673 -0.411237 0.911520 0.003845
-7.523349 -7.127156 -0.490059 671 -0.411237 0.911520 0.003845
-7.523988 -7.127763 -0.486903 683 -0.411237 0.911520 0.003845
-7.523132 -7.126958 -0.483661 691 -0.411237 0.911520 0.003845
-7.522180 -7.126050 -0.480420 689 -0.411237 0.911520 0.003845
-7.522550 -7.126400 -0.477247 677 -0.411237 0.911520 0.003845
-7.523023 -7.126846 -0.474092 677 -0.411237 0.911520 0.003845
-7.522860 -7.126696 -0.470894 681 -0.411237 0.911520 0.003845
-7.522962 -7.126789 -0.467713 669 -0.411237 0.911520 0.003845
-7.523806 -7.127589 -0.464575 655 -0.411237 0.911520 0.003845
-7.524066 -7.127835 -0.461402 665 -0.411237 0.911520 0.003845
-7.523210 -7.127031 -0.458160 681 -0.411237 0.911520 0.003845
-7.522668 -7.126522 -0.454945 671 -0.411237 0.911520 0.003845
-7.523086 -7.126910 -0.451781 679 -0.411237 0.911520 0.003845
-7.523559 -7.127356 -0.448617 669 -0.411237 0.911520 0.003845
-7.523599 -7.127398 -0.445426 679 -0.411237 0.911520 0.003845
-7.523112 -7.126933 -0.442211 669 -0.411237 0.911520 0.003845
-7.522775 -7.126615 -0.439004 677 -0.411237 0.911520 0.003845
-7.522658 -7.126503 -0.435815 665 -0.411237 0.911520 0.003845
-7.523392 -7.127201 -0.432668 657 -0.411237 0.911520 0.003845
-7.524275 -7.128046 -0.429529 663 -0.411237 0.911520 0.003845
-7.523527 -7.127329 -0.426296 665 -0.411237 0.911520 0.003845
-7.522709 -7.126556 -0.423064 663 -0.411237 0.911520 0.003845
-7.523388 -7.127195 -0.419917 667 -0.411237 0.911520 0.003845
-7.523482 -7.127282 -0.416736 661 -0.411237 0.911520 0.003845
-7.523083 -7.126914 -0.413520 659 -0.411237 0.911520 0.003845
-7.523540 -7.127347 -0.410366 653 -0.411237 0.911520 0.003845
-7.524478 -7.128236 -0.407227 651 -0.411237 0.911520 0.003845
-7.523881 -7.127669 -0.404002 633 -0.411237 0.911520 0.003845
-7.523544 -7.127352 -0.400795 647 -0.411237 0.911520 0.003845
-7.523631 -7.127432 -0.397615 639 -0.411237 0.911520 0.003845
-7.523396 -7.127211 -0.394417 651 -0.411237 0.911520 0.003845
-7.524010 -7.127785 -0.391261 639 -0.411237 0.911520 0.003845
-7.524255 -7.128019 -0.388088 637 -0.411237 0.911520 0.003845
-7.523588 -7.127395 -0.384865 619 -0.411237 0.911520 0.003845
-7.523832 -7.127615 -0.381692 629 -0.411237 0.911520 0.003845
-7.524070 -7.127844 -0.378520 629 -0.411237 0.911520 0.003845
-7.524267 -7.128027 -0.375338 647 -0.411237 0.911520 0.003845
-7.525402 -7.129103 -0.372207 659 -0.411237 0.911520 0.003845
-7.525797 -7.129485 -0.369043 645 -0.411237 0.911520 0.003845
-7.524924 -7.128654 -0.365812 637 -0.411237 0.911520 0.003845
-7.524689 -7.128433 -0.362614 629 -0.411237 0.911520 0.003845
-7.524699 -7.128450 -0.359424 609 -0.411237 0.911520 0.003845
-7.524888 -7.128627 -0.356252 593 -0.411237 0.911520 0.003845
-7.524275 -7.128046 -0.353037 583 -0.411237 0.911520 0.003845
-7.524189 -7.127959 -0.349848 585 -0.411237 0.911520 0.003845
-7.524207 -7.127983 -0.346658 601 -0.411237 0.911520 0.003845
-7.524066 -7.127851 -0.343469 595 -0.411237 0.911520 0.003845
-7.524461 -7.128221 -0.340295 617 -0.411237 0.911520 0.003845
-7.524533 -7.128288 -0.337115 617 -0.411237 0.911520 0.003845
-7.524714 -7.128458 -0.333933 605 -0.411237 0.911520 0.003845
-7.524305 -7.128070 -0.330737 617 -0.411237 0.911520 0.003845
-7.523575 -7.127381 -0.327513 619 -0.411237 0.911520 0.003845
-7.523915 -7.127706 -0.324340 619 -0.411237 0.911520 0.003845
-7.525206 -7.128922 -0.321208 633 -0.411237 0.911520 0.003845
-7.525003 -7.128740 -0.318020 639 -0.411237 0.911520 0.003845
-7.531327 -7.130355 -0.611779 681 -0.411237 0.911520 0.003845
-7.531887 -7.130885 -0.608634 681 -0.411237 0.911520 0.003845
-7.531171 -7.130208 -0.605380 669 -0.411237 0.911520 0.003845
-7.530717 -7.129782 -0.602144 689 -0.411237 0.911520 0.003845
-7.530796 -7.129856 -0.598964 675 -0.411237 0.911520 0.003845
-7.530766 -7.129827 -0.595764 677 -0.411237 0.911520 0.003845
-7.531380 -7.130402 -0.592618 689 -0.411237 0.911520 0.003845
-7.531499 -7.130521 -0.589427 689 -0.411237 0.911520 0.003845
-7.531579 -7.130595 -0.586246 707 -0.411237 0.911520 0.003845
-7.531123 -7.130155 -0.583010 687 -0.411237 0.911520 0.003845
-7.530715 -7.129780 -0.579784 683 -0.411237 0.911520 0.003845
-7.530204 -7.129296 -0.576559 683 -0.411237 0.911520 0.003845
-7.530488 -7.129562 -0.573386 677 -0.411237 0.911520 0.003845
-7.531041 -7.130086 -0.570231 669 -0.411237 0.911520 0.003845
-7.530789 -7.129838 -0.567013 673 -0.411237 0.911520 0.003845
-7.530382 -7.129464 -0.563797 667 -0.411237 0.911520 0.003845
-7.530185 -7.129274 -0.560588 659 -0.411237 0.911520 0.003845
-7.530682 -7.129740 -0.557424 653 -0.411237 0.911520 0.003845
-7.530904 -7.129956 -0.554252 657 -0.411237 0.911520 0.003845
-7.531085 -7.130126 -0.551070 653 -0.411237 0.911520 0.003845
-7.531512 -7.130534 -0.547906 659 -0.411237 0.911520 0.003845
-7.531953 -7.130941 -0.544742 671 -0.411237 0.911520 0.003845
-7.531600 -7.130611 -0.541525 679 -0.411237 0.911520 0.003845
-7.531287 -7.130313 -0.538308 683 -0.411237 0.911520 0.003845
-7.531288 -7.130323 -0.535118 687 -0.411237 0.911520 0.003845
-7.530351 -7.129427 -0.531856 679 -0.411237 0.911520 0.003845
-7.530416 -7.129489 -0.528676 677 -0.411237 0.911520 0.003845
-7.531747 -7.130751 -0.525573 681 -0.411237 0.911520 0.003845
-7.531378 -7.130408 -0.522346 663 -0.411237 0.911520 0.003845
-7.531237 -7.130263 -0.519148 673 -0.411237 0.911520 0.003845
-7.531403 -7.130420 -0.515966 681 -0.411237 0.911520 0.003845
-7.531349 -7.130373 -0.512766 689 -0.411237 0.911520 0.003845
-7.531414 -7.130434 -0.509586 679 -0.411237 0.911520 0.003845
-7.531359 -7.130386 -0.506386 681 -0.411237 0.911520 0.003845
-7.531730 -7.130737 -0.503223 671 -0.411237 0.911520 0.003845
-7.531306 -7.130336 -0.499997 665 -0.411237 0.911520 0.003845
-7.531260 -7.130295 -0.496807 657 -0.411237 0.911520 0.003845
-7.532112 -7.131101 -0.493669 661 -0.411237 0.911520 0.003845
-7.532058 -7.131052 -0.490469 659 -0.411237 0.911520 0.003845
-7.531530 -7.130542 -0.487244 669 -0.411237 0.911520 0.003845
-7.531106 -7.130141 -0.484028 673 -0.411237 0.911520 0.003845
-7.531367 -7.130389 -0.480856 671 -0.411237 0.911520 0.003845
-7.531566 -7.130585 -0.477674 673 -0.411237 0.911520 0.003845
-7.531464 -7.130486 -0.474474 671 -0.411237 0.911520 0.003845
-7.531985 -7.130984 -0.471319 665 -0.411237 0.911520 0.003845
-7.532732 -7.131679 -0.468172 665 -0.411237 0.911520 0.003845
-7.532883 -7.131824 -0.464991 647 -0.411237 0.911520 0.003845
-7.532609 -7.131571 -0.461783 661 -0.411237 0.911520 0.003845
-7.531759 -7.130759 -0.458541 659 -0.411237 0.911520 0.003845
-7.531478 -7.130500 -0.455334 657 -0.411237 0.911520 0.003845
-7.532164 -7.131145 -0.452177 661 -0.411237 0.911520 0.003845
-7.532252 -7.131239 -0.448996 665 -0.411237 0.911520 0.003845
-7.531552 -7.130575 -0.445763 671 -0.411237 0.911520 0.003845
-7.530962 -7.130014 -0.442538 671 -0.411237 0.911520 0.003845
-7.531003 -7.130056 -0.439348 665 -0.411237 0.911520 0.003845
-7.531359 -7.130394 -0.436175 655 -0.411237 0.911520 0.003845
-7.530879 -7.129934 -0.432959 651 -0.411237 0.911520 0.003845
-7.530816 -7.129867 -0.429770 657 -0.411237 0.911520 0.003845
-7.531480 -7.130507 -0.426613 663 -0.411237 0.911520 0.003845
-7.531897 -7.130894 -0.423449 661 -0.411237 0.911520 0.003845
-7.532252 -7.131232 -0.420276 659 -0.411237 0.911520 0.003845
-7.532025 -7.131017 -0.417078 657 -0.411237 0.911520 0.003845
-7.531736 -7.130752 -0.413870 649 -0.411237 0.911520 0.003845
-7.532886 -7.131840 -0.410740 641 -0.411237 0.911520 0.003845
-7.533241 -7.132178 -0.407566 641 -0.411237 0.911520 0.003845
-7.532644 -7.131609 -0.404342 647 -0.411237 0.911520 0.003845
-7.532409 -7.131388 -0.401144 637 -0.411237 0.911520 0.003845
-7.531496 -7.130511 -0.397902 633 -0.411237 0.911520 0.003845
-7.531836 -7.130836 -0.394739 637 -0.411237 0.911520 0.003845
-7.532238 -7.131226 -0.391565 621 -0.411237 0.911520 0.003845
-7.532483 -7.131446 -0.388393 597 -0.411237 0.911520 0.003845
-7.533154 -7.132092 -0.385236 623 -0.411237 0.911520 0.003845
-7.532753 -7.131711 -0.382020 633 -0.411237 0.911520 0.003845
-7.532360 -7.131335 -0.378814 631 -0.411237 0.911520 0.003845
-7.532275 -7.131262 -0.375624 625 -0.411237 0.911520 0.003845
-7.532677 -7.131638 -0.372451 635 -0.411237 0.911520 0.003845
-7.532969 -7.131911 -0.369278 643 -0.411237 0.911520 0.003845
-7.532616 -7.131580 -0.366071 627 -0.411237 0.911520 0.003845
-7.532223 -7.131205 -0.362865 599 -0.411237 0.911520 0.003845
-7.532083 -7.131074 -0.359666 597 -0.411237 0.911520 0.003845
-7.532753 -7.131706 -0.356510 581 -0.411237 0.911520 0.003845
-7.534313 -7.133193 -0.353385 593 -0.411237 0.911520 0.003845
-7.534385 -7.133261 -0.350204 603 -0.411237 0.911520 0.003845
-7.534196 -7.133078 -0.347006 609 -0.411237 0.911520 0.003845
-7.533946 -7.132844 -0.343808 609 -0.411237 0.911520 0.003845
-7.533442 -7.132366 -0.340593 613 -0.411237 0.911520 0.003845
-7.533247 -7.132177 -0.337394 609 -0.411237 0.911520 0.003845
-7.533429 -7.132347 -0.334213 595 -0.411237 0.911520 0.003845
-7.533863 -7.132761 -0.331048 599 -0.411237 0.911520 0.003845
-7.532928 -7.131880 -0.327817 599 -0.411237 0.911520 0.003845
-7.532629 -7.131594 -0.324610 615 -0.411237 0.911520 0.003845
-7.533016 -7.131957 -0.321446 617 -0.411237 0.911520 0.003845
-7.533662 -7.132570 -0.318280 617 -0.411237 0.911520 0.003845
-7.539299 -7.133365 -0.609037 661 -0.411237 0.911520 0.003845
-7.539428 -7.133483 -0.599455 669 -0.411237 0.911520 0.003845
-7.539555 -7.133609 -0.596264 661 -0.411237 0.911520 0.003845
-7.539142 -7.133223 -0.586647 671 -0.411237 0.911520 0.003845
-7.538639 -7.132744 -0.583412 671 -0.411237 0.911520 0.003845
-7.539317 -7.133379 -0.577066 669 -0.411237 0.911520 0.003845
-7.539011 -7.133101 -0.573848 661 -0.411237 0.911520 0.003845
-7.539537 -7.133597 -0.554703 641 -0.411237 0.911520 0.003845
-7.539604 -7.133658 -0.516361 661 -0.411237 0.911520 0.003845
-7.539507 -7.133565 -0.471631 637 -0.411237 0.911520 0.003845
