-7.42033577 -7.30116177 -0.66868001 285.000000 -0.587434 0.809262 0.004108
-7.42032099 -7.30114603 -0.66547000 295.000000 -0.587434 0.809262 0.004108
-7.42186880 -7.30267382 -0.66239500 295.000000 -0.587434 0.809262 0.004108
-7.42284298 -7.30362606 -0.65927601 289.000000 -0.587434 0.809262 0.004108
-7.42152309 -7.30233383 -0.65594798 305.000000 -0.587434 0.809262 0.004108
-7.42093611 -7.30175400 -0.65268397 301.000000 -0.587434 0.809262 0.004108
-7.42174911 -7.30255699 -0.64954603 295.000000 -0.587434 0.809262 0.004108
-7.42152500 -7.30233812 -0.64631802 289.000000 -0.587434 0.809262 0.004108
-7.42046690 -7.30129385 -0.64301801 287.000000 -0.587434 0.809262 0.004108
-7.42122602 -7.30203581 -0.63988101 285.000000 -0.587434 0.809262 0.004108
-7.42105579 -7.30187607 -0.63665199 299.000000 -0.587434 0.809262 0.004108
-7.42030001 -7.30112696 -0.63338000 285.000000 -0.587434 0.809262 0.004108
-7.42080212 -7.30161381 -0.63021499 285.000000 -0.587434 0.809262 0.004108
-7.42146206 -7.30227184 -0.62705803 289.000000 -0.587434 0.809262 0.004108
-7.42038679 -7.30121613 -0.62376797 289.000000 -0.587434 0.809262 0.004108
-7.42144012 -7.30224180 -0.61743802 277.000000 -0.587434 0.809262 0.004108
-7.42245293 -7.30323982 -0.61430800 273.000000 -0.587434 0.809262 0.004108
-7.42226982 -7.30306816 -0.61107999 299.000000 -0.587434 0.809262 0.004108
-7.42162800 -7.30242920 -0.60782599 291.000000 -0.587434 0.809262 0.004108
-7.42108107 -7.30189610 -0.60457098 295.000000 -0.587434 0.809262 0.004108
-7.42125988 -7.30207014 -0.60137999 293.000000 -0.587434 0.809262 0.004108
-7.42175388 -7.30254984 -0.59821498 295.000000 -0.587434 0.809262 0.004108
-7.42178011 -7.30257988 -0.59500402 291.000000 -0.587434 0.809262 0.004108
-7.42236805 -7.30315304 -0.59184903 275.000000 -0.587434 0.809262 0.004108
-7.42254591 -7.30333996 -0.58864701 265.000000 -0.587434 0.809262 0.004108
-7.42319012 -7.30397081 -0.58549100 275.000000 -0.587434 0.809262 0.004108
-7.42462015 -7.30537510 -0.58239698 273.000000 -0.587434 0.809262 0.004108
-7.42438221 -7.30514193 -0.57916898 281.000000 -0.587434 0.809262 0.004108
-7.42298412 -7.30377197 -0.57585198 279.000000 -0.587434 0.809262 0.004108
-7.42217922 -7.30296898 -0.57258999 253.000000 -0.587434 0.809262 0.004108
-7.42239809 -7.30319023 -0.56939799 243.000000 -0.587434 0.809262 0.004108
-7.42262411 -7.30341578 -0.56620598 251.000000 -0.587434 0.809262 0.004108
-7.42212200 -7.30292177 -0.56296003 257.000000 -0.587434 0.809262 0.004108
-7.42286396 -7.30365086 -0.55981302 279.000000 -0.587434 0.809262 0.004108
-7.42325211 -7.30402803 -0.55662900 275.000000 -0.587434 0.809262 0.004108
-7.42231798 -7.30311489 -0.55335802 269.000000 -0.587434 0.809262 0.004108
-7.42218590 -7.30297279 -0.55013901 271.000000 -0.587434 0.809262 0.004108
-7.42339277 -7.30416107 -0.54701799 279.000000 -0.587434 0.809262 0.004108
-7.42355824 -7.30433607 -0.54382598 275.000000 -0.587434 0.809262 0.004108
-7.42419195 -7.30496120 -0.54066002 285.000000 -0.587434 0.809262 0.004108
-7.42451715 -7.30527115 -0.53747702 289.000000 -0.587434 0.809262 0.004108
-7.42406178 -7.30483007 -0.53424102 287.000000 -0.587434 0.809262 0.004108
-7.42468977 -7.30544806 -0.53107500 265.000000 -0.587434 0.809262 0.004108
-7.42516994 -7.30591583 -0.52789998 275.000000 -0.587434 0.809262 0.004108
-7.42418909 -7.30495119 -0.52463001 273.000000 -0.587434 0.809262 0.004108
-7.42388916 -7.30465317 -0.52140200 257.000000 -0.587434 0.809262 0.004108
-7.42462301 -7.30537605 -0.51824498 273.000000 -0.587434 0.809262 0.004108
-7.42493391 -7.30568695 -0.51506197 263.000000 -0.587434 0.809262 0.004108
-7.42468691 -7.30543518 -0.51184398 247.000000 -0.587434 0.809262 0.004108
-7.42447901 -7.30522919 -0.50861597 241.000000 -0.587434 0.809262 0.004108
-7.42530823 -7.30605793 -0.50546801 225.000000 -0.587434 0.809262 0.004108
-7.42594194 -7.30666780 -0.50230199 235.000000 -0.587434 0.809262 0.004108
-7.42572784 -7.30646992 -0.49908400 227.000000 -0.587434 0.809262 0.004108
-7.42541885 -7.30616617 -0.49585700 237.000000 -0.587434 0.809262 0.004108
-7.42453814 -7.30529785 -0.49259499 263.000000 -0.587434 0.809262 0.004108
-7.42422199 -7.30498791 -0.48936799 263.000000 -0.587434 0.809262 0.004108
-7.42423201 -7.30499077 -0.48616800 251.000000 -0.587434 0.809262 0.004108
-7.42464209 -7.30540085 -0.48298401 249.000000 -0.587434 0.809262 0.004108
-7.42567921 -7.30641794 -0.47984400 255.000000 -0.587434 0.809262 0.004108
-7.42577982 -7.30651283 -0.47664300 259.000000 -0.587434 0.809262 0.004108
-7.42562723 -7.30636597 -0.47343400 253.000000 -0.587434 0.809262 0.004108
-7.42566586 -7.30640888 -0.47022399 271.000000 -0.587434 0.809262 0.004108
-7.42524910 -7.30598593 -0.46699801 263.000000 -0.587434 0.809262 0.004108
-7.42529583 -7.30603504 -0.46379700 277.000000 -0.587434 0.809262 0.004108
-7.42455482 -7.30531216 -0.46054399 287.000000 -0.587434 0.809262 0.004108
-7.42433977 -7.30509996 -0.45732701 277.000000 -0.587434 0.809262 0.004108
-7.42459583 -7.30535221 -0.45414400 273.000000 -0.587434 0.809262 0.004108
-7.42433310 -7.30508709 -0.45091599 271.000000 -0.587434 0.809262 0.004108
-7.42447376 -7.30522823 -0.44772500 287.000000 -0.587434 0.809262 0.004108
-7.42441416 -7.30517197 -0.44451499 281.000000 -0.587434 0.809262 0.004108
-7.42513323 -7.30588198 -0.44134799 257.000000 -0.587434 0.809262 0.004108
-7.42585421 -7.30659199 -0.43819100 265.000000 -0.587434 0.809262 0.004108
-7.42609978 -7.30682421 -0.43499899 293.000000 -0.587434 0.809262 0.004108
-7.42603302 -7.30676317 -0.43178999 287.000000 -0.587434 0.809262 0.004108
-7.42570877 -7.30644512 -0.42856300 271.000000 -0.587434 0.809262 0.004108
-7.42523003 -7.30597019 -0.42533699 279.000000 -0.587434 0.809262 0.004108
-7.42531586 -7.30605221 -0.42213601 275.000000 -0.587434 0.809262 0.004108
-7.42566490 -7.30639601 -0.41895300 285.000000 -0.587434 0.809262 0.004108
-7.42564297 -7.30638695 -0.41574299 277.000000 -0.587434 0.809262 0.004108
-7.42650986 -7.30723381 -0.41259500 279.000000 -0.587434 0.809262 0.004108
-7.42696714 -7.30768299 -0.40941000 265.000000 -0.587434 0.809262 0.004108
-7.42642689 -7.30715609 -0.40617499 263.000000 -0.587434 0.809262 0.004108
-7.42604113 -7.30677319 -0.40294901 275.000000 -0.587434 0.809262 0.004108
-7.42622805 -7.30695295 -0.39975700 275.000000 -0.587434 0.809262 0.004108
-7.42715597 -7.30786610 -0.39659801 267.000000 -0.587434 0.809262 0.004108
-7.42832518 -7.30902100 -0.39345700 267.000000 -0.587434 0.809262 0.004108
-7.42867279 -7.30936480 -0.39027300 257.000000 -0.587434 0.809262 0.004108
-7.42812490 -7.30881786 -0.38703799 249.000000 -0.587434 0.809262 0.004108
-7.42748499 -7.30819416 -0.38380399 251.000000 -0.587434 0.809262 0.004108
-7.42620277 -7.30693483 -0.38053700 253.000000 -0.587434 0.809262 0.004108
-7.42649698 -7.30721903 -0.37734401 235.000000 -0.587434 0.809262 0.004108
-7.42678404 -7.30749702 -0.37416101 247.000000 -0.587434 0.809262 0.004108
-7.42643690 -7.30715990 -0.37093401 249.000000 -0.587434 0.809262 0.004108
-7.42745876 -7.30816412 -0.36778399 245.000000 -0.587434 0.809262 0.004108
-7.42748308 -7.30819511 -0.36458400 229.000000 -0.587434 0.809262 0.004108
-7.42667103 -7.30738497 -0.36134201 233.000000 -0.587434 0.809262 0.004108
-7.42722082 -7.30792618 -0.35815600 239.000000 -0.587434 0.809262 0.004108
-7.42843723 -7.30913401 -0.35501501 235.000000 -0.587434 0.809262 0.004108
-7.42819691 -7.30888700 -0.35179701 221.000000 -0.587434 0.809262 0.004108
-7.42769718 -7.30840778 -0.34857199 215.000000 -0.587434 0.809262 0.004108
-7.42923498 -7.30991602 -0.34543699 215.000000 -0.587434 0.809262 0.004108
-7.43102312 -7.31167316 -0.34230900 225.000000 -0.587434 0.809262 0.004108
-7.43077612 -7.31143379 -0.33909199 227.000000 -0.587434 0.809262 0.004108
-7.43048286 -7.31114197 -0.33587399 213.000000 -0.587434 0.809262 0.004108
-7.43034506 -7.31100893 -0.33266601 199.000000 -0.587434 0.809262 0.004108
-7.42979622 -7.31046200 -0.32944101 187.000000 -0.587434 0.809262 0.004108
-7.43121290 -7.31186581 -0.32629699 177.000000 -0.587434 0.809262 0.004108
-7.43274498 -7.31336689 -0.32315201 159.000000 -0.587434 0.809262 0.004108
-7.43145514 -7.31210184 -0.31989500 161.000000 -0.587434 0.809262 0.004108
-7.43177891 -7.31241179 -0.31671199 167.000000 -0.587434 0.809262 0.004108
-7.43236113 -7.31299210 -0.31352600 185.000000 -0.587434 0.809262 0.004108
-7.43233109 -7.31296206 -0.31031600 169.000000 -0.587434 0.809262 0.004108
-7.43239403 -7.31302500 -0.30711499 175.000000 -0.587434 0.809262 0.004108
-7.43224812 -7.31288385 -0.30390701 179.000000 -0.587434 0.809262 0.004108
-7.43194008 -7.31258011 -0.30069000 169.000000 -0.587434 0.809262 0.004108
-7.44109392 -7.31720400 -0.66710299 203.000000 -0.587434 0.809262 0.004108
-7.44097900 -7.31709099 -0.66387397 191.000000 -0.587434 0.809262 0.004108
-7.44039202 -7.31651115 -0.66060901 193.000000 -0.587434 0.809262 0.004108
-7.44058609 -7.31669807 -0.65740699 201.000000 -0.587434 0.809262 0.004108
-7.44072580 -7.31683779 -0.65419602 199.000000 -0.587434 0.809262 0.004108
-7.44013214 -7.31625223 -0.65093100 175.000000 -0.587434 0.809262 0.004108
-7.43902016 -7.31516409 -0.64762199 193.000000 -0.587434 0.809262 0.004108
-7.43978596 -7.31591177 -0.64447498 199.000000 -0.587434 0.809262 0.004108
-7.44107008 -7.31717920 -0.64136201 197.000000 -0.587434 0.809262 0.004108
-7.44120312 -7.31731319 -0.63816100 193.000000 -0.587434 0.809262 0.004108
-7.44139719 -7.31749916 -0.63495898 195.000000 -0.587434 0.809262 0.004108
-7.44007397 -7.31619310 -0.63163197 189.000000 -0.587434 0.809262 0.004108
-7.43958092 -7.31570578 -0.62837601 191.000000 -0.587434 0.809262 0.004108
-7.44039392 -7.31650686 -0.62522799 205.000000 -0.587434 0.809262 0.004108
-7.44036293 -7.31647778 -0.62200898 203.000000 -0.587434 0.809262 0.004108
-7.44024086 -7.31635714 -0.61878002 197.000000 -0.587434 0.809262 0.004108
-7.44021797 -7.31633377 -0.61557001 183.000000 -0.587434 0.809262 0.004108
-7.44019604 -7.31631088 -0.61234999 197.000000 -0.587434 0.809262 0.004108
-7.44125700 -7.31736183 -0.60922003 207.000000 -0.587434 0.809262 0.004108
-7.44076300 -7.31687498 -0.60596400 221.000000 -0.587434 0.809262 0.004108
-7.43954182 -7.31566715 -0.60265601 231.000000 -0.587434 0.809262 0.004108
-7.43945694 -7.31559181 -0.59942698 241.000000 -0.587434 0.809262 0.004108
-7.43890905 -7.31504488 -0.59617198 217.000000 -0.587434 0.809262 0.004108
-7.43981600 -7.31593895 -0.59303302 213.000000 -0.587434 0.809262 0.004108
-7.43968487 -7.31581211 -0.58980399 191.000000 -0.587434 0.809262 0.004108
-7.43975496 -7.31587982 -0.58659399 175.000000 -0.587434 0.809262 0.004108
-7.44123316 -7.31733608 -0.58349901 175.000000 -0.587434 0.809262 0.004108
-7.44187498 -7.31796789 -0.58033299 185.000000 -0.587434 0.809262 0.004108
-7.44206095 -7.31814718 -0.57713097 175.000000 -0.587434 0.809262 0.004108
-7.44197083 -7.31806707 -0.57391202 153.000000 -0.587434 0.809262 0.004108
-7.44120598 -7.31731081 -0.57063901 165.000000 -0.587434 0.809262 0.004108
-7.43939686 -7.31552696 -0.56728703 171.000000 -0.587434 0.809262 0.004108
-7.43977785 -7.31590986 -0.56410301 169.000000 -0.587434 0.809262 0.004108
-7.44177198 -7.31787014 -0.56103402 179.000000 -0.587434 0.809262 0.004108
-7.44220686 -7.31829882 -0.55784899 189.000000 -0.587434 0.809262 0.004108
-7.44149494 -7.31758690 -0.55458599 203.000000 -0.587434 0.809262 0.004108
-7.44119501 -7.31730413 -0.55134898 201.000000 -0.587434 0.809262 0.004108
-7.44183111 -7.31793022 -0.54818302 187.000000 -0.587434 0.809262 0.004108
-7.44153023 -7.31763077 -0.54494500 187.000000 -0.587434 0.809262 0.004108
-7.44154596 -7.31764078 -0.54173499 201.000000 -0.587434 0.809262 0.004108
-7.44114399 -7.31724501 -0.53849900 215.000000 -0.587434 0.809262 0.004108
-7.44078302 -7.31689501 -0.53526199 215.000000 -0.587434 0.809262 0.004108
-7.44058180 -7.31669617 -0.53203398 217.000000 -0.587434 0.809262 0.004108
-7.44022799 -7.31635189 -0.52879798 221.000000 -0.587434 0.809262 0.004108
-7.44096279 -7.31707478 -0.52563000 235.000000 -0.587434 0.809262 0.004108
-7.44179916 -7.31789684 -0.52247202 233.000000 -0.587434 0.809262 0.004108
-7.44186211 -7.31795883 -0.51927203 213.000000 -0.587434 0.809262 0.004108
-7.44228697 -7.31836700 -0.51608801 225.000000 -0.587434 0.809262 0.004108
-7.44281387 -7.31888819 -0.51290202 235.000000 -0.587434 0.809262 0.004108
-7.44302416 -7.31909990 -0.50971001 237.000000 -0.587434 0.809262 0.004108
-7.44349623 -7.31956100 -0.50652599 223.000000 -0.587434 0.809262 0.004108
-7.44297886 -7.31905508 -0.50328100 219.000000 -0.587434 0.809262 0.004108
-7.44251585 -7.31859398 -0.50003499 229.000000 -0.587434 0.809262 0.004108
-7.44272614 -7.31880617 -0.49683300 241.000000 -0.587434 0.809262 0.004108
-7.44267988 -7.31874990 -0.49362299 245.000000 -0.587434 0.809262 0.004108
-7.44084883 -7.31696081 -0.49029100 239.000000 -0.587434 0.809262 0.004108
-7.44142199 -7.31752110 -0.48711500 241.000000 -0.587434 0.809262 0.004108
-7.44314718 -7.31921196 -0.48401901 231.000000 -0.587434 0.809262 0.004108
-7.44183397 -7.31792688 -0.48072100 235.000000 -0.587434 0.809262 0.004108
-7.44120884 -7.31731510 -0.47746700 223.000000 -0.587434 0.809262 0.004108
-7.44167280 -7.31777000 -0.47428301 207.000000 -0.587434 0.809262 0.004108
-7.44245386 -7.31853199 -0.47112501 239.000000 -0.587434 0.809262 0.004108
-7.44332981 -7.31939888 -0.46796599 237.000000 -0.587434 0.809262 0.004108
-7.44244099 -7.31852579 -0.46469501 233.000000 -0.587434 0.809262 0.004108
-7.44217110 -7.31825399 -0.46146700 237.000000 -0.587434 0.809262 0.004108
-7.44221783 -7.31830311 -0.45826700 247.000000 -0.587434 0.809262 0.004108
-7.44147682 -7.31758022 -0.45500401 251.000000 -0.587434 0.809262 0.004108
-7.44261599 -7.31869602 -0.45186299 245.000000 -0.587434 0.809262 0.004108
-7.44246101 -7.31853485 -0.44864401 233.000000 -0.587434 0.809262 0.004108
-7.44077587 -7.31688404 -0.44534001 235.000000 -0.587434 0.809262 0.004108
-7.44149685 -7.31759310 -0.44216299 227.000000 -0.587434 0.809262 0.004108
-7.44278908 -7.31886578 -0.43903100 227.000000 -0.587434 0.809262 0.004108
-7.44251823 -7.31859398 -0.43580300 235.000000 -0.587434 0.809262 0.004108
-7.44193077 -7.31801510 -0.43255901 225.000000 -0.587434 0.809262 0.004108
-7.44348717 -7.31955004 -0.42943400 229.000000 -0.587434 0.809262 0.004108
-7.44456196 -7.32061291 -0.42628300 229.000000 -0.587434 0.809262 0.004108
-7.44397593 -7.32003498 -0.42303899 213.000000 -0.587434 0.809262 0.004108
-7.44396210 -7.32001781 -0.41982901 221.000000 -0.587434 0.809262 0.004108
-7.44346809 -7.31953001 -0.41659400 229.000000 -0.587434 0.809262 0.004108
-7.44377708 -7.31982803 -0.41340101 235.000000 -0.587434 0.809262 0.004108
-7.44390917 -7.31996202 -0.41018900 221.000000 -0.587434 0.809262 0.004108
-7.44388723 -7.31994009 -0.40698001 199.000000 -0.587434 0.809262 0.004108
-7.44460011 -7.32064295 -0.40381300 195.000000 -0.587434 0.809262 0.004108
-7.44541979 -7.32145119 -0.40063500 203.000000 -0.587434 0.809262 0.004108
-7.44555283 -7.32158518 -0.39743301 205.000000 -0.587434 0.809262 0.004108
-7.44417000 -7.32022810 -0.39415699 203.000000 -0.587434 0.809262 0.004108
-7.44420910 -7.32025719 -0.39094600 223.000000 -0.587434 0.809262 0.004108
-7.44527817 -7.32131481 -0.38778600 211.000000 -0.587434 0.809262 0.004108
-7.44509983 -7.32113409 -0.38456699 201.000000 -0.587434 0.809262 0.004108
-7.44565010 -7.32167387 -0.38138199 183.000000 -0.587434 0.809262 0.004108
-7.44640779 -7.32241583 -0.37821499 195.000000 -0.587434 0.809262 0.004108
-7.44664001 -7.32264900 -0.37501201 209.000000 -0.587434 0.809262 0.004108
-7.44609308 -7.32211590 -0.37177801 227.000000 -0.587434 0.809262 0.004108
-7.44533587 -7.32136679 -0.36852500 215.000000 -0.587434 0.809262 0.004108
-7.44504976 -7.32108116 -0.36530700 215.000000 -0.587434 0.809262 0.004108
-7.44455004 -7.32060194 -0.36207199 207.000000 -0.587434 0.809262 0.004108
-7.44421101 -7.32025814 -0.35884500 223.000000 -0.587434 0.809262 0.004108
-7.44428778 -7.32033300 -0.35563499 225.000000 -0.587434 0.809262 0.004108
-7.44550991 -7.32153320 -0.35248300 231.000000 -0.587434 0.809262 0.004108
-7.44672585 -7.32274199 -0.34933099 243.000000 -0.587434 0.809262 0.004108
-7.44669485 -7.32269812 -0.34612101 245.000000 -0.587434 0.809262 0.004108
-7.44599295 -7.32200813 -0.34287801 221.000000 -0.587434 0.809262 0.004108
-7.44528198 -7.32131100 -0.33963501 223.000000 -0.587434 0.809262 0.004108
-7.44602489 -7.32204103 -0.33645701 219.000000 -0.587434 0.809262 0.004108
-7.44625092 -7.32226706 -0.33325499 215.000000 -0.587434 0.809262 0.004108
-7.44549417 -7.32151699 -0.33001199 219.000000 -0.587434 0.809262 0.004108
-7.44549608 -7.32152796 -0.32680199 205.000000 -0.587434 0.809262 0.004108
-7.44551802 -7.32154417 -0.32359201 187.000000 -0.587434 0.809262 0.004108
-7.44620800 -7.32222795 -0.32041499 189.000000 -0.587434 0.809262 0.004108
-7.44669580 -7.32270193 -0.31722000 205.000000 -0.587434 0.809262 0.004108
-7.44576216 -7.32179022 -0.31397900 219.000000 -0.587434 0.809262 0.004108
-7.44661283 -7.32262421 -0.31080100 197.000000 -0.587434 0.809262 0.004108
-7.44861603 -7.32459021 -0.30767199 193.000000 -0.587434 0.809262 0.004108
-7.44888687 -7.32485485 -0.30446899 201.000000 -0.587434 0.809262 0.004108
-7.44727278 -7.32327509 -0.30119401 195.000000 -0.587434 0.809262 0.004108
-7.45711803 -7.32839298 -0.66830200 215.000000 -0.587434 0.809262 0.004108
-7.45830202 -7.32956219 -0.66518998 205.000000 -0.587434 0.809262 0.004108
-7.45828676 -7.32954502 -0.66196001 203.000000 -0.587434 0.809262 0.004108
-7.45754623 -7.32882214 -0.65867698 223.000000 -0.587434 0.809262 0.004108
-7.45831299 -7.32957077 -0.65552002 215.000000 -0.587434 0.809262 0.004108
-7.45876122 -7.33001280 -0.65233600 193.000000 -0.587434 0.809262 0.004108
-7.45733881 -7.32860899 -0.64898902 217.000000 -0.587434 0.809262 0.004108
-7.45576286 -7.32706213 -0.64563400 239.000000 -0.587434 0.809262 0.004108
-7.45589495 -7.32719612 -0.64242297 221.000000 -0.587434 0.809262 0.004108
-7.45702505 -7.32830477 -0.63929200 211.000000 -0.587434 0.809262 0.004108
-7.45846415 -7.32971478 -0.63618797 207.000000 -0.587434 0.809262 0.004108
-7.45781517 -7.32908297 -0.63291401 205.000000 -0.587434 0.809262 0.004108
-7.45717382 -7.32844496 -0.62963998 187.000000 -0.587434 0.809262 0.004108
-7.45829582 -7.32954788 -0.62650901 185.000000 -0.587434 0.809262 0.004108
-7.45832109 -7.32957697 -0.62328899 215.000000 -0.587434 0.809262 0.004108
-7.45757103 -7.32883501 -0.62000602 223.000000 -0.587434 0.809262 0.004108
-7.45717812 -7.32845879 -0.61675000 223.000000 -0.587434 0.809262 0.004108
-7.45772791 -7.32899904 -0.61357498 227.000000 -0.587434 0.809262 0.004108
-7.45755100 -7.32881784 -0.61033601 225.000000 -0.587434 0.809262 0.004108
-7.45689392 -7.32818079 -0.60706198 231.000000 -0.587434 0.809262 0.004108
-7.45629311 -7.32758904 -0.60379797 243.000000 -0.587434 0.809262 0.004108
-7.45679522 -7.32807589 -0.60061300 239.000000 -0.587434 0.809262 0.004108
-7.45811701 -7.32937384 -0.59750003 225.000000 -0.587434 0.809262 0.004108
-7.45772505 -7.32898521 -0.59424400 235.000000 -0.587434 0.809262 0.004108
-7.45847607 -7.32973480 -0.59108698 247.000000 -0.587434 0.809262 0.004108
-7.45948887 -7.33071899 -0.58793700 229.000000 -0.587434 0.809262 0.004108
-7.45850801 -7.32976723 -0.58464599 227.000000 -0.587434 0.809262 0.004108
-7.45771217 -7.32897186 -0.58136398 225.000000 -0.587434 0.809262 0.004108
-7.45891905 -7.33015919 -0.57823199 233.000000 -0.587434 0.809262 0.004108
-7.45899677 -7.33023405 -0.57501101 229.000000 -0.587434 0.809262 0.004108
-7.45832586 -7.32958412 -0.57174802 221.000000 -0.587434 0.809262 0.004108
-7.45886898 -7.33011723 -0.56856298 223.000000 -0.587434 0.809262 0.004108
-7.45992804 -7.33115387 -0.56542200 215.000000 -0.587434 0.809262 0.004108
-7.45947313 -7.33071280 -0.56216699 213.000000 -0.587434 0.809262 0.004108
-7.45881701 -7.33006096 -0.55890298 213.000000 -0.587434 0.809262 0.004108
-7.45913506 -7.33037901 -0.55570000 221.000000 -0.587434 0.809262 0.004108
-7.45973110 -7.33095789 -0.55252397 231.000000 -0.587434 0.809262 0.004108
-7.46036482 -7.33158302 -0.54934800 233.000000 -0.587434 0.809262 0.004108
-7.45918417 -7.33042097 -0.54604900 237.000000 -0.587434 0.809262 0.004108
-7.45877409 -7.33001900 -0.54279298 247.000000 -0.587434 0.809262 0.004108
-7.45852804 -7.32978010 -0.53955501 243.000000 -0.587434 0.809262 0.004108
-7.45723820 -7.32851505 -0.53624701 241.000000 -0.587434 0.809262 0.004108
-7.45719290 -7.32847214 -0.53302801 259.000000 -0.587434 0.809262 0.004108
-7.45699215 -7.32827187 -0.52980000 267.000000 -0.587434 0.809262 0.004108
-7.45742607 -7.32868719 -0.52660501 263.000000 -0.587434 0.809262 0.004108
-7.45836306 -7.32961988 -0.52345598 253.000000 -0.587434 0.809262 0.004108
-7.45764399 -7.32890320 -0.52018303 257.000000 -0.587434 0.809262 0.004108
-7.45863390 -7.32988119 -0.51703399 265.000000 -0.587434 0.809262 0.004108
-7.45946980 -7.33070278 -0.51386499 271.000000 -0.587434 0.809262 0.004108
-7.45853615 -7.32979107 -0.51058400 289.000000 -0.587434 0.809262 0.004108
-7.45911598 -7.33035612 -0.50740898 291.000000 -0.587434 0.809262 0.004108
-7.46006012 -7.33128214 -0.50424999 301.000000 -0.587434 0.809262 0.004108
-7.46000814 -7.33123398 -0.50103003 283.000000 -0.587434 0.809262 0.004108
-7.45939016 -7.33062792 -0.49776599 277.000000 -0.587434 0.809262 0.004108
-7.45974588 -7.33097792 -0.49457201 281.000000 -0.587434 0.809262 0.004108
-7.46007204 -7.33128786 -0.49137899 283.000000 -0.587434 0.809262 0.004108
-7.46032715 -7.33154011 -0.48817700 279.000000 -0.587434 0.809262 0.004108
-7.46028185 -7.33149815 -0.48494700 271.000000 -0.587434 0.809262 0.004108
-7.45912981 -7.33036184 -0.48165801 251.000000 -0.587434 0.809262 0.004108
-7.45875406 -7.32999992 -0.47842199 263.000000 -0.587434 0.809262 0.004108
-7.45886183 -7.33010101 -0.47521001 253.000000 -0.587434 0.809262 0.004108
-7.45848513 -7.32973814 -0.47196400 257.000000 -0.587434 0.809262 0.004108
-7.45848608 -7.32973480 -0.46875399 265.000000 -0.587434 0.809262 0.004108
-7.45791292 -7.32916880 -0.46549901 265.000000 -0.587434 0.809262 0.004108
-7.45727301 -7.32854414 -0.46224499 271.000000 -0.587434 0.809262 0.004108
-7.45856619 -7.32981682 -0.45910299 259.000000 -0.587434 0.809262 0.004108
-7.45996618 -7.33119392 -0.45596901 265.000000 -0.587434 0.809262 0.004108
-7.45913076 -7.33036613 -0.45269701 261.000000 -0.587434 0.809262 0.004108
-7.45760918 -7.32887793 -0.44939199 255.000000 -0.587434 0.809262 0.004108
-7.45895481 -7.33019590 -0.44625899 251.000000 -0.587434 0.809262 0.004108
-7.46034813 -7.33156681 -0.44311500 247.000000 -0.587434 0.809262 0.004108
-7.45976877 -7.33099413 -0.43987101 231.000000 -0.587434 0.809262 0.004108
-7.45944500 -7.33067799 -0.43663400 239.000000 -0.587434 0.809262 0.004108
-7.46005583 -7.33128214 -0.43344799 249.000000 -0.587434 0.809262 0.004108
-7.46062183 -7.33183479 -0.43026200 253.000000 -0.587434 0.809262 0.004108
-7.46045208 -7.33166218 -0.42703399 253.000000 -0.587434 0.809262 0.004108
-7.46043682 -7.33164501 -0.42381400 253.000000 -0.587434 0.809262 0.004108
-7.46021414 -7.33142614 -0.42058599 241.000000 -0.587434 0.809262 0.004108
-7.46019316 -7.33141708 -0.41736600 233.000000 -0.587434 0.809262 0.004108
-7.46122217 -7.33242798 -0.41420600 213.000000 -0.587434 0.809262 0.004108
-7.46104383 -7.33224678 -0.41097799 215.000000 -0.587434 0.809262 0.004108
-7.46103001 -7.33223104 -0.40776801 223.000000 -0.587434 0.809262 0.004108
-7.46132517 -7.33252907 -0.40456501 237.000000 -0.587434 0.809262 0.004108
-7.46224499 -7.33342123 -0.40139601 249.000000 -0.587434 0.809262 0.004108
-7.46321201 -7.33438015 -0.39822701 241.000000 -0.587434 0.809262 0.004108
-7.46126604 -7.33246708 -0.39490500 243.000000 -0.587434 0.809262 0.004108
-7.46087885 -7.33208418 -0.39166901 257.000000 -0.587434 0.809262 0.004108
-7.46179199 -7.33298397 -0.38850001 255.000000 -0.587434 0.809262 0.004108
-7.46255016 -7.33372593 -0.38532299 247.000000 -0.587434 0.809262 0.004108
-7.46372700 -7.33488798 -0.38216099 233.000000 -0.587434 0.809262 0.004108
-7.46349621 -7.33466196 -0.37893400 235.000000 -0.587434 0.809262 0.004108
-7.46238279 -7.33355904 -0.37566400 227.000000 -0.587434 0.809262 0.004108
-7.46135712 -7.33255577 -0.37239400 245.000000 -0.587434 0.809262 0.004108
-7.46132708 -7.33252621 -0.36917400 247.000000 -0.587434 0.809262 0.004108
-7.46192312 -7.33311892 -0.36598799 259.000000 -0.587434 0.809262 0.004108
-7.46227121 -7.33344793 -0.36279500 249.000000 -0.587434 0.809262 0.004108
-7.46301508 -7.33419085 -0.35960799 269.000000 -0.587434 0.809262 0.004108
-7.46398115 -7.33513594 -0.35643801 259.000000 -0.587434 0.809262 0.004108
-7.46489477 -7.33603716 -0.35325900 271.000000 -0.587434 0.809262 0.004108
-7.46392107 -7.33507681 -0.34999901 273.000000 -0.587434 0.809262 0.004108
-7.46284819 -7.33402109 -0.34672901 269.000000 -0.587434 0.809262 0.004108
-7.46421814 -7.33537197 -0.34357601 255.000000 -0.587434 0.809262 0.004108
-7.46539307 -7.33652020 -0.34041399 245.000000 -0.587434 0.809262 0.004108
-7.46478319 -7.33592176 -0.33717000 249.000000 -0.587434 0.809262 0.004108
-7.46422815 -7.33538294 -0.33392501 261.000000 -0.587434 0.809262 0.004108
-7.46351624 -7.33467197 -0.33068201 261.000000 -0.587434 0.809262 0.004108
-7.46348619 -7.33464193 -0.32746199 253.000000 -0.587434 0.809262 0.004108
-7.46443081 -7.33558178 -0.32428300 255.000000 -0.587434 0.809262 0.004108
-7.46502686 -7.33616114 -0.32108700 245.000000 -0.587434 0.809262 0.004108
-7.46446323 -7.33560085 -0.31785300 249.000000 -0.587434 0.809262 0.004108
-7.46375179 -7.33490419 -0.31461000 253.000000 -0.587434 0.809262 0.004108
-7.46375418 -7.33491516 -0.31138900 249.000000 -0.587434 0.809262 0.004108
-7.46393299 -7.33508778 -0.30817801 245.000000 -0.587434 0.809262 0.004108
-7.46425819 -7.33539820 -0.30497500 249.000000 -0.587434 0.809262 0.004108
-7.46536398 -7.33648682 -0.30180401 245.000000 -0.587434 0.809262 0.004108
