774
-7.481751 -7.021426 -0.485291 1259 0.120658 0.992694 0.000000
-7.482493 -7.022129 -0.482184 1253 0.120658 0.992694 0.000000
-7.482392 -7.022030 -0.479015 1259 0.120658 0.992694 0.000000
-7.482059 -7.021723 -0.475838 1247 0.120658 0.992694 0.000000
-7.481948 -7.021618 -0.472679 1259 0.120658 0.992694 0.000000
-7.481152 -7.020865 -0.469466 1249 0.120658 0.992694 0.000000
-7.480979 -7.020711 -0.466308 1245 0.120658 0.992694 0.000000
-7.481458 -7.021152 -0.463173 1253 0.120658 0.992694 0.000000
-7.482143 -7.021798 -0.460057 1255 0.120658 0.992694 0.000000
-7.482033 -7.021693 -0.456898 1255 0.120658 0.992694 0.000000
-7.480953 -7.020688 -0.453678 1237 0.120658 0.992694 0.000000
-7.481209 -7.020926 -0.450535 1237 0.120658 0.992694 0.000000
-7.482379 -7.022021 -0.447444 1225 0.120658 0.992694 0.000000
-7.483010 -7.022609 -0.444328 1237 0.120658 0.992694 0.000000
-7.482615 -7.022252 -0.441142 1239 0.120658 0.992694 0.000000
-7.481971 -7.021646 -0.437948 1233 0.120658 0.992694 0.000000
-7.481907 -7.021579 -0.434788 1245 0.120658 0.992694 0.000000
-7.481621 -7.021309 -0.431621 1239 0.120658 0.992694 0.000000
-7.481711 -7.021402 -0.428470 1253 0.120658 0.992694 0.000000
-7.482029 -7.021690 -0.425327 1241 0.120658 0.992694 0.000000
-7.481801 -7.021479 -0.422159 1233 0.120658 0.992694 0.000000
-7.482049 -7.021711 -0.419017 1235 0.120658 0.992694 0.000000
-7.481923 -7.021594 -0.415858 1237 0.120658 0.992694 0.000000
-7.481374 -7.021076 -0.412673 1227 0.120658 0.992694 0.000000
-7.482316 -7.021963 -0.409564 1229 0.120658 0.992694 0.000000
-7.482127 -7.021796 -0.406396 1237 0.120658 0.992694 0.000000
-7.481259 -7.020974 -0.403194 1241 0.120658 0.992694 0.000000
-7.481937 -7.021612 -0.400077 1245 0.120658 0.992694 0.000000
-7.482234 -7.021896 -0.396934 1247 0.120658 0.992694 0.000000
-7.481095 -7.020819 -0.393725 1243 0.120658 0.992694 0.000000
-7.480747 -7.020499 -0.390548 1243 0.120658 0.992694 0.000000
-7.480732 -7.020483 -0.387398 1243 0.120658 0.992694 0.000000
-7.481450 -7.021154 -0.384281 1241 0.120658 0.992694 0.000000
-7.481906 -7.021590 -0.381147 1245 0.120658 0.992694 0.000000
-7.481078 -7.020812 -0.377945 1241 0.120658 0.992694 0.000000
-7.480945 -7.020689 -0.374786 1251 0.120658 0.992694 0.000000
-7.481725 -7.021409 -0.371669 1247 0.120658 0.992694 0.000000
-7.482277 -7.021934 -0.368543 1245 0.120658 0.992694 0.000000
-7.482143 -7.021811 -0.365384 1245 0.120658 0.992694 0.000000
-7.482167 -7.021826 -0.362224 1251 0.120658 0.992694 0.000000
-7.481930 -7.021608 -0.359066 1243 0.120658 0.992694 0.000000
-7.481581 -7.021275 -0.355890 1253 0.120658 0.992694 0.000000
-7.481655 -7.021356 -0.352739 1239 0.120658 0.992694 0.000000
-7.482101 -7.021771 -0.349604 1231 0.120658 0.992694 0.000000
-7.482548 -7.022187 -0.346470 1235 0.120658 0.992694 0.000000
-7.482095 -7.021759 -0.343294 1231 0.120658 0.992694 0.000000
-7.481094 -7.020830 -0.340094 1217 0.120658 0.992694 0.000000
-7.481221 -7.020940 -0.336952 1215 0.120658 0.992694 0.000000
-7.481613 -7.021313 -0.333809 1223 0.120658 0.992694 0.000000
-7.481734 -7.021431 -0.330667 1215 0.120658 0.992694 0.000000
-7.481171 -7.020902 -0.327483 1207 0.120658 0.992694 0.000000
-7.480973 -7.020714 -0.324324 1215 0.120658 0.992694 0.000000
-7.482057 -7.021727 -0.321214 1227 0.120658 0.992694 0.000000
-7.481961 -7.021635 -0.318055 1221 0.120658 0.992694 0.000000
-7.481598 -7.021304 -0.314888 1221 0.120658 0.992694 0.000000
-7.483939 -7.019097 -0.703417 1229 0.120658 0.992694 0.000000
-7.484196 -7.019349 -0.700285 1225 0.120658 0.992694 0.000000
-7.484244 -7.019383 -0.697124 1229 0.120658 0.992694 0.000000
-7.484231 -7.019382 -0.693954 1223 0.120658 0.992694 0.000000
-7.484766 -7.019880 -0.690839 1229 0.120658 0.992694 0.000000
-7.485125 -7.020214 -0.687706 1231 0.120658 0.992694 0.000000
-7.485117 -7.020204 -0.684536 1221 0.120658 0.992694 0.000000
-7.484840 -7.019941 -0.681348 1225 0.120658 0.992694 0.000000
-7.484777 -7.019888 -0.678179 1233 0.120658 0.992694 0.000000
-7.484923 -7.020025 -0.675027 1235 0.120658 0.992694 0.000000
-7.485497 -7.020569 -0.671912 1237 0.120658 0.992694 0.000000
-7.485697 -7.020749 -0.668770 1237 0.120658 0.992694 0.000000
-7.485093 -7.020188 -0.665546 1239 0.120658 0.992694 0.000000
-7.484449 -7.019581 -0.662332 1235 0.120658 0.992694 0.000000
-7.484275 -7.019413 -0.659153 1229 0.120658 0.992694 0.000000
-7.484468 -7.019602 -0.656001 1233 0.120658 0.992694 0.000000
-7.484396 -7.019528 -0.652832 1227 0.120658 0.992694 0.000000
-7.484485 -7.019608 -0.649681 1231 0.120658 0.992694 0.000000
-7.484527 -7.019650 -0.646520 1225 0.120658 0.992694 0.000000
-7.485037 -7.020129 -0.643396 1237 0.120658 0.992694 0.000000
-7.485389 -7.020457 -0.640262 1241 0.120658 0.992694 0.000000
-7.485048 -7.020143 -0.637075 1233 0.120658 0.992694 0.000000
-7.484651 -7.019772 -0.633879 1229 0.120658 0.992694 0.000000
-7.484900 -7.020005 -0.630737 1233 0.120658 0.992694 0.000000
-7.484925 -7.020034 -0.627576 1237 0.120658 0.992694 0.000000
-7.484805 -7.019909 -0.624397 1231 0.120658 0.992694 0.000000
-7.485365 -7.020441 -0.621282 1227 0.120658 0.992694 0.000000
-7.485820 -7.020863 -0.618158 1245 0.120658 0.992694 0.000000
-7.485526 -7.020586 -0.614970 1239 0.120658 0.992694 0.000000
-7.485026 -7.020121 -0.611765 1227 0.120658 0.992694 0.000000
-7.485098 -7.020187 -0.608614 1233 0.120658 0.992694 0.000000
-7.485387 -7.020464 -0.605471 1249 0.120658 0.992694 0.000000
-7.485101 -7.020195 -0.602284 1245 0.120658 0.992694 0.000000
-7.485015 -7.020110 -0.599115 1245 0.120658 0.992694 0.000000
-7.484396 -7.019536 -0.595910 1233 0.120658 0.992694 0.000000
-7.484164 -7.019310 -0.592733 1231 0.120658 0.992694 0.000000
-7.484660 -7.019777 -0.589608 1237 0.120658 0.992694 0.000000
-7.485003 -7.020098 -0.586475 1249 0.120658 0.992694 0.000000
-7.485395 -7.020470 -0.583341 1243 0.120658 0.992694 0.000000
-7.485946 -7.020982 -0.580226 1241 0.120658 0.992694 0.000000
-7.485598 -7.020662 -0.577029 1237 0.120658 0.992694 0.000000
-7.485296 -7.020380 -0.573852 1227 0.120658 0.992694 0.000000
-7.485854 -7.020897 -0.570726 1247 0.120658 0.992694 0.000000
-7.485919 -7.020958 -0.567576 1263 0.120658 0.992694 0.000000
-7.485395 -7.020473 -0.564370 1259 0.120658 0.992694 0.000000
-7.485419 -7.020489 -0.561220 1267 0.120658 0.992694 0.000000
-7.485319 -7.020404 -0.558051 1251 0.120658 0.992694 0.000000
-7.485662 -7.020725 -0.554908 1257 0.120658 0.992694 0.000000
-7.485353 -7.020437 -0.551731 1253 0.120658 0.992694 0.000000
-7.484675 -7.019791 -0.548517 1245 0.120658 0.992694 0.000000
-7.484526 -7.019655 -0.545348 1251 0.120658 0.992694 0.000000
-7.484591 -7.019716 -0.542197 1245 0.120658 0.992694 0.000000
-7.484767 -7.019878 -0.539046 1235 0.120658 0.992694 0.000000
-7.485096 -7.020187 -0.535913 1247 0.120658 0.992694 0.000000
-7.484834 -7.019950 -0.532735 1235 0.120658 0.992694 0.000000
-7.485377 -7.020455 -0.529610 1245 0.120658 0.992694 0.000000
-7.486127 -7.021164 -0.526503 1255 0.120658 0.992694 0.000000
-7.485547 -7.020621 -0.523308 1249 0.120658 0.992694 0.000000
-7.485292 -7.020376 -0.520130 1237 0.120658 0.992694 0.000000
-7.485572 -7.020634 -0.516988 1245 0.120658 0.992694 0.000000
-7.485152 -7.020244 -0.513802 1239 0.120658 0.992694 0.000000
-7.485263 -7.020341 -0.510650 1245 0.120658 0.992694 0.000000
-7.485258 -7.020346 -0.507490 1243 0.120658 0.992694 0.000000
-7.485212 -7.020306 -0.504331 1243 0.120658 0.992694 0.000000
-7.485538 -7.020601 -0.501188 1247 0.120658 0.992694 0.000000
-7.484736 -7.019855 -0.497975 1247 0.120658 0.992694 0.000000
-7.484682 -7.019808 -0.494815 1235 0.120658 0.992694 0.000000
-7.485639 -7.020708 -0.491716 1251 0.120658 0.992694 0.000000
-7.485697 -7.020762 -0.488566 1243 0.120658 0.992694 0.000000
-7.485537 -7.020606 -0.485397 1245 0.120658 0.992694 0.000000
-7.485427 -7.020502 -0.482228 1245 0.120658 0.992694 0.000000
-7.485054 -7.020149 -0.479052 1225 0.120658 0.992694 0.000000
-7.484626 -7.019753 -0.475865 1229 0.120658 0.992694 0.000000
-7.485263 -7.020347 -0.472749 1243 0.120658 0.992694 0.000000
-7.485998 -7.021043 -0.469633 1253 0.120658 0.992694 0.000000
-7.486150 -7.021187 -0.466481 1259 0.120658 0.992694 0.000000
-7.486303 -7.021330 -0.463339 1263 0.120658 0.992694 0.000000
-7.485713 -7.020768 -0.460145 1251 0.120658 0.992694 0.000000
-7.484966 -7.020066 -0.456942 1229 0.120658 0.992694 0.000000
-7.485701 -7.020762 -0.453825 1249 0.120658 0.992694 0.000000
-7.486220 -7.021249 -0.450700 1251 0.120658 0.992694 0.000000
-7.485735 -7.020795 -0.447514 1241 0.120658 0.992694 0.000000
-7.485084 -7.020182 -0.444320 1239 0.120658 0.992694 0.000000
-7.485395 -7.020478 -0.441177 1241 0.120658 0.992694 0.000000
-7.485651 -7.020717 -0.438035 1239 0.120658 0.992694 0.000000
-7.485526 -7.020600 -0.434876 1229 0.120658 0.992694 0.000000
-7.485137 -7.020236 -0.431700 1229 0.120658 0.992694 0.000000
-7.484756 -7.019876 -0.428513 1237 0.120658 0.992694 0.000000
-7.484741 -7.019861 -0.425363 1227 0.120658 0.992694 0.000000
-7.485205 -7.020304 -0.422229 1223 0.120658 0.992694 0.000000
-7.486049 -7.021088 -0.419121 1217 0.120658 0.992694 0.000000
-7.486234 -7.021269 -0.415969 1237 0.120658 0.992694 0.000000
-7.485748 -7.020802 -0.412784 1235 0.120658 0.992694 0.000000
-7.486259 -7.021282 -0.409659 1243 0.120658 0.992694 0.000000
-7.486612 -7.021624 -0.406525 1239 0.120658 0.992694 0.000000
-7.486430 -7.021449 -0.403357 1247 0.120658 0.992694 0.000000
-7.485778 -7.020836 -0.400163 1247 0.120658 0.992694 0.000000
-7.485436 -7.020508 -0.396986 1245 0.120658 0.992694 0.000000
-7.485462 -7.020538 -0.393836 1233 0.120658 0.992694 0.000000
-7.485496 -7.020575 -0.390685 1233 0.120658 0.992694 0.000000
-7.485687 -7.020748 -0.387534 1249 0.120658 0.992694 0.000000
-7.485339 -7.020429 -0.384367 1235 0.120658 0.992694 0.000000
-7.484942 -7.020058 -0.381190 1235 0.120658 0.992694 0.000000
-7.485237 -7.020328 -0.378047 1241 0.120658 0.992694 0.000000
-7.486442 -7.021462 -0.374946 1249 0.120658 0.992694 0.000000
-7.486522 -7.021535 -0.371795 1249 0.120658 0.992694 0.000000
-7.485847 -7.020904 -0.368612 1239 0.120658 0.992694 0.000000
-7.486572 -7.021580 -0.365485 1255 0.120658 0.992694 0.000000
-7.486549 -7.021559 -0.362335 1261 0.120658 0.992694 0.000000
-7.485819 -7.020884 -0.359142 1247 0.120658 0.992694 0.000000
-7.486003 -7.021052 -0.355990 1239 0.120658 0.992694 0.000000
-7.486187 -7.021220 -0.352848 1225 0.120658 0.992694 0.000000
-7.486690 -7.021693 -0.349713 1239 0.120658 0.992694 0.000000
-7.486979 -7.021971 -0.346570 1231 0.120658 0.992694 0.000000
-7.486573 -7.021580 -0.343394 1217 0.120658 0.992694 0.000000
-7.486320 -7.021349 -0.340236 1221 0.120658 0.992694 0.000000
-7.486346 -7.021379 -0.337076 1227 0.120658 0.992694 0.000000
-7.485774 -7.020843 -0.333901 1215 0.120658 0.992694 0.000000
-7.485576 -7.020656 -0.330733 1209 0.120658 0.992694 0.000000
-7.486125 -7.021166 -0.327608 1211 0.120658 0.992694 0.000000
-7.486413 -7.021430 -0.324455 1217 0.120658 0.992694 0.000000
-7.486111 -7.021147 -0.321288 1217 0.120658 0.992694 0.000000
-7.485532 -7.020605 -0.318113 1219 0.120658 0.992694 0.000000
-7.485016 -7.020126 -0.314938 1213 0.120658 0.992694 0.000000
-7.489726 -7.019973 -0.703746 1229 0.120658 0.992694 0.000000
-7.489449 -7.019723 -0.700558 1235 0.120658 0.992694 0.000000
-7.489602 -7.019866 -0.697407 1233 0.120658 0.992694 0.000000
-7.488846 -7.019159 -0.694164 1229 0.120658 0.992694 0.000000
-7.488520 -7.018844 -0.690977 1225 0.120658 0.992694 0.000000
-7.489317 -7.019590 -0.687879 1237 0.120658 0.992694 0.000000
-7.489573 -7.019829 -0.684737 1237 0.120658 0.992694 0.000000
-7.489671 -7.019929 -0.681576 1231 0.120658 0.992694 0.000000
-7.489816 -7.020066 -0.678424 1245 0.120658 0.992694 0.000000
-7.489267 -7.019548 -0.675209 1237 0.120658 0.992694 0.000000
-7.488782 -7.019094 -0.672004 1231 0.120658 0.992694 0.000000
-7.489412 -7.019682 -0.668888 1237 0.120658 0.992694 0.000000
-7.489709 -7.019966 -0.665755 1235 0.120658 0.992694 0.000000
-7.489008 -7.019301 -0.662531 1231 0.120658 0.992694 0.000000
-7.488827 -7.019140 -0.659343 1221 0.120658 0.992694 0.000000
-7.489512 -7.019772 -0.656237 1227 0.120658 0.992694 0.000000
-7.489332 -7.019611 -0.653058 1231 0.120658 0.992694 0.000000
-7.488520 -7.018846 -0.649826 1233 0.120658 0.992694 0.000000
-7.488282 -7.018627 -0.646648 1223 0.120658 0.992694 0.000000
-7.488953 -7.019260 -0.643541 1229 0.120658 0.992694 0.000000
-7.489470 -7.019732 -0.640417 1223 0.120658 0.992694 0.000000
-7.489289 -7.019571 -0.637238 1221 0.120658 0.992694 0.000000
-7.489052 -7.019353 -0.634050 1225 0.120658 0.992694 0.000000
-7.489300 -7.019585 -0.630908 1233 0.120658 0.992694 0.000000
-7.489278 -7.019563 -0.627748 1227 0.120658 0.992694 0.000000
-7.488880 -7.019192 -0.624552 1229 0.120658 0.992694 0.000000
-7.488436 -7.018770 -0.621346 1233 0.120658 0.992694 0.000000
-7.488779 -7.019090 -0.618213 1233 0.120658 0.992694 0.000000
-7.490149 -7.020370 -0.615160 1231 0.120658 0.992694 0.000000
-7.489961 -7.020203 -0.611981 1233 0.120658 0.992694 0.000000
-7.489714 -7.019965 -0.608804 1239 0.120658 0.992694 0.000000
-7.489533 -7.019804 -0.605625 1237 0.120658 0.992694 0.000000
-7.488961 -7.019268 -0.602410 1237 0.120658 0.992694 0.000000
-7.487664 -7.018052 -0.599153 1227 0.120658 0.992694 0.000000
-7.488270 -7.018620 -0.596037 1231 0.120658 0.992694 0.000000
-7.489950 -7.020185 -0.593001 1243 0.120658 0.992694 0.000000
-7.489483 -7.019758 -0.589805 1239 0.120658 0.992694 0.000000
-7.488974 -7.019272 -0.586600 1233 0.120658 0.992694 0.000000
-7.488729 -7.019047 -0.583422 1227 0.120658 0.992694 0.000000
-7.488969 -7.019273 -0.580280 1235 0.120658 0.992694 0.000000
-7.489671 -7.019931 -0.577173 1239 0.120658 0.992694 0.000000
-7.489481 -7.019750 -0.573995 1245 0.120658 0.992694 0.000000
-7.488494 -7.018819 -0.570754 1235 0.120658 0.992694 0.000000
-7.489363 -7.019636 -0.567666 1255 0.120658 0.992694 0.000000
-7.489436 -7.019703 -0.564505 1251 0.120658 0.992694 0.000000
-7.488752 -7.019065 -0.561291 1243 0.120658 0.992694 0.000000
-7.488985 -7.019285 -0.558149 1241 0.120658 0.992694 0.000000
-7.489361 -7.019645 -0.555016 1249 0.120658 0.992694 0.000000
-7.489386 -7.019660 -0.551855 1243 0.120658 0.992694 0.000000
-7.489610 -7.019874 -0.548713 1245 0.120658 0.992694 0.000000
-7.489564 -7.019834 -0.545543 1255 0.120658 0.992694 0.000000
-7.489055 -7.019347 -0.542348 1251 0.120658 0.992694 0.000000
-7.489168 -7.019459 -0.539197 1247 0.120658 0.992694 0.000000
-7.489759 -7.020015 -0.536081 1251 0.120658 0.992694 0.000000
-7.489664 -7.019923 -0.532912 1255 0.120658 0.992694 0.000000
-7.488447 -7.018784 -0.529664 1239 0.120658 0.992694 0.000000
-7.488726 -7.019041 -0.526531 1233 0.120658 0.992694 0.000000
-7.489588 -7.019851 -0.523423 1243 0.120658 0.992694 0.000000
-7.489382 -7.019658 -0.520255 1243 0.120658 0.992694 0.000000
-7.488580 -7.018913 -0.517042 1235 0.120658 0.992694 0.000000
-7.488802 -7.019112 -0.513890 1235 0.120658 0.992694 0.000000
-7.489768 -7.020018 -0.510801 1243 0.120658 0.992694 0.000000
-7.489402 -7.019671 -0.507614 1233 0.120658 0.992694 0.000000
-7.489188 -7.019472 -0.504436 1223 0.120658 0.992694 0.000000
-7.489191 -7.019483 -0.501276 1235 0.120658 0.992694 0.000000
-7.488395 -7.018730 -0.498073 1229 0.120658 0.992694 0.000000
-7.489027 -7.019331 -0.494947 1227 0.120658 0.992694 0.000000
-7.489783 -7.020033 -0.491840 1227 0.120658 0.992694 0.000000
-7.489935 -7.020176 -0.488689 1231 0.120658 0.992694 0.000000
-7.489196 -7.019481 -0.485486 1219 0.120658 0.992694 0.000000
-7.488712 -7.019027 -0.482300 1235 0.120658 0.992694 0.000000
-7.489454 -7.019730 -0.479183 1229 0.120658 0.992694 0.000000
-7.490515 -7.020724 -0.476093 1237 0.120658 0.992694 0.000000
-7.490778 -7.020968 -0.472950 1243 0.120658 0.992694 0.000000
-7.490350 -7.020573 -0.469764 1239 0.120658 0.992694 0.000000
-7.490191 -7.020417 -0.466596 1247 0.120658 0.992694 0.000000
-7.489644 -7.019913 -0.463401 1239 0.120658 0.992694 0.000000
-7.489526 -7.019803 -0.460232 1245 0.120658 0.992694 0.000000
-7.490115 -7.020345 -0.457116 1245 0.120658 0.992694 0.000000
-7.489782 -7.020037 -0.453939 1241 0.120658 0.992694 0.000000
-7.490095 -7.020334 -0.450796 1249 0.120658 0.992694 0.000000
-7.490725 -7.020921 -0.447670 1249 0.120658 0.992694 0.000000
-7.490024 -7.020257 -0.444477 1231 0.120658 0.992694 0.000000
-7.489477 -7.019753 -0.441282 1223 0.120658 0.992694 0.000000
-7.489359 -7.019643 -0.438123 1217 0.120658 0.992694 0.000000
-7.489192 -7.019481 -0.434954 1215 0.120658 0.992694 0.000000
-7.488804 -7.019116 -0.431778 1207 0.120658 0.992694 0.000000
-7.488622 -7.018955 -0.428609 1225 0.120658 0.992694 0.000000
-7.489363 -7.019644 -0.425493 1217 0.120658 0.992694 0.000000
-7.490465 -7.020684 -0.422392 1225 0.120658 0.992694 0.000000
-7.490130 -7.020362 -0.419215 1221 0.120658 0.992694 0.000000
-7.490275 -7.020500 -0.416064 1237 0.120658 0.992694 0.000000
-7.490523 -7.020731 -0.412921 1235 0.120658 0.992694 0.000000
-7.489538 -7.019815 -0.409711 1239 0.120658 0.992694 0.000000
-7.489626 -7.019895 -0.406560 1237 0.120658 0.992694 0.000000
-7.490359 -7.020577 -0.403443 1255 0.120658 0.992694 0.000000
-7.489803 -7.020053 -0.400258 1243 0.120658 0.992694 0.000000
-7.490482 -7.020693 -0.397131 1251 0.120658 0.992694 0.000000
-7.490618 -7.020823 -0.393980 1239 0.120658 0.992694 0.000000
-7.490437 -7.020648 -0.390822 1231 0.120658 0.992694 0.000000
-7.490303 -7.020525 -0.387653 1239 0.120658 0.992694 0.000000
-7.489913 -7.020160 -0.384476 1233 0.120658 0.992694 0.000000
-7.490091 -7.020336 -0.381325 1233 0.120658 0.992694 0.000000
-7.490337 -7.020555 -0.378182 1243 0.120658 0.992694 0.000000
-7.490897 -7.021086 -0.375057 1245 0.120658 0.992694 0.000000
-7.490660 -7.020868 -0.371889 1235 0.120658 0.992694 0.000000
-7.490158 -7.020387 -0.368704 1245 0.120658 0.992694 0.000000
-7.490398 -7.020613 -0.365561 1243 0.120658 0.992694 0.000000
-7.490742 -7.020935 -0.362418 1249 0.120658 0.992694 0.000000
-7.490329 -7.020551 -0.359242 1239 0.120658 0.992694 0.000000
-7.490355 -7.020581 -0.356092 1237 0.120658 0.992694 0.000000
-7.490221 -7.020457 -0.352933 1233 0.120658 0.992694 0.000000
-7.490078 -7.020314 -0.349764 1227 0.120658 0.992694 0.000000
-7.490152 -7.020395 -0.346613 1223 0.120658 0.992694 0.000000
-7.490551 -7.020760 -0.343470 1225 0.120658 0.992694 0.000000
-7.490728 -7.020936 -0.340328 1225 0.120658 0.992694 0.000000
-7.490530 -7.020749 -0.337159 1223 0.120658 0.992694 0.000000
-7.490666 -7.020865 -0.334008 1219 0.120658 0.992694 0.000000
-7.490516 -7.020730 -0.330849 1215 0.120658 0.992694 0.000000
-7.490326 -7.020548 -0.327681 1225 0.120658 0.992694 0.000000
-7.489643 -7.019911 -0.324498 1229 0.120658 0.992694 0.000000
-7.489501 -7.019782 -0.321339 1219 0.120658 0.992694 0.000000
-7.490896 -7.021094 -0.318246 1221 0.120658 0.992694 0.000000
-7.491661 -7.021801 -0.315118 1223 0.120658 0.992694 0.000000
-7.493555 -7.019099 -0.703892 1227 0.120658 0.992694 0.000000
-7.493062 -7.018639 -0.700686 1233 0.120658 0.992694 0.000000
-7.493652 -7.019181 -0.697571 1223 0.120658 0.992694 0.000000
-7.493534 -7.019070 -0.694392 1219 0.120658 0.992694 0.000000
-7.493209 -7.018769 -0.691195 1207 0.120658 0.992694 0.000000
-7.493944 -7.019466 -0.688098 1217 0.120658 0.992694 0.000000
-7.494414 -7.019901 -0.684973 1227 0.120658 0.992694 0.000000
-7.493977 -7.019485 -0.681768 1225 0.120658 0.992694 0.000000
-7.493215 -7.018785 -0.678535 1223 0.120658 0.992694 0.000000
-7.493311 -7.018870 -0.675374 1225 0.120658 0.992694 0.000000
-7.493407 -7.018955 -0.672213 1227 0.120658 0.992694 0.000000
-7.493448 -7.018997 -0.669052 1215 0.120658 0.992694 0.000000
-7.493594 -7.019135 -0.665901 1221 0.120658 0.992694 0.000000
-7.493156 -7.018718 -0.662695 1223 0.120658 0.992694 0.000000
-7.493620 -7.019161 -0.659570 1235 0.120658 0.992694 0.000000
-7.493819 -7.019342 -0.656418 1221 0.120658 0.992694 0.000000
-7.493542 -7.019079 -0.653231 1241 0.120658 0.992694 0.000000
-7.492930 -7.018510 -0.650017 1231 0.120658 0.992694 0.000000
-7.493122 -7.018685 -0.646865 1233 0.120658 0.992694 0.000000
-7.493052 -7.018625 -0.643695 1217 0.120658 0.992694 0.000000
-7.492982 -7.018566 -0.640526 1223 0.120658 0.992694 0.000000
-7.493762 -7.019286 -0.637428 1231 0.120658 0.992694 0.000000
-7.494273 -7.019766 -0.634304 1229 0.120658 0.992694 0.000000
-7.494093 -7.019606 -0.631125 1235 0.120658 0.992694 0.000000
-7.493002 -7.018580 -0.627865 1231 0.120658 0.992694 0.000000
-7.492716 -7.018310 -0.624678 1229 0.120658 0.992694 0.000000
-7.493762 -7.019292 -0.621598 1237 0.120658 0.992694 0.000000
-7.494591 -7.020064 -0.618500 1243 0.120658 0.992694 0.000000
-7.494497 -7.019986 -0.615331 1245 0.120658 0.992694 0.000000
-7.494586 -7.020065 -0.612170 1241 0.120658 0.992694 0.000000
-7.494077 -7.019592 -0.608965 1231 0.120658 0.992694 0.000000
-7.493250 -7.018814 -0.605743 1227 0.120658 0.992694 0.000000
-7.493490 -7.019041 -0.602600 1233 0.120658 0.992694 0.000000
-7.493252 -7.018808 -0.599412 1223 0.120658 0.992694 0.000000
-7.493063 -7.018641 -0.596234 1229 0.120658 0.992694 0.000000
-7.493565 -7.019101 -0.593109 1233 0.120658 0.992694 0.000000
-7.494179 -7.019676 -0.589993 1243 0.120658 0.992694 0.000000
-7.493823 -7.019350 -0.586807 1239 0.120658 0.992694 0.000000
-7.493147 -7.018719 -0.583593 1237 0.120658 0.992694 0.000000
-7.492805 -7.018391 -0.580406 1225 0.120658 0.992694 0.000000
-7.493078 -7.018656 -0.577263 1235 0.120658 0.992694 0.000000
-7.493684 -7.019224 -0.574138 1233 0.120658 0.992694 0.000000
-7.493923 -7.019437 -0.570995 1241 0.120658 0.992694 0.000000
-7.493670 -7.019206 -0.567818 1255 0.120658 0.992694 0.000000
-7.493680 -7.019223 -0.564657 1243 0.120658 0.992694 0.000000
-7.493553 -7.019092 -0.561479 1235 0.120658 0.992694 0.000000
-7.493515 -7.019057 -0.558319 1253 0.120658 0.992694 0.000000
-7.493093 -7.018668 -0.555123 1239 0.120658 0.992694 0.000000
-7.493110 -7.018677 -0.551963 1249 0.120658 0.992694 0.000000
-7.494506 -7.019989 -0.548899 1259 0.120658 0.992694 0.000000
-7.495327 -7.020755 -0.545802 1251 0.120658 0.992694 0.000000
-7.494963 -7.020422 -0.542615 1243 0.120658 0.992694 0.000000
-7.494541 -7.020018 -0.539419 1237 0.120658 0.992694 0.000000
-7.493803 -7.019338 -0.536206 1237 0.120658 0.992694 0.000000
-7.493437 -7.018991 -0.533019 1237 0.120658 0.992694 0.000000
-7.493662 -7.019205 -0.529877 1235 0.120658 0.992694 0.000000
-7.493782 -7.019309 -0.526726 1231 0.120658 0.992694 0.000000
-7.494166 -7.019675 -0.523582 1245 0.120658 0.992694 0.000000
-7.494756 -7.020231 -0.520466 1249 0.120658 0.992694 0.000000
-7.494009 -7.019530 -0.517253 1223 0.120658 0.992694 0.000000
-7.493969 -7.019482 -0.514094 1215 0.120658 0.992694 0.000000
-7.494235 -7.019741 -0.510951 1223 0.120658 0.992694 0.000000
-7.494186 -7.019685 -0.507782 1235 0.120658 0.992694 0.000000
-7.495097 -7.020547 -0.504683 1253 0.120658 0.992694 0.000000
-7.494197 -7.019699 -0.501461 1233 0.120658 0.992694 0.000000
-7.493609 -7.019151 -0.498267 1233 0.120658 0.992694 0.000000
-7.494255 -7.019751 -0.495141 1235 0.120658 0.992694 0.000000
-7.494353 -7.019850 -0.491989 1229 0.120658 0.992694 0.000000
-7.494522 -7.020006 -0.488838 1243 0.120658 0.992694 0.000000
-7.493503 -7.019050 -0.485617 1231 0.120658 0.992694 0.000000
-7.493774 -7.019301 -0.482475 1235 0.120658 0.992694 0.000000
-7.495418 -7.020849 -0.479419 1255 0.120658 0.992694 0.000000
-7.494830 -7.020300 -0.476215 1245 0.120658 0.992694 0.000000
-7.494296 -7.019795 -0.473030 1237 0.120658 0.992694 0.000000
-7.494983 -7.020441 -0.469913 1241 0.120658 0.992694 0.000000
-7.494929 -7.020394 -0.466743 1251 0.120658 0.992694 0.000000
-7.494277 -7.019781 -0.463550 1235 0.120658 0.992694 0.000000
-7.494277 -7.019778 -0.460389 1227 0.120658 0.992694 0.000000
-7.494582 -7.020068 -0.457247 1235 0.120658 0.992694 0.000000
-7.494415 -7.019905 -0.454078 1231 0.120658 0.992694 0.000000
-7.493930 -7.019452 -0.450893 1225 0.120658 0.992694 0.000000
-7.493653 -7.019188 -0.447715 1223 0.120658 0.992694 0.000000
-7.494068 -7.019579 -0.444581 1215 0.120658 0.992694 0.000000
-7.493624 -7.019171 -0.441395 1207 0.120658 0.992694 0.000000
-7.493403 -7.018965 -0.438227 1193 0.120658 0.992694 0.000000
-7.493770 -7.019305 -0.435084 1203 0.120658 0.992694 0.000000
-7.493866 -7.019390 -0.431933 1227 0.120658 0.992694 0.000000
-7.493900 -7.019426 -0.428772 1225 0.120658 0.992694 0.000000
-7.493725 -7.019258 -0.425604 1209 0.120658 0.992694 0.000000
-7.494141 -7.019649 -0.422470 1219 0.120658 0.992694 0.000000
-7.494118 -7.019627 -0.419310 1219 0.120658 0.992694 0.000000
-7.493945 -7.019473 -0.416142 1227 0.120658 0.992694 0.000000
-7.494296 -7.019799 -0.413008 1239 0.120658 0.992694 0.000000
-7.494593 -7.020083 -0.409865 1243 0.120658 0.992694 0.000000
-7.494315 -7.019820 -0.406688 1235 0.120658 0.992694 0.000000
-7.493815 -7.019354 -0.403502 1227 0.120658 0.992694 0.000000
-7.494277 -7.019782 -0.400368 1237 0.120658 0.992694 0.000000
-7.494637 -7.020115 -0.397235 1249 0.120658 0.992694 0.000000
-7.494240 -7.019745 -0.394058 1249 0.120658 0.992694 0.000000
-7.494903 -7.020371 -0.390932 1247 0.120658 0.992694 0.000000
-7.495039 -7.020502 -0.387781 1243 0.120658 0.992694 0.000000
-7.494380 -7.019883 -0.384587 1243 0.120658 0.992694 0.000000
-7.493935 -7.019461 -0.381411 1237 0.120658 0.992694 0.000000
-7.493690 -7.019236 -0.378243 1227 0.120658 0.992694 0.000000
-7.494518 -7.020007 -0.375125 1235 0.120658 0.992694 0.000000
-7.495347 -7.020779 -0.372007 1241 0.120658 0.992694 0.000000
-7.495373 -7.020808 -0.368847 1247 0.120658 0.992694 0.000000
-7.494976 -7.020438 -0.365671 1235 0.120658 0.992694 0.000000
-7.494460 -7.019959 -0.362495 1233 0.120658 0.992694 0.000000
-7.494381 -7.019880 -0.359326 1231 0.120658 0.992694 0.000000
-7.494828 -7.020295 -0.356192 1231 0.120658 0.992694 0.000000
-7.494805 -7.020274 -0.353032 1223 0.120658 0.992694 0.000000
-7.494601 -7.020094 -0.349874 1221 0.120658 0.992694 0.000000
-7.494896 -7.020364 -0.346721 1225 0.120658 0.992694 0.000000
-7.494172 -7.019681 -0.343538 1211 0.120658 0.992694 0.000000
-7.494030 -7.019551 -0.340369 1223 0.120658 0.992694 0.000000
-7.494477 -7.019968 -0.337235 1221 0.120658 0.992694 0.000000
-7.493642 -7.019183 -0.334042 1213 0.120658 0.992694 0.000000
-7.493660 -7.019207 -0.330892 1213 0.120658 0.992694 0.000000
-7.494313 -7.019813 -0.327756 1223 0.120658 0.992694 0.000000
-7.494442 -7.019938 -0.324605 1223 0.120658 0.992694 0.000000
-7.494445 -7.019948 -0.321455 1233 0.120658 0.992694 0.000000
-7.495114 -7.020567 -0.318318 1229 0.120658 0.992694 0.000000
-7.495179 -7.020627 -0.315168 1209 0.120658 0.992694 0.000000
-7.497665 -7.018563 -0.704075 1229 0.120658 0.992694 0.000000
-7.497707 -7.018605 -0.700905 1229 0.120658 0.992694 0.000000
-7.498074 -7.018945 -0.697771 1233 0.120658 0.992694 0.000000
-7.497638 -7.018542 -0.694565 1233 0.120658 0.992694 0.000000
-7.496834 -7.017783 -0.691323 1217 0.120658 0.992694 0.000000
-7.496932 -7.017883 -0.688172 1205 0.120658 0.992694 0.000000
-7.497936 -7.018820 -0.685092 1219 0.120658 0.992694 0.000000
-7.497706 -7.018607 -0.681904 1207 0.120658 0.992694 0.000000
-7.497483 -7.018387 -0.678716 1211 0.120658 0.992694 0.000000
-7.497796 -7.018683 -0.675573 1217 0.120658 0.992694 0.000000
-7.498100 -7.018973 -0.672440 1217 0.120658 0.992694 0.000000
-7.497981 -7.018863 -0.669261 1229 0.120658 0.992694 0.000000
-7.497329 -7.018250 -0.666037 1215 0.120658 0.992694 0.000000
-7.497689 -7.018583 -0.662894 1219 0.120658 0.992694 0.000000
-7.498367 -7.019222 -0.659788 1223 0.120658 0.992694 0.000000
-7.497819 -7.018705 -0.656573 1217 0.120658 0.992694 0.000000
-7.497692 -7.018588 -0.653404 1223 0.120658 0.992694 0.000000
-7.498371 -7.019226 -0.650287 1225 0.120658 0.992694 0.000000
-7.497870 -7.018760 -0.647082 1213 0.120658 0.992694 0.000000
-7.496837 -7.017792 -0.643832 1213 0.120658 0.992694 0.000000
-7.496662 -7.017623 -0.640653 1219 0.120658 0.992694 0.000000
-7.497810 -7.018701 -0.637582 1221 0.120658 0.992694 0.000000
-7.498058 -7.018933 -0.634440 1223 0.120658 0.992694 0.000000
-7.497287 -7.018213 -0.631207 1223 0.120658 0.992694 0.000000
-7.497105 -7.018038 -0.628029 1225 0.120658 0.992694 0.000000
-7.497775 -7.018670 -0.624912 1233 0.120658 0.992694 0.000000
-7.497974 -7.018851 -0.621770 1235 0.120658 0.992694 0.000000
-7.497993 -7.018875 -0.618600 1233 0.120658 0.992694 0.000000
-7.499043 -7.019849 -0.615520 1245 0.120658 0.992694 0.000000
-7.499022 -7.019827 -0.612350 1235 0.120658 0.992694 0.000000
-7.497869 -7.018752 -0.609101 1221 0.120658 0.992694 0.000000
-7.498212 -7.019072 -0.605958 1225 0.120658 0.992694 0.000000
-7.498245 -7.019108 -0.602797 1233 0.120658 0.992694 0.000000
-7.498158 -7.019022 -0.599628 1233 0.120658 0.992694 0.000000
-7.498239 -7.019095 -0.596467 1229 0.120658 0.992694 0.000000
-7.498257 -7.019118 -0.593307 1227 0.120658 0.992694 0.000000
-7.498864 -7.019687 -0.590191 1241 0.120658 0.992694 0.000000
-7.498944 -7.019760 -0.587031 1237 0.120658 0.992694 0.000000
-7.498428 -7.019282 -0.583825 1233 0.120658 0.992694 0.000000
-7.497967 -7.018847 -0.580629 1229 0.120658 0.992694 0.000000
-7.498311 -7.019167 -0.577486 1237 0.120658 0.992694 0.000000
-7.498009 -7.018885 -0.574299 1235 0.120658 0.992694 0.000000
-7.498027 -7.018909 -0.571139 1233 0.120658 0.992694 0.000000
-7.498418 -7.019268 -0.568005 1239 0.120658 0.992694 0.000000
-7.498275 -7.019137 -0.564836 1245 0.120658 0.992694 0.000000
-7.498555 -7.019395 -0.561694 1249 0.120658 0.992694 0.000000
-7.498088 -7.018968 -0.558498 1233 0.120658 0.992694 0.000000
-7.497364 -7.018284 -0.555275 1223 0.120658 0.992694 0.000000
-7.497317 -7.018244 -0.552115 1233 0.120658 0.992694 0.000000
-7.497765 -7.018660 -0.548981 1237 0.120658 0.992694 0.000000
-7.498252 -7.019121 -0.545856 1237 0.120658 0.992694 0.000000
-7.498006 -7.018883 -0.542668 1235 0.120658 0.992694 0.000000
-7.497800 -7.018689 -0.539500 1243 0.120658 0.992694 0.000000
-7.498127 -7.018998 -0.536357 1235 0.120658 0.992694 0.000000
-7.497867 -7.018761 -0.533179 1223 0.120658 0.992694 0.000000
-7.498360 -7.019214 -0.530045 1229 0.120658 0.992694 0.000000
-7.498474 -7.019326 -0.526893 1225 0.120658 0.992694 0.000000
-7.497686 -7.018579 -0.523681 1227 0.120658 0.992694 0.000000
-7.497577 -7.018489 -0.520512 1221 0.120658 0.992694 0.000000
-7.498230 -7.019095 -0.517396 1235 0.120658 0.992694 0.000000
-7.498184 -7.019055 -0.514226 1221 0.120658 0.992694 0.000000
-7.497819 -7.018709 -0.511039 1231 0.120658 0.992694 0.000000
-7.498250 -7.019112 -0.507905 1229 0.120658 0.992694 0.000000
-7.499367 -7.020164 -0.504815 1235 0.120658 0.992694 0.000000
-7.499478 -7.020262 -0.501664 1233 0.120658 0.992694 0.000000
-7.499058 -7.019872 -0.498477 1239 0.120658 0.992694 0.000000
-7.498088 -7.018969 -0.495256 1225 0.120658 0.992694 0.000000
-7.497771 -7.018673 -0.492069 1231 0.120658 0.992694 0.000000
-7.498417 -7.019274 -0.488953 1235 0.120658 0.992694 0.000000
-7.498840 -7.019671 -0.485819 1239 0.120658 0.992694 0.000000
-7.497448 -7.018367 -0.482572 1233 0.120658 0.992694 0.000000
-7.497560 -7.018465 -0.479411 1231 0.120658 0.992694 0.000000
-7.498828 -7.019663 -0.476329 1239 0.120658 0.992694 0.000000
-7.498510 -7.019354 -0.473152 1231 0.120658 0.992694 0.000000
-7.498025 -7.018900 -0.469966 1233 0.120658 0.992694 0.000000
-7.497860 -7.018752 -0.466788 1227 0.120658 0.992694 0.000000
-7.498165 -7.019042 -0.463655 1231 0.120658 0.992694 0.000000
-7.498428 -7.019287 -0.460502 1225 0.120658 0.992694 0.000000
-7.498803 -7.019633 -0.457369 1233 0.120658 0.992694 0.000000
-7.498685 -7.019522 -0.454200 1227 0.120658 0.992694 0.000000
-7.497555 -7.018465 -0.450970 1221 0.120658 0.992694 0.000000
-7.497597 -7.018507 -0.447820 1223 0.120658 0.992694 0.000000
-7.498283 -7.019152 -0.444693 1211 0.120658 0.992694 0.000000
-7.498380 -7.019238 -0.441542 1219 0.120658 0.992694 0.000000
-7.498483 -7.019330 -0.438391 1213 0.120658 0.992694 0.000000
-7.498254 -7.019118 -0.435213 1217 0.120658 0.992694 0.000000
-7.498128 -7.019001 -0.432045 1227 0.120658 0.992694 0.000000
-7.498544 -7.019392 -0.428910 1221 0.120658 0.992694 0.000000
-7.498266 -7.019129 -0.425733 1211 0.120658 0.992694 0.000000
-7.498029 -7.018910 -0.422565 1219 0.120658 0.992694 0.000000
-7.498499 -7.019345 -0.419431 1221 0.120658 0.992694 0.000000
-7.498747 -7.019578 -0.416288 1223 0.120658 0.992694 0.000000
-7.498988 -7.019817 -0.413136 1229 0.120658 0.992694 0.000000
-7.499036 -7.019851 -0.409985 1237 0.120658 0.992694 0.000000
-7.498202 -7.019081 -0.406783 1233 0.120658 0.992694 0.000000
-7.497924 -7.018817 -0.403606 1229 0.120658 0.992694 0.000000
-7.498444 -7.019304 -0.400471 1227 0.120658 0.992694 0.000000
-7.498628 -7.019472 -0.397329 1241 0.120658 0.992694 0.000000
-7.498661 -7.019508 -0.394169 1239 0.120658 0.992694 0.000000
-7.499021 -7.019841 -0.391025 1229 0.120658 0.992694 0.000000
-7.499101 -7.019915 -0.387874 1229 0.120658 0.992694 0.000000
-7.498753 -7.019595 -0.384697 1221 0.120658 0.992694 0.000000
-7.497933 -7.018823 -0.381495 1215 0.120658 0.992694 0.000000
-7.498436 -7.019297 -0.378370 1229 0.120658 0.992694 0.000000
-7.499210 -7.020025 -0.375243 1231 0.120658 0.992694 0.000000
-7.498868 -7.019697 -0.372066 1233 0.120658 0.992694 0.000000
-7.498837 -7.019669 -0.368906 1235 0.120658 0.992694 0.000000
-7.498441 -7.019298 -0.365730 1231 0.120658 0.992694 0.000000
-7.498300 -7.019169 -0.362571 1231 0.120658 0.992694 0.000000
-7.498379 -7.019242 -0.359410 1227 0.120658 0.992694 0.000000
-7.498086 -7.018966 -0.356243 1213 0.120658 0.992694 0.000000
-7.499012 -7.019840 -0.353124 1221 0.120658 0.992694 0.000000
-7.499245 -7.020060 -0.349982 1215 0.120658 0.992694 0.000000
-7.498361 -7.019224 -0.346780 1221 0.120658 0.992694 0.000000
-7.497367 -7.018301 -0.343579 1209 0.120658 0.992694 0.000000
-7.497440 -7.018368 -0.340429 1203 0.120658 0.992694 0.000000
-7.498857 -7.019685 -0.337335 1229 0.120658 0.992694 0.000000
-7.499616 -7.020401 -0.334208 1235 0.120658 0.992694 0.000000
-7.499474 -7.020271 -0.331039 1231 0.120658 0.992694 0.000000
-7.499062 -7.019887 -0.327863 1223 0.120658 0.992694 0.000000
-7.498919 -7.019744 -0.324705 1217 0.120658 0.992694 0.000000
-7.499151 -7.019964 -0.321552 1217 0.120658 0.992694 0.000000
-7.499161 -7.019981 -0.318402 1215 0.120658 0.992694 0.000000
-7.498914 -7.019742 -0.315234 1213 0.120658 0.992694 0.000000
-7.501965 -7.018127 -0.704267 1219 0.120658 0.992694 0.000000
-7.501688 -7.017864 -0.701070 1209 0.120658 0.992694 0.000000
-7.501840 -7.018007 -0.697918 1203 0.120658 0.992694 0.000000
-7.502103 -7.018251 -0.694776 1225 0.120658 0.992694 0.000000
-7.502305 -7.018446 -0.691624 1213 0.120658 0.992694 0.000000
-7.502728 -7.018844 -0.688490 1211 0.120658 0.992694 0.000000
-7.502561 -7.018682 -0.685301 1219 0.120658 0.992694 0.000000
-7.502291 -7.018424 -0.682114 1217 0.120658 0.992694 0.000000
-7.502110 -7.018263 -0.678925 1221 0.120658 0.992694 0.000000
-7.501672 -7.017847 -0.675719 1217 0.120658 0.992694 0.000000
-7.501985 -7.018143 -0.672586 1217 0.120658 0.992694 0.000000
-7.502400 -7.018534 -0.669452 1225 0.120658 0.992694 0.000000
-7.501852 -7.018016 -0.666237 1207 0.120658 0.992694 0.000000
-7.502044 -7.018205 -0.663085 1215 0.120658 0.992694 0.000000
-7.501981 -7.018138 -0.659916 1221 0.120658 0.992694 0.000000
-7.501904 -7.018073 -0.656737 1211 0.120658 0.992694 0.000000
-7.502485 -7.018608 -0.653621 1227 0.120658 0.992694 0.000000
-7.502255 -7.018396 -0.650433 1227 0.120658 0.992694 0.000000
-7.501595 -7.017777 -0.647209 1203 0.120658 0.992694 0.000000
-7.501255 -7.017464 -0.644012 1197 0.120658 0.992694 0.000000
-7.501606 -7.017790 -0.640879 1203 0.120658 0.992694 0.000000
-7.502118 -7.018271 -0.637754 1213 0.120658 0.992694 0.000000
-7.501672 -7.017848 -0.634548 1199 0.120658 0.992694 0.000000
-7.502232 -7.018380 -0.631433 1209 0.120658 0.992694 0.000000
-7.502805 -7.018910 -0.628307 1225 0.120658 0.992694 0.000000
-7.502893 -7.018989 -0.625147 1229 0.120658 0.992694 0.000000
-7.502275 -7.018415 -0.621932 1229 0.120658 0.992694 0.000000
-7.501503 -7.017695 -0.618709 1213 0.120658 0.992694 0.000000
-7.502180 -7.018320 -0.615593 1227 0.120658 0.992694 0.000000
-7.502309 -7.018445 -0.612442 1217 0.120658 0.992694 0.000000
-7.502072 -7.018226 -0.609254 1207 0.120658 0.992694 0.000000
-7.501930 -7.018096 -0.606075 1213 0.120658 0.992694 0.000000
-7.501699 -7.017870 -0.602897 1223 0.120658 0.992694 0.000000
-7.502195 -7.018338 -0.599772 1223 0.120658 0.992694 0.000000
-7.502538 -7.018659 -0.596629 1219 0.120658 0.992694 0.000000
-7.502507 -7.018631 -0.593459 1215 0.120658 0.992694 0.000000
-7.502214 -7.018355 -0.590272 1227 0.120658 0.992694 0.000000
-7.501858 -7.018029 -0.587085 1239 0.120658 0.992694 0.000000
-7.502264 -7.018399 -0.583952 1237 0.120658 0.992694 0.000000
-7.501962 -7.018117 -0.580764 1229 0.120658 0.992694 0.000000
-7.502029 -7.018192 -0.577604 1225 0.120658 0.992694 0.000000
-7.502531 -7.018651 -0.574479 1225 0.120658 0.992694 0.000000
-7.502707 -7.018814 -0.571327 1233 0.120658 0.992694 0.000000
-7.502462 -7.018589 -0.568139 1235 0.120658 0.992694 0.000000
-7.502312 -7.018453 -0.564971 1237 0.120658 0.992694 0.000000
-7.502439 -7.018564 -0.561809 1231 0.120658 0.992694 0.000000
-7.502561 -7.018682 -0.558658 1233 0.120658 0.992694 0.000000
-7.502259 -7.018400 -0.555471 1233 0.120658 0.992694 0.000000
-7.502485 -7.018614 -0.552329 1233 0.120658 0.992694 0.000000
-7.502980 -7.019081 -0.549194 1237 0.120658 0.992694 0.000000
-7.502462 -7.018589 -0.545999 1233 0.120658 0.992694 0.000000
-7.502090 -7.018250 -0.542802 1225 0.120658 0.992694 0.000000
-7.502744 -7.018856 -0.539686 1233 0.120658 0.992694 0.000000
-7.502863 -7.018961 -0.536535 1245 0.120658 0.992694 0.000000
-7.502500 -7.018629 -0.533348 1233 0.120658 0.992694 0.000000
-7.502668 -7.018785 -0.530196 1237 0.120658 0.992694 0.000000
-7.502247 -7.018394 -0.527000 1225 0.120658 0.992694 0.000000
-7.502423 -7.018556 -0.523849 1225 0.120658 0.992694 0.000000
-7.502584 -7.018706 -0.520697 1239 0.120658 0.992694 0.000000
-7.502004 -7.018163 -0.517492 1221 0.120658 0.992694 0.000000
-7.501957 -7.018123 -0.514333 1215 0.120658 0.992694 0.000000
-7.502548 -7.018679 -0.511207 1219 0.120658 0.992694 0.000000
-7.502875 -7.018973 -0.508064 1235 0.120658 0.992694 0.000000
-7.503035 -7.019123 -0.504912 1245 0.120658 0.992694 0.000000
-7.503300 -7.019382 -0.501770 1243 0.120658 0.992694 0.000000
-7.503038 -7.019131 -0.498592 1233 0.120658 0.992694 0.000000
-7.502673 -7.018785 -0.495406 1225 0.120658 0.992694 0.000000
-7.502459 -7.018584 -0.492228 1237 0.120658 0.992694 0.000000
-7.502348 -7.018480 -0.489058 1221 0.120658 0.992694 0.000000
-7.502884 -7.018993 -0.485933 1223 0.120658 0.992694 0.000000
-7.503092 -7.019180 -0.482781 1231 0.120658 0.992694 0.000000
-7.502718 -7.018828 -0.479595 1225 0.120658 0.992694 0.000000
-7.503038 -7.019130 -0.476452 1241 0.120658 0.992694 0.000000
-7.502450 -7.018581 -0.473257 1241 0.120658 0.992694 0.000000
-7.501218 -7.017429 -0.470019 1217 0.120658 0.992694 0.000000
-7.501688 -7.017864 -0.466894 1211 0.120658 0.992694 0.000000
-7.502160 -7.018312 -0.463760 1227 0.120658 0.992694 0.000000
-7.502153 -7.018303 -0.460600 1227 0.120658 0.992694 0.000000
-7.502633 -7.018758 -0.457465 1215 0.120658 0.992694 0.000000
-7.502672 -7.018786 -0.454305 1231 0.120658 0.992694 0.000000
-7.502770 -7.018886 -0.451154 1223 0.120658 0.992694 0.000000
-7.502451 -7.018578 -0.447967 1213 0.120658 0.992694 0.000000
-7.501737 -7.017914 -0.444773 1209 0.120658 0.992694 0.000000
-7.501564 -7.017760 -0.441595 1197 0.120658 0.992694 0.000000
-7.502893 -7.018994 -0.438512 1215 0.120658 0.992694 0.000000
-7.503843 -7.019887 -0.435403 1221 0.120658 0.992694 0.000000
-7.502697 -7.018818 -0.432184 1213 0.120658 0.992694 0.000000
-7.501783 -7.017958 -0.428972 1213 0.120658 0.992694 0.000000
-7.502150 -7.018298 -0.425829 1217 0.120658 0.992694 0.000000
-7.502772 -7.018879 -0.422703 1219 0.120658 0.992694 0.000000
-7.503339 -7.019416 -0.419577 1243 0.120658 0.992694 0.000000
-7.503165 -7.019248 -0.416409 1237 0.120658 0.992694 0.000000
-7.502985 -7.019087 -0.413231 1231 0.120658 0.992694 0.000000
-7.503032 -7.019122 -0.410080 1231 0.120658 0.992694 0.000000
-7.503114 -7.019208 -0.406919 1227 0.120658 0.992694 0.000000
-7.503042 -7.019135 -0.403760 1221 0.120658 0.992694 0.000000
-7.503068 -7.019165 -0.400600 1225 0.120658 0.992694 0.000000
-7.503157 -7.019244 -0.397449 1223 0.120658 0.992694 0.000000
-7.503619 -7.019673 -0.394304 1231 0.120658 0.992694 0.000000
-7.503542 -7.019607 -0.391145 1229 0.120658 0.992694 0.000000
-7.502508 -7.018639 -0.387935 1217 0.120658 0.992694 0.000000
-7.501840 -7.018014 -0.384741 1217 0.120658 0.992694 0.000000
-7.502137 -7.018298 -0.381598 1229 0.120658 0.992694 0.000000
-7.502431 -7.018567 -0.378455 1221 0.120658 0.992694 0.000000
-7.503157 -7.019244 -0.375328 1225 0.120658 0.992694 0.000000
-7.503771 -7.019818 -0.372202 1231 0.120658 0.992694 0.000000
-7.503637 -7.019695 -0.369034 1243 0.120658 0.992694 0.000000
-7.502748 -7.018868 -0.365832 1225 0.120658 0.992694 0.000000
-7.502079 -7.018242 -0.362638 1223 0.120658 0.992694 0.000000
-7.502798 -7.018913 -0.359521 1229 0.120658 0.992694 0.000000
-7.503085 -7.019176 -0.356368 1223 0.120658 0.992694 0.000000
-7.502951 -7.019053 -0.353210 1217 0.120658 0.992694 0.000000
-7.502706 -7.018828 -0.350032 1207 0.120658 0.992694 0.000000
-7.502356 -7.018495 -0.346865 1209 0.120658 0.992694 0.000000
-7.502437 -7.018568 -0.343704 1209 0.120658 0.992694 0.000000
-7.502772 -7.018882 -0.340561 1213 0.120658 0.992694 0.000000
-7.502951 -7.019059 -0.337409 1211 0.120658 0.992694 0.000000
-7.502537 -7.018675 -0.334233 1221 0.120658 0.992694 0.000000
-7.502077 -7.018240 -0.331057 1219 0.120658 0.992694 0.000000
-7.502787 -7.018904 -0.327931 1219 0.120658 0.992694 0.000000
-7.502589 -7.018717 -0.324762 1219 0.120658 0.992694 0.000000
-7.501913 -7.018085 -0.321579 1209 0.120658 0.992694 0.000000
-7.502305 -7.018458 -0.318435 1213 0.120658 0.992694 0.000000
-7.503070 -7.019166 -0.315308 1223 0.120658 0.992694 0.000000
-7.506493 -7.017886 -0.704477 1223 0.120658 0.992694 0.000000
-7.507069 -7.018430 -0.701361 1225 0.120658 0.992694 0.000000
-7.507061 -7.018420 -0.698191 1215 0.120658 0.992694 0.000000
-7.506424 -7.017820 -0.694957 1205 0.120658 0.992694 0.000000
-7.506673 -7.018053 -0.691815 1215 0.120658 0.992694 0.000000
-7.506722 -7.018100 -0.688654 1221 0.120658 0.992694 0.000000
-7.506071 -7.017501 -0.685420 1221 0.120658 0.992694 0.000000
-7.506056 -7.017486 -0.682250 1213 0.120658 0.992694 0.000000
-7.506104 -7.017519 -0.679090 1205 0.120658 0.992694 0.000000
-7.506680 -7.018064 -0.675964 1207 0.120658 0.992694 0.000000
-7.507087 -7.018449 -0.672831 1219 0.120658 0.992694 0.000000
-7.506061 -7.017487 -0.669580 1211 0.120658 0.992694 0.000000
-7.505950 -7.017382 -0.666401 1207 0.120658 0.992694 0.000000
-7.506350 -7.017761 -0.663267 1201 0.120658 0.992694 0.000000
-7.506294 -7.017700 -0.660088 1217 0.120658 0.992694 0.000000
-7.506480 -7.017882 -0.656936 1221 0.120658 0.992694 0.000000
-7.506625 -7.018019 -0.653784 1223 0.120658 0.992694 0.000000
-7.506401 -7.017799 -0.650596 1213 0.120658 0.992694 0.000000
-7.506492 -7.017893 -0.647436 1215 0.120658 0.992694 0.000000
-7.506572 -7.017966 -0.644275 1215 0.120658 0.992694 0.000000
-7.506183 -7.017601 -0.641078 1219 0.120658 0.992694 0.000000
-7.506271 -7.017681 -0.637917 1209 0.120658 0.992694 0.000000
-7.506297 -7.017710 -0.634747 1205 0.120658 0.992694 0.000000
-7.506282 -7.017694 -0.631577 1209 0.120658 0.992694 0.000000
-7.505886 -7.017323 -0.628381 1197 0.120658 0.992694 0.000000
-7.506022 -7.017454 -0.625229 1213 0.120658 0.992694 0.000000
-7.506325 -7.017730 -0.622087 1213 0.120658 0.992694 0.000000
-7.506885 -7.018261 -0.618961 1211 0.120658 0.992694 0.000000
-7.507339 -7.018683 -0.615827 1219 0.120658 0.992694 0.000000
-7.506671 -7.018058 -0.612613 1209 0.120658 0.992694 0.000000
-7.506218 -7.017629 -0.609407 1211 0.120658 0.992694 0.000000
-7.505766 -7.017214 -0.606211 1213 0.120658 0.992694 0.000000
-7.505735 -7.017186 -0.603042 1213 0.120658 0.992694 0.000000
-7.506190 -7.017608 -0.599907 1215 0.120658 0.992694 0.000000
-7.506534 -7.017930 -0.596764 1229 0.120658 0.992694 0.000000
-7.506614 -7.018003 -0.593613 1219 0.120658 0.992694 0.000000
-7.506424 -7.017822 -0.590425 1219 0.120658 0.992694 0.000000
-7.506497 -7.017889 -0.587264 1235 0.120658 0.992694 0.000000
-7.506675 -7.018065 -0.584112 1225 0.120658 0.992694 0.000000
-7.506428 -7.017826 -0.580935 1217 0.120658 0.992694 0.000000
-7.506239 -7.017659 -0.577756 1223 0.120658 0.992694 0.000000
-7.506678 -7.018069 -0.574622 1227 0.120658 0.992694 0.000000
-7.507396 -7.018740 -0.571505 1237 0.120658 0.992694 0.000000
-7.506775 -7.018151 -0.568301 1231 0.120658 0.992694 0.000000
-7.505934 -7.017375 -0.565069 1215 0.120658 0.992694 0.000000
-7.506546 -7.017936 -0.561953 1229 0.120658 0.992694 0.000000
-7.506763 -7.018143 -0.558801 1229 0.120658 0.992694 0.000000
-7.505936 -7.017365 -0.555579 1215 0.120658 0.992694 0.000000
-7.505993 -7.017420 -0.552418 1215 0.120658 0.992694 0.000000
-7.506911 -7.018288 -0.549319 1235 0.120658 0.992694 0.000000
-7.506553 -7.017948 -0.546123 1211 0.120658 0.992694 0.000000
-7.505981 -7.017411 -0.542928 1209 0.120658 0.992694 0.000000
-7.506842 -7.018222 -0.539820 1231 0.120658 0.992694 0.000000
-7.507393 -7.018733 -0.536695 1239 0.120658 0.992694 0.000000
-7.507076 -7.018438 -0.533507 1225 0.120658 0.992694 0.000000
-7.506821 -7.018194 -0.530330 1229 0.120658 0.992694 0.000000
-7.506609 -7.018008 -0.527152 1227 0.120658 0.992694 0.000000
-7.506952 -7.018315 -0.524008 1223 0.120658 0.992694 0.000000
-7.507224 -7.018580 -0.520866 1235 0.120658 0.992694 0.000000
-7.507385 -7.018730 -0.517704 1237 0.120658 0.992694 0.000000
-7.507393 -7.018733 -0.514544 1235 0.120658 0.992694 0.000000
-7.506965 -7.018337 -0.511358 1235 0.120658 0.992694 0.000000
-7.507133 -7.018492 -0.508196 1231 0.120658 0.992694 0.000000
-7.507245 -7.018590 -0.505045 1231 0.120658 0.992694 0.000000
-7.507087 -7.018448 -0.501867 1227 0.120658 0.992694 0.000000
-7.507088 -7.018445 -0.498706 1225 0.120658 0.992694 0.000000
-7.506820 -7.018202 -0.495529 1229 0.120658 0.992694 0.000000
-7.506820 -7.018198 -0.492369 1235 0.120658 0.992694 0.000000
-7.507092 -7.018449 -0.489216 1215 0.120658 0.992694 0.000000
-7.507461 -7.018803 -0.486083 1221 0.120658 0.992694 0.000000
-7.507199 -7.018552 -0.482905 1233 0.120658 0.992694 0.000000
-7.507191 -7.018543 -0.479735 1245 0.120658 0.992694 0.000000
-7.507456 -7.018801 -0.476592 1235 0.120658 0.992694 0.000000
-7.506964 -7.018342 -0.473397 1229 0.120658 0.992694 0.000000
-7.506591 -7.017989 -0.470210 1233 0.120658 0.992694 0.000000
-7.506855 -7.018233 -0.467068 1227 0.120658 0.992694 0.000000
-7.506530 -7.017933 -0.463891 1217 0.120658 0.992694 0.000000
-7.506577 -7.017967 -0.460730 1221 0.120658 0.992694 0.000000
-7.506412 -7.017818 -0.457552 1209 0.120658 0.992694 0.000000
-7.506557 -7.017956 -0.454400 1221 0.120658 0.992694 0.000000
-7.507243 -7.018600 -0.451284 1235 0.120658 0.992694 0.000000
-7.507833 -7.019143 -0.448148 1235 0.120658 0.992694 0.000000
-7.506695 -7.018080 -0.444929 1219 0.120658 0.992694 0.000000
-7.505877 -7.017323 -0.441716 1197 0.120658 0.992694 0.000000
-7.507580 -7.018906 -0.438650 1209 0.120658 0.992694 0.000000
-7.508148 -7.019443 -0.435525 1217 0.120658 0.992694 0.000000
-7.507289 -7.018641 -0.432313 1217 0.120658 0.992694 0.000000
-7.506630 -7.018022 -0.429119 1227 0.120658 0.992694 0.000000
-7.506615 -7.018006 -0.425949 1213 0.120658 0.992694 0.000000
-7.507565 -7.018899 -0.422840 1223 0.120658 0.992694 0.000000
-7.507550 -7.018883 -0.419680 1229 0.120658 0.992694 0.000000
-7.506516 -7.017915 -0.416470 1217 0.120658 0.992694 0.000000
-7.506603 -7.017994 -0.413309 1225 0.120658 0.992694 0.000000
-7.506957 -7.018336 -0.410166 1233 0.120658 0.992694 0.000000
-7.507108 -7.018466 -0.407014 1239 0.120658 0.992694 0.000000
-7.507404 -7.018749 -0.403871 1235 0.120658 0.992694 0.000000
-7.507389 -7.018733 -0.400711 1225 0.120658 0.992694 0.000000
-7.506992 -7.018362 -0.397525 1213 0.120658 0.992694 0.000000
-7.506644 -7.018043 -0.394348 1215 0.120658 0.992694 0.000000
