582
-7.341168 -7.245547 -0.669048 537 -0.577530 0.816361 0.003808
-7.341108 -7.245492 -0.665869 529 -0.577530 0.816361 0.003808
-7.341201 -7.245580 -0.662688 541 -0.577530 0.816361 0.003808
-7.341287 -7.245662 -0.659517 545 -0.577530 0.816361 0.003808
-7.341064 -7.245443 -0.656319 523 -0.577530 0.816361 0.003808
-7.340995 -7.245381 -0.653129 513 -0.577530 0.816361 0.003808
-7.341337 -7.245719 -0.649986 519 -0.577530 0.816361 0.003808
-7.341167 -7.245545 -0.646788 535 -0.577530 0.816361 0.003808
-7.341516 -7.245889 -0.643644 531 -0.577530 0.816361 0.003808
-7.341658 -7.246030 -0.640473 531 -0.577530 0.816361 0.003808
-7.341735 -7.246106 -0.637302 521 -0.577530 0.816361 0.003808
-7.342030 -7.246390 -0.634139 501 -0.577530 0.816361 0.003808
-7.342162 -7.246525 -0.630978 503 -0.577530 0.816361 0.003808
-7.342612 -7.246967 -0.627833 499 -0.577530 0.816361 0.003808
-7.342273 -7.246637 -0.624627 515 -0.577530 0.816361 0.003808
-7.342042 -7.246411 -0.621429 533 -0.577530 0.816361 0.003808
-7.342175 -7.246546 -0.618257 531 -0.577530 0.816361 0.003808
-7.341479 -7.245848 -0.615024 531 -0.577530 0.816361 0.003808
-7.341249 -7.245623 -0.611826 507 -0.577530 0.816361 0.003808
-7.341528 -7.245908 -0.608673 509 -0.577530 0.816361 0.003808
-7.341916 -7.246285 -0.605529 521 -0.577530 0.816361 0.003808
-7.342930 -7.247283 -0.602430 521 -0.577530 0.816361 0.003808
-7.342907 -7.247260 -0.599250 535 -0.577530 0.816361 0.003808
-7.342353 -7.246721 -0.596025 541 -0.577530 0.816361 0.003808
-7.341858 -7.246233 -0.592810 535 -0.577530 0.816361 0.003808
-7.341519 -7.245890 -0.589603 547 -0.577530 0.816361 0.003808
-7.341798 -7.246161 -0.586450 541 -0.577530 0.816361 0.003808
-7.342387 -7.246747 -0.583314 543 -0.577530 0.816361 0.003808
-7.342876 -7.247236 -0.580180 547 -0.577530 0.816361 0.003808
-7.342947 -7.247304 -0.576999 535 -0.577530 0.816361 0.003808
-7.343017 -7.247373 -0.573828 523 -0.577530 0.816361 0.003808
-7.343141 -7.247487 -0.570657 517 -0.577530 0.816361 0.003808
-7.342532 -7.246889 -0.567443 523 -0.577530 0.816361 0.003808
-7.342541 -7.246907 -0.564262 533 -0.577530 0.816361 0.003808
-7.343292 -7.247643 -0.561135 545 -0.577530 0.816361 0.003808
-7.342574 -7.246939 -0.557912 541 -0.577530 0.816361 0.003808
-7.341709 -7.246086 -0.554670 535 -0.577530 0.816361 0.003808
-7.342397 -7.246756 -0.551544 531 -0.577530 0.816361 0.003808
-7.343141 -7.247486 -0.548416 541 -0.577530 0.816361 0.003808
-7.343158 -7.247509 -0.545246 547 -0.577530 0.816361 0.003808
-7.342742 -7.247101 -0.542040 553 -0.577530 0.816361 0.003808
-7.342240 -7.246607 -0.538825 555 -0.577530 0.816361 0.003808
-7.341885 -7.246250 -0.535628 541 -0.577530 0.816361 0.003808
-7.342257 -7.246614 -0.532475 541 -0.577530 0.816361 0.003808
-7.342111 -7.246473 -0.529286 539 -0.577530 0.816361 0.003808
-7.341750 -7.246123 -0.526089 523 -0.577530 0.816361 0.003808
-7.342493 -7.246853 -0.522962 525 -0.577530 0.816361 0.003808
-7.343692 -7.248035 -0.519870 537 -0.577530 0.816361 0.003808
-7.343639 -7.247986 -0.516691 545 -0.577530 0.816361 0.003808
-7.343131 -7.247486 -0.513476 543 -0.577530 0.816361 0.003808
-7.343649 -7.248000 -0.510341 551 -0.577530 0.816361 0.003808
-7.342978 -7.247336 -0.507117 543 -0.577530 0.816361 0.003808
-7.342622 -7.246979 -0.503920 527 -0.577530 0.816361 0.003808
-7.343714 -7.248056 -0.500810 519 -0.577530 0.816361 0.003808
-7.343089 -7.247444 -0.497596 523 -0.577530 0.816361 0.003808
-7.343037 -7.247396 -0.494416 533 -0.577530 0.816361 0.003808
-7.344445 -7.248780 -0.491332 547 -0.577530 0.816361 0.003808
-7.344553 -7.248881 -0.488161 541 -0.577530 0.816361 0.003808
-7.343929 -7.248271 -0.484947 551 -0.577530 0.816361 0.003808
-7.343349 -7.247697 -0.481733 537 -0.577530 0.816361 0.003808
-7.343149 -7.247498 -0.478545 539 -0.577530 0.816361 0.003808
-7.343553 -7.247901 -0.475401 527 -0.577530 0.816361 0.003808
-7.344328 -7.248671 -0.472273 539 -0.577530 0.816361 0.003808
-7.344282 -7.248614 -0.469093 531 -0.577530 0.816361 0.003808
-7.343231 -7.247577 -0.465854 531 -0.577530 0.816361 0.003808
-7.343850 -7.248189 -0.462718 529 -0.577530 0.816361 0.003808
-7.344826 -7.249155 -0.459608 531 -0.577530 0.816361 0.003808
-7.343884 -7.248222 -0.456367 541 -0.577530 0.816361 0.003808
-7.343823 -7.248168 -0.453197 541 -0.577530 0.816361 0.003808
-7.344752 -7.249081 -0.450078 523 -0.577530 0.816361 0.003808
-7.345117 -7.249437 -0.446925 525 -0.577530 0.816361 0.003808
-7.344321 -7.248656 -0.443702 535 -0.577530 0.816361 0.003808
-7.343155 -7.247508 -0.440454 521 -0.577530 0.816361 0.003808
-7.343619 -7.247962 -0.437309 513 -0.577530 0.816361 0.003808
-7.344440 -7.248771 -0.434181 509 -0.577530 0.816361 0.003808
-7.344844 -7.249174 -0.431027 505 -0.577530 0.816361 0.003808
-7.344729 -7.249060 -0.427848 513 -0.577530 0.816361 0.003808
-7.344034 -7.248376 -0.424635 507 -0.577530 0.816361 0.003808
-7.343812 -7.248157 -0.421447 507 -0.577530 0.816361 0.003808
-7.344052 -7.248396 -0.418294 507 -0.577530 0.816361 0.003808
-7.343937 -7.248282 -0.415115 509 -0.577530 0.816361 0.003808
-7.343760 -7.248102 -0.411927 499 -0.577530 0.816361 0.003808
-7.344364 -7.248701 -0.408791 513 -0.577530 0.816361 0.003808
-7.344504 -7.248842 -0.405620 501 -0.577530 0.816361 0.003808
-7.343763 -7.248106 -0.402407 491 -0.577530 0.816361 0.003808
-7.344460 -7.248797 -0.399270 491 -0.577530 0.816361 0.003808
-7.344601 -7.248938 -0.396109 503 -0.577530 0.816361 0.003808
-7.344424 -7.248758 -0.392920 497 -0.577530 0.816361 0.003808
-7.344618 -7.248945 -0.389758 477 -0.577530 0.816361 0.003808
-7.344635 -7.248968 -0.386588 479 -0.577530 0.816361 0.003808
-7.344937 -7.249259 -0.383425 493 -0.577530 0.816361 0.003808
-7.344907 -7.249230 -0.380255 491 -0.577530 0.816361 0.003808
-7.345404 -7.249725 -0.377110 489 -0.577530 0.816361 0.003808
-7.345690 -7.250002 -0.373948 497 -0.577530 0.816361 0.003808
-7.345923 -7.250235 -0.370785 489 -0.577530 0.816361 0.003808
-7.345429 -7.249748 -0.367590 493 -0.577530 0.816361 0.003808
-7.345091 -7.249418 -0.364393 487 -0.577530 0.816361 0.003808
-7.346205 -7.250514 -0.361272 463 -0.577530 0.816361 0.003808
-7.347219 -7.251513 -0.358153 443 -0.577530 0.816361 0.003808
-7.345945 -7.250260 -0.354915 427 -0.577530 0.816361 0.003808
-7.344560 -7.248888 -0.351678 445 -0.577530 0.816361 0.003808
-7.345722 -7.250038 -0.348567 459 -0.577530 0.816361 0.003808
-7.346527 -7.250833 -0.345429 467 -0.577530 0.816361 0.003808
-7.346019 -7.250332 -0.342234 467 -0.577530 0.816361 0.003808
-7.346035 -7.250356 -0.339053 473 -0.577530 0.816361 0.003808
-7.346470 -7.250785 -0.335899 467 -0.577530 0.816361 0.003808
-7.346230 -7.250539 -0.332721 473 -0.577530 0.816361 0.003808
-7.345883 -7.250203 -0.329535 479 -0.577530 0.816361 0.003808
-7.346890 -7.251195 -0.326405 475 -0.577530 0.816361 0.003808
-7.347324 -7.251624 -0.323251 479 -0.577530 0.816361 0.003808
-7.345724 -7.250043 -0.320006 477 -0.577530 0.816361 0.003808
-7.345842 -7.250165 -0.316845 461 -0.577530 0.816361 0.003808
-7.346322 -7.250633 -0.313690 461 -0.577530 0.816361 0.003808
-7.345402 -7.249719 -0.310479 441 -0.577530 0.816361 0.003808
-7.345365 -7.249684 -0.307309 427 -0.577530 0.816361 0.003808
-7.346510 -7.250820 -0.304178 421 -0.577530 0.816361 0.003808
-7.346890 -7.251190 -0.301024 401 -0.577530 0.816361 0.003808
-7.358231 -7.257781 -0.667177 535 -0.577530 0.816361 0.003808
-7.358424 -7.257967 -0.664005 537 -0.577530 0.816361 0.003808
-7.358093 -7.257644 -0.660788 531 -0.577530 0.816361 0.003808
-7.358597 -7.258145 -0.657653 529 -0.577530 0.816361 0.003808
-7.359519 -7.259052 -0.654544 537 -0.577530 0.816361 0.003808
-7.358413 -7.257955 -0.651265 531 -0.577530 0.816361 0.003808
-7.357873 -7.257429 -0.648030 531 -0.577530 0.816361 0.003808
-7.358222 -7.257772 -0.644877 521 -0.577530 0.816361 0.003808
-7.358308 -7.257854 -0.641696 523 -0.577530 0.816361 0.003808
-7.358750 -7.258290 -0.638542 513 -0.577530 0.816361 0.003808
-7.358427 -7.257973 -0.635335 527 -0.577530 0.816361 0.003808
-7.358612 -7.258152 -0.632163 527 -0.577530 0.816361 0.003808
-7.359163 -7.258693 -0.629027 505 -0.577530 0.816361 0.003808
-7.359443 -7.258978 -0.625865 509 -0.577530 0.816361 0.003808
-7.359582 -7.259105 -0.622683 525 -0.577530 0.816361 0.003808
-7.359553 -7.259090 -0.619503 525 -0.577530 0.816361 0.003808
-7.359275 -7.258811 -0.616296 513 -0.577530 0.816361 0.003808
-7.358936 -7.258482 -0.613079 525 -0.577530 0.816361 0.003808
-7.358805 -7.258340 -0.609880 525 -0.577530 0.816361 0.003808
-7.360137 -7.259660 -0.606807 501 -0.577530 0.816361 0.003808
-7.360524 -7.260036 -0.603654 493 -0.577530 0.816361 0.003808
-7.360185 -7.259706 -0.600437 529 -0.577530 0.816361 0.003808
-7.359583 -7.259114 -0.597203 531 -0.577530 0.816361 0.003808
-7.358873 -7.258417 -0.593969 523 -0.577530 0.816361 0.003808
-7.358278 -7.257832 -0.590735 521 -0.577530 0.816361 0.003808
-7.357567 -7.257121 -0.587492 521 -0.577530 0.816361 0.003808
-7.358945 -7.258480 -0.584418 535 -0.577530 0.816361 0.003808
-7.360362 -7.259884 -0.581345 537 -0.577530 0.816361 0.003808
-7.360803 -7.260319 -0.578190 527 -0.577530 0.816361 0.003808
-7.360402 -7.259923 -0.574974 533 -0.577530 0.816361 0.003808
-7.359954 -7.259475 -0.571758 527 -0.577530 0.816361 0.003808
-7.359708 -7.259236 -0.568561 515 -0.577530 0.816361 0.003808
-7.359987 -7.259508 -0.565398 517 -0.577530 0.816361 0.003808
-7.359950 -7.259472 -0.562208 523 -0.577530 0.816361 0.003808
-7.360121 -7.259639 -0.559036 533 -0.577530 0.816361 0.003808
-7.360138 -7.259663 -0.555856 535 -0.577530 0.816361 0.003808
-7.360100 -7.259627 -0.552666 541 -0.577530 0.816361 0.003808
-7.360318 -7.259833 -0.549504 543 -0.577530 0.816361 0.003808
-7.359755 -7.259287 -0.546280 543 -0.577530 0.816361 0.003808
-7.359879 -7.259402 -0.543098 541 -0.577530 0.816361 0.003808
-7.360669 -7.260184 -0.539971 547 -0.577530 0.816361 0.003808
-7.360933 -7.260443 -0.536808 537 -0.577530 0.816361 0.003808
-7.360168 -7.259686 -0.533575 531 -0.577530 0.816361 0.003808
-7.359612 -7.259134 -0.530351 537 -0.577530 0.816361 0.003808
-7.360966 -7.260472 -0.527268 539 -0.577530 0.816361 0.003808
-7.361540 -7.261045 -0.524122 541 -0.577530 0.816361 0.003808
-7.359832 -7.259360 -0.520818 537 -0.577530 0.816361 0.003808
-7.358641 -7.258179 -0.517560 547 -0.577530 0.816361 0.003808
-7.359385 -7.258909 -0.514423 539 -0.577530 0.816361 0.003808
-7.360840 -7.260346 -0.511338 543 -0.577530 0.816361 0.003808
-7.360586 -7.260101 -0.508141 543 -0.577530 0.816361 0.003808
-7.360695 -7.260202 -0.504970 529 -0.577530 0.816361 0.003808
-7.360225 -7.259748 -0.501754 533 -0.577530 0.816361 0.003808
-7.360334 -7.259849 -0.498583 523 -0.577530 0.816361 0.003808
-7.362153 -7.261646 -0.495515 537 -0.577530 0.816361 0.003808
-7.361325 -7.260825 -0.492283 543 -0.577530 0.816361 0.003808
-7.360492 -7.260011 -0.489041 531 -0.577530 0.816361 0.003808
-7.361475 -7.260983 -0.485922 533 -0.577530 0.816361 0.003808
-7.361685 -7.261182 -0.482760 537 -0.577530 0.816361 0.003808
-7.361369 -7.260871 -0.479553 531 -0.577530 0.816361 0.003808
-7.361215 -7.260725 -0.476364 521 -0.577530 0.816361 0.003808
-7.361572 -7.261075 -0.473200 523 -0.577530 0.816361 0.003808
-7.361565 -7.261065 -0.470020 521 -0.577530 0.816361 0.003808
-7.361297 -7.260808 -0.466823 517 -0.577530 0.816361 0.003808
-7.360826 -7.260340 -0.463617 499 -0.577530 0.816361 0.003808
-7.360455 -7.259970 -0.460411 507 -0.577530 0.816361 0.003808
-7.361122 -7.260635 -0.457274 507 -0.577530 0.816361 0.003808
-7.361284 -7.260781 -0.454093 507 -0.577530 0.816361 0.003808
-7.361215 -7.260719 -0.450913 497 -0.577530 0.816361 0.003808
-7.361827 -7.261325 -0.447767 481 -0.577530 0.816361 0.003808
-7.361194 -7.260694 -0.444553 485 -0.577530 0.816361 0.003808
-7.360561 -7.260076 -0.441329 489 -0.577530 0.816361 0.003808
-7.361019 -7.260524 -0.438175 493 -0.577530 0.816361 0.003808
-7.360950 -7.260462 -0.434996 497 -0.577530 0.816361 0.003808
-7.361152 -7.260655 -0.431823 491 -0.577530 0.816361 0.003808
-7.361804 -7.261308 -0.428677 485 -0.577530 0.816361 0.003808
-7.361797 -7.261298 -0.425497 471 -0.577530 0.816361 0.003808
-7.362772 -7.262249 -0.422378 473 -0.577530 0.816361 0.003808
-7.362339 -7.261827 -0.419172 475 -0.577530 0.816361 0.003808
-7.361645 -7.261144 -0.415948 471 -0.577530 0.816361 0.003808
-7.361785 -7.261285 -0.412777 473 -0.577530 0.816361 0.003808
-7.361508 -7.261007 -0.409580 469 -0.577530 0.816361 0.003808
-7.361493 -7.260991 -0.406400 461 -0.577530 0.816361 0.003808
-7.362724 -7.262212 -0.403288 465 -0.577530 0.816361 0.003808
-7.362392 -7.261874 -0.400091 473 -0.577530 0.816361 0.003808
-7.361952 -7.261446 -0.396885 471 -0.577530 0.816361 0.003808
-7.361930 -7.261424 -0.393705 445 -0.577530 0.816361 0.003808
-7.360972 -7.260478 -0.390474 449 -0.577530 0.816361 0.003808
-7.361994 -7.261482 -0.387344 461 -0.577530 0.816361 0.003808
-7.362437 -7.261932 -0.384190 457 -0.577530 0.816361 0.003808
-7.362205 -7.261693 -0.381002 465 -0.577530 0.816361 0.003808
-7.362021 -7.261520 -0.377814 467 -0.577530 0.816361 0.003808
-7.362726 -7.262218 -0.374667 463 -0.577530 0.816361 0.003808
-7.363902 -7.263365 -0.371546 461 -0.577530 0.816361 0.003808
-7.364082 -7.263553 -0.368374 453 -0.577530 0.816361 0.003808
-7.363896 -7.263366 -0.365185 459 -0.577530 0.816361 0.003808
-7.363395 -7.262872 -0.361980 451 -0.577530 0.816361 0.003808
-7.363628 -7.263105 -0.358808 429 -0.577530 0.816361 0.003808
-7.363026 -7.262513 -0.355604 401 -0.577530 0.816361 0.003808
-7.362586 -7.262071 -0.352408 399 -0.577530 0.816361 0.003808
-7.362703 -7.262193 -0.349227 425 -0.577530 0.816361 0.003808
-7.363307 -7.262778 -0.346081 425 -0.577530 0.816361 0.003808
-7.364151 -7.263619 -0.342932 431 -0.577530 0.816361 0.003808
-7.363650 -7.263126 -0.339737 427 -0.577530 0.816361 0.003808
-7.363681 -7.263148 -0.336557 437 -0.577530 0.816361 0.003808
-7.363844 -7.263309 -0.333385 463 -0.577530 0.816361 0.003808
-7.363909 -7.263386 -0.330204 469 -0.577530 0.816361 0.003808
-7.363460 -7.262937 -0.327009 461 -0.577530 0.816361 0.003808
-7.362541 -7.262024 -0.323788 457 -0.577530 0.816361 0.003808
-7.362403 -7.261889 -0.320609 447 -0.577530 0.816361 0.003808
-7.363773 -7.263242 -0.317486 441 -0.577530 0.816361 0.003808
-7.364772 -7.264227 -0.314346 449 -0.577530 0.816361 0.003808
-7.363535 -7.263006 -0.311118 439 -0.577530 0.816361 0.003808
-7.362090 -7.261583 -0.307881 431 -0.577530 0.816361 0.003808
-7.362981 -7.262464 -0.304733 401 -0.577530 0.816361 0.003808
-7.364350 -7.263816 -0.301610 379 -0.577530 0.816361 0.003808
-7.374347 -7.268890 -0.668396 517 -0.577530 0.816361 0.003808
-7.374756 -7.269286 -0.665242 541 -0.577530 0.816361 0.003808
-7.375516 -7.270042 -0.662115 527 -0.577530 0.816361 0.003808
-7.375401 -7.269928 -0.658906 515 -0.577530 0.816361 0.003808
-7.374969 -7.269493 -0.655680 509 -0.577530 0.816361 0.003808
-7.375008 -7.269536 -0.652490 521 -0.577530 0.816361 0.003808
-7.375297 -7.269827 -0.649327 529 -0.577530 0.816361 0.003808
-7.375854 -7.270374 -0.646181 519 -0.577530 0.816361 0.003808
-7.376458 -7.270973 -0.643035 511 -0.577530 0.816361 0.003808
-7.375770 -7.270282 -0.639782 513 -0.577530 0.816361 0.003808
-7.375067 -7.269592 -0.636539 517 -0.577530 0.816361 0.003808
-7.376035 -7.270551 -0.633419 509 -0.577530 0.816361 0.003808
-7.376329 -7.270836 -0.630256 499 -0.577530 0.816361 0.003808
-7.376718 -7.271226 -0.627093 489 -0.577530 0.816361 0.003808
-7.376757 -7.271255 -0.623912 493 -0.577530 0.816361 0.003808
-7.375682 -7.270197 -0.620632 491 -0.577530 0.816361 0.003808
-7.375290 -7.269822 -0.617406 499 -0.577530 0.816361 0.003808
-7.375840 -7.270362 -0.614261 511 -0.577530 0.816361 0.003808
-7.376962 -7.271465 -0.611160 503 -0.577530 0.816361 0.003808
-7.377350 -7.271842 -0.607996 487 -0.577530 0.816361 0.003808
-7.377435 -7.271923 -0.604815 461 -0.577530 0.816361 0.003808
-7.376725 -7.271226 -0.601562 507 -0.577530 0.816361 0.003808
-7.376441 -7.270956 -0.598355 519 -0.577530 0.816361 0.003808
-7.376781 -7.271279 -0.595181 521 -0.577530 0.816361 0.003808
-7.376751 -7.271250 -0.591991 529 -0.577530 0.816361 0.003808
-7.375933 -7.270449 -0.588739 515 -0.577530 0.816361 0.003808
-7.376328 -7.270832 -0.585575 531 -0.577530 0.816361 0.003808
-7.376654 -7.271155 -0.582412 533 -0.577530 0.816361 0.003808
-7.376260 -7.270766 -0.579196 539 -0.577530 0.816361 0.003808
-7.376069 -7.270587 -0.575988 519 -0.577530 0.816361 0.003808
-7.376301 -7.270805 -0.572815 505 -0.577530 0.816361 0.003808
-7.376727 -7.271228 -0.569661 509 -0.577530 0.816361 0.003808
-7.376381 -7.270892 -0.566444 499 -0.577530 0.816361 0.003808
-7.376134 -7.270639 -0.563237 501 -0.577530 0.816361 0.003808
-7.376151 -7.270662 -0.560046 499 -0.577530 0.816361 0.003808
-7.377257 -7.271752 -0.556936 501 -0.577530 0.816361 0.003808
-7.377475 -7.271972 -0.553764 507 -0.577530 0.816361 0.003808
-7.377290 -7.271785 -0.550555 503 -0.577530 0.816361 0.003808
-7.377454 -7.271946 -0.547384 519 -0.577530 0.816361 0.003808
-7.377100 -7.271603 -0.544167 527 -0.577530 0.816361 0.003808
-7.376907 -7.271410 -0.540959 517 -0.577530 0.816361 0.003808
-7.375871 -7.270385 -0.537699 517 -0.577530 0.816361 0.003808
-7.377025 -7.271528 -0.534597 519 -0.577530 0.816361 0.003808
-7.378340 -7.272820 -0.531495 515 -0.577530 0.816361 0.003808
-7.377723 -7.272216 -0.528261 511 -0.577530 0.816361 0.003808
-7.377206 -7.271709 -0.525035 519 -0.577530 0.816361 0.003808
-7.377322 -7.271816 -0.521854 529 -0.577530 0.816361 0.003808
-7.377378 -7.271872 -0.518674 531 -0.577530 0.816361 0.003808
-7.377078 -7.271574 -0.515467 533 -0.577530 0.816361 0.003808
-7.377860 -7.272350 -0.512329 541 -0.577530 0.816361 0.003808
-7.377908 -7.272400 -0.509138 541 -0.577530 0.816361 0.003808
-7.377405 -7.271892 -0.505923 533 -0.577530 0.816361 0.003808
-7.377291 -7.271791 -0.502724 517 -0.577530 0.816361 0.003808
-7.376989 -7.271494 -0.499517 509 -0.577530 0.816361 0.003808
-7.377299 -7.271791 -0.496354 517 -0.577530 0.816361 0.003808
-7.378191 -7.272672 -0.493215 505 -0.577530 0.816361 0.003808
-7.378245 -7.272728 -0.490035 507 -0.577530 0.816361 0.003808
-7.377512 -7.271998 -0.486802 509 -0.577530 0.816361 0.003808
-7.377559 -7.272047 -0.483611 519 -0.577530 0.816361 0.003808
-7.377095 -7.271585 -0.480396 523 -0.577530 0.816361 0.003808
-7.376726 -7.271230 -0.477189 517 -0.577530 0.816361 0.003808
-7.377662 -7.272149 -0.474060 513 -0.577530 0.816361 0.003808
-7.378228 -7.272702 -0.470904 519 -0.577530 0.816361 0.003808
-7.377810 -7.272293 -0.467688 495 -0.577530 0.816361 0.003808
-7.377595 -7.272081 -0.464490 481 -0.577530 0.816361 0.003808
-7.378726 -7.273204 -0.461369 487 -0.577530 0.816361 0.003808
-7.378565 -7.273037 -0.458171 493 -0.577530 0.816361 0.003808
-7.378087 -7.272576 -0.454955 477 -0.577530 0.816361 0.003808
-7.377716 -7.272206 -0.451749 477 -0.577530 0.816361 0.003808
-7.377756 -7.272249 -0.448568 477 -0.577530 0.816361 0.003808
-7.379102 -7.273568 -0.445455 487 -0.577530 0.816361 0.003808
-7.379768 -7.274233 -0.442309 491 -0.577530 0.816361 0.003808
-7.379398 -7.273863 -0.439102 487 -0.577530 0.816361 0.003808
-7.378656 -7.273126 -0.435869 483 -0.577530 0.816361 0.003808
-7.378325 -7.272803 -0.432662 481 -0.577530 0.816361 0.003808
-7.378992 -7.273468 -0.429516 469 -0.577530 0.816361 0.003808
-7.379913 -7.274374 -0.426377 463 -0.577530 0.816361 0.003808
-7.380060 -7.274508 -0.423196 469 -0.577530 0.816361 0.003808
-7.380309 -7.274753 -0.420023 483 -0.577530 0.816361 0.003808
-7.380287 -7.274745 -0.416833 479 -0.577530 0.816361 0.003808
-7.379538 -7.274002 -0.413610 471 -0.577530 0.816361 0.003808
-7.378850 -7.273324 -0.410387 459 -0.577530 0.816361 0.003808
-7.378781 -7.273249 -0.407197 453 -0.577530 0.816361 0.003808
-7.379386 -7.273848 -0.404042 443 -0.577530 0.816361 0.003808
-7.379626 -7.274087 -0.400869 437 -0.577530 0.816361 0.003808
-7.379921 -7.274372 -0.397696 431 -0.577530 0.816361 0.003808
-7.380101 -7.274559 -0.394514 433 -0.577530 0.816361 0.003808
-7.380032 -7.274484 -0.391325 411 -0.577530 0.816361 0.003808
-7.380064 -7.274520 -0.388145 407 -0.577530 0.816361 0.003808
-7.380034 -7.274490 -0.384955 409 -0.577530 0.816361 0.003808
-7.380537 -7.274977 -0.381790 431 -0.577530 0.816361 0.003808
-7.380306 -7.274753 -0.378592 429 -0.577530 0.816361 0.003808
-7.379812 -7.274265 -0.375387 427 -0.577530 0.816361 0.003808
-7.379574 -7.274033 -0.372189 439 -0.577530 0.816361 0.003808
-7.380695 -7.275136 -0.369058 441 -0.577530 0.816361 0.003808
-7.381340 -7.275781 -0.365902 431 -0.577530 0.816361 0.003808
-7.380583 -7.275032 -0.362679 445 -0.577530 0.816361 0.003808
-7.380553 -7.275003 -0.359489 415 -0.577530 0.816361 0.003808
-7.380112 -7.274560 -0.356284 359 -0.577530 0.816361 0.003808
-7.379719 -7.274171 -0.353077 353 -0.577530 0.816361 0.003808
-7.380254 -7.274713 -0.349922 365 -0.577530 0.816361 0.003808
-7.381841 -7.276273 -0.346807 393 -0.577530 0.816361 0.003808
-7.382282 -7.276709 -0.343632 403 -0.577530 0.816361 0.003808
-7.381510 -7.275946 -0.340420 411 -0.577530 0.816361 0.003808
-7.381743 -7.276179 -0.337237 435 -0.577530 0.816361 0.003808
-7.382022 -7.276450 -0.334064 427 -0.577530 0.816361 0.003808
-7.381211 -7.275642 -0.330842 439 -0.577530 0.816361 0.003808
-7.380339 -7.274795 -0.327621 451 -0.577530 0.816361 0.003808
-7.380463 -7.274909 -0.324439 433 -0.577530 0.816361 0.003808
-7.381516 -7.275954 -0.321299 439 -0.577530 0.816361 0.003808
-7.381687 -7.276121 -0.318117 433 -0.577530 0.816361 0.003808
-7.381386 -7.275823 -0.314920 435 -0.577530 0.816361 0.003808
-7.381194 -7.275630 -0.311732 427 -0.577530 0.816361 0.003808
-7.381102 -7.275535 -0.308543 429 -0.577530 0.816361 0.003808
-7.381528 -7.275957 -0.305369 427 -0.577530 0.816361 0.003808
-7.381019 -7.275457 -0.302163 399 -0.577530 0.816361 0.003808
-7.390876 -7.280625 -0.669660 481 -0.577530 0.816361 0.003808
-7.390808 -7.280564 -0.666451 499 -0.577530 0.816361 0.003808
-7.391629 -7.281372 -0.663323 517 -0.577530 0.816361 0.003808
-7.391931 -7.281663 -0.660150 503 -0.577530 0.816361 0.003808
-7.391707 -7.281444 -0.656932 507 -0.577530 0.816361 0.003808
-7.392360 -7.282096 -0.653796 503 -0.577530 0.816361 0.003808
-7.392507 -7.282230 -0.650604 497 -0.577530 0.816361 0.003808
-7.391595 -7.281337 -0.647333 483 -0.577530 0.816361 0.003808
-7.391163 -7.280915 -0.644097 481 -0.577530 0.816361 0.003808
-7.391613 -7.281357 -0.640933 485 -0.577530 0.816361 0.003808
-7.391282 -7.281033 -0.637706 463 -0.577530 0.816361 0.003808
-7.391467 -7.281213 -0.634524 473 -0.577530 0.816361 0.003808
-7.391500 -7.281250 -0.631333 497 -0.577530 0.816361 0.003808
-7.392103 -7.281835 -0.628188 499 -0.577530 0.816361 0.003808
-7.393327 -7.283050 -0.625086 493 -0.577530 0.816361 0.003808
-7.392322 -7.282051 -0.621805 485 -0.577530 0.816361 0.003808
-7.391775 -7.281518 -0.618571 475 -0.577530 0.816361 0.003808
-7.392324 -7.282058 -0.615415 489 -0.577530 0.816361 0.003808
-7.393022 -7.282749 -0.612268 491 -0.577530 0.816361 0.003808
-7.392589 -7.282313 -0.609043 479 -0.577530 0.816361 0.003808
-7.391359 -7.281099 -0.605744 483 -0.577530 0.816361 0.003808
-7.391176 -7.280926 -0.602536 499 -0.577530 0.816361 0.003808
-7.391873 -7.281617 -0.599389 499 -0.577530 0.816361 0.003808
-7.392368 -7.282097 -0.596234 501 -0.577530 0.816361 0.003808
-7.393235 -7.282945 -0.593106 499 -0.577530 0.816361 0.003808
-7.393608 -7.283322 -0.589932 505 -0.577530 0.816361 0.003808
-7.392905 -7.282632 -0.586689 499 -0.577530 0.816361 0.003808
-7.392612 -7.282341 -0.583472 499 -0.577530 0.816361 0.003808
-7.392056 -7.281787 -0.580227 489 -0.577530 0.816361 0.003808
-7.392134 -7.281863 -0.577036 491 -0.577530 0.816361 0.003808
-7.392460 -7.282187 -0.573863 491 -0.577530 0.816361 0.003808
-7.392066 -7.281797 -0.570637 491 -0.577530 0.816361 0.003808
-7.391821 -7.281559 -0.567429 487 -0.577530 0.816361 0.003808
-7.391891 -7.281628 -0.564238 467 -0.577530 0.816361 0.003808
-7.392479 -7.282200 -0.561082 469 -0.577530 0.816361 0.003808
-7.393640 -7.283349 -0.557971 475 -0.577530 0.816361 0.003808
-7.394430 -7.284132 -0.554833 489 -0.577530 0.816361 0.003808
-7.394130 -7.283834 -0.551616 495 -0.577530 0.816361 0.003808
-7.393784 -7.283498 -0.548400 485 -0.577530 0.816361 0.003808
-7.394108 -7.283808 -0.545226 497 -0.577530 0.816361 0.003808
-7.393963 -7.283668 -0.542018 509 -0.577530 0.816361 0.003808
-7.393445 -7.283161 -0.538783 501 -0.577530 0.816361 0.003808
-7.393044 -7.282764 -0.535566 511 -0.577530 0.816361 0.003808
-7.392588 -7.282310 -0.532331 509 -0.577530 0.816361 0.003808
-7.392907 -7.282628 -0.529168 505 -0.577530 0.816361 0.003808
-7.393125 -7.282847 -0.525985 499 -0.577530 0.816361 0.003808
-7.393024 -7.282745 -0.522776 485 -0.577530 0.816361 0.003808
-7.393080 -7.282801 -0.519596 493 -0.577530 0.816361 0.003808
-7.393715 -7.283426 -0.516439 503 -0.577530 0.816361 0.003808
-7.393932 -7.283632 -0.513257 497 -0.577530 0.816361 0.003808
-7.392681 -7.282413 -0.509979 489 -0.577530 0.816361 0.003808
-7.392534 -7.282258 -0.506781 489 -0.577530 0.816361 0.003808
-7.392374 -7.282105 -0.503572 477 -0.577530 0.816361 0.003808
-7.392692 -7.282423 -0.500399 485 -0.577530 0.816361 0.003808
-7.394361 -7.284055 -0.497313 481 -0.577530 0.816361 0.003808
-7.394619 -7.284321 -0.494140 465 -0.577530 0.816361 0.003808
-7.394257 -7.283958 -0.490914 469 -0.577530 0.816361 0.003808
-7.393949 -7.283654 -0.487707 457 -0.577530 0.816361 0.003808
-7.393888 -7.283598 -0.484507 465 -0.577530 0.816361 0.003808
-7.394152 -7.283857 -0.481334 475 -0.577530 0.816361 0.003808
-7.394252 -7.283951 -0.478143 479 -0.577530 0.816361 0.003808
-7.393620 -7.283334 -0.474909 467 -0.577530 0.816361 0.003808
-7.394037 -7.283736 -0.471745 471 -0.577530 0.816361 0.003808
-7.394133 -7.283838 -0.468554 451 -0.577530 0.816361 0.003808
-7.393816 -7.283527 -0.465337 443 -0.577530 0.816361 0.003808
-7.394490 -7.284184 -0.462191 437 -0.577530 0.816361 0.003808
-7.394800 -7.284496 -0.459018 461 -0.577530 0.816361 0.003808
-7.394430 -7.284126 -0.455801 461 -0.577530 0.816361 0.003808
-7.394724 -7.284424 -0.452618 467 -0.577530 0.816361 0.003808
-7.395089 -7.284781 -0.449445 481 -0.577530 0.816361 0.003808
-7.394092 -7.283789 -0.446194 481 -0.577530 0.816361 0.003808
-7.393916 -7.283623 -0.442996 479 -0.577530 0.816361 0.003808
-7.394844 -7.284536 -0.439857 483 -0.577530 0.816361 0.003808
-7.395564 -7.285246 -0.436700 489 -0.577530 0.816361 0.003808
-7.395496 -7.285184 -0.433510 483 -0.577530 0.816361 0.003808
-7.395543 -7.285220 -0.430320 475 -0.577530 0.816361 0.003808
-7.395730 -7.285414 -0.427138 473 -0.577530 0.816361 0.003808
-7.395089 -7.284775 -0.423904 463 -0.577530 0.816361 0.003808
-7.394973 -7.284660 -0.420705 463 -0.577530 0.816361 0.003808
-7.395842 -7.285522 -0.417557 467 -0.577530 0.816361 0.003808
-7.395671 -7.285348 -0.414358 439 -0.577530 0.816361 0.003808
-7.395124 -7.284815 -0.411133 435 -0.577530 0.816361 0.003808
-7.394591 -7.284282 -0.407918 425 -0.577530 0.816361 0.003808
-7.394415 -7.284116 -0.404710 427 -0.577530 0.816361 0.003808
-7.395181 -7.284864 -0.401563 423 -0.577530 0.816361 0.003808
-7.395469 -7.285157 -0.398380 417 -0.577530 0.816361 0.003808
-7.396907 -7.286566 -0.395266 413 -0.577530 0.816361 0.003808
-7.396892 -7.286550 -0.392076 405 -0.577530 0.816361 0.003808
-7.395401 -7.285088 -0.388800 387 -0.577530 0.816361 0.003808
-7.395542 -7.285229 -0.385619 391 -0.577530 0.816361 0.003808
-7.396772 -7.286436 -0.382487 411 -0.577530 0.816361 0.003808
-7.397059 -7.286714 -0.379304 421 -0.577530 0.816361 0.003808
-7.396464 -7.286129 -0.376090 431 -0.577530 0.816361 0.003808
-7.397370 -7.287022 -0.372941 421 -0.577530 0.816361 0.003808
-7.397495 -7.287150 -0.369750 411 -0.577530 0.816361 0.003808
-7.396954 -7.286610 -0.366535 383 -0.577530 0.816361 0.003808
-7.396616 -7.286280 -0.363328 379 -0.577530 0.816361 0.003808
-7.397004 -7.286670 -0.360154 373 -0.577530 0.816361 0.003808
-7.398327 -7.287969 -0.357021 357 -0.577530 0.816361 0.003808
-7.397825 -7.287475 -0.353806 365 -0.577530 0.816361 0.003808
-7.397169 -7.286824 -0.350582 365 -0.577530 0.816361 0.003808
-7.397448 -7.287109 -0.347399 367 -0.577530 0.816361 0.003808
-7.398098 -7.287747 -0.344243 379 -0.577530 0.816361 0.003808
-7.398223 -7.287861 -0.341052 375 -0.577530 0.816361 0.003808
-7.397513 -7.287165 -0.337829 393 -0.577530 0.816361 0.003808
-7.396439 -7.286108 -0.334589 379 -0.577530 0.816361 0.003808
-7.395721 -7.285405 -0.331366 373 -0.577530 0.816361 0.003808
-7.396264 -7.285938 -0.328200 387 -0.577530 0.816361 0.003808
-7.397795 -7.287440 -0.325076 413 -0.577530 0.816361 0.003808
-7.397858 -7.287502 -0.321885 409 -0.577530 0.816361 0.003808
-7.397032 -7.286695 -0.318663 411 -0.577530 0.816361 0.003808
-7.397203 -7.286861 -0.315471 421 -0.577530 0.816361 0.003808
-7.396693 -7.286361 -0.312266 411 -0.577530 0.816361 0.003808
-7.396709 -7.286371 -0.309076 405 -0.577530 0.816361 0.003808
-7.398234 -7.287879 -0.305941 425 -0.577530 0.816361 0.003808
-7.397671 -7.287320 -0.302726 419 -0.577530 0.816361 0.003808
-7.396589 -7.286258 -0.299497 407 -0.577530 0.816361 0.003808
-7.404765 -7.290121 -0.667498 463 -0.577530 0.816361 0.003808
-7.405275 -7.290615 -0.664343 469 -0.577530 0.816361 0.003808
-7.404380 -7.289734 -0.661062 461 -0.577530 0.816361 0.003808
-7.404203 -7.289568 -0.657843 441 -0.577530 0.816361 0.003808
-7.405125 -7.290475 -0.654714 437 -0.577530 0.816361 0.003808
-7.405163 -7.290504 -0.651514 445 -0.577530 0.816361 0.003808
-7.405451 -7.290795 -0.648341 433 -0.577530 0.816361 0.003808
-7.405699 -7.291041 -0.645159 439 -0.577530 0.816361 0.003808
-7.405422 -7.290763 -0.641931 457 -0.577530 0.816361 0.003808
-7.405979 -7.291309 -0.638776 453 -0.577530 0.816361 0.003808
-7.406057 -7.291384 -0.635575 453 -0.577530 0.816361 0.003808
-7.405773 -7.291113 -0.632347 459 -0.577530 0.816361 0.003808
-7.407150 -7.292472 -0.629264 471 -0.577530 0.816361 0.003808
-7.407344 -7.292658 -0.626072 471 -0.577530 0.816361 0.003808
-7.406857 -7.292177 -0.622827 455 -0.577530 0.816361 0.003808
-7.406936 -7.292252 -0.619636 457 -0.577530 0.816361 0.003808
-7.406752 -7.292079 -0.616418 471 -0.577530 0.816361 0.003808
-7.406519 -7.291840 -0.613190 461 -0.577530 0.816361 0.003808
-7.406753 -7.292072 -0.610008 471 -0.577530 0.816361 0.003808
-7.406994 -7.292312 -0.606825 469 -0.577530 0.816361 0.003808
-7.406701 -7.292020 -0.603598 459 -0.577530 0.816361 0.003808
-7.407351 -7.292658 -0.600452 463 -0.577530 0.816361 0.003808
-7.407321 -7.292629 -0.597242 463 -0.577530 0.816361 0.003808
-7.406982 -7.292299 -0.594015 469 -0.577530 0.816361 0.003808
-7.406636 -7.291962 -0.590788 469 -0.577530 0.816361 0.003808
-7.406295 -7.291618 -0.587561 467 -0.577530 0.816361 0.003808
-7.406676 -7.292002 -0.584388 463 -0.577530 0.816361 0.003808
-7.406955 -7.292273 -0.581205 457 -0.577530 0.816361 0.003808
-7.407080 -7.292401 -0.578014 455 -0.577530 0.816361 0.003808
-7.406686 -7.292011 -0.574787 463 -0.577530 0.816361 0.003808
-7.407121 -7.292440 -0.571613 461 -0.577530 0.816361 0.003808
-7.406672 -7.291991 -0.568377 451 -0.577530 0.816361 0.003808
-7.406117 -7.291453 -0.565143 441 -0.577530 0.816361 0.003808
-7.406853 -7.292176 -0.561995 439 -0.577530 0.816361 0.003808
-7.406923 -7.292244 -0.558795 457 -0.577530 0.816361 0.003808
-7.408502 -7.293799 -0.555709 473 -0.577530 0.816361 0.003808
-7.409029 -7.294320 -0.552544 461 -0.577530 0.816361 0.003808
-7.407908 -7.293210 -0.549265 463 -0.577530 0.816361 0.003808
-7.407707 -7.293010 -0.546047 469 -0.577530 0.816361 0.003808
-7.407825 -7.293131 -0.542856 471 -0.577530 0.816361 0.003808
-7.408205 -7.293501 -0.539682 481 -0.577530 0.816361 0.003808
-7.408415 -7.293715 -0.536500 479 -0.577530 0.816361 0.003808
-7.407905 -7.293200 -0.533265 477 -0.577530 0.816361 0.003808
-7.407550 -7.292858 -0.530038 481 -0.577530 0.816361 0.003808
-7.407721 -7.293024 -0.526846 479 -0.577530 0.816361 0.003808
-7.407521 -7.292825 -0.523628 467 -0.577530 0.816361 0.003808
-7.408667 -7.293960 -0.520507 469 -0.577530 0.816361 0.003808
-7.408883 -7.294166 -0.517325 479 -0.577530 0.816361 0.003808
-7.407377 -7.292691 -0.514019 465 -0.577530 0.816361 0.003808
-7.407904 -7.293211 -0.510864 467 -0.577530 0.816361 0.003808
-7.408113 -7.293410 -0.507672 469 -0.577530 0.816361 0.003808
-7.408122 -7.293414 -0.504472 453 -0.577530 0.816361 0.003808
-7.408641 -7.293928 -0.501307 445 -0.577530 0.816361 0.003808
-7.407969 -7.293264 -0.498063 449 -0.577530 0.816361 0.003808
-7.407661 -7.292959 -0.494846 459 -0.577530 0.816361 0.003808
-7.407809 -7.293107 -0.491655 447 -0.577530 0.816361 0.003808
-7.407964 -7.293261 -0.488463 443 -0.577530 0.816361 0.003808
-7.409272 -7.294547 -0.485350 439 -0.577530 0.816361 0.003808
-7.409938 -7.295212 -0.482194 439 -0.577530 0.816361 0.003808
-7.408950 -7.294240 -0.478933 445 -0.577530 0.816361 0.003808
-7.408795 -7.294079 -0.475725 459 -0.577530 0.816361 0.003808
-7.409206 -7.294488 -0.472551 435 -0.577530 0.816361 0.003808
-7.409146 -7.294433 -0.469351 435 -0.577530 0.816361 0.003808
-7.408931 -7.294221 -0.466133 431 -0.577530 0.816361 0.003808
-7.408923 -7.294211 -0.462933 433 -0.577530 0.816361 0.003808
-7.408661 -7.293945 -0.459716 459 -0.577530 0.816361 0.003808
-7.409025 -7.294302 -0.456542 453 -0.577530 0.816361 0.003808
-7.408911 -7.294202 -0.453333 471 -0.577530 0.816361 0.003808
-7.407914 -7.293210 -0.450083 463 -0.577530 0.816361 0.003808
-7.408365 -7.293665 -0.446908 463 -0.577530 0.816361 0.003808
-7.409246 -7.294526 -0.443760 477 -0.577530 0.816361 0.003808
-7.408505 -7.293803 -0.440517 459 -0.577530 0.816361 0.003808
-7.408282 -7.293584 -0.437309 467 -0.577530 0.816361 0.003808
-7.409056 -7.294339 -0.434151 465 -0.577530 0.816361 0.003808
-7.408261 -7.293558 -0.430909 453 -0.577530 0.816361 0.003808
-7.408454 -7.293744 -0.427727 441 -0.577530 0.816361 0.003808
-7.409214 -7.294501 -0.424569 433 -0.577530 0.816361 0.003808
-7.408835 -7.294124 -0.421353 427 -0.577530 0.816361 0.003808
-7.409084 -7.294370 -0.418171 427 -0.577530 0.816361 0.003808
-7.410067 -7.295328 -0.415021 423 -0.577530 0.816361 0.003808
-7.410826 -7.296084 -0.411864 405 -0.577530 0.816361 0.003808
-7.410231 -7.295498 -0.408639 399 -0.577530 0.816361 0.003808
-7.409428 -7.294711 -0.405397 413 -0.577530 0.816361 0.003808
-7.410666 -7.295924 -0.402265 409 -0.577530 0.816361 0.003808
-7.411007 -7.296261 -0.399082 413 -0.577530 0.816361 0.003808
-7.410729 -7.295983 -0.395864 405 -0.577530 0.816361 0.003808
-7.411542 -7.296785 -0.392716 401 -0.577530 0.816361 0.003808
-7.411056 -7.296304 -0.389491 401 -0.577530 0.816361 0.003808
-7.410562 -7.295816 -0.386266 387 -0.577530 0.816361 0.003808
-7.410903 -7.296154 -0.383082 395 -0.577530 0.816361 0.003808
-7.411237 -7.296484 -0.379909 401 -0.577530 0.816361 0.003808
-7.411114 -7.296363 -0.376700 385 -0.577530 0.816361 0.003808
-7.411556 -7.296799 -0.373526 367 -0.577530 0.816361 0.003808
-7.411170 -7.296416 -0.370309 377 -0.577530 0.816361 0.003808
-7.411342 -7.296597 -0.367118 379 -0.577530 0.816361 0.003808
-7.412100 -7.297339 -0.363960 393 -0.577530 0.816361 0.003808
-7.412171 -7.297408 -0.360759 393 -0.577530 0.816361 0.003808
-7.412829 -7.298053 -0.357593 403 -0.577530 0.816361 0.003808
-7.412172 -7.297401 -0.354369 405 -0.577530 0.816361 0.003808
-7.411717 -7.296960 -0.351144 391 -0.577530 0.816361 0.003808
-7.411951 -7.297193 -0.347961 383 -0.577530 0.816361 0.003808
-7.412546 -7.297772 -0.344785 407 -0.577530 0.816361 0.003808
-7.412880 -7.298102 -0.341602 439 -0.577530 0.816361 0.003808
-7.413051 -7.298269 -0.338421 427 -0.577530 0.816361 0.003808
-7.412913 -7.298135 -0.335212 399 -0.577530 0.816361 0.003808
-7.412566 -7.297798 -0.332005 385 -0.577530 0.816361 0.003808
-7.412954 -7.298175 -0.328821 391 -0.577530 0.816361 0.003808
-7.412080 -7.297314 -0.325590 389 -0.577530 0.816361 0.003808
-7.411835 -7.297076 -0.322382 383 -0.577530 0.816361 0.003808
-7.411433 -7.296679 -0.319166 387 -0.577530 0.816361 0.003808
-7.410924 -7.296180 -0.315950 387 -0.577530 0.816361 0.003808
-7.411714 -7.296962 -0.312783 397 -0.577530 0.816361 0.003808
-7.411737 -7.296978 -0.309582 385 -0.577530 0.816361 0.003808
-7.412117 -7.297347 -0.306409 383 -0.577530 0.816361 0.003808
-7.411964 -7.297201 -0.303200 363 -0.577530 0.816361 0.003808
-7.411663 -7.296903 -0.299993 369 -0.577530 0.816361 0.003808
