-7.57611084 -7.14998484 -0.61444098 263.000000 -0.417323 0.908750 0.003900
-7.57651281 -7.15036106 -0.61125702 285.000000 -0.417323 0.908750 0.003900
-7.57711887 -7.15092802 -0.60810202 285.000000 -0.417323 0.908750 0.003900
-7.57719278 -7.15101004 -0.60489100 275.000000 -0.417323 0.908750 0.003900
-7.57775784 -7.15153217 -0.60172600 313.000000 -0.417323 0.908750 0.003900
-7.57762480 -7.15140676 -0.59850699 313.000000 -0.417323 0.908750 0.003900
-7.57790279 -7.15168095 -0.59532398 307.000000 -0.417323 0.908750 0.003900
-7.57771397 -7.15149784 -0.59209597 275.000000 -0.417323 0.908750 0.003900
-7.57641602 -7.15026903 -0.58878797 259.000000 -0.417323 0.908750 0.003900
-7.57579613 -7.14968300 -0.58553398 263.000000 -0.417323 0.908750 0.003900
-7.57635498 -7.15021181 -0.58236802 251.000000 -0.417323 0.908750 0.003900
-7.57652998 -7.15037584 -0.57916701 265.000000 -0.417323 0.908750 0.003900
-7.57660913 -7.15045023 -0.57596600 251.000000 -0.417323 0.908750 0.003900
-7.57735777 -7.15115881 -0.57280898 259.000000 -0.417323 0.908750 0.003900
-7.57727289 -7.15108585 -0.56959897 249.000000 -0.417323 0.908750 0.003900
-7.57650185 -7.15035105 -0.56633699 273.000000 -0.417323 0.908750 0.003900
-7.57614088 -7.15001392 -0.56309998 273.000000 -0.417323 0.908750 0.003900
-7.57626677 -7.15012598 -0.55989897 269.000000 -0.417323 0.908750 0.003900
-7.57712698 -7.15093803 -0.55675000 293.000000 -0.417323 0.908750 0.003900
-7.57741117 -7.15120506 -0.55356801 289.000000 -0.417323 0.908750 0.003900
-7.57795477 -7.15172100 -0.55039299 285.000000 -0.417323 0.908750 0.003900
-7.57754612 -7.15133286 -0.54715598 269.000000 -0.417323 0.908750 0.003900
-7.57653999 -7.15039396 -0.54387599 273.000000 -0.417323 0.908750 0.003900
-7.57613182 -7.15000582 -0.54063898 271.000000 -0.417323 0.908750 0.003900
-7.57725811 -7.15106201 -0.53750902 293.000000 -0.417323 0.908750 0.003900
-7.57875490 -7.15248394 -0.53440499 291.000000 -0.417323 0.908750 0.003900
-7.57807016 -7.15183210 -0.53115100 293.000000 -0.417323 0.908750 0.003900
-7.57829189 -7.15204811 -0.52795899 293.000000 -0.417323 0.908750 0.003900
-7.57776499 -7.15155077 -0.52471399 287.000000 -0.417323 0.908750 0.003900
-7.57734919 -7.15115595 -0.52147800 283.000000 -0.417323 0.908750 0.003900
-7.57778978 -7.15156317 -0.51830298 285.000000 -0.417323 0.908750 0.003900
-7.57805777 -7.15181589 -0.51511103 293.000000 -0.417323 0.908750 0.003900
-7.57795811 -7.15173101 -0.51190197 287.000000 -0.417323 0.908750 0.003900
-7.57630682 -7.15017605 -0.50858700 287.000000 -0.417323 0.908750 0.003900
-7.57631493 -7.15017891 -0.50537699 283.000000 -0.417323 0.908750 0.003900
-7.57765293 -7.15143299 -0.50225401 287.000000 -0.417323 0.908750 0.003900
-7.57743502 -7.15123796 -0.49903601 289.000000 -0.417323 0.908750 0.003900
-7.57616806 -7.15003395 -0.49574801 301.000000 -0.417323 0.908750 0.003900
-7.57664204 -7.15048122 -0.49257299 335.000000 -0.417323 0.908750 0.003900
-7.57786989 -7.15164614 -0.48944199 339.000000 -0.417323 0.908750 0.003900
-7.57765007 -7.15143681 -0.48622400 317.000000 -0.417323 0.908750 0.003900
-7.57824087 -7.15199184 -0.48305801 309.000000 -0.417323 0.908750 0.003900
-7.57758904 -7.15138006 -0.47981399 317.000000 -0.417323 0.908750 0.003900
-7.57604885 -7.14992714 -0.47650900 315.000000 -0.417323 0.908750 0.003900
-7.57637119 -7.15022516 -0.47332600 331.000000 -0.417323 0.908750 0.003900
-7.57768679 -7.15147400 -0.47019300 343.000000 -0.417323 0.908750 0.003900
-7.57811213 -7.15186787 -0.46701899 327.000000 -0.417323 0.908750 0.003900
-7.57772779 -7.15151310 -0.46379301 329.000000 -0.417323 0.908750 0.003900
-7.57735777 -7.15115595 -0.46055600 329.000000 -0.417323 0.908750 0.003900
-7.57744694 -7.15124989 -0.45735499 317.000000 -0.417323 0.908750 0.003900
-7.57690477 -7.15074110 -0.45412001 329.000000 -0.417323 0.908750 0.003900
-7.57642508 -7.15028095 -0.45089501 325.000000 -0.417323 0.908750 0.003900
-7.57716703 -7.15098476 -0.44772699 329.000000 -0.417323 0.908750 0.003900
-7.57715178 -7.15096903 -0.44451800 321.000000 -0.417323 0.908750 0.003900
-7.57629299 -7.15014887 -0.44126600 309.000000 -0.417323 0.908750 0.003900
-7.57628012 -7.15014791 -0.43806601 313.000000 -0.417323 0.908750 0.003900
-7.57754803 -7.15134478 -0.43492401 321.000000 -0.417323 0.908750 0.003900
-7.57742310 -7.15122700 -0.43171501 337.000000 -0.417323 0.908750 0.003900
-7.57750988 -7.15130711 -0.42851400 323.000000 -0.417323 0.908750 0.003900
-7.57861996 -7.15234900 -0.42537299 317.000000 -0.417323 0.908750 0.003900
-7.57892084 -7.15264177 -0.42218000 325.000000 -0.417323 0.908750 0.003900
-7.57741785 -7.15121984 -0.41889399 327.000000 -0.417323 0.908750 0.003900
-7.57686090 -7.15069818 -0.41565999 315.000000 -0.417323 0.908750 0.003900
-7.57876587 -7.15249205 -0.41256201 325.000000 -0.417323 0.908750 0.003900
-7.57928514 -7.15297508 -0.40937701 305.000000 -0.417323 0.908750 0.003900
-7.57846785 -7.15220308 -0.40613401 283.000000 -0.417323 0.908750 0.003900
-7.57796621 -7.15173912 -0.40289900 287.000000 -0.417323 0.908750 0.003900
-7.57773113 -7.15151691 -0.39969099 287.000000 -0.417323 0.908750 0.003900
-7.57803106 -7.15179586 -0.39649799 289.000000 -0.417323 0.908750 0.003900
-7.57844019 -7.15217781 -0.39331400 295.000000 -0.417323 0.908750 0.003900
-7.57878685 -7.15250778 -0.39013100 279.000000 -0.417323 0.908750 0.003900
-7.57876492 -7.15248585 -0.38692099 273.000000 -0.417323 0.908750 0.003900
-7.57885218 -7.15256596 -0.38372001 271.000000 -0.417323 0.908750 0.003900
-7.57887697 -7.15259600 -0.38051999 271.000000 -0.417323 0.908750 0.003900
-7.57799721 -7.15177202 -0.37726799 283.000000 -0.417323 0.908750 0.003900
-7.57780886 -7.15158892 -0.37406000 275.000000 -0.417323 0.908750 0.003900
-7.57821083 -7.15196514 -0.37087601 269.000000 -0.417323 0.908750 0.003900
-7.57850409 -7.15225077 -0.36768299 269.000000 -0.417323 0.908750 0.003900
-7.57863808 -7.15236902 -0.36449200 263.000000 -0.417323 0.908750 0.003900
-7.57834721 -7.15209007 -0.36127400 271.000000 -0.417323 0.908750 0.003900
-7.57804203 -7.15181208 -0.35805699 291.000000 -0.417323 0.908750 0.003900
-7.57838202 -7.15213585 -0.35486400 279.000000 -0.417323 0.908750 0.003900
-7.57883787 -7.15255594 -0.35168001 283.000000 -0.417323 0.908750 0.003900
-7.58008194 -7.15373421 -0.34852800 295.000000 -0.417323 0.908750 0.003900
-7.57989407 -7.15355110 -0.34531999 285.000000 -0.417323 0.908750 0.003900
-7.57857418 -7.15231705 -0.34206200 267.000000 -0.417323 0.908750 0.003900
-7.57848787 -7.15222979 -0.33885300 255.000000 -0.417323 0.908750 0.003900
-7.57957506 -7.15325403 -0.33569199 255.000000 -0.417323 0.908750 0.003900
-7.58027697 -7.15392494 -0.33251601 259.000000 -0.417323 0.908750 0.003900
-7.57986879 -7.15353680 -0.32929900 251.000000 -0.417323 0.908750 0.003900
-7.57993984 -7.15360403 -0.32609901 239.000000 -0.417323 0.908750 0.003900
-7.57931900 -7.15301704 -0.32287401 243.000000 -0.417323 0.908750 0.003900
-7.57880878 -7.15253305 -0.31964901 267.000000 -0.417323 0.908750 0.003900
-7.58699512 -7.15553522 -0.61190301 301.000000 -0.417323 0.908750 0.003900
-7.58580017 -7.15440321 -0.60859400 303.000000 -0.417323 0.908750 0.003900
-7.58598089 -7.15457201 -0.60539198 313.000000 -0.417323 0.908750 0.003900
-7.58654118 -7.15510178 -0.60222697 331.000000 -0.417323 0.908750 0.003900
-7.58661985 -7.15517616 -0.59901601 325.000000 -0.417323 0.908750 0.003900
-7.58706999 -7.15560198 -0.59584200 307.000000 -0.417323 0.908750 0.003900
-7.58725214 -7.15577316 -0.59263998 297.000000 -0.417323 0.908750 0.003900
-7.58578205 -7.15439081 -0.58932298 273.000000 -0.417323 0.908750 0.003900
-7.58457899 -7.15325212 -0.58601499 261.000000 -0.417323 0.908750 0.003900
-7.58571196 -7.15432692 -0.58289403 259.000000 -0.417323 0.908750 0.003900
-7.58690882 -7.15545321 -0.57976300 269.000000 -0.417323 0.908750 0.003900
-7.58702898 -7.15557289 -0.57656097 267.000000 -0.417323 0.908750 0.003900
-7.58624983 -7.15483093 -0.57329899 267.000000 -0.417323 0.908750 0.003900
-7.58664513 -7.15520000 -0.57011497 263.000000 -0.417323 0.908750 0.003900
-7.58708620 -7.15562105 -0.56693101 273.000000 -0.417323 0.908750 0.003900
-7.58700800 -7.15553999 -0.56371099 273.000000 -0.417323 0.908750 0.003900
-7.58733177 -7.15585184 -0.56052798 273.000000 -0.417323 0.908750 0.003900
-7.58713484 -7.15566301 -0.55729997 279.000000 -0.417323 0.908750 0.003900
-7.58730984 -7.15582609 -0.55409801 303.000000 -0.417323 0.908750 0.003900
-7.58705902 -7.15559292 -0.55087101 287.000000 -0.417323 0.908750 0.003900
-7.58589602 -7.15449905 -0.54758102 277.000000 -0.417323 0.908750 0.003900
-7.58649397 -7.15505981 -0.54440600 269.000000 -0.417323 0.908750 0.003900
-7.58837509 -7.15683508 -0.54132801 285.000000 -0.417323 0.908750 0.003900
-7.58753395 -7.15604305 -0.53805602 297.000000 -0.417323 0.908750 0.003900
-7.58636379 -7.15494299 -0.53476697 321.000000 -0.417323 0.908750 0.003900
-7.58723021 -7.15576077 -0.53161800 317.000000 -0.417323 0.908750 0.003900
-7.58719110 -7.15571213 -0.52840900 301.000000 -0.417323 0.908750 0.003900
-7.58693314 -7.15547323 -0.52518100 309.000000 -0.417323 0.908750 0.003900
-7.58698797 -7.15552711 -0.52197099 301.000000 -0.417323 0.908750 0.003900
-7.58832788 -7.15679502 -0.51884800 323.000000 -0.417323 0.908750 0.003900
-7.58859587 -7.15704918 -0.51565498 305.000000 -0.417323 0.908750 0.003900
-7.58812380 -7.15659523 -0.51240999 307.000000 -0.417323 0.908750 0.003900
-7.58786583 -7.15635490 -0.50918198 309.000000 -0.417323 0.908750 0.003900
-7.58696079 -7.15549898 -0.50591999 297.000000 -0.417323 0.908750 0.003900
-7.58680582 -7.15535498 -0.50270200 291.000000 -0.417323 0.908750 0.003900
-7.58707285 -7.15560818 -0.49950901 311.000000 -0.417323 0.908750 0.003900
-7.58718395 -7.15570784 -0.49629799 323.000000 -0.417323 0.908750 0.003900
-7.58676100 -7.15530682 -0.49306199 331.000000 -0.417323 0.908750 0.003900
-7.58584881 -7.15445805 -0.48980001 337.000000 -0.417323 0.908750 0.003900
-7.58632994 -7.15491009 -0.48661599 331.000000 -0.417323 0.908750 0.003900
-7.58686495 -7.15540695 -0.48344100 321.000000 -0.417323 0.908750 0.003900
-7.58728409 -7.15580893 -0.48025700 323.000000 -0.417323 0.908750 0.003900
-7.58733177 -7.15585804 -0.47705600 311.000000 -0.417323 0.908750 0.003900
-7.58765602 -7.15615606 -0.47386301 309.000000 -0.417323 0.908750 0.003900
-7.58712101 -7.15565205 -0.47061801 317.000000 -0.417323 0.908750 0.003900
-7.58636713 -7.15494299 -0.46736500 309.000000 -0.417323 0.908750 0.003900
-7.58747721 -7.15598583 -0.46422499 313.000000 -0.417323 0.908750 0.003900
-7.58694220 -7.15548182 -0.46099001 303.000000 -0.417323 0.908750 0.003900
-7.58645582 -7.15503120 -0.45775399 327.000000 -0.417323 0.908750 0.003900
-7.58772516 -7.15622807 -0.45461199 339.000000 -0.417323 0.908750 0.003900
-7.58776283 -7.15625620 -0.45141199 331.000000 -0.417323 0.908750 0.003900
-7.58653688 -7.15509796 -0.44813299 319.000000 -0.417323 0.908750 0.003900
-7.58668804 -7.15524292 -0.44493201 319.000000 -0.417323 0.908750 0.003900
-7.58763409 -7.15613890 -0.44177300 311.000000 -0.417323 0.908750 0.003900
-7.58729601 -7.15582085 -0.43854600 303.000000 -0.417323 0.908750 0.003900
-7.58713818 -7.15566301 -0.43532699 315.000000 -0.417323 0.908750 0.003900
-7.58759499 -7.15609598 -0.43215299 299.000000 -0.417323 0.908750 0.003900
-7.58678579 -7.15533018 -0.42888999 303.000000 -0.417323 0.908750 0.003900
-7.58661413 -7.15517282 -0.42568201 325.000000 -0.417323 0.908750 0.003900
-7.58776522 -7.15626097 -0.42253101 335.000000 -0.417323 0.908750 0.003900
-7.58790684 -7.15640020 -0.41933000 323.000000 -0.417323 0.908750 0.003900
-7.58741188 -7.15592909 -0.41609401 305.000000 -0.417323 0.908750 0.003900
-7.58692503 -7.15546322 -0.41286901 297.000000 -0.417323 0.908750 0.003900
-7.58748388 -7.15599298 -0.40968299 277.000000 -0.417323 0.908750 0.003900
-7.58757210 -7.15607214 -0.40648201 287.000000 -0.417323 0.908750 0.003900
-7.58749390 -7.15600586 -0.40327299 285.000000 -0.417323 0.908750 0.003900
-7.58737707 -7.15589285 -0.40005401 293.000000 -0.417323 0.908750 0.003900
-7.58766890 -7.15616703 -0.39687100 269.000000 -0.417323 0.908750 0.003900
-7.58770180 -7.15620184 -0.39366099 265.000000 -0.417323 0.908750 0.003900
-7.58757687 -7.15608406 -0.39045200 309.000000 -0.417323 0.908750 0.003900
-7.58819818 -7.15666389 -0.38726601 299.000000 -0.417323 0.908750 0.003900
-7.58757877 -7.15609121 -0.38403201 263.000000 -0.417323 0.908750 0.003900
-7.58739901 -7.15591383 -0.38081300 241.000000 -0.417323 0.908750 0.003900
-7.58849192 -7.15694380 -0.37766299 259.000000 -0.417323 0.908750 0.003900
-7.58857203 -7.15701818 -0.37446201 289.000000 -0.417323 0.908750 0.003900
-7.58817291 -7.15665007 -0.37123600 285.000000 -0.417323 0.908750 0.003900
-7.58734798 -7.15586996 -0.36798400 299.000000 -0.417323 0.908750 0.003900
-7.58710480 -7.15564299 -0.36476600 285.000000 -0.417323 0.908750 0.003900
-7.58786917 -7.15636492 -0.36159801 283.000000 -0.417323 0.908750 0.003900
-7.58737421 -7.15589285 -0.35837299 297.000000 -0.417323 0.908750 0.003900
-7.58776808 -7.15626192 -0.35517901 291.000000 -0.417323 0.908750 0.003900
-7.58949184 -7.15789604 -0.35205299 315.000000 -0.417323 0.908750 0.003900
-7.58881617 -7.15724993 -0.34880900 327.000000 -0.417323 0.908750 0.003900
-7.58836079 -7.15682507 -0.34558401 303.000000 -0.417323 0.908750 0.003900
-7.58891296 -7.15734816 -0.34240800 275.000000 -0.417323 0.908750 0.003900
-7.58946514 -7.15787077 -0.33922300 289.000000 -0.417323 0.908750 0.003900
-7.58884382 -7.15728378 -0.33598900 303.000000 -0.417323 0.908750 0.003900
-7.58790922 -7.15640211 -0.33274701 287.000000 -0.417323 0.908750 0.003900
-7.58893204 -7.15736103 -0.32957801 293.000000 -0.417323 0.908750 0.003900
-7.58863306 -7.15707493 -0.32636100 279.000000 -0.417323 0.908750 0.003900
-7.58752584 -7.15604019 -0.32311100 257.000000 -0.417323 0.908750 0.003900
-7.58802891 -7.15651178 -0.31992599 253.000000 -0.417323 0.908750 0.003900
-7.58787298 -7.15636778 -0.31670699 269.000000 -0.417323 0.908750 0.003900
-7.59487915 -7.15824413 -0.61234200 273.000000 -0.417323 0.908750 0.003900
-7.59442377 -7.15781784 -0.60908598 287.000000 -0.417323 0.908750 0.003900
-7.59498978 -7.15833902 -0.60591102 301.000000 -0.417323 0.908750 0.003900
-7.59569979 -7.15901709 -0.60275400 319.000000 -0.417323 0.908750 0.003900
-7.59540796 -7.15873718 -0.59951699 313.000000 -0.417323 0.908750 0.003900
-7.59478807 -7.15815115 -0.59625298 309.000000 -0.417323 0.908750 0.003900
-7.59550619 -7.15883493 -0.59309602 315.000000 -0.417323 0.908750 0.003900
-7.59632397 -7.15960217 -0.58993798 309.000000 -0.417323 0.908750 0.003900
-7.59517717 -7.15852118 -0.58663899 295.000000 -0.417323 0.908750 0.003900
-7.59509802 -7.15844011 -0.58341998 303.000000 -0.417323 0.908750 0.003900
-7.59649277 -7.15976620 -0.58030599 283.000000 -0.417323 0.908750 0.003900
-7.59672880 -7.15998077 -0.57710397 269.000000 -0.417323 0.908750 0.003900
-7.59530592 -7.15864992 -0.57378697 267.000000 -0.417323 0.908750 0.003900
-7.59496021 -7.15831184 -0.57055002 279.000000 -0.417323 0.908750 0.003900
-7.59598398 -7.15928507 -0.56741101 277.000000 -0.417323 0.908750 0.003900
-7.59584379 -7.15915394 -0.56418198 277.000000 -0.417323 0.908750 0.003900
-7.59564686 -7.15896511 -0.56095397 267.000000 -0.417323 0.908750 0.003900
-7.59619093 -7.15948200 -0.55777901 273.000000 -0.417323 0.908750 0.003900
-7.59652996 -7.15979195 -0.55458498 281.000000 -0.417323 0.908750 0.003900
-7.59611607 -7.15941191 -0.55134898 291.000000 -0.417323 0.908750 0.003900
-7.59761906 -7.16082621 -0.54823500 291.000000 -0.417323 0.908750 0.003900
-7.59773588 -7.16093111 -0.54503399 301.000000 -0.417323 0.908750 0.003900
-7.59658194 -7.15984488 -0.54173499 319.000000 -0.417323 0.908750 0.003900
-7.59622097 -7.15950823 -0.53849798 327.000000 -0.417323 0.908750 0.003900
-7.59666204 -7.15991497 -0.53531402 335.000000 -0.417323 0.908750 0.003900
-7.59618282 -7.15947008 -0.53206801 333.000000 -0.417323 0.908750 0.003900
-7.59470510 -7.15808201 -0.52875203 331.000000 -0.417323 0.908750 0.003900
-7.59524822 -7.15858412 -0.52557701 329.000000 -0.417323 0.908750 0.003900
-7.59664202 -7.15989685 -0.52245402 329.000000 -0.417323 0.908750 0.003900
-7.59679890 -7.16004705 -0.51925200 335.000000 -0.417323 0.908750 0.003900
-7.59702206 -7.16026306 -0.51605999 335.000000 -0.417323 0.908750 0.003900
-7.59590483 -7.15920687 -0.51277000 349.000000 -0.417323 0.908750 0.003900
-7.59564686 -7.15896797 -0.50954300 343.000000 -0.417323 0.908750 0.003900
-7.59650421 -7.15976620 -0.50638402 341.000000 -0.417323 0.908750 0.003900
-7.59565496 -7.15896702 -0.50311202 341.000000 -0.417323 0.908750 0.003900
-7.59592295 -7.15922117 -0.49992001 349.000000 -0.417323 0.908750 0.003900
-7.59629393 -7.15957117 -0.49673599 347.000000 -0.417323 0.908750 0.003900
-7.59576797 -7.15907288 -0.49348101 353.000000 -0.417323 0.908750 0.003900
-7.59555006 -7.15887880 -0.49026299 357.000000 -0.417323 0.908750 0.003900
-7.59618711 -7.15947199 -0.48708701 331.000000 -0.417323 0.908750 0.003900
-7.59592199 -7.15922594 -0.48385900 325.000000 -0.417323 0.908750 0.003900
-7.59645605 -7.15972185 -0.48068401 313.000000 -0.417323 0.908750 0.003900
-7.59714890 -7.16037321 -0.47750801 321.000000 -0.417323 0.908750 0.003900
-7.59633303 -7.15961409 -0.47424501 313.000000 -0.417323 0.908750 0.003900
-7.59516907 -7.15850687 -0.47096601 323.000000 -0.417323 0.908750 0.003900
-7.59500504 -7.15835714 -0.46774799 323.000000 -0.417323 0.908750 0.003900
-7.59642982 -7.15970802 -0.46461400 339.000000 -0.417323 0.908750 0.003900
-7.59706020 -7.16029501 -0.46144801 339.000000 -0.417323 0.908750 0.003900
-7.59679413 -7.16004801 -0.45822099 331.000000 -0.417323 0.908750 0.003900
-7.59753323 -7.16073704 -0.45504400 343.000000 -0.417323 0.908750 0.003900
-7.59783506 -7.16102982 -0.45185101 329.000000 -0.417323 0.908750 0.003900
-7.59825897 -7.16142511 -0.44866699 331.000000 -0.417323 0.908750 0.003900
-7.59702492 -7.16026020 -0.44537801 325.000000 -0.417323 0.908750 0.003900
-7.59546804 -7.15879393 -0.44208300 303.000000 -0.417323 0.908750 0.003900
-7.59604406 -7.15933704 -0.43890700 307.000000 -0.417323 0.908750 0.003900
-7.59746695 -7.16067410 -0.43577400 311.000000 -0.417323 0.908750 0.003900
-7.59814692 -7.16132593 -0.43259701 315.000000 -0.417323 0.908750 0.003900
-7.59610891 -7.15940523 -0.42927599 301.000000 -0.417323 0.908750 0.003900
-7.59588194 -7.15919113 -0.42605799 307.000000 -0.417323 0.908750 0.003900
-7.59603214 -7.15932083 -0.42284700 335.000000 -0.417323 0.908750 0.003900
-7.59622288 -7.15951204 -0.41965500 321.000000 -0.417323 0.908750 0.003900
-7.59689999 -7.16015005 -0.41647899 319.000000 -0.417323 0.908750 0.003900
-7.59592485 -7.15922308 -0.41321799 321.000000 -0.417323 0.908750 0.003900
-7.59681511 -7.16005898 -0.41004899 309.000000 -0.417323 0.908750 0.003900
-7.59753990 -7.16074991 -0.40688199 319.000000 -0.417323 0.908750 0.003900
-7.59699011 -7.16023397 -0.40363699 305.000000 -0.417323 0.908750 0.003900
-7.59776306 -7.16096306 -0.40046999 289.000000 -0.417323 0.908750 0.003900
-7.59753513 -7.16074800 -0.39724201 291.000000 -0.417323 0.908750 0.003900
-7.59704018 -7.16027594 -0.39400700 293.000000 -0.417323 0.908750 0.003900
-7.59743404 -7.16064501 -0.39082301 297.000000 -0.417323 0.908750 0.003900
-7.59688520 -7.16012907 -0.38757801 293.000000 -0.417323 0.908750 0.003900
-7.59627914 -7.15955400 -0.38434401 265.000000 -0.417323 0.908750 0.003900
-7.59661913 -7.15988016 -0.38115001 273.000000 -0.417323 0.908750 0.003900
-7.59750080 -7.16070986 -0.37798199 281.000000 -0.417323 0.908750 0.003900
-7.59859514 -7.16173983 -0.37482199 297.000000 -0.417323 0.908750 0.003900
-7.59782600 -7.16101885 -0.37157899 279.000000 -0.417323 0.908750 0.003900
-7.59667778 -7.15993786 -0.36831000 287.000000 -0.417323 0.908750 0.003900
-7.59771585 -7.16090918 -0.36515000 317.000000 -0.417323 0.908750 0.003900
-7.59806299 -7.16124010 -0.36195600 309.000000 -0.417323 0.908750 0.003900
-7.59728718 -7.16051292 -0.35871401 313.000000 -0.417323 0.908750 0.003900
-7.59741211 -7.16062498 -0.35551199 317.000000 -0.417323 0.908750 0.003900
-7.59808207 -7.16125679 -0.35232601 327.000000 -0.417323 0.908750 0.003900
-7.59836578 -7.16152287 -0.34913301 319.000000 -0.417323 0.908750 0.003900
-7.59822512 -7.16139221 -0.34591499 289.000000 -0.417323 0.908750 0.003900
-7.59803104 -7.16121578 -0.34269601 283.000000 -0.417323 0.908750 0.003900
-7.59736204 -7.16057682 -0.33946300 287.000000 -0.417323 0.908750 0.003900
-7.59722090 -7.16044712 -0.33624399 301.000000 -0.417323 0.908750 0.003900
-7.59771776 -7.16091108 -0.33305901 295.000000 -0.417323 0.908750 0.003900
-7.59875011 -7.16189098 -0.32988900 309.000000 -0.417323 0.908750 0.003900
-7.59769678 -7.16090012 -0.32663900 287.000000 -0.417323 0.908750 0.003900
-7.59696579 -7.16021013 -0.32339600 267.000000 -0.417323 0.908750 0.003900
-7.59841490 -7.16158104 -0.32025200 273.000000 -0.417323 0.908750 0.003900
-7.59785604 -7.16104412 -0.31701699 261.000000 -0.417323 0.908750 0.003900
-7.60525513 -7.16362810 -0.61298698 283.000000 -0.417323 0.908750 0.003900
-7.60538912 -7.16374588 -0.60977501 301.000000 -0.417323 0.908750 0.003900
-7.60562611 -7.16397381 -0.60657299 321.000000 -0.417323 0.908750 0.003900
-7.60564995 -7.16400290 -0.60335302 319.000000 -0.417323 0.908750 0.003900
-7.60440111 -7.16282701 -0.60004401 283.000000 -0.417323 0.908750 0.003900
-7.60597420 -7.16429806 -0.59693998 277.000000 -0.417323 0.908750 0.003900
-7.60594416 -7.16426992 -0.59372002 299.000000 -0.417323 0.908750 0.003900
-7.60521984 -7.16358614 -0.59044701 309.000000 -0.417323 0.908750 0.003900
-7.60620403 -7.16451311 -0.58730698 313.000000 -0.417323 0.908750 0.003900
-7.60547495 -7.16383791 -0.58403403 321.000000 -0.417323 0.908750 0.003900
-7.60421705 -7.16265392 -0.58071601 315.000000 -0.417323 0.908750 0.003900
-7.60439110 -7.16281796 -0.57751399 309.000000 -0.417323 0.908750 0.003900
-7.60494900 -7.16333389 -0.57433897 315.000000 -0.417323 0.908750 0.003900
-7.60485601 -7.16325521 -0.57110900 313.000000 -0.417323 0.908750 0.003900
-7.60509300 -7.16346884 -0.56791699 317.000000 -0.417323 0.908750 0.003900
-7.60607004 -7.16439009 -0.56476802 319.000000 -0.417323 0.908750 0.003900
-7.60655689 -7.16484785 -0.56158298 323.000000 -0.417323 0.908750 0.003900
-7.60662889 -7.16491604 -0.55837297 309.000000 -0.417323 0.908750 0.003900
-7.60626793 -7.16457891 -0.55512601 313.000000 -0.417323 0.908750 0.003900
-7.60516882 -7.16354990 -0.55183601 311.000000 -0.417323 0.908750 0.003900
-7.60497284 -7.16336107 -0.54859799 315.000000 -0.417323 0.908750 0.003900
-7.60423422 -7.16266489 -0.54533499 309.000000 -0.417323 0.908750 0.003900
-7.60429811 -7.16272593 -0.54212397 313.000000 -0.417323 0.908750 0.003900
-7.60414982 -7.16258907 -0.53889501 335.000000 -0.417323 0.908750 0.003900
-7.60495996 -7.16334915 -0.53573799 341.000000 -0.417323 0.908750 0.003900
-7.60566092 -7.16400623 -0.53256100 347.000000 -0.417323 0.908750 0.003900
-7.60551310 -7.16386890 -0.52934200 349.000000 -0.417323 0.908750 0.003900
-7.60700798 -7.16527700 -0.52621800 343.000000 -0.417323 0.908750 0.003900
-7.60663986 -7.16493511 -0.52298200 357.000000 -0.417323 0.908750 0.003900
-7.60590219 -7.16423893 -0.51971799 351.000000 -0.417323 0.908750 0.003900
-7.60569811 -7.16404200 -0.51648998 321.000000 -0.417323 0.908750 0.003900
-7.60576105 -7.16410398 -0.51327002 345.000000 -0.417323 0.908750 0.003900
-7.60645390 -7.16475391 -0.51010299 363.000000 -0.417323 0.908750 0.003900
-7.60640001 -7.16470814 -0.50688398 351.000000 -0.417323 0.908750 0.003900
-7.60598421 -7.16431284 -0.50363702 363.000000 -0.417323 0.908750 0.003900
-7.60534811 -7.16371298 -0.50038302 343.000000 -0.417323 0.908750 0.003900
-7.60492420 -7.16331196 -0.49713701 329.000000 -0.417323 0.908750 0.003900
-7.60609722 -7.16441917 -0.49399599 349.000000 -0.417323 0.908750 0.003900
-7.60678196 -7.16506386 -0.49082899 365.000000 -0.417323 0.908750 0.003900
-7.60535002 -7.16371298 -0.48752299 335.000000 -0.417323 0.908750 0.003900
-7.60471392 -7.16311407 -0.48426899 333.000000 -0.417323 0.908750 0.003900
-7.60587978 -7.16421509 -0.48112801 337.000000 -0.417323 0.908750 0.003900
-7.60630512 -7.16460800 -0.47793400 329.000000 -0.417323 0.908750 0.003900
-7.60560703 -7.16395807 -0.47468001 323.000000 -0.417323 0.908750 0.003900
-7.60603189 -7.16435194 -0.47148600 341.000000 -0.417323 0.908750 0.003900
-7.60629177 -7.16459894 -0.46828401 331.000000 -0.417323 0.908750 0.003900
-7.60580587 -7.16414785 -0.46504799 327.000000 -0.417323 0.908750 0.003900
-7.60564089 -7.16398382 -0.46182001 345.000000 -0.417323 0.908750 0.003900
-7.60584688 -7.16418695 -0.45861799 345.000000 -0.417323 0.908750 0.003900
-7.60642195 -7.16472912 -0.45543200 349.000000 -0.417323 0.908750 0.003900
-7.60684776 -7.16512394 -0.45224801 345.000000 -0.417323 0.908750 0.003900
-7.60635424 -7.16466618 -0.44900301 339.000000 -0.417323 0.908750 0.003900
-7.60650301 -7.16479588 -0.44580099 317.000000 -0.417323 0.908750 0.003900
-7.60659218 -7.16489077 -0.44259000 305.000000 -0.417323 0.908750 0.003900
-7.60622215 -7.16453409 -0.43935400 307.000000 -0.417323 0.908750 0.003900
-7.60556221 -7.16391516 -0.43610001 335.000000 -0.417323 0.908750 0.003900
-7.60545206 -7.16380882 -0.43288100 335.000000 -0.417323 0.908750 0.003900
-7.60548592 -7.16384602 -0.42967001 305.000000 -0.417323 0.908750 0.003900
-7.60627317 -7.16458607 -0.42650300 325.000000 -0.417323 0.908750 0.003900
-7.60647011 -7.16476917 -0.42329100 317.000000 -0.417323 0.908750 0.003900
-7.60597706 -7.16431189 -0.42005500 327.000000 -0.417323 0.908750 0.003900
-7.60622787 -7.16453791 -0.41685301 333.000000 -0.417323 0.908750 0.003900
-7.60615778 -7.16447783 -0.41363400 293.000000 -0.417323 0.908750 0.003900
-7.60710192 -7.16535902 -0.41047499 285.000000 -0.417323 0.908750 0.003900
-7.60665607 -7.16493893 -0.40723899 297.000000 -0.417323 0.908750 0.003900
-7.60583115 -7.16417408 -0.40397599 307.000000 -0.417323 0.908750 0.003900
-7.60581589 -7.16415787 -0.40076599 297.000000 -0.417323 0.908750 0.003900
-7.60499001 -7.16337776 -0.39751399 319.000000 -0.417323 0.908750 0.003900
-7.60577106 -7.16411304 -0.39433700 313.000000 -0.417323 0.908750 0.003900
-7.60553598 -7.16389179 -0.39110899 315.000000 -0.417323 0.908750 0.003900
-7.60572481 -7.16406918 -0.38790700 311.000000 -0.417323 0.908750 0.003900
-7.60788202 -7.16610622 -0.38479701 291.000000 -0.417323 0.908750 0.003900
-7.60850286 -7.16668606 -0.38162100 307.000000 -0.417323 0.908750 0.003900
-7.60693216 -7.16520786 -0.37832499 297.000000 -0.417323 0.908750 0.003900
-7.60679913 -7.16508293 -0.37510699 277.000000 -0.417323 0.908750 0.003900
-7.60719299 -7.16545200 -0.37191299 291.000000 -0.417323 0.908750 0.003900
-7.60610914 -7.16443491 -0.36865300 299.000000 -0.417323 0.908750 0.003900
-7.60714722 -7.16540718 -0.36548299 313.000000 -0.417323 0.908750 0.003900
-7.60796690 -7.16618681 -0.36231500 311.000000 -0.417323 0.908750 0.003900
-7.60724401 -7.16550398 -0.35906199 313.000000 -0.417323 0.908750 0.003900
-7.60652113 -7.16482115 -0.35581899 307.000000 -0.417323 0.908750 0.003900
-7.60606623 -7.16439486 -0.35258299 315.000000 -0.417323 0.908750 0.003900
-7.60634995 -7.16466093 -0.34939000 313.000000 -0.417323 0.908750 0.003900
-7.60775805 -7.16598606 -0.34623700 307.000000 -0.417323 0.908750 0.003900
-7.60826206 -7.16645718 -0.34304199 297.000000 -0.417323 0.908750 0.003900
-7.60647106 -7.16477394 -0.33975899 301.000000 -0.417323 0.908750 0.003900
-7.60611677 -7.16444397 -0.33653200 309.000000 -0.417323 0.908750 0.003900
-7.60677099 -7.16506290 -0.33334601 303.000000 -0.417323 0.908750 0.003900
-7.60743189 -7.16567612 -0.33015999 285.000000 -0.417323 0.908750 0.003900
-7.60808706 -7.16629505 -0.32697299 305.000000 -0.417323 0.908750 0.003900
-7.60745811 -7.16570091 -0.32373899 303.000000 -0.417323 0.908750 0.003900
-7.60774899 -7.16597414 -0.32053599 273.000000 -0.417323 0.908750 0.003900
-7.60887623 -7.16704321 -0.31736600 255.000000 -0.417323 0.908750 0.003900
-7.61371708 -7.16754293 -0.61348802 291.000000 -0.417323 0.908750 0.003900
-7.61378813 -7.16761017 -0.61027700 313.000000 -0.417323 0.908750 0.003900
-7.61301899 -7.16688919 -0.60699397 313.000000 -0.417323 0.908750 0.003900
-7.61266613 -7.16655922 -0.60374701 307.000000 -0.417323 0.908750 0.003900
-7.61364985 -7.16748619 -0.60059798 293.000000 -0.417323 0.908750 0.003900
-7.61341476 -7.16726494 -0.59736001 305.000000 -0.417323 0.908750 0.003900
-7.61274004 -7.16663408 -0.59408599 313.000000 -0.417323 0.908750 0.003900
-7.61244917 -7.16635513 -0.59083903 313.000000 -0.417323 0.908750 0.003900
-7.61306190 -7.16692781 -0.58767301 309.000000 -0.417323 0.908750 0.003900
-7.61382008 -7.16764498 -0.58450598 321.000000 -0.417323 0.908750 0.003900
-7.61389780 -7.16771793 -0.58128500 325.000000 -0.417323 0.908750 0.003900
-7.61455297 -7.16833782 -0.57811898 319.000000 -0.417323 0.908750 0.003900
-7.61367178 -7.16750002 -0.57482702 307.000000 -0.417323 0.908750 0.003900
-7.61353111 -7.16736889 -0.57159799 313.000000 -0.417323 0.908750 0.003900
-7.61455488 -7.16834116 -0.56845897 323.000000 -0.417323 0.908750 0.003900
-7.61515379 -7.16890192 -0.56528300 337.000000 -0.417323 0.908750 0.003900
-7.61453295 -7.16831493 -0.56200898 317.000000 -0.417323 0.908750 0.003900
-7.61290503 -7.16677904 -0.55867398 313.000000 -0.417323 0.908750 0.003900
-7.61302519 -7.16689920 -0.55546302 309.000000 -0.417323 0.908750 0.003900
-7.61383581 -7.16765881 -0.55230498 309.000000 -0.417323 0.908750 0.003900
-7.61331701 -7.16716719 -0.54904997 307.000000 -0.417323 0.908750 0.003900
-7.61290216 -7.16678715 -0.54579401 325.000000 -0.417323 0.908750 0.003900
-7.61275387 -7.16664886 -0.54256499 309.000000 -0.417323 0.908750 0.003900
-7.61244822 -7.16635799 -0.53932798 307.000000 -0.417323 0.908750 0.003900
-7.61315584 -7.16702080 -0.53616101 317.000000 -0.417323 0.908750 0.003900
-7.61421919 -7.16802502 -0.53301102 333.000000 -0.417323 0.908750 0.003900
-7.61354208 -7.16737890 -0.52974701 327.000000 -0.417323 0.908750 0.003900
-7.61323023 -7.16709518 -0.52651000 319.000000 -0.417323 0.908750 0.003900
-7.61456823 -7.16834879 -0.52337700 333.000000 -0.417323 0.908750 0.003900
-7.61526918 -7.16900682 -0.52020103 337.000000 -0.417323 0.908750 0.003900
-7.61362505 -7.16745806 -0.51687598 313.000000 -0.417323 0.908750 0.003900
-7.61416101 -7.16796780 -0.51369101 337.000000 -0.417323 0.908750 0.003900
-7.61475086 -7.16852283 -0.51051497 349.000000 -0.417323 0.908750 0.003900
-7.61342287 -7.16726923 -0.50720799 351.000000 -0.417323 0.908750 0.003900
-7.61327410 -7.16713095 -0.50397903 347.000000 -0.417323 0.908750 0.003900
-7.61369896 -7.16752481 -0.50078499 331.000000 -0.417323 0.908750 0.003900
-7.61359215 -7.16743422 -0.49756601 341.000000 -0.417323 0.908750 0.003900
-7.61300898 -7.16687822 -0.49431100 359.000000 -0.417323 0.908750 0.003900
-7.61364794 -7.16748524 -0.49113500 363.000000 -0.417323 0.908750 0.003900
-7.61423111 -7.16803408 -0.48795000 351.000000 -0.417323 0.908750 0.003900
-7.61321688 -7.16707420 -0.48466900 349.000000 -0.417323 0.908750 0.003900
-7.61241579 -7.16632795 -0.48140699 329.000000 -0.417323 0.908750 0.003900
-7.61342287 -7.16727400 -0.47824699 325.000000 -0.417323 0.908750 0.003900
-7.61311007 -7.16697502 -0.47501001 321.000000 -0.417323 0.908750 0.003900
-7.61304808 -7.16692209 -0.47178999 335.000000 -0.417323 0.908750 0.003900
-7.61421299 -7.16802311 -0.46863899 333.000000 -0.417323 0.908750 0.003900
-7.61448002 -7.16826200 -0.46543700 333.000000 -0.417323 0.908750 0.003900
-7.61319113 -7.16705322 -0.46214899 331.000000 -0.417323 0.908750 0.003900
-7.61265707 -7.16655016 -0.45889401 329.000000 -0.417323 0.908750 0.003900
-7.61371279 -7.16754818 -0.45574400 325.000000 -0.417323 0.908750 0.003900
-7.61280107 -7.16668510 -0.45247200 317.000000 -0.417323 0.908750 0.003900
-7.61284924 -7.16673279 -0.44926199 311.000000 -0.417323 0.908750 0.003900
-7.61448622 -7.16826916 -0.44613600 315.000000 -0.417323 0.908750 0.003900
-7.61394405 -7.16775894 -0.44289100 325.000000 -0.417323 0.908750 0.003900
-7.61265516 -7.16655111 -0.43960300 331.000000 -0.417323 0.908750 0.003900
-7.61343479 -7.16728497 -0.43642601 327.000000 -0.417323 0.908750 0.003900
-7.61427689 -7.16807079 -0.43325800 331.000000 -0.417323 0.908750 0.003900
-7.61442709 -7.16821623 -0.43004701 323.000000 -0.417323 0.908750 0.003900
-7.61478186 -7.16855192 -0.42685300 329.000000 -0.417323 0.908750 0.003900
-7.61466503 -7.16843987 -0.42362401 333.000000 -0.417323 0.908750 0.003900
-7.61454010 -7.16832209 -0.42040500 329.000000 -0.417323 0.908750 0.003900
-7.61505318 -7.16881418 -0.41722000 309.000000 -0.417323 0.908750 0.003900
-7.61492777 -7.16869497 -0.41399100 311.000000 -0.417323 0.908750 0.003900
-7.61448908 -7.16828203 -0.41075599 305.000000 -0.417323 0.908750 0.003900
-7.61420488 -7.16800785 -0.40751800 299.000000 -0.417323 0.908750 0.003900
-7.61508799 -7.16883898 -0.40435001 317.000000 -0.417323 0.908750 0.003900
-7.61592293 -7.16963196 -0.40118200 327.000000 -0.417323 0.908750 0.003900
-7.61441278 -7.16820478 -0.39788601 317.000000 -0.417323 0.908750 0.003900
-7.61385489 -7.16768217 -0.39464101 309.000000 -0.417323 0.908750 0.003900
-7.61404514 -7.16785908 -0.39143899 313.000000 -0.417323 0.908750 0.003900
-7.61439991 -7.16819620 -0.38823599 307.000000 -0.417323 0.908750 0.003900
-7.61469221 -7.16846800 -0.38503301 317.000000 -0.417323 0.908750 0.003900
-7.61499214 -7.16874695 -0.38183001 305.000000 -0.417323 0.908750 0.003900
-7.61533785 -7.16907787 -0.37863699 297.000000 -0.417323 0.908750 0.003900
-7.61365700 -7.16749716 -0.37534201 293.000000 -0.417323 0.908750 0.003900
-7.61373615 -7.16757202 -0.37213200 291.000000 -0.417323 0.908750 0.003900
-7.61472797 -7.16850519 -0.36896199 295.000000 -0.417323 0.908750 0.003900
-7.61464882 -7.16842413 -0.36574301 315.000000 -0.417323 0.908750 0.003900
-7.61483002 -7.16859388 -0.36253101 315.000000 -0.417323 0.908750 0.003900
-7.61443186 -7.16822577 -0.35930499 311.000000 -0.417323 0.908750 0.003900
-7.61481810 -7.16858912 -0.35610101 305.000000 -0.417323 0.908750 0.003900
-7.61565208 -7.16936779 -0.35292301 309.000000 -0.417323 0.908750 0.003900
-7.61566877 -7.16939116 -0.34971300 323.000000 -0.417323 0.908750 0.003900
-7.61425400 -7.16805315 -0.34643599 305.000000 -0.417323 0.908750 0.003900
-7.61448383 -7.16827488 -0.34322399 303.000000 -0.417323 0.908750 0.003900
-7.61589193 -7.16960001 -0.34007099 301.000000 -0.417323 0.908750 0.003900
-7.61601782 -7.16971111 -0.33685899 301.000000 -0.417323 0.908750 0.003900
-7.61587811 -7.16957998 -0.33364099 307.000000 -0.417323 0.908750 0.003900
-7.61610699 -7.16980219 -0.33043799 301.000000 -0.417323 0.908750 0.003900
-7.61617899 -7.16986990 -0.32722801 293.000000 -0.417323 0.908750 0.003900
-7.61496687 -7.16872501 -0.32395899 289.000000 -0.417323 0.908750 0.003900
-7.61508703 -7.16884422 -0.32074800 277.000000 -0.417323 0.908750 0.003900
-7.61595297 -7.16966200 -0.31757000 297.000000 -0.417323 0.908750 0.003900
-7.62103987 -7.17040205 -0.61390901 295.000000 -0.417323 0.908750 0.003900
-7.62192202 -7.17123318 -0.61075097 313.000000 -0.417323 0.908750 0.003900
-7.62360477 -7.17280579 -0.60765499 315.000000 -0.417323 0.908750 0.003900
-7.62256098 -7.17183495 -0.60435402 323.000000 -0.417323 0.908750 0.003900
-7.62046099 -7.16984892 -0.60096401 305.000000 -0.417323 0.908750 0.003900
-7.61973906 -7.16917992 -0.59769100 305.000000 -0.417323 0.908750 0.003900
-7.62061119 -7.16999102 -0.59453303 307.000000 -0.417323 0.908750 0.003900
-7.62159586 -7.17091799 -0.59138298 325.000000 -0.417323 0.908750 0.003900
-7.62172413 -7.17104387 -0.58817202 313.000000 -0.417323 0.908750 0.003900
-7.62083578 -7.17021418 -0.58487999 323.000000 -0.417323 0.908750 0.003900
-7.62054396 -7.16993380 -0.58163297 319.000000 -0.417323 0.908750 0.003900
-7.62141085 -7.17075300 -0.57847500 319.000000 -0.417323 0.908750 0.003900
-7.62201786 -7.17131996 -0.57529902 319.000000 -0.417323 0.908750 0.003900
-7.62150621 -7.17083502 -0.57203400 321.000000 -0.417323 0.908750 0.003900
-7.62114620 -7.17049885 -0.56878698 315.000000 -0.417323 0.908750 0.003900
-7.62179995 -7.17111778 -0.56561100 325.000000 -0.417323 0.908750 0.003900
-7.62160301 -7.17092896 -0.56237298 321.000000 -0.417323 0.908750 0.003900
-7.62172318 -7.17104816 -0.55916101 319.000000 -0.417323 0.908750 0.003900
-7.62238407 -7.17165995 -0.55598497 325.000000 -0.417323 0.908750 0.003900
-7.62202406 -7.17132378 -0.55273801 319.000000 -0.417323 0.908750 0.003900
-7.62214279 -7.17144394 -0.54952699 313.000000 -0.417323 0.908750 0.003900
-7.62241888 -7.17170382 -0.54632401 323.000000 -0.417323 0.908750 0.003900
-7.62110615 -7.17046213 -0.54300702 319.000000 -0.417323 0.908750 0.003900
-7.62149191 -7.17082405 -0.53981298 311.000000 -0.417323 0.908750 0.003900
-7.62165785 -7.17098093 -0.53660101 307.000000 -0.417323 0.908750 0.003900
-7.62166595 -7.17098522 -0.53338099 319.000000 -0.417323 0.908750 0.003900
-7.62332821 -7.17255402 -0.53027600 317.000000 -0.417323 0.908750 0.003900
-7.62338305 -7.17260790 -0.52705503 341.000000 -0.417323 0.908750 0.003900
-7.62350178 -7.17271423 -0.52384400 335.000000 -0.417323 0.908750 0.003900
-7.62308502 -7.17231894 -0.52058798 325.000000 -0.417323 0.908750 0.003900
-7.62192202 -7.17122602 -0.51728898 331.000000 -0.417323 0.908750 0.003900
-7.62192392 -7.17123699 -0.51406801 351.000000 -0.417323 0.908750 0.003900
-7.62268019 -7.17193794 -0.51090097 341.000000 -0.417323 0.908750 0.003900
-7.62320805 -7.17244196 -0.50770599 333.000000 -0.417323 0.908750 0.003900
-7.62305880 -7.17230511 -0.50447798 333.000000 -0.417323 0.908750 0.003900
-7.62279177 -7.17204380 -0.50124002 337.000000 -0.417323 0.908750 0.003900
-7.62332821 -7.17255402 -0.49805501 345.000000 -0.417323 0.908750 0.003900
-7.62306881 -7.17230082 -0.49481699 351.000000 -0.417323 0.908750 0.003900
-7.62263823 -7.17190695 -0.49157101 347.000000 -0.417323 0.908750 0.003900
-7.62417984 -7.17335415 -0.48844701 357.000000 -0.417323 0.908750 0.003900
-7.62540817 -7.17450523 -0.48529500 351.000000 -0.417323 0.908750 0.003900
-7.62374783 -7.17294312 -0.48197100 333.000000 -0.417323 0.908750 0.003900
-7.62189293 -7.17119503 -0.47863799 313.000000 -0.417323 0.908750 0.003900
-7.62135220 -7.17069912 -0.47538301 327.000000 -0.417323 0.908750 0.003900
-7.62199020 -7.17129183 -0.47220701 319.000000 -0.417323 0.908750 0.003900
-7.62220192 -7.17148685 -0.46899500 327.000000 -0.417323 0.908750 0.003900
-7.62287998 -7.17212582 -0.46581799 319.000000 -0.417323 0.908750 0.003900
-7.62318897 -7.17242479 -0.46261501 323.000000 -0.417323 0.908750 0.003900
-7.62170219 -7.17101717 -0.45930901 333.000000 -0.417323 0.908750 0.003900
-7.62153006 -7.17085981 -0.45608100 335.000000 -0.417323 0.908750 0.003900
-7.62141991 -7.17075396 -0.45285201 321.000000 -0.417323 0.908750 0.003900
-7.62140512 -7.17073822 -0.44963199 335.000000 -0.417323 0.908750 0.003900
-7.62145281 -7.17078590 -0.44642100 335.000000 -0.417323 0.908750 0.003900
-7.62138510 -7.17072582 -0.44319201 317.000000 -0.417323 0.908750 0.003900
-7.62233591 -7.17161417 -0.44003299 325.000000 -0.417323 0.908750 0.003900
-7.62334299 -7.17256021 -0.43686301 331.000000 -0.417323 0.908750 0.003900
-7.62219715 -7.17149305 -0.43358400 325.000000 -0.417323 0.908750 0.003900
-7.62159920 -7.17092514 -0.43032899 317.000000 -0.417323 0.908750 0.003900
-7.62260723 -7.17187119 -0.42717001 315.000000 -0.417323 0.908750 0.003900
-7.62168121 -7.17101002 -0.42389899 317.000000 -0.417323 0.908750 0.003900
-7.62076092 -7.17013979 -0.42062700 323.000000 -0.417323 0.908750 0.003900
-7.62143898 -7.17077780 -0.41745099 313.000000 -0.417323 0.908750 0.003900
-7.62270498 -7.17196083 -0.41429901 303.000000 -0.417323 0.908750 0.003900
-7.62348509 -7.17269611 -0.41112101 313.000000 -0.417323 0.908750 0.003900
-7.62138605 -7.17072392 -0.40779099 285.000000 -0.417323 0.908750 0.003900
-7.62072611 -7.17010498 -0.40453699 301.000000 -0.417323 0.908750 0.003900
-7.62337017 -7.17259121 -0.40145200 311.000000 -0.417323 0.908750 0.003900
-7.62447119 -7.17362690 -0.39829201 305.000000 -0.417323 0.908750 0.003900
-7.62434578 -7.17350817 -0.39506301 299.000000 -0.417323 0.908750 0.003900
-7.62415981 -7.17333889 -0.39183399 293.000000 -0.417323 0.908750 0.003900
-7.62323189 -7.17246294 -0.38857299 289.000000 -0.417323 0.908750 0.003900
-7.62235212 -7.17163992 -0.38531101 299.000000 -0.417323 0.908750 0.003900
-7.62281609 -7.17206621 -0.38211700 297.000000 -0.417323 0.908750 0.003900
-7.62476110 -7.17390394 -0.37898901 287.000000 -0.417323 0.908750 0.003900
-7.62531900 -7.17441988 -0.37579301 269.000000 -0.417323 0.908750 0.003900
-7.62508297 -7.17419910 -0.37256500 275.000000 -0.417323 0.908750 0.003900
-7.62420416 -7.17337513 -0.36930400 299.000000 -0.417323 0.908750 0.003900
-7.62278223 -7.17204380 -0.36602700 283.000000 -0.417323 0.908750 0.003900
-7.62264919 -7.17191982 -0.36279801 291.000000 -0.417323 0.908750 0.003900
-7.62294102 -7.17219305 -0.35959500 301.000000 -0.417323 0.908750 0.003900
-7.62386894 -7.17306089 -0.35641599 317.000000 -0.417323 0.908750 0.003900
-7.62479687 -7.17392921 -0.35323799 325.000000 -0.417323 0.908750 0.003900
-7.62471294 -7.17385721 -0.35001799 321.000000 -0.417323 0.908750 0.003900
-7.62388802 -7.17307806 -0.34676600 299.000000 -0.417323 0.908750 0.003900
-7.62284279 -7.17209291 -0.34350601 303.000000 -0.417323 0.908750 0.003900
-7.62392092 -7.17311001 -0.34033599 301.000000 -0.417323 0.908750 0.003900
-7.62474680 -7.17388201 -0.33714801 307.000000 -0.417323 0.908750 0.003900
-7.62406397 -7.17324495 -0.33390400 291.000000 -0.417323 0.908750 0.003900
-7.62419224 -7.17337084 -0.33069301 313.000000 -0.417323 0.908750 0.003900
-7.62331104 -7.17253304 -0.32743099 295.000000 -0.417323 0.908750 0.003900
-7.62374401 -7.17294693 -0.32423699 289.000000 -0.417323 0.908750 0.003900
-7.62519979 -7.17431021 -0.32107300 297.000000 -0.417323 0.908750 0.003900
-7.62489510 -7.17403221 -0.31784600 303.000000 -0.417323 0.908750 0.003900
