761
-7.322915 -7.030803 -0.477150 1239 -0.232844 0.972510 0.003004
-7.323225 -7.031101 -0.474047 1249 -0.232844 0.972510 0.003004
-7.323481 -7.031355 -0.470935 1249 -0.232844 0.972510 0.003004
-7.323054 -7.030942 -0.467789 1245 -0.232844 0.972510 0.003004
-7.322628 -7.030530 -0.464643 1249 -0.232844 0.972510 0.003004
-7.322827 -7.030726 -0.461531 1253 -0.232844 0.972510 0.003004
-7.322290 -7.030211 -0.458376 1247 -0.232844 0.972510 0.003004
-7.322181 -7.030106 -0.455237 1239 -0.232844 0.972510 0.003004
-7.322704 -7.030602 -0.452152 1251 -0.232844 0.972510 0.003004
-7.322802 -7.030703 -0.449031 1251 -0.232844 0.972510 0.003004
-7.323316 -7.031193 -0.445936 1253 -0.232844 0.972510 0.003004
-7.323730 -7.031588 -0.442842 1253 -0.232844 0.972510 0.003004
-7.323240 -7.031125 -0.439686 1243 -0.232844 0.972510 0.003004
-7.322965 -7.030859 -0.436549 1247 -0.232844 0.972510 0.003004
-7.323006 -7.030902 -0.433428 1247 -0.232844 0.972510 0.003004
-7.322620 -7.030534 -0.430282 1251 -0.232844 0.972510 0.003004
-7.322343 -7.030269 -0.427144 1243 -0.232844 0.972510 0.003004
-7.322962 -7.030855 -0.424058 1245 -0.232844 0.972510 0.003004
-7.323533 -7.031403 -0.420963 1253 -0.232844 0.972510 0.003004
-7.323566 -7.031439 -0.417843 1249 -0.232844 0.972510 0.003004
-7.323600 -7.031476 -0.414722 1253 -0.232844 0.972510 0.003004
-7.323158 -7.031050 -0.411576 1253 -0.232844 0.972510 0.003004
-7.322723 -7.030631 -0.408430 1241 -0.232844 0.972510 0.003004
-7.322969 -7.030865 -0.405318 1245 -0.232844 0.972510 0.003004
-7.323685 -7.031555 -0.402241 1253 -0.232844 0.972510 0.003004
-7.323662 -7.031533 -0.399111 1243 -0.232844 0.972510 0.003004
-7.323537 -7.031415 -0.395982 1249 -0.232844 0.972510 0.003004
-7.323356 -7.031240 -0.392854 1253 -0.232844 0.972510 0.003004
-7.323120 -7.031020 -0.389716 1243 -0.232844 0.972510 0.003004
-7.323049 -7.030946 -0.386597 1243 -0.232844 0.972510 0.003004
-7.323028 -7.030924 -0.383467 1241 -0.232844 0.972510 0.003004
-7.323314 -7.031204 -0.380364 1249 -0.232844 0.972510 0.003004
-7.323552 -7.031432 -0.377252 1247 -0.232844 0.972510 0.003004
-7.323159 -7.031058 -0.374115 1247 -0.232844 0.972510 0.003004
-7.322494 -7.030415 -0.370962 1235 -0.232844 0.972510 0.003004
-7.322996 -7.030906 -0.367867 1241 -0.232844 0.972510 0.003004
-7.323503 -7.031390 -0.364762 1241 -0.232844 0.972510 0.003004
-7.324105 -7.031963 -0.361676 1253 -0.232844 0.972510 0.003004
-7.324393 -7.032243 -0.358563 1259 -0.232844 0.972510 0.003004
-7.324260 -7.032119 -0.355434 1255 -0.232844 0.972510 0.003004
-7.324063 -7.031931 -0.352306 1257 -0.232844 0.972510 0.003004
-7.324040 -7.031909 -0.349186 1257 -0.232844 0.972510 0.003004
-7.323575 -7.031464 -0.346041 1253 -0.232844 0.972510 0.003004
-7.327947 -7.031301 -0.690089 1255 -0.232844 0.972510 0.003004
-7.327995 -7.031350 -0.686968 1255 -0.232844 0.972510 0.003004
-7.328084 -7.031444 -0.683837 1249 -0.232844 0.972510 0.003004
-7.328078 -7.031435 -0.680707 1257 -0.232844 0.972510 0.003004
-7.327850 -7.031221 -0.677550 1249 -0.232844 0.972510 0.003004
-7.327733 -7.031110 -0.674411 1249 -0.232844 0.972510 0.003004
-7.328302 -7.031644 -0.671335 1263 -0.232844 0.972510 0.003004
-7.328454 -7.031788 -0.668214 1247 -0.232844 0.972510 0.003004
-7.327641 -7.031012 -0.665011 1243 -0.232844 0.972510 0.003004
-7.327784 -7.031149 -0.661890 1245 -0.232844 0.972510 0.003004
-7.328823 -7.032153 -0.658850 1257 -0.232844 0.972510 0.003004
-7.328698 -7.032036 -0.655711 1249 -0.232844 0.972510 0.003004
-7.328271 -7.031622 -0.652535 1249 -0.232844 0.972510 0.003004
-7.327980 -7.031344 -0.649378 1249 -0.232844 0.972510 0.003004
-7.328022 -7.031387 -0.646257 1247 -0.232844 0.972510 0.003004
-7.328260 -7.031615 -0.643145 1255 -0.232844 0.972510 0.003004
-7.328768 -7.032099 -0.640060 1261 -0.232844 0.972510 0.003004
-7.329173 -7.032487 -0.636956 1261 -0.232844 0.972510 0.003004
-7.328999 -7.032317 -0.633818 1247 -0.232844 0.972510 0.003004
-7.327655 -7.031034 -0.630570 1241 -0.232844 0.972510 0.003004
-7.327632 -7.031013 -0.627440 1245 -0.232844 0.972510 0.003004
-7.328608 -7.031951 -0.624391 1249 -0.232844 0.972510 0.003004
-7.328965 -7.032288 -0.621288 1249 -0.232844 0.972510 0.003004
-7.328722 -7.032062 -0.618140 1253 -0.232844 0.972510 0.003004
-7.327852 -7.031227 -0.614938 1243 -0.232844 0.972510 0.003004
-7.327884 -7.031249 -0.611808 1241 -0.232844 0.972510 0.003004
-7.328432 -7.031778 -0.608722 1245 -0.232844 0.972510 0.003004
-7.328514 -7.031866 -0.605601 1249 -0.232844 0.972510 0.003004
-7.328325 -7.031684 -0.602453 1247 -0.232844 0.972510 0.003004
-7.328618 -7.031956 -0.599350 1245 -0.232844 0.972510 0.003004
-7.328953 -7.032287 -0.596247 1249 -0.232844 0.972510 0.003004
-7.328826 -7.032156 -0.593108 1241 -0.232844 0.972510 0.003004
-7.328526 -7.031871 -0.589951 1245 -0.232844 0.972510 0.003004
-7.328442 -7.031799 -0.586822 1249 -0.232844 0.972510 0.003004
-7.328617 -7.031962 -0.583700 1257 -0.232844 0.972510 0.003004
-7.328745 -7.032088 -0.580589 1247 -0.232844 0.972510 0.003004
-7.328762 -7.032098 -0.577459 1249 -0.232844 0.972510 0.003004
-7.328312 -7.031666 -0.574293 1247 -0.232844 0.972510 0.003004
-7.328645 -7.031983 -0.571190 1253 -0.232844 0.972510 0.003004
-7.328505 -7.031853 -0.568051 1249 -0.232844 0.972510 0.003004
-7.328308 -7.031665 -0.564912 1249 -0.232844 0.972510 0.003004
-7.328477 -7.031836 -0.561791 1247 -0.232844 0.972510 0.003004
-7.328129 -7.031499 -0.558634 1245 -0.232844 0.972510 0.003004
-7.328407 -7.031759 -0.555531 1251 -0.232844 0.972510 0.003004
-7.328947 -7.032282 -0.552446 1255 -0.232844 0.972510 0.003004
-7.328798 -7.032146 -0.549307 1247 -0.232844 0.972510 0.003004
-7.328498 -7.031847 -0.546150 1235 -0.232844 0.972510 0.003004
-7.328452 -7.031806 -0.543021 1251 -0.232844 0.972510 0.003004
-7.328043 -7.031421 -0.539864 1245 -0.232844 0.972510 0.003004
-7.328161 -7.031526 -0.536743 1247 -0.232844 0.972510 0.003004
-7.328384 -7.031741 -0.533641 1243 -0.232844 0.972510 0.003004
-7.328125 -7.031502 -0.530493 1245 -0.232844 0.972510 0.003004
-7.328451 -7.031814 -0.527390 1253 -0.232844 0.972510 0.003004
-7.328412 -7.031765 -0.524261 1247 -0.232844 0.972510 0.003004
-7.328406 -7.031770 -0.521131 1251 -0.232844 0.972510 0.003004
-7.329421 -7.032741 -0.518071 1251 -0.232844 0.972510 0.003004
-7.329430 -7.032744 -0.514951 1257 -0.232844 0.972510 0.003004
-7.328743 -7.032095 -0.511777 1255 -0.232844 0.972510 0.003004
-7.328641 -7.031996 -0.508638 1253 -0.232844 0.972510 0.003004
-7.328491 -7.031846 -0.505499 1239 -0.232844 0.972510 0.003004
-7.328438 -7.031799 -0.502370 1247 -0.232844 0.972510 0.003004
-7.328605 -7.031956 -0.499258 1241 -0.232844 0.972510 0.003004
-7.329019 -7.032364 -0.496164 1243 -0.232844 0.972510 0.003004
-7.329131 -7.032464 -0.493043 1241 -0.232844 0.972510 0.003004
-7.329077 -7.032417 -0.489913 1237 -0.232844 0.972510 0.003004
-7.329285 -7.032619 -0.486801 1239 -0.232844 0.972510 0.003004
-7.329546 -7.032866 -0.483689 1251 -0.232844 0.972510 0.003004
-7.328858 -7.032203 -0.480515 1251 -0.232844 0.972510 0.003004
-7.328757 -7.032104 -0.477386 1245 -0.232844 0.972510 0.003004
-7.329004 -7.032352 -0.474274 1247 -0.232844 0.972510 0.003004
-7.328379 -7.031740 -0.471110 1239 -0.232844 0.972510 0.003004
-7.328689 -7.032039 -0.468007 1245 -0.232844 0.972510 0.003004
-7.329000 -7.032338 -0.464894 1247 -0.232844 0.972510 0.003004
-7.328621 -7.031976 -0.461747 1243 -0.232844 0.972510 0.003004
-7.328512 -7.031871 -0.458618 1247 -0.232844 0.972510 0.003004
-7.328560 -7.031920 -0.455498 1253 -0.232844 0.972510 0.003004
-7.328491 -7.031860 -0.452368 1257 -0.232844 0.972510 0.003004
-7.328484 -7.031851 -0.449238 1251 -0.232844 0.972510 0.003004
-7.328897 -7.032245 -0.446144 1249 -0.232844 0.972510 0.003004
-7.328724 -7.032076 -0.443006 1247 -0.232844 0.972510 0.003004
-7.328560 -7.031927 -0.439877 1241 -0.232844 0.972510 0.003004
-7.328703 -7.032065 -0.436756 1243 -0.232844 0.972510 0.003004
-7.328697 -7.032056 -0.433636 1249 -0.232844 0.972510 0.003004
-7.328792 -7.032142 -0.430515 1243 -0.232844 0.972510 0.003004
-7.328723 -7.032083 -0.427385 1245 -0.232844 0.972510 0.003004
-7.328859 -7.032215 -0.424264 1235 -0.232844 0.972510 0.003004
-7.329477 -7.032801 -0.421178 1249 -0.232844 0.972510 0.003004
-7.329456 -7.032793 -0.418048 1257 -0.232844 0.972510 0.003004
-7.329243 -7.032578 -0.414920 1255 -0.232844 0.972510 0.003004
-7.329379 -7.032711 -0.411799 1251 -0.232844 0.972510 0.003004
-7.329143 -7.032490 -0.408661 1251 -0.232844 0.972510 0.003004
-7.329081 -7.032423 -0.405531 1241 -0.232844 0.972510 0.003004
-7.329113 -7.032459 -0.402411 1245 -0.232844 0.972510 0.003004
-7.328980 -7.032335 -0.399282 1243 -0.232844 0.972510 0.003004
-7.329378 -7.032717 -0.396178 1251 -0.232844 0.972510 0.003004
-7.329466 -7.032797 -0.393057 1245 -0.232844 0.972510 0.003004
-7.329817 -7.033142 -0.389954 1241 -0.232844 0.972510 0.003004
-7.329849 -7.033164 -0.386834 1251 -0.232844 0.972510 0.003004
-7.329826 -7.033142 -0.383704 1259 -0.232844 0.972510 0.003004
-7.329583 -7.032915 -0.380566 1255 -0.232844 0.972510 0.003004
-7.329401 -7.032740 -0.377438 1243 -0.232844 0.972510 0.003004
-7.329324 -7.032660 -0.374308 1235 -0.232844 0.972510 0.003004
-7.329349 -7.032690 -0.371188 1241 -0.232844 0.972510 0.003004
-7.329319 -7.032661 -0.368068 1249 -0.232844 0.972510 0.003004
-7.329186 -7.032538 -0.364929 1245 -0.232844 0.972510 0.003004
-7.329583 -7.032919 -0.361825 1253 -0.232844 0.972510 0.003004
-7.329868 -7.033185 -0.358723 1257 -0.232844 0.972510 0.003004
-7.330163 -7.033471 -0.355610 1259 -0.232844 0.972510 0.003004
-7.330283 -7.033590 -0.352489 1257 -0.232844 0.972510 0.003004
-7.329992 -7.033313 -0.349361 1251 -0.232844 0.972510 0.003004
-7.329534 -7.032875 -0.346216 1251 -0.232844 0.972510 0.003004
-7.333782 -7.032611 -0.690435 1249 -0.232844 0.972510 0.003004
-7.334133 -7.032955 -0.687332 1255 -0.232844 0.972510 0.003004
-7.334553 -7.033356 -0.684237 1255 -0.232844 0.972510 0.003004
-7.334071 -7.032886 -0.681062 1249 -0.232844 0.972510 0.003004
-7.334319 -7.033133 -0.677950 1251 -0.232844 0.972510 0.003004
-7.334414 -7.033220 -0.674819 1261 -0.232844 0.972510 0.003004
-7.334035 -7.032858 -0.671652 1255 -0.232844 0.972510 0.003004
-7.334228 -7.033049 -0.668540 1251 -0.232844 0.972510 0.003004
-7.334528 -7.033326 -0.665427 1249 -0.232844 0.972510 0.003004
-7.334672 -7.033465 -0.662306 1243 -0.232844 0.972510 0.003004
-7.334453 -7.033258 -0.659158 1253 -0.232844 0.972510 0.003004
-7.333749 -7.032582 -0.655964 1245 -0.232844 0.972510 0.003004
-7.334003 -7.032823 -0.652852 1257 -0.232844 0.972510 0.003004
-7.333974 -7.032809 -0.649712 1247 -0.232844 0.972510 0.003004
-7.333960 -7.032793 -0.646582 1245 -0.232844 0.972510 0.003004
-7.334467 -7.033277 -0.643497 1253 -0.232844 0.972510 0.003004
-7.334762 -7.033563 -0.640384 1261 -0.232844 0.972510 0.003004
-7.334320 -7.033138 -0.637219 1257 -0.232844 0.972510 0.003004
-7.333838 -7.032666 -0.634043 1253 -0.232844 0.972510 0.003004
-7.334131 -7.032952 -0.630930 1253 -0.232844 0.972510 0.003004
-7.334410 -7.033226 -0.627828 1249 -0.232844 0.972510 0.003004
-7.334548 -7.033358 -0.624706 1251 -0.232844 0.972510 0.003004
-7.334317 -7.033130 -0.621558 1243 -0.232844 0.972510 0.003004
-7.334240 -7.033064 -0.618419 1249 -0.232844 0.972510 0.003004
-7.334431 -7.033240 -0.615297 1249 -0.232844 0.972510 0.003004
-7.334828 -7.033622 -0.612203 1255 -0.232844 0.972510 0.003004
-7.334640 -7.033440 -0.609055 1249 -0.232844 0.972510 0.003004
-7.334617 -7.033418 -0.605915 1243 -0.232844 0.972510 0.003004
-7.334586 -7.033390 -0.602785 1247 -0.232844 0.972510 0.003004
-7.334343 -7.033164 -0.599637 1245 -0.232844 0.972510 0.003004
-7.334312 -7.033135 -0.596508 1245 -0.232844 0.972510 0.003004
-7.334282 -7.033107 -0.593368 1241 -0.232844 0.972510 0.003004
-7.334465 -7.033277 -0.590256 1245 -0.232844 0.972510 0.003004
-7.335172 -7.033960 -0.587179 1259 -0.232844 0.972510 0.003004
-7.335354 -7.034130 -0.584058 1257 -0.232844 0.972510 0.003004
-7.334952 -7.033750 -0.580901 1249 -0.232844 0.972510 0.003004
-7.335018 -7.033812 -0.577771 1251 -0.232844 0.972510 0.003004
-7.335407 -7.034187 -0.574677 1255 -0.232844 0.972510 0.003004
-7.335273 -7.034050 -0.571528 1251 -0.232844 0.972510 0.003004
-7.334919 -7.033720 -0.568371 1247 -0.232844 0.972510 0.003004
-7.334571 -7.033385 -0.565214 1245 -0.232844 0.972510 0.003004
-7.335110 -7.033894 -0.562129 1257 -0.232844 0.972510 0.003004
-7.335287 -7.034071 -0.559008 1251 -0.232844 0.972510 0.003004
-7.335193 -7.033979 -0.555878 1249 -0.232844 0.972510 0.003004
-7.335526 -7.034297 -0.552765 1257 -0.232844 0.972510 0.003004
-7.335488 -7.034261 -0.549635 1247 -0.232844 0.972510 0.003004
-7.335181 -7.033971 -0.546488 1245 -0.232844 0.972510 0.003004
-7.334818 -7.033623 -0.543332 1251 -0.232844 0.972510 0.003004
-7.334842 -7.033638 -0.540201 1251 -0.232844 0.972510 0.003004
-7.334686 -7.033496 -0.537063 1241 -0.232844 0.972510 0.003004
-7.334481 -7.033301 -0.533915 1241 -0.232844 0.972510 0.003004
-7.334917 -7.033714 -0.530820 1245 -0.232844 0.972510 0.003004
-7.334824 -7.033622 -0.527681 1245 -0.232844 0.972510 0.003004
-7.334136 -7.032972 -0.524508 1243 -0.232844 0.972510 0.003004
-7.334676 -7.033482 -0.521412 1249 -0.232844 0.972510 0.003004
-7.335421 -7.034196 -0.518335 1247 -0.232844 0.972510 0.003004
-7.335685 -7.034458 -0.515233 1251 -0.232844 0.972510 0.003004
-7.335804 -7.034563 -0.512112 1257 -0.232844 0.972510 0.003004
-7.335592 -7.034362 -0.508963 1253 -0.232844 0.972510 0.003004
-7.335696 -7.034469 -0.505842 1253 -0.232844 0.972510 0.003004
-7.335554 -7.034324 -0.502704 1251 -0.232844 0.972510 0.003004
-7.335604 -7.034373 -0.499583 1249 -0.232844 0.972510 0.003004
-7.335764 -7.034538 -0.496462 1257 -0.232844 0.972510 0.003004
-7.335607 -7.034381 -0.493323 1249 -0.232844 0.972510 0.003004
-7.335758 -7.034525 -0.490201 1249 -0.232844 0.972510 0.003004
-7.335705 -7.034479 -0.487072 1261 -0.232844 0.972510 0.003004
-7.335342 -7.034131 -0.483925 1255 -0.232844 0.972510 0.003004
-7.335224 -7.034019 -0.480786 1247 -0.232844 0.972510 0.003004
-7.335123 -7.033920 -0.477657 1249 -0.232844 0.972510 0.003004
-7.335330 -7.034122 -0.474535 1239 -0.232844 0.972510 0.003004
-7.335592 -7.034369 -0.471423 1251 -0.232844 0.972510 0.003004
-7.335262 -7.034060 -0.468276 1247 -0.232844 0.972510 0.003004
-7.334842 -7.033653 -0.465129 1239 -0.232844 0.972510 0.003004
-7.335358 -7.034144 -0.462035 1241 -0.232844 0.972510 0.003004
-7.335938 -7.034698 -0.458939 1245 -0.232844 0.972510 0.003004
-7.335298 -7.034087 -0.455775 1243 -0.232844 0.972510 0.003004
-7.334761 -7.033572 -0.452610 1239 -0.232844 0.972510 0.003004
-7.334850 -7.033667 -0.449489 1249 -0.232844 0.972510 0.003004
-7.334843 -7.033658 -0.446369 1241 -0.232844 0.972510 0.003004
-7.334884 -7.033700 -0.443239 1241 -0.232844 0.972510 0.003004
-7.334980 -7.033786 -0.440118 1251 -0.232844 0.972510 0.003004
-7.335179 -7.033982 -0.437006 1239 -0.232844 0.972510 0.003004
-7.335585 -7.034371 -0.433902 1245 -0.232844 0.972510 0.003004
-7.335839 -7.034611 -0.430789 1245 -0.232844 0.972510 0.003004
-7.336142 -7.034904 -0.427686 1233 -0.232844 0.972510 0.003004
-7.335810 -7.034580 -0.424539 1237 -0.232844 0.972510 0.003004
-7.335265 -7.034059 -0.421384 1241 -0.232844 0.972510 0.003004
-7.334989 -7.033793 -0.418237 1237 -0.232844 0.972510 0.003004
-7.334762 -7.033580 -0.415099 1235 -0.232844 0.972510 0.003004
-7.334526 -7.033360 -0.411961 1237 -0.232844 0.972510 0.003004
-7.335041 -7.033850 -0.408866 1241 -0.232844 0.972510 0.003004
-7.335976 -7.034744 -0.405787 1237 -0.232844 0.972510 0.003004
-7.335795 -7.034569 -0.402649 1231 -0.232844 0.972510 0.003004
-7.335140 -7.033945 -0.399495 1239 -0.232844 0.972510 0.003004
-7.335118 -7.033924 -0.396365 1229 -0.232844 0.972510 0.003004
-7.335151 -7.033959 -0.393245 1237 -0.232844 0.972510 0.003004
-7.335128 -7.033938 -0.390115 1239 -0.232844 0.972510 0.003004
-7.335154 -7.033968 -0.386995 1243 -0.232844 0.972510 0.003004
-7.335035 -7.033842 -0.383866 1239 -0.232844 0.972510 0.003004
-7.335322 -7.034122 -0.380753 1235 -0.232844 0.972510 0.003004
-7.335561 -7.034349 -0.377641 1237 -0.232844 0.972510 0.003004
-7.335484 -7.034284 -0.374511 1239 -0.232844 0.972510 0.003004
-7.335674 -7.034460 -0.371389 1243 -0.232844 0.972510 0.003004
-7.335327 -7.034124 -0.368253 1245 -0.232844 0.972510 0.003004
-7.335352 -7.034154 -0.365122 1241 -0.232844 0.972510 0.003004
-7.335955 -7.034727 -0.362026 1237 -0.232844 0.972510 0.003004
-7.336352 -7.035109 -0.358923 1245 -0.232844 0.972510 0.003004
-7.336521 -7.035280 -0.355811 1251 -0.232844 0.972510 0.003004
-7.336339 -7.035104 -0.352673 1255 -0.232844 0.972510 0.003004
-7.335889 -7.034673 -0.349527 1253 -0.232844 0.972510 0.003004
-7.336169 -7.034946 -0.346414 1249 -0.232844 0.972510 0.003004
-7.340061 -7.034074 -0.690808 1257 -0.232844 0.972510 0.003004
-7.339683 -7.033713 -0.687632 1253 -0.232844 0.972510 0.003004
-7.340200 -7.034217 -0.684547 1253 -0.232844 0.972510 0.003004
-7.341094 -7.035066 -0.681488 1255 -0.232844 0.972510 0.003004
-7.340716 -7.034704 -0.678322 1247 -0.232844 0.972510 0.003004
-7.340378 -7.034389 -0.675155 1253 -0.232844 0.972510 0.003004
-7.339840 -7.033874 -0.671970 1247 -0.232844 0.972510 0.003004
-7.339928 -7.033953 -0.668839 1251 -0.232844 0.972510 0.003004
-7.340341 -7.034348 -0.665745 1257 -0.232844 0.972510 0.003004
-7.340224 -7.034236 -0.662596 1249 -0.232844 0.972510 0.003004
-7.340787 -7.034779 -0.659510 1261 -0.232844 0.972510 0.003004
-7.340559 -7.034565 -0.656363 1263 -0.232844 0.972510 0.003004
-7.340007 -7.034037 -0.653178 1251 -0.232844 0.972510 0.003004
-7.340689 -7.034688 -0.650101 1253 -0.232844 0.972510 0.003004
-7.340879 -7.034863 -0.646979 1253 -0.232844 0.972510 0.003004
-7.340280 -7.034298 -0.643795 1255 -0.232844 0.972510 0.003004
-7.340106 -7.034129 -0.640647 1247 -0.232844 0.972510 0.003004
-7.340186 -7.034203 -0.637516 1247 -0.232844 0.972510 0.003004
-7.340109 -7.034136 -0.634376 1241 -0.232844 0.972510 0.003004
-7.340410 -7.034415 -0.631273 1251 -0.232844 0.972510 0.003004
-7.340333 -7.034348 -0.628134 1255 -0.232844 0.972510 0.003004
-7.340524 -7.034525 -0.625012 1259 -0.232844 0.972510 0.003004
-7.340708 -7.034708 -0.621890 1249 -0.232844 0.972510 0.003004
-7.340677 -7.034680 -0.618761 1249 -0.232844 0.972510 0.003004
-7.341137 -7.035113 -0.615666 1253 -0.232844 0.972510 0.003004
-7.340854 -7.034841 -0.612509 1257 -0.232844 0.972510 0.003004
-7.340444 -7.034455 -0.609343 1247 -0.232844 0.972510 0.003004
-7.340580 -7.034586 -0.606221 1255 -0.232844 0.972510 0.003004
-7.340343 -7.034353 -0.603063 1251 -0.232844 0.972510 0.003004
-7.340416 -7.034434 -0.599943 1249 -0.232844 0.972510 0.003004
-7.340710 -7.034707 -0.596830 1251 -0.232844 0.972510 0.003004
-7.340625 -7.034634 -0.593690 1249 -0.232844 0.972510 0.003004
-7.340539 -7.034548 -0.590551 1251 -0.232844 0.972510 0.003004
-7.340619 -7.034622 -0.587430 1249 -0.232844 0.972510 0.003004
-7.341111 -7.035093 -0.584336 1245 -0.232844 0.972510 0.003004
-7.340922 -7.034911 -0.581187 1241 -0.232844 0.972510 0.003004
-7.340472 -7.034479 -0.578022 1243 -0.232844 0.972510 0.003004
-7.341321 -7.035304 -0.574953 1253 -0.232844 0.972510 0.003004
-7.341718 -7.035672 -0.571850 1255 -0.232844 0.972510 0.003004
-7.340998 -7.034983 -0.568666 1249 -0.232844 0.972510 0.003004
-7.340739 -7.034745 -0.565509 1249 -0.232844 0.972510 0.003004
-7.341081 -7.035069 -0.562405 1249 -0.232844 0.972510 0.003004
-7.341304 -7.035284 -0.559293 1245 -0.232844 0.972510 0.003004
-7.341424 -7.035403 -0.556172 1245 -0.232844 0.972510 0.003004
-7.341384 -7.035355 -0.553032 1251 -0.232844 0.972510 0.003004
-7.341244 -7.035224 -0.549893 1247 -0.232844 0.972510 0.003004
-7.341047 -7.035036 -0.546745 1251 -0.232844 0.972510 0.003004
-7.341001 -7.034995 -0.543616 1251 -0.232844 0.972510 0.003004
-7.341122 -7.035115 -0.540484 1243 -0.232844 0.972510 0.003004
-7.341187 -7.035176 -0.537364 1243 -0.232844 0.972510 0.003004
-7.340665 -7.034674 -0.534199 1229 -0.232844 0.972510 0.003004
-7.340563 -7.034575 -0.531060 1243 -0.232844 0.972510 0.003004
-7.340945 -7.034945 -0.527956 1251 -0.232844 0.972510 0.003004
-7.341222 -7.035203 -0.524843 1247 -0.232844 0.972510 0.003004
-7.341217 -7.035208 -0.521713 1251 -0.232844 0.972510 0.003004
-7.341233 -7.035218 -0.518583 1241 -0.232844 0.972510 0.003004
-7.341346 -7.035331 -0.515462 1249 -0.232844 0.972510 0.003004
-7.341457 -7.035430 -0.512341 1261 -0.232844 0.972510 0.003004
-7.341562 -7.035536 -0.509210 1259 -0.232844 0.972510 0.003004
-7.341832 -7.035790 -0.506107 1257 -0.232844 0.972510 0.003004
-7.341881 -7.035839 -0.502976 1255 -0.232844 0.972510 0.003004
-7.341835 -7.035798 -0.499837 1261 -0.232844 0.972510 0.003004
-7.342201 -7.036154 -0.496733 1265 -0.232844 0.972510 0.003004
-7.342154 -7.036099 -0.493604 1257 -0.232844 0.972510 0.003004
-7.342259 -7.036206 -0.490483 1253 -0.232844 0.972510 0.003004
-7.341999 -7.035954 -0.487335 1247 -0.232844 0.972510 0.003004
-7.341628 -7.035599 -0.484178 1251 -0.232844 0.972510 0.003004
-7.341567 -7.035545 -0.481049 1249 -0.232844 0.972510 0.003004
-7.341409 -7.035388 -0.477910 1245 -0.232844 0.972510 0.003004
-7.341885 -7.035847 -0.474806 1237 -0.232844 0.972510 0.003004
-7.342718 -7.036645 -0.471728 1251 -0.232844 0.972510 0.003004
-7.342189 -7.036137 -0.468573 1251 -0.232844 0.972510 0.003004
-7.341074 -7.035078 -0.465373 1245 -0.232844 0.972510 0.003004
-7.340861 -7.034863 -0.462225 1235 -0.232844 0.972510 0.003004
-7.340689 -7.034707 -0.459087 1231 -0.232844 0.972510 0.003004
-7.340476 -7.034493 -0.455949 1229 -0.232844 0.972510 0.003004
-7.340992 -7.034997 -0.452854 1233 -0.232844 0.972510 0.003004
-7.341192 -7.035193 -0.449732 1239 -0.232844 0.972510 0.003004
-7.341081 -7.035074 -0.446603 1239 -0.232844 0.972510 0.003004
-7.341652 -7.035622 -0.443507 1245 -0.232844 0.972510 0.003004
-7.341639 -7.035620 -0.440377 1245 -0.232844 0.972510 0.003004
-7.341893 -7.035861 -0.437265 1247 -0.232844 0.972510 0.003004
-7.342299 -7.036249 -0.434161 1251 -0.232844 0.972510 0.003004
-7.342450 -7.036394 -0.431039 1251 -0.232844 0.972510 0.003004
-7.342381 -7.036334 -0.427910 1243 -0.232844 0.972510 0.003004
-7.342152 -7.036107 -0.424762 1243 -0.232844 0.972510 0.003004
-7.342613 -7.036553 -0.421657 1241 -0.232844 0.972510 0.003004
-7.342804 -7.036743 -0.418546 1241 -0.232844 0.972510 0.003004
-7.341943 -7.035913 -0.415374 1243 -0.232844 0.972510 0.003004
-7.341556 -7.035546 -0.412217 1251 -0.232844 0.972510 0.003004
-7.341803 -7.035780 -0.409105 1245 -0.232844 0.972510 0.003004
-7.342262 -7.036212 -0.406000 1243 -0.232844 0.972510 0.003004
-7.342083 -7.036051 -0.402862 1233 -0.232844 0.972510 0.003004
-7.342060 -7.036029 -0.399742 1233 -0.232844 0.972510 0.003004
-7.342361 -7.036307 -0.396629 1237 -0.232844 0.972510 0.003004
-7.342023 -7.035992 -0.393482 1233 -0.232844 0.972510 0.003004
-7.342159 -7.036124 -0.390361 1237 -0.232844 0.972510 0.003004
-7.342191 -7.036146 -0.387231 1243 -0.232844 0.972510 0.003004
-7.341639 -7.035618 -0.384076 1237 -0.232844 0.972510 0.003004
-7.341981 -7.035955 -0.380973 1229 -0.232844 0.972510 0.003004
-7.342694 -7.036631 -0.377876 1241 -0.232844 0.972510 0.003004
-7.342671 -7.036609 -0.374746 1245 -0.232844 0.972510 0.003004
-7.342745 -7.036691 -0.371625 1241 -0.232844 0.972510 0.003004
-7.342406 -7.036362 -0.368478 1245 -0.232844 0.972510 0.003004
-7.342114 -7.036083 -0.365341 1239 -0.232844 0.972510 0.003004
-7.342036 -7.036004 -0.362212 1235 -0.232844 0.972510 0.003004
-7.342473 -7.036430 -0.359107 1243 -0.232844 0.972510 0.003004
-7.342712 -7.036658 -0.355995 1239 -0.232844 0.972510 0.003004
-7.342151 -7.036125 -0.352840 1245 -0.232844 0.972510 0.003004
-7.342287 -7.036243 -0.349719 1251 -0.232844 0.972510 0.003004
-7.343041 -7.036978 -0.346622 1247 -0.232844 0.972510 0.003004
-7.346610 -7.035793 -0.691199 1249 -0.232844 0.972510 0.003004
-7.346604 -7.035798 -0.688059 1257 -0.232844 0.972510 0.003004
-7.346541 -7.035730 -0.684919 1251 -0.232844 0.972510 0.003004
-7.346954 -7.036124 -0.681815 1249 -0.232844 0.972510 0.003004
-7.346677 -7.035859 -0.678658 1239 -0.232844 0.972510 0.003004
-7.346347 -7.035549 -0.675491 1243 -0.232844 0.972510 0.003004
-7.346973 -7.036142 -0.672405 1251 -0.232844 0.972510 0.003004
-7.347490 -7.036646 -0.669310 1251 -0.232844 0.972510 0.003004
-7.347206 -7.036375 -0.666152 1253 -0.232844 0.972510 0.003004
-7.346511 -7.035706 -0.662949 1253 -0.232844 0.972510 0.003004
-7.346227 -7.035434 -0.659792 1251 -0.232844 0.972510 0.003004
-7.346212 -7.035418 -0.656652 1247 -0.232844 0.972510 0.003004
-7.346308 -7.035505 -0.653531 1251 -0.232844 0.972510 0.003004
-7.346548 -7.035746 -0.650408 1245 -0.232844 0.972510 0.003004
-7.346635 -7.035827 -0.647287 1253 -0.232844 0.972510 0.003004
-7.346565 -7.035753 -0.644138 1253 -0.232844 0.972510 0.003004
-7.346281 -7.035481 -0.640981 1249 -0.232844 0.972510 0.003004
-7.346575 -7.035767 -0.637868 1253 -0.232844 0.972510 0.003004
-7.346711 -7.035899 -0.634746 1257 -0.232844 0.972510 0.003004
-7.345954 -7.035180 -0.631544 1245 -0.232844 0.972510 0.003004
-7.346096 -7.035304 -0.628422 1243 -0.232844 0.972510 0.003004
-7.346700 -7.035892 -0.625336 1251 -0.232844 0.972510 0.003004
-7.346258 -7.035466 -0.622170 1257 -0.232844 0.972510 0.003004
-7.346283 -7.035496 -0.619030 1253 -0.232844 0.972510 0.003004
-7.346584 -7.035774 -0.615927 1255 -0.232844 0.972510 0.003004
-7.346341 -7.035548 -0.612769 1247 -0.232844 0.972510 0.003004
-7.346531 -7.035724 -0.609648 1241 -0.232844 0.972510 0.003004
-7.346550 -7.035748 -0.606517 1245 -0.232844 0.972510 0.003004
-7.346732 -7.035917 -0.603396 1247 -0.232844 0.972510 0.003004
-7.346868 -7.036049 -0.600274 1247 -0.232844 0.972510 0.003004
-7.346466 -7.035669 -0.597108 1249 -0.232844 0.972510 0.003004
-7.346807 -7.035993 -0.594005 1255 -0.232844 0.972510 0.003004
-7.347038 -7.036214 -0.590882 1247 -0.232844 0.972510 0.003004
-7.346690 -7.035878 -0.587726 1241 -0.232844 0.972510 0.003004
-7.347026 -7.036210 -0.584612 1247 -0.232844 0.972510 0.003004
-7.346948 -7.036130 -0.581473 1239 -0.232844 0.972510 0.003004
-7.346489 -7.035692 -0.578307 1235 -0.232844 0.972510 0.003004
-7.346990 -7.036170 -0.575212 1245 -0.232844 0.972510 0.003004
-7.347473 -7.036634 -0.572118 1249 -0.232844 0.972510 0.003004
-7.346865 -7.036048 -0.568933 1243 -0.232844 0.972510 0.003004
-7.346717 -7.035912 -0.565795 1239 -0.232844 0.972510 0.003004
-7.347208 -7.036384 -0.562690 1239 -0.232844 0.972510 0.003004
-7.346751 -7.035945 -0.559524 1237 -0.232844 0.972510 0.003004
-7.346498 -7.035699 -0.556377 1247 -0.232844 0.972510 0.003004
-7.346833 -7.036030 -0.553263 1245 -0.232844 0.972510 0.003004
-7.347586 -7.036751 -0.550186 1257 -0.232844 0.972510 0.003004
-7.347643 -7.036806 -0.547055 1255 -0.232844 0.972510 0.003004
-7.347186 -7.036368 -0.543890 1243 -0.232844 0.972510 0.003004
-7.347044 -7.036224 -0.540751 1245 -0.232844 0.972510 0.003004
-7.347210 -7.036381 -0.537629 1251 -0.232844 0.972510 0.003004
-7.347702 -7.036852 -0.534535 1253 -0.232844 0.972510 0.003004
-7.347497 -7.036657 -0.531387 1251 -0.232844 0.972510 0.003004
-7.347395 -7.036558 -0.528247 1247 -0.232844 0.972510 0.003004
-7.348039 -7.037178 -0.525161 1259 -0.232844 0.972510 0.003004
-7.348200 -7.037343 -0.522040 1251 -0.232844 0.972510 0.003004
-7.347789 -7.036942 -0.518873 1253 -0.232844 0.972510 0.003004
-7.347624 -7.036793 -0.515735 1245 -0.232844 0.972510 0.003004
-7.347800 -7.036956 -0.512613 1249 -0.232844 0.972510 0.003004
-7.347910 -7.037055 -0.509492 1257 -0.232844 0.972510 0.003004
-7.348277 -7.037412 -0.506379 1251 -0.232844 0.972510 0.003004
-7.347755 -7.036910 -0.503213 1255 -0.232844 0.972510 0.003004
-7.347653 -7.036810 -0.500074 1265 -0.232844 0.972510 0.003004
-7.347813 -7.036962 -0.496953 1261 -0.232844 0.972510 0.003004
-7.347546 -7.036716 -0.493805 1249 -0.232844 0.972510 0.003004
-7.347595 -7.036766 -0.490675 1251 -0.232844 0.972510 0.003004
-7.347809 -7.036960 -0.487563 1253 -0.232844 0.972510 0.003004
-7.348024 -7.037169 -0.484440 1253 -0.232844 0.972510 0.003004
-7.347915 -7.037064 -0.481301 1255 -0.232844 0.972510 0.003004
-7.347490 -7.036665 -0.478145 1249 -0.232844 0.972510 0.003004
-7.347055 -7.036246 -0.474989 1243 -0.232844 0.972510 0.003004
-7.347270 -7.036455 -0.471877 1243 -0.232844 0.972510 0.003004
-7.347842 -7.037004 -0.468782 1241 -0.232844 0.972510 0.003004
-7.347993 -7.037148 -0.465660 1243 -0.232844 0.972510 0.003004
-7.347567 -7.036735 -0.462504 1251 -0.232844 0.972510 0.003004
-7.347196 -7.036380 -0.459348 1245 -0.232844 0.972510 0.003004
-7.347237 -7.036423 -0.456217 1239 -0.232844 0.972510 0.003004
-7.347658 -7.036823 -0.453113 1245 -0.232844 0.972510 0.003004
-7.347849 -7.037013 -0.449991 1245 -0.232844 0.972510 0.003004
-7.348001 -7.037158 -0.446870 1245 -0.232844 0.972510 0.003004
-7.347884 -7.037047 -0.443741 1243 -0.232844 0.972510 0.003004
-7.347877 -7.037037 -0.440611 1239 -0.232844 0.972510 0.003004
-7.348289 -7.037431 -0.437497 1241 -0.232844 0.972510 0.003004
-7.347957 -7.037107 -0.434350 1245 -0.232844 0.972510 0.003004
-7.348048 -7.037202 -0.431229 1255 -0.232844 0.972510 0.003004
-7.348412 -7.037545 -0.428115 1241 -0.232844 0.972510 0.003004
-7.348287 -7.037427 -0.424976 1239 -0.232844 0.972510 0.003004
-7.348107 -7.037265 -0.421838 1235 -0.232844 0.972510 0.003004
-7.348044 -7.037198 -0.418709 1243 -0.232844 0.972510 0.003004
-7.348132 -7.037278 -0.415588 1243 -0.232844 0.972510 0.003004
-7.348222 -7.037373 -0.412457 1247 -0.232844 0.972510 0.003004
-7.348310 -7.037453 -0.409336 1243 -0.232844 0.972510 0.003004
-7.348817 -7.037937 -0.406231 1247 -0.232844 0.972510 0.003004
-7.349063 -7.038171 -0.403119 1247 -0.232844 0.972510 0.003004
-7.349096 -7.038207 -0.399988 1247 -0.232844 0.972510 0.003004
-7.348544 -7.037679 -0.396833 1243 -0.232844 0.972510 0.003004
-7.347992 -7.037152 -0.393669 1241 -0.232844 0.972510 0.003004
-7.347549 -7.036726 -0.390523 1233 -0.232844 0.972510 0.003004
-7.347527 -7.036704 -0.387393 1239 -0.232844 0.972510 0.003004
-7.347924 -7.037086 -0.384279 1245 -0.232844 0.972510 0.003004
-7.348163 -7.037314 -0.381167 1239 -0.232844 0.972510 0.003004
-7.348148 -7.037298 -0.378037 1239 -0.232844 0.972510 0.003004
-7.348166 -7.037322 -0.374906 1237 -0.232844 0.972510 0.003004
-7.348515 -7.037652 -0.371793 1243 -0.232844 0.972510 0.003004
-7.348857 -7.037990 -0.368690 1259 -0.232844 0.972510 0.003004
-7.348938 -7.038064 -0.365559 1245 -0.232844 0.972510 0.003004
-7.348907 -7.038035 -0.362429 1253 -0.232844 0.972510 0.003004
-7.348870 -7.038001 -0.359299 1249 -0.232844 0.972510 0.003004
-7.348578 -7.037723 -0.356162 1247 -0.232844 0.972510 0.003004
-7.348341 -7.037489 -0.353014 1243 -0.232844 0.972510 0.003004
-7.348413 -7.037557 -0.349893 1249 -0.232844 0.972510 0.003004
-7.348439 -7.037587 -0.346763 1243 -0.232844 0.972510 0.003004
-7.352532 -7.036916 -0.691535 1243 -0.232844 0.972510 0.003004
-7.352571 -7.036944 -0.688395 1245 -0.232844 0.972510 0.003004
-7.353309 -7.037652 -0.685328 1247 -0.232844 0.972510 0.003004
-7.353612 -7.037945 -0.682215 1247 -0.232844 0.972510 0.003004
-7.353495 -7.037834 -0.679066 1247 -0.232844 0.972510 0.003004
-7.353480 -7.037818 -0.675926 1253 -0.232844 0.972510 0.003004
-7.353149 -7.037508 -0.672759 1255 -0.232844 0.972510 0.003004
-7.353086 -7.037441 -0.669610 1243 -0.232844 0.972510 0.003004
-7.353437 -7.037786 -0.666506 1241 -0.232844 0.972510 0.003004
-7.352900 -7.037270 -0.663321 1247 -0.232844 0.972510 0.003004
-7.352678 -7.037048 -0.660163 1255 -0.232844 0.972510 0.003004
-7.352925 -7.037283 -0.657041 1247 -0.232844 0.972510 0.003004
-7.352807 -7.037171 -0.653892 1247 -0.232844 0.972510 0.003004
-7.353039 -7.037407 -0.650779 1247 -0.232844 0.972510 0.003004
-7.353722 -7.038057 -0.647693 1239 -0.232844 0.972510 0.003004
-7.354118 -7.038439 -0.644589 1249 -0.232844 0.972510 0.003004
-7.353574 -7.037918 -0.641414 1243 -0.232844 0.972510 0.003004
-7.353606 -7.037940 -0.638274 1249 -0.232844 0.972510 0.003004
-7.353425 -7.037764 -0.635126 1249 -0.232844 0.972510 0.003004
-7.352087 -7.036487 -0.631868 1243 -0.232844 0.972510 0.003004
-7.351852 -7.036267 -0.628710 1235 -0.232844 0.972510 0.003004
-7.352670 -7.037053 -0.625642 1245 -0.232844 0.972510 0.003004
-7.353240 -7.037587 -0.622557 1261 -0.232844 0.972510 0.003004
-7.353574 -7.037918 -0.619444 1257 -0.232844 0.972510 0.003004
-7.354026 -7.038344 -0.616349 1263 -0.232844 0.972510 0.003004
-7.353363 -7.037714 -0.613156 1243 -0.232844 0.972510 0.003004
-7.352700 -7.037084 -0.609962 1243 -0.232844 0.972510 0.003004
-7.353056 -7.037421 -0.606858 1253 -0.232844 0.972510 0.003004
-7.353597 -7.037943 -0.603763 1251 -0.232844 0.972510 0.003004
-7.353526 -7.037870 -0.600624 1249 -0.232844 0.972510 0.003004
-7.352965 -7.037336 -0.597439 1243 -0.232844 0.972510 0.003004
-7.352666 -7.037052 -0.594282 1247 -0.232844 0.972510 0.003004
-7.352746 -7.037126 -0.591151 1239 -0.232844 0.972510 0.003004
-7.353144 -7.037508 -0.588047 1241 -0.232844 0.972510 0.003004
-7.353526 -7.037877 -0.584943 1239 -0.232844 0.972510 0.003004
-7.353921 -7.038244 -0.581840 1239 -0.232844 0.972510 0.003004
-7.353519 -7.037864 -0.578673 1239 -0.232844 0.972510 0.003004
-7.353378 -7.037734 -0.575525 1247 -0.232844 0.972510 0.003004
-7.353664 -7.038000 -0.572412 1237 -0.232844 0.972510 0.003004
-7.354156 -7.038471 -0.569317 1245 -0.232844 0.972510 0.003004
-7.353588 -7.037930 -0.566132 1245 -0.232844 0.972510 0.003004
-7.353076 -7.037448 -0.562957 1243 -0.232844 0.972510 0.003004
-7.352720 -7.037106 -0.559800 1235 -0.232844 0.972510 0.003004
-7.352792 -7.037174 -0.556670 1237 -0.232844 0.972510 0.003004
-7.353118 -7.037485 -0.553556 1241 -0.232844 0.972510 0.003004
-7.353238 -7.037604 -0.550435 1245 -0.232844 0.972510 0.003004
-7.353516 -7.037863 -0.547323 1237 -0.232844 0.972510 0.003004
-7.353898 -7.038232 -0.544219 1247 -0.232844 0.972510 0.003004
-7.353591 -7.037942 -0.541062 1243 -0.232844 0.972510 0.003004
-7.353133 -7.037504 -0.537886 1243 -0.232844 0.972510 0.003004
-7.353719 -7.038064 -0.534800 1249 -0.232844 0.972510 0.003004
-7.353998 -7.038324 -0.531688 1243 -0.232844 0.972510 0.003004
-7.354000 -7.038335 -0.528548 1241 -0.232844 0.972510 0.003004
-7.353636 -7.037987 -0.525391 1239 -0.232844 0.972510 0.003004
-7.353590 -7.037946 -0.522251 1243 -0.232844 0.972510 0.003004
-7.353282 -7.037641 -0.519094 1247 -0.232844 0.972510 0.003004
-7.352548 -7.036941 -0.515911 1243 -0.232844 0.972510 0.003004
-7.353190 -7.037559 -0.512825 1239 -0.232844 0.972510 0.003004
-7.353452 -7.037806 -0.509712 1247 -0.232844 0.972510 0.003004
-7.353415 -7.037772 -0.506573 1253 -0.232844 0.972510 0.003004
-7.354041 -7.038378 -0.503487 1253 -0.232844 0.972510 0.003004
-7.353733 -7.038073 -0.500329 1249 -0.232844 0.972510 0.003004
-7.353149 -7.037520 -0.497155 1249 -0.232844 0.972510 0.003004
-7.353523 -7.037884 -0.494051 1249 -0.232844 0.972510 0.003004
-7.353998 -7.038328 -0.490947 1253 -0.232844 0.972510 0.003004
-7.353517 -7.037871 -0.487781 1247 -0.232844 0.972510 0.003004
-7.353683 -7.038028 -0.484659 1243 -0.232844 0.972510 0.003004
-7.353781 -7.038129 -0.481538 1251 -0.232844 0.972510 0.003004
-7.352983 -7.037364 -0.478356 1239 -0.232844 0.972510 0.003004
-7.353135 -7.037509 -0.475234 1241 -0.232844 0.972510 0.003004
-7.353302 -7.037666 -0.472103 1247 -0.232844 0.972510 0.003004
-7.352710 -7.037107 -0.468938 1243 -0.232844 0.972510 0.003004
-7.352490 -7.036900 -0.465790 1235 -0.232844 0.972510 0.003004
-7.353536 -7.037896 -0.462730 1245 -0.232844 0.972510 0.003004
-7.353797 -7.038142 -0.459608 1247 -0.232844 0.972510 0.003004
-7.353316 -7.037685 -0.456452 1245 -0.232844 0.972510 0.003004
-7.353468 -7.037829 -0.453331 1237 -0.232844 0.972510 0.003004
-7.353351 -7.037718 -0.450192 1237 -0.232844 0.972510 0.003004
-7.353343 -7.037709 -0.447052 1243 -0.232844 0.972510 0.003004
-7.353385 -7.037752 -0.443931 1237 -0.232844 0.972510 0.003004
-7.353585 -7.037948 -0.440809 1237 -0.232844 0.972510 0.003004
-7.354100 -7.038438 -0.437704 1245 -0.232844 0.972510 0.003004
-7.354300 -7.038634 -0.434582 1257 -0.232844 0.972510 0.003004
-7.354024 -7.038369 -0.431435 1245 -0.232844 0.972510 0.003004
-7.353431 -7.037796 -0.428270 1237 -0.232844 0.972510 0.003004
-7.353258 -7.037627 -0.425132 1237 -0.232844 0.972510 0.003004
-7.353506 -7.037875 -0.422020 1233 -0.232844 0.972510 0.003004
-7.353642 -7.038007 -0.418888 1239 -0.232844 0.972510 0.003004
-7.353468 -7.037837 -0.415750 1237 -0.232844 0.972510 0.003004
-7.353501 -7.037873 -0.412619 1233 -0.232844 0.972510 0.003004
-7.353810 -7.038158 -0.409506 1243 -0.232844 0.972510 0.003004
-7.353955 -7.038297 -0.406385 1245 -0.232844 0.972510 0.003004
-7.353878 -7.038230 -0.403256 1247 -0.232844 0.972510 0.003004
-7.354124 -7.038464 -0.400133 1249 -0.232844 0.972510 0.003004
-7.354411 -7.038744 -0.397020 1243 -0.232844 0.972510 0.003004
-7.354609 -7.038926 -0.393898 1247 -0.232844 0.972510 0.003004
-7.354587 -7.038905 -0.390769 1245 -0.232844 0.972510 0.003004
-7.354351 -7.038685 -0.387621 1245 -0.232844 0.972510 0.003004
-7.354113 -7.038451 -0.384483 1247 -0.232844 0.972510 0.003004
-7.354147 -7.038487 -0.381353 1245 -0.232844 0.972510 0.003004
-7.353800 -7.038151 -0.378206 1245 -0.232844 0.972510 0.003004
-7.353723 -7.038085 -0.375066 1247 -0.232844 0.972510 0.003004
-7.353700 -7.038063 -0.371937 1237 -0.232844 0.972510 0.003004
-7.353883 -7.038233 -0.368815 1233 -0.232844 0.972510 0.003004
-7.354487 -7.038820 -0.365719 1231 -0.232844 0.972510 0.003004
-7.355042 -7.039342 -0.362614 1241 -0.232844 0.972510 0.003004
-7.354536 -7.038866 -0.359458 1245 -0.232844 0.972510 0.003004
-7.354189 -7.038530 -0.356312 1241 -0.232844 0.972510 0.003004
-7.354476 -7.038809 -0.353199 1243 -0.232844 0.972510 0.003004
-7.354081 -7.038422 -0.350052 1245 -0.232844 0.972510 0.003004
-7.354043 -7.038388 -0.346923 1249 -0.232844 0.972510 0.003004
-7.359563 -7.039167 -0.691981 1249 -0.232844 0.972510 0.003004
-7.358923 -7.038556 -0.688777 1241 -0.232844 0.972510 0.003004
-7.359281 -7.038892 -0.685674 1241 -0.232844 0.972510 0.003004
-7.359273 -7.038883 -0.682524 1245 -0.232844 0.972510 0.003004
-7.359323 -7.038932 -0.679393 1245 -0.232844 0.972510 0.003004
-7.359149 -7.038762 -0.676235 1243 -0.232844 0.972510 0.003004
-7.359246 -7.038863 -0.673104 1245 -0.232844 0.972510 0.003004
-7.359761 -7.039353 -0.670009 1245 -0.232844 0.972510 0.003004
-7.359320 -7.038928 -0.666833 1253 -0.232844 0.972510 0.003004
-7.359210 -7.038822 -0.663674 1261 -0.232844 0.972510 0.003004
-7.359717 -7.039306 -0.660579 1255 -0.232844 0.972510 0.003004
-7.359965 -7.039554 -0.657466 1251 -0.232844 0.972510 0.003004
-7.359894 -7.039480 -0.654317 1251 -0.232844 0.972510 0.003004
-7.359825 -7.039421 -0.651168 1241 -0.232844 0.972510 0.003004
-7.359802 -7.039398 -0.648028 1241 -0.232844 0.972510 0.003004
-7.359677 -7.039281 -0.644879 1243 -0.232844 0.972510 0.003004
-7.360082 -7.039669 -0.641775 1249 -0.232844 0.972510 0.003004
-7.360170 -7.039749 -0.638644 1257 -0.232844 0.972510 0.003004
-7.358992 -7.038626 -0.635405 1245 -0.232844 0.972510 0.003004
-7.358432 -7.038092 -0.632220 1239 -0.232844 0.972510 0.003004
-7.359478 -7.039088 -0.629170 1243 -0.232844 0.972510 0.003004
-7.359819 -7.039412 -0.626057 1237 -0.232844 0.972510 0.003004
-7.359796 -7.039390 -0.622917 1247 -0.232844 0.972510 0.003004
-7.360043 -7.039624 -0.619795 1255 -0.232844 0.972510 0.003004
-7.359807 -7.039404 -0.616637 1247 -0.232844 0.972510 0.003004
-7.359618 -7.039221 -0.613489 1257 -0.232844 0.972510 0.003004
-7.359595 -7.039200 -0.610349 1249 -0.232844 0.972510 0.003004
-7.359778 -7.039370 -0.607217 1247 -0.232844 0.972510 0.003004
-7.359907 -7.039495 -0.604096 1241 -0.232844 0.972510 0.003004
-7.359829 -7.039429 -0.600946 1237 -0.232844 0.972510 0.003004
-7.359799 -7.039402 -0.597807 1245 -0.232844 0.972510 0.003004
-7.360085 -7.039667 -0.594694 1247 -0.232844 0.972510 0.003004
-7.360157 -7.039734 -0.591563 1249 -0.232844 0.972510 0.003004
-7.359755 -7.039354 -0.588397 1243 -0.232844 0.972510 0.003004
-7.359835 -7.039428 -0.585256 1239 -0.232844 0.972510 0.003004
-7.359853 -7.039452 -0.582126 1243 -0.232844 0.972510 0.003004
-7.359815 -7.039417 -0.578986 1249 -0.232844 0.972510 0.003004
-7.359847 -7.039439 -0.575846 1245 -0.232844 0.972510 0.003004
-7.359910 -7.039500 -0.572715 1239 -0.232844 0.972510 0.003004
-7.359873 -7.039466 -0.569575 1231 -0.232844 0.972510 0.003004
-7.359890 -7.039490 -0.566445 1243 -0.232844 0.972510 0.003004
-7.360065 -7.039653 -0.563313 1239 -0.232844 0.972510 0.003004
-7.360399 -7.039970 -0.560210 1239 -0.232844 0.972510 0.003004
-7.360306 -7.039892 -0.557061 1239 -0.232844 0.972510 0.003004
-7.360014 -7.039600 -0.553903 1235 -0.232844 0.972510 0.003004
-7.360126 -7.039713 -0.550772 1235 -0.232844 0.972510 0.003004
-7.360562 -7.040126 -0.547668 1247 -0.232844 0.972510 0.003004
-7.360627 -7.040188 -0.544537 1251 -0.232844 0.972510 0.003004
-7.360266 -7.039853 -0.541381 1239 -0.232844 0.972510 0.003004
-7.360060 -7.039658 -0.538223 1243 -0.232844 0.972510 0.003004
-7.360021 -7.039609 -0.535083 1237 -0.232844 0.972510 0.003004
-7.360349 -7.039935 -0.531970 1245 -0.232844 0.972510 0.003004
-7.360516 -7.040092 -0.528848 1245 -0.232844 0.972510 0.003004
-7.360580 -7.040154 -0.525717 1247 -0.232844 0.972510 0.003004
-7.360271 -7.039849 -0.522560 1247 -0.232844 0.972510 0.003004
-7.359641 -7.039258 -0.519386 1239 -0.232844 0.972510 0.003004
-7.359863 -7.039460 -0.516264 1241 -0.232844 0.972510 0.003004
-7.360237 -7.039822 -0.513150 1249 -0.232844 0.972510 0.003004
-7.360237 -7.039819 -0.510020 1251 -0.232844 0.972510 0.003004
-7.359978 -7.039581 -0.506863 1247 -0.232844 0.972510 0.003004
-7.359497 -7.039124 -0.503697 1251 -0.232844 0.972510 0.003004
-7.359506 -7.039127 -0.500567 1253 -0.232844 0.972510 0.003004
-7.359183 -7.038824 -0.497410 1247 -0.232844 0.972510 0.003004
-7.359563 -7.039178 -0.494296 1247 -0.232844 0.972510 0.003004
-7.360349 -7.039939 -0.491219 1251 -0.232844 0.972510 0.003004
-7.360350 -7.039936 -0.488079 1245 -0.232844 0.972510 0.003004
-7.359931 -7.039529 -0.484923 1241 -0.232844 0.972510 0.003004
-7.359719 -7.039329 -0.481775 1243 -0.232844 0.972510 0.003004
-7.359555 -7.039179 -0.478626 1241 -0.232844 0.972510 0.003004
-7.359761 -7.039368 -0.475504 1233 -0.232844 0.972510 0.003004
-7.360285 -7.039878 -0.472409 1241 -0.232844 0.972510 0.003004
-7.360074 -7.039678 -0.469261 1231 -0.232844 0.972510 0.003004
-7.359908 -7.039514 -0.466112 1233 -0.232844 0.972510 0.003004
-7.360067 -7.039665 -0.462991 1235 -0.232844 0.972510 0.003004
-7.360157 -7.039760 -0.459860 1243 -0.232844 0.972510 0.003004
-7.359674 -7.039289 -0.456694 1237 -0.232844 0.972510 0.003004
-7.359930 -7.039543 -0.453582 1239 -0.232844 0.972510 0.003004
-7.360238 -7.039827 -0.450459 1243 -0.232844 0.972510 0.003004
-7.360445 -7.040030 -0.447347 1241 -0.232844 0.972510 0.003004
-7.360218 -7.039816 -0.444199 1235 -0.232844 0.972510 0.003004
-7.360266 -7.039865 -0.441068 1239 -0.232844 0.972510 0.003004
-7.360045 -7.039643 -0.437920 1233 -0.232844 0.972510 0.003004
-7.360030 -7.039628 -0.434780 1237 -0.232844 0.972510 0.003004
-7.360437 -7.040030 -0.431677 1241 -0.232844 0.972510 0.003004
-7.360423 -7.040014 -0.428537 1235 -0.232844 0.972510 0.003004
-7.360298 -7.039897 -0.425398 1231 -0.232844 0.972510 0.003004
-7.359814 -7.039426 -0.422242 1223 -0.232844 0.972510 0.003004
-7.359208 -7.038855 -0.419078 1235 -0.232844 0.972510 0.003004
-7.359303 -7.038941 -0.415947 1231 -0.232844 0.972510 0.003004
-7.359977 -7.039585 -0.412850 1225 -0.232844 0.972510 0.003004
-7.360169 -7.039774 -0.409729 1235 -0.232844 0.972510 0.003004
-7.360043 -7.039643 -0.406590 1231 -0.232844 0.972510 0.003004
-7.360345 -7.039936 -0.403477 1231 -0.232844 0.972510 0.003004
-7.360268 -7.039869 -0.400337 1231 -0.232844 0.972510 0.003004
-7.360087 -7.039693 -0.397199 1227 -0.232844 0.972510 0.003004
-7.360332 -7.039927 -0.394077 1229 -0.232844 0.972510 0.003004
-7.360690 -7.040264 -0.390963 1237 -0.232844 0.972510 0.003004
-7.360764 -7.040345 -0.387832 1241 -0.232844 0.972510 0.003004
-7.360535 -7.040118 -0.384694 1239 -0.232844 0.972510 0.003004
-7.360450 -7.040046 -0.381555 1237 -0.232844 0.972510 0.003004
-7.360578 -7.040171 -0.378434 1237 -0.232844 0.972510 0.003004
-7.360720 -7.040295 -0.375303 1241 -0.232844 0.972510 0.003004
-7.360375 -7.039974 -0.372156 1241 -0.232844 0.972510 0.003004
-7.360502 -7.040099 -0.369034 1237 -0.232844 0.972510 0.003004
-7.361113 -7.040679 -0.365929 1239 -0.232844 0.972510 0.003004
-7.361027 -7.040593 -0.362789 1235 -0.232844 0.972510 0.003004
-7.361163 -7.040725 -0.359668 1231 -0.232844 0.972510 0.003004
-7.360974 -7.040543 -0.356530 1233 -0.232844 0.972510 0.003004
-7.360936 -7.040508 -0.353390 1241 -0.232844 0.972510 0.003004
-7.360486 -7.040077 -0.350244 1241 -0.232844 0.972510 0.003004
-7.360242 -7.039851 -0.347096 1245 -0.232844 0.972510 0.003004
-7.365838 -7.040858 -0.692353 1249 -0.232844 0.972510 0.003004
-7.365191 -7.040240 -0.689159 1239 -0.232844 0.972510 0.003004
-7.365507 -7.040532 -0.686036 1241 -0.232844 0.972510 0.003004
-7.365706 -7.040727 -0.682914 1237 -0.232844 0.972510 0.003004
-7.365431 -7.040462 -0.679747 1245 -0.232844 0.972510 0.003004
-7.365582 -7.040606 -0.676615 1251 -0.232844 0.972510 0.003004
-7.366043 -7.041053 -0.673521 1251 -0.232844 0.972510 0.003004
-7.366139 -7.041140 -0.670380 1241 -0.232844 0.972510 0.003004
-7.366013 -7.041021 -0.667231 1249 -0.232844 0.972510 0.003004
-7.365738 -7.040756 -0.664063 1249 -0.232844 0.972510 0.003004
-7.365241 -7.040287 -0.660878 1247 -0.232844 0.972510 0.003004
-7.365282 -7.040329 -0.657737 1249 -0.232844 0.972510 0.003004
-7.365480 -7.040511 -0.654616 1245 -0.232844 0.972510 0.003004
-7.365300 -7.040349 -0.651457 1243 -0.232844 0.972510 0.003004
-7.365388 -7.040430 -0.648326 1241 -0.232844 0.972510 0.003004
-7.365691 -7.040722 -0.645213 1249 -0.232844 0.972510 0.003004
-7.366088 -7.041104 -0.642099 1255 -0.232844 0.972510 0.003004
-7.365914 -7.040934 -0.638951 1245 -0.232844 0.972510 0.003004
-7.365155 -7.040200 -0.635738 1243 -0.232844 0.972510 0.003004
-7.365656 -7.040692 -0.632643 1247 -0.232844 0.972510 0.003004
-7.366226 -7.041226 -0.629548 1239 -0.232844 0.972510 0.003004
-7.365405 -7.040442 -0.626346 1241 -0.232844 0.972510 0.003004
-7.365223 -7.040267 -0.623187 1241 -0.232844 0.972510 0.003004
-7.365628 -7.040655 -0.620083 1241 -0.232844 0.972510 0.003004
-7.365551 -7.040589 -0.616934 1235 -0.232844 0.972510 0.003004
-7.365892 -7.040912 -0.613821 1247 -0.232844 0.972510 0.003004
-7.365759 -7.040788 -0.610672 1241 -0.232844 0.972510 0.003004
-7.365412 -7.040452 -0.607505 1235 -0.232844 0.972510 0.003004
-7.365548 -7.040585 -0.604374 1231 -0.232844 0.972510 0.003004
-7.365787 -7.040812 -0.601251 1233 -0.232844 0.972510 0.003004
-7.366018 -7.041034 -0.598129 1241 -0.232844 0.972510 0.003004
-7.366035 -7.041058 -0.594989 1241 -0.232844 0.972510 0.003004
-7.366059 -7.041073 -0.591859 1241 -0.232844 0.972510 0.003004
-7.365871 -7.040891 -0.588700 1243 -0.232844 0.972510 0.003004
-7.365738 -7.040767 -0.585552 1237 -0.232844 0.972510 0.003004
-7.365494 -7.040541 -0.582394 1233 -0.232844 0.972510 0.003004
-7.365677 -7.040710 -0.579272 1245 -0.232844 0.972510 0.003004
-7.365480 -7.040522 -0.576114 1239 -0.232844 0.972510 0.003004
-7.365711 -7.040743 -0.572991 1241 -0.232844 0.972510 0.003004
-7.365990 -7.041017 -0.569879 1235 -0.232844 0.972510 0.003004
-7.365958 -7.040974 -0.566739 1241 -0.232844 0.972510 0.003004
-7.366127 -7.041145 -0.563607 1239 -0.232844 0.972510 0.003004
-7.366357 -7.041367 -0.560485 1237 -0.232844 0.972510 0.003004
-7.366215 -7.041223 -0.557336 1235 -0.232844 0.972510 0.003004
-7.366225 -7.041240 -0.554206 1243 -0.232844 0.972510 0.003004
-7.366401 -7.041404 -0.551074 1251 -0.232844 0.972510 0.003004
-7.366252 -7.041267 -0.547926 1247 -0.232844 0.972510 0.003004
-7.366109 -7.041122 -0.544777 1241 -0.232844 0.972510 0.003004
-7.366333 -7.041337 -0.541655 1249 -0.232844 0.972510 0.003004
-7.365860 -7.040887 -0.538489 1239 -0.232844 0.972510 0.003004
-7.365773 -7.040801 -0.535340 1237 -0.232844 0.972510 0.003004
-7.365996 -7.041016 -0.532218 1231 -0.232844 0.972510 0.003004
