589
-7.248822 -7.181374 -0.668311 689 -0.571328 0.820716 0.003041
-7.248808 -7.181358 -0.665171 699 -0.571328 0.820716 0.003041
-7.248646 -7.181191 -0.662002 701 -0.571328 0.820716 0.003041
-7.248315 -7.180868 -0.658825 699 -0.571328 0.820716 0.003041
-7.248355 -7.180912 -0.655685 701 -0.571328 0.820716 0.003041
-7.248286 -7.180836 -0.652535 695 -0.571328 0.820716 0.003041
-7.248946 -7.181495 -0.649449 697 -0.571328 0.820716 0.003041
-7.249859 -7.182395 -0.646380 693 -0.571328 0.820716 0.003041
-7.248854 -7.181396 -0.643150 677 -0.571328 0.820716 0.003041
-7.248826 -7.181381 -0.640000 683 -0.571328 0.820716 0.003041
-7.249336 -7.181875 -0.636895 681 -0.571328 0.820716 0.003041
-7.249516 -7.182063 -0.633773 673 -0.571328 0.820716 0.003041
-7.249394 -7.181942 -0.630614 683 -0.571328 0.820716 0.003041
-7.249169 -7.181709 -0.627446 671 -0.571328 0.820716 0.003041
-7.249605 -7.182152 -0.624342 669 -0.571328 0.820716 0.003041
-7.249947 -7.182490 -0.621229 677 -0.571328 0.820716 0.003041
-7.249197 -7.181747 -0.618016 681 -0.571328 0.820716 0.003041
-7.248602 -7.181148 -0.614822 693 -0.571328 0.820716 0.003041
-7.249401 -7.181951 -0.611744 707 -0.571328 0.820716 0.003041
-7.249951 -7.182491 -0.608648 703 -0.571328 0.820716 0.003041
-7.249147 -7.181689 -0.605436 691 -0.571328 0.820716 0.003041
-7.248600 -7.181157 -0.602241 693 -0.571328 0.820716 0.003041
-7.249150 -7.181697 -0.599146 683 -0.571328 0.820716 0.003041
-7.249740 -7.182284 -0.596050 683 -0.571328 0.820716 0.003041
-7.250174 -7.182713 -0.592936 685 -0.571328 0.820716 0.003041
-7.250360 -7.182893 -0.589814 693 -0.571328 0.820716 0.003041
-7.250015 -7.182557 -0.586637 695 -0.571328 0.820716 0.003041
-7.249156 -7.181695 -0.583425 697 -0.571328 0.820716 0.003041
-7.249017 -7.181561 -0.580277 689 -0.571328 0.820716 0.003041
-7.249715 -7.182252 -0.577180 697 -0.571328 0.820716 0.003041
-7.249778 -7.182315 -0.574049 695 -0.571328 0.820716 0.003041
-7.249950 -7.182497 -0.570917 697 -0.571328 0.820716 0.003041
-7.249557 -7.182093 -0.567741 705 -0.571328 0.820716 0.003041
-7.249883 -7.182418 -0.564628 707 -0.571328 0.820716 0.003041
-7.250256 -7.182796 -0.561504 695 -0.571328 0.820716 0.003041
-7.250171 -7.182707 -0.558355 691 -0.571328 0.820716 0.003041
-7.249818 -7.182364 -0.555188 689 -0.571328 0.820716 0.003041
-7.249470 -7.182014 -0.552022 689 -0.571328 0.820716 0.003041
-7.249278 -7.181821 -0.548863 691 -0.571328 0.820716 0.003041
-7.249705 -7.182244 -0.545749 699 -0.571328 0.820716 0.003041
-7.250131 -7.182666 -0.542645 699 -0.571328 0.820716 0.003041
-7.250558 -7.183089 -0.539531 691 -0.571328 0.820716 0.003041
-7.251031 -7.183564 -0.536416 691 -0.571328 0.820716 0.003041
-7.250685 -7.183215 -0.533249 693 -0.571328 0.820716 0.003041
-7.250175 -7.182714 -0.530074 673 -0.571328 0.820716 0.003041
-7.250803 -7.183333 -0.526978 689 -0.571328 0.820716 0.003041
-7.251546 -7.184063 -0.523891 689 -0.571328 0.820716 0.003041
-7.251184 -7.183714 -0.520714 691 -0.571328 0.820716 0.003041
-7.250466 -7.182997 -0.517531 689 -0.571328 0.820716 0.003041
-7.250622 -7.183152 -0.514400 689 -0.571328 0.820716 0.003041
-7.251088 -7.183620 -0.511285 701 -0.571328 0.820716 0.003041
-7.251204 -7.183728 -0.508154 705 -0.571328 0.820716 0.003041
-7.251051 -7.183582 -0.504995 699 -0.571328 0.820716 0.003041
-7.250789 -7.183317 -0.501838 691 -0.571328 0.820716 0.003041
-7.251518 -7.184048 -0.498751 699 -0.571328 0.820716 0.003041
-7.251627 -7.184149 -0.495609 715 -0.571328 0.820716 0.003041
-7.250793 -7.183321 -0.492417 705 -0.571328 0.820716 0.003041
-7.251212 -7.183737 -0.489303 701 -0.571328 0.820716 0.003041
-7.251995 -7.184514 -0.486216 699 -0.571328 0.820716 0.003041
-7.251315 -7.183843 -0.483022 685 -0.571328 0.820716 0.003041
-7.250744 -7.183278 -0.479848 695 -0.571328 0.820716 0.003041
-7.250737 -7.183268 -0.476708 685 -0.571328 0.820716 0.003041
-7.250993 -7.183520 -0.473585 691 -0.571328 0.820716 0.003041
-7.251660 -7.184185 -0.470479 693 -0.571328 0.820716 0.003041
-7.251917 -7.184438 -0.467356 689 -0.571328 0.820716 0.003041
-7.251021 -7.183558 -0.464165 679 -0.571328 0.820716 0.003041
-7.250915 -7.183451 -0.461016 681 -0.571328 0.820716 0.003041
-7.251695 -7.184212 -0.457918 671 -0.571328 0.820716 0.003041
-7.251783 -7.184309 -0.454787 671 -0.571328 0.820716 0.003041
-7.251629 -7.184148 -0.451638 665 -0.571328 0.820716 0.003041
-7.252396 -7.184911 -0.448541 673 -0.571328 0.820716 0.003041
-7.252645 -7.185157 -0.445418 675 -0.571328 0.820716 0.003041
-7.252112 -7.184638 -0.442243 679 -0.571328 0.820716 0.003041
-7.251735 -7.184262 -0.439077 665 -0.571328 0.820716 0.003041
-7.251721 -7.184246 -0.435937 665 -0.571328 0.820716 0.003041
-7.251714 -7.184236 -0.432797 663 -0.571328 0.820716 0.003041
-7.251282 -7.183815 -0.429631 673 -0.571328 0.820716 0.003041
-7.251895 -7.184421 -0.426525 683 -0.571328 0.820716 0.003041
-7.252197 -7.184711 -0.423402 685 -0.571328 0.820716 0.003041
-7.251913 -7.184441 -0.420255 677 -0.571328 0.820716 0.003041
-7.251588 -7.184110 -0.417088 673 -0.571328 0.820716 0.003041
-7.251776 -7.184305 -0.413966 669 -0.571328 0.820716 0.003041
-7.251815 -7.184333 -0.410826 671 -0.571328 0.820716 0.003041
-7.252211 -7.184731 -0.407712 677 -0.571328 0.820716 0.003041
-7.252978 -7.185493 -0.404604 673 -0.571328 0.820716 0.003041
-7.251858 -7.184385 -0.401405 673 -0.571328 0.820716 0.003041
-7.251163 -7.183687 -0.398232 669 -0.571328 0.820716 0.003041
-7.252293 -7.184811 -0.395151 677 -0.571328 0.820716 0.003041
-7.252627 -7.185142 -0.392027 683 -0.571328 0.820716 0.003041
-7.252613 -7.185125 -0.388887 677 -0.571328 0.820716 0.003041
-7.252537 -7.185058 -0.385748 675 -0.571328 0.820716 0.003041
-7.252253 -7.184773 -0.382591 671 -0.571328 0.820716 0.003041
-7.252695 -7.185209 -0.379476 677 -0.571328 0.820716 0.003041
-7.252672 -7.185186 -0.376337 669 -0.571328 0.820716 0.003041
-7.252589 -7.185112 -0.373197 667 -0.571328 0.820716 0.003041
-7.253347 -7.185855 -0.370090 663 -0.571328 0.820716 0.003041
-7.253009 -7.185525 -0.366933 667 -0.571328 0.820716 0.003041
-7.252305 -7.184821 -0.363760 669 -0.571328 0.820716 0.003041
-7.252903 -7.185414 -0.360654 677 -0.571328 0.820716 0.003041
-7.252765 -7.185281 -0.357505 673 -0.571328 0.820716 0.003041
-7.253153 -7.185671 -0.354381 677 -0.571328 0.820716 0.003041
-7.253379 -7.185897 -0.351259 663 -0.571328 0.820716 0.003041
-7.253255 -7.185762 -0.348110 657 -0.571328 0.820716 0.003041
-7.253219 -7.185728 -0.344971 653 -0.571328 0.820716 0.003041
-7.253128 -7.185647 -0.341831 657 -0.571328 0.820716 0.003041
-7.253359 -7.185865 -0.338699 657 -0.571328 0.820716 0.003041
-7.253532 -7.186047 -0.335567 663 -0.571328 0.820716 0.003041
-7.253232 -7.185750 -0.332420 663 -0.571328 0.820716 0.003041
-7.252892 -7.185406 -0.329263 655 -0.571328 0.820716 0.003041
-7.253165 -7.185685 -0.326141 649 -0.571328 0.820716 0.003041
-7.253080 -7.185597 -0.323001 645 -0.571328 0.820716 0.003041
-7.252834 -7.185345 -0.319844 641 -0.571328 0.820716 0.003041
-7.252898 -7.185421 -0.316713 641 -0.571328 0.820716 0.003041
-7.252697 -7.185222 -0.313565 653 -0.571328 0.820716 0.003041
-7.252095 -7.184616 -0.310401 649 -0.571328 0.820716 0.003041
-7.252468 -7.184993 -0.307277 639 -0.571328 0.820716 0.003041
-7.253514 -7.186031 -0.304187 635 -0.571328 0.820716 0.003041
-7.253638 -7.186146 -0.301055 635 -0.571328 0.820716 0.003041
-7.264306 -7.192224 -0.669504 693 -0.571328 0.820716 0.003041
-7.264238 -7.192163 -0.666355 697 -0.571328 0.820716 0.003041
-7.264324 -7.192245 -0.663204 697 -0.571328 0.820716 0.003041
-7.264148 -7.192079 -0.660035 701 -0.571328 0.820716 0.003041
-7.264450 -7.192369 -0.656912 707 -0.571328 0.820716 0.003041
-7.264127 -7.192053 -0.653735 689 -0.571328 0.820716 0.003041
-7.263958 -7.191879 -0.650567 681 -0.571328 0.820716 0.003041
-7.264246 -7.192172 -0.647444 675 -0.571328 0.820716 0.003041
-7.264076 -7.191998 -0.644276 671 -0.571328 0.820716 0.003041
-7.263528 -7.191465 -0.641081 675 -0.571328 0.820716 0.003041
-7.263668 -7.191592 -0.637940 671 -0.571328 0.820716 0.003041
-7.264381 -7.192297 -0.634843 669 -0.571328 0.820716 0.003041
-7.264305 -7.192229 -0.631693 675 -0.571328 0.820716 0.003041
-7.264438 -7.192363 -0.628552 675 -0.571328 0.820716 0.003041
-7.264672 -7.192596 -0.625419 683 -0.571328 0.820716 0.003041
-7.265114 -7.193032 -0.622305 695 -0.571328 0.820716 0.003041
-7.265200 -7.193114 -0.619164 695 -0.571328 0.820716 0.003041
-7.264861 -7.192784 -0.615987 697 -0.571328 0.820716 0.003041
-7.264893 -7.192807 -0.612837 697 -0.571328 0.820716 0.003041
-7.265126 -7.193040 -0.609705 701 -0.571328 0.820716 0.003041
-7.264780 -7.192704 -0.606528 693 -0.571328 0.820716 0.003041
-7.264757 -7.192681 -0.603378 683 -0.571328 0.820716 0.003041
-7.265100 -7.193019 -0.600255 679 -0.571328 0.820716 0.003041
-7.265069 -7.192990 -0.597095 679 -0.571328 0.820716 0.003041
-7.265248 -7.193163 -0.593963 691 -0.571328 0.820716 0.003041
-7.265837 -7.193749 -0.590857 695 -0.571328 0.820716 0.003041
-7.266224 -7.194126 -0.587744 699 -0.571328 0.820716 0.003041
-7.266242 -7.194149 -0.584593 695 -0.571328 0.820716 0.003041
-7.266212 -7.194121 -0.581443 691 -0.571328 0.820716 0.003041
-7.266236 -7.194137 -0.578293 687 -0.571328 0.820716 0.003041
-7.266145 -7.194056 -0.575134 701 -0.571328 0.820716 0.003041
-7.266161 -7.194066 -0.571984 699 -0.571328 0.820716 0.003041
-7.266340 -7.194239 -0.568852 687 -0.571328 0.820716 0.003041
-7.265623 -7.193537 -0.565649 699 -0.571328 0.820716 0.003041
-7.265538 -7.193448 -0.562490 695 -0.571328 0.820716 0.003041
-7.266019 -7.193930 -0.559375 689 -0.571328 0.820716 0.003041
-7.265935 -7.193842 -0.556226 699 -0.571328 0.820716 0.003041
-7.265271 -7.193184 -0.553022 697 -0.571328 0.820716 0.003041
-7.265126 -7.193044 -0.549863 689 -0.571328 0.820716 0.003041
-7.265721 -7.193623 -0.546758 691 -0.571328 0.820716 0.003041
-7.266350 -7.194256 -0.543661 697 -0.571328 0.820716 0.003041
-7.266096 -7.193997 -0.540494 703 -0.571328 0.820716 0.003041
-7.266206 -7.194113 -0.537353 705 -0.571328 0.820716 0.003041
-7.266532 -7.194437 -0.534229 701 -0.571328 0.820716 0.003041
-7.266587 -7.194493 -0.531079 693 -0.571328 0.820716 0.003041
-7.266240 -7.194142 -0.527912 687 -0.571328 0.820716 0.003041
-7.266140 -7.194041 -0.524753 701 -0.571328 0.820716 0.003041
-7.266566 -7.194464 -0.521639 701 -0.571328 0.820716 0.003041
-7.266522 -7.194423 -0.518489 689 -0.571328 0.820716 0.003041
-7.266624 -7.194531 -0.515348 689 -0.571328 0.820716 0.003041
-7.265797 -7.193709 -0.512136 687 -0.571328 0.820716 0.003041
-7.266116 -7.194027 -0.509013 687 -0.571328 0.820716 0.003041
-7.267107 -7.195007 -0.505933 681 -0.571328 0.820716 0.003041
-7.267116 -7.195010 -0.502783 687 -0.571328 0.820716 0.003041
-7.267218 -7.195119 -0.499642 697 -0.571328 0.820716 0.003041
-7.266553 -7.194448 -0.496448 695 -0.571328 0.820716 0.003041
-7.265765 -7.193672 -0.493256 699 -0.571328 0.820716 0.003041
-7.265713 -7.193624 -0.490106 687 -0.571328 0.820716 0.003041
-7.266185 -7.194086 -0.486992 677 -0.571328 0.820716 0.003041
-7.266590 -7.194489 -0.483868 689 -0.571328 0.820716 0.003041
-7.266800 -7.194702 -0.480735 685 -0.571328 0.820716 0.003041
-7.267056 -7.194955 -0.477603 683 -0.571328 0.820716 0.003041
-7.267313 -7.195207 -0.474470 685 -0.571328 0.820716 0.003041
-7.268250 -7.196126 -0.471381 685 -0.571328 0.820716 0.003041
-7.268552 -7.196432 -0.468258 687 -0.571328 0.820716 0.003041
-7.266829 -7.194734 -0.465005 683 -0.571328 0.820716 0.003041
-7.266304 -7.194206 -0.461820 667 -0.571328 0.820716 0.003041
-7.267179 -7.195074 -0.458731 675 -0.571328 0.820716 0.003041
-7.267119 -7.195019 -0.455582 671 -0.571328 0.820716 0.003041
-7.267065 -7.194957 -0.452432 667 -0.571328 0.820716 0.003041
-7.267261 -7.195158 -0.449300 667 -0.571328 0.820716 0.003041
-7.267509 -7.195404 -0.446168 663 -0.571328 0.820716 0.003041
-7.267657 -7.195551 -0.443026 659 -0.571328 0.820716 0.003041
-7.267435 -7.195332 -0.439868 651 -0.571328 0.820716 0.003041
-7.267319 -7.195219 -0.436719 655 -0.571328 0.820716 0.003041
-7.266686 -7.194586 -0.433535 651 -0.571328 0.820716 0.003041
-7.266726 -7.194630 -0.430385 661 -0.571328 0.820716 0.003041
-7.267594 -7.195491 -0.427297 667 -0.571328 0.820716 0.003041
-7.268360 -7.196240 -0.424189 665 -0.571328 0.820716 0.003041
-7.268037 -7.195923 -0.421022 667 -0.571328 0.820716 0.003041
-7.267033 -7.194926 -0.417822 663 -0.571328 0.820716 0.003041
-7.266701 -7.194602 -0.414665 653 -0.571328 0.820716 0.003041
-7.267205 -7.195104 -0.411540 661 -0.571328 0.820716 0.003041
-7.267702 -7.195599 -0.408425 663 -0.571328 0.820716 0.003041
-7.268414 -7.196302 -0.405318 669 -0.571328 0.820716 0.003041
-7.268817 -7.196692 -0.402194 661 -0.571328 0.820716 0.003041
-7.268270 -7.196159 -0.399019 663 -0.571328 0.820716 0.003041
-7.267992 -7.195881 -0.395862 677 -0.571328 0.820716 0.003041
-7.268126 -7.196016 -0.392721 675 -0.571328 0.820716 0.003041
-7.268157 -7.196038 -0.389580 673 -0.571328 0.820716 0.003041
-7.268290 -7.196174 -0.386439 677 -0.571328 0.820716 0.003041
-7.267850 -7.195745 -0.383273 669 -0.571328 0.820716 0.003041
-7.267457 -7.195356 -0.380107 681 -0.571328 0.820716 0.003041
-7.267907 -7.195798 -0.376982 669 -0.571328 0.820716 0.003041
-7.268713 -7.196594 -0.373874 671 -0.571328 0.820716 0.003041
-7.268738 -7.196624 -0.370734 665 -0.571328 0.820716 0.003041
-7.268142 -7.196025 -0.367560 671 -0.571328 0.820716 0.003041
-7.268067 -7.195957 -0.364410 675 -0.571328 0.820716 0.003041
-7.267982 -7.195868 -0.361261 667 -0.571328 0.820716 0.003041
-7.268316 -7.196199 -0.358138 673 -0.571328 0.820716 0.003041
-7.268186 -7.196073 -0.354989 665 -0.571328 0.820716 0.003041
-7.267832 -7.195730 -0.351822 657 -0.571328 0.820716 0.003041
-7.268072 -7.195955 -0.348690 645 -0.571328 0.820716 0.003041
-7.268353 -7.196241 -0.345557 649 -0.571328 0.820716 0.003041
-7.267951 -7.195845 -0.342401 637 -0.571328 0.820716 0.003041
-7.267720 -7.195606 -0.339243 647 -0.571328 0.820716 0.003041
-7.268249 -7.196141 -0.336118 641 -0.571328 0.820716 0.003041
-7.269154 -7.197034 -0.333019 645 -0.571328 0.820716 0.003041
-7.269433 -7.197306 -0.329887 649 -0.571328 0.820716 0.003041
-7.268716 -7.196604 -0.326713 641 -0.571328 0.820716 0.003041
-7.268577 -7.196456 -0.323565 639 -0.571328 0.820716 0.003041
-7.268594 -7.196479 -0.320414 647 -0.571328 0.820716 0.003041
-7.269068 -7.196955 -0.317290 639 -0.571328 0.820716 0.003041
-7.269556 -7.197430 -0.314165 655 -0.571328 0.820716 0.003041
-7.267740 -7.195641 -0.310952 647 -0.571328 0.820716 0.003041
-7.268228 -7.196115 -0.307828 637 -0.571328 0.820716 0.003041
-7.269436 -7.197317 -0.304736 637 -0.571328 0.820716 0.003041
-7.269188 -7.197064 -0.301578 649 -0.571328 0.820716 0.003041
-7.279465 -7.202743 -0.667511 687 -0.571328 0.820716 0.003041
-7.279181 -7.202472 -0.664333 677 -0.571328 0.820716 0.003041
-7.279592 -7.202868 -0.661209 687 -0.571328 0.820716 0.003041
-7.279624 -7.202904 -0.658059 683 -0.571328 0.820716 0.003041
-7.279765 -7.203046 -0.654907 675 -0.571328 0.820716 0.003041
-7.280059 -7.203330 -0.651774 673 -0.571328 0.820716 0.003041
-7.279419 -7.202706 -0.648570 665 -0.571328 0.820716 0.003041
-7.278367 -7.201655 -0.645321 661 -0.571328 0.820716 0.003041
-7.279174 -7.202465 -0.642233 657 -0.571328 0.820716 0.003041
-7.279416 -7.202704 -0.639100 667 -0.571328 0.820716 0.003041
-7.278975 -7.202262 -0.635905 661 -0.571328 0.820716 0.003041
-7.279424 -7.202704 -0.632780 669 -0.571328 0.820716 0.003041
-7.280239 -7.203520 -0.629692 675 -0.571328 0.820716 0.003041
-7.280378 -7.203647 -0.626551 673 -0.571328 0.820716 0.003041
-7.280612 -7.203880 -0.623408 669 -0.571328 0.820716 0.003041
-7.281100 -7.204368 -0.620294 669 -0.571328 0.820716 0.003041
-7.280506 -7.203784 -0.617089 667 -0.571328 0.820716 0.003041
-7.281002 -7.204264 -0.613974 669 -0.571328 0.820716 0.003041
-7.281034 -7.204300 -0.610824 669 -0.571328 0.820716 0.003041
-7.279395 -7.202673 -0.607530 659 -0.571328 0.820716 0.003041
-7.279419 -7.202704 -0.604379 665 -0.571328 0.820716 0.003041
-7.279970 -7.203245 -0.601264 667 -0.571328 0.820716 0.003041
-7.279469 -7.202751 -0.598069 669 -0.571328 0.820716 0.003041
-7.280313 -7.203592 -0.594981 669 -0.571328 0.820716 0.003041
-7.280283 -7.203563 -0.591831 677 -0.571328 0.820716 0.003041
-7.280098 -7.203377 -0.588663 687 -0.571328 0.820716 0.003041
-7.280069 -7.203348 -0.585503 685 -0.571328 0.820716 0.003041
-7.279157 -7.202442 -0.582272 679 -0.571328 0.820716 0.003041
-7.280318 -7.203591 -0.579210 681 -0.571328 0.820716 0.003041
-7.281171 -7.204439 -0.576122 689 -0.571328 0.820716 0.003041
-7.281241 -7.204508 -0.572971 685 -0.571328 0.820716 0.003041
-7.281002 -7.204262 -0.569793 675 -0.571328 0.820716 0.003041
-7.280648 -7.203919 -0.566617 679 -0.571328 0.820716 0.003041
-7.281082 -7.204349 -0.563492 689 -0.571328 0.820716 0.003041
-7.281045 -7.204313 -0.560333 693 -0.571328 0.820716 0.003041
-7.280543 -7.203819 -0.557148 687 -0.571328 0.820716 0.003041
-7.280962 -7.204235 -0.554023 691 -0.571328 0.820716 0.003041
-7.281195 -7.204454 -0.550881 695 -0.571328 0.820716 0.003041
-7.280685 -7.203954 -0.547696 691 -0.571328 0.820716 0.003041
-7.279968 -7.203251 -0.544483 687 -0.571328 0.820716 0.003041
-7.280193 -7.203464 -0.541351 703 -0.571328 0.820716 0.003041
-7.280929 -7.204201 -0.538253 697 -0.571328 0.820716 0.003041
-7.280622 -7.203897 -0.535076 689 -0.571328 0.820716 0.003041
-7.280893 -7.204163 -0.531944 681 -0.571328 0.820716 0.003041
-7.281320 -7.204585 -0.528819 687 -0.571328 0.820716 0.003041
-7.281894 -7.205158 -0.525704 689 -0.571328 0.820716 0.003041
-7.281802 -7.205064 -0.522545 697 -0.571328 0.820716 0.003041
-7.281029 -7.204301 -0.519332 681 -0.571328 0.820716 0.003041
-7.280983 -7.204246 -0.516182 667 -0.571328 0.820716 0.003041
-7.281194 -7.204459 -0.513040 659 -0.571328 0.820716 0.003041
-7.281304 -7.204574 -0.509899 667 -0.571328 0.820716 0.003041
-7.281042 -7.204309 -0.506721 659 -0.571328 0.820716 0.003041
-7.281205 -7.204469 -0.503580 675 -0.571328 0.820716 0.003041
-7.281113 -7.204375 -0.500421 677 -0.571328 0.820716 0.003041
-7.281362 -7.204621 -0.497288 675 -0.571328 0.820716 0.003041
-7.281620 -7.204887 -0.494156 661 -0.571328 0.820716 0.003041
-7.282300 -7.205551 -0.491039 663 -0.571328 0.820716 0.003041
-7.281736 -7.204991 -0.487854 665 -0.571328 0.820716 0.003041
-7.280477 -7.203752 -0.484616 665 -0.571328 0.820716 0.003041
-7.280842 -7.204109 -0.481493 659 -0.571328 0.820716 0.003041
-7.281462 -7.204720 -0.478377 655 -0.571328 0.820716 0.003041
-7.282136 -7.205392 -0.475270 663 -0.571328 0.820716 0.003041
-7.282238 -7.205487 -0.472119 659 -0.571328 0.820716 0.003041
-7.281666 -7.204922 -0.468935 657 -0.571328 0.820716 0.003041
-7.282442 -7.205691 -0.465827 657 -0.571328 0.820716 0.003041
-7.282582 -7.205833 -0.462686 663 -0.571328 0.820716 0.003041
-7.282274 -7.205529 -0.459518 655 -0.571328 0.820716 0.003041
-7.282206 -7.205467 -0.456359 639 -0.571328 0.820716 0.003041
-7.282152 -7.205404 -0.453200 633 -0.571328 0.820716 0.003041
-7.282401 -7.205650 -0.450067 643 -0.571328 0.820716 0.003041
-7.282704 -7.205956 -0.446934 629 -0.571328 0.820716 0.003041
-7.282063 -7.205317 -0.443740 617 -0.571328 0.820716 0.003041
-7.282258 -7.205518 -0.440608 603 -0.571328 0.820716 0.003041
-7.282467 -7.205718 -0.437466 601 -0.571328 0.820716 0.003041
-7.281928 -7.205192 -0.434281 619 -0.571328 0.820716 0.003041
-7.281503 -7.204762 -0.431105 637 -0.571328 0.820716 0.003041
-7.281064 -7.204334 -0.427929 639 -0.571328 0.820716 0.003041
-7.281784 -7.205045 -0.424822 641 -0.571328 0.820716 0.003041
-7.282759 -7.206011 -0.421723 635 -0.571328 0.820716 0.003041
-7.282892 -7.206145 -0.418581 639 -0.571328 0.820716 0.003041
-7.282987 -7.206234 -0.415431 645 -0.571328 0.820716 0.003041
-7.282709 -7.205956 -0.412263 649 -0.571328 0.820716 0.003041
-7.282014 -7.205273 -0.409080 655 -0.571328 0.820716 0.003041
-7.282672 -7.205917 -0.405963 653 -0.571328 0.820716 0.003041
-7.282914 -7.206157 -0.402821 651 -0.571328 0.820716 0.003041
-7.283053 -7.206297 -0.399680 645 -0.571328 0.820716 0.003041
-7.283496 -7.206734 -0.396555 641 -0.571328 0.820716 0.003041
-7.282801 -7.206049 -0.393362 649 -0.571328 0.820716 0.003041
-7.282315 -7.205569 -0.390186 661 -0.571328 0.820716 0.003041
-7.282912 -7.206162 -0.387071 647 -0.571328 0.820716 0.003041
-7.283246 -7.206493 -0.383937 649 -0.571328 0.820716 0.003041
-7.281978 -7.205233 -0.380720 641 -0.571328 0.820716 0.003041
-7.282064 -7.205315 -0.377579 647 -0.571328 0.820716 0.003041
-7.282863 -7.206118 -0.374471 659 -0.571328 0.820716 0.003041
-7.282949 -7.206200 -0.371320 655 -0.571328 0.820716 0.003041
-7.283491 -7.206734 -0.368195 653 -0.571328 0.820716 0.003041
-7.283307 -7.206547 -0.365036 647 -0.571328 0.820716 0.003041
-7.283115 -7.206368 -0.361878 647 -0.571328 0.820716 0.003041
-7.283093 -7.206346 -0.358728 645 -0.571328 0.820716 0.003041
-7.282753 -7.206002 -0.355561 643 -0.571328 0.820716 0.003041
-7.282932 -7.206175 -0.352420 647 -0.571328 0.820716 0.003041
-7.282794 -7.206041 -0.349261 637 -0.571328 0.820716 0.003041
-7.282865 -7.206111 -0.346120 629 -0.571328 0.820716 0.003041
-7.282635 -7.205886 -0.342962 627 -0.571328 0.820716 0.003041
-7.283007 -7.206263 -0.339829 623 -0.571328 0.820716 0.003041
-7.283495 -7.206737 -0.336694 623 -0.571328 0.820716 0.003041
-7.283358 -7.206604 -0.333545 619 -0.571328 0.820716 0.003041
-7.283584 -7.206831 -0.330403 625 -0.571328 0.820716 0.003041
-7.283754 -7.206997 -0.327261 623 -0.571328 0.820716 0.003041
-7.283717 -7.206962 -0.324111 635 -0.571328 0.820716 0.003041
-7.283841 -7.207076 -0.320960 637 -0.571328 0.820716 0.003041
-7.283596 -7.206838 -0.317802 635 -0.571328 0.820716 0.003041
-7.283295 -7.206540 -0.314645 627 -0.571328 0.820716 0.003041
-7.284140 -7.207382 -0.311527 633 -0.571328 0.820716 0.003041
-7.284566 -7.207805 -0.308393 629 -0.571328 0.820716 0.003041
-7.284366 -7.207605 -0.305235 631 -0.571328 0.820716 0.003041
-7.284491 -7.207720 -0.302093 627 -0.571328 0.820716 0.003041
-7.294863 -7.213571 -0.668694 663 -0.571328 0.820716 0.003041
-7.294531 -7.213247 -0.665508 655 -0.571328 0.820716 0.003041
-7.294462 -7.213172 -0.662338 649 -0.571328 0.820716 0.003041
-7.294456 -7.213162 -0.659168 645 -0.571328 0.820716 0.003041
-7.294960 -7.213664 -0.656053 651 -0.571328 0.820716 0.003041
-7.295712 -7.214414 -0.652956 647 -0.571328 0.820716 0.003041
-7.295752 -7.214458 -0.649795 639 -0.571328 0.820716 0.003041
-7.295003 -7.213715 -0.646573 643 -0.571328 0.820716 0.003041
-7.294685 -7.213390 -0.643376 639 -0.571328 0.820716 0.003041
-7.295074 -7.213780 -0.640252 647 -0.571328 0.820716 0.003041
-7.295679 -7.214380 -0.637136 651 -0.571328 0.820716 0.003041
-7.295501 -7.214199 -0.633958 647 -0.571328 0.820716 0.003041
-7.295278 -7.213980 -0.630780 649 -0.571328 0.820716 0.003041
-7.295148 -7.213853 -0.627611 641 -0.571328 0.820716 0.003041
-7.295744 -7.214447 -0.624495 643 -0.571328 0.820716 0.003041
-7.296148 -7.214836 -0.621361 649 -0.571328 0.820716 0.003041
-7.295856 -7.214559 -0.618184 639 -0.571328 0.820716 0.003041
-7.295934 -7.214633 -0.615023 639 -0.571328 0.820716 0.003041
-7.295493 -7.214192 -0.611827 639 -0.571328 0.820716 0.003041
-7.295000 -7.213705 -0.608622 637 -0.571328 0.820716 0.003041
-7.295550 -7.214245 -0.605506 649 -0.571328 0.820716 0.003041
-7.295830 -7.214530 -0.602374 637 -0.571328 0.820716 0.003041
-7.295134 -7.213833 -0.599150 649 -0.571328 0.820716 0.003041
-7.295414 -7.214118 -0.596017 655 -0.571328 0.820716 0.003041
-7.296422 -7.215111 -0.592928 657 -0.571328 0.820716 0.003041
-7.296607 -7.215290 -0.589786 659 -0.571328 0.820716 0.003041
-7.296308 -7.215007 -0.586599 655 -0.571328 0.820716 0.003041
-7.295760 -7.214460 -0.583394 659 -0.571328 0.820716 0.003041
-7.295567 -7.214267 -0.580226 657 -0.571328 0.820716 0.003041
-7.296520 -7.215214 -0.577136 661 -0.571328 0.820716 0.003041
-7.296288 -7.214974 -0.573959 659 -0.571328 0.820716 0.003041
-7.295315 -7.214016 -0.570718 651 -0.571328 0.820716 0.003041
-7.295433 -7.214138 -0.567567 647 -0.571328 0.820716 0.003041
-7.296029 -7.214716 -0.564451 649 -0.571328 0.820716 0.003041
-7.295991 -7.214681 -0.561291 659 -0.571328 0.820716 0.003041
-7.296364 -7.215058 -0.558157 649 -0.571328 0.820716 0.003041
-7.296582 -7.215278 -0.555015 647 -0.571328 0.820716 0.003041
-7.296027 -7.214725 -0.551811 647 -0.571328 0.820716 0.003041
-7.296190 -7.214886 -0.548669 643 -0.571328 0.820716 0.003041
-7.296052 -7.214752 -0.545500 649 -0.571328 0.820716 0.003041
-7.296216 -7.214913 -0.542348 649 -0.571328 0.820716 0.003041
-7.296132 -7.214825 -0.539179 653 -0.571328 0.820716 0.003041
-7.295877 -7.214580 -0.536002 659 -0.571328 0.820716 0.003041
-7.296149 -7.214845 -0.532869 653 -0.571328 0.820716 0.003041
-7.295686 -7.214384 -0.529673 653 -0.571328 0.820716 0.003041
-7.296685 -7.215369 -0.526584 655 -0.571328 0.820716 0.003041
-7.297319 -7.215994 -0.523467 653 -0.571328 0.820716 0.003041
-7.296439 -7.215127 -0.520246 647 -0.571328 0.820716 0.003041
-7.296394 -7.215086 -0.517086 637 -0.571328 0.820716 0.003041
-7.297022 -7.215704 -0.513970 627 -0.571328 0.820716 0.003041
-7.296613 -7.215302 -0.510784 635 -0.571328 0.820716 0.003041
-7.296250 -7.214939 -0.507597 619 -0.571328 0.820716 0.003041
-7.296825 -7.215512 -0.504482 619 -0.571328 0.820716 0.003041
-7.297399 -7.216086 -0.501366 633 -0.571328 0.820716 0.003041
-7.297352 -7.216029 -0.498196 641 -0.571328 0.820716 0.003041
-7.297347 -7.216034 -0.495036 643 -0.571328 0.820716 0.003041
-7.297503 -7.216188 -0.491895 639 -0.571328 0.820716 0.003041
-7.297356 -7.216034 -0.488726 635 -0.571328 0.820716 0.003041
-7.296677 -7.215364 -0.485523 645 -0.571328 0.820716 0.003041
-7.296871 -7.215564 -0.482381 645 -0.571328 0.820716 0.003041
-7.297661 -7.216333 -0.479273 643 -0.571328 0.820716 0.003041
-7.297345 -7.216022 -0.476086 639 -0.571328 0.820716 0.003041
-7.296658 -7.215345 -0.472893 635 -0.571328 0.820716 0.003041
-7.296713 -7.215401 -0.469732 631 -0.571328 0.820716 0.003041
-7.297481 -7.216165 -0.466624 623 -0.571328 0.820716 0.003041
-7.298054 -7.216724 -0.463499 619 -0.571328 0.820716 0.003041
-7.297474 -7.216151 -0.460304 625 -0.571328 0.820716 0.003041
-7.297051 -7.215737 -0.457128 629 -0.571328 0.820716 0.003041
-7.297717 -7.216388 -0.454012 617 -0.571328 0.820716 0.003041
-7.298075 -7.216752 -0.450868 605 -0.571328 0.820716 0.003041
-7.297340 -7.216022 -0.447675 589 -0.571328 0.820716 0.003041
-7.297117 -7.215803 -0.444497 591 -0.571328 0.820716 0.003041
-7.297622 -7.216304 -0.441372 605 -0.571328 0.820716 0.003041
-7.297399 -7.216085 -0.438205 609 -0.571328 0.820716 0.003041
-7.297964 -7.216639 -0.435079 605 -0.571328 0.820716 0.003041
-7.298004 -7.216682 -0.431919 623 -0.571328 0.820716 0.003041
-7.297215 -7.215892 -0.428716 623 -0.571328 0.820716 0.003041
-7.296999 -7.215680 -0.425548 623 -0.571328 0.820716 0.003041
-7.297388 -7.216071 -0.422414 627 -0.571328 0.820716 0.003041
-7.298255 -7.216932 -0.419306 631 -0.571328 0.820716 0.003041
-7.297359 -7.216038 -0.416104 629 -0.571328 0.820716 0.003041
-7.297244 -7.215924 -0.412935 623 -0.571328 0.820716 0.003041
-7.297896 -7.216576 -0.409819 627 -0.571328 0.820716 0.003041
-7.297726 -7.216402 -0.406651 631 -0.571328 0.820716 0.003041
-7.297496 -7.216177 -0.403483 627 -0.571328 0.820716 0.003041
-7.297528 -7.216214 -0.400332 621 -0.571328 0.820716 0.003041
-7.297770 -7.216454 -0.397190 627 -0.571328 0.820716 0.003041
-7.298736 -7.217399 -0.394081 631 -0.571328 0.820716 0.003041
-7.298978 -7.217638 -0.390938 637 -0.571328 0.820716 0.003041
-7.298639 -7.217308 -0.387761 633 -0.571328 0.820716 0.003041
-7.298105 -7.216774 -0.384576 623 -0.571328 0.820716 0.003041
-7.297759 -7.216438 -0.381410 619 -0.571328 0.820716 0.003041
-7.298881 -7.217541 -0.378309 627 -0.571328 0.820716 0.003041
-7.299169 -7.217833 -0.375166 625 -0.571328 0.820716 0.003041
-7.298312 -7.216986 -0.371964 637 -0.571328 0.820716 0.003041
-7.298182 -7.216859 -0.368805 631 -0.571328 0.820716 0.003041
-7.298468 -7.217136 -0.365663 637 -0.571328 0.820716 0.003041
-7.298586 -7.217259 -0.362511 639 -0.571328 0.820716 0.003041
-7.298300 -7.216974 -0.359344 637 -0.571328 0.820716 0.003041
-7.297490 -7.216166 -0.356152 625 -0.571328 0.820716 0.003041
-7.297831 -7.216503 -0.353008 615 -0.571328 0.820716 0.003041
-7.298003 -7.216684 -0.349857 623 -0.571328 0.820716 0.003041
-7.298081 -7.216759 -0.346706 621 -0.571328 0.820716 0.003041
-7.298717 -7.217385 -0.343580 625 -0.571328 0.820716 0.003041
-7.298168 -7.216838 -0.340405 621 -0.571328 0.820716 0.003041
-7.297667 -7.216344 -0.337230 617 -0.571328 0.820716 0.003041
-7.298365 -7.217036 -0.334103 619 -0.571328 0.820716 0.003041
-7.298481 -7.217157 -0.330952 627 -0.571328 0.820716 0.003041
-7.298290 -7.216965 -0.327783 617 -0.571328 0.820716 0.003041
-7.298771 -7.217446 -0.324648 615 -0.571328 0.820716 0.003041
-7.298894 -7.217561 -0.321507 605 -0.571328 0.820716 0.003041
-7.298858 -7.217525 -0.318348 607 -0.571328 0.820716 0.003041
-7.298820 -7.217490 -0.315188 603 -0.571328 0.820716 0.003041
-7.299247 -7.217912 -0.312054 595 -0.571328 0.820716 0.003041
-7.298630 -7.217308 -0.308870 605 -0.571328 0.820716 0.003041
-7.297918 -7.216597 -0.305686 607 -0.571328 0.820716 0.003041
-7.298298 -7.216967 -0.302553 611 -0.571328 0.820716 0.003041
-7.298353 -7.217022 -0.299402 615 -0.571328 0.820716 0.003041
-7.310499 -7.224458 -0.669897 629 -0.571328 0.820716 0.003041
-7.309502 -7.223466 -0.666637 623 -0.571328 0.820716 0.003041
-7.309534 -7.223503 -0.663466 615 -0.571328 0.820716 0.003041
-7.310246 -7.224206 -0.660369 617 -0.571328 0.820716 0.003041
-7.309923 -7.223890 -0.657172 617 -0.571328 0.820716 0.003041
-7.309490 -7.223454 -0.653956 615 -0.571328 0.820716 0.003041
-7.309267 -7.223235 -0.650768 611 -0.571328 0.820716 0.003041
-7.309608 -7.223572 -0.647635 621 -0.571328 0.820716 0.003041
-7.310166 -7.224119 -0.644520 619 -0.571328 0.820716 0.003041
-7.310044 -7.223999 -0.641341 619 -0.571328 0.820716 0.003041
-7.309920 -7.223877 -0.638162 611 -0.571328 0.820716 0.003041
-7.310007 -7.223959 -0.635001 613 -0.571328 0.820716 0.003041
-7.310658 -7.224611 -0.631885 617 -0.571328 0.820716 0.003041
-7.310999 -7.224949 -0.628741 619 -0.571328 0.820716 0.003041
-7.309631 -7.223590 -0.625464 619 -0.571328 0.820716 0.003041
-7.309237 -7.223201 -0.622268 617 -0.571328 0.820716 0.003041
-7.310050 -7.224003 -0.619160 619 -0.571328 0.820716 0.003041
-7.309813 -7.223771 -0.615982 623 -0.571328 0.820716 0.003041
-7.309946 -7.223906 -0.612821 629 -0.571328 0.820716 0.003041
-7.310651 -7.224604 -0.609714 643 -0.571328 0.820716 0.003041
-7.311347 -7.225295 -0.606597 633 -0.571328 0.820716 0.003041
-7.311427 -7.225370 -0.603437 621 -0.571328 0.820716 0.003041
-7.310878 -7.224823 -0.600232 629 -0.571328 0.820716 0.003041
-7.310856 -7.224801 -0.597062 637 -0.571328 0.820716 0.003041
-7.310301 -7.224262 -0.593847 637 -0.571328 0.820716 0.003041
-7.309853 -7.223813 -0.590651 635 -0.571328 0.820716 0.003041
-7.311021 -7.224968 -0.587570 621 -0.571328 0.820716 0.003041
-7.311309 -7.225247 -0.584427 645 -0.571328 0.820716 0.003041
-7.310019 -7.223981 -0.581160 625 -0.571328 0.820716 0.003041
-7.310817 -7.224771 -0.578062 635 -0.571328 0.820716 0.003041
-7.311460 -7.225402 -0.574946 627 -0.571328 0.820716 0.003041
-7.311483 -7.225419 -0.571775 627 -0.571328 0.820716 0.003041
-7.311756 -7.225698 -0.568632 625 -0.571328 0.820716 0.003041
-7.311255 -7.225204 -0.565427 625 -0.571328 0.820716 0.003041
-7.311170 -7.225115 -0.562258 623 -0.571328 0.820716 0.003041
-7.311549 -7.225485 -0.559114 625 -0.571328 0.820716 0.003041
-7.311512 -7.225450 -0.555955 627 -0.571328 0.820716 0.003041
-7.311622 -7.225565 -0.552793 629 -0.571328 0.820716 0.003041
-7.311692 -7.225633 -0.549633 633 -0.571328 0.820716 0.003041
-7.311493 -7.225434 -0.546454 631 -0.571328 0.820716 0.003041
-7.311819 -7.225759 -0.543311 629 -0.571328 0.820716 0.003041
-7.312245 -7.226181 -0.540177 627 -0.571328 0.820716 0.003041
-7.311735 -7.225667 -0.536972 623 -0.571328 0.820716 0.003041
-7.311126 -7.225068 -0.533768 621 -0.571328 0.820716 0.003041
-7.311444 -7.225386 -0.530625 635 -0.571328 0.820716 0.003041
-7.311136 -7.225082 -0.527438 625 -0.571328 0.820716 0.003041
-7.311716 -7.225648 -0.524312 621 -0.571328 0.820716 0.003041
-7.312043 -7.225973 -0.521169 625 -0.571328 0.820716 0.003041
-7.311781 -7.225721 -0.517991 613 -0.571328 0.820716 0.003041
-7.312045 -7.225980 -0.514838 627 -0.571328 0.820716 0.003041
-7.312417 -7.226343 -0.511705 629 -0.571328 0.820716 0.003041
-7.312527 -7.226459 -0.508544 625 -0.571328 0.820716 0.003041
-7.312474 -7.226410 -0.505374 617 -0.571328 0.820716 0.003041
-7.312320 -7.226250 -0.502205 605 -0.571328 0.820716 0.003041
-7.312019 -7.225952 -0.499018 609 -0.571328 0.820716 0.003041
-7.312168 -7.226100 -0.495867 613 -0.571328 0.820716 0.003041
-7.312068 -7.225998 -0.492698 621 -0.571328 0.820716 0.003041
-7.311968 -7.225897 -0.489529 627 -0.571328 0.820716 0.003041
-7.312071 -7.226006 -0.486368 621 -0.571328 0.820716 0.003041
-7.312374 -7.226311 -0.483224 625 -0.571328 0.820716 0.003041
-7.312166 -7.226105 -0.480046 625 -0.571328 0.820716 0.003041
-7.312531 -7.226462 -0.476903 617 -0.571328 0.820716 0.003041
-7.312679 -7.226609 -0.473751 613 -0.571328 0.820716 0.003041
-7.312269 -7.226193 -0.470565 605 -0.571328 0.820716 0.003041
-7.313137 -7.227055 -0.467457 613 -0.571328 0.820716 0.003041
-7.313231 -7.227157 -0.464296 609 -0.571328 0.820716 0.003041
-7.312869 -7.226794 -0.461109 611 -0.571328 0.820716 0.003041
-7.313016 -7.226941 -0.457958 621 -0.571328 0.820716 0.003041
-7.313118 -7.227036 -0.454797 617 -0.571328 0.820716 0.003041
-7.313575 -7.227484 -0.451662 613 -0.571328 0.820716 0.003041
-7.313515 -7.227429 -0.448493 607 -0.571328 0.820716 0.003041
-7.313347 -7.227270 -0.445324 607 -0.571328 0.820716 0.003041
-7.313804 -7.227718 -0.442190 619 -0.571328 0.820716 0.003041
-7.313541 -7.227453 -0.439002 615 -0.571328 0.820716 0.003041
-7.313055 -7.226973 -0.435817 611 -0.571328 0.820716 0.003041
-7.312469 -7.226394 -0.432622 617 -0.571328 0.820716 0.003041
-7.312717 -7.226639 -0.429470 617 -0.571328 0.820716 0.003041
-7.313013 -7.226938 -0.426327 615 -0.571328 0.820716 0.003041
-7.312850 -7.226770 -0.423149 619 -0.571328 0.820716 0.003041
-7.312667 -7.226598 -0.419980 619 -0.571328 0.820716 0.003041
-7.312444 -7.226379 -0.416802 619 -0.571328 0.820716 0.003041
-7.312638 -7.226566 -0.413650 617 -0.571328 0.820716 0.003041
-7.313761 -7.227683 -0.410549 611 -0.571328 0.820716 0.003041
-7.313800 -7.227712 -0.407389 615 -0.571328 0.820716 0.003041
-7.313624 -7.227546 -0.404221 609 -0.571328 0.820716 0.003041
-7.313555 -7.227469 -0.401051 605 -0.571328 0.820716 0.003041
-7.313742 -7.227650 -0.397899 603 -0.571328 0.820716 0.003041
-7.313774 -7.227686 -0.394739 611 -0.571328 0.820716 0.003041
-7.313226 -7.227154 -0.391554 611 -0.571328 0.820716 0.003041
-7.313993 -7.227903 -0.388427 605 -0.571328 0.820716 0.003041
-7.314697 -7.228600 -0.385300 599 -0.571328 0.820716 0.003041
-7.314250 -7.228166 -0.382124 603 -0.571328 0.820716 0.003041
-7.313710 -7.227626 -0.378929 601 -0.571328 0.820716 0.003041
-7.313641 -7.227551 -0.375760 597 -0.571328 0.820716 0.003041
-7.313766 -7.227679 -0.372608 599 -0.571328 0.820716 0.003041
-7.314000 -7.227911 -0.369456 615 -0.571328 0.820716 0.003041
-7.314233 -7.228144 -0.366304 625 -0.571328 0.820716 0.003041
-7.313793 -7.227703 -0.363128 601 -0.571328 0.820716 0.003041
-7.313499 -7.227412 -0.359951 603 -0.571328 0.820716 0.003041
-7.312737 -7.226670 -0.356758 595 -0.571328 0.820716 0.003041
-7.312444 -7.226379 -0.353581 595 -0.571328 0.820716 0.003041
-7.313774 -7.227684 -0.350478 597 -0.571328 0.820716 0.003041
-7.314209 -7.228113 -0.347344 601 -0.571328 0.820716 0.003041
-7.313862 -7.227777 -0.344167 595 -0.571328 0.820716 0.003041
-7.314351 -7.228266 -0.341022 601 -0.571328 0.820716 0.003041
-7.314893 -7.228799 -0.337887 609 -0.571328 0.820716 0.003041
-7.314856 -7.228763 -0.334727 609 -0.571328 0.820716 0.003041
-7.314988 -7.228884 -0.331566 601 -0.571328 0.820716 0.003041
-7.315361 -7.229261 -0.328422 611 -0.571328 0.820716 0.003041
-7.314386 -7.228289 -0.325221 607 -0.571328 0.820716 0.003041
-7.314195 -7.228110 -0.322053 613 -0.571328 0.820716 0.003041
-7.314722 -7.228631 -0.318908 599 -0.571328 0.820716 0.003041
-7.314537 -7.228444 -0.315740 601 -0.571328 0.820716 0.003041
-7.314337 -7.228245 -0.312572 599 -0.571328 0.820716 0.003041
-7.314354 -7.228268 -0.309411 601 -0.571328 0.820716 0.003041
-7.313999 -7.227911 -0.306235 611 -0.571328 0.820716 0.003041
-7.313745 -7.227667 -0.303067 611 -0.571328 0.820716 0.003041
-7.314442 -7.228343 -0.299940 613 -0.571328 0.820716 0.003041
