774
-7.389243 -7.135436 -0.591845 1561 0.604730 0.796430 0.000000
-7.391439 -7.133047 -0.977625 1565 0.604730 0.796430 0.000000
-7.391162 -7.132783 -0.974428 1567 0.604730 0.796430 0.000000
-7.391051 -7.132678 -0.971249 1567 0.604730 0.796430 0.000000
-7.390885 -7.132516 -0.968070 1559 0.604730 0.796430 0.000000
-7.390559 -7.132200 -0.964873 1559 0.604730 0.796430 0.000000
-7.390338 -7.131994 -0.961685 1559 0.604730 0.796430 0.000000
-7.390650 -7.132291 -0.958542 1563 0.604730 0.796430 0.000000
-7.391425 -7.133034 -0.955445 1569 0.604730 0.796430 0.000000
-7.391306 -7.132923 -0.952266 1563 0.604730 0.796430 0.000000
-7.390869 -7.132506 -0.949060 1563 0.604730 0.796430 0.000000
-7.391069 -7.132701 -0.945918 1563 0.604730 0.796430 0.000000
-7.390950 -7.132576 -0.942739 1561 0.604730 0.796430 0.000000
-7.390673 -7.132312 -0.939542 1557 0.604730 0.796430 0.000000
-7.390707 -7.132348 -0.936381 1557 0.604730 0.796430 0.000000
-7.391114 -7.132747 -0.933247 1559 0.604730 0.796430 0.000000
-7.391562 -7.133178 -0.930123 1573 0.604730 0.796430 0.000000
-7.391451 -7.133060 -0.926944 1561 0.604730 0.796430 0.000000
-7.391477 -7.133090 -0.923784 1565 0.604730 0.796430 0.000000
-7.391199 -7.132824 -0.920586 1555 0.604730 0.796430 0.000000
-7.391279 -7.132898 -0.917435 1551 0.604730 0.796430 0.000000
-7.391361 -7.132986 -0.914274 1557 0.604730 0.796430 0.000000
-7.390979 -7.132612 -0.911078 1561 0.604730 0.796430 0.000000
-7.391005 -7.132641 -0.907908 1559 0.604730 0.796430 0.000000
-7.391142 -7.132773 -0.904756 1569 0.604730 0.796430 0.000000
-7.391222 -7.132846 -0.901595 1573 0.604730 0.796430 0.000000
-7.391248 -7.132876 -0.898435 1573 0.604730 0.796430 0.000000
-7.391496 -7.133108 -0.895293 1571 0.604730 0.796430 0.000000
-7.391465 -7.133080 -0.892123 1567 0.604730 0.796430 0.000000
-7.391228 -7.132862 -0.888935 1557 0.604730 0.796430 0.000000
-7.391253 -7.132877 -0.885775 1553 0.604730 0.796430 0.000000
-7.391381 -7.133002 -0.882623 1553 0.604730 0.796430 0.000000
-7.391088 -7.132725 -0.879426 1561 0.604730 0.796430 0.000000
-7.390906 -7.132550 -0.876248 1559 0.604730 0.796430 0.000000
-7.391035 -7.132675 -0.873097 1561 0.604730 0.796430 0.000000
-7.390845 -7.132493 -0.869918 1567 0.604730 0.796430 0.000000
-7.390917 -7.132561 -0.866758 1559 0.604730 0.796430 0.000000
-7.391309 -7.132934 -0.863624 1559 0.604730 0.796430 0.000000
-7.391597 -7.133212 -0.860481 1565 0.604730 0.796430 0.000000
-7.391608 -7.133229 -0.857321 1563 0.604730 0.796430 0.000000
-7.391321 -7.132944 -0.854133 1557 0.604730 0.796430 0.000000
-7.391601 -7.133216 -0.850991 1557 0.604730 0.796430 0.000000
-7.391819 -7.133438 -0.847848 1551 0.604730 0.796430 0.000000
-7.391524 -7.133147 -0.844661 1553 0.604730 0.796430 0.000000
-7.391271 -7.132902 -0.841474 1561 0.604730 0.796430 0.000000
-7.391032 -7.132669 -0.838296 1551 0.604730 0.796430 0.000000
-7.391042 -7.132687 -0.835136 1553 0.604730 0.796430 0.000000
-7.390948 -7.132595 -0.831966 1555 0.604730 0.796430 0.000000
-7.390909 -7.132559 -0.828797 1563 0.604730 0.796430 0.000000
-7.390863 -7.132518 -0.825627 1561 0.604730 0.796430 0.000000
-7.391039 -7.132681 -0.822485 1563 0.604730 0.796430 0.000000
-7.391103 -7.132742 -0.819325 1559 0.604730 0.796430 0.000000
-7.390690 -7.132344 -0.816128 1551 0.604730 0.796430 0.000000
-7.391011 -7.132660 -0.812995 1555 0.604730 0.796430 0.000000
-7.391819 -7.133443 -0.809888 1557 0.604730 0.796430 0.000000
-7.391509 -7.133140 -0.806700 1551 0.604730 0.796430 0.000000
-7.391462 -7.133099 -0.803531 1545 0.604730 0.796430 0.000000
-7.391887 -7.133512 -0.800407 1551 0.604730 0.796430 0.000000
-7.391687 -7.133310 -0.797229 1561 0.604730 0.796430 0.000000
-7.391323 -7.132964 -0.794042 1563 0.604730 0.796430 0.000000
-7.391428 -7.133070 -0.790881 1555 0.604730 0.796430 0.000000
-7.392011 -7.133634 -0.787765 1559 0.604730 0.796430 0.000000
-7.391750 -7.133383 -0.784578 1549 0.604730 0.796430 0.000000
-7.391807 -7.133438 -0.781427 1559 0.604730 0.796430 0.000000
-7.391815 -7.133440 -0.778267 1563 0.604730 0.796430 0.000000
-7.391283 -7.132935 -0.775062 1553 0.604730 0.796430 0.000000
-7.391443 -7.133084 -0.771910 1549 0.604730 0.796430 0.000000
-7.391293 -7.132934 -0.768742 1559 0.604730 0.796430 0.000000
-7.391334 -7.132976 -0.765581 1559 0.604730 0.796430 0.000000
-7.391550 -7.133184 -0.762439 1557 0.604730 0.796430 0.000000
-7.391224 -7.132868 -0.759252 1551 0.604730 0.796430 0.000000
-7.391178 -7.132828 -0.756092 1555 0.604730 0.796430 0.000000
-7.391171 -7.132818 -0.752932 1555 0.604730 0.796430 0.000000
-7.391531 -7.133166 -0.749789 1553 0.604730 0.796430 0.000000
-7.391526 -7.133171 -0.746629 1551 0.604730 0.796430 0.000000
-7.390992 -7.132651 -0.743434 1563 0.604730 0.796430 0.000000
-7.391360 -7.133005 -0.740300 1561 0.604730 0.796430 0.000000
-7.391353 -7.132996 -0.737140 1555 0.604730 0.796430 0.000000
-7.391027 -7.132680 -0.733963 1553 0.604730 0.796430 0.000000
-7.391652 -7.133291 -0.730837 1561 0.604730 0.796430 0.000000
-7.391637 -7.133276 -0.727677 1557 0.604730 0.796430 0.000000
-7.391097 -7.132763 -0.724482 1563 0.604730 0.796430 0.000000
-7.391242 -7.132900 -0.721331 1557 0.604730 0.796430 0.000000
-7.391290 -7.132949 -0.718170 1565 0.604730 0.796430 0.000000
-7.391068 -7.132728 -0.715002 1571 0.604730 0.796430 0.000000
-7.390901 -7.132565 -0.711834 1565 0.604730 0.796430 0.000000
-7.390727 -7.132397 -0.708665 1561 0.604730 0.796430 0.000000
-7.390976 -7.132644 -0.705523 1555 0.604730 0.796430 0.000000
-7.391329 -7.132986 -0.702380 1565 0.604730 0.796430 0.000000
-7.391362 -7.133021 -0.699219 1561 0.604730 0.796430 0.000000
-7.391131 -7.132795 -0.696051 1549 0.604730 0.796430 0.000000
-7.390908 -7.132575 -0.692873 1545 0.604730 0.796430 0.000000
-7.390990 -7.132662 -0.689723 1561 0.604730 0.796430 0.000000
-7.391135 -7.132799 -0.686571 1563 0.604730 0.796430 0.000000
-7.391225 -7.132893 -0.683420 1561 0.604730 0.796430 0.000000
-7.391624 -7.133273 -0.680276 1565 0.604730 0.796430 0.000000
-7.392288 -7.133914 -0.677150 1561 0.604730 0.796430 0.000000
-7.392632 -7.134250 -0.674017 1559 0.604730 0.796430 0.000000
-7.391820 -7.133469 -0.670814 1553 0.604730 0.796430 0.000000
-7.391382 -7.133038 -0.667628 1557 0.604730 0.796430 0.000000
-7.391296 -7.132966 -0.664469 1557 0.604730 0.796430 0.000000
-7.391226 -7.132893 -0.661310 1559 0.604730 0.796430 0.000000
-7.391203 -7.132870 -0.658150 1553 0.604730 0.796430 0.000000
-7.391332 -7.132996 -0.654998 1555 0.604730 0.796430 0.000000
-7.391620 -7.133273 -0.651846 1557 0.604730 0.796430 0.000000
-7.391749 -7.133398 -0.648694 1565 0.604730 0.796430 0.000000
-7.391726 -7.133376 -0.645535 1561 0.604730 0.796430 0.000000
-7.391647 -7.133296 -0.642375 1553 0.604730 0.796430 0.000000
-7.391355 -7.133020 -0.639208 1555 0.604730 0.796430 0.000000
-7.391275 -7.132940 -0.636039 1557 0.604730 0.796430 0.000000
-7.391874 -7.133518 -0.632913 1555 0.604730 0.796430 0.000000
-7.392260 -7.133899 -0.629769 1565 0.604730 0.796430 0.000000
-7.391814 -7.133462 -0.626593 1553 0.604730 0.796430 0.000000
-7.391568 -7.133223 -0.623425 1561 0.604730 0.796430 0.000000
-7.391323 -7.132998 -0.620258 1561 0.604730 0.796430 0.000000
-7.391180 -7.132854 -0.617089 1555 0.604730 0.796430 0.000000
-7.391571 -7.133227 -0.613955 1555 0.604730 0.796430 0.000000
-7.391693 -7.133346 -0.610804 1559 0.604730 0.796430 0.000000
-7.391495 -7.133158 -0.607636 1547 0.604730 0.796430 0.000000
-7.391567 -7.133225 -0.604475 1555 0.604730 0.796430 0.000000
-7.391369 -7.133038 -0.601317 1555 0.604730 0.796430 0.000000
-7.391380 -7.133055 -0.598157 1557 0.604730 0.796430 0.000000
-7.391812 -7.133473 -0.595012 1559 0.604730 0.796430 0.000000
-7.391725 -7.133387 -0.591853 1569 0.604730 0.796430 0.000000
-7.394333 -7.131302 -0.977680 1569 0.604730 0.796430 0.000000
-7.394374 -7.131344 -0.974520 1559 0.604730 0.796430 0.000000
-7.394056 -7.131035 -0.971323 1563 0.604730 0.796430 0.000000
-7.393883 -7.130880 -0.968134 1561 0.604730 0.796430 0.000000
-7.393620 -7.130614 -0.964947 1563 0.604730 0.796430 0.000000
-7.393399 -7.130408 -0.961759 1559 0.604730 0.796430 0.000000
-7.393487 -7.130488 -0.958598 1553 0.604730 0.796430 0.000000
-7.394263 -7.131245 -0.955500 1561 0.604730 0.796430 0.000000
-7.394408 -7.131382 -0.952349 1565 0.604730 0.796430 0.000000
-7.394032 -7.131015 -0.949143 1567 0.604730 0.796430 0.000000
-7.394331 -7.131313 -0.946000 1571 0.604730 0.796430 0.000000
-7.394108 -7.131093 -0.942812 1561 0.604730 0.796430 0.000000
-7.393463 -7.130471 -0.939588 1567 0.604730 0.796430 0.000000
-7.393178 -7.130200 -0.936400 1559 0.604730 0.796430 0.000000
-7.393593 -7.130592 -0.933266 1561 0.604730 0.796430 0.000000
-7.393826 -7.130827 -0.930124 1559 0.604730 0.796430 0.000000
-7.393811 -7.130811 -0.926954 1565 0.604730 0.796430 0.000000
-7.393845 -7.130847 -0.923794 1561 0.604730 0.796430 0.000000
-7.393463 -7.130474 -0.920587 1553 0.604730 0.796430 0.000000
-7.393288 -7.130305 -0.917409 1553 0.604730 0.796430 0.000000
-7.393792 -7.130794 -0.914284 1565 0.604730 0.796430 0.000000
-7.393881 -7.130873 -0.911123 1557 0.604730 0.796430 0.000000
-7.394017 -7.131004 -0.907972 1561 0.604730 0.796430 0.000000
-7.394084 -7.131079 -0.904811 1573 0.604730 0.796430 0.000000
-7.394220 -7.131210 -0.901659 1571 0.604730 0.796430 0.000000
-7.394357 -7.131341 -0.898508 1561 0.604730 0.796430 0.000000
-7.393649 -7.130656 -0.895285 1555 0.604730 0.796430 0.000000
-7.393785 -7.130787 -0.892123 1553 0.604730 0.796430 0.000000
-7.394073 -7.131064 -0.888981 1563 0.604730 0.796430 0.000000
-7.394099 -7.131094 -0.885820 1571 0.604730 0.796430 0.000000
-7.394436 -7.131423 -0.882687 1565 0.604730 0.796430 0.000000
-7.394405 -7.131395 -0.879517 1569 0.604730 0.796430 0.000000
-7.394064 -7.131067 -0.876320 1569 0.604730 0.796430 0.000000
-7.393879 -7.130877 -0.873142 1563 0.604730 0.796430 0.000000
-7.393476 -7.130500 -0.869946 1553 0.604730 0.796430 0.000000
-7.393500 -7.130516 -0.866786 1553 0.604730 0.796430 0.000000
-7.393526 -7.130545 -0.863625 1565 0.604730 0.796430 0.000000
-7.393590 -7.130606 -0.860465 1565 0.604730 0.796430 0.000000
-7.394141 -7.131132 -0.857339 1557 0.604730 0.796430 0.000000
-7.394582 -7.131557 -0.854215 1561 0.604730 0.796430 0.000000
-7.394280 -7.131274 -0.851028 1559 0.604730 0.796430 0.000000
-7.393986 -7.130983 -0.847840 1559 0.604730 0.796430 0.000000
-7.393836 -7.130847 -0.844662 1559 0.604730 0.796430 0.000000
-7.393758 -7.130768 -0.841492 1555 0.604730 0.796430 0.000000
-7.393974 -7.130975 -0.838350 1547 0.604730 0.796430 0.000000
-7.393722 -7.130744 -0.835163 1551 0.604730 0.796430 0.000000
-7.393897 -7.130906 -0.832011 1557 0.604730 0.796430 0.000000
-7.394545 -7.131536 -0.828895 1569 0.604730 0.796430 0.000000
-7.394402 -7.131392 -0.825726 1565 0.604730 0.796430 0.000000
-7.394085 -7.131096 -0.822539 1557 0.604730 0.796430 0.000000
-7.393902 -7.130908 -0.819361 1553 0.604730 0.796430 0.000000
-7.393745 -7.130765 -0.816192 1557 0.604730 0.796430 0.000000
-7.393858 -7.130877 -0.813031 1549 0.604730 0.796430 0.000000
-7.394137 -7.131135 -0.809888 1559 0.604730 0.796430 0.000000
-7.394299 -7.131299 -0.806736 1565 0.604730 0.796430 0.000000
-7.394515 -7.131506 -0.803594 1561 0.604730 0.796430 0.000000
-7.394683 -7.131663 -0.800443 1559 0.604730 0.796430 0.000000
-7.394477 -7.131469 -0.797265 1559 0.604730 0.796430 0.000000
-7.394375 -7.131371 -0.794095 1557 0.604730 0.796430 0.000000
-7.394281 -7.131279 -0.790926 1555 0.604730 0.796430 0.000000
-7.394704 -7.131691 -0.787792 1561 0.604730 0.796430 0.000000
-7.394859 -7.131848 -0.784641 1557 0.604730 0.796430 0.000000
-7.394500 -7.131494 -0.781454 1553 0.604730 0.796430 0.000000
-7.394127 -7.131141 -0.778267 1555 0.604730 0.796430 0.000000
-7.394288 -7.131291 -0.775116 1555 0.604730 0.796430 0.000000
-7.394601 -7.131601 -0.771973 1551 0.604730 0.796430 0.000000
-7.394712 -7.131700 -0.768822 1549 0.604730 0.796430 0.000000
-7.394658 -7.131653 -0.765652 1549 0.604730 0.796430 0.000000
-7.394340 -7.131343 -0.762475 1559 0.604730 0.796430 0.000000
-7.394182 -7.131187 -0.759296 1553 0.604730 0.796430 0.000000
-7.394328 -7.131339 -0.756145 1557 0.604730 0.796430 0.000000
-7.394440 -7.131436 -0.752994 1561 0.604730 0.796430 0.000000
-7.394648 -7.131638 -0.749842 1561 0.604730 0.796430 0.000000
-7.394689 -7.131680 -0.746691 1559 0.604730 0.796430 0.000000
-7.394212 -7.131217 -0.743496 1555 0.604730 0.796430 0.000000
-7.393783 -7.130807 -0.740310 1561 0.604730 0.796430 0.000000
-7.393770 -7.130805 -0.737150 1555 0.604730 0.796430 0.000000
-7.394392 -7.131402 -0.734024 1557 0.604730 0.796430 0.000000
-7.394760 -7.131756 -0.730890 1559 0.604730 0.796430 0.000000
-7.394219 -7.131230 -0.727695 1557 0.604730 0.796430 0.000000
-7.393949 -7.130972 -0.724518 1559 0.604730 0.796430 0.000000
-7.394253 -7.131262 -0.721375 1559 0.604730 0.796430 0.000000
-7.394232 -7.131255 -0.718215 1565 0.604730 0.796430 0.000000
-7.394176 -7.131194 -0.715055 1557 0.604730 0.796430 0.000000
-7.393794 -7.130820 -0.711869 1563 0.604730 0.796430 0.000000
-7.393781 -7.130819 -0.708709 1555 0.604730 0.796430 0.000000
-7.394285 -7.131307 -0.705574 1555 0.604730 0.796430 0.000000
-7.394119 -7.131145 -0.702406 1559 0.604730 0.796430 0.000000
-7.393466 -7.130517 -0.699212 1565 0.604730 0.796430 0.000000
-7.393722 -7.130756 -0.696069 1555 0.604730 0.796430 0.000000
-7.394482 -7.131501 -0.692952 1557 0.604730 0.796430 0.000000
-7.394529 -7.131535 -0.689791 1567 0.604730 0.796430 0.000000
-7.394403 -7.131418 -0.686623 1571 0.604730 0.796430 0.000000
-7.394222 -7.131243 -0.683454 1559 0.604730 0.796430 0.000000
-7.394677 -7.131680 -0.680320 1563 0.604730 0.796430 0.000000
-7.394600 -7.131615 -0.677160 1561 0.604730 0.796430 0.000000
-7.393899 -7.130935 -0.673967 1559 0.604730 0.796430 0.000000
-7.393924 -7.130964 -0.670807 1557 0.604730 0.796430 0.000000
-7.394323 -7.131344 -0.667663 1561 0.604730 0.796430 0.000000
-7.394357 -7.131380 -0.664513 1561 0.604730 0.796430 0.000000
-7.394279 -7.131300 -0.661343 1557 0.604730 0.796430 0.000000
-7.393834 -7.130877 -0.658167 1555 0.604730 0.796430 0.000000
-7.394011 -7.131053 -0.655016 1557 0.604730 0.796430 0.000000
-7.394785 -7.131796 -0.651898 1565 0.604730 0.796430 0.000000
-7.394866 -7.131870 -0.648737 1569 0.604730 0.796430 0.000000
-7.394357 -7.131382 -0.645562 1561 0.604730 0.796430 0.000000
-7.394119 -7.131150 -0.642384 1559 0.604730 0.796430 0.000000
-7.394145 -7.131180 -0.639234 1559 0.604730 0.796430 0.000000
-7.394274 -7.131304 -0.636083 1555 0.604730 0.796430 0.000000
-7.394451 -7.131480 -0.632931 1551 0.604730 0.796430 0.000000
-7.394683 -7.131701 -0.629779 1561 0.604730 0.796430 0.000000
-7.394971 -7.131978 -0.626636 1563 0.604730 0.796430 0.000000
-7.394517 -7.131535 -0.623460 1569 0.604730 0.796430 0.000000
-7.394424 -7.131457 -0.620291 1567 0.604730 0.796430 0.000000
-7.394975 -7.131983 -0.617155 1567 0.604730 0.796430 0.000000
-7.394147 -7.131189 -0.613963 1559 0.604730 0.796430 0.000000
-7.393958 -7.131009 -0.610805 1563 0.604730 0.796430 0.000000
-7.393974 -7.131018 -0.607645 1555 0.604730 0.796430 0.000000
-7.393879 -7.130926 -0.604486 1561 0.604730 0.796430 0.000000
-7.394327 -7.131356 -0.601341 1561 0.604730 0.796430 0.000000
-7.394489 -7.131520 -0.598190 1563 0.604730 0.796430 0.000000
-7.394083 -7.131128 -0.595013 1555 0.604730 0.796430 0.000000
-7.394204 -7.131247 -0.591862 1563 0.604730 0.796430 0.000000
-7.397286 -7.129707 -0.977754 1567 0.604730 0.796430 0.000000
-7.397119 -7.129544 -0.974566 1559 0.604730 0.796430 0.000000
-7.396379 -7.128833 -0.971333 1555 0.604730 0.796430 0.000000
-7.396053 -7.128518 -0.968136 1565 0.604730 0.796430 0.000000
-7.396199 -7.128669 -0.964974 1569 0.604730 0.796430 0.000000
-7.396246 -7.128704 -0.961814 1561 0.604730 0.796430 0.000000
-7.396448 -7.128899 -0.958662 1559 0.604730 0.796430 0.000000
-7.396689 -7.129138 -0.955519 1559 0.604730 0.796430 0.000000
-7.396579 -7.129034 -0.952340 1555 0.604730 0.796430 0.000000
-7.396204 -7.128667 -0.949144 1555 0.604730 0.796430 0.000000
-7.396030 -7.128499 -0.945955 1557 0.604730 0.796430 0.000000
-7.396542 -7.128993 -0.942831 1561 0.604730 0.796430 0.000000
-7.396846 -7.129284 -0.939698 1569 0.604730 0.796430 0.000000
-7.396561 -7.129013 -0.936500 1565 0.604730 0.796430 0.000000
-7.396802 -7.129253 -0.933358 1565 0.604730 0.796430 0.000000
-7.396627 -7.129084 -0.930169 1565 0.604730 0.796430 0.000000
-7.396246 -7.128712 -0.926973 1557 0.604730 0.796430 0.000000
-7.396438 -7.128900 -0.923821 1561 0.604730 0.796430 0.000000
-7.396305 -7.128777 -0.920642 1557 0.604730 0.796430 0.000000
-7.396242 -7.128710 -0.917473 1561 0.604730 0.796430 0.000000
-7.396329 -7.128788 -0.914312 1555 0.604730 0.796430 0.000000
-7.396461 -7.128928 -0.911161 1551 0.604730 0.796430 0.000000
-7.396708 -7.129160 -0.908018 1561 0.604730 0.796430 0.000000
-7.396574 -7.129036 -0.904839 1567 0.604730 0.796430 0.000000
-7.397181 -7.129621 -0.901723 1579 0.604730 0.796430 0.000000
-7.397421 -7.129847 -0.898571 1567 0.604730 0.796430 0.000000
-7.396393 -7.128855 -0.895321 1557 0.604730 0.796430 0.000000
-7.395789 -7.128279 -0.892106 1549 0.604730 0.796430 0.000000
-7.395718 -7.128206 -0.888937 1567 0.604730 0.796430 0.000000
-7.395944 -7.128433 -0.885795 1565 0.604730 0.796430 0.000000
-7.396024 -7.128507 -0.882634 1567 0.604730 0.796430 0.000000
-7.396361 -7.128836 -0.879491 1561 0.604730 0.796430 0.000000
-7.396441 -7.128910 -0.876340 1561 0.604730 0.796430 0.000000
-7.396251 -7.128728 -0.873162 1557 0.604730 0.796430 0.000000
-7.396540 -7.129006 -0.870019 1561 0.604730 0.796430 0.000000
-7.396828 -7.129284 -0.866876 1563 0.604730 0.796430 0.000000
-7.396741 -7.129198 -0.863697 1561 0.604730 0.796430 0.000000
-7.396129 -7.128615 -0.860492 1561 0.604730 0.796430 0.000000
-7.396202 -7.128683 -0.857332 1551 0.604730 0.796430 0.000000
-7.396850 -7.129312 -0.854215 1549 0.604730 0.796430 0.000000
-7.396923 -7.129379 -0.851055 1557 0.604730 0.796430 0.000000
-7.396939 -7.129388 -0.847894 1559 0.604730 0.796430 0.000000
-7.396900 -7.129353 -0.844725 1563 0.604730 0.796430 0.000000
-7.396662 -7.129121 -0.841547 1555 0.604730 0.796430 0.000000
-7.396672 -7.129138 -0.838377 1559 0.604730 0.796430 0.000000
-7.396529 -7.128994 -0.835208 1549 0.604730 0.796430 0.000000
-7.396172 -7.128653 -0.832021 1555 0.604730 0.796430 0.000000
-7.396612 -7.129078 -0.828887 1563 0.604730 0.796430 0.000000
-7.396884 -7.129344 -0.825744 1557 0.604730 0.796430 0.000000
-7.396312 -7.128792 -0.822540 1547 0.604730 0.796430 0.000000
-7.396425 -7.128905 -0.819389 1555 0.604730 0.796430 0.000000
-7.396857 -7.129323 -0.816254 1563 0.604730 0.796430 0.000000
-7.396977 -7.129428 -0.813093 1563 0.604730 0.796430 0.000000
-7.396771 -7.129234 -0.809915 1557 0.604730 0.796430 0.000000
-7.396781 -7.129251 -0.806755 1553 0.604730 0.796430 0.000000
-7.396582 -7.129049 -0.803577 1549 0.604730 0.796430 0.000000
-7.396424 -7.128907 -0.800408 1561 0.604730 0.796430 0.000000
-7.396912 -7.129369 -0.797274 1567 0.604730 0.796430 0.000000
-7.397287 -7.129730 -0.794140 1565 0.604730 0.796430 0.000000
-7.397282 -7.129735 -0.790980 1553 0.604730 0.796430 0.000000
-7.396972 -7.129432 -0.787793 1557 0.604730 0.796430 0.000000
-7.396447 -7.128932 -0.784598 1555 0.604730 0.796430 0.000000
-7.397031 -7.129497 -0.781472 1559 0.604730 0.796430 0.000000
-7.397870 -7.130305 -0.778364 1563 0.604730 0.796430 0.000000
-7.397878 -7.130307 -0.775204 1559 0.604730 0.796430 0.000000
-7.397194 -7.129654 -0.772000 1549 0.604730 0.796430 0.000000
-7.396717 -7.129192 -0.768805 1545 0.604730 0.796430 0.000000
-7.396876 -7.129342 -0.765653 1543 0.604730 0.796430 0.000000
-7.396711 -7.129193 -0.762485 1549 0.604730 0.796430 0.000000
-7.396816 -7.129285 -0.759323 1563 0.604730 0.796430 0.000000
-7.397192 -7.129646 -0.756190 1557 0.604730 0.796430 0.000000
-7.397081 -7.129542 -0.753021 1555 0.604730 0.796430 0.000000
-7.397179 -7.129642 -0.749870 1563 0.604730 0.796430 0.000000
-7.397380 -7.129836 -0.746718 1559 0.604730 0.796430 0.000000
-7.397532 -7.129980 -0.743566 1563 0.604730 0.796430 0.000000
-7.397318 -7.129780 -0.740388 1559 0.604730 0.796430 0.000000
-7.396888 -7.129355 -0.737202 1551 0.604730 0.796430 0.000000
-7.396618 -7.129097 -0.734025 1559 0.604730 0.796430 0.000000
-7.396660 -7.129139 -0.730874 1557 0.604730 0.796430 0.000000
-7.396972 -7.129436 -0.727731 1557 0.604730 0.796430 0.000000
-7.397061 -7.129529 -0.724570 1553 0.604730 0.796430 0.000000
-7.396584 -7.129067 -0.721385 1555 0.604730 0.796430 0.000000
-7.396355 -7.128855 -0.718207 1555 0.604730 0.796430 0.000000
-7.396395 -7.128883 -0.715056 1563 0.604730 0.796430 0.000000
-7.396541 -7.129035 -0.711905 1561 0.604730 0.796430 0.000000
-7.397053 -7.129529 -0.708770 1559 0.604730 0.796430 0.000000
-7.397141 -7.129609 -0.705609 1561 0.604730 0.796430 0.000000
-7.396705 -7.129192 -0.702433 1557 0.604730 0.796430 0.000000
-7.396322 -7.128819 -0.699247 1555 0.604730 0.796430 0.000000
-7.396412 -7.128912 -0.696096 1563 0.604730 0.796430 0.000000
-7.396978 -7.129451 -0.692960 1563 0.604730 0.796430 0.000000
-7.397060 -7.129538 -0.689809 1569 0.604730 0.796430 0.000000
-7.396719 -7.129210 -0.686633 1563 0.604730 0.796430 0.000000
-7.396760 -7.129252 -0.683472 1559 0.604730 0.796430 0.000000
-7.396897 -7.129383 -0.680321 1559 0.604730 0.796430 0.000000
-7.397193 -7.129668 -0.677178 1565 0.604730 0.796430 0.000000
-7.397170 -7.129645 -0.674018 1559 0.604730 0.796430 0.000000
-7.396726 -7.129223 -0.670832 1553 0.604730 0.796430 0.000000
-7.396917 -7.129397 -0.667690 1559 0.604730 0.796430 0.000000
-7.397151 -7.129631 -0.664538 1549 0.604730 0.796430 0.000000
-7.397239 -7.129711 -0.661387 1563 0.604730 0.796430 0.000000
-7.396897 -7.129383 -0.658210 1561 0.604730 0.796430 0.000000
-7.396716 -7.129208 -0.655042 1559 0.604730 0.796430 0.000000
-7.396901 -7.129391 -0.651890 1563 0.604730 0.796430 0.000000
-7.396821 -7.129311 -0.648731 1553 0.604730 0.796430 0.000000
-7.396791 -7.129282 -0.645571 1561 0.604730 0.796430 0.000000
-7.396553 -7.129049 -0.642393 1555 0.604730 0.796430 0.000000
-7.396730 -7.129226 -0.639251 1563 0.604730 0.796430 0.000000
-7.396756 -7.129256 -0.636091 1563 0.604730 0.796430 0.000000
-7.396725 -7.129228 -0.632931 1559 0.604730 0.796430 0.000000
-7.396798 -7.129294 -0.629781 1561 0.604730 0.796430 0.000000
-7.396560 -7.129062 -0.626603 1559 0.604730 0.796430 0.000000
-7.396840 -7.129333 -0.623460 1557 0.604730 0.796430 0.000000
-7.397177 -7.129663 -0.620317 1557 0.604730 0.796430 0.000000
-7.397201 -7.129679 -0.617156 1555 0.604730 0.796430 0.000000
-7.396949 -7.129447 -0.613989 1565 0.604730 0.796430 0.000000
-7.396862 -7.129362 -0.610829 1557 0.604730 0.796430 0.000000
-7.396983 -7.129480 -0.607678 1557 0.604730 0.796430 0.000000
-7.396945 -7.129446 -0.604518 1561 0.604730 0.796430 0.000000
-7.396802 -7.129302 -0.601350 1555 0.604730 0.796430 0.000000
-7.397234 -7.129720 -0.598216 1561 0.604730 0.796430 0.000000
-7.397307 -7.129787 -0.595055 1561 0.604730 0.796430 0.000000
-7.396998 -7.129498 -0.591888 1559 0.604730 0.796430 0.000000
-7.398464 -7.126487 -0.977665 1559 0.604730 0.796430 0.000000
-7.398886 -7.126885 -0.974531 1561 0.604730 0.796430 0.000000
-7.399287 -7.127279 -0.971397 1559 0.604730 0.796430 0.000000
-7.399439 -7.127422 -0.968245 1569 0.604730 0.796430 0.000000
-7.398970 -7.126966 -0.965030 1565 0.604730 0.796430 0.000000
-7.398843 -7.126848 -0.961851 1567 0.604730 0.796430 0.000000
-7.398995 -7.126992 -0.958699 1565 0.604730 0.796430 0.000000
-7.399134 -7.127138 -0.955548 1571 0.604730 0.796430 0.000000
-7.398968 -7.126975 -0.952359 1561 0.604730 0.796430 0.000000
-7.398745 -7.126754 -0.949171 1563 0.604730 0.796430 0.000000
-7.399208 -7.127198 -0.946047 1559 0.604730 0.796430 0.000000
-7.399561 -7.127540 -0.942914 1563 0.604730 0.796430 0.000000
-7.399491 -7.127480 -0.939734 1561 0.604730 0.796430 0.000000
-7.399054 -7.127063 -0.936528 1559 0.604730 0.796430 0.000000
-7.398831 -7.126843 -0.933340 1559 0.604730 0.796430 0.000000
-7.399232 -7.127236 -0.930206 1565 0.604730 0.796430 0.000000
-7.399839 -7.127820 -0.927101 1563 0.604730 0.796430 0.000000
-7.399887 -7.127854 -0.923930 1565 0.604730 0.796430 0.000000
-7.399331 -7.127330 -0.920715 1557 0.604730 0.796430 0.000000
-7.399100 -7.127103 -0.917527 1561 0.604730 0.796430 0.000000
-7.399134 -7.127139 -0.914367 1563 0.604730 0.796430 0.000000
-7.398960 -7.126970 -0.911188 1557 0.604730 0.796430 0.000000
-7.398986 -7.127000 -0.908018 1557 0.604730 0.796430 0.000000
-7.399385 -7.127379 -0.904894 1561 0.604730 0.796430 0.000000
-7.400000 -7.127970 -0.901778 1573 0.604730 0.796430 0.000000
-7.399762 -7.127737 -0.898591 1567 0.604730 0.796430 0.000000
-7.398887 -7.126906 -0.895349 1563 0.604730 0.796430 0.000000
-7.398926 -7.126934 -0.892188 1561 0.604730 0.796430 0.000000
-7.398944 -7.126957 -0.889028 1565 0.604730 0.796430 0.000000
-7.398762 -7.126782 -0.885840 1559 0.604730 0.796430 0.000000
-7.399154 -7.127155 -0.882706 1567 0.604730 0.796430 0.000000
-7.398971 -7.126980 -0.879528 1563 0.604730 0.796430 0.000000
-7.398512 -7.126544 -0.876332 1563 0.604730 0.796430 0.000000
-7.398959 -7.126976 -0.873198 1557 0.604730 0.796430 0.000000
-7.399247 -7.127253 -0.870055 1549 0.604730 0.796430 0.000000
-7.399417 -7.127423 -0.866903 1565 0.604730 0.796430 0.000000
-7.399657 -7.127650 -0.863761 1559 0.604730 0.796430 0.000000
-7.399210 -7.127212 -0.860555 1555 0.604730 0.796430 0.000000
-7.399221 -7.127229 -0.857395 1557 0.604730 0.796430 0.000000
-7.399190 -7.127201 -0.854225 1561 0.604730 0.796430 0.000000
-7.399207 -7.127211 -0.851065 1557 0.604730 0.796430 0.000000
-7.399543 -7.127540 -0.847921 1557 0.604730 0.796430 0.000000
-7.399027 -7.127046 -0.844726 1557 0.604730 0.796430 0.000000
-7.399091 -7.127107 -0.841565 1557 0.604730 0.796430 0.000000
-7.399588 -7.127590 -0.838441 1557 0.604730 0.796430 0.000000
-7.399604 -7.127599 -0.835271 1559 0.604730 0.796430 0.000000
-7.399247 -7.127258 -0.832084 1553 0.604730 0.796430 0.000000
-7.399104 -7.127114 -0.828915 1557 0.604730 0.796430 0.000000
-7.399433 -7.127437 -0.825772 1555 0.604730 0.796430 0.000000
-7.399546 -7.127550 -0.822611 1557 0.604730 0.796430 0.000000
-7.399300 -7.127311 -0.819433 1555 0.604730 0.796430 0.000000
-7.399516 -7.127518 -0.816281 1559 0.604730 0.796430 0.000000
-7.399470 -7.127478 -0.813121 1557 0.604730 0.796430 0.000000
-7.399424 -7.127437 -0.809952 1551 0.604730 0.796430 0.000000
-7.399544 -7.127542 -0.806800 1555 0.604730 0.796430 0.000000
-7.399808 -7.127801 -0.803658 1559 0.604730 0.796430 0.000000
-7.399602 -7.127607 -0.800480 1565 0.604730 0.796430 0.000000
-7.399397 -7.127414 -0.797302 1565 0.604730 0.796430 0.000000
-7.399565 -7.127570 -0.794150 1563 0.604730 0.796430 0.000000
-7.399678 -7.127681 -0.790989 1557 0.604730 0.796430 0.000000
-7.399679 -7.127678 -0.787829 1559 0.604730 0.796430 0.000000
-7.399425 -7.127433 -0.784651 1565 0.604730 0.796430 0.000000
-7.399371 -7.127386 -0.781481 1563 0.604730 0.796430 0.000000
-7.399636 -7.127645 -0.778339 1561 0.604730 0.796430 0.000000
-7.399948 -7.127942 -0.775196 1559 0.604730 0.796430 0.000000
-7.400005 -7.127997 -0.772045 1557 0.604730 0.796430 0.000000
-7.399583 -7.127592 -0.768849 1555 0.604730 0.796430 0.000000
-7.399529 -7.127545 -0.765689 1561 0.604730 0.796430 0.000000
-7.399793 -7.127790 -0.762537 1557 0.604730 0.796430 0.000000
-7.399899 -7.127896 -0.759386 1565 0.604730 0.796430 0.000000
-7.399891 -7.127887 -0.756226 1557 0.604730 0.796430 0.000000
-7.399573 -7.127578 -0.753039 1553 0.604730 0.796430 0.000000
-7.399511 -7.127524 -0.749879 1559 0.604730 0.796430 0.000000
-7.399672 -7.127675 -0.746728 1557 0.604730 0.796430 0.000000
-7.399818 -7.127826 -0.743576 1559 0.604730 0.796430 0.000000
-7.399867 -7.127873 -0.740416 1561 0.604730 0.796430 0.000000
-7.399748 -7.127762 -0.737247 1559 0.604730 0.796430 0.000000
-7.399637 -7.127644 -0.734078 1565 0.604730 0.796430 0.000000
-7.399527 -7.127539 -0.730909 1555 0.604730 0.796430 0.000000
-7.399457 -7.127480 -0.727749 1551 0.604730 0.796430 0.000000
-7.399506 -7.127528 -0.724589 1557 0.604730 0.796430 0.000000
-7.399173 -7.127206 -0.721412 1551 0.604730 0.796430 0.000000
-7.399325 -7.127350 -0.718260 1563 0.604730 0.796430 0.000000
-7.399629 -7.127640 -0.715117 1569 0.604730 0.796430 0.000000
-7.399613 -7.127625 -0.711947 1563 0.604730 0.796430 0.000000
-7.399592 -7.127617 -0.708788 1567 0.604730 0.796430 0.000000
-7.399689 -7.127703 -0.705637 1563 0.604730 0.796430 0.000000
-7.399889 -7.127897 -0.702485 1561 0.604730 0.796430 0.000000
-7.399716 -7.127729 -0.699316 1557 0.604730 0.796430 0.000000
-7.399430 -7.127459 -0.696139 1559 0.604730 0.796430 0.000000
-7.399153 -7.127195 -0.692961 1553 0.604730 0.796430 0.000000
-7.399449 -7.127479 -0.689818 1561 0.604730 0.796430 0.000000
-7.399434 -7.127463 -0.686659 1561 0.604730 0.796430 0.000000
-7.399363 -7.127390 -0.683499 1557 0.604730 0.796430 0.000000
-7.399764 -7.127783 -0.680355 1557 0.604730 0.796430 0.000000
-7.399581 -7.127608 -0.677187 1567 0.604730 0.796430 0.000000
-7.399351 -7.127381 -0.674019 1553 0.604730 0.796430 0.000000
-7.399592 -7.127622 -0.670877 1563 0.604730 0.796430 0.000000
-7.399521 -7.127549 -0.667707 1561 0.604730 0.796430 0.000000
-7.399809 -7.127826 -0.664564 1561 0.604730 0.796430 0.000000
-7.400265 -7.128264 -0.661430 1569 0.604730 0.796430 0.000000
-7.400021 -7.128039 -0.658252 1567 0.604730 0.796430 0.000000
-7.399893 -7.127907 -0.655093 1567 0.604730 0.796430 0.000000
-7.399551 -7.127580 -0.651917 1569 0.604730 0.796430 0.000000
-7.399322 -7.127353 -0.648749 1561 0.604730 0.796430 0.000000
-7.399602 -7.127625 -0.645596 1559 0.604730 0.796430 0.000000
-7.399579 -7.127603 -0.642436 1565 0.604730 0.796430 0.000000
-7.400076 -7.128085 -0.639301 1565 0.604730 0.796430 0.000000
-7.400252 -7.128262 -0.636150 1565 0.604730 0.796430 0.000000
-7.399584 -7.127621 -0.632966 1561 0.604730 0.796430 0.000000
-7.399721 -7.127752 -0.629814 1565 0.604730 0.796430 0.000000
-7.399843 -7.127872 -0.626653 1561 0.604730 0.796430 0.000000
-7.399388 -7.127428 -0.623477 1557 0.604730 0.796430 0.000000
-7.399150 -7.127195 -0.620310 1559 0.604730 0.796430 0.000000
-7.399431 -7.127467 -0.617167 1561 0.604730 0.796430 0.000000
-7.399711 -7.127738 -0.614014 1565 0.604730 0.796430 0.000000
-7.399411 -7.127455 -0.610847 1563 0.604730 0.796430 0.000000
-7.399683 -7.127720 -0.607704 1569 0.604730 0.796430 0.000000
-7.400130 -7.128151 -0.604560 1565 0.604730 0.796430 0.000000
-7.400196 -7.128212 -0.601409 1565 0.604730 0.796430 0.000000
-7.400053 -7.128069 -0.598241 1565 0.604730 0.796430 0.000000
-7.399544 -7.127582 -0.595065 1555 0.604730 0.796430 0.000000
-7.399546 -7.127592 -0.591905 1557 0.604730 0.796430 0.000000
-7.401687 -7.125146 -0.977756 1565 0.604730 0.796430 0.000000
-7.402047 -7.125494 -0.974623 1565 0.604730 0.796430 0.000000
-7.401825 -7.125288 -0.971435 1561 0.604730 0.796430 0.000000
-7.401452 -7.124921 -0.968228 1561 0.604730 0.796430 0.000000
-7.401803 -7.125263 -0.965095 1563 0.604730 0.796430 0.000000
-7.402061 -7.125515 -0.961942 1567 0.604730 0.796430 0.000000
-7.402046 -7.125500 -0.958772 1563 0.604730 0.796430 0.000000
-7.402303 -7.125753 -0.955630 1571 0.604730 0.796430 0.000000
-7.401928 -7.125386 -0.952423 1565 0.604730 0.796430 0.000000
-7.401803 -7.125268 -0.949244 1557 0.604730 0.796430 0.000000
-7.401628 -7.125100 -0.946066 1559 0.604730 0.796430 0.000000
-7.401302 -7.124784 -0.942869 1561 0.604730 0.796430 0.000000
-7.401917 -7.125374 -0.939753 1569 0.604730 0.796430 0.000000
-7.402540 -7.125971 -0.936637 1569 0.604730 0.796430 0.000000
-7.402725 -7.126153 -0.933485 1561 0.604730 0.796430 0.000000
-7.402239 -7.125685 -0.930280 1553 0.604730 0.796430 0.000000
-7.401803 -7.125268 -0.927074 1551 0.604730 0.796430 0.000000
-7.401780 -7.125246 -0.923904 1553 0.604730 0.796430 0.000000
-7.401606 -7.125077 -0.920726 1553 0.604730 0.796430 0.000000
-7.401847 -7.125317 -0.917573 1557 0.604730 0.796430 0.000000
-7.401928 -7.125391 -0.914422 1571 0.604730 0.796430 0.000000
-7.401650 -7.125126 -0.911225 1561 0.604730 0.796430 0.000000
-7.401682 -7.125148 -0.908065 1563 0.604730 0.796430 0.000000
-7.401605 -7.125082 -0.904895 1563 0.604730 0.796430 0.000000
-7.401837 -7.125303 -0.901743 1563 0.604730 0.796430 0.000000
-7.402237 -7.125696 -0.898609 1561 0.604730 0.796430 0.000000
-7.402166 -7.125623 -0.895440 1559 0.604730 0.796430 0.000000
-7.401920 -7.125383 -0.892252 1569 0.604730 0.796430 0.000000
-7.401524 -7.125011 -0.889056 1563 0.604730 0.796430 0.000000
-7.401293 -7.124785 -0.885868 1561 0.604730 0.796430 0.000000
-7.401741 -7.125216 -0.882743 1565 0.604730 0.796430 0.000000
-7.402229 -7.125692 -0.879619 1565 0.604730 0.796430 0.000000
-7.401840 -7.125313 -0.876412 1563 0.604730 0.796430 0.000000
-7.401171 -7.124672 -0.873199 1555 0.604730 0.796430 0.000000
-7.401252 -7.124745 -0.870038 1557 0.604730 0.796430 0.000000
-7.401803 -7.125272 -0.866922 1563 0.604730 0.796430 0.000000
-7.401980 -7.125448 -0.863771 1557 0.604730 0.796430 0.000000
-7.402109 -7.125573 -0.860609 1563 0.604730 0.796430 0.000000
-7.402071 -7.125538 -0.857450 1561 0.604730 0.796430 0.000000
-7.401832 -7.125306 -0.854262 1567 0.604730 0.796430 0.000000
-7.402112 -7.125577 -0.851119 1569 0.604730 0.796430 0.000000
-7.401915 -7.125390 -0.847941 1559 0.604730 0.796430 0.000000
-7.401876 -7.125356 -0.844771 1557 0.604730 0.796430 0.000000
-7.402157 -7.125627 -0.841628 1563 0.604730 0.796430 0.000000
-7.402014 -7.125483 -0.838450 1559 0.604730 0.796430 0.000000
-7.401816 -7.125296 -0.835272 1547 0.604730 0.796430 0.000000
-7.401937 -7.125414 -0.832120 1553 0.604730 0.796430 0.000000
-7.401891 -7.125373 -0.828951 1557 0.604730 0.796430 0.000000
-7.401597 -7.125083 -0.825763 1549 0.604730 0.796430 0.000000
-7.401758 -7.125247 -0.822612 1555 0.604730 0.796430 0.000000
-7.402293 -7.125761 -0.819487 1561 0.604730 0.796430 0.000000
-7.402317 -7.125776 -0.816326 1561 0.604730 0.796430 0.000000
-7.402112 -7.125583 -0.813148 1551 0.604730 0.796430 0.000000
-7.402225 -7.125695 -0.809997 1561 0.604730 0.796430 0.000000
-7.402290 -7.125755 -0.806836 1563 0.604730 0.796430 0.000000
-7.402395 -7.125862 -0.803675 1563 0.604730 0.796430 0.000000
-7.402133 -7.125610 -0.800498 1561 0.604730 0.796430 0.000000
-7.402094 -7.125562 -0.797328 1561 0.604730 0.796430 0.000000
-7.402574 -7.126031 -0.794203 1565 0.604730 0.796430 0.000000
-7.402313 -7.125780 -0.791026 1557 0.604730 0.796430 0.000000
-7.402162 -7.125630 -0.787847 1555 0.604730 0.796430 0.000000
-7.402689 -7.126138 -0.784722 1569 0.604730 0.796430 0.000000
-7.402275 -7.125739 -0.781536 1563 0.604730 0.796430 0.000000
-7.402062 -7.125539 -0.778358 1551 0.604730 0.796430 0.000000
-7.402541 -7.125995 -0.775223 1549 0.604730 0.796430 0.000000
-7.403014 -7.126459 -0.772089 1557 0.604730 0.796430 0.000000
-7.403063 -7.126507 -0.768928 1565 0.604730 0.796430 0.000000
-7.402912 -7.126357 -0.765759 1555 0.604730 0.796430 0.000000
-7.402532 -7.125998 -0.762573 1557 0.604730 0.796430 0.000000
-7.402429 -7.125899 -0.759404 1559 0.604730 0.796430 0.000000
-7.402422 -7.125890 -0.756244 1559 0.604730 0.796430 0.000000
-7.402480 -7.125945 -0.753083 1559 0.604730 0.796430 0.000000
-7.402153 -7.125629 -0.749906 1555 0.604730 0.796430 0.000000
-7.401772 -7.125269 -0.746720 1559 0.604730 0.796430 0.000000
-7.402244 -7.125719 -0.743585 1563 0.604730 0.796430 0.000000
-7.402820 -7.126278 -0.740460 1569 0.604730 0.796430 0.000000
-7.402231 -7.125714 -0.737265 1555 0.604730 0.796430 0.000000
-7.401913 -7.125405 -0.734078 1565 0.604730 0.796430 0.000000
-7.401691 -7.125185 -0.730910 1563 0.604730 0.796430 0.000000
-7.401683 -7.125175 -0.727750 1561 0.604730 0.796430 0.000000
-7.402140 -7.125627 -0.724616 1563 0.604730 0.796430 0.000000
-7.402077 -7.125559 -0.721446 1563 0.604730 0.796430 0.000000
-7.401489 -7.124996 -0.718252 1553 0.604730 0.796430 0.000000
-7.401690 -7.125191 -0.715110 1557 0.604730 0.796430 0.000000
-7.402312 -7.125787 -0.711984 1555 0.604730 0.796430 0.000000
-7.402608 -7.126071 -0.708831 1561 0.604730 0.796430 0.000000
-7.402330 -7.125807 -0.705664 1559 0.604730 0.796430 0.000000
-7.402157 -7.125638 -0.702485 1561 0.604730 0.796430 0.000000
-7.401928 -7.125426 -0.699317 1559 0.604730 0.796430 0.000000
-7.401921 -7.125416 -0.696157 1557 0.604730 0.796430 0.000000
-7.402057 -7.125548 -0.693006 1563 0.604730 0.796430 0.000000
-7.402145 -7.125628 -0.689845 1559 0.604730 0.796430 0.000000
-7.402435 -7.125919 -0.686702 1555 0.604730 0.796430 0.000000
-7.402364 -7.125846 -0.683543 1561 0.604730 0.796430 0.000000
-7.402190 -7.125677 -0.680374 1563 0.604730 0.796430 0.000000
-7.402167 -7.125655 -0.677214 1563 0.604730 0.796430 0.000000
-7.401993 -7.125486 -0.674046 1565 0.604730 0.796430 0.000000
-7.402393 -7.125879 -0.670902 1567 0.604730 0.796430 0.000000
-7.402523 -7.126005 -0.667751 1565 0.604730 0.796430 0.000000
-7.402244 -7.125727 -0.664573 1563 0.604730 0.796430 0.000000
-7.402222 -7.125705 -0.661414 1565 0.604730 0.796430 0.000000
-7.402136 -7.125633 -0.658254 1565 0.604730 0.796430 0.000000
-7.402105 -7.125605 -0.655095 1565 0.604730 0.796430 0.000000
-7.402145 -7.125633 -0.651934 1559 0.604730 0.796430 0.000000
-7.402323 -7.125809 -0.648782 1559 0.604730 0.796430 0.000000
-7.402340 -7.125832 -0.645622 1559 0.604730 0.796430 0.000000
-7.402214 -7.125701 -0.642463 1565 0.604730 0.796430 0.000000
-7.402183 -7.125673 -0.639303 1561 0.604730 0.796430 0.000000
-7.402319 -7.125804 -0.636142 1559 0.604730 0.796430 0.000000
-7.402488 -7.125974 -0.633000 1563 0.604730 0.796430 0.000000
-7.402777 -7.126252 -0.629848 1565 0.604730 0.796430 0.000000
-7.402428 -7.125917 -0.626671 1561 0.604730 0.796430 0.000000
-7.402190 -7.125685 -0.623503 1561 0.604730 0.796430 0.000000
-7.402318 -7.125810 -0.620352 1559 0.604730 0.796430 0.000000
-7.402328 -7.125827 -0.617191 1553 0.604730 0.796430 0.000000
-7.401979 -7.125493 -0.614025 1555 0.604730 0.796430 0.000000
-7.401947 -7.125451 -0.610865 1555 0.604730 0.796430 0.000000
-7.402643 -7.126132 -0.607728 1557 0.604730 0.796430 0.000000
-7.402716 -7.126198 -0.604577 1555 0.604730 0.796430 0.000000
-7.402581 -7.126061 -0.601409 1559 0.604730 0.796430 0.000000
-7.402375 -7.125867 -0.598251 1567 0.604730 0.796430 0.000000
-7.402129 -7.125628 -0.595083 1553 0.604730 0.796430 0.000000
-7.402140 -7.125646 -0.591923 1555 0.604730 0.796430 0.000000
-7.403774 -7.122551 -0.977739 1555 0.604730 0.796430 0.000000
-7.404515 -7.123255 -0.974632 1553 0.604730 0.796430 0.000000
-7.404502 -7.123254 -0.971462 1559 0.604730 0.796430 0.000000
-7.404230 -7.122982 -0.968275 1561 0.604730 0.796430 0.000000
-7.404528 -7.123280 -0.965132 1567 0.604730 0.796430 0.000000
-7.404521 -7.123271 -0.961962 1561 0.604730 0.796430 0.000000
-7.404243 -7.123007 -0.958764 1555 0.604730 0.796430 0.000000
-7.404604 -7.123355 -0.955631 1555 0.604730 0.796430 0.000000
-7.404596 -7.123345 -0.952461 1555 0.604730 0.796430 0.000000
-7.404263 -7.123023 -0.949264 1553 0.604730 0.796430 0.000000
-7.404207 -7.122962 -0.946095 1553 0.604730 0.796430 0.000000
-7.404027 -7.122801 -0.942906 1555 0.604730 0.796430 0.000000
-7.404115 -7.122880 -0.939745 1563 0.604730 0.796430 0.000000
-7.404634 -7.123382 -0.936620 1563 0.604730 0.796430 0.000000
-7.404931 -7.123666 -0.933477 1559 0.604730 0.796430 0.000000
-7.404327 -7.123090 -0.930263 1565 0.604730 0.796430 0.000000
-7.404423 -7.123175 -0.927102 1557 0.604730 0.796430 0.000000
-7.404608 -7.123359 -0.923950 1557 0.604730 0.796430 0.000000
-7.404115 -7.122883 -0.920745 1557 0.604730 0.796430 0.000000
-7.403997 -7.122772 -0.917566 1557 0.604730 0.796430 0.000000
-7.404604 -7.123357 -0.914450 1559 0.604730 0.796430 0.000000
-7.404892 -7.123634 -0.911307 1565 0.604730 0.796430 0.000000
-7.405085 -7.123823 -0.908155 1569 0.604730 0.796430 0.000000
-7.404903 -7.123648 -0.904977 1559 0.604730 0.796430 0.000000
-7.404672 -7.123421 -0.901789 1559 0.604730 0.796430 0.000000
-7.404858 -7.123604 -0.898637 1559 0.604730 0.796430 0.000000
-7.404994 -7.123735 -0.895486 1567 0.604730 0.796430 0.000000
-7.405178 -7.123903 -0.892334 1575 0.604730 0.796430 0.000000
-7.405092 -7.123832 -0.889155 1575 0.604730 0.796430 0.000000
-7.404280 -7.123051 -0.885922 1563 0.604730 0.796430 0.000000
-7.403994 -7.122766 -0.882735 1565 0.604730 0.796430 0.000000
-7.404219 -7.122994 -0.879593 1561 0.604730 0.796430 0.000000
-7.404348 -7.123119 -0.876431 1565 0.604730 0.796430 0.000000
-7.404428 -7.123192 -0.873271 1557 0.604730 0.796430 0.000000
-7.404765 -7.123522 -0.870137 1561 0.604730 0.796430 0.000000
-7.405108 -7.123844 -0.866994 1565 0.604730 0.796430 0.000000
-7.404918 -7.123662 -0.863816 1565 0.604730 0.796430 0.000000
-7.404832 -7.123576 -0.860647 1563 0.604730 0.796430 0.000000
-7.404428 -7.123198 -0.857450 1555 0.604730 0.796430 0.000000
-7.404500 -7.123265 -0.854289 1553 0.604730 0.796430 0.000000
-7.404675 -7.123427 -0.851138 1561 0.604730 0.796430 0.000000
-7.404742 -7.123502 -0.847977 1559 0.604730 0.796430 0.000000
-7.404966 -7.123716 -0.844835 1559 0.604730 0.796430 0.000000
-7.404672 -7.123425 -0.841648 1565 0.604730 0.796430 0.000000
-7.404004 -7.122785 -0.838434 1555 0.604730 0.796430 0.000000
-7.404125 -7.122904 -0.835273 1553 0.604730 0.796430 0.000000
-7.404508 -7.123270 -0.832139 1557 0.604730 0.796430 0.000000
-7.404310 -7.123083 -0.828961 1559 0.604730 0.796430 0.000000
-7.403954 -7.122742 -0.825774 1543 0.604730 0.796430 0.000000
-7.404592 -7.123352 -0.822658 1551 0.604730 0.796430 0.000000
-7.404824 -7.123572 -0.819506 1561 0.604730 0.796430 0.000000
-7.404667 -7.123429 -0.816337 1563 0.604730 0.796430 0.000000
-7.405050 -7.123796 -0.813193 1561 0.604730 0.796430 0.000000
-7.405426 -7.124157 -0.810060 1565 0.604730 0.796430 0.000000
-7.405691 -7.124416 -0.806917 1567 0.604730 0.796430 0.000000
-7.405175 -7.123923 -0.803712 1559 0.604730 0.796430 0.000000
-7.404713 -7.123473 -0.800516 1555 0.604730 0.796430 0.000000
-7.405296 -7.124038 -0.797391 1563 0.604730 0.796430 0.000000
-7.405505 -7.124239 -0.794248 1565 0.604730 0.796430 0.000000
-7.405251 -7.123994 -0.791061 1563 0.604730 0.796430 0.000000
-7.405149 -7.123896 -0.787892 1557 0.604730 0.796430 0.000000
-7.405262 -7.124008 -0.784741 1555 0.604730 0.796430 0.000000
-7.405630 -7.124362 -0.781607 1555 0.604730 0.796430 0.000000
-7.405631 -7.124359 -0.778437 1559 0.604730 0.796430 0.000000
-7.404899 -7.123655 -0.775224 1557 0.604730 0.796430 0.000000
-7.404581 -7.123345 -0.772047 1549 0.604730 0.796430 0.000000
-7.404685 -7.123451 -0.768886 1563 0.604730 0.796430 0.000000
-7.404735 -7.123500 -0.765735 1553 0.604730 0.796430 0.000000
-7.404895 -7.123650 -0.762584 1559 0.604730 0.796430 0.000000
-7.404889 -7.123654 -0.759413 1551 0.604730 0.796430 0.000000
-7.405050 -7.123804 -0.756262 1553 0.604730 0.796430 0.000000
-7.405148 -7.123904 -0.753111 1555 0.604730 0.796430 0.000000
-7.404981 -7.123741 -0.749932 1567 0.604730 0.796430 0.000000
-7.404822 -7.123585 -0.746764 1559 0.604730 0.796430 0.000000
-7.405024 -7.123781 -0.743612 1555 0.604730 0.796430 0.000000
-7.405232 -7.123982 -0.740470 1559 0.604730 0.796430 0.000000
-7.404803 -7.123571 -0.737284 1553 0.604730 0.796430 0.000000
-7.404269 -7.123051 -0.734089 1553 0.604730 0.796430 0.000000
-7.403888 -7.122692 -0.730902 1553 0.604730 0.796430 0.000000
-7.404138 -7.122938 -0.727760 1553 0.604730 0.796430 0.000000
-7.404658 -7.123440 -0.724625 1555 0.604730 0.796430 0.000000
-7.405175 -7.123926 -0.721500 1559 0.604730 0.796430 0.000000
-7.404851 -7.123625 -0.718313 1557 0.604730 0.796430 0.000000
-7.404469 -7.123252 -0.715136 1563 0.604730 0.796430 0.000000
-7.404613 -7.123389 -0.711985 1563 0.604730 0.796430 0.000000
-7.404917 -7.123679 -0.708832 1565 0.604730 0.796430 0.000000
-7.404896 -7.123672 -0.705672 1563 0.604730 0.796430 0.000000
-7.404673 -7.123452 -0.702504 1551 0.604730 0.796430 0.000000
-7.404603 -7.123392 -0.699335 1555 0.604730 0.796430 0.000000
-7.404589 -7.123376 -0.696175 1559 0.604730 0.796430 0.000000
-7.404518 -7.123303 -0.693015 1561 0.604730 0.796430 0.000000
-7.404870 -7.123644 -0.689872 1549 0.604730 0.796430 0.000000
-7.405534 -7.124287 -0.686746 1563 0.604730 0.796430 0.000000
-7.405519 -7.124271 -0.683586 1573 0.604730 0.796430 0.000000
-7.404866 -7.123642 -0.680392 1577 0.604730 0.796430 0.000000
-7.404795 -7.123569 -0.677232 1563 0.604730 0.796430 0.000000
-7.404829 -7.123605 -0.674072 1563 0.604730 0.796430 0.000000
-7.404909 -7.123679 -0.670911 1563 0.604730 0.796430 0.000000
-7.405094 -7.123861 -0.667759 1569 0.604730 0.796430 0.000000
-7.404863 -7.123635 -0.664591 1557 0.604730 0.796430 0.000000
-7.405049 -7.123817 -0.661440 1553 0.604730 0.796430 0.000000
-7.404915 -7.123694 -0.658281 1563 0.604730 0.796430 0.000000
-7.404734 -7.123519 -0.655113 1567 0.604730 0.796430 0.000000
-7.405284 -7.124045 -0.651977 1561 0.604730 0.796430 0.000000
-7.405310 -7.124075 -0.648817 1561 0.604730 0.796430 0.000000
-7.405079 -7.123848 -0.645649 1559 0.604730 0.796430 0.000000
-7.405256 -7.124024 -0.642497 1565 0.604730 0.796430 0.000000
-7.405066 -7.123843 -0.639329 1559 0.604730 0.796430 0.000000
-7.405196 -7.123968 -0.636178 1563 0.604730 0.796430 0.000000
-7.405324 -7.124093 -0.633016 1567 0.604730 0.796430 0.000000
-7.405190 -7.123956 -0.629858 1561 0.604730 0.796430 0.000000
-7.404937 -7.123724 -0.626690 1571 0.604730 0.796430 0.000000
-7.404698 -7.123491 -0.623512 1555 0.604730 0.796430 0.000000
-7.404723 -7.123507 -0.620362 1553 0.604730 0.796430 0.000000
-7.404901 -7.123683 -0.617210 1559 0.604730 0.796430 0.000000
-7.405451 -7.124209 -0.614075 1565 0.604730 0.796430 0.000000
-7.405412 -7.124175 -0.610915 1563 0.604730 0.796430 0.000000
-7.405318 -7.124083 -0.607746 1563 0.604730 0.796430 0.000000
-7.405121 -7.123896 -0.604588 1563 0.604730 0.796430 0.000000
-7.405090 -7.123868 -0.601428 1559 0.604730 0.796430 0.000000
-7.404789 -7.123585 -0.598251 1557 0.604730 0.796430 0.000000
-7.404319 -7.123129 -0.595075 1555 0.604730 0.796430 0.000000
-7.404607 -7.123406 -0.591932 1565 0.604730 0.796430 0.000000
-7.407080 -7.121123 -0.977831 1567 0.604730 0.796430 0.000000
-7.407392 -7.121420 -0.974688 1569 0.604730 0.796430 0.000000
-7.407065 -7.121104 -0.971491 1559 0.604730 0.796430 0.000000
-7.406956 -7.121000 -0.968312 1557 0.604730 0.796430 0.000000
-7.407156 -7.121194 -0.965160 1577 0.604730 0.796430 0.000000
-7.406981 -7.121026 -0.961971 1569 0.604730 0.796430 0.000000
-7.407079 -7.121125 -0.958820 1563 0.604730 0.796430 0.000000
-7.406489 -7.120547 -0.955596 1559 0.604730 0.796430 0.000000
-7.405900 -7.119983 -0.952371 1561 0.604730 0.796430 0.000000
-7.406524 -7.120580 -0.949256 1557 0.604730 0.796430 0.000000
-7.407394 -7.121426 -0.946167 1567 0.604730 0.796430 0.000000
-7.407539 -7.121563 -0.943016 1571 0.604730 0.796430 0.000000
-7.407213 -7.121248 -0.939819 1561 0.604730 0.796430 0.000000
-7.407350 -7.121379 -0.936657 1561 0.604730 0.796430 0.000000
-7.407080 -7.121121 -0.933470 1563 0.604730 0.796430 0.000000
-7.406898 -7.120946 -0.930281 1565 0.604730 0.796430 0.000000
-7.407091 -7.121135 -0.927140 1567 0.604730 0.796430 0.000000
-7.407116 -7.121164 -0.923969 1563 0.604730 0.796430 0.000000
-7.407213 -7.121251 -0.920808 1565 0.604730 0.796430 0.000000
-7.407030 -7.121075 -0.917630 1555 0.604730 0.796430 0.000000
-7.407216 -7.121258 -0.914478 1563 0.604730 0.796430 0.000000
-7.407097 -7.121147 -0.911299 1563 0.604730 0.796430 0.000000
-7.406492 -7.120556 -0.908085 1555 0.604730 0.796430 0.000000
-7.407052 -7.121103 -0.904959 1569 0.604730 0.796430 0.000000
-7.407452 -7.121482 -0.901826 1569 0.604730 0.796430 0.000000
-7.406999 -7.121053 -0.898630 1561 0.604730 0.796430 0.000000
-7.406712 -7.120769 -0.895432 1557 0.604730 0.796430 0.000000
-7.407376 -7.121410 -0.892326 1569 0.604730 0.796430 0.000000
-7.407401 -7.121439 -0.889156 1563 0.604730 0.796430 0.000000
-7.406644 -7.120703 -0.885933 1565 0.604730 0.796430 0.000000
-7.406143 -7.120221 -0.882728 1569 0.604730 0.796430 0.000000
-7.406583 -7.120646 -0.879593 1569 0.604730 0.796430 0.000000
-7.407182 -7.121223 -0.876477 1559 0.604730 0.796430 0.000000
-7.407311 -7.121348 -0.873326 1555 0.604730 0.796430 0.000000
-7.407288 -7.121326 -0.870156 1557 0.604730 0.796430 0.000000
