675
-7.281954 -7.021106 -0.372867 1063 -0.401127 0.916018 0.002942
-7.281660 -7.020830 -0.363529 1061 -0.401127 0.916018 0.002942
-7.281794 -7.020956 -0.344867 1059 -0.401127 0.916018 0.002942
-7.282182 -7.021333 -0.341784 1049 -0.401127 0.916018 0.002942
-7.281974 -7.021139 -0.332445 1049 -0.401127 0.916018 0.002942
-7.281991 -7.021149 -0.329335 1055 -0.401127 0.916018 0.002942
-7.288041 -7.022737 -0.612945 1081 -0.401127 0.916018 0.002942
-7.288596 -7.023275 -0.609870 1075 -0.401127 0.916018 0.002942
-7.288257 -7.022944 -0.606723 1071 -0.401127 0.916018 0.002942
-7.288227 -7.022915 -0.603603 1071 -0.401127 0.916018 0.002942
-7.288403 -7.023094 -0.600502 1073 -0.401127 0.916018 0.002942
-7.288482 -7.023168 -0.597391 1073 -0.401127 0.916018 0.002942
-7.288823 -7.023493 -0.594298 1083 -0.401127 0.916018 0.002942
-7.288477 -7.023156 -0.591151 1079 -0.401127 0.916018 0.002942
-7.287974 -7.022678 -0.587986 1081 -0.401127 0.916018 0.002942
-7.287786 -7.022495 -0.584857 1075 -0.401127 0.916018 0.002942
-7.288434 -7.023123 -0.581791 1077 -0.401127 0.916018 0.002942
-7.288665 -7.023345 -0.578689 1081 -0.401127 0.916018 0.002942
-7.288058 -7.022758 -0.575524 1065 -0.401127 0.916018 0.002942
-7.288074 -7.022767 -0.572404 1067 -0.401127 0.916018 0.002942
-7.289251 -7.023903 -0.569383 1079 -0.401127 0.916018 0.002942
-7.289213 -7.023868 -0.566263 1057 -0.401127 0.916018 0.002942
-7.288545 -7.023230 -0.563089 1053 -0.401127 0.916018 0.002942
-7.288617 -7.023298 -0.559979 1059 -0.401127 0.916018 0.002942
-7.288832 -7.023508 -0.556877 1059 -0.401127 0.916018 0.002942
-7.288430 -7.023112 -0.553730 1061 -0.401127 0.916018 0.002942
-7.288282 -7.022975 -0.550602 1055 -0.401127 0.916018 0.002942
-7.288930 -7.023603 -0.547535 1065 -0.401127 0.916018 0.002942
-7.288624 -7.023311 -0.544398 1069 -0.401127 0.916018 0.002942
-7.288222 -7.022916 -0.541242 1069 -0.401127 0.916018 0.002942
-7.288643 -7.023332 -0.538158 1075 -0.401127 0.916018 0.002942
-7.289400 -7.024048 -0.535101 1071 -0.401127 0.916018 0.002942
-7.289725 -7.024361 -0.532008 1075 -0.401127 0.916018 0.002942
-7.289309 -7.023967 -0.528861 1067 -0.401127 0.916018 0.002942
-7.288995 -7.023669 -0.525714 1061 -0.401127 0.916018 0.002942
-7.288792 -7.023474 -0.522586 1069 -0.401127 0.916018 0.002942
-7.288966 -7.023638 -0.519484 1069 -0.401127 0.916018 0.002942
-7.289173 -7.023842 -0.516382 1065 -0.401127 0.916018 0.002942
-7.288867 -7.023550 -0.513245 1067 -0.401127 0.916018 0.002942
-7.288450 -7.023141 -0.510099 1067 -0.401127 0.916018 0.002942
-7.289034 -7.023705 -0.507023 1069 -0.401127 0.916018 0.002942
-7.289668 -7.024320 -0.503947 1059 -0.401127 0.916018 0.002942
-7.289510 -7.024162 -0.500829 1063 -0.401127 0.916018 0.002942
-7.289252 -7.023922 -0.497691 1065 -0.401127 0.916018 0.002942
-7.289521 -7.024177 -0.494589 1067 -0.401127 0.916018 0.002942
-7.289940 -7.024580 -0.491505 1067 -0.401127 0.916018 0.002942
-7.289989 -7.024629 -0.488394 1073 -0.401127 0.916018 0.002942
-7.289564 -7.024214 -0.485248 1065 -0.401127 0.916018 0.002942
-7.288723 -7.023408 -0.482076 1061 -0.401127 0.916018 0.002942
-7.287825 -7.022544 -0.478904 1055 -0.401127 0.916018 0.002942
-7.287874 -7.022593 -0.475794 1061 -0.401127 0.916018 0.002942
-7.288395 -7.023092 -0.472709 1059 -0.401127 0.916018 0.002942
-7.288554 -7.023243 -0.469607 1055 -0.401127 0.916018 0.002942
-7.288493 -7.023190 -0.466488 1067 -0.401127 0.916018 0.002942
-7.288802 -7.023489 -0.463395 1071 -0.401127 0.916018 0.002942
-7.289055 -7.023731 -0.460292 1067 -0.401127 0.916018 0.002942
-7.288726 -7.023421 -0.457165 1065 -0.401127 0.916018 0.002942
-7.288618 -7.023315 -0.454036 1069 -0.401127 0.916018 0.002942
-7.288980 -7.023659 -0.450953 1081 -0.401127 0.916018 0.002942
-7.289345 -7.024004 -0.447859 1081 -0.401127 0.916018 0.002942
-7.289173 -7.023847 -0.444731 1073 -0.401127 0.916018 0.002942
-7.288590 -7.023279 -0.441586 1067 -0.401127 0.916018 0.002942
-7.288363 -7.023064 -0.438458 1055 -0.401127 0.916018 0.002942
-7.288396 -7.023101 -0.435348 1065 -0.401127 0.916018 0.002942
-7.288650 -7.023342 -0.432245 1075 -0.401127 0.916018 0.002942
-7.289117 -7.023797 -0.429161 1075 -0.401127 0.916018 0.002942
-7.288733 -7.023427 -0.426024 1067 -0.401127 0.916018 0.002942
-7.289294 -7.023972 -0.422939 1063 -0.401127 0.916018 0.002942
-7.289642 -7.024303 -0.419846 1065 -0.401127 0.916018 0.002942
-7.288523 -7.023220 -0.416666 1065 -0.401127 0.916018 0.002942
-7.288406 -7.023108 -0.413547 1067 -0.401127 0.916018 0.002942
-7.289276 -7.023955 -0.410479 1063 -0.401127 0.916018 0.002942
-7.289103 -7.023785 -0.407360 1069 -0.401127 0.916018 0.002942
-7.288765 -7.023454 -0.404234 1059 -0.401127 0.916018 0.002942
-7.289114 -7.023800 -0.401130 1059 -0.401127 0.916018 0.002942
-7.288682 -7.023379 -0.397994 1053 -0.401127 0.916018 0.002942
-7.288542 -7.023249 -0.394875 1059 -0.401127 0.916018 0.002942
-7.289109 -7.023785 -0.391800 1063 -0.401127 0.916018 0.002942
-7.288614 -7.023314 -0.388655 1049 -0.401127 0.916018 0.002942
-7.289010 -7.023697 -0.385561 1059 -0.401127 0.916018 0.002942
-7.289824 -7.024486 -0.382493 1073 -0.401127 0.916018 0.002942
-7.289486 -7.024155 -0.379366 1069 -0.401127 0.916018 0.002942
-7.289464 -7.024133 -0.376246 1065 -0.401127 0.916018 0.002942
-7.289544 -7.024207 -0.373135 1069 -0.401127 0.916018 0.002942
-7.289940 -7.024590 -0.370052 1073 -0.401127 0.916018 0.002942
-7.289957 -7.024614 -0.366931 1071 -0.401127 0.916018 0.002942
-7.289936 -7.024592 -0.363822 1073 -0.401127 0.916018 0.002942
-7.290007 -7.024661 -0.360711 1071 -0.401127 0.916018 0.002942
-7.289876 -7.024536 -0.357592 1069 -0.401127 0.916018 0.002942
-7.289797 -7.024456 -0.354473 1071 -0.401127 0.916018 0.002942
-7.289341 -7.024016 -0.351347 1067 -0.401127 0.916018 0.002942
-7.289680 -7.024341 -0.348244 1069 -0.401127 0.916018 0.002942
-7.290173 -7.024828 -0.345159 1071 -0.401127 0.916018 0.002942
-7.290141 -7.024786 -0.342039 1077 -0.401127 0.916018 0.002942
-7.289945 -7.024597 -0.338921 1077 -0.401127 0.916018 0.002942
-7.290011 -7.024673 -0.335810 1069 -0.401127 0.916018 0.002942
-7.290193 -7.024843 -0.332708 1073 -0.401127 0.916018 0.002942
-7.290266 -7.024911 -0.329598 1071 -0.401127 0.916018 0.002942
-7.290646 -7.025282 -0.326504 1077 -0.401127 0.916018 0.002942
-7.290238 -7.024895 -0.323378 1067 -0.401127 0.916018 0.002942
-7.289679 -7.024345 -0.320243 1069 -0.401127 0.916018 0.002942
-7.289064 -7.023750 -0.317099 1073 -0.401127 0.916018 0.002942
-7.297146 -7.027305 -0.613520 1085 -0.401127 0.916018 0.002942
-7.296856 -7.027026 -0.610373 1075 -0.401127 0.916018 0.002942
-7.296306 -7.026496 -0.607208 1075 -0.401127 0.916018 0.002942
-7.296385 -7.026570 -0.604097 1075 -0.401127 0.916018 0.002942
-7.296567 -7.026741 -0.600985 1077 -0.401127 0.916018 0.002942
-7.297121 -7.027278 -0.597910 1081 -0.401127 0.916018 0.002942
-7.297140 -7.027302 -0.594790 1085 -0.401127 0.916018 0.002942
-7.296691 -7.026869 -0.591634 1073 -0.401127 0.916018 0.002942
-7.297181 -7.027342 -0.588549 1077 -0.401127 0.916018 0.002942
-7.297364 -7.027513 -0.585447 1079 -0.401127 0.916018 0.002942
-7.297325 -7.027478 -0.582318 1073 -0.401127 0.916018 0.002942
-7.297563 -7.027707 -0.579215 1077 -0.401127 0.916018 0.002942
-7.297108 -7.027267 -0.576060 1075 -0.401127 0.916018 0.002942
-7.297448 -7.027592 -0.572966 1079 -0.401127 0.916018 0.002942
-7.297410 -7.027557 -0.569836 1085 -0.401127 0.916018 0.002942
-7.296267 -7.026455 -0.566637 1073 -0.401127 0.916018 0.002942
-7.296435 -7.026628 -0.563526 1073 -0.401127 0.916018 0.002942
-7.296870 -7.027042 -0.560441 1061 -0.401127 0.916018 0.002942
-7.296783 -7.026956 -0.557312 1067 -0.401127 0.916018 0.002942
-7.296170 -7.026362 -0.554148 1065 -0.401127 0.916018 0.002942
-7.296496 -7.026688 -0.551055 1061 -0.401127 0.916018 0.002942
-7.297143 -7.027301 -0.547979 1069 -0.401127 0.916018 0.002942
-7.297255 -7.027415 -0.544867 1073 -0.401127 0.916018 0.002942
-7.297011 -7.027174 -0.541730 1079 -0.401127 0.916018 0.002942
-7.296855 -7.027030 -0.538601 1089 -0.401127 0.916018 0.002942
-7.296920 -7.027093 -0.535490 1085 -0.401127 0.916018 0.002942
-7.296614 -7.026801 -0.532343 1069 -0.401127 0.916018 0.002942
-7.297253 -7.027409 -0.529267 1091 -0.401127 0.916018 0.002942
-7.296687 -7.026866 -0.526112 1083 -0.401127 0.916018 0.002942
-7.296326 -7.026516 -0.522966 1079 -0.401127 0.916018 0.002942
-7.297384 -7.027543 -0.519926 1085 -0.401127 0.916018 0.002942
-7.297283 -7.027444 -0.516796 1079 -0.401127 0.916018 0.002942
-7.297339 -7.027499 -0.513686 1077 -0.401127 0.916018 0.002942
-7.297555 -7.027709 -0.510574 1071 -0.401127 0.916018 0.002942
-7.297343 -7.027508 -0.507446 1065 -0.401127 0.916018 0.002942
-7.297249 -7.027414 -0.504316 1065 -0.401127 0.916018 0.002942
-7.297409 -7.027566 -0.501215 1061 -0.401127 0.916018 0.002942
-7.298143 -7.028277 -0.498138 1065 -0.401127 0.916018 0.002942
-7.298570 -7.028687 -0.495054 1067 -0.401127 0.916018 0.002942
-7.298043 -7.028175 -0.491899 1063 -0.401127 0.916018 0.002942
-7.297619 -7.027775 -0.488753 1065 -0.401127 0.916018 0.002942
-7.297990 -7.028125 -0.485659 1065 -0.401127 0.916018 0.002942
-7.297669 -7.027821 -0.482522 1057 -0.401127 0.916018 0.002942
-7.296771 -7.026957 -0.479340 1061 -0.401127 0.916018 0.002942
-7.296512 -7.026703 -0.476213 1057 -0.401127 0.916018 0.002942
-7.296505 -7.026694 -0.473093 1055 -0.401127 0.916018 0.002942
-7.297651 -7.027805 -0.470042 1061 -0.401127 0.916018 0.002942
-7.298289 -7.028411 -0.466966 1069 -0.401127 0.916018 0.002942
-7.298277 -7.028410 -0.463846 1073 -0.401127 0.916018 0.002942
-7.297371 -7.027540 -0.460674 1067 -0.401127 0.916018 0.002942
-7.297104 -7.027280 -0.457547 1071 -0.401127 0.916018 0.002942
-7.297523 -7.027682 -0.454453 1079 -0.401127 0.916018 0.002942
-7.297455 -7.027623 -0.451333 1075 -0.401127 0.916018 0.002942
-7.297344 -7.027503 -0.448204 1079 -0.401127 0.916018 0.002942
-7.296865 -7.027044 -0.445059 1071 -0.401127 0.916018 0.002942
-7.296748 -7.026932 -0.441940 1071 -0.401127 0.916018 0.002942
-7.297151 -7.027322 -0.438846 1075 -0.401127 0.916018 0.002942
-7.297619 -7.027777 -0.435751 1083 -0.401127 0.916018 0.002942
-7.297494 -7.027659 -0.432632 1077 -0.401127 0.916018 0.002942
-7.297267 -7.027444 -0.429504 1073 -0.401127 0.916018 0.002942
-7.297055 -7.027228 -0.426376 1065 -0.401127 0.916018 0.002942
-7.297190 -7.027361 -0.423265 1059 -0.401127 0.916018 0.002942
-7.297334 -7.027500 -0.420154 1073 -0.401127 0.916018 0.002942
-7.297525 -7.027691 -0.417052 1067 -0.401127 0.916018 0.002942
-7.297620 -7.027778 -0.413941 1071 -0.401127 0.916018 0.002942
-7.298023 -7.028167 -0.410847 1081 -0.401127 0.916018 0.002942
-7.298797 -7.028911 -0.407769 1073 -0.401127 0.916018 0.002942
-7.298563 -7.028690 -0.404642 1069 -0.401127 0.916018 0.002942
-7.298066 -7.028204 -0.401496 1063 -0.401127 0.916018 0.002942
-7.298684 -7.028807 -0.398410 1063 -0.401127 0.916018 0.002942
-7.298661 -7.028785 -0.395300 1073 -0.401127 0.916018 0.002942
-7.297899 -7.028057 -0.392138 1069 -0.401127 0.916018 0.002942
-7.298136 -7.028286 -0.389035 1071 -0.401127 0.916018 0.002942
-7.298224 -7.028366 -0.385924 1069 -0.401127 0.916018 0.002942
-7.298044 -7.028190 -0.382806 1069 -0.401127 0.916018 0.002942
-7.297863 -7.028014 -0.379678 1067 -0.401127 0.916018 0.002942
-7.297675 -7.027831 -0.376549 1071 -0.401127 0.916018 0.002942
-7.297489 -7.027662 -0.373431 1071 -0.401127 0.916018 0.002942
-7.297789 -7.027942 -0.370328 1071 -0.401127 0.916018 0.002942
-7.298595 -7.028724 -0.367250 1063 -0.401127 0.916018 0.002942
-7.298463 -7.028600 -0.364132 1069 -0.401127 0.916018 0.002942
-7.297801 -7.027953 -0.360978 1065 -0.401127 0.916018 0.002942
-7.297716 -7.027880 -0.357868 1075 -0.401127 0.916018 0.002942
-7.297740 -7.027897 -0.354748 1071 -0.401127 0.916018 0.002942
-7.297656 -7.027824 -0.351629 1065 -0.401127 0.916018 0.002942
-7.298256 -7.028400 -0.348543 1073 -0.401127 0.916018 0.002942
-7.298966 -7.029078 -0.345456 1077 -0.401127 0.916018 0.002942
-7.299095 -7.029205 -0.342355 1077 -0.401127 0.916018 0.002942
-7.299373 -7.029480 -0.339252 1083 -0.401127 0.916018 0.002942
-7.298547 -7.028687 -0.336100 1079 -0.401127 0.916018 0.002942
-7.297672 -7.027841 -0.332948 1069 -0.401127 0.916018 0.002942
-7.298060 -7.028218 -0.329845 1081 -0.401127 0.916018 0.002942
-7.297919 -7.028073 -0.326726 1087 -0.401127 0.916018 0.002942
-7.297613 -7.027782 -0.323599 1079 -0.401127 0.916018 0.002942
-7.298213 -7.028358 -0.320513 1083 -0.401127 0.916018 0.002942
-7.298278 -7.028419 -0.317402 1077 -0.401127 0.916018 0.002942
-7.304197 -7.029786 -0.613925 1079 -0.401127 0.916018 0.002942
-7.303585 -7.029205 -0.610750 1071 -0.401127 0.916018 0.002942
-7.303773 -7.029382 -0.607639 1071 -0.401127 0.916018 0.002942
-7.304320 -7.029913 -0.604563 1071 -0.401127 0.916018 0.002942
-7.304187 -7.029789 -0.601424 1073 -0.401127 0.916018 0.002942
-7.304157 -7.029761 -0.598305 1065 -0.401127 0.916018 0.002942
-7.304394 -7.029975 -0.595192 1061 -0.401127 0.916018 0.002942
-7.304420 -7.030006 -0.592072 1071 -0.401127 0.916018 0.002942
-7.304334 -7.029919 -0.588943 1077 -0.401127 0.916018 0.002942
-7.304359 -7.029949 -0.585822 1081 -0.401127 0.916018 0.002942
-7.304802 -7.030371 -0.582738 1075 -0.401127 0.916018 0.002942
-7.304709 -7.030292 -0.579599 1071 -0.401127 0.916018 0.002942
-7.304671 -7.030257 -0.576479 1073 -0.401127 0.916018 0.002942
-7.305012 -7.030582 -0.573376 1081 -0.401127 0.916018 0.002942
-7.304666 -7.030245 -0.570229 1069 -0.401127 0.916018 0.002942
-7.305306 -7.030867 -0.567153 1071 -0.401127 0.916018 0.002942
-7.305480 -7.031031 -0.564051 1069 -0.401127 0.916018 0.002942
-7.305552 -7.031099 -0.560930 1071 -0.401127 0.916018 0.002942
-7.305727 -7.031263 -0.557819 1077 -0.401127 0.916018 0.002942
-7.305319 -7.030875 -0.554663 1071 -0.401127 0.916018 0.002942
-7.304753 -7.030333 -0.551498 1067 -0.401127 0.916018 0.002942
-7.304825 -7.030401 -0.548387 1061 -0.401127 0.916018 0.002942
-7.304565 -7.030147 -0.545240 1067 -0.401127 0.916018 0.002942
-7.304637 -7.030215 -0.542129 1069 -0.401127 0.916018 0.002942
-7.305120 -7.030682 -0.539044 1065 -0.401127 0.916018 0.002942
-7.305130 -7.030699 -0.535914 1069 -0.401127 0.916018 0.002942
-7.305660 -7.031205 -0.532839 1077 -0.401127 0.916018 0.002942
-7.305520 -7.031074 -0.529700 1081 -0.401127 0.916018 0.002942
-7.304630 -7.030216 -0.526518 1081 -0.401127 0.916018 0.002942
-7.305008 -7.030572 -0.523425 1083 -0.401127 0.916018 0.002942
-7.305381 -7.030937 -0.520331 1079 -0.401127 0.916018 0.002942
-7.305493 -7.031050 -0.517210 1071 -0.401127 0.916018 0.002942
-7.305604 -7.031150 -0.514099 1075 -0.401127 0.916018 0.002942
-7.305810 -7.031353 -0.510997 1069 -0.401127 0.916018 0.002942
-7.306184 -7.031718 -0.507893 1075 -0.401127 0.916018 0.002942
-7.305348 -7.030904 -0.504721 1077 -0.401127 0.916018 0.002942
-7.304884 -7.030458 -0.501565 1071 -0.401127 0.916018 0.002942
-7.305303 -7.030860 -0.498471 1069 -0.401127 0.916018 0.002942
-7.305778 -7.031321 -0.495387 1073 -0.401127 0.916018 0.002942
-7.306095 -7.031628 -0.492284 1067 -0.401127 0.916018 0.002942
-7.305883 -7.031425 -0.489146 1065 -0.401127 0.916018 0.002942
-7.305506 -7.031063 -0.486009 1065 -0.401127 0.916018 0.002942
-7.305453 -7.031016 -0.482880 1075 -0.401127 0.916018 0.002942
-7.305714 -7.031263 -0.479777 1075 -0.401127 0.916018 0.002942
-7.305187 -7.030753 -0.476622 1065 -0.401127 0.916018 0.002942
-7.304865 -7.030448 -0.473485 1063 -0.401127 0.916018 0.002942
-7.304976 -7.030549 -0.470374 1071 -0.401127 0.916018 0.002942
-7.304703 -7.030297 -0.467236 1073 -0.401127 0.916018 0.002942
-7.305067 -7.030640 -0.464133 1065 -0.401127 0.916018 0.002942
-7.304997 -7.030580 -0.461013 1061 -0.401127 0.916018 0.002942
-7.304998 -7.030577 -0.457893 1071 -0.401127 0.916018 0.002942
-7.304724 -7.030311 -0.454756 1065 -0.401127 0.916018 0.002942
-7.304244 -7.029852 -0.451610 1065 -0.401127 0.916018 0.002942
-7.305184 -7.030756 -0.448541 1077 -0.401127 0.916018 0.002942
-7.305327 -7.030895 -0.445430 1071 -0.401127 0.916018 0.002942
-7.305211 -7.030784 -0.442311 1081 -0.401127 0.916018 0.002942
-7.305992 -7.031532 -0.439233 1083 -0.401127 0.916018 0.002942
-7.305561 -7.031126 -0.436087 1075 -0.401127 0.916018 0.002942
-7.305444 -7.031014 -0.432968 1079 -0.401127 0.916018 0.002942
-7.305901 -7.031448 -0.429874 1083 -0.401127 0.916018 0.002942
-7.305675 -7.031233 -0.426736 1073 -0.401127 0.916018 0.002942
-7.305660 -7.031218 -0.423616 1065 -0.401127 0.916018 0.002942
-7.305591 -7.031158 -0.420497 1075 -0.401127 0.916018 0.002942
-7.305741 -7.031290 -0.417385 1073 -0.401127 0.916018 0.002942
-7.306034 -7.031576 -0.414282 1073 -0.401127 0.916018 0.002942
-7.305491 -7.031053 -0.411138 1067 -0.401127 0.916018 0.002942
-7.305264 -7.030839 -0.408000 1079 -0.401127 0.916018 0.002942
-7.305456 -7.031030 -0.404898 1065 -0.401127 0.916018 0.002942
-7.305858 -7.031405 -0.401794 1067 -0.401127 0.916018 0.002942
-7.306097 -7.031648 -0.398691 1067 -0.401127 0.916018 0.002942
-7.305917 -7.031472 -0.395563 1061 -0.401127 0.916018 0.002942
-7.305476 -7.031045 -0.392427 1069 -0.401127 0.916018 0.002942
-7.305990 -7.031537 -0.389332 1067 -0.401127 0.916018 0.002942
-7.306070 -7.031611 -0.386221 1063 -0.401127 0.916018 0.002942
-7.306245 -7.031789 -0.383110 1063 -0.401127 0.916018 0.002942
-7.306389 -7.031929 -0.379998 1063 -0.401127 0.916018 0.002942
-7.305995 -7.031539 -0.376862 1067 -0.401127 0.916018 0.002942
-7.305603 -7.031164 -0.373726 1063 -0.401127 0.916018 0.002942
-7.305683 -7.031238 -0.370605 1061 -0.401127 0.916018 0.002942
-7.306277 -7.031822 -0.367519 1059 -0.401127 0.916018 0.002942
-7.305726 -7.031292 -0.364374 1061 -0.401127 0.916018 0.002942
-7.305388 -7.030962 -0.361237 1067 -0.401127 0.916018 0.002942
-7.305666 -7.031236 -0.358135 1071 -0.401127 0.916018 0.002942
-7.305587 -7.031156 -0.355015 1063 -0.401127 0.916018 0.002942
-7.305448 -7.031025 -0.351896 1065 -0.401127 0.916018 0.002942
-7.306000 -7.031549 -0.348801 1069 -0.401127 0.916018 0.002942
-7.306230 -7.031771 -0.345689 1071 -0.401127 0.916018 0.002942
-7.305774 -7.031332 -0.342553 1073 -0.401127 0.916018 0.002942
-7.305523 -7.031098 -0.339425 1071 -0.401127 0.916018 0.002942
-7.305706 -7.031269 -0.336314 1077 -0.401127 0.916018 0.002942
-7.305257 -7.030835 -0.333178 1067 -0.401127 0.916018 0.002942
-7.305480 -7.031052 -0.330076 1077 -0.401127 0.916018 0.002942
-7.305812 -7.031370 -0.326972 1075 -0.401127 0.916018 0.002942
-7.305782 -7.031343 -0.323853 1073 -0.401127 0.916018 0.002942
-7.306265 -7.031809 -0.320758 1081 -0.401127 0.916018 0.002942
-7.306007 -7.031569 -0.317630 1069 -0.401127 0.916018 0.002942
-7.313014 -7.033900 -0.614463 1069 -0.401127 0.916018 0.002942
-7.313251 -7.034129 -0.611360 1067 -0.401127 0.916018 0.002942
-7.313385 -7.034246 -0.608239 1067 -0.401127 0.916018 0.002942
-7.313617 -7.034483 -0.605137 1075 -0.401127 0.916018 0.002942
-7.313697 -7.034558 -0.602016 1077 -0.401127 0.916018 0.002942
-7.313351 -7.034220 -0.598859 1073 -0.401127 0.916018 0.002942
-7.313219 -7.034096 -0.595720 1075 -0.401127 0.916018 0.002942
-7.313827 -7.034678 -0.592645 1075 -0.401127 0.916018 0.002942
-7.314687 -7.035504 -0.589586 1085 -0.401127 0.916018 0.002942
-7.314657 -7.035477 -0.586457 1091 -0.401127 0.916018 0.002942
-7.314209 -7.035043 -0.583291 1081 -0.401127 0.916018 0.002942
-7.313752 -7.034603 -0.580135 1075 -0.401127 0.916018 0.002942
-7.313502 -7.034369 -0.576987 1065 -0.401127 0.916018 0.002942
-7.313676 -7.034534 -0.573876 1063 -0.401127 0.916018 0.002942
-7.313962 -7.034814 -0.570773 1077 -0.401127 0.916018 0.002942
-7.314145 -7.034985 -0.567661 1085 -0.401127 0.916018 0.002942
-7.313996 -7.034848 -0.564522 1083 -0.401127 0.916018 0.002942
-7.313855 -7.034703 -0.561384 1073 -0.401127 0.916018 0.002942
-7.314085 -7.034926 -0.558281 1071 -0.401127 0.916018 0.002942
-7.313930 -7.034782 -0.555143 1065 -0.401127 0.916018 0.002942
-7.314159 -7.035005 -0.552031 1069 -0.401127 0.916018 0.002942
-7.314224 -7.035066 -0.548910 1077 -0.401127 0.916018 0.002942
-7.314027 -7.034877 -0.545772 1071 -0.401127 0.916018 0.002942
-7.314401 -7.035242 -0.542678 1063 -0.401127 0.916018 0.002942
-7.314575 -7.035406 -0.539566 1071 -0.401127 0.916018 0.002942
-7.314481 -7.035313 -0.536427 1079 -0.401127 0.916018 0.002942
-7.314916 -7.035728 -0.533333 1079 -0.401127 0.916018 0.002942
-7.314658 -7.035489 -0.530195 1073 -0.401127 0.916018 0.002942
-7.314194 -7.035042 -0.527040 1075 -0.401127 0.916018 0.002942
-7.313991 -7.034847 -0.523901 1079 -0.401127 0.916018 0.002942
-7.314047 -7.034902 -0.520781 1079 -0.401127 0.916018 0.002942
-7.314584 -7.035413 -0.517686 1077 -0.401127 0.916018 0.002942
-7.314482 -7.035314 -0.514557 1077 -0.401127 0.916018 0.002942
-7.314595 -7.035428 -0.511445 1083 -0.401127 0.916018 0.002942
-7.314328 -7.035168 -0.508298 1081 -0.401127 0.916018 0.002942
-7.314494 -7.035326 -0.505186 1075 -0.401127 0.916018 0.002942
-7.314701 -7.035529 -0.502074 1087 -0.401127 0.916018 0.002942
-7.313757 -7.034627 -0.498893 1077 -0.401127 0.916018 0.002942
-7.313710 -7.034573 -0.495763 1067 -0.401127 0.916018 0.002942
-7.314075 -7.034930 -0.492660 1061 -0.401127 0.916018 0.002942
-7.314445 -7.035280 -0.489566 1065 -0.401127 0.916018 0.002942
-7.314763 -7.035586 -0.486463 1073 -0.401127 0.916018 0.002942
-7.314544 -7.035379 -0.483325 1069 -0.401127 0.916018 0.002942
-7.313914 -7.034772 -0.480161 1065 -0.401127 0.916018 0.002942
-7.313490 -7.034371 -0.477015 1063 -0.401127 0.916018 0.002942
-7.313593 -7.034464 -0.473894 1061 -0.401127 0.916018 0.002942
-7.313793 -7.034662 -0.470782 1053 -0.401127 0.916018 0.002942
-7.314053 -7.034909 -0.467680 1069 -0.401127 0.916018 0.002942
-7.314693 -7.035517 -0.464593 1071 -0.401127 0.916018 0.002942
-7.314411 -7.035258 -0.461456 1063 -0.401127 0.916018 0.002942
-7.313670 -7.034534 -0.458283 1067 -0.401127 0.916018 0.002942
-7.313664 -7.034539 -0.455163 1069 -0.401127 0.916018 0.002942
-7.314289 -7.035134 -0.452077 1079 -0.401127 0.916018 0.002942
-7.314069 -7.034926 -0.448939 1075 -0.401127 0.916018 0.002942
-7.313574 -7.034455 -0.445793 1063 -0.401127 0.916018 0.002942
-7.313828 -7.034696 -0.442681 1059 -0.401127 0.916018 0.002942
-7.314240 -7.035092 -0.439587 1067 -0.401127 0.916018 0.002942
-7.314445 -7.035282 -0.436475 1077 -0.401127 0.916018 0.002942
-7.314273 -7.035126 -0.433347 1067 -0.401127 0.916018 0.002942
-7.314946 -7.035772 -0.430260 1073 -0.401127 0.916018 0.002942
-7.314985 -7.035801 -0.427140 1065 -0.401127 0.916018 0.002942
-7.314340 -7.035182 -0.423986 1057 -0.401127 0.916018 0.002942
-7.314271 -7.035121 -0.420856 1061 -0.401127 0.916018 0.002942
-7.314934 -7.035762 -0.417770 1065 -0.401127 0.916018 0.002942
-7.315236 -7.036055 -0.414667 1075 -0.401127 0.916018 0.002942
-7.314905 -7.035731 -0.411530 1069 -0.401127 0.916018 0.002942
-7.314301 -7.035157 -0.408376 1061 -0.401127 0.916018 0.002942
-7.314184 -7.035045 -0.405247 1059 -0.401127 0.916018 0.002942
-7.314682 -7.035524 -0.402152 1069 -0.401127 0.916018 0.002942
-7.314769 -7.035605 -0.399031 1067 -0.401127 0.916018 0.002942
-7.314857 -7.035686 -0.395920 1059 -0.401127 0.916018 0.002942
-7.315001 -7.035825 -0.392799 1065 -0.401127 0.916018 0.002942
-7.315081 -7.035899 -0.389688 1061 -0.401127 0.916018 0.002942
-7.315325 -7.036134 -0.386576 1059 -0.401127 0.916018 0.002942
-7.315400 -7.036217 -0.383465 1065 -0.401127 0.916018 0.002942
-7.315645 -7.036451 -0.380352 1057 -0.401127 0.916018 0.002942
-7.315409 -7.036217 -0.377214 1055 -0.401127 0.916018 0.002942
-7.315269 -7.036086 -0.374086 1063 -0.401127 0.916018 0.002942
-7.315617 -7.036417 -0.370982 1059 -0.401127 0.916018 0.002942
-7.315162 -7.035992 -0.367847 1059 -0.401127 0.916018 0.002942
-7.314776 -7.035609 -0.364700 1061 -0.401127 0.916018 0.002942
-7.315212 -7.036037 -0.361606 1063 -0.401127 0.916018 0.002942
-7.315504 -7.036311 -0.358493 1065 -0.401127 0.916018 0.002942
-7.315111 -7.035935 -0.355357 1065 -0.401127 0.916018 0.002942
-7.315026 -7.035850 -0.352238 1065 -0.401127 0.916018 0.002942
-7.315043 -7.035873 -0.349117 1061 -0.401127 0.916018 0.002942
-7.314799 -7.035632 -0.345980 1057 -0.401127 0.916018 0.002942
-7.314659 -7.035501 -0.342861 1059 -0.401127 0.916018 0.002942
-7.314937 -7.035776 -0.339748 1075 -0.401127 0.916018 0.002942
-7.315168 -7.035998 -0.336636 1077 -0.401127 0.916018 0.002942
-7.315191 -7.036014 -0.333516 1081 -0.401127 0.916018 0.002942
-7.314996 -7.035825 -0.330387 1075 -0.401127 0.916018 0.002942
-7.315281 -7.036105 -0.327284 1075 -0.401127 0.916018 0.002942
-7.315662 -7.036477 -0.324181 1067 -0.401127 0.916018 0.002942
-7.315466 -7.036287 -0.321053 1073 -0.401127 0.916018 0.002942
-7.314954 -7.035789 -0.317907 1079 -0.401127 0.916018 0.002942
-7.322126 -7.038186 -0.611899 1071 -0.401127 0.916018 0.002942
-7.321946 -7.038010 -0.608760 1077 -0.401127 0.916018 0.002942
-7.321964 -7.038033 -0.605630 1077 -0.401127 0.916018 0.002942
-7.321626 -7.037703 -0.602473 1075 -0.401127 0.916018 0.002942
-7.321485 -7.037572 -0.599334 1077 -0.401127 0.916018 0.002942
-7.321565 -7.037646 -0.596214 1071 -0.401127 0.916018 0.002942
-7.322063 -7.038126 -0.593119 1073 -0.401127 0.916018 0.002942
-7.322135 -7.038194 -0.589998 1077 -0.401127 0.916018 0.002942
-7.321585 -7.037664 -0.586823 1071 -0.401127 0.916018 0.002942
-7.321286 -7.037379 -0.583676 1075 -0.401127 0.916018 0.002942
-7.321785 -7.037858 -0.580581 1067 -0.401127 0.916018 0.002942
-7.322165 -7.038229 -0.577488 1077 -0.401127 0.916018 0.002942
-7.321716 -7.037795 -0.574322 1075 -0.401127 0.916018 0.002942
-7.321891 -7.037960 -0.571210 1075 -0.401127 0.916018 0.002942
-7.322065 -7.038124 -0.568088 1071 -0.401127 0.916018 0.002942
-7.321767 -7.037838 -0.564941 1067 -0.401127 0.916018 0.002942
-7.321887 -7.037959 -0.561820 1065 -0.401127 0.916018 0.002942
-7.322582 -7.038624 -0.558743 1073 -0.401127 0.916018 0.002942
-7.322496 -7.038537 -0.555614 1071 -0.401127 0.916018 0.002942
-7.321616 -7.037701 -0.552422 1059 -0.401127 0.916018 0.002942
-7.321782 -7.037858 -0.549300 1069 -0.401127 0.916018 0.002942
-7.322801 -7.038839 -0.546251 1073 -0.401127 0.916018 0.002942
-7.322336 -7.038393 -0.543085 1059 -0.401127 0.916018 0.002942
-7.321400 -7.037497 -0.539894 1063 -0.401127 0.916018 0.002942
-7.322355 -7.038414 -0.536835 1069 -0.401127 0.916018 0.002942
-7.322474 -7.038519 -0.533714 1071 -0.401127 0.916018 0.002942
-7.321956 -7.038029 -0.530548 1075 -0.401127 0.916018 0.002942
-7.322382 -7.038437 -0.527454 1077 -0.401127 0.916018 0.002942
-7.322336 -7.038397 -0.524325 1065 -0.401127 0.916018 0.002942
-7.322723 -7.038759 -0.521221 1073 -0.401127 0.916018 0.002942
-7.323142 -7.039162 -0.518127 1085 -0.401127 0.916018 0.002942
-7.322782 -7.038826 -0.514970 1087 -0.401127 0.916018 0.002942
-7.322735 -7.038771 -0.511841 1079 -0.401127 0.916018 0.002942
-7.322531 -7.038575 -0.508702 1087 -0.401127 0.916018 0.002942
-7.321942 -7.038014 -0.505538 1085 -0.401127 0.916018 0.002942
-7.323063 -7.039092 -0.502487 1085 -0.401127 0.916018 0.002942
-7.322796 -7.038831 -0.499340 1079 -0.401127 0.916018 0.002942
-7.322420 -7.038483 -0.496193 1087 -0.401127 0.916018 0.002942
-7.322215 -7.038273 -0.493055 1079 -0.401127 0.916018 0.002942
-7.322217 -7.038285 -0.489925 1067 -0.401127 0.916018 0.002942
-7.322478 -7.038532 -0.486812 1067 -0.401127 0.916018 0.002942
-7.322747 -7.038786 -0.483710 1063 -0.401127 0.916018 0.002942
-7.323002 -7.039042 -0.480597 1067 -0.401127 0.916018 0.002942
-7.322365 -7.038429 -0.477433 1067 -0.401127 0.916018 0.002942
-7.322626 -7.038676 -0.474321 1073 -0.401127 0.916018 0.002942
-7.322627 -7.038674 -0.471201 1069 -0.401127 0.916018 0.002942
-7.322306 -7.038370 -0.468054 1071 -0.401127 0.916018 0.002942
-7.322039 -7.038109 -0.464906 1053 -0.401127 0.916018 0.002942
-7.322135 -7.038210 -0.461785 1067 -0.401127 0.916018 0.002942
-7.322389 -7.038452 -0.458683 1071 -0.401127 0.916018 0.002942
-7.322491 -7.038545 -0.455562 1077 -0.401127 0.916018 0.002942
-7.322588 -7.038646 -0.452441 1079 -0.401127 0.916018 0.002942
-7.322628 -7.038674 -0.449320 1065 -0.401127 0.916018 0.002942
-7.322559 -7.038615 -0.446191 1067 -0.401127 0.916018 0.002942
-7.322608 -7.038664 -0.443070 1073 -0.401127 0.916018 0.002942
-7.322971 -7.039008 -0.439967 1077 -0.401127 0.916018 0.002942
-7.322792 -7.038846 -0.436828 1075 -0.401127 0.916018 0.002942
-7.323155 -7.039189 -0.433725 1065 -0.401127 0.916018 0.002942
-7.323819 -7.039830 -0.430638 1059 -0.401127 0.916018 0.002942
-7.323387 -7.039409 -0.427492 1063 -0.401127 0.916018 0.002942
-7.322687 -7.038745 -0.424329 1063 -0.401127 0.916018 0.002942
-7.322302 -7.038376 -0.421183 1063 -0.401127 0.916018 0.002942
-7.322768 -7.038816 -0.418078 1067 -0.401127 0.916018 0.002942
-7.323013 -7.039052 -0.414976 1065 -0.401127 0.916018 0.002942
-7.322409 -7.038478 -0.411811 1055 -0.401127 0.916018 0.002942
-7.322764 -7.038815 -0.408708 1055 -0.401127 0.916018 0.002942
-7.323278 -7.039308 -0.405613 1061 -0.401127 0.916018 0.002942
-7.323098 -7.039131 -0.402475 1063 -0.401127 0.916018 0.002942
-7.322705 -7.038755 -0.399338 1061 -0.401127 0.916018 0.002942
-7.322786 -7.038844 -0.396217 1057 -0.401127 0.916018 0.002942
-7.323142 -7.039182 -0.393114 1065 -0.401127 0.916018 0.002942
-7.322750 -7.038807 -0.389968 1065 -0.401127 0.916018 0.002942
-7.322876 -7.038932 -0.386846 1057 -0.401127 0.916018 0.002942
-7.323911 -7.039927 -0.383776 1055 -0.401127 0.916018 0.002942
-7.324046 -7.040045 -0.380665 1059 -0.401127 0.916018 0.002942
-7.324031 -7.040030 -0.377535 1065 -0.401127 0.916018 0.002942
-7.323890 -7.039898 -0.374406 1059 -0.401127 0.916018 0.002942
-7.323546 -7.039576 -0.371269 1061 -0.401127 0.916018 0.002942
-7.323626 -7.039650 -0.368149 1071 -0.401127 0.916018 0.002942
-7.323754 -7.039776 -0.365027 1057 -0.401127 0.916018 0.002942
-7.324046 -7.040050 -0.361915 1061 -0.401127 0.916018 0.002942
-7.323865 -7.039873 -0.358786 1069 -0.401127 0.916018 0.002942
-7.323395 -7.039434 -0.355641 1065 -0.401127 0.916018 0.002942
-7.323215 -7.039258 -0.352512 1065 -0.401127 0.916018 0.002942
-7.323335 -7.039378 -0.349391 1065 -0.401127 0.916018 0.002942
-7.323155 -7.039202 -0.346263 1061 -0.401127 0.916018 0.002942
-7.323384 -7.039424 -0.343150 1065 -0.401127 0.916018 0.002942
-7.323771 -7.039787 -0.340047 1085 -0.401127 0.916018 0.002942
-7.324001 -7.040009 -0.336934 1087 -0.401127 0.916018 0.002942
-7.324768 -7.040746 -0.333837 1085 -0.401127 0.916018 0.002942
-7.324043 -7.040049 -0.330684 1079 -0.401127 0.916018 0.002942
-7.323209 -7.039250 -0.327532 1075 -0.401127 0.916018 0.002942
-7.323431 -7.039466 -0.324419 1079 -0.401127 0.916018 0.002942
-7.323291 -7.039335 -0.321291 1087 -0.401127 0.916018 0.002942
-7.324096 -7.040103 -0.318193 1091 -0.401127 0.916018 0.002942
-7.330316 -7.041583 -0.612393 1077 -0.401127 0.916018 0.002942
-7.329866 -7.041149 -0.609218 1079 -0.401127 0.916018 0.002942
-7.329782 -7.041076 -0.606078 1075 -0.401127 0.916018 0.002942
-7.329924 -7.041201 -0.602957 1065 -0.401127 0.916018 0.002942
-7.329894 -7.041173 -0.599827 1073 -0.401127 0.916018 0.002942
-7.329754 -7.041042 -0.596688 1075 -0.401127 0.916018 0.002942
-7.329573 -7.040866 -0.593540 1075 -0.401127 0.916018 0.002942
-7.329379 -7.040690 -0.590392 1069 -0.401127 0.916018 0.002942
-7.329561 -7.040861 -0.587270 1067 -0.401127 0.916018 0.002942
-7.329950 -7.041238 -0.584176 1065 -0.401127 0.916018 0.002942
-7.329651 -7.040953 -0.581019 1071 -0.401127 0.916018 0.002942
-7.329723 -7.041020 -0.577898 1073 -0.401127 0.916018 0.002942
-7.330693 -7.041949 -0.574839 1077 -0.401127 0.916018 0.002942
-7.330396 -7.041665 -0.571682 1073 -0.401127 0.916018 0.002942
-7.330358 -7.041629 -0.568552 1061 -0.401127 0.916018 0.002942
-7.330910 -7.042153 -0.565457 1065 -0.401127 0.916018 0.002942
-7.330974 -7.042215 -0.562336 1069 -0.401127 0.916018 0.002942
-7.331142 -7.042387 -0.559214 1073 -0.401127 0.916018 0.002942
-7.330946 -7.042198 -0.556066 1065 -0.401127 0.916018 0.002942
-7.330702 -7.041957 -0.552918 1065 -0.401127 0.916018 0.002942
-7.330822 -7.042077 -0.549797 1071 -0.401127 0.916018 0.002942
-7.331470 -7.042691 -0.546721 1087 -0.401127 0.916018 0.002942
-7.331212 -7.042451 -0.543563 1073 -0.401127 0.916018 0.002942
-7.330858 -7.042107 -0.540407 1071 -0.401127 0.916018 0.002942
-7.330702 -7.041964 -0.537268 1067 -0.401127 0.916018 0.002942
-7.330664 -7.041929 -0.534138 1073 -0.401127 0.916018 0.002942
-7.330885 -7.042131 -0.531026 1077 -0.401127 0.916018 0.002942
-7.330997 -7.042244 -0.527905 1065 -0.401127 0.916018 0.002942
-7.330847 -7.042093 -0.524756 1069 -0.401127 0.916018 0.002942
-7.330377 -7.041655 -0.521601 1071 -0.401127 0.916018 0.002942
-7.330544 -7.041813 -0.518479 1083 -0.401127 0.916018 0.002942
-7.331025 -7.042266 -0.515384 1077 -0.401127 0.916018 0.002942
-7.330767 -7.042026 -0.512237 1075 -0.401127 0.916018 0.002942
-7.330714 -7.041979 -0.509107 1075 -0.401127 0.916018 0.002942
-7.330935 -7.042181 -0.505995 1081 -0.401127 0.916018 0.002942
-7.330305 -7.041574 -0.502821 1081 -0.401127 0.916018 0.002942
-7.329929 -7.041225 -0.499664 1071 -0.401127 0.916018 0.002942
-7.330040 -7.041325 -0.496543 1077 -0.401127 0.916018 0.002942
-7.330255 -7.041535 -0.493431 1079 -0.401127 0.916018 0.002942
-7.330886 -7.042136 -0.490345 1081 -0.401127 0.916018 0.002942
-7.331101 -7.042346 -0.487223 1075 -0.401127 0.916018 0.002942
-7.330519 -7.041791 -0.484058 1063 -0.401127 0.916018 0.002942
-7.330828 -7.042090 -0.480955 1073 -0.401127 0.916018 0.002942
-7.330931 -7.042184 -0.477834 1079 -0.401127 0.916018 0.002942
-7.330719 -7.041982 -0.474686 1067 -0.401127 0.916018 0.002942
-7.330871 -7.042127 -0.471575 1061 -0.401127 0.916018 0.002942
-7.330392 -7.041669 -0.468409 1073 -0.401127 0.916018 0.002942
-7.330384 -7.041659 -0.465289 1073 -0.401127 0.916018 0.002942
-7.330323 -7.041605 -0.462150 1063 -0.401127 0.916018 0.002942
-7.330474 -7.041751 -0.459038 1061 -0.401127 0.916018 0.002942
-7.330996 -7.042249 -0.455943 1063 -0.401127 0.916018 0.002942
-7.330831 -7.042086 -0.452805 1063 -0.401127 0.916018 0.002942
-7.330351 -7.041626 -0.449649 1061 -0.401127 0.916018 0.002942
-7.330173 -7.041464 -0.446511 1063 -0.401127 0.916018 0.002942
-7.330331 -7.041616 -0.443389 1059 -0.401127 0.916018 0.002942
-7.331208 -7.042455 -0.440311 1071 -0.401127 0.916018 0.002942
-7.331777 -7.043005 -0.437215 1077 -0.401127 0.916018 0.002942
-7.331660 -7.042893 -0.434086 1071 -0.401127 0.916018 0.002942
-7.331329 -7.042569 -0.430939 1069 -0.401127 0.916018 0.002942
-7.330692 -7.041955 -0.427776 1067 -0.401127 0.916018 0.002942
-7.330417 -7.041690 -0.424638 1065 -0.401127 0.916018 0.002942
-7.330442 -7.041719 -0.421508 1059 -0.401127 0.916018 0.002942
-7.331430 -7.042675 -0.418438 1073 -0.401127 0.916018 0.002942
-7.331684 -7.042916 -0.415326 1067 -0.401127 0.916018 0.002942
-7.331242 -7.042489 -0.412170 1057 -0.401127 0.916018 0.002942
-7.331748 -7.042975 -0.409075 1057 -0.401127 0.916018 0.002942
-7.330945 -7.042201 -0.405903 1061 -0.401127 0.916018 0.002942
-7.330032 -7.041324 -0.402731 1063 -0.401127 0.916018 0.002942
-7.330956 -7.042215 -0.399652 1063 -0.401127 0.916018 0.002942
-7.330934 -7.042193 -0.396522 1059 -0.401127 0.916018 0.002942
-7.330384 -7.041664 -0.393368 1055 -0.401127 0.916018 0.002942
-7.330621 -7.041893 -0.390255 1063 -0.401127 0.916018 0.002942
-7.331135 -7.042385 -0.387160 1063 -0.401127 0.916018 0.002942
-7.331209 -7.042467 -0.384030 1059 -0.401127 0.916018 0.002942
-7.330980 -7.042239 -0.380892 1061 -0.401127 0.916018 0.002942
-7.331424 -7.042674 -0.377787 1059 -0.401127 0.916018 0.002942
-7.331716 -7.042947 -0.374684 1057 -0.401127 0.916018 0.002942
-7.332222 -7.043432 -0.371580 1057 -0.401127 0.916018 0.002942
-7.332349 -7.043559 -0.368458 1067 -0.401127 0.916018 0.002942
-7.332107 -7.043332 -0.365321 1067 -0.401127 0.916018 0.002942
-7.332351 -7.043552 -0.362208 1063 -0.401127 0.916018 0.002942
-7.331999 -7.043223 -0.359061 1061 -0.401127 0.916018 0.002942
-7.331440 -7.042687 -0.355917 1061 -0.401127 0.916018 0.002942
-7.331466 -7.042717 -0.352786 1063 -0.401127 0.916018 0.002942
-7.331909 -7.043139 -0.349682 1063 -0.401127 0.916018 0.002942
-7.332296 -7.043516 -0.346578 1067 -0.401127 0.916018 0.002942
-7.332108 -7.043333 -0.343440 1067 -0.401127 0.916018 0.002942
-7.331810 -7.043047 -0.340303 1073 -0.401127 0.916018 0.002942
-7.331676 -7.042909 -0.337174 1067 -0.401127 0.916018 0.002942
-7.331686 -7.042926 -0.334044 1079 -0.401127 0.916018 0.002942
-7.331814 -7.043053 -0.330922 1083 -0.401127 0.916018 0.002942
-7.331413 -7.042657 -0.327786 1077 -0.401127 0.916018 0.002942
-7.331320 -7.042578 -0.324657 1075 -0.401127 0.916018 0.002942
-7.331809 -7.043037 -0.321552 1087 -0.401127 0.916018 0.002942
-7.332457 -7.043665 -0.318456 1083 -0.401127 0.916018 0.002942
-7.338296 -7.044679 -0.612851 1071 -0.401127 0.916018 0.002942
-7.338101 -7.044504 -0.609702 1075 -0.401127 0.916018 0.002942
-7.338243 -7.044630 -0.606581 1063 -0.401127 0.916018 0.002942
-7.337732 -7.044145 -0.603406 1065 -0.401127 0.916018 0.002942
-7.337703 -7.044117 -0.600266 1069 -0.401127 0.916018 0.002942
-7.337782 -7.044191 -0.597145 1053 -0.401127 0.916018 0.002942
-7.337911 -7.044317 -0.594014 1057 -0.401127 0.916018 0.002942
-7.338037 -7.044444 -0.590892 1069 -0.401127 0.916018 0.002942
-7.338062 -7.044460 -0.587762 1071 -0.401127 0.916018 0.002942
-7.338190 -7.044585 -0.584641 1071 -0.401127 0.916018 0.002942
-7.338474 -7.044852 -0.581528 1057 -0.401127 0.916018 0.002942
-7.338594 -7.044972 -0.578397 1065 -0.401127 0.916018 0.002942
-7.338983 -7.045349 -0.575293 1065 -0.401127 0.916018 0.002942
-7.338842 -7.045218 -0.572154 1063 -0.401127 0.916018 0.002942
-7.338700 -7.045074 -0.569006 1065 -0.401127 0.916018 0.002942
-7.338931 -7.045296 -0.565893 1065 -0.401127 0.916018 0.002942
-7.338941 -7.045313 -0.562763 1071 -0.401127 0.916018 0.002942
-7.338965 -7.045330 -0.559633 1057 -0.401127 0.916018 0.002942
-7.338817 -7.045192 -0.556484 1059 -0.401127 0.916018 0.002942
-7.339211 -7.045561 -0.553380 1069 -0.401127 0.916018 0.002942
-7.339371 -7.045727 -0.550259 1073 -0.401127 0.916018 0.002942
-7.338701 -7.045074 -0.547075 1063 -0.401127 0.916018 0.002942
-7.338766 -7.045135 -0.543944 1069 -0.401127 0.916018 0.002942
-7.339296 -7.045655 -0.540859 1075 -0.401127 0.916018 0.002942
-7.339258 -7.045620 -0.537720 1075 -0.401127 0.916018 0.002942
-7.338958 -7.045321 -0.534562 1055 -0.401127 0.916018 0.002942
-7.338803 -7.045177 -0.531424 1061 -0.401127 0.916018 0.002942
-7.338969 -7.045335 -0.528302 1067 -0.401127 0.916018 0.002942
-7.338980 -7.045352 -0.525172 1059 -0.401127 0.916018 0.002942
-7.338988 -7.045356 -0.522042 1063 -0.401127 0.916018 0.002942
-7.339093 -7.045463 -0.518911 1065 -0.401127 0.916018 0.002942
-7.339527 -7.045878 -0.515807 1073 -0.401127 0.916018 0.002942
-7.339686 -7.046030 -0.512685 1069 -0.401127 0.916018 0.002942
-7.339222 -7.045584 -0.509529 1077 -0.401127 0.916018 0.002942
-7.338901 -7.045279 -0.506372 1075 -0.401127 0.916018 0.002942
-7.338909 -7.045282 -0.503242 1081 -0.401127 0.916018 0.002942
-7.338746 -7.045133 -0.500104 1073 -0.401127 0.916018 0.002942
-7.339337 -7.045688 -0.497008 1077 -0.401127 0.916018 0.002942
-7.339174 -7.045538 -0.493869 1071 -0.401127 0.916018 0.002942
-7.339340 -7.045696 -0.490748 1075 -0.401127 0.916018 0.002942
-7.339649 -7.045996 -0.487635 1077 -0.401127 0.916018 0.002942
-7.339170 -7.045537 -0.484469 1067 -0.401127 0.916018 0.002942
-7.339116 -7.045490 -0.481340 1065 -0.401127 0.916018 0.002942
-7.339118 -7.045487 -0.478210 1065 -0.401127 0.916018 0.002942
-7.339480 -7.045830 -0.475096 1067 -0.401127 0.916018 0.002942
-7.339427 -7.045784 -0.471967 1067 -0.401127 0.916018 0.002942
-7.338742 -7.045118 -0.468793 1063 -0.401127 0.916018 0.002942
-7.338838 -7.045219 -0.465662 1065 -0.401127 0.916018 0.002942
-7.338880 -7.045261 -0.462541 1053 -0.401127 0.916018 0.002942
-7.338824 -7.045200 -0.459402 1053 -0.401127 0.916018 0.002942
-7.338764 -7.045147 -0.456272 1053 -0.401127 0.916018 0.002942
-7.339395 -7.045748 -0.453176 1061 -0.401127 0.916018 0.002942
-7.339538 -7.045887 -0.450055 1059 -0.401127 0.916018 0.002942
-7.338522 -7.044914 -0.446864 1061 -0.401127 0.916018 0.002942
-7.338729 -7.045117 -0.443752 1055 -0.401127 0.916018 0.002942
-7.339716 -7.046059 -0.440673 1055 -0.401127 0.916018 0.002942
-7.339449 -7.045799 -0.437536 1055 -0.401127 0.916018 0.002942
-7.339221 -7.045584 -0.434388 1061 -0.401127 0.916018 0.002942
-7.339579 -7.045937 -0.431274 1065 -0.401127 0.916018 0.002942
-7.339194 -7.045568 -0.428128 1053 -0.401127 0.916018 0.002942
-7.338603 -7.044992 -0.424963 1047 -0.401127 0.916018 0.002942
-7.338738 -7.045125 -0.421842 1055 -0.401127 0.916018 0.002942
-7.339197 -7.045572 -0.418737 1057 -0.401127 0.916018 0.002942
-7.339395 -7.045755 -0.415625 1057 -0.401127 0.916018 0.002942
-7.339279 -7.045644 -0.412486 1047 -0.401127 0.916018 0.002942
-7.339682 -7.046034 -0.409383 1059 -0.401127 0.916018 0.002942
-7.339447 -7.045813 -0.406235 1055 -0.401127 0.916018 0.002942
-7.339157 -7.045534 -0.403087 1049 -0.401127 0.916018 0.002942
-7.339780 -7.046128 -0.399991 1049 -0.401127 0.916018 0.002942
-7.339806 -7.046158 -0.396871 1051 -0.401127 0.916018 0.002942
-7.339523 -7.045886 -0.393724 1061 -0.401127 0.916018 0.002942
-7.339651 -7.046012 -0.390602 1059 -0.401127 0.916018 0.002942
-7.339897 -7.046247 -0.387490 1061 -0.401127 0.916018 0.002942
-7.340197 -7.046527 -0.384367 1067 -0.401127 0.916018 0.002942
-7.340435 -7.046755 -0.381255 1063 -0.401127 0.916018 0.002942
-7.340459 -7.046785 -0.378124 1061 -0.401127 0.916018 0.002942
-7.340382 -7.046705 -0.374995 1053 -0.401127 0.916018 0.002942
-7.339981 -7.046324 -0.371849 1057 -0.401127 0.916018 0.002942
-7.339644 -7.046007 -0.368702 1059 -0.401127 0.916018 0.002942
-7.340087 -7.046428 -0.365598 1047 -0.401127 0.916018 0.002942
-7.340647 -7.046958 -0.362492 1045 -0.401127 0.916018 0.002942
-7.341137 -7.047431 -0.359388 1059 -0.401127 0.916018 0.002942
-7.340524 -7.046851 -0.356233 1053 -0.401127 0.916018 0.002942
-7.340392 -7.046726 -0.353094 1059 -0.401127 0.916018 0.002942
-7.340786 -7.047096 -0.349981 1069 -0.401127 0.916018 0.002942
-7.340804 -7.047119 -0.346860 1067 -0.401127 0.916018 0.002942
-7.340932 -7.047246 -0.343739 1067 -0.401127 0.916018 0.002942
-7.340634 -7.046961 -0.340592 1067 -0.401127 0.916018 0.002942
-7.339807 -7.046167 -0.337430 1063 -0.401127 0.916018 0.002942
-7.340100 -7.046441 -0.334317 1085 -0.401127 0.916018 0.002942
-7.340905 -7.047208 -0.331219 1085 -0.401127 0.916018 0.002942
-7.340544 -7.046873 -0.328072 1085 -0.401127 0.916018 0.002942
-7.340411 -7.046734 -0.324944 1075 -0.401127 0.916018 0.002942
-7.340901 -7.047207 -0.321839 1081 -0.401127 0.916018 0.002942
-7.340335 -7.046665 -0.318684 1073 -0.401127 0.916018 0.002942
