774
-7.422361 -7.136119 -0.326734 1551 0.733132 0.680086 0.000000
-7.422488 -7.136230 -0.323573 1551 0.733132 0.680086 0.000000
-7.422347 -7.136101 -0.320404 1535 0.733132 0.680086 0.000000
-7.422100 -7.135862 -0.317226 1531 0.733132 0.680086 0.000000
-7.422373 -7.136127 -0.314073 1539 0.733132 0.680086 0.000000
-7.422861 -7.136603 -0.310929 1543 0.733132 0.680086 0.000000
-7.422509 -7.136255 -0.307752 1543 0.733132 0.680086 0.000000
-7.424481 -7.133697 -0.691254 1553 0.733132 0.680086 0.000000
-7.424004 -7.133235 -0.688039 1547 0.733132 0.680086 0.000000
-7.423311 -7.132577 -0.684795 1547 0.733132 0.680086 0.000000
-7.423726 -7.132967 -0.681661 1553 0.733132 0.680086 0.000000
-7.423975 -7.133214 -0.678509 1549 0.733132 0.680086 0.000000
-7.423864 -7.133110 -0.675320 1555 0.733132 0.680086 0.000000
-7.423578 -7.132840 -0.672122 1551 0.733132 0.680086 0.000000
-7.423412 -7.132678 -0.668934 1549 0.733132 0.680086 0.000000
-7.423985 -7.133222 -0.665808 1543 0.733132 0.680086 0.000000
-7.424076 -7.133316 -0.662637 1549 0.733132 0.680086 0.000000
-7.424163 -7.133395 -0.659477 1557 0.733132 0.680086 0.000000
-7.424142 -7.133387 -0.656297 1551 0.733132 0.680086 0.000000
-7.423823 -7.133079 -0.653100 1545 0.733132 0.680086 0.000000
-7.423329 -7.132604 -0.649874 1543 0.733132 0.680086 0.000000
-7.423474 -7.132741 -0.646713 1545 0.733132 0.680086 0.000000
-7.424033 -7.133274 -0.643587 1547 0.733132 0.680086 0.000000
-7.424273 -7.133513 -0.640435 1549 0.733132 0.680086 0.000000
-7.424258 -7.133498 -0.637265 1539 0.733132 0.680086 0.000000
-7.423965 -7.133222 -0.634068 1543 0.733132 0.680086 0.000000
-7.423790 -7.133053 -0.630879 1543 0.733132 0.680086 0.000000
-7.424246 -7.133490 -0.627745 1547 0.733132 0.680086 0.000000
-7.424064 -7.133316 -0.624557 1551 0.733132 0.680086 0.000000
-7.423728 -7.132994 -0.621350 1545 0.733132 0.680086 0.000000
-7.424129 -7.133373 -0.618216 1551 0.733132 0.680086 0.000000
-7.424202 -7.133454 -0.615045 1543 0.733132 0.680086 0.000000
-7.424180 -7.133432 -0.611875 1543 0.733132 0.680086 0.000000
-7.424156 -7.133410 -0.608695 1541 0.733132 0.680086 0.000000
-7.423814 -7.133082 -0.605498 1543 0.733132 0.680086 0.000000
-7.424157 -7.133404 -0.602355 1539 0.733132 0.680086 0.000000
-7.424605 -7.133834 -0.599211 1543 0.733132 0.680086 0.000000
-7.424520 -7.133762 -0.596031 1547 0.733132 0.680086 0.000000
-7.424440 -7.133684 -0.592862 1541 0.733132 0.680086 0.000000
-7.424672 -7.133903 -0.589700 1547 0.733132 0.680086 0.000000
-7.424800 -7.134028 -0.586539 1551 0.733132 0.680086 0.000000
-7.424666 -7.133904 -0.583360 1549 0.733132 0.680086 0.000000
-7.424531 -7.133768 -0.580181 1539 0.733132 0.680086 0.000000
-7.424651 -7.133886 -0.577010 1551 0.733132 0.680086 0.000000
-7.424567 -7.133814 -0.573840 1549 0.733132 0.680086 0.000000
-7.424582 -7.133823 -0.570670 1545 0.733132 0.680086 0.000000
-7.424814 -7.134043 -0.567508 1541 0.733132 0.680086 0.000000
-7.425032 -7.134265 -0.564356 1543 0.733132 0.680086 0.000000
-7.424690 -7.133937 -0.561159 1535 0.733132 0.680086 0.000000
-7.424706 -7.133946 -0.557989 1549 0.733132 0.680086 0.000000
-7.424986 -7.134218 -0.554836 1537 0.733132 0.680086 0.000000
-7.425313 -7.134527 -0.551693 1543 0.733132 0.680086 0.000000
-7.425116 -7.134340 -0.548505 1541 0.733132 0.680086 0.000000
-7.424758 -7.133999 -0.545308 1533 0.733132 0.680086 0.000000
-7.424719 -7.133965 -0.542138 1541 0.733132 0.680086 0.000000
-7.424943 -7.134179 -0.538986 1549 0.733132 0.680086 0.000000
-7.424799 -7.134036 -0.535797 1547 0.733132 0.680086 0.000000
-7.424809 -7.134052 -0.532627 1543 0.733132 0.680086 0.000000
-7.424977 -7.134209 -0.529476 1537 0.733132 0.680086 0.000000
-7.424357 -7.133620 -0.526261 1539 0.733132 0.680086 0.000000
-7.424254 -7.133522 -0.523082 1537 0.733132 0.680086 0.000000
-7.424630 -7.133882 -0.519939 1537 0.733132 0.680086 0.000000
-7.424694 -7.133943 -0.516778 1543 0.733132 0.680086 0.000000
-7.425008 -7.134254 -0.513625 1549 0.733132 0.680086 0.000000
-7.425072 -7.134315 -0.510464 1553 0.733132 0.680086 0.000000
-7.425073 -7.134311 -0.507294 1541 0.733132 0.680086 0.000000
-7.425392 -7.134614 -0.504141 1537 0.733132 0.680086 0.000000
-7.425505 -7.134726 -0.500980 1541 0.733132 0.680086 0.000000
-7.425508 -7.134737 -0.497810 1545 0.733132 0.680086 0.000000
-7.425508 -7.134735 -0.494640 1545 0.733132 0.680086 0.000000
-7.425245 -7.134483 -0.491452 1545 0.733132 0.680086 0.000000
-7.425031 -7.134283 -0.488274 1537 0.733132 0.680086 0.000000
-7.425511 -7.134738 -0.485129 1545 0.733132 0.680086 0.000000
-7.425719 -7.134940 -0.481977 1535 0.733132 0.680086 0.000000
-7.425401 -7.134631 -0.478790 1531 0.733132 0.680086 0.000000
-7.424978 -7.134227 -0.475594 1531 0.733132 0.680086 0.000000
-7.424868 -7.134122 -0.472415 1533 0.733132 0.680086 0.000000
-7.424709 -7.133966 -0.469237 1533 0.733132 0.680086 0.000000
-7.424917 -7.134167 -0.466085 1543 0.733132 0.680086 0.000000
-7.425014 -7.134267 -0.462924 1533 0.733132 0.680086 0.000000
-7.424688 -7.133952 -0.459736 1537 0.733132 0.680086 0.000000
-7.424259 -7.133542 -0.456541 1533 0.733132 0.680086 0.000000
-7.424307 -7.133590 -0.453370 1547 0.733132 0.680086 0.000000
-7.424245 -7.133537 -0.450200 1541 0.733132 0.680086 0.000000
-7.424133 -7.133418 -0.447031 1535 0.733132 0.680086 0.000000
-7.424494 -7.133767 -0.443878 1535 0.733132 0.680086 0.000000
-7.425062 -7.134319 -0.440742 1541 0.733132 0.680086 0.000000
-7.425207 -7.134456 -0.437591 1531 0.733132 0.680086 0.000000
-7.425199 -7.134447 -0.434421 1547 0.733132 0.680086 0.000000
-7.425344 -7.134598 -0.431260 1551 0.733132 0.680086 0.000000
-7.425385 -7.134640 -0.428099 1541 0.733132 0.680086 0.000000
-7.425162 -7.134420 -0.424911 1535 0.733132 0.680086 0.000000
-7.424987 -7.134251 -0.421733 1539 0.733132 0.680086 0.000000
-7.425125 -7.134383 -0.418581 1547 0.733132 0.680086 0.000000
-7.425325 -7.134578 -0.415419 1547 0.733132 0.680086 0.000000
-7.425096 -7.134366 -0.412241 1539 0.733132 0.680086 0.000000
-7.424913 -7.134191 -0.409063 1533 0.733132 0.680086 0.000000
-7.424697 -7.133976 -0.405885 1543 0.733132 0.680086 0.000000
-7.424244 -7.133548 -0.402699 1543 0.733132 0.680086 0.000000
-7.424492 -7.133781 -0.399547 1541 0.733132 0.680086 0.000000
-7.424796 -7.134070 -0.396394 1545 0.733132 0.680086 0.000000
-7.424718 -7.134005 -0.393225 1535 0.733132 0.680086 0.000000
-7.424807 -7.134085 -0.390054 1535 0.733132 0.680086 0.000000
-7.424512 -7.133808 -0.386876 1537 0.733132 0.680086 0.000000
-7.424752 -7.134034 -0.383724 1545 0.733132 0.680086 0.000000
-7.424834 -7.134122 -0.380563 1537 0.733132 0.680086 0.000000
-7.424340 -7.133648 -0.377368 1537 0.733132 0.680086 0.000000
-7.424212 -7.133516 -0.374199 1533 0.733132 0.680086 0.000000
-7.424030 -7.133342 -0.371021 1545 0.733132 0.680086 0.000000
-7.423944 -7.133270 -0.367851 1529 0.733132 0.680086 0.000000
-7.424552 -7.133854 -0.364715 1541 0.733132 0.680086 0.000000
-7.424792 -7.134080 -0.361563 1543 0.733132 0.680086 0.000000
-7.424768 -7.134058 -0.358393 1543 0.733132 0.680086 0.000000
-7.424889 -7.134176 -0.355232 1543 0.733132 0.680086 0.000000
-7.425018 -7.134301 -0.352081 1543 0.733132 0.680086 0.000000
-7.425138 -7.134420 -0.348919 1543 0.733132 0.680086 0.000000
-7.425220 -7.134493 -0.345749 1539 0.733132 0.680086 0.000000
-7.425133 -7.134421 -0.342589 1543 0.733132 0.680086 0.000000
-7.424679 -7.133978 -0.339394 1539 0.733132 0.680086 0.000000
-7.424432 -7.133739 -0.336226 1543 0.733132 0.680086 0.000000
-7.424720 -7.134017 -0.333073 1537 0.733132 0.680086 0.000000
-7.424571 -7.133882 -0.329894 1543 0.733132 0.680086 0.000000
-7.424484 -7.133796 -0.326725 1543 0.733132 0.680086 0.000000
-7.424182 -7.133513 -0.323548 1537 0.733132 0.680086 0.000000
-7.424047 -7.133377 -0.320379 1539 0.733132 0.680086 0.000000
-7.424638 -7.133947 -0.317243 1545 0.733132 0.680086 0.000000
-7.424870 -7.134168 -0.314081 1543 0.733132 0.680086 0.000000
-7.424880 -7.134184 -0.310921 1545 0.733132 0.680086 0.000000
-7.424425 -7.133741 -0.307735 1537 0.733132 0.680086 0.000000
-7.426615 -7.130960 -0.691227 1545 0.733132 0.680086 0.000000
-7.426393 -7.130753 -0.688040 1549 0.733132 0.680086 0.000000
-7.426226 -7.130591 -0.684841 1553 0.733132 0.680086 0.000000
-7.426005 -7.130385 -0.681653 1541 0.733132 0.680086 0.000000
-7.425949 -7.130324 -0.678474 1547 0.733132 0.680086 0.000000
-7.426198 -7.130571 -0.675321 1549 0.733132 0.680086 0.000000
-7.426350 -7.130714 -0.672160 1551 0.733132 0.680086 0.000000
-7.426016 -7.130393 -0.668953 1547 0.733132 0.680086 0.000000
-7.425897 -7.130282 -0.665764 1547 0.733132 0.680086 0.000000
-7.426360 -7.130725 -0.662629 1559 0.733132 0.680086 0.000000
-7.426290 -7.130666 -0.659450 1547 0.733132 0.680086 0.000000
-7.426649 -7.131000 -0.656306 1545 0.733132 0.680086 0.000000
-7.426993 -7.131335 -0.653163 1555 0.733132 0.680086 0.000000
-7.426564 -7.130925 -0.649957 1545 0.733132 0.680086 0.000000
-7.426437 -7.130807 -0.646768 1547 0.733132 0.680086 0.000000
-7.426263 -7.130639 -0.643580 1549 0.733132 0.680086 0.000000
-7.426239 -7.130617 -0.640400 1545 0.733132 0.680086 0.000000
-7.426646 -7.131002 -0.637266 1547 0.733132 0.680086 0.000000
-7.426680 -7.131039 -0.634095 1551 0.733132 0.680086 0.000000
-7.426283 -7.130667 -0.630889 1551 0.733132 0.680086 0.000000
-7.426219 -7.130600 -0.627710 1543 0.733132 0.680086 0.000000
-7.426147 -7.130527 -0.624530 1541 0.733132 0.680086 0.000000
-7.426125 -7.130505 -0.621350 1553 0.733132 0.680086 0.000000
-7.426351 -7.130732 -0.618198 1547 0.733132 0.680086 0.000000
-7.426487 -7.130864 -0.615037 1537 0.733132 0.680086 0.000000
-7.426734 -7.131096 -0.611884 1543 0.733132 0.680086 0.000000
-7.427126 -7.131469 -0.608741 1547 0.733132 0.680086 0.000000
-7.426840 -7.131199 -0.605553 1551 0.733132 0.680086 0.000000
-7.426595 -7.130974 -0.602355 1539 0.733132 0.680086 0.000000
-7.426467 -7.130843 -0.599177 1543 0.733132 0.680086 0.000000
-7.426485 -7.130867 -0.596006 1547 0.733132 0.680086 0.000000
-7.426773 -7.131144 -0.592854 1549 0.733132 0.680086 0.000000
-7.426742 -7.131116 -0.589684 1549 0.733132 0.680086 0.000000
-7.426934 -7.131290 -0.586522 1557 0.733132 0.680086 0.000000
-7.426991 -7.131359 -0.583351 1561 0.733132 0.680086 0.000000
-7.426498 -7.130885 -0.580146 1549 0.733132 0.680086 0.000000
-7.426466 -7.130843 -0.576966 1551 0.733132 0.680086 0.000000
-7.426643 -7.131019 -0.573814 1547 0.733132 0.680086 0.000000
-7.426924 -7.131290 -0.570662 1543 0.733132 0.680086 0.000000
-7.426939 -7.131300 -0.567491 1545 0.733132 0.680086 0.000000
-7.426646 -7.131023 -0.564304 1545 0.733132 0.680086 0.000000
-7.427086 -7.131448 -0.561160 1535 0.733132 0.680086 0.000000
-7.427462 -7.131809 -0.558016 1545 0.733132 0.680086 0.000000
-7.427263 -7.131621 -0.554828 1543 0.733132 0.680086 0.000000
-7.427336 -7.131689 -0.551667 1535 0.733132 0.680086 0.000000
-7.427138 -7.131501 -0.548479 1539 0.733132 0.680086 0.000000
-7.426994 -7.131357 -0.545300 1537 0.733132 0.680086 0.000000
-7.426948 -7.131317 -0.542131 1533 0.733132 0.680086 0.000000
-7.426917 -7.131289 -0.538951 1535 0.733132 0.680086 0.000000
-7.426767 -7.131153 -0.535772 1535 0.733132 0.680086 0.000000
-7.426934 -7.131309 -0.532610 1537 0.733132 0.680086 0.000000
-7.427158 -7.131522 -0.529458 1545 0.733132 0.680086 0.000000
-7.427161 -7.131534 -0.526288 1547 0.733132 0.680086 0.000000
-7.427336 -7.131696 -0.523126 1539 0.733132 0.680086 0.000000
-7.427226 -7.131591 -0.519957 1543 0.733132 0.680086 0.000000
-7.426924 -7.131309 -0.516760 1541 0.733132 0.680086 0.000000
-7.427515 -7.131866 -0.513635 1537 0.733132 0.680086 0.000000
-7.428042 -7.132373 -0.510499 1539 0.733132 0.680086 0.000000
-7.427309 -7.131669 -0.507276 1531 0.733132 0.680086 0.000000
-7.426729 -7.131126 -0.504072 1533 0.733132 0.680086 0.000000
-7.426889 -7.131276 -0.500910 1545 0.733132 0.680086 0.000000
-7.427208 -7.131578 -0.497767 1543 0.733132 0.680086 0.000000
-7.427473 -7.131837 -0.494614 1545 0.733132 0.680086 0.000000
-7.427530 -7.131892 -0.491444 1537 0.733132 0.680086 0.000000
-7.427427 -7.131793 -0.488275 1541 0.733132 0.680086 0.000000
-7.427524 -7.131894 -0.485114 1545 0.733132 0.680086 0.000000
-7.427636 -7.131991 -0.481943 1545 0.733132 0.680086 0.000000
-7.427534 -7.131894 -0.478773 1539 0.733132 0.680086 0.000000
-7.427790 -7.132146 -0.475621 1549 0.733132 0.680086 0.000000
-7.427831 -7.132188 -0.472450 1537 0.733132 0.680086 0.000000
-7.427042 -7.131427 -0.469238 1531 0.733132 0.680086 0.000000
-7.426564 -7.130965 -0.466042 1525 0.733132 0.680086 0.000000
-7.427029 -7.131422 -0.462898 1527 0.733132 0.680086 0.000000
-7.427348 -7.131725 -0.459745 1537 0.733132 0.680086 0.000000
-7.427078 -7.131468 -0.456567 1529 0.733132 0.680086 0.000000
-7.427542 -7.131911 -0.453423 1541 0.733132 0.680086 0.000000
-7.427798 -7.132163 -0.450270 1541 0.733132 0.680086 0.000000
-7.427583 -7.131950 -0.447092 1541 0.733132 0.680086 0.000000
-7.427721 -7.132095 -0.443931 1551 0.733132 0.680086 0.000000
-7.427617 -7.131982 -0.440752 1545 0.733132 0.680086 0.000000
-7.427339 -7.131719 -0.437574 1543 0.733132 0.680086 0.000000
-7.427324 -7.131703 -0.434404 1543 0.733132 0.680086 0.000000
-7.427413 -7.131797 -0.431243 1537 0.733132 0.680086 0.000000
-7.427398 -7.131782 -0.428073 1533 0.733132 0.680086 0.000000
-7.427239 -7.131625 -0.424895 1537 0.733132 0.680086 0.000000
-7.427064 -7.131456 -0.421717 1531 0.733132 0.680086 0.000000
-7.427195 -7.131596 -0.418565 1537 0.733132 0.680086 0.000000
-7.427507 -7.131892 -0.415412 1551 0.733132 0.680086 0.000000
-7.427372 -7.131769 -0.412233 1549 0.733132 0.680086 0.000000
-7.426997 -7.131402 -0.409047 1535 0.733132 0.680086 0.000000
-7.427396 -7.131781 -0.405903 1535 0.733132 0.680086 0.000000
-7.427327 -7.131722 -0.402734 1545 0.733132 0.680086 0.000000
-7.426833 -7.131248 -0.399538 1543 0.733132 0.680086 0.000000
-7.426810 -7.131226 -0.396368 1543 0.733132 0.680086 0.000000
-7.427273 -7.131669 -0.393234 1541 0.733132 0.680086 0.000000
-7.427667 -7.132056 -0.390080 1545 0.733132 0.680086 0.000000
-7.427698 -7.132077 -0.386920 1537 0.733132 0.680086 0.000000
-7.427461 -7.131859 -0.383742 1541 0.733132 0.680086 0.000000
-7.426862 -7.131275 -0.380547 1539 0.733132 0.680086 0.000000
-7.426785 -7.131210 -0.377378 1535 0.733132 0.680086 0.000000
-7.426865 -7.131283 -0.374207 1539 0.733132 0.680086 0.000000
-7.426731 -7.131160 -0.371038 1543 0.733132 0.680086 0.000000
-7.427019 -7.131438 -0.367886 1545 0.733132 0.680086 0.000000
-7.427418 -7.131817 -0.364742 1539 0.733132 0.680086 0.000000
-7.427076 -7.131489 -0.361555 1529 0.733132 0.680086 0.000000
-7.426567 -7.131002 -0.358370 1535 0.733132 0.680086 0.000000
-7.426752 -7.131185 -0.355208 1539 0.733132 0.680086 0.000000
-7.427255 -7.131660 -0.352073 1545 0.733132 0.680086 0.000000
-7.427383 -7.131784 -0.348912 1543 0.733132 0.680086 0.000000
-7.427193 -7.131603 -0.345733 1539 0.733132 0.680086 0.000000
-7.426891 -7.131321 -0.342556 1537 0.733132 0.680086 0.000000
-7.426756 -7.131184 -0.339387 1543 0.733132 0.680086 0.000000
-7.426773 -7.131207 -0.336217 1541 0.733132 0.680086 0.000000
-7.427110 -7.131536 -0.333074 1547 0.733132 0.680086 0.000000
-7.427237 -7.131647 -0.329913 1543 0.733132 0.680086 0.000000
-7.427350 -7.131759 -0.326751 1545 0.733132 0.680086 0.000000
-7.427057 -7.131484 -0.323574 1535 0.733132 0.680086 0.000000
-7.426491 -7.130939 -0.320379 1541 0.733132 0.680086 0.000000
-7.426244 -7.130700 -0.317212 1541 0.733132 0.680086 0.000000
-7.426468 -7.130913 -0.314049 1539 0.733132 0.680086 0.000000
-7.427117 -7.131543 -0.310913 1547 0.733132 0.680086 0.000000
-7.426862 -7.131298 -0.307746 1551 0.733132 0.680086 0.000000
-7.428475 -7.127954 -0.691183 1547 0.733132 0.680086 0.000000
-7.428573 -7.128054 -0.688012 1553 0.733132 0.680086 0.000000
-7.428725 -7.128197 -0.684851 1553 0.733132 0.680086 0.000000
-7.428766 -7.128239 -0.681680 1549 0.733132 0.680086 0.000000
-7.428545 -7.128033 -0.678492 1547 0.733132 0.680086 0.000000
-7.428593 -7.128082 -0.675322 1557 0.733132 0.680086 0.000000
-7.428322 -7.127810 -0.672114 1553 0.733132 0.680086 0.000000
-7.428355 -7.127846 -0.668944 1549 0.733132 0.680086 0.000000
-7.428604 -7.128092 -0.665792 1551 0.733132 0.680086 0.000000
-7.428748 -7.128230 -0.662630 1555 0.733132 0.680086 0.000000
-7.429052 -7.128520 -0.659487 1551 0.733132 0.680086 0.000000
-7.428831 -7.128314 -0.656289 1553 0.733132 0.680086 0.000000
-7.428496 -7.127992 -0.653092 1551 0.733132 0.680086 0.000000
-7.428481 -7.127976 -0.649912 1555 0.733132 0.680086 0.000000
-7.428888 -7.128362 -0.646778 1549 0.733132 0.680086 0.000000
-7.428761 -7.128245 -0.643589 1543 0.733132 0.680086 0.000000
-7.428316 -7.127822 -0.640374 1541 0.733132 0.680086 0.000000
-7.428253 -7.127755 -0.637194 1535 0.733132 0.680086 0.000000
-7.428749 -7.128237 -0.634069 1541 0.733132 0.680086 0.000000
-7.429364 -7.128827 -0.630943 1545 0.733132 0.680086 0.000000
-7.429029 -7.128505 -0.627747 1547 0.733132 0.680086 0.000000
-7.428743 -7.128235 -0.624549 1543 0.733132 0.680086 0.000000
-7.429414 -7.128869 -0.621433 1547 0.733132 0.680086 0.000000
-7.429432 -7.128892 -0.618252 1553 0.733132 0.680086 0.000000
-7.429248 -7.128717 -0.615064 1541 0.733132 0.680086 0.000000
-7.429441 -7.128906 -0.611912 1545 0.733132 0.680086 0.000000
-7.429051 -7.128527 -0.608706 1537 0.733132 0.680086 0.000000
-7.428957 -7.128448 -0.605527 1535 0.733132 0.680086 0.000000
-7.429413 -7.128886 -0.602392 1549 0.733132 0.680086 0.000000
-7.429229 -7.128697 -0.599204 1539 0.733132 0.680086 0.000000
-7.428784 -7.128274 -0.595998 1535 0.733132 0.680086 0.000000
-7.428961 -7.128450 -0.592836 1543 0.733132 0.680086 0.000000
-7.429090 -7.128575 -0.589675 1545 0.733132 0.680086 0.000000
-7.429059 -7.128547 -0.586505 1537 0.733132 0.680086 0.000000
-7.429234 -7.128709 -0.583343 1547 0.733132 0.680086 0.000000
-7.429682 -7.129140 -0.580209 1549 0.733132 0.680086 0.000000
-7.429803 -7.129258 -0.577048 1549 0.733132 0.680086 0.000000
-7.429564 -7.129026 -0.573850 1537 0.733132 0.680086 0.000000
-7.429471 -7.128948 -0.570671 1539 0.733132 0.680086 0.000000
-7.429551 -7.129022 -0.567510 1547 0.733132 0.680086 0.000000
-7.429567 -7.129031 -0.564340 1541 0.733132 0.680086 0.000000
-7.429369 -7.128844 -0.561152 1547 0.733132 0.680086 0.000000
-7.429809 -7.129268 -0.558017 1553 0.733132 0.680086 0.000000
-7.429929 -7.129386 -0.554856 1547 0.733132 0.680086 0.000000
-7.429467 -7.128937 -0.551650 1537 0.733132 0.680086 0.000000
-7.429373 -7.128859 -0.548471 1535 0.733132 0.680086 0.000000
-7.429335 -7.128824 -0.545302 1541 0.733132 0.680086 0.000000
-7.429343 -7.128827 -0.542131 1537 0.733132 0.680086 0.000000
-7.429456 -7.128940 -0.538960 1539 0.733132 0.680086 0.000000
-7.429840 -7.129306 -0.535816 1537 0.733132 0.680086 0.000000
-7.429913 -7.129374 -0.532656 1549 0.733132 0.680086 0.000000
-7.429755 -7.129232 -0.529477 1537 0.733132 0.680086 0.000000
-7.429820 -7.129292 -0.526307 1541 0.733132 0.680086 0.000000
-7.429460 -7.128939 -0.523110 1539 0.733132 0.680086 0.000000
-7.429573 -7.129050 -0.519949 1539 0.733132 0.680086 0.000000
-7.429638 -7.129111 -0.516788 1543 0.733132 0.680086 0.000000
-7.429687 -7.129160 -0.513617 1537 0.733132 0.680086 0.000000
-7.429640 -7.129119 -0.510448 1537 0.733132 0.680086 0.000000
-7.429386 -7.128874 -0.507260 1533 0.733132 0.680086 0.000000
-7.429698 -7.129184 -0.504107 1539 0.733132 0.680086 0.000000
-7.429396 -7.128888 -0.500920 1535 0.733132 0.680086 0.000000
-7.429342 -7.128842 -0.497750 1539 0.733132 0.680086 0.000000
-7.429709 -7.129195 -0.494607 1535 0.733132 0.680086 0.000000
-7.429606 -7.129097 -0.491428 1531 0.733132 0.680086 0.000000
-7.429296 -7.128795 -0.488240 1533 0.733132 0.680086 0.000000
-7.429656 -7.129143 -0.485097 1533 0.733132 0.680086 0.000000
-7.430287 -7.129745 -0.481961 1535 0.733132 0.680086 0.000000
-7.429810 -7.129296 -0.478765 1539 0.733132 0.680086 0.000000
-7.429867 -7.129351 -0.475605 1549 0.733132 0.680086 0.000000
-7.430227 -7.129699 -0.472451 1545 0.733132 0.680086 0.000000
-7.430012 -7.129486 -0.469273 1533 0.733132 0.680086 0.000000
-7.429590 -7.129081 -0.466077 1533 0.733132 0.680086 0.000000
-7.429687 -7.129181 -0.462916 1547 0.733132 0.680086 0.000000
-7.429999 -7.129478 -0.459763 1543 0.733132 0.680086 0.000000
-7.429681 -7.129169 -0.456576 1529 0.733132 0.680086 0.000000
-7.429570 -7.129064 -0.453407 1531 0.733132 0.680086 0.000000
-7.429820 -7.129311 -0.450255 1535 0.733132 0.680086 0.000000
-7.429763 -7.129250 -0.447075 1543 0.733132 0.680086 0.000000
-7.429326 -7.128833 -0.443889 1541 0.733132 0.680086 0.000000
-7.429167 -7.128677 -0.440711 1531 0.733132 0.680086 0.000000
-7.429624 -7.129128 -0.437566 1541 0.733132 0.680086 0.000000
-7.429824 -7.129323 -0.434414 1541 0.733132 0.680086 0.000000
-7.429809 -7.129307 -0.431244 1539 0.733132 0.680086 0.000000
-7.429586 -7.129087 -0.428066 1539 0.733132 0.680086 0.000000
-7.429627 -7.129129 -0.424896 1545 0.733132 0.680086 0.000000
-7.429501 -7.129013 -0.421727 1539 0.733132 0.680086 0.000000
-7.429285 -7.128798 -0.418549 1533 0.733132 0.680086 0.000000
-7.429270 -7.128783 -0.415379 1535 0.733132 0.680086 0.000000
-7.429081 -7.128616 -0.412201 1535 0.733132 0.680086 0.000000
-7.428915 -7.128454 -0.409022 1533 0.733132 0.680086 0.000000
-7.429106 -7.128629 -0.405870 1543 0.733132 0.680086 0.000000
-7.429299 -7.128818 -0.402708 1547 0.733132 0.680086 0.000000
-7.429221 -7.128752 -0.399539 1541 0.733132 0.680086 0.000000
-7.429468 -7.128984 -0.396387 1539 0.733132 0.680086 0.000000
-7.429286 -7.128809 -0.393208 1539 0.733132 0.680086 0.000000
-7.429479 -7.128999 -0.390056 1537 0.733132 0.680086 0.000000
-7.429775 -7.129282 -0.386903 1531 0.733132 0.680086 0.000000
-7.429855 -7.129355 -0.383743 1547 0.733132 0.680086 0.000000
-7.429521 -7.129034 -0.380556 1555 0.733132 0.680086 0.000000
-7.429228 -7.128758 -0.377378 1545 0.733132 0.680086 0.000000
-7.429523 -7.129042 -0.374225 1553 0.733132 0.680086 0.000000
-7.429541 -7.129066 -0.371065 1547 0.733132 0.680086 0.000000
-7.429470 -7.128993 -0.367886 1541 0.733132 0.680086 0.000000
-7.429758 -7.129270 -0.364743 1545 0.733132 0.680086 0.000000
-7.429624 -7.129147 -0.361564 1539 0.733132 0.680086 0.000000
-7.429593 -7.129119 -0.358404 1539 0.733132 0.680086 0.000000
-7.429721 -7.129243 -0.355243 1533 0.733132 0.680086 0.000000
-7.429913 -7.129418 -0.352081 1541 0.733132 0.680086 0.000000
-7.429619 -7.129141 -0.348904 1539 0.733132 0.680086 0.000000
-7.429151 -7.128700 -0.345718 1537 0.733132 0.680086 0.000000
-7.429231 -7.128774 -0.342557 1541 0.733132 0.680086 0.000000
-7.429304 -7.128841 -0.339397 1535 0.733132 0.680086 0.000000
-7.429113 -7.128660 -0.336218 1535 0.733132 0.680086 0.000000
-7.429442 -7.128983 -0.333065 1547 0.733132 0.680086 0.000000
-7.429730 -7.129261 -0.329912 1547 0.733132 0.680086 0.000000
-7.429427 -7.128964 -0.326735 1545 0.733132 0.680086 0.000000
-7.429236 -7.128783 -0.323567 1537 0.733132 0.680086 0.000000
-7.429150 -7.128698 -0.320398 1541 0.733132 0.680086 0.000000
-7.429008 -7.128568 -0.317229 1545 0.733132 0.680086 0.000000
-7.429232 -7.128781 -0.314067 1541 0.733132 0.680086 0.000000
-7.429193 -7.128747 -0.310907 1541 0.733132 0.680086 0.000000
-7.429147 -7.128707 -0.307737 1551 0.733132 0.680086 0.000000
-7.430897 -7.125754 -0.691203 1541 0.733132 0.680086 0.000000
-7.431001 -7.125846 -0.688032 1549 0.733132 0.680086 0.000000
-7.431146 -7.125997 -0.684870 1553 0.733132 0.680086 0.000000
-7.430931 -7.125783 -0.681672 1549 0.733132 0.680086 0.000000
-7.430869 -7.125730 -0.678493 1545 0.733132 0.680086 0.000000
-7.431387 -7.126217 -0.675368 1555 0.733132 0.680086 0.000000
-7.431214 -7.126062 -0.672179 1543 0.733132 0.680086 0.000000
-7.430991 -7.125843 -0.668981 1547 0.733132 0.680086 0.000000
-7.430823 -7.125679 -0.665793 1543 0.733132 0.680086 0.000000
-7.430905 -7.125767 -0.662622 1545 0.733132 0.680086 0.000000
-7.431265 -7.126115 -0.659478 1553 0.733132 0.680086 0.000000
-7.431250 -7.126099 -0.656308 1541 0.733132 0.680086 0.000000
-7.430867 -7.125727 -0.653102 1545 0.733132 0.680086 0.000000
-7.430789 -7.125661 -0.649913 1547 0.733132 0.680086 0.000000
-7.431045 -7.125900 -0.646760 1553 0.733132 0.680086 0.000000
-7.431389 -7.126235 -0.643617 1549 0.733132 0.680086 0.000000
-7.431214 -7.126066 -0.640428 1545 0.733132 0.680086 0.000000
-7.430832 -7.125694 -0.637222 1543 0.733132 0.680086 0.000000
-7.430857 -7.125723 -0.634052 1541 0.733132 0.680086 0.000000
-7.431313 -7.126160 -0.630917 1543 0.733132 0.680086 0.000000
-7.431609 -7.126444 -0.627774 1545 0.733132 0.680086 0.000000
-7.431427 -7.126269 -0.624586 1547 0.733132 0.680086 0.000000
-7.431092 -7.125947 -0.621379 1539 0.733132 0.680086 0.000000
-7.431229 -7.126079 -0.618218 1539 0.733132 0.680086 0.000000
-7.431781 -7.126618 -0.615092 1545 0.733132 0.680086 0.000000
-7.431757 -7.126596 -0.611912 1545 0.733132 0.680086 0.000000
-7.431416 -7.126269 -0.608716 1543 0.733132 0.680086 0.000000
-7.431282 -7.126146 -0.605537 1539 0.733132 0.680086 0.000000
-7.431154 -7.126015 -0.602348 1543 0.733132 0.680086 0.000000
-7.431491 -7.126344 -0.599205 1537 0.733132 0.680086 0.000000
-7.432001 -7.126825 -0.596070 1537 0.733132 0.680086 0.000000
-7.432219 -7.127046 -0.592918 1539 0.733132 0.680086 0.000000
-7.431987 -7.126820 -0.589730 1543 0.733132 0.680086 0.000000
-7.431270 -7.126128 -0.586496 1529 0.733132 0.680086 0.000000
-7.431607 -7.126458 -0.583353 1535 0.733132 0.680086 0.000000
-7.431783 -7.126620 -0.580191 1545 0.733132 0.680086 0.000000
-7.431752 -7.126592 -0.577022 1547 0.733132 0.680086 0.000000
-7.431873 -7.126710 -0.573860 1551 0.733132 0.680086 0.000000
-7.431628 -7.126485 -0.570673 1545 0.733132 0.680086 0.000000
-7.431500 -7.126354 -0.567484 1537 0.733132 0.680086 0.000000
-7.431780 -7.126626 -0.564341 1535 0.733132 0.680086 0.000000
-7.431741 -7.126591 -0.561161 1535 0.733132 0.680086 0.000000
-7.431806 -7.126652 -0.558001 1543 0.733132 0.680086 0.000000
-7.431559 -7.126413 -0.554803 1541 0.733132 0.680086 0.000000
-7.431521 -7.126379 -0.551633 1525 0.733132 0.680086 0.000000
-7.432223 -7.127052 -0.548517 1539 0.733132 0.680086 0.000000
-7.432233 -7.127069 -0.545346 1545 0.733132 0.680086 0.000000
-7.431828 -7.126677 -0.542140 1537 0.733132 0.680086 0.000000
-7.431781 -7.126637 -0.538970 1545 0.733132 0.680086 0.000000
-7.431948 -7.126793 -0.535809 1545 0.733132 0.680086 0.000000
-7.431750 -7.126606 -0.532631 1543 0.733132 0.680086 0.000000
-7.431601 -7.126470 -0.529442 1535 0.733132 0.680086 0.000000
-7.431879 -7.126727 -0.526299 1537 0.733132 0.680086 0.000000
-7.431833 -7.126686 -0.523120 1541 0.733132 0.680086 0.000000
-7.431730 -7.126588 -0.519940 1547 0.733132 0.680086 0.000000
-7.431795 -7.126649 -0.516780 1533 0.733132 0.680086 0.000000
-7.431588 -7.126455 -0.513592 1535 0.733132 0.680086 0.000000
-7.431326 -7.126204 -0.510404 1537 0.733132 0.680086 0.000000
-7.431910 -7.126769 -0.507278 1539 0.733132 0.680086 0.000000
-7.432278 -7.127123 -0.504135 1539 0.733132 0.680086 0.000000
-7.432343 -7.127184 -0.500964 1547 0.733132 0.680086 0.000000
-7.431969 -7.126831 -0.497778 1543 0.733132 0.680086 0.000000
-7.431762 -7.126624 -0.494590 1539 0.733132 0.680086 0.000000
-7.431867 -7.126730 -0.491428 1535 0.733132 0.680086 0.000000
-7.432243 -7.127090 -0.488285 1541 0.733132 0.680086 0.000000
-7.432508 -7.127349 -0.485132 1545 0.733132 0.680086 0.000000
-7.432030 -7.126888 -0.481937 1545 0.733132 0.680086 0.000000
-7.431718 -7.126585 -0.478740 1537 0.733132 0.680086 0.000000
-7.431497 -7.126379 -0.475562 1539 0.733132 0.680086 0.000000
-7.431538 -7.126421 -0.472391 1541 0.733132 0.680086 0.000000
-7.432024 -7.126883 -0.469256 1541 0.733132 0.680086 0.000000
-7.432065 -7.126925 -0.466096 1533 0.733132 0.680086 0.000000
-7.431955 -7.126821 -0.462917 1541 0.733132 0.680086 0.000000
-7.432053 -7.126920 -0.459756 1541 0.733132 0.680086 0.000000
-7.432261 -7.127121 -0.456594 1537 0.733132 0.680086 0.000000
-7.432620 -7.127456 -0.453450 1543 0.733132 0.680086 0.000000
-7.432877 -7.127708 -0.450298 1541 0.733132 0.680086 0.000000
-7.432288 -7.127145 -0.447093 1539 0.733132 0.680086 0.000000
-7.431650 -7.126530 -0.443889 1537 0.733132 0.680086 0.000000
-7.431269 -7.126171 -0.440703 1525 0.733132 0.680086 0.000000
-7.431462 -7.126360 -0.437541 1531 0.733132 0.680086 0.000000
-7.432244 -7.127109 -0.434423 1533 0.733132 0.680086 0.000000
-7.432388 -7.127246 -0.431262 1543 0.733132 0.680086 0.000000
-7.432373 -7.127231 -0.428092 1537 0.733132 0.680086 0.000000
-7.432463 -7.127324 -0.424931 1539 0.733132 0.680086 0.000000
-7.432350 -7.127205 -0.421752 1539 0.733132 0.680086 0.000000
-7.432233 -7.127095 -0.418583 1545 0.733132 0.680086 0.000000
-7.431843 -7.126730 -0.415397 1537 0.733132 0.680086 0.000000
-7.431939 -7.126815 -0.412236 1539 0.733132 0.680086 0.000000
-7.431965 -7.126845 -0.409065 1539 0.733132 0.680086 0.000000
-7.432053 -7.126925 -0.405905 1541 0.733132 0.680086 0.000000
-7.431934 -7.126814 -0.402736 1541 0.733132 0.680086 0.000000
-7.431440 -7.126340 -0.399540 1541 0.733132 0.680086 0.000000
-7.431258 -7.126165 -0.396362 1537 0.733132 0.680086 0.000000
-7.431139 -7.126054 -0.393193 1541 0.733132 0.680086 0.000000
-7.431005 -7.125930 -0.390014 1529 0.733132 0.680086 0.000000
-7.431245 -7.126157 -0.386862 1531 0.733132 0.680086 0.000000
-7.431638 -7.126544 -0.383718 1533 0.733132 0.680086 0.000000
-7.431463 -7.126375 -0.380540 1533 0.733132 0.680086 0.000000
-7.431600 -7.126506 -0.377388 1535 0.733132 0.680086 0.000000
-7.432207 -7.127090 -0.374242 1537 0.733132 0.680086 0.000000
-7.431809 -7.126704 -0.371066 1549 0.733132 0.680086 0.000000
-7.431315 -7.126230 -0.367871 1545 0.733132 0.680086 0.000000
-7.431236 -7.126151 -0.364701 1539 0.733132 0.680086 0.000000
-7.431310 -7.126232 -0.361540 1533 0.733132 0.680086 0.000000
-7.432020 -7.126911 -0.358404 1549 0.733132 0.680086 0.000000
-7.432676 -7.127545 -0.355277 1555 0.733132 0.680086 0.000000
-7.432278 -7.127160 -0.352091 1549 0.733132 0.680086 0.000000
-7.431928 -7.126826 -0.348904 1543 0.733132 0.680086 0.000000
-7.431849 -7.126747 -0.345735 1543 0.733132 0.680086 0.000000
-7.431395 -7.126318 -0.342549 1535 0.733132 0.680086 0.000000
-7.431731 -7.126633 -0.339396 1527 0.733132 0.680086 0.000000
-7.431908 -7.126809 -0.336244 1533 0.733132 0.680086 0.000000
-7.431767 -7.126680 -0.333075 1549 0.733132 0.680086 0.000000
-7.431249 -7.126187 -0.329880 1537 0.733132 0.680086 0.000000
-7.431432 -7.126355 -0.326728 1535 0.733132 0.680086 0.000000
-7.431921 -7.126831 -0.323584 1541 0.733132 0.680086 0.000000
-7.431826 -7.126739 -0.320415 1537 0.733132 0.680086 0.000000
-7.432169 -7.127060 -0.317261 1553 0.733132 0.680086 0.000000
-7.431868 -7.126778 -0.314084 1549 0.733132 0.680086 0.000000
-7.431245 -7.126176 -0.310900 1549 0.733132 0.680086 0.000000
-7.431677 -7.126594 -0.307746 1547 0.733132 0.680086 0.000000
-7.433384 -7.123695 -0.691221 1547 0.733132 0.680086 0.000000
-7.433487 -7.123787 -0.688060 1545 0.733132 0.680086 0.000000
-7.433417 -7.123728 -0.684880 1543 0.733132 0.680086 0.000000
-7.433561 -7.123866 -0.681719 1557 0.733132 0.680086 0.000000
-7.433555 -7.123857 -0.678539 1553 0.733132 0.680086 0.000000
-7.433022 -7.123351 -0.675314 1547 0.733132 0.680086 0.000000
-7.432584 -7.122933 -0.672098 1543 0.733132 0.680086 0.000000
-7.433104 -7.123435 -0.668973 1551 0.733132 0.680086 0.000000
-7.433567 -7.123878 -0.665838 1555 0.733132 0.680086 0.000000
-7.433447 -7.123753 -0.662650 1547 0.733132 0.680086 0.000000
-7.433426 -7.123745 -0.659480 1543 0.733132 0.680086 0.000000
-7.433632 -7.123932 -0.656318 1545 0.733132 0.680086 0.000000
-7.433554 -7.123866 -0.653138 1553 0.733132 0.680086 0.000000
-7.433069 -7.123398 -0.649923 1545 0.733132 0.680086 0.000000
-7.432734 -7.123076 -0.646716 1539 0.733132 0.680086 0.000000
-7.433197 -7.123520 -0.643582 1549 0.733132 0.680086 0.000000
-7.433431 -7.123754 -0.640429 1543 0.733132 0.680086 0.000000
-7.433367 -7.123687 -0.637250 1541 0.733132 0.680086 0.000000
-7.433185 -7.123512 -0.634061 1543 0.733132 0.680086 0.000000
-7.433010 -7.123343 -0.630873 1533 0.733132 0.680086 0.000000
-7.433354 -7.123679 -0.627730 1535 0.733132 0.680086 0.000000
-7.433700 -7.124014 -0.624586 1551 0.733132 0.680086 0.000000
-7.433308 -7.123635 -0.621380 1547 0.733132 0.680086 0.000000
-7.432974 -7.123313 -0.618183 1533 0.733132 0.680086 0.000000
-7.433311 -7.123643 -0.615040 1537 0.733132 0.680086 0.000000
-7.433502 -7.123817 -0.611878 1547 0.733132 0.680086 0.000000
-7.433695 -7.124007 -0.608726 1551 0.733132 0.680086 0.000000
-7.433608 -7.123921 -0.605547 1549 0.733132 0.680086 0.000000
-7.433266 -7.123593 -0.602340 1539 0.733132 0.680086 0.000000
-7.433770 -7.124081 -0.599215 1543 0.733132 0.680086 0.000000
-7.434161 -7.124454 -0.596071 1547 0.733132 0.680086 0.000000
-7.434027 -7.124331 -0.592882 1545 0.733132 0.680086 0.000000
-7.434099 -7.124398 -0.589722 1545 0.733132 0.680086 0.000000
-7.433806 -7.124122 -0.586524 1545 0.733132 0.680086 0.000000
-7.433456 -7.123787 -0.583328 1541 0.733132 0.680086 0.000000
-7.433639 -7.123956 -0.580166 1539 0.733132 0.680086 0.000000
-7.433919 -7.124228 -0.577013 1537 0.733132 0.680086 0.000000
-7.433835 -7.124156 -0.573844 1543 0.733132 0.680086 0.000000
-7.433795 -7.124121 -0.570664 1543 0.733132 0.680086 0.000000
-7.434179 -7.124488 -0.567520 1549 0.733132 0.680086 0.000000
-7.434299 -7.124607 -0.564359 1557 0.733132 0.680086 0.000000
-7.434331 -7.124628 -0.561189 1549 0.733132 0.680086 0.000000
-7.433973 -7.124288 -0.557992 1545 0.733132 0.680086 0.000000
-7.433727 -7.124050 -0.554804 1539 0.733132 0.680086 0.000000
-7.433897 -7.124220 -0.551642 1537 0.733132 0.680086 0.000000
-7.434121 -7.124434 -0.548490 1537 0.733132 0.680086 0.000000
-7.434560 -7.124858 -0.545356 1543 0.733132 0.680086 0.000000
-7.434569 -7.124861 -0.542186 1547 0.733132 0.680086 0.000000
-7.434162 -7.124469 -0.538980 1539 0.733132 0.680086 0.000000
-7.434062 -7.124385 -0.535801 1545 0.733132 0.680086 0.000000
-7.433918 -7.124241 -0.532622 1541 0.733132 0.680086 0.000000
-7.433926 -7.124244 -0.529452 1541 0.733132 0.680086 0.000000
-7.434199 -7.124510 -0.526299 1541 0.733132 0.680086 0.000000
-7.434209 -7.124527 -0.523129 1549 0.733132 0.680086 0.000000
-7.433739 -7.124072 -0.519933 1545 0.733132 0.680086 0.000000
-7.433581 -7.123929 -0.516755 1543 0.733132 0.680086 0.000000
-7.433597 -7.123938 -0.513584 1547 0.733132 0.680086 0.000000
-7.433805 -7.124140 -0.510422 1551 0.733132 0.680086 0.000000
-7.433918 -7.124252 -0.507261 1545 0.733132 0.680086 0.000000
-7.434086 -7.124408 -0.504110 1537 0.733132 0.680086 0.000000
-7.434351 -7.124667 -0.500957 1545 0.733132 0.680086 0.000000
-7.434456 -7.124773 -0.497796 1547 0.733132 0.680086 0.000000
-7.434568 -7.124871 -0.494635 1545 0.733132 0.680086 0.000000
-7.434195 -7.124519 -0.491438 1535 0.733132 0.680086 0.000000
-7.433980 -7.124319 -0.488250 1543 0.733132 0.680086 0.000000
-7.433821 -7.124163 -0.485072 1541 0.733132 0.680086 0.000000
-7.433830 -7.124166 -0.481901 1539 0.733132 0.680086 0.000000
-7.433400 -7.123756 -0.478715 1531 0.733132 0.680086 0.000000
-7.432979 -7.123352 -0.475519 1533 0.733132 0.680086 0.000000
-7.433291 -7.123662 -0.472366 1537 0.733132 0.680086 0.000000
-7.433443 -7.123806 -0.469205 1539 0.733132 0.680086 0.000000
-7.434026 -7.124356 -0.466079 1535 0.733132 0.680086 0.000000
-7.434602 -7.124915 -0.462944 1541 0.733132 0.680086 0.000000
-7.434061 -7.124403 -0.459739 1537 0.733132 0.680086 0.000000
-7.433686 -7.124037 -0.456552 1545 0.733132 0.680086 0.000000
-7.433679 -7.124027 -0.453382 1533 0.733132 0.680086 0.000000
-7.433992 -7.124338 -0.450229 1529 0.733132 0.680086 0.000000
-7.433977 -7.124322 -0.447069 1533 0.733132 0.680086 0.000000
-7.433547 -7.123912 -0.443873 1531 0.733132 0.680086 0.000000
-7.433380 -7.123749 -0.440695 1529 0.733132 0.680086 0.000000
-7.433421 -7.123791 -0.437534 1531 0.733132 0.680086 0.000000
-7.434044 -7.124387 -0.434398 1535 0.733132 0.680086 0.000000
-7.434134 -7.124481 -0.431237 1545 0.733132 0.680086 0.000000
-7.433592 -7.123955 -0.428042 1545 0.733132 0.680086 0.000000
-7.433584 -7.123945 -0.424872 1537 0.733132 0.680086 0.000000
-7.434096 -7.124441 -0.421727 1541 0.733132 0.680086 0.000000
-7.434393 -7.124725 -0.418585 1543 0.733132 0.680086 0.000000
-7.434114 -7.124461 -0.415397 1535 0.733132 0.680086 0.000000
-7.433787 -7.124146 -0.412210 1535 0.733132 0.680086 0.000000
-7.433870 -7.124233 -0.409049 1529 0.733132 0.680086 0.000000
-7.434014 -7.124370 -0.405888 1535 0.733132 0.680086 0.000000
-7.433783 -7.124144 -0.402710 1537 0.733132 0.680086 0.000000
-7.433816 -7.124180 -0.399549 1541 0.733132 0.680086 0.000000
-7.433682 -7.124057 -0.396371 1541 0.733132 0.680086 0.000000
-7.433356 -7.123742 -0.393194 1547 0.733132 0.680086 0.000000
-7.433435 -7.123815 -0.390033 1539 0.733132 0.680086 0.000000
-7.433573 -7.123946 -0.386872 1543 0.733132 0.680086 0.000000
-7.433710 -7.124077 -0.383710 1539 0.733132 0.680086 0.000000
-7.433846 -7.124208 -0.380549 1541 0.733132 0.680086 0.000000
-7.433822 -7.124186 -0.377389 1539 0.733132 0.680086 0.000000
-7.434111 -7.124464 -0.374236 1535 0.733132 0.680086 0.000000
-7.434615 -7.124952 -0.371091 1545 0.733132 0.680086 0.000000
-7.434640 -7.124982 -0.367921 1545 0.733132 0.680086 0.000000
-7.434345 -7.124691 -0.364744 1533 0.733132 0.680086 0.000000
-7.433956 -7.124326 -0.361557 1553 0.733132 0.680086 0.000000
-7.433821 -7.124189 -0.358388 1543 0.733132 0.680086 0.000000
-7.434525 -7.124876 -0.355252 1545 0.733132 0.680086 0.000000
-7.434184 -7.124548 -0.352075 1547 0.733132 0.680086 0.000000
-7.434103 -7.124468 -0.348906 1549 0.733132 0.680086 0.000000
-7.434384 -7.124740 -0.345753 1547 0.733132 0.680086 0.000000
-7.434089 -7.124450 -0.342575 1543 0.733132 0.680086 0.000000
-7.434162 -7.124531 -0.339415 1539 0.733132 0.680086 0.000000
-7.434124 -7.124497 -0.336245 1543 0.733132 0.680086 0.000000
-7.433558 -7.123952 -0.333050 1555 0.733132 0.680086 0.000000
-7.433216 -7.123624 -0.329873 1543 0.733132 0.680086 0.000000
-7.433441 -7.123838 -0.326721 1545 0.733132 0.680086 0.000000
-7.433984 -7.124358 -0.323576 1549 0.733132 0.680086 0.000000
-7.434055 -7.124424 -0.320415 1547 0.733132 0.680086 0.000000
-7.434115 -7.124494 -0.317255 1545 0.733132 0.680086 0.000000
-7.433980 -7.124357 -0.314086 1543 0.733132 0.680086 0.000000
-7.433414 -7.123812 -0.310891 1543 0.733132 0.680086 0.000000
-7.433424 -7.123829 -0.307731 1545 0.733132 0.680086 0.000000
-7.435495 -7.121274 -0.691213 1549 0.733132 0.680086 0.000000
-7.435488 -7.121264 -0.688043 1543 0.733132 0.680086 0.000000
-7.435378 -7.121160 -0.684854 1549 0.733132 0.680086 0.000000
-7.435099 -7.120895 -0.681656 1549 0.733132 0.680086 0.000000
-7.435196 -7.120996 -0.678485 1547 0.733132 0.680086 0.000000
-7.435395 -7.121177 -0.675333 1549 0.733132 0.680086 0.000000
-7.435382 -7.121175 -0.672153 1555 0.733132 0.680086 0.000000
-7.435431 -7.121223 -0.668983 1553 0.733132 0.680086 0.000000
-7.435575 -7.121361 -0.665821 1555 0.733132 0.680086 0.000000
-7.435130 -7.120937 -0.662605 1547 0.733132 0.680086 0.000000
-7.435328 -7.121119 -0.659453 1537 0.733132 0.680086 0.000000
-7.436057 -7.121824 -0.656336 1545 0.733132 0.680086 0.000000
-7.435771 -7.121553 -0.653139 1547 0.733132 0.680086 0.000000
-7.435285 -7.121086 -0.649924 1549 0.733132 0.680086 0.000000
-7.435110 -7.120917 -0.646735 1537 0.733132 0.680086 0.000000
-7.435143 -7.120953 -0.643565 1539 0.733132 0.680086 0.000000
-7.435439 -7.121237 -0.640412 1551 0.733132 0.680086 0.000000
-7.435535 -7.121323 -0.637251 1549 0.733132 0.680086 0.000000
-7.435512 -7.121301 -0.634071 1547 0.733132 0.680086 0.000000
-7.435697 -7.121484 -0.630919 1539 0.733132 0.680086 0.000000
-7.435882 -7.121666 -0.627757 1551 0.733132 0.680086 0.000000
-7.435922 -7.121694 -0.624587 1547 0.733132 0.680086 0.000000
-7.435636 -7.121424 -0.621390 1539 0.733132 0.680086 0.000000
-7.435294 -7.121096 -0.618193 1537 0.733132 0.680086 0.000000
-7.435582 -7.121374 -0.615040 1547 0.733132 0.680086 0.000000
-7.435878 -7.121658 -0.611897 1547 0.733132 0.680086 0.000000
-7.435592 -7.121388 -0.608700 1541 0.733132 0.680086 0.000000
-7.435505 -7.121302 -0.605520 1543 0.733132 0.680086 0.000000
-7.435379 -7.121185 -0.602332 1545 0.733132 0.680086 0.000000
-7.435403 -7.121201 -0.599161 1541 0.733132 0.680086 0.000000
-7.435796 -7.121587 -0.596027 1547 0.733132 0.680086 0.000000
-7.435925 -7.121713 -0.592866 1537 0.733132 0.680086 0.000000
-7.436267 -7.122034 -0.589713 1543 0.733132 0.680086 0.000000
-7.436182 -7.121962 -0.586534 1543 0.733132 0.680086 0.000000
-7.436206 -7.121977 -0.583363 1549 0.733132 0.680086 0.000000
-7.436327 -7.122096 -0.580202 1539 0.733132 0.680086 0.000000
-7.436344 -7.122119 -0.577032 1539 0.733132 0.680086 0.000000
-7.436313 -7.122091 -0.573862 1543 0.733132 0.680086 0.000000
-7.436178 -7.121954 -0.570673 1547 0.733132 0.680086 0.000000
-7.436347 -7.122124 -0.567522 1545 0.733132 0.680086 0.000000
-7.436427 -7.122198 -0.564351 1539 0.733132 0.680086 0.000000
-7.435965 -7.121748 -0.561145 1533 0.733132 0.680086 0.000000
-7.435871 -7.121670 -0.557966 1545 0.733132 0.680086 0.000000
-7.436152 -7.121941 -0.554823 1545 0.733132 0.680086 0.000000
-7.436327 -7.122104 -0.551661 1543 0.733132 0.680086 0.000000
-7.436232 -7.122012 -0.548482 1543 0.733132 0.680086 0.000000
-7.436354 -7.122130 -0.545321 1543 0.733132 0.680086 0.000000
-7.436210 -7.121986 -0.542142 1539 0.733132 0.680086 0.000000
-7.436379 -7.122157 -0.538980 1541 0.733132 0.680086 0.000000
-7.436812 -7.122575 -0.535846 1543 0.733132 0.680086 0.000000
-7.436453 -7.122235 -0.532650 1537 0.733132 0.680086 0.000000
-7.436574 -7.122340 -0.529488 1541 0.733132 0.680086 0.000000
-7.436735 -7.122503 -0.526327 1545 0.733132 0.680086 0.000000
-7.436320 -7.122105 -0.523131 1539 0.733132 0.680086 0.000000
-7.436488 -7.122261 -0.519969 1541 0.733132 0.680086 0.000000
-7.436234 -7.122016 -0.516781 1549 0.733132 0.680086 0.000000
-7.435605 -7.121421 -0.513567 1551 0.733132 0.680086 0.000000
-7.435813 -7.121623 -0.510415 1545 0.733132 0.680086 0.000000
-7.436349 -7.122136 -0.507280 1543 0.733132 0.680086 0.000000
-7.436566 -7.122344 -0.504128 1543 0.733132 0.680086 0.000000
-7.436415 -7.122194 -0.500949 1537 0.733132 0.680086 0.000000
-7.436146 -7.121951 -0.497762 1537 0.733132 0.680086 0.000000
-7.436257 -7.122048 -0.494601 1533 0.733132 0.680086 0.000000
-7.436514 -7.122302 -0.491448 1539 0.733132 0.680086 0.000000
-7.436308 -7.122108 -0.488260 1537 0.733132 0.680086 0.000000
-7.436203 -7.121996 -0.485081 1529 0.733132 0.680086 0.000000
-7.436308 -7.122102 -0.481920 1535 0.733132 0.680086 0.000000
-7.436095 -7.121902 -0.478742 1543 0.733132 0.680086 0.000000
-7.435935 -7.121746 -0.475563 1541 0.733132 0.680086 0.000000
-7.436408 -7.122195 -0.472429 1535 0.733132 0.680086 0.000000
-7.436664 -7.122447 -0.469276 1545 0.733132 0.680086 0.000000
-7.436402 -7.122197 -0.466088 1549 0.733132 0.680086 0.000000
-7.436394 -7.122188 -0.462918 1543 0.733132 0.680086 0.000000
-7.436603 -7.122388 -0.459766 1535 0.733132 0.680086 0.000000
-7.436644 -7.122430 -0.456596 1543 0.733132 0.680086 0.000000
-7.436582 -7.122378 -0.453426 1547 0.733132 0.680086 0.000000
-7.436255 -7.122063 -0.450239 1535 0.733132 0.680086 0.000000
-7.436305 -7.122111 -0.447069 1537 0.733132 0.680086 0.000000
-7.436560 -7.122350 -0.443916 1549 0.733132 0.680086 0.000000
-7.436282 -7.122086 -0.440739 1543 0.733132 0.680086 0.000000
-7.436219 -7.122033 -0.437559 1537 0.733132 0.680086 0.000000
-7.436260 -7.122075 -0.434399 1539 0.733132 0.680086 0.000000
-7.436245 -7.122059 -0.431229 1543 0.733132 0.680086 0.000000
-7.436557 -7.122356 -0.428076 1531 0.733132 0.680086 0.000000
-7.436590 -7.122391 -0.424916 1537 0.733132 0.680086 0.000000
-7.436472 -7.122281 -0.421737 1537 0.733132 0.680086 0.000000
-7.436241 -7.122055 -0.418559 1531 0.733132 0.680086 0.000000
-7.436171 -7.121995 -0.415389 1529 0.733132 0.680086 0.000000
-7.435899 -7.121724 -0.412212 1523 0.733132 0.680086 0.000000
-7.435670 -7.121512 -0.409034 1531 0.733132 0.680086 0.000000
-7.435863 -7.121700 -0.405872 1525 0.733132 0.680086 0.000000
-7.435894 -7.121722 -0.402712 1535 0.733132 0.680086 0.000000
-7.436407 -7.122217 -0.399567 1545 0.733132 0.680086 0.000000
-7.436973 -7.122755 -0.396431 1541 0.733132 0.680086 0.000000
-7.436687 -7.122485 -0.393254 1539 0.733132 0.680086 0.000000
-7.435972 -7.121809 -0.390051 1537 0.733132 0.680086 0.000000
-7.436004 -7.121830 -0.386880 1537 0.733132 0.680086 0.000000
-7.436188 -7.122012 -0.383728 1537 0.733132 0.680086 0.000000
-7.436436 -7.122245 -0.380566 1541 0.733132 0.680086 0.000000
-7.436405 -7.122217 -0.377406 1535 0.733132 0.680086 0.000000
-7.436327 -7.122151 -0.374237 1535 0.733132 0.680086 0.000000
-7.436464 -7.122283 -0.371076 1541 0.733132 0.680086 0.000000
-7.436322 -7.122153 -0.367897 1531 0.733132 0.680086 0.000000
-7.436243 -7.122074 -0.364727 1537 0.733132 0.680086 0.000000
-7.435908 -7.121752 -0.361551 1537 0.733132 0.680086 0.000000
-7.436189 -7.122023 -0.358398 1545 0.733132 0.680086 0.000000
-7.436748 -7.122555 -0.355252 1555 0.733132 0.680086 0.000000
-7.436925 -7.122732 -0.352101 1547 0.733132 0.680086 0.000000
-7.436687 -7.122499 -0.348923 1543 0.733132 0.680086 0.000000
-7.436176 -7.122012 -0.345738 1541 0.733132 0.680086 0.000000
-7.436146 -7.121984 -0.342568 1537 0.733132 0.680086 0.000000
-7.436226 -7.122058 -0.339407 1541 0.733132 0.680086 0.000000
-7.436187 -7.122023 -0.336237 1547 0.733132 0.680086 0.000000
-7.435941 -7.121785 -0.333060 1549 0.733132 0.680086 0.000000
-7.435902 -7.121750 -0.329900 1545 0.733132 0.680086 0.000000
-7.436453 -7.122276 -0.326755 1551 0.733132 0.680086 0.000000
-7.436471 -7.122300 -0.323594 1539 0.733132 0.680086 0.000000
-7.436169 -7.122017 -0.320407 1545 0.733132 0.680086 0.000000
-7.436018 -7.121868 -0.317238 1543 0.733132 0.680086 0.000000
-7.435939 -7.121788 -0.314069 1541 0.733132 0.680086 0.000000
-7.435892 -7.121747 -0.310910 1549 0.733132 0.680086 0.000000
-7.435854 -7.121713 -0.307740 1555 0.733132 0.680086 0.000000
-7.437615 -7.118858 -0.691204 1541 0.733132 0.680086 0.000000
-7.437816 -7.119053 -0.688052 1541 0.733132 0.680086 0.000000
-7.437754 -7.119000 -0.684873 1547 0.733132 0.680086 0.000000
-7.437475 -7.118736 -0.681665 1553 0.733132 0.680086 0.000000
-7.437260 -7.118523 -0.678477 1545 0.733132 0.680086 0.000000
-7.437349 -7.118617 -0.675306 1543 0.733132 0.680086 0.000000
-7.437661 -7.118913 -0.672163 1553 0.733132 0.680086 0.000000
-7.437646 -7.118897 -0.668984 1549 0.733132 0.680086 0.000000
-7.437479 -7.118735 -0.665795 1547 0.733132 0.680086 0.000000
-7.437090 -7.118370 -0.662589 1533 0.733132 0.680086 0.000000
-7.437131 -7.118412 -0.659418 1531 0.733132 0.680086 0.000000
-7.437227 -7.118497 -0.656247 1535 0.733132 0.680086 0.000000
-7.437052 -7.118329 -0.653059 1547 0.733132 0.680086 0.000000
-7.437237 -7.118511 -0.649897 1555 0.733132 0.680086 0.000000
-7.437805 -7.119063 -0.646781 1547 0.733132 0.680086 0.000000
-7.437525 -7.118786 -0.643574 1545 0.733132 0.680086 0.000000
-7.437239 -7.118516 -0.640377 1553 0.733132 0.680086 0.000000
-7.437696 -7.118953 -0.637242 1549 0.733132 0.680086 0.000000
-7.437617 -7.118887 -0.634063 1553 0.733132 0.680086 0.000000
-7.437187 -7.118463 -0.630857 1537 0.733132 0.680086 0.000000
-7.437323 -7.118593 -0.627696 1535 0.733132 0.680086 0.000000
-7.437508 -7.118776 -0.624534 1545 0.733132 0.680086 0.000000
-7.437644 -7.118907 -0.621372 1541 0.733132 0.680086 0.000000
-7.437621 -7.118885 -0.618203 1541 0.733132 0.680086 0.000000
-7.437598 -7.118864 -0.615023 1549 0.733132 0.680086 0.000000
-7.437512 -7.118792 -0.611843 1551 0.733132 0.680086 0.000000
-7.437385 -7.118661 -0.608665 1545 0.733132 0.680086 0.000000
-7.437619 -7.118895 -0.605512 1553 0.733132 0.680086 0.000000
-7.437490 -7.118763 -0.602323 1551 0.733132 0.680086 0.000000
-7.437564 -7.118845 -0.599163 1543 0.733132 0.680086 0.000000
-7.438067 -7.119319 -0.596028 1547 0.733132 0.680086 0.000000
-7.438307 -7.119545 -0.592875 1537 0.733132 0.680086 0.000000
-7.438435 -7.119669 -0.589714 1549 0.733132 0.680086 0.000000
-7.438667 -7.119890 -0.586562 1543 0.733132 0.680086 0.000000
-7.438685 -7.119913 -0.583392 1547 0.733132 0.680086 0.000000
