774
-7.735777 -6.837889 -0.685113 927 -0.025522 0.999674 0.000000
-7.735226 -6.837404 -0.681878 919 -0.025522 0.999674 0.000000
-7.735649 -6.837771 -0.678734 923 -0.025522 0.999674 0.000000
-7.736187 -6.838252 -0.675599 931 -0.025522 0.999674 0.000000
-7.735514 -6.837661 -0.672355 915 -0.025522 0.999674 0.000000
-7.734352 -6.836625 -0.669076 885 -0.025522 0.999674 0.000000
-7.734996 -6.837197 -0.665940 897 -0.025522 0.999674 0.000000
-7.735744 -6.837862 -0.662823 899 -0.025522 0.999674 0.000000
-7.736006 -6.838094 -0.659660 895 -0.025522 0.999674 0.000000
-7.736259 -6.838321 -0.656498 913 -0.025522 0.999674 0.000000
-7.736130 -6.838206 -0.653309 919 -0.025522 0.999674 0.000000
-7.735789 -6.837893 -0.650092 923 -0.025522 0.999674 0.000000
-7.736163 -6.838223 -0.646939 917 -0.025522 0.999674 0.000000
-7.736190 -6.838252 -0.643758 919 -0.025522 0.999674 0.000000
-7.736005 -6.838096 -0.640560 917 -0.025522 0.999674 0.000000
-7.735981 -6.838074 -0.637380 919 -0.025522 0.999674 0.000000
-7.735534 -6.837667 -0.634164 921 -0.025522 0.999674 0.000000
-7.735561 -6.837697 -0.630984 919 -0.025522 0.999674 0.000000
-7.735538 -6.837675 -0.627794 899 -0.025522 0.999674 0.000000
-7.735847 -6.837943 -0.624641 915 -0.025522 0.999674 0.000000
-7.736310 -6.838354 -0.621497 929 -0.025522 0.999674 0.000000
-7.735744 -6.837858 -0.618272 929 -0.025522 0.999674 0.000000
-7.735486 -6.837632 -0.615064 913 -0.025522 0.999674 0.000000
-7.735908 -6.837999 -0.611920 905 -0.025522 0.999674 0.000000
-7.735544 -6.837682 -0.608713 917 -0.025522 0.999674 0.000000
-7.735358 -6.837511 -0.605515 913 -0.025522 0.999674 0.000000
-7.735872 -6.837973 -0.602370 929 -0.025522 0.999674 0.000000
-7.735954 -6.838044 -0.599199 923 -0.025522 0.999674 0.000000
-7.736532 -6.838554 -0.596054 921 -0.025522 0.999674 0.000000
-7.737263 -6.839193 -0.592937 925 -0.025522 0.999674 0.000000
-7.736958 -6.838932 -0.589730 939 -0.025522 0.999674 0.000000
-7.735559 -6.837691 -0.586443 925 -0.025522 0.999674 0.000000
-7.735528 -6.837664 -0.583263 927 -0.025522 0.999674 0.000000
-7.735595 -6.837723 -0.580082 913 -0.025522 0.999674 0.000000
-7.734962 -6.837163 -0.576858 903 -0.025522 0.999674 0.000000
-7.735150 -6.837327 -0.573696 907 -0.025522 0.999674 0.000000
-7.735501 -6.837640 -0.570543 909 -0.025522 0.999674 0.000000
-7.735631 -6.837747 -0.567372 901 -0.025522 0.999674 0.000000
-7.735860 -6.837955 -0.564209 913 -0.025522 0.999674 0.000000
-7.736154 -6.838212 -0.561047 931 -0.025522 0.999674 0.000000
-7.736172 -6.838234 -0.557866 935 -0.025522 0.999674 0.000000
-7.736400 -6.838428 -0.554704 931 -0.025522 0.999674 0.000000
-7.736969 -6.838932 -0.551559 941 -0.025522 0.999674 0.000000
-7.736645 -6.838645 -0.548362 937 -0.025522 0.999674 0.000000
-7.736168 -6.838228 -0.545146 921 -0.025522 0.999674 0.000000
-7.736454 -6.838479 -0.541993 927 -0.025522 0.999674 0.000000
-7.737015 -6.838976 -0.538848 939 -0.025522 0.999674 0.000000
-7.736804 -6.838788 -0.535650 925 -0.025522 0.999674 0.000000
-7.735719 -6.837833 -0.532400 925 -0.025522 0.999674 0.000000
-7.735458 -6.837594 -0.529202 933 -0.025522 0.999674 0.000000
-7.736175 -6.838235 -0.526076 933 -0.025522 0.999674 0.000000
-7.736015 -6.838097 -0.522887 939 -0.025522 0.999674 0.000000
-7.736087 -6.838148 -0.519716 921 -0.025522 0.999674 0.000000
-7.736796 -6.838782 -0.516580 941 -0.025522 0.999674 0.000000
-7.736643 -6.838650 -0.513391 941 -0.025522 0.999674 0.000000
-7.736594 -6.838596 -0.510211 947 -0.025522 0.999674 0.000000
-7.736588 -6.838601 -0.507031 941 -0.025522 0.999674 0.000000
-7.736655 -6.838659 -0.503861 933 -0.025522 0.999674 0.000000
-7.736605 -6.838606 -0.500671 923 -0.025522 0.999674 0.000000
-7.735844 -6.837936 -0.497448 919 -0.025522 0.999674 0.000000
-7.735456 -6.837600 -0.494251 923 -0.025522 0.999674 0.000000
-7.736114 -6.838171 -0.491115 937 -0.025522 0.999674 0.000000
-7.736496 -6.838508 -0.487952 919 -0.025522 0.999674 0.000000
-7.736596 -6.838605 -0.484781 931 -0.025522 0.999674 0.000000
-7.736549 -6.838565 -0.481601 947 -0.025522 0.999674 0.000000
-7.736428 -6.838457 -0.478422 935 -0.025522 0.999674 0.000000
-7.736975 -6.838943 -0.475277 925 -0.025522 0.999674 0.000000
-7.736925 -6.838889 -0.472098 917 -0.025522 0.999674 0.000000
-7.736585 -6.838589 -0.468901 901 -0.025522 0.999674 0.000000
-7.736636 -6.838636 -0.465720 909 -0.025522 0.999674 0.000000
-7.736628 -6.838626 -0.462550 917 -0.025522 0.999674 0.000000
-7.736296 -6.838333 -0.459353 909 -0.025522 0.999674 0.000000
-7.735851 -6.837941 -0.456147 915 -0.025522 0.999674 0.000000
-7.735957 -6.838030 -0.452976 913 -0.025522 0.999674 0.000000
-7.736155 -6.838214 -0.449814 925 -0.025522 0.999674 0.000000
-7.735709 -6.837821 -0.446608 917 -0.025522 0.999674 0.000000
-7.736303 -6.838344 -0.443462 923 -0.025522 0.999674 0.000000
-7.737002 -6.838959 -0.440326 911 -0.025522 0.999674 0.000000
-7.736507 -6.838516 -0.437121 903 -0.025522 0.999674 0.000000
-7.735990 -6.838070 -0.433925 911 -0.025522 0.999674 0.000000
-7.735925 -6.838004 -0.430746 897 -0.025522 0.999674 0.000000
-7.735699 -6.837803 -0.427558 911 -0.025522 0.999674 0.000000
-7.735569 -6.837688 -0.424369 917 -0.025522 0.999674 0.000000
-7.736042 -6.838106 -0.421224 911 -0.025522 0.999674 0.000000
-7.736693 -6.838685 -0.418078 909 -0.025522 0.999674 0.000000
-7.736556 -6.838564 -0.414900 925 -0.025522 0.999674 0.000000
-7.735777 -6.837868 -0.411677 921 -0.025522 0.999674 0.000000
-7.736144 -6.838193 -0.408523 917 -0.025522 0.999674 0.000000
-7.737056 -6.839007 -0.405395 923 -0.025522 0.999674 0.000000
-7.737032 -6.838985 -0.402215 931 -0.025522 0.999674 0.000000
-7.735970 -6.838050 -0.398985 917 -0.025522 0.999674 0.000000
-7.735728 -6.837836 -0.395797 905 -0.025522 0.999674 0.000000
-7.736638 -6.838637 -0.392668 909 -0.025522 0.999674 0.000000
-7.736997 -6.838955 -0.389515 901 -0.025522 0.999674 0.000000
-7.737306 -6.839224 -0.386352 915 -0.025522 0.999674 0.000000
-7.736463 -6.838480 -0.383140 907 -0.025522 0.999674 0.000000
-7.736318 -6.838352 -0.379951 911 -0.025522 0.999674 0.000000
-7.737446 -6.839344 -0.376831 909 -0.025522 0.999674 0.000000
-7.737692 -6.839564 -0.373668 931 -0.025522 0.999674 0.000000
-7.737126 -6.839067 -0.370463 915 -0.025522 0.999674 0.000000
-7.736380 -6.838409 -0.367260 885 -0.025522 0.999674 0.000000
-7.736957 -6.838920 -0.364105 883 -0.025522 0.999674 0.000000
-7.737209 -6.839131 -0.360942 889 -0.025522 0.999674 0.000000
-7.736513 -6.838523 -0.357739 877 -0.025522 0.999674 0.000000
-7.736806 -6.838780 -0.354576 873 -0.025522 0.999674 0.000000
-7.737165 -6.839099 -0.351422 887 -0.025522 0.999674 0.000000
-7.737125 -6.839065 -0.348243 887 -0.025522 0.999674 0.000000
-7.736817 -6.838790 -0.345056 883 -0.025522 0.999674 0.000000
-7.736794 -6.838768 -0.341876 871 -0.025522 0.999674 0.000000
-7.737193 -6.839117 -0.338722 865 -0.025522 0.999674 0.000000
-7.736829 -6.838799 -0.335535 869 -0.025522 0.999674 0.000000
-7.737236 -6.839155 -0.332371 869 -0.025522 0.999674 0.000000
-7.737027 -6.838980 -0.329193 861 -0.025522 0.999674 0.000000
-7.736883 -6.838853 -0.326014 867 -0.025522 0.999674 0.000000
-7.737386 -6.839295 -0.322860 861 -0.025522 0.999674 0.000000
-7.736916 -6.838871 -0.319664 857 -0.025522 0.999674 0.000000
-7.737372 -6.839276 -0.316510 881 -0.025522 0.999674 0.000000
-7.738089 -6.839917 -0.313363 891 -0.025522 0.999674 0.000000
-7.738432 -6.840223 -0.310200 879 -0.025522 0.999674 0.000000
-7.738499 -6.840283 -0.307029 861 -0.025522 0.999674 0.000000
-7.740046 -6.837462 -0.704415 925 -0.025522 0.999674 0.000000
-7.740908 -6.838226 -0.701307 949 -0.025522 0.999674 0.000000
-7.741283 -6.838557 -0.698153 931 -0.025522 0.999674 0.000000
-7.741347 -6.838602 -0.694973 927 -0.025522 0.999674 0.000000
-7.740675 -6.838012 -0.691729 917 -0.025522 0.999674 0.000000
-7.740384 -6.837762 -0.688521 917 -0.025522 0.999674 0.000000
-7.740660 -6.837993 -0.685359 915 -0.025522 0.999674 0.000000
-7.741417 -6.838664 -0.682232 905 -0.025522 0.999674 0.000000
-7.741678 -6.838896 -0.679069 909 -0.025522 0.999674 0.000000
-7.741069 -6.838354 -0.675835 921 -0.025522 0.999674 0.000000
-7.739951 -6.837376 -0.672555 897 -0.025522 0.999674 0.000000
-7.739886 -6.837310 -0.669366 887 -0.025522 0.999674 0.000000
-7.739977 -6.837401 -0.666185 901 -0.025522 0.999674 0.000000
-7.739694 -6.837144 -0.662977 905 -0.025522 0.999674 0.000000
-7.740232 -6.837624 -0.659842 903 -0.025522 0.999674 0.000000
-7.740483 -6.837836 -0.656680 907 -0.025522 0.999674 0.000000
-7.740794 -6.838118 -0.653517 911 -0.025522 0.999674 0.000000
-7.740510 -6.837861 -0.650309 919 -0.025522 0.999674 0.000000
-7.740495 -6.837846 -0.647129 923 -0.025522 0.999674 0.000000
-7.740853 -6.838164 -0.643976 925 -0.025522 0.999674 0.000000
-7.740880 -6.838193 -0.640796 911 -0.025522 0.999674 0.000000
-7.740532 -6.837887 -0.637579 917 -0.025522 0.999674 0.000000
-7.740509 -6.837866 -0.634389 915 -0.025522 0.999674 0.000000
-7.740818 -6.838134 -0.631236 901 -0.025522 0.999674 0.000000
-7.741127 -6.838403 -0.628073 901 -0.025522 0.999674 0.000000
-7.741324 -6.838586 -0.624911 913 -0.025522 0.999674 0.000000
-7.740586 -6.837934 -0.621668 915 -0.025522 0.999674 0.000000
-7.740286 -6.837665 -0.618461 919 -0.025522 0.999674 0.000000
-7.740814 -6.838125 -0.615316 893 -0.025522 0.999674 0.000000
-7.741392 -6.838634 -0.612180 899 -0.025522 0.999674 0.000000
-7.740981 -6.838281 -0.608964 917 -0.025522 0.999674 0.000000
-7.741282 -6.838542 -0.605811 927 -0.025522 0.999674 0.000000
-7.741469 -6.838706 -0.602640 911 -0.025522 0.999674 0.000000
-7.740950 -6.838246 -0.599414 915 -0.025522 0.999674 0.000000
-7.740537 -6.837878 -0.596208 915 -0.025522 0.999674 0.000000
-7.740888 -6.838191 -0.593045 917 -0.025522 0.999674 0.000000
-7.741394 -6.838646 -0.589900 935 -0.025522 0.999674 0.000000
-7.741808 -6.839008 -0.586756 927 -0.025522 0.999674 0.000000
-7.741727 -6.838929 -0.583567 915 -0.025522 0.999674 0.000000
-7.741307 -6.838569 -0.580350 915 -0.025522 0.999674 0.000000
-7.741324 -6.838577 -0.577170 913 -0.025522 0.999674 0.000000
-7.740911 -6.838210 -0.573964 921 -0.025522 0.999674 0.000000
-7.740489 -6.837835 -0.570748 915 -0.025522 0.999674 0.000000
-7.740458 -6.837808 -0.567568 903 -0.025522 0.999674 0.000000
-7.740468 -6.837824 -0.564388 907 -0.025522 0.999674 0.000000
-7.740867 -6.838174 -0.561234 923 -0.025522 0.999674 0.000000
-7.740933 -6.838232 -0.558053 937 -0.025522 0.999674 0.000000
-7.740893 -6.838199 -0.554874 929 -0.025522 0.999674 0.000000
-7.741406 -6.838646 -0.551729 929 -0.025522 0.999674 0.000000
-7.741139 -6.838415 -0.548531 921 -0.025522 0.999674 0.000000
-7.741101 -6.838382 -0.545341 923 -0.025522 0.999674 0.000000
-7.741937 -6.839113 -0.542224 927 -0.025522 0.999674 0.000000
-7.741516 -6.838739 -0.539008 919 -0.025522 0.999674 0.000000
-7.741136 -6.838409 -0.535811 929 -0.025522 0.999674 0.000000
-7.740983 -6.838277 -0.532612 921 -0.025522 0.999674 0.000000
-7.740878 -6.838181 -0.529433 927 -0.025522 0.999674 0.000000
-7.740894 -6.838190 -0.526253 917 -0.025522 0.999674 0.000000
-7.742269 -6.839405 -0.523160 929 -0.025522 0.999674 0.000000
-7.742993 -6.840051 -0.520024 941 -0.025522 0.999674 0.000000
-7.742231 -6.839381 -0.516800 945 -0.025522 0.999674 0.000000
-7.741306 -6.838562 -0.513559 943 -0.025522 0.999674 0.000000
-7.740324 -6.837687 -0.510318 943 -0.025522 0.999674 0.000000
-7.740432 -6.837790 -0.507147 923 -0.025522 0.999674 0.000000
-7.740992 -6.838274 -0.504002 929 -0.025522 0.999674 0.000000
-7.740873 -6.838180 -0.500813 933 -0.025522 0.999674 0.000000
-7.741100 -6.838374 -0.497650 929 -0.025522 0.999674 0.000000
-7.741541 -6.838767 -0.494496 931 -0.025522 0.999674 0.000000
-7.741486 -6.838721 -0.491317 925 -0.025522 0.999674 0.000000
-7.741104 -6.838377 -0.488110 931 -0.025522 0.999674 0.000000
-7.741592 -6.838807 -0.484966 941 -0.025522 0.999674 0.000000
-7.742138 -6.839292 -0.481821 931 -0.025522 0.999674 0.000000
-7.741538 -6.838758 -0.478606 927 -0.025522 0.999674 0.000000
-7.740823 -6.838123 -0.475382 921 -0.025522 0.999674 0.000000
-7.741419 -6.838659 -0.472237 921 -0.025522 0.999674 0.000000
-7.741794 -6.838991 -0.469083 911 -0.025522 0.999674 0.000000
-7.741185 -6.838449 -0.465869 895 -0.025522 0.999674 0.000000
-7.740909 -6.838198 -0.462671 911 -0.025522 0.999674 0.000000
-7.740960 -6.838245 -0.459501 909 -0.025522 0.999674 0.000000
-7.741229 -6.838483 -0.456338 911 -0.025522 0.999674 0.000000
-7.741928 -6.839098 -0.453202 915 -0.025522 0.999674 0.000000
-7.742685 -6.839769 -0.450065 943 -0.025522 0.999674 0.000000
-7.742621 -6.839717 -0.446885 923 -0.025522 0.999674 0.000000
-7.741736 -6.838929 -0.443653 897 -0.025522 0.999674 0.000000
-7.741341 -6.838587 -0.440457 905 -0.025522 0.999674 0.000000
-7.740506 -6.837848 -0.437234 909 -0.025522 0.999674 0.000000
-7.740717 -6.838029 -0.434062 913 -0.025522 0.999674 0.000000
-7.740914 -6.838213 -0.430901 909 -0.025522 0.999674 0.000000
-7.740581 -6.837906 -0.427704 917 -0.025522 0.999674 0.000000
-7.740728 -6.838039 -0.424532 909 -0.025522 0.999674 0.000000
-7.740275 -6.837641 -0.421336 905 -0.025522 0.999674 0.000000
-7.740967 -6.838250 -0.418190 919 -0.025522 0.999674 0.000000
-7.741552 -6.838766 -0.415044 915 -0.025522 0.999674 0.000000
-7.740986 -6.838269 -0.411839 913 -0.025522 0.999674 0.000000
-7.740475 -6.837815 -0.408634 911 -0.025522 0.999674 0.000000
-7.741662 -6.838862 -0.405523 913 -0.025522 0.999674 0.000000
-7.742305 -6.839435 -0.402377 907 -0.025522 0.999674 0.000000
-7.741079 -6.838349 -0.399138 903 -0.025522 0.999674 0.000000
-7.740892 -6.838180 -0.395950 909 -0.025522 0.999674 0.000000
-7.741251 -6.838498 -0.392797 909 -0.025522 0.999674 0.000000
-7.741228 -6.838477 -0.389617 893 -0.025522 0.999674 0.000000
-7.741304 -6.838555 -0.386446 917 -0.025522 0.999674 0.000000
-7.741458 -6.838681 -0.383274 911 -0.025522 0.999674 0.000000
-7.741859 -6.839044 -0.380121 921 -0.025522 0.999674 0.000000
-7.741298 -6.838539 -0.376916 905 -0.025522 0.999674 0.000000
-7.741153 -6.838413 -0.373737 901 -0.025522 0.999674 0.000000
-7.741512 -6.838731 -0.370574 907 -0.025522 0.999674 0.000000
-7.741813 -6.838994 -0.367411 903 -0.025522 0.999674 0.000000
-7.741126 -6.838392 -0.364207 877 -0.025522 0.999674 0.000000
-7.741313 -6.838556 -0.361035 885 -0.025522 0.999674 0.000000
-7.742215 -6.839349 -0.357897 863 -0.025522 0.999674 0.000000
-7.742241 -6.839378 -0.354727 851 -0.025522 0.999674 0.000000
-7.741941 -6.839109 -0.351539 853 -0.025522 0.999674 0.000000
-7.742065 -6.839224 -0.348368 869 -0.025522 0.999674 0.000000
-7.741433 -6.838665 -0.345164 865 -0.025522 0.999674 0.000000
-7.741457 -6.838680 -0.341994 863 -0.025522 0.999674 0.000000
-7.742296 -6.839425 -0.338846 853 -0.025522 0.999674 0.000000
-7.742256 -6.839392 -0.335676 871 -0.025522 0.999674 0.000000
-7.742331 -6.839457 -0.332495 875 -0.025522 0.999674 0.000000
-7.742137 -6.839281 -0.329317 879 -0.025522 0.999674 0.000000
-7.741714 -6.838906 -0.326121 883 -0.025522 0.999674 0.000000
-7.742326 -6.839455 -0.322975 857 -0.025522 0.999674 0.000000
-7.742514 -6.839618 -0.319803 867 -0.025522 0.999674 0.000000
-7.741434 -6.838656 -0.316583 867 -0.025522 0.999674 0.000000
-7.741940 -6.839111 -0.313428 873 -0.025522 0.999674 0.000000
-7.742225 -6.839362 -0.310266 863 -0.025522 0.999674 0.000000
-7.741959 -6.839131 -0.307088 863 -0.025522 0.999674 0.000000
-7.746441 -6.838815 -0.704797 925 -0.025522 0.999674 0.000000
-7.745996 -6.838422 -0.701571 935 -0.025522 0.999674 0.000000
-7.745063 -6.837597 -0.698300 933 -0.025522 0.999674 0.000000
-7.745820 -6.838268 -0.695183 925 -0.025522 0.999674 0.000000
-7.746145 -6.838549 -0.692020 937 -0.025522 0.999674 0.000000
-7.745699 -6.838157 -0.688794 923 -0.025522 0.999674 0.000000
-7.745806 -6.838245 -0.685613 913 -0.025522 0.999674 0.000000
-7.746117 -6.838529 -0.682460 929 -0.025522 0.999674 0.000000
-7.746492 -6.838859 -0.679306 925 -0.025522 0.999674 0.000000
-7.746640 -6.838993 -0.676135 911 -0.025522 0.999674 0.000000
-7.746355 -6.838735 -0.672917 909 -0.025522 0.999674 0.000000
-7.746453 -6.838818 -0.669737 899 -0.025522 0.999674 0.000000
-7.746000 -6.838420 -0.666521 901 -0.025522 0.999674 0.000000
-7.745383 -6.837873 -0.663276 893 -0.025522 0.999674 0.000000
-7.745036 -6.837567 -0.660069 889 -0.025522 0.999674 0.000000
-7.744972 -6.837515 -0.656870 921 -0.025522 0.999674 0.000000
-7.744949 -6.837493 -0.653690 911 -0.025522 0.999674 0.000000
-7.745924 -6.838356 -0.650581 907 -0.025522 0.999674 0.000000
-7.745843 -6.838278 -0.647392 901 -0.025522 0.999674 0.000000
-7.745008 -6.837539 -0.644139 905 -0.025522 0.999674 0.000000
-7.745488 -6.837963 -0.640995 923 -0.025522 0.999674 0.000000
-7.745733 -6.838182 -0.637822 921 -0.025522 0.999674 0.000000
-7.745874 -6.838310 -0.634651 925 -0.025522 0.999674 0.000000
-7.746240 -6.838634 -0.631498 915 -0.025522 0.999674 0.000000
-7.746103 -6.838515 -0.628299 909 -0.025522 0.999674 0.000000
-7.745154 -6.837677 -0.625047 885 -0.025522 0.999674 0.000000
-7.745300 -6.837797 -0.621876 893 -0.025522 0.999674 0.000000
-7.745537 -6.838010 -0.618704 917 -0.025522 0.999674 0.000000
-7.745182 -6.837698 -0.615497 899 -0.025522 0.999674 0.000000
-7.746311 -6.838690 -0.612396 915 -0.025522 0.999674 0.000000
-7.747376 -6.839633 -0.609297 929 -0.025522 0.999674 0.000000
-7.747458 -6.839704 -0.606116 921 -0.025522 0.999674 0.000000
-7.747053 -6.839343 -0.602899 923 -0.025522 0.999674 0.000000
-7.747071 -6.839365 -0.599719 915 -0.025522 0.999674 0.000000
-7.746389 -6.838755 -0.596485 911 -0.025522 0.999674 0.000000
-7.745975 -6.838387 -0.593269 923 -0.025522 0.999674 0.000000
-7.746432 -6.838793 -0.590125 931 -0.025522 0.999674 0.000000
-7.746677 -6.839013 -0.586953 915 -0.025522 0.999674 0.000000
-7.746314 -6.838695 -0.583746 915 -0.025522 0.999674 0.000000
-7.745955 -6.838369 -0.580539 929 -0.025522 0.999674 0.000000
-7.746243 -6.838633 -0.577376 921 -0.025522 0.999674 0.000000
-7.746162 -6.838555 -0.574187 921 -0.025522 0.999674 0.000000
-7.746399 -6.838769 -0.571025 927 -0.025522 0.999674 0.000000
-7.746579 -6.838927 -0.567853 907 -0.025522 0.999674 0.000000
-7.746263 -6.838645 -0.564646 903 -0.025522 0.999674 0.000000
-7.745736 -6.838179 -0.561430 903 -0.025522 0.999674 0.000000
-7.746461 -6.838826 -0.558294 919 -0.025522 0.999674 0.000000
-7.746809 -6.839124 -0.555140 935 -0.025522 0.999674 0.000000
-7.745504 -6.837979 -0.551862 927 -0.025522 0.999674 0.000000
-7.745635 -6.838086 -0.548691 915 -0.025522 0.999674 0.000000
-7.746797 -6.839116 -0.545590 923 -0.025522 0.999674 0.000000
-7.746919 -6.839217 -0.542419 931 -0.025522 0.999674 0.000000
-7.746548 -6.838893 -0.539213 927 -0.025522 0.999674 0.000000
-7.746281 -6.838662 -0.536015 925 -0.025522 0.999674 0.000000
-7.746453 -6.838813 -0.532843 913 -0.025522 0.999674 0.000000
-7.746193 -6.838575 -0.529646 929 -0.025522 0.999674 0.000000
-7.745813 -6.838245 -0.526439 919 -0.025522 0.999674 0.000000
-7.746262 -6.838644 -0.523285 923 -0.025522 0.999674 0.000000
-7.746384 -6.838746 -0.520114 935 -0.025522 0.999674 0.000000
-7.747262 -6.839521 -0.516986 943 -0.025522 0.999674 0.000000
-7.746727 -6.839048 -0.513770 949 -0.025522 0.999674 0.000000
-7.745739 -6.838181 -0.510529 919 -0.025522 0.999674 0.000000
-7.746511 -6.838864 -0.507392 913 -0.025522 0.999674 0.000000
-7.746625 -6.838960 -0.504221 931 -0.025522 0.999674 0.000000
-7.746521 -6.838863 -0.501032 925 -0.025522 0.999674 0.000000
-7.746961 -6.839257 -0.497888 929 -0.025522 0.999674 0.000000
-7.747507 -6.839742 -0.494733 921 -0.025522 0.999674 0.000000
-7.748221 -6.840369 -0.491596 927 -0.025522 0.999674 0.000000
-7.748222 -6.840366 -0.488416 931 -0.025522 0.999674 0.000000
-7.747729 -6.839938 -0.485210 917 -0.025522 0.999674 0.000000
-7.747397 -6.839644 -0.482003 919 -0.025522 0.999674 0.000000
-7.747234 -6.839491 -0.478815 915 -0.025522 0.999674 0.000000
-7.746847 -6.839156 -0.475618 909 -0.025522 0.999674 0.000000
-7.747003 -6.839295 -0.472447 907 -0.025522 0.999674 0.000000
-7.747490 -6.839724 -0.469292 917 -0.025522 0.999674 0.000000
-7.747214 -6.839473 -0.466095 915 -0.025522 0.999674 0.000000
-7.746933 -6.839230 -0.462897 899 -0.025522 0.999674 0.000000
-7.747365 -6.839617 -0.459743 907 -0.025522 0.999674 0.000000
-7.748014 -6.840182 -0.456607 905 -0.025522 0.999674 0.000000
-7.747456 -6.839691 -0.453392 909 -0.025522 0.999674 0.000000
-7.746678 -6.839009 -0.450169 907 -0.025522 0.999674 0.000000
-7.747491 -6.839723 -0.447032 893 -0.025522 0.999674 0.000000
-7.748630 -6.840734 -0.443921 915 -0.025522 0.999674 0.000000
-7.748134 -6.840291 -0.440716 931 -0.025522 0.999674 0.000000
-7.747291 -6.839546 -0.437483 915 -0.025522 0.999674 0.000000
-7.746683 -6.839006 -0.434279 915 -0.025522 0.999674 0.000000
-7.745953 -6.838359 -0.431055 907 -0.025522 0.999674 0.000000
-7.745776 -6.838209 -0.427867 917 -0.025522 0.999674 0.000000
-7.745760 -6.838193 -0.424687 911 -0.025522 0.999674 0.000000
-7.746729 -6.839050 -0.421558 919 -0.025522 0.999674 0.000000
-7.746990 -6.839282 -0.418396 923 -0.025522 0.999674 0.000000
-7.745440 -6.837913 -0.415140 905 -0.025522 0.999674 0.000000
-7.745968 -6.838373 -0.411985 893 -0.025522 0.999674 0.000000
-7.747154 -6.839420 -0.408874 915 -0.025522 0.999674 0.000000
-7.746264 -6.838640 -0.405652 907 -0.025522 0.999674 0.000000
-7.746022 -6.838427 -0.402454 897 -0.025522 0.999674 0.000000
-7.746111 -6.838503 -0.399283 891 -0.025522 0.999674 0.000000
-7.746470 -6.838823 -0.396120 905 -0.025522 0.999674 0.000000
-7.747331 -6.839572 -0.392992 923 -0.025522 0.999674 0.000000
-7.747251 -6.839508 -0.389803 911 -0.025522 0.999674 0.000000
-7.747552 -6.839771 -0.386640 915 -0.025522 0.999674 0.000000
-7.747368 -6.839614 -0.383461 911 -0.025522 0.999674 0.000000
-7.746799 -6.839103 -0.380257 895 -0.025522 0.999674 0.000000
-7.747264 -6.839514 -0.377092 887 -0.025522 0.999674 0.000000
-7.747891 -6.840075 -0.373946 907 -0.025522 0.999674 0.000000
-7.746926 -6.839226 -0.370725 911 -0.025522 0.999674 0.000000
-7.745975 -6.838374 -0.367504 895 -0.025522 0.999674 0.000000
-7.746498 -6.838842 -0.364349 893 -0.025522 0.999674 0.000000
-7.747123 -6.839388 -0.361203 879 -0.025522 0.999674 0.000000
-7.748188 -6.840331 -0.358073 877 -0.025522 0.999674 0.000000
-7.748489 -6.840593 -0.354910 863 -0.025522 0.999674 0.000000
-7.747524 -6.839744 -0.351689 861 -0.025522 0.999674 0.000000
-7.747110 -6.839376 -0.348493 865 -0.025522 0.999674 0.000000
-7.747568 -6.839781 -0.345339 869 -0.025522 0.999674 0.000000
-7.747472 -6.839705 -0.342159 849 -0.025522 0.999674 0.000000
-7.747115 -6.839380 -0.338963 835 -0.025522 0.999674 0.000000
-7.747295 -6.839538 -0.335791 841 -0.025522 0.999674 0.000000
-7.747645 -6.839850 -0.332628 849 -0.025522 0.999674 0.000000
-7.747606 -6.839817 -0.329458 861 -0.025522 0.999674 0.000000
-7.747624 -6.839839 -0.326278 867 -0.025522 0.999674 0.000000
-7.747528 -6.839749 -0.323099 861 -0.025522 0.999674 0.000000
-7.746992 -6.839276 -0.319903 857 -0.025522 0.999674 0.000000
-7.746742 -6.839057 -0.316716 861 -0.025522 0.999674 0.000000
-7.747693 -6.839888 -0.313577 873 -0.025522 0.999674 0.000000
-7.747257 -6.839516 -0.310381 885 -0.025522 0.999674 0.000000
-7.746836 -6.839142 -0.307184 863 -0.025522 0.999674 0.000000
-7.750178 -6.837897 -0.704944 933 -0.025522 0.999674 0.000000
-7.750334 -6.838037 -0.701772 937 -0.025522 0.999674 0.000000
-7.750057 -6.837785 -0.698555 901 -0.025522 0.999674 0.000000
-7.750326 -6.838024 -0.695392 913 -0.025522 0.999674 0.000000
-7.750806 -6.838447 -0.692248 919 -0.025522 0.999674 0.000000
-7.750029 -6.837764 -0.688995 915 -0.025522 0.999674 0.000000
-7.749697 -6.837471 -0.685778 911 -0.025522 0.999674 0.000000
-7.750454 -6.838142 -0.682651 919 -0.025522 0.999674 0.000000
-7.750333 -6.838034 -0.679452 895 -0.025522 0.999674 0.000000
-7.750536 -6.838210 -0.676290 901 -0.025522 0.999674 0.000000
-7.751180 -6.838782 -0.673154 913 -0.025522 0.999674 0.000000
-7.750840 -6.838482 -0.669937 903 -0.025522 0.999674 0.000000
-7.750825 -6.838467 -0.666747 903 -0.025522 0.999674 0.000000
-7.751305 -6.838890 -0.663603 909 -0.025522 0.999674 0.000000
-7.750688 -6.838343 -0.660368 909 -0.025522 0.999674 0.000000
-7.750949 -6.838575 -0.657196 909 -0.025522 0.999674 0.000000
-7.751486 -6.839041 -0.654051 937 -0.025522 0.999674 0.000000
-7.751024 -6.838636 -0.650835 923 -0.025522 0.999674 0.000000
-7.750344 -6.838041 -0.647591 899 -0.025522 0.999674 0.000000
-7.749891 -6.837643 -0.644365 905 -0.025522 0.999674 0.000000
-7.750200 -6.837911 -0.641202 917 -0.025522 0.999674 0.000000
-7.750615 -6.838272 -0.638048 925 -0.025522 0.999674 0.000000
-7.751477 -6.839036 -0.634940 925 -0.025522 0.999674 0.000000
-7.751503 -6.839065 -0.631750 929 -0.025522 0.999674 0.000000
-7.751203 -6.838795 -0.628543 927 -0.025522 0.999674 0.000000
-7.750091 -6.837809 -0.625273 897 -0.025522 0.999674 0.000000
-7.749629 -6.837404 -0.622047 897 -0.025522 0.999674 0.000000
-7.749932 -6.837681 -0.618884 893 -0.025522 0.999674 0.000000
-7.750298 -6.837992 -0.615731 901 -0.025522 0.999674 0.000000
-7.750266 -6.837964 -0.612541 913 -0.025522 0.999674 0.000000
-7.750187 -6.837900 -0.609351 907 -0.025522 0.999674 0.000000
-7.750870 -6.838502 -0.606215 901 -0.025522 0.999674 0.000000
-7.751009 -6.838616 -0.603044 899 -0.025522 0.999674 0.000000
-7.750921 -6.838546 -0.599855 907 -0.025522 0.999674 0.000000
-7.750946 -6.838561 -0.596674 917 -0.025522 0.999674 0.000000
-7.750631 -6.838293 -0.593467 923 -0.025522 0.999674 0.000000
-7.750437 -6.838116 -0.590269 929 -0.025522 0.999674 0.000000
-7.750463 -6.838145 -0.587078 929 -0.025522 0.999674 0.000000
-7.750487 -6.838160 -0.583898 929 -0.025522 0.999674 0.000000
-7.750570 -6.838231 -0.580727 917 -0.025522 0.999674 0.000000
-7.751076 -6.838686 -0.577573 913 -0.025522 0.999674 0.000000
-7.751205 -6.838793 -0.574401 915 -0.025522 0.999674 0.000000
-7.751612 -6.839149 -0.571248 923 -0.025522 0.999674 0.000000
-7.751249 -6.838831 -0.568041 913 -0.025522 0.999674 0.000000
-7.750658 -6.838316 -0.564816 899 -0.025522 0.999674 0.000000
-7.750511 -6.838175 -0.561617 899 -0.025522 0.999674 0.000000
-7.750749 -6.838390 -0.558455 901 -0.025522 0.999674 0.000000
-7.751091 -6.838696 -0.555292 911 -0.025522 0.999674 0.000000
-7.750945 -6.838555 -0.552103 923 -0.025522 0.999674 0.000000
-7.751118 -6.838721 -0.548931 929 -0.025522 0.999674 0.000000
-7.751248 -6.838828 -0.545750 931 -0.025522 0.999674 0.000000
-7.751306 -6.838881 -0.542580 919 -0.025522 0.999674 0.000000
-7.751153 -6.838749 -0.539381 919 -0.025522 0.999674 0.000000
-7.751447 -6.839005 -0.536218 923 -0.025522 0.999674 0.000000
-7.751943 -6.839440 -0.533074 923 -0.025522 0.999674 0.000000
-7.751685 -6.839216 -0.529866 923 -0.025522 0.999674 0.000000
-7.751197 -6.838779 -0.526650 919 -0.025522 0.999674 0.000000
-7.751208 -6.838796 -0.523470 929 -0.025522 0.999674 0.000000
-7.750607 -6.838260 -0.520256 921 -0.025522 0.999674 0.000000
-7.751048 -6.838654 -0.517101 917 -0.025522 0.999674 0.000000
-7.751114 -6.838713 -0.513921 925 -0.025522 0.999674 0.000000
-7.750408 -6.838085 -0.510697 913 -0.025522 0.999674 0.000000
-7.750912 -6.838527 -0.507542 919 -0.025522 0.999674 0.000000
-7.751621 -6.839161 -0.504406 935 -0.025522 0.999674 0.000000
-7.752278 -6.839732 -0.501270 935 -0.025522 0.999674 0.000000
-7.752012 -6.839501 -0.498072 925 -0.025522 0.999674 0.000000
-7.751624 -6.839165 -0.494866 921 -0.025522 0.999674 0.000000
-7.751187 -6.838778 -0.491660 919 -0.025522 0.999674 0.000000
-7.750642 -6.838286 -0.488445 901 -0.025522 0.999674 0.000000
-7.750313 -6.838006 -0.485237 893 -0.025522 0.999674 0.000000
-7.750687 -6.838337 -0.482084 911 -0.025522 0.999674 0.000000
-7.751012 -6.838618 -0.478921 913 -0.025522 0.999674 0.000000
-7.751290 -6.838862 -0.475758 921 -0.025522 0.999674 0.000000
-7.751509 -6.839050 -0.472586 909 -0.025522 0.999674 0.000000
-7.751828 -6.839338 -0.469423 923 -0.025522 0.999674 0.000000
-7.751601 -6.839138 -0.466235 903 -0.025522 0.999674 0.000000
-7.751156 -6.838746 -0.463029 889 -0.025522 0.999674 0.000000
-7.751808 -6.839324 -0.459883 895 -0.025522 0.999674 0.000000
-7.752027 -6.839511 -0.456711 895 -0.025522 0.999674 0.000000
-7.751516 -6.839057 -0.453506 905 -0.025522 0.999674 0.000000
-7.750697 -6.838331 -0.450273 883 -0.025522 0.999674 0.000000
-7.750739 -6.838371 -0.447103 879 -0.025522 0.999674 0.000000
-7.751877 -6.839382 -0.443982 911 -0.025522 0.999674 0.000000
-7.751481 -6.839027 -0.440786 907 -0.025522 0.999674 0.000000
-7.751198 -6.838784 -0.437588 897 -0.025522 0.999674 0.000000
-7.751296 -6.838867 -0.434407 893 -0.025522 0.999674 0.000000
-7.750843 -6.838469 -0.431211 901 -0.025522 0.999674 0.000000
-7.750494 -6.838162 -0.428014 895 -0.025522 0.999674 0.000000
-7.751421 -6.838975 -0.424876 899 -0.025522 0.999674 0.000000
-7.751843 -6.839342 -0.421722 909 -0.025522 0.999674 0.000000
-7.751772 -6.839284 -0.418543 907 -0.025522 0.999674 0.000000
-7.751636 -6.839164 -0.415354 903 -0.025522 0.999674 0.000000
-7.751019 -6.838616 -0.412139 891 -0.025522 0.999674 0.000000
-7.751109 -6.838694 -0.408968 895 -0.025522 0.999674 0.000000
-7.751039 -6.838636 -0.405789 887 -0.025522 0.999674 0.000000
-7.751510 -6.839053 -0.402624 887 -0.025522 0.999674 0.000000
-7.751764 -6.839279 -0.399462 887 -0.025522 0.999674 0.000000
-7.752123 -6.839598 -0.396299 905 -0.025522 0.999674 0.000000
-7.752382 -6.839816 -0.393136 913 -0.025522 0.999674 0.000000
-7.751539 -6.839071 -0.389914 891 -0.025522 0.999674 0.000000
-7.751233 -6.838810 -0.386717 887 -0.025522 0.999674 0.000000
-7.752306 -6.839759 -0.383597 901 -0.025522 0.999674 0.000000
-7.753103 -6.840461 -0.380449 913 -0.025522 0.999674 0.000000
-7.752534 -6.839950 -0.377245 901 -0.025522 0.999674 0.000000
-7.751513 -6.839058 -0.374024 901 -0.025522 0.999674 0.000000
-7.752091 -6.839568 -0.370868 903 -0.025522 0.999674 0.000000
-7.752725 -6.840121 -0.367723 899 -0.025522 0.999674 0.000000
-7.752255 -6.839710 -0.364517 889 -0.025522 0.999674 0.000000
-7.752174 -6.839633 -0.361337 875 -0.025522 0.999674 0.000000
-7.752143 -6.839604 -0.358158 865 -0.025522 0.999674 0.000000
-7.751674 -6.839194 -0.354962 847 -0.025522 0.999674 0.000000
-7.751585 -6.839110 -0.351773 839 -0.025522 0.999674 0.000000
-7.751725 -6.839238 -0.348601 861 -0.025522 0.999674 0.000000
-7.751630 -6.839161 -0.345422 845 -0.025522 0.999674 0.000000
-7.751704 -6.839227 -0.342251 839 -0.025522 0.999674 0.000000
-7.751947 -6.839432 -0.339079 827 -0.025522 0.999674 0.000000
-7.752672 -6.840079 -0.335932 851 -0.025522 0.999674 0.000000
-7.752478 -6.839903 -0.332744 859 -0.025522 0.999674 0.000000
-7.752106 -6.839579 -0.329557 851 -0.025522 0.999674 0.000000
-7.752349 -6.839785 -0.326385 863 -0.025522 0.999674 0.000000
-7.752254 -6.839709 -0.323206 849 -0.025522 0.999674 0.000000
-7.751988 -6.839478 -0.320018 837 -0.025522 0.999674 0.000000
-7.752508 -6.839931 -0.316853 861 -0.025522 0.999674 0.000000
-7.753013 -6.840374 -0.313699 883 -0.025522 0.999674 0.000000
-7.752422 -6.839858 -0.310504 879 -0.025522 0.999674 0.000000
-7.752333 -6.839774 -0.307315 859 -0.025522 0.999674 0.000000
-7.755767 -6.838625 -0.705263 915 -0.025522 0.999674 0.000000
-7.755979 -6.838807 -0.702091 927 -0.025522 0.999674 0.000000
-7.755427 -6.838322 -0.698846 925 -0.025522 0.999674 0.000000
-7.755364 -6.838270 -0.695657 923 -0.025522 0.999674 0.000000
-7.755959 -6.838792 -0.692521 927 -0.025522 0.999674 0.000000
-7.756178 -6.838980 -0.689349 921 -0.025522 0.999674 0.000000
-7.755674 -6.838531 -0.686114 897 -0.025522 0.999674 0.000000
-7.755767 -6.838623 -0.682933 909 -0.025522 0.999674 0.000000
-7.755702 -6.838556 -0.679743 897 -0.025522 0.999674 0.000000
-7.756303 -6.839085 -0.676598 913 -0.025522 0.999674 0.000000
-7.756501 -6.839268 -0.673426 905 -0.025522 0.999674 0.000000
-7.756274 -6.839067 -0.670218 899 -0.025522 0.999674 0.000000
-7.756145 -6.838953 -0.667019 909 -0.025522 0.999674 0.000000
-7.755634 -6.838498 -0.663794 901 -0.025522 0.999674 0.000000
-7.755741 -6.838588 -0.660612 905 -0.025522 0.999674 0.000000
-7.756044 -6.838864 -0.657450 901 -0.025522 0.999674 0.000000
-7.755695 -6.838558 -0.654233 905 -0.025522 0.999674 0.000000
-7.755029 -6.837961 -0.650989 887 -0.025522 0.999674 0.000000
-7.754844 -6.837804 -0.647790 885 -0.025522 0.999674 0.000000
-7.755649 -6.838511 -0.644663 889 -0.025522 0.999674 0.000000
-7.756495 -6.839263 -0.641545 915 -0.025522 0.999674 0.000000
-7.756374 -6.839155 -0.638346 903 -0.025522 0.999674 0.000000
-7.756188 -6.838984 -0.635148 921 -0.025522 0.999674 0.000000
-7.755621 -6.838487 -0.631913 913 -0.025522 0.999674 0.000000
-7.756199 -6.838997 -0.628778 903 -0.025522 0.999674 0.000000
-7.756777 -6.839508 -0.625632 901 -0.025522 0.999674 0.000000
-7.757086 -6.839776 -0.622469 891 -0.025522 0.999674 0.000000
-7.757331 -6.839995 -0.619307 889 -0.025522 0.999674 0.000000
-7.756707 -6.839442 -0.616063 903 -0.025522 0.999674 0.000000
-7.755805 -6.838641 -0.612811 905 -0.025522 0.999674 0.000000
-7.755231 -6.838139 -0.609576 895 -0.025522 0.999674 0.000000
-7.755468 -6.838352 -0.606414 889 -0.025522 0.999674 0.000000
-7.755827 -6.838671 -0.603250 887 -0.025522 0.999674 0.000000
-7.755308 -6.838210 -0.600025 891 -0.025522 0.999674 0.000000
-7.754562 -6.837552 -0.596792 889 -0.025522 0.999674 0.000000
-7.755195 -6.838105 -0.593646 905 -0.025522 0.999674 0.000000
-7.756635 -6.839382 -0.590573 931 -0.025522 0.999674 0.000000
-7.756831 -6.839552 -0.587401 921 -0.025522 0.999674 0.000000
-7.756359 -6.839127 -0.584175 917 -0.025522 0.999674 0.000000
-7.756702 -6.839434 -0.581022 923 -0.025522 0.999674 0.000000
-7.757385 -6.840036 -0.577885 911 -0.025522 0.999674 0.000000
-7.757240 -6.839910 -0.574687 917 -0.025522 0.999674 0.000000
-7.756495 -6.839252 -0.571453 923 -0.025522 0.999674 0.000000
-7.756016 -6.838821 -0.568228 887 -0.025522 0.999674 0.000000
-7.755660 -6.838510 -0.565021 885 -0.025522 0.999674 0.000000
-7.755726 -6.838569 -0.561840 893 -0.025522 0.999674 0.000000
-7.755744 -6.838592 -0.558660 905 -0.025522 0.999674 0.000000
-7.755315 -6.838211 -0.555444 899 -0.025522 0.999674 0.000000
-7.755658 -6.838517 -0.552281 903 -0.025522 0.999674 0.000000
-7.755015 -6.837938 -0.549056 903 -0.025522 0.999674 0.000000
-7.755090 -6.838004 -0.545876 903 -0.025522 0.999674 0.000000
-7.755870 -6.838693 -0.542749 903 -0.025522 0.999674 0.000000
-7.755272 -6.838171 -0.539524 913 -0.025522 0.999674 0.000000
-7.755612 -6.838464 -0.536361 925 -0.025522 0.999674 0.000000
-7.756443 -6.839203 -0.533233 927 -0.025522 0.999674 0.000000
-7.756729 -6.839454 -0.530070 927 -0.025522 0.999674 0.000000
-7.757127 -6.839802 -0.526907 927 -0.025522 0.999674 0.000000
-7.756966 -6.839664 -0.523718 921 -0.025522 0.999674 0.000000
-7.756374 -6.839135 -0.520493 915 -0.025522 0.999674 0.000000
-7.755443 -6.838324 -0.517252 897 -0.025522 0.999674 0.000000
-7.755670 -6.838518 -0.514080 907 -0.025522 0.999674 0.000000
-7.756654 -6.839386 -0.510961 909 -0.025522 0.999674 0.000000
-7.756615 -6.839353 -0.507781 915 -0.025522 0.999674 0.000000
-7.756501 -6.839251 -0.504582 923 -0.025522 0.999674 0.000000
-7.756778 -6.839494 -0.501419 929 -0.025522 0.999674 0.000000
-7.756674 -6.839399 -0.498230 919 -0.025522 0.999674 0.000000
-7.756244 -6.839019 -0.495024 911 -0.025522 0.999674 0.000000
-7.755912 -6.838725 -0.491817 897 -0.025522 0.999674 0.000000
-7.756622 -6.839360 -0.488680 905 -0.025522 0.999674 0.000000
-7.757386 -6.840037 -0.485543 919 -0.025522 0.999674 0.000000
-7.757224 -6.839884 -0.482355 933 -0.025522 0.999674 0.000000
-7.757005 -6.839690 -0.479157 941 -0.025522 0.999674 0.000000
-7.756886 -6.839595 -0.475968 935 -0.025522 0.999674 0.000000
-7.756660 -6.839394 -0.472770 923 -0.025522 0.999674 0.000000
-7.756871 -6.839577 -0.469598 929 -0.025522 0.999674 0.000000
-7.756985 -6.839672 -0.466426 925 -0.025522 0.999674 0.000000
-7.757077 -6.839762 -0.463246 895 -0.025522 0.999674 0.000000
-7.757347 -6.840001 -0.460083 913 -0.025522 0.999674 0.000000
-7.756852 -6.839559 -0.456867 893 -0.025522 0.999674 0.000000
-7.756902 -6.839605 -0.453697 893 -0.025522 0.999674 0.000000
-7.756895 -6.839596 -0.450507 893 -0.025522 0.999674 0.000000
-7.756938 -6.839637 -0.447336 895 -0.025522 0.999674 0.000000
-7.757531 -6.840158 -0.444181 907 -0.025522 0.999674 0.000000
-7.757898 -6.840483 -0.441018 907 -0.025522 0.999674 0.000000
-7.757953 -6.840522 -0.437847 907 -0.025522 0.999674 0.000000
-7.757273 -6.839926 -0.434623 909 -0.025522 0.999674 0.000000
-7.756601 -6.839337 -0.431409 913 -0.025522 0.999674 0.000000
-7.757032 -6.839710 -0.428245 901 -0.025522 0.999674 0.000000
-7.757293 -6.839942 -0.425083 915 -0.025522 0.999674 0.000000
-7.756563 -6.839297 -0.421859 899 -0.025522 0.999674 0.000000
-7.756492 -6.839238 -0.418680 905 -0.025522 0.999674 0.000000
-7.756469 -6.839217 -0.415500 907 -0.025522 0.999674 0.000000
-7.756680 -6.839398 -0.412328 909 -0.025522 0.999674 0.000000
-7.756983 -6.839674 -0.409165 899 -0.025522 0.999674 0.000000
-7.756968 -6.839659 -0.405975 881 -0.025522 0.999674 0.000000
-7.757164 -6.839829 -0.402813 899 -0.025522 0.999674 0.000000
-7.756701 -6.839425 -0.399608 903 -0.025522 0.999674 0.000000
-7.756240 -6.839020 -0.396402 887 -0.025522 0.999674 0.000000
-7.756549 -6.839289 -0.393239 887 -0.025522 0.999674 0.000000
-7.756698 -6.839422 -0.390067 877 -0.025522 0.999674 0.000000
-7.757331 -6.839975 -0.386912 889 -0.025522 0.999674 0.000000
-7.758014 -6.840578 -0.383765 907 -0.025522 0.999674 0.000000
-7.757390 -6.840024 -0.380561 897 -0.025522 0.999674 0.000000
-7.757147 -6.839811 -0.377363 909 -0.025522 0.999674 0.000000
-7.757229 -6.839882 -0.374192 893 -0.025522 0.999674 0.000000
-7.757638 -6.840251 -0.371028 887 -0.025522 0.999674 0.000000
-7.758321 -6.840853 -0.367882 885 -0.025522 0.999674 0.000000
-7.757689 -6.840294 -0.364668 859 -0.025522 0.999674 0.000000
-7.757057 -6.839735 -0.361463 857 -0.025522 0.999674 0.000000
-7.757358 -6.839997 -0.358301 867 -0.025522 0.999674 0.000000
-7.757709 -6.840311 -0.355137 847 -0.025522 0.999674 0.000000
-7.757458 -6.840091 -0.351939 839 -0.025522 0.999674 0.000000
-7.758473 -6.840984 -0.348810 849 -0.025522 0.999674 0.000000
-7.758548 -6.841049 -0.345629 847 -0.025522 0.999674 0.000000
-7.757752 -6.840341 -0.342417 839 -0.025522 0.999674 0.000000
-7.757876 -6.840456 -0.339245 841 -0.025522 0.999674 0.000000
-7.757951 -6.840521 -0.336065 835 -0.025522 0.999674 0.000000
-7.757692 -6.840296 -0.332877 853 -0.025522 0.999674 0.000000
-7.757490 -6.840113 -0.329689 859 -0.025522 0.999674 0.000000
-7.758002 -6.840560 -0.326534 877 -0.025522 0.999674 0.000000
-7.758189 -6.840724 -0.323362 865 -0.025522 0.999674 0.000000
-7.757705 -6.840302 -0.320156 843 -0.025522 0.999674 0.000000
-7.756732 -6.839446 -0.316945 845 -0.025522 0.999674 0.000000
-7.756911 -6.839604 -0.313774 859 -0.025522 0.999674 0.000000
-7.757473 -6.840102 -0.310618 859 -0.025522 0.999674 0.000000
-7.757490 -6.840111 -0.307438 855 -0.025522 0.999674 0.000000
-7.760058 -6.837953 -0.705446 905 -0.025522 0.999674 0.000000
-7.760058 -6.837949 -0.702256 907 -0.025522 0.999674 0.000000
-7.760758 -6.838564 -0.699129 917 -0.025522 0.999674 0.000000
-7.760371 -6.838228 -0.695903 913 -0.025522 0.999674 0.000000
-7.760850 -6.838652 -0.692748 915 -0.025522 0.999674 0.000000
-7.761557 -6.839272 -0.689622 929 -0.025522 0.999674 0.000000
-7.761663 -6.839361 -0.686441 927 -0.025522 0.999674 0.000000
-7.761210 -6.838963 -0.683215 915 -0.025522 0.999674 0.000000
-7.760319 -6.838182 -0.679943 897 -0.025522 0.999674 0.000000
-7.761018 -6.838797 -0.676816 899 -0.025522 0.999674 0.000000
-7.761401 -6.839134 -0.673663 897 -0.025522 0.999674 0.000000
-7.760451 -6.838296 -0.670391 887 -0.025522 0.999674 0.000000
-7.760500 -6.838329 -0.667201 903 -0.025522 0.999674 0.000000
-7.760980 -6.838752 -0.664056 909 -0.025522 0.999674 0.000000
-7.760738 -6.838540 -0.660849 899 -0.025522 0.999674 0.000000
-7.760390 -6.838233 -0.657632 883 -0.025522 0.999674 0.000000
-7.760928 -6.838714 -0.654487 889 -0.025522 0.999674 0.000000
-7.761400 -6.839131 -0.651332 887 -0.025522 0.999674 0.000000
-7.761221 -6.838966 -0.648134 893 -0.025522 0.999674 0.000000
-7.761524 -6.839242 -0.644961 913 -0.025522 0.999674 0.000000
-7.761615 -6.839320 -0.641780 915 -0.025522 0.999674 0.000000
-7.760949 -6.838722 -0.638546 911 -0.025522 0.999674 0.000000
-7.760529 -6.838362 -0.635320 907 -0.025522 0.999674 0.000000
-7.760513 -6.838347 -0.632130 907 -0.025522 0.999674 0.000000
-7.761693 -6.839388 -0.629039 917 -0.025522 0.999674 0.000000
-7.762391 -6.840003 -0.625903 897 -0.025522 0.999674 0.000000
-7.761654 -6.839351 -0.622659 893 -0.025522 0.999674 0.000000
-7.761736 -6.839422 -0.619478 901 -0.025522 0.999674 0.000000
-7.761607 -6.839308 -0.616280 901 -0.025522 0.999674 0.000000
-7.761631 -6.839322 -0.613089 909 -0.025522 0.999674 0.000000
-7.762647 -6.840215 -0.609980 905 -0.025522 0.999674 0.000000
-7.762828 -6.840387 -0.606808 913 -0.025522 0.999674 0.000000
-7.762041 -6.839684 -0.603555 889 -0.025522 0.999674 0.000000
-7.761635 -6.839322 -0.600339 909 -0.025522 0.999674 0.000000
-7.760989 -6.838765 -0.597105 905 -0.025522 0.999674 0.000000
-7.760638 -6.838445 -0.593888 901 -0.025522 0.999674 0.000000
-7.761259 -6.839000 -0.590752 909 -0.025522 0.999674 0.000000
-7.761122 -6.838879 -0.587553 917 -0.025522 0.999674 0.000000
-7.761260 -6.838993 -0.584382 917 -0.025522 0.999674 0.000000
-7.762317 -6.839930 -0.581272 925 -0.025522 0.999674 0.000000
-7.761626 -6.839314 -0.578028 913 -0.025522 0.999674 0.000000
-7.761199 -6.838947 -0.574812 913 -0.025522 0.999674 0.000000
-7.761492 -6.839204 -0.571650 917 -0.025522 0.999674 0.000000
-7.761023 -6.838794 -0.568434 903 -0.025522 0.999674 0.000000
-7.761259 -6.838994 -0.565261 889 -0.025522 0.999674 0.000000
-7.761714 -6.839398 -0.562107 885 -0.025522 0.999674 0.000000
-7.762113 -6.839747 -0.558954 907 -0.025522 0.999674 0.000000
-7.761530 -6.839239 -0.555719 899 -0.025522 0.999674 0.000000
-7.761165 -6.838907 -0.552512 883 -0.025522 0.999674 0.000000
-7.761499 -6.839208 -0.549349 899 -0.025522 0.999674 0.000000
-7.761460 -6.839173 -0.546159 913 -0.025522 0.999674 0.000000
-7.761308 -6.839041 -0.542971 897 -0.025522 0.999674 0.000000
-7.761535 -6.839235 -0.539798 915 -0.025522 0.999674 0.000000
-7.761659 -6.839350 -0.536617 911 -0.025522 0.999674 0.000000
-7.761675 -6.839359 -0.533437 905 -0.025522 0.999674 0.000000
-7.761296 -6.839029 -0.530230 899 -0.025522 0.999674 0.000000
-7.761523 -6.839223 -0.527058 921 -0.025522 0.999674 0.000000
-7.762410 -6.840005 -0.523930 921 -0.025522 0.999674 0.000000
-7.762417 -6.840007 -0.520740 925 -0.025522 0.999674 0.000000
-7.762202 -6.839827 -0.517542 913 -0.025522 0.999674 0.000000
-7.762479 -6.840071 -0.514379 929 -0.025522 0.999674 0.000000
-7.761609 -6.839294 -0.511137 917 -0.025522 0.999674 0.000000
-7.761401 -6.839119 -0.507939 925 -0.025522 0.999674 0.000000
-7.762002 -6.839647 -0.504793 929 -0.025522 0.999674 0.000000
-7.762449 -6.840033 -0.501639 919 -0.025522 0.999674 0.000000
-7.762011 -6.839646 -0.498423 909 -0.025522 0.999674 0.000000
-7.761623 -6.839310 -0.495217 905 -0.025522 0.999674 0.000000
-7.762064 -6.839704 -0.492062 915 -0.025522 0.999674 0.000000
-7.761846 -6.839509 -0.488864 917 -0.025522 0.999674 0.000000
-7.761578 -6.839263 -0.485667 919 -0.025522 0.999674 0.000000
-7.761628 -6.839311 -0.482486 917 -0.025522 0.999674 0.000000
-7.761735 -6.839414 -0.479305 915 -0.025522 0.999674 0.000000
-7.762012 -6.839644 -0.476143 909 -0.025522 0.999674 0.000000
-7.761721 -6.839395 -0.472935 915 -0.025522 0.999674 0.000000
-7.761178 -6.838916 -0.469720 911 -0.025522 0.999674 0.000000
-7.761552 -6.839247 -0.466567 915 -0.025522 0.999674 0.000000
-7.761326 -6.839046 -0.463369 877 -0.025522 0.999674 0.000000
-7.761759 -6.839433 -0.460214 885 -0.025522 0.999674 0.000000
-7.762302 -6.839905 -0.457059 897 -0.025522 0.999674 0.000000
-7.763002 -6.840519 -0.453913 905 -0.025522 0.999674 0.000000
-7.762443 -6.840029 -0.450698 893 -0.025522 0.999674 0.000000
-7.761942 -6.839594 -0.447492 899 -0.025522 0.999674 0.000000
-7.762161 -6.839782 -0.444320 897 -0.025522 0.999674 0.000000
-7.762365 -6.839958 -0.441149 907 -0.025522 0.999674 0.000000
-7.762513 -6.840091 -0.437967 913 -0.025522 0.999674 0.000000
-7.762123 -6.839741 -0.434771 901 -0.025522 0.999674 0.000000
-7.761994 -6.839627 -0.431582 903 -0.025522 0.999674 0.000000
-7.762865 -6.840397 -0.428444 907 -0.025522 0.999674 0.000000
-7.762794 -6.840339 -0.425254 915 -0.025522 0.999674 0.000000
-7.762340 -6.839941 -0.422048 909 -0.025522 0.999674 0.000000
-7.761935 -6.839579 -0.418852 893 -0.025522 0.999674 0.000000
-7.762033 -6.839662 -0.415671 895 -0.025522 0.999674 0.000000
-7.762228 -6.839832 -0.412499 891 -0.025522 0.999674 0.000000
-7.762376 -6.839965 -0.409328 901 -0.025522 0.999674 0.000000
-7.762411 -6.840000 -0.406147 893 -0.025522 0.999674 0.000000
-7.762177 -6.839793 -0.402949 885 -0.025522 0.999674 0.000000
-7.761876 -6.839523 -0.399752 897 -0.025522 0.999674 0.000000
-7.761251 -6.838970 -0.396538 893 -0.025522 0.999674 0.000000
-7.761838 -6.839486 -0.393392 881 -0.025522 0.999674 0.000000
-7.763180 -6.840677 -0.390270 889 -0.025522 0.999674 0.000000
-7.762499 -6.840082 -0.387056 879 -0.025522 0.999674 0.000000
-7.761712 -6.839379 -0.383843 879 -0.025522 0.999674 0.000000
-7.761793 -6.839450 -0.380662 869 -0.025522 0.999674 0.000000
-7.762380 -6.839966 -0.377507 885 -0.025522 0.999674 0.000000
-7.763550 -6.841002 -0.374386 889 -0.025522 0.999674 0.000000
-7.764460 -6.841801 -0.371238 905 -0.025522 0.999674 0.000000
-7.763659 -6.841101 -0.368025 887 -0.025522 0.999674 0.000000
-7.762644 -6.840201 -0.364794 853 -0.025522 0.999674 0.000000
-7.763059 -6.840563 -0.361630 863 -0.025522 0.999674 0.000000
-7.763410 -6.840876 -0.358467 857 -0.025522 0.999674 0.000000
-7.762664 -6.840218 -0.355254 847 -0.025522 0.999674 0.000000
-7.761862 -6.839517 -0.352041 837 -0.025522 0.999674 0.000000
-7.761667 -6.839340 -0.348853 831 -0.025522 0.999674 0.000000
-7.762132 -6.839752 -0.345688 833 -0.025522 0.999674 0.000000
-7.763090 -6.840588 -0.342550 833 -0.025522 0.999674 0.000000
-7.763327 -6.840802 -0.339377 819 -0.025522 0.999674 0.000000
-7.763069 -6.840577 -0.336190 849 -0.025522 0.999674 0.000000
-7.762429 -6.840012 -0.332985 867 -0.025522 0.999674 0.000000
-7.762057 -6.839688 -0.329789 863 -0.025522 0.999674 0.000000
-7.762350 -6.839944 -0.326616 861 -0.025522 0.999674 0.000000
-7.763081 -6.840583 -0.323469 851 -0.025522 0.999674 0.000000
-7.762991 -6.840499 -0.320280 857 -0.025522 0.999674 0.000000
-7.762792 -6.840331 -0.317092 861 -0.025522 0.999674 0.000000
-7.762858 -6.840390 -0.313921 873 -0.025522 0.999674 0.000000
-7.762761 -6.840300 -0.310732 859 -0.025522 0.999674 0.000000
-7.762721 -6.840265 -0.307552 849 -0.025522 0.999674 0.000000
-7.764887 -6.837664 -0.705674 903 -0.025522 0.999674 0.000000
-7.765544 -6.838234 -0.702538 895 -0.025522 0.999674 0.000000
-7.766139 -6.838757 -0.699402 907 -0.025522 0.999674 0.000000
-7.765962 -6.838606 -0.696194 905 -0.025522 0.999674 0.000000
-7.765028 -6.837781 -0.692922 887 -0.025522 0.999674 0.000000
-7.765680 -6.838359 -0.689786 903 -0.025522 0.999674 0.000000
-7.766265 -6.838876 -0.686651 921 -0.025522 0.999674 0.000000
-7.765876 -6.838525 -0.683424 901 -0.025522 0.999674 0.000000
-7.765430 -6.838133 -0.680188 897 -0.025522 0.999674 0.000000
-7.765586 -6.838273 -0.677017 903 -0.025522 0.999674 0.000000
-7.765790 -6.838448 -0.673845 905 -0.025522 0.999674 0.000000
-7.765888 -6.838531 -0.670664 903 -0.025522 0.999674 0.000000
-7.766473 -6.839047 -0.667518 903 -0.025522 0.999674 0.000000
-7.766184 -6.838798 -0.664301 905 -0.025522 0.999674 0.000000
-7.765567 -6.838251 -0.661057 887 -0.025522 0.999674 0.000000
-7.765715 -6.838384 -0.657885 885 -0.025522 0.999674 0.000000
-7.765812 -6.838468 -0.654704 891 -0.025522 0.999674 0.000000
-7.766122 -6.838736 -0.651541 897 -0.025522 0.999674 0.000000
-7.766156 -6.838770 -0.648351 897 -0.025522 0.999674 0.000000
-7.766684 -6.839230 -0.645206 897 -0.025522 0.999674 0.000000
-7.766890 -6.839420 -0.642034 899 -0.025522 0.999674 0.000000
-7.766215 -6.838816 -0.638780 895 -0.025522 0.999674 0.000000
-7.765690 -6.838364 -0.635555 897 -0.025522 0.999674 0.000000
-7.765625 -6.838297 -0.632355 895 -0.025522 0.999674 0.000000
