476
-7.167062 -7.121928 -0.668150 819 -0.594185 0.804322 0.003186
-7.167258 -7.122129 -0.665048 823 -0.594185 0.804322 0.003186
-7.167963 -7.122827 -0.662001 823 -0.594185 0.804322 0.003186
-7.167540 -7.122412 -0.658845 819 -0.594185 0.804322 0.003186
-7.166325 -7.121197 -0.655617 813 -0.594185 0.804322 0.003186
-7.166257 -7.121136 -0.652498 815 -0.594185 0.804322 0.003186
-7.166754 -7.121631 -0.649423 813 -0.594185 0.804322 0.003186
-7.167521 -7.122380 -0.646375 811 -0.594185 0.804322 0.003186
-7.167453 -7.122319 -0.643256 809 -0.594185 0.804322 0.003186
-7.167531 -7.122395 -0.640155 821 -0.594185 0.804322 0.003186
-7.167880 -7.122738 -0.637062 821 -0.594185 0.804322 0.003186
-7.166876 -7.121741 -0.633861 815 -0.594185 0.804322 0.003186
-7.166073 -7.120953 -0.630679 811 -0.594185 0.804322 0.003186
-7.166315 -7.121192 -0.627587 817 -0.594185 0.804322 0.003186
-7.166749 -7.121621 -0.624512 817 -0.594185 0.804322 0.003186
-7.166781 -7.121659 -0.621402 813 -0.594185 0.804322 0.003186
-7.166341 -7.121217 -0.618246 803 -0.594185 0.804322 0.003186
-7.166582 -7.121456 -0.615154 807 -0.594185 0.804322 0.003186
-7.167025 -7.121892 -0.612079 807 -0.594185 0.804322 0.003186
-7.167258 -7.122125 -0.608987 817 -0.594185 0.804322 0.003186
-7.166866 -7.121737 -0.605841 809 -0.594185 0.804322 0.003186
-7.166991 -7.121864 -0.602729 807 -0.594185 0.804322 0.003186
-7.167541 -7.122405 -0.599664 807 -0.594185 0.804322 0.003186
-7.167666 -7.122533 -0.596563 807 -0.594185 0.804322 0.003186
-7.167737 -7.122603 -0.593452 805 -0.594185 0.804322 0.003186
-7.167863 -7.122731 -0.590351 805 -0.594185 0.804322 0.003186
-7.168553 -7.123416 -0.587294 807 -0.594185 0.804322 0.003186
-7.168477 -7.123335 -0.584175 807 -0.594185 0.804322 0.003186
-7.168083 -7.122946 -0.581028 799 -0.594185 0.804322 0.003186
-7.168881 -7.123735 -0.577981 805 -0.594185 0.804322 0.003186
-7.169726 -7.124578 -0.574932 803 -0.594185 0.804322 0.003186
-7.170263 -7.125119 -0.571857 805 -0.594185 0.804322 0.003186
-7.169807 -7.124664 -0.568711 799 -0.594185 0.804322 0.003186
-7.169259 -7.124117 -0.565557 801 -0.594185 0.804322 0.003186
-7.169794 -7.124645 -0.562481 795 -0.594185 0.804322 0.003186
-7.170692 -7.125533 -0.559433 801 -0.594185 0.804322 0.003186
-7.170858 -7.125708 -0.556331 799 -0.594185 0.804322 0.003186
-7.170820 -7.125672 -0.553221 797 -0.594185 0.804322 0.003186
-7.170209 -7.125060 -0.550057 793 -0.594185 0.804322 0.003186
-7.170172 -7.125025 -0.546947 789 -0.594185 0.804322 0.003186
-7.171118 -7.125965 -0.543898 795 -0.594185 0.804322 0.003186
-7.171329 -7.126179 -0.540806 811 -0.594185 0.804322 0.003186
-7.171089 -7.125933 -0.537668 807 -0.594185 0.804322 0.003186
-7.171098 -7.125937 -0.534558 801 -0.594185 0.804322 0.003186
-7.171424 -7.126261 -0.531475 803 -0.594185 0.804322 0.003186
-7.171991 -7.126829 -0.528399 805 -0.594185 0.804322 0.003186
-7.171691 -7.126532 -0.525262 809 -0.594185 0.804322 0.003186
-7.171383 -7.126228 -0.522125 813 -0.594185 0.804322 0.003186
-7.171709 -7.126553 -0.519042 809 -0.594185 0.804322 0.003186
-7.171912 -7.126760 -0.515940 803 -0.594185 0.804322 0.003186
-7.171982 -7.126814 -0.512829 801 -0.594185 0.804322 0.003186
-7.171976 -7.126820 -0.509719 799 -0.594185 0.804322 0.003186
-7.171924 -7.126771 -0.506609 801 -0.594185 0.804322 0.003186
-7.171833 -7.126677 -0.503490 795 -0.594185 0.804322 0.003186
-7.172452 -7.127289 -0.500414 799 -0.594185 0.804322 0.003186
-7.172663 -7.127502 -0.497322 803 -0.594185 0.804322 0.003186
-7.172192 -7.127035 -0.494177 791 -0.594185 0.804322 0.003186
-7.171729 -7.126574 -0.491031 785 -0.594185 0.804322 0.003186
-7.171939 -7.126773 -0.487929 785 -0.594185 0.804322 0.003186
-7.171995 -7.126830 -0.484828 777 -0.594185 0.804322 0.003186
-7.171315 -7.126159 -0.481665 769 -0.594185 0.804322 0.003186
-7.171100 -7.125947 -0.478547 775 -0.594185 0.804322 0.003186
-7.171883 -7.126724 -0.475479 785 -0.594185 0.804322 0.003186
-7.171876 -7.126714 -0.472369 793 -0.594185 0.804322 0.003186
-7.171453 -7.126299 -0.469233 785 -0.594185 0.804322 0.003186
-7.171453 -7.126297 -0.466123 779 -0.594185 0.804322 0.003186
-7.171286 -7.126138 -0.463005 777 -0.594185 0.804322 0.003186
-7.171642 -7.126488 -0.459911 779 -0.594185 0.804322 0.003186
-7.171690 -7.126537 -0.456801 787 -0.594185 0.804322 0.003186
-7.171730 -7.126567 -0.453690 795 -0.594185 0.804322 0.003186
-7.171979 -7.126827 -0.450598 793 -0.594185 0.804322 0.003186
-7.172027 -7.126863 -0.447487 795 -0.594185 0.804322 0.003186
-7.172229 -7.127070 -0.444395 791 -0.594185 0.804322 0.003186
-7.172423 -7.127256 -0.441293 799 -0.594185 0.804322 0.003186
-7.171946 -7.126783 -0.438158 793 -0.594185 0.804322 0.003186
-7.171669 -7.126519 -0.435030 785 -0.594185 0.804322 0.003186
-7.172698 -7.127530 -0.431980 789 -0.594185 0.804322 0.003186
-7.172886 -7.127725 -0.428878 783 -0.594185 0.804322 0.003186
-7.172260 -7.127099 -0.425734 777 -0.594185 0.804322 0.003186
-7.172549 -7.127392 -0.422641 773 -0.594185 0.804322 0.003186
-7.172588 -7.127422 -0.419531 779 -0.594185 0.804322 0.003186
-7.172466 -7.127301 -0.416412 789 -0.594185 0.804322 0.003186
-7.172863 -7.127698 -0.413328 789 -0.594185 0.804322 0.003186
-7.172384 -7.127223 -0.410183 777 -0.594185 0.804322 0.003186
-7.171944 -7.126782 -0.407057 775 -0.594185 0.804322 0.003186
-7.171984 -7.126825 -0.403946 777 -0.594185 0.804322 0.003186
-7.171706 -7.126547 -0.400819 777 -0.594185 0.804322 0.003186
-7.172143 -7.126991 -0.397735 777 -0.594185 0.804322 0.003186
-7.172437 -7.127275 -0.394642 779 -0.594185 0.804322 0.003186
-7.172732 -7.127574 -0.391549 779 -0.594185 0.804322 0.003186
-7.172703 -7.127546 -0.388439 781 -0.594185 0.804322 0.003186
-7.172163 -7.127006 -0.385294 779 -0.594185 0.804322 0.003186
-7.172249 -7.127088 -0.382193 781 -0.594185 0.804322 0.003186
-7.173210 -7.128042 -0.379134 783 -0.594185 0.804322 0.003186
-7.173443 -7.128274 -0.376032 775 -0.594185 0.804322 0.003186
-7.172478 -7.127323 -0.372881 777 -0.594185 0.804322 0.003186
-7.172510 -7.127346 -0.369771 781 -0.594185 0.804322 0.003186
-7.172743 -7.127579 -0.366668 777 -0.594185 0.804322 0.003186
-7.172976 -7.127811 -0.363576 773 -0.594185 0.804322 0.003186
-7.173830 -7.128661 -0.360507 789 -0.594185 0.804322 0.003186
-7.174729 -7.129562 -0.357439 791 -0.594185 0.804322 0.003186
-7.175125 -7.129945 -0.354345 795 -0.594185 0.804322 0.003186
-7.174460 -7.129287 -0.351211 783 -0.594185 0.804322 0.003186
-7.174175 -7.129003 -0.348084 781 -0.594185 0.804322 0.003186
-7.174765 -7.129590 -0.344998 789 -0.594185 0.804322 0.003186
-7.175772 -7.130596 -0.341938 787 -0.594185 0.804322 0.003186
-7.175843 -7.130665 -0.338827 791 -0.594185 0.804322 0.003186
-7.175651 -7.130472 -0.335709 797 -0.594185 0.804322 0.003186
-7.175358 -7.130182 -0.332592 797 -0.594185 0.804322 0.003186
-7.174911 -7.129733 -0.329466 795 -0.594185 0.804322 0.003186
-7.175229 -7.130052 -0.326363 799 -0.594185 0.804322 0.003186
-7.175874 -7.130698 -0.323287 793 -0.594185 0.804322 0.003186
-7.176508 -7.131323 -0.320201 793 -0.594185 0.804322 0.003186
-7.176310 -7.131138 -0.317082 801 -0.594185 0.804322 0.003186
-7.175707 -7.130532 -0.313948 787 -0.594185 0.804322 0.003186
-7.175663 -7.130490 -0.310839 789 -0.594185 0.804322 0.003186
-7.176561 -7.131378 -0.307770 785 -0.594185 0.804322 0.003186
-7.176525 -7.131343 -0.304650 789 -0.594185 0.804322 0.003186
-7.176116 -7.130941 -0.301524 783 -0.594185 0.804322 0.003186
-7.192035 -7.142287 -0.670222 803 -0.594185 0.804322 0.003186
-7.191820 -7.142076 -0.667073 805 -0.594185 0.804322 0.003186
-7.192069 -7.142322 -0.663971 805 -0.594185 0.804322 0.003186
-7.191737 -7.141998 -0.660814 801 -0.594185 0.804322 0.003186
-7.191514 -7.141766 -0.657676 795 -0.594185 0.804322 0.003186
-7.191554 -7.141809 -0.654546 791 -0.594185 0.804322 0.003186
-7.191997 -7.142258 -0.651461 797 -0.594185 0.804322 0.003186
-7.192191 -7.142445 -0.648359 809 -0.594185 0.804322 0.003186
-7.192022 -7.142272 -0.645221 805 -0.594185 0.804322 0.003186
-7.192626 -7.142871 -0.642145 811 -0.594185 0.804322 0.003186
-7.192807 -7.143060 -0.639033 809 -0.594185 0.804322 0.003186
-7.192065 -7.142323 -0.635850 795 -0.594185 0.804322 0.003186
-7.192198 -7.142457 -0.632729 793 -0.594185 0.804322 0.003186
-7.192285 -7.142540 -0.629618 799 -0.594185 0.804322 0.003186
-7.192316 -7.142563 -0.626498 801 -0.594185 0.804322 0.003186
-7.193115 -7.143366 -0.623440 799 -0.594185 0.804322 0.003186
-7.192466 -7.142722 -0.620256 797 -0.594185 0.804322 0.003186
-7.192505 -7.142751 -0.617136 795 -0.594185 0.804322 0.003186
-7.192570 -7.142828 -0.614015 795 -0.594185 0.804322 0.003186
-7.191982 -7.142234 -0.610851 789 -0.594185 0.804322 0.003186
-7.192115 -7.142370 -0.607729 793 -0.594185 0.804322 0.003186
-7.191931 -7.142183 -0.604591 795 -0.594185 0.804322 0.003186
-7.192373 -7.142619 -0.601507 797 -0.594185 0.804322 0.003186
-7.193373 -7.143619 -0.598467 805 -0.594185 0.804322 0.003186
-7.192879 -7.143132 -0.595302 797 -0.594185 0.804322 0.003186
-7.192595 -7.142848 -0.592154 795 -0.594185 0.804322 0.003186
-7.192920 -7.143172 -0.589061 797 -0.594185 0.804322 0.003186
-7.192736 -7.142985 -0.585923 793 -0.594185 0.804322 0.003186
-7.192861 -7.143114 -0.582811 793 -0.594185 0.804322 0.003186
-7.192367 -7.142613 -0.579646 801 -0.594185 0.804322 0.003186
-7.192012 -7.142270 -0.576500 795 -0.594185 0.804322 0.003186
-7.193182 -7.143426 -0.573468 809 -0.594185 0.804322 0.003186
-7.193509 -7.143751 -0.570365 807 -0.594185 0.804322 0.003186
-7.193007 -7.143257 -0.567210 797 -0.594185 0.804322 0.003186
-7.193023 -7.143267 -0.564089 789 -0.594185 0.804322 0.003186
-7.193660 -7.143907 -0.561013 791 -0.594185 0.804322 0.003186
-7.193831 -7.144073 -0.557901 793 -0.594185 0.804322 0.003186
-7.193638 -7.143881 -0.554763 797 -0.594185 0.804322 0.003186
-7.193493 -7.143741 -0.551635 793 -0.594185 0.804322 0.003186
-7.193193 -7.143444 -0.548487 795 -0.594185 0.804322 0.003186
-7.192954 -7.143198 -0.545350 789 -0.594185 0.804322 0.003186
-7.193380 -7.143620 -0.542256 797 -0.594185 0.804322 0.003186
-7.193645 -7.143894 -0.539153 805 -0.594185 0.804322 0.003186
-7.193399 -7.143642 -0.536015 785 -0.594185 0.804322 0.003186
-7.193818 -7.144058 -0.532921 795 -0.594185 0.804322 0.003186
-7.194455 -7.144698 -0.529845 799 -0.594185 0.804322 0.003186
-7.193681 -7.143921 -0.526672 797 -0.594185 0.804322 0.003186
-7.193320 -7.143573 -0.523526 803 -0.594185 0.804322 0.003186
-7.194211 -7.144454 -0.520467 809 -0.594185 0.804322 0.003186
-7.194638 -7.144876 -0.517373 817 -0.594185 0.804322 0.003186
-7.194383 -7.144618 -0.514235 819 -0.594185 0.804322 0.003186
-7.194230 -7.144471 -0.511106 819 -0.594185 0.804322 0.003186
-7.194650 -7.144888 -0.508012 819 -0.594185 0.804322 0.003186
-7.194805 -7.145042 -0.504901 815 -0.594185 0.804322 0.003186
-7.194450 -7.144685 -0.501754 811 -0.594185 0.804322 0.003186
-7.193826 -7.144074 -0.498590 809 -0.594185 0.804322 0.003186
-7.193827 -7.144071 -0.495470 807 -0.594185 0.804322 0.003186
-7.194501 -7.144743 -0.492393 801 -0.594185 0.804322 0.003186
-7.194448 -7.144695 -0.489274 797 -0.594185 0.804322 0.003186
-7.194087 -7.144332 -0.486127 777 -0.594185 0.804322 0.003186
-7.193987 -7.144230 -0.482998 783 -0.594185 0.804322 0.003186
-7.194606 -7.144843 -0.479922 791 -0.594185 0.804322 0.003186
-7.194810 -7.145050 -0.476810 797 -0.594185 0.804322 0.003186
-7.193457 -7.143705 -0.473603 793 -0.594185 0.804322 0.003186
-7.193969 -7.144213 -0.470518 787 -0.594185 0.804322 0.003186
-7.194635 -7.144878 -0.467442 791 -0.594185 0.804322 0.003186
-7.194273 -7.144515 -0.464295 789 -0.594185 0.804322 0.003186
-7.194166 -7.144407 -0.461166 791 -0.594185 0.804322 0.003186
-7.194044 -7.144287 -0.458047 781 -0.594185 0.804322 0.003186
-7.194091 -7.144337 -0.454926 783 -0.594185 0.804322 0.003186
-7.194031 -7.144282 -0.451807 797 -0.594185 0.804322 0.003186
-7.193653 -7.143905 -0.448661 789 -0.594185 0.804322 0.003186
-7.193647 -7.143897 -0.445541 783 -0.594185 0.804322 0.003186
-7.193740 -7.143985 -0.442430 775 -0.594185 0.804322 0.003186
-7.194361 -7.144598 -0.439344 783 -0.594185 0.804322 0.003186
-7.194185 -7.144432 -0.436215 785 -0.594185 0.804322 0.003186
-7.193861 -7.144115 -0.433078 789 -0.594185 0.804322 0.003186
-7.194527 -7.144766 -0.430002 777 -0.594185 0.804322 0.003186
-7.194971 -7.145216 -0.426907 773 -0.594185 0.804322 0.003186
-7.194438 -7.144682 -0.423752 775 -0.594185 0.804322 0.003186
-7.194223 -7.144471 -0.420624 775 -0.594185 0.804322 0.003186
-7.195455 -7.145692 -0.417572 775 -0.594185 0.804322 0.003186
-7.194860 -7.145107 -0.414418 769 -0.594185 0.804322 0.003186
-7.193708 -7.143958 -0.411239 767 -0.594185 0.804322 0.003186
-7.194420 -7.144662 -0.408162 771 -0.594185 0.804322 0.003186
-7.195118 -7.145353 -0.405075 773 -0.594185 0.804322 0.003186
-7.194640 -7.144879 -0.401930 761 -0.594185 0.804322 0.003186
-7.194410 -7.144654 -0.398802 767 -0.594185 0.804322 0.003186
-7.195006 -7.145247 -0.395716 777 -0.594185 0.804322 0.003186
-7.195093 -7.145329 -0.392605 779 -0.594185 0.804322 0.003186
-7.195078 -7.145313 -0.389485 777 -0.594185 0.804322 0.003186
-7.195096 -7.145338 -0.386365 775 -0.594185 0.804322 0.003186
-7.195445 -7.145681 -0.383262 777 -0.594185 0.804322 0.003186
-7.196298 -7.146530 -0.380193 773 -0.594185 0.804322 0.003186
-7.195804 -7.146043 -0.377048 757 -0.594185 0.804322 0.003186
-7.195156 -7.145399 -0.373894 761 -0.594185 0.804322 0.003186
-7.195335 -7.145572 -0.370792 761 -0.594185 0.804322 0.003186
-7.195367 -7.145608 -0.367672 761 -0.594185 0.804322 0.003186
-7.195229 -7.145476 -0.364543 763 -0.594185 0.804322 0.003186
-7.195408 -7.145649 -0.361441 779 -0.594185 0.804322 0.003186
-7.196315 -7.146544 -0.358363 775 -0.594185 0.804322 0.003186
-7.196966 -7.147195 -0.355276 781 -0.594185 0.804322 0.003186
-7.196310 -7.146545 -0.352123 785 -0.594185 0.804322 0.003186
-7.195970 -7.146201 -0.348996 781 -0.594185 0.804322 0.003186
-7.196451 -7.146683 -0.345901 771 -0.594185 0.804322 0.003186
-7.196577 -7.146811 -0.342790 775 -0.594185 0.804322 0.003186
-7.197120 -7.147346 -0.339694 787 -0.594185 0.804322 0.003186
-7.197291 -7.147513 -0.336583 799 -0.594185 0.804322 0.003186
-7.196170 -7.146403 -0.333413 791 -0.594185 0.804322 0.003186
-7.196644 -7.146879 -0.330319 797 -0.594185 0.804322 0.003186
-7.196931 -7.147158 -0.327216 797 -0.594185 0.804322 0.003186
-7.195904 -7.146140 -0.324046 799 -0.594185 0.804322 0.003186
-7.195921 -7.146164 -0.320936 805 -0.594185 0.804322 0.003186
-7.196867 -7.147104 -0.317856 805 -0.594185 0.804322 0.003186
-7.196983 -7.147213 -0.314745 795 -0.594185 0.804322 0.003186
-7.196838 -7.147072 -0.311617 799 -0.594185 0.804322 0.003186
-7.196746 -7.146978 -0.308497 793 -0.594185 0.804322 0.003186
-7.197329 -7.147558 -0.305402 787 -0.594185 0.804322 0.003186
-7.196935 -7.147169 -0.302275 781 -0.594185 0.804322 0.003186
-7.206149 -7.152013 -0.668177 807 -0.594185 0.804322 0.003186
-7.206390 -7.152253 -0.665074 813 -0.594185 0.804322 0.003186
-7.206213 -7.152087 -0.661926 807 -0.594185 0.804322 0.003186
-7.206152 -7.152018 -0.658787 813 -0.594185 0.804322 0.003186
-7.206496 -7.152370 -0.655693 805 -0.594185 0.804322 0.003186
-7.206945 -7.152812 -0.652599 807 -0.594185 0.804322 0.003186
-7.206831 -7.152698 -0.649460 803 -0.594185 0.804322 0.003186
-7.206863 -7.152734 -0.646329 811 -0.594185 0.804322 0.003186
-7.206949 -7.152817 -0.643209 809 -0.594185 0.804322 0.003186
-7.206253 -7.152119 -0.640015 797 -0.594185 0.804322 0.003186
-7.205613 -7.151495 -0.636831 799 -0.594185 0.804322 0.003186
-7.205800 -7.151675 -0.633719 799 -0.594185 0.804322 0.003186
-7.206405 -7.152275 -0.630643 803 -0.594185 0.804322 0.003186
-7.207419 -7.153274 -0.627594 807 -0.594185 0.804322 0.003186
-7.206980 -7.152845 -0.624428 811 -0.594185 0.804322 0.003186
-7.206695 -7.152561 -0.621280 807 -0.594185 0.804322 0.003186
-7.207192 -7.153056 -0.618186 801 -0.594185 0.804322 0.003186
-7.207270 -7.153132 -0.615065 793 -0.594185 0.804322 0.003186
-7.206992 -7.152854 -0.611917 797 -0.594185 0.804322 0.003186
-7.207118 -7.152982 -0.608796 795 -0.594185 0.804322 0.003186
-7.207296 -7.153156 -0.605684 795 -0.594185 0.804322 0.003186
-7.207733 -7.153600 -0.602590 795 -0.594185 0.804322 0.003186
-7.208228 -7.154080 -0.599495 803 -0.594185 0.804322 0.003186
-7.207417 -7.153286 -0.596303 793 -0.594185 0.804322 0.003186
-7.205731 -7.151606 -0.593039 787 -0.594185 0.804322 0.003186
-7.206018 -7.151884 -0.589936 791 -0.594185 0.804322 0.003186
-7.206971 -7.152832 -0.586877 793 -0.594185 0.804322 0.003186
-7.207136 -7.153006 -0.583765 789 -0.594185 0.804322 0.003186
-7.207268 -7.153127 -0.580644 795 -0.594185 0.804322 0.003186
-7.207339 -7.153196 -0.577523 795 -0.594185 0.804322 0.003186
-7.207209 -7.153069 -0.574384 793 -0.594185 0.804322 0.003186
-7.207838 -7.153702 -0.571308 793 -0.594185 0.804322 0.003186
-7.207598 -7.153457 -0.568160 779 -0.594185 0.804322 0.003186
-7.206633 -7.152504 -0.564960 775 -0.594185 0.804322 0.003186
-7.206952 -7.152822 -0.561857 775 -0.594185 0.804322 0.003186
-7.207386 -7.153252 -0.558762 777 -0.594185 0.804322 0.003186
-7.207612 -7.153478 -0.555650 785 -0.594185 0.804322 0.003186
-7.207412 -7.153279 -0.552512 789 -0.594185 0.804322 0.003186
-7.207476 -7.153342 -0.549391 791 -0.594185 0.804322 0.003186
-7.208057 -7.153923 -0.546305 795 -0.594185 0.804322 0.003186
-7.207864 -7.153729 -0.543157 795 -0.594185 0.804322 0.003186
-7.207409 -7.153274 -0.540002 797 -0.594185 0.804322 0.003186
-7.207836 -7.153697 -0.536907 791 -0.594185 0.804322 0.003186
-7.208155 -7.154016 -0.533804 787 -0.594185 0.804322 0.003186
-7.207544 -7.153403 -0.530630 787 -0.594185 0.804322 0.003186
-7.207599 -7.153459 -0.527510 791 -0.594185 0.804322 0.003186
-7.207663 -7.153522 -0.524389 793 -0.594185 0.804322 0.003186
-7.208338 -7.154194 -0.521312 795 -0.594185 0.804322 0.003186
-7.208872 -7.154721 -0.518217 803 -0.594185 0.804322 0.003186
-7.208457 -7.154313 -0.515061 809 -0.594185 0.804322 0.003186
-7.208930 -7.154788 -0.511966 805 -0.594185 0.804322 0.003186
-7.208931 -7.154785 -0.508846 811 -0.594185 0.804322 0.003186
-7.208522 -7.154384 -0.505690 813 -0.594185 0.804322 0.003186
-7.208733 -7.154583 -0.502578 811 -0.594185 0.804322 0.003186
-7.208687 -7.154541 -0.499448 821 -0.594185 0.804322 0.003186
-7.209199 -7.155049 -0.496353 809 -0.594185 0.804322 0.003186
-7.209464 -7.155308 -0.493241 803 -0.594185 0.804322 0.003186
-7.208784 -7.154638 -0.490077 799 -0.594185 0.804322 0.003186
-7.208739 -7.154596 -0.486947 793 -0.594185 0.804322 0.003186
-7.208322 -7.154173 -0.483791 787 -0.594185 0.804322 0.003186
-7.207495 -7.153352 -0.480609 791 -0.594185 0.804322 0.003186
-7.207845 -7.153710 -0.477516 797 -0.594185 0.804322 0.003186
-7.207893 -7.153759 -0.474385 795 -0.594185 0.804322 0.003186
-7.208405 -7.154268 -0.471300 795 -0.594185 0.804322 0.003186
-7.208251 -7.154107 -0.468162 789 -0.594185 0.804322 0.003186
-7.207780 -7.153639 -0.465006 787 -0.594185 0.804322 0.003186
-7.208920 -7.154769 -0.461955 789 -0.594185 0.804322 0.003186
-7.209168 -7.155015 -0.458843 789 -0.594185 0.804322 0.003186
-7.208892 -7.154752 -0.455705 781 -0.594185 0.804322 0.003186
-7.208582 -7.154434 -0.452558 787 -0.594185 0.804322 0.003186
-7.208677 -7.154536 -0.449437 783 -0.594185 0.804322 0.003186
-7.208562 -7.154422 -0.446308 775 -0.594185 0.804322 0.003186
-7.208037 -7.153895 -0.443153 769 -0.594185 0.804322 0.003186
-7.207970 -7.153834 -0.440024 775 -0.594185 0.804322 0.003186
-7.208002 -7.153871 -0.436903 779 -0.594185 0.804322 0.003186
-7.208878 -7.154738 -0.433825 779 -0.594185 0.804322 0.003186
-7.209699 -7.155547 -0.430747 773 -0.594185 0.804322 0.003186
-7.209476 -7.155329 -0.427609 777 -0.594185 0.804322 0.003186
-7.209253 -7.155110 -0.424471 779 -0.594185 0.804322 0.003186
-7.209555 -7.155402 -0.421368 773 -0.594185 0.804322 0.003186
-7.209588 -7.155438 -0.418248 775 -0.594185 0.804322 0.003186
-7.209411 -7.155258 -0.415109 773 -0.594185 0.804322 0.003186
-7.209606 -7.155459 -0.411997 775 -0.594185 0.804322 0.003186
-7.209537 -7.155384 -0.408868 777 -0.594185 0.804322 0.003186
-7.208990 -7.154851 -0.405713 765 -0.594185 0.804322 0.003186
-7.208928 -7.154782 -0.402584 761 -0.594185 0.804322 0.003186
-7.209317 -7.155173 -0.399490 759 -0.594185 0.804322 0.003186
-7.209511 -7.155359 -0.396368 763 -0.594185 0.804322 0.003186
-7.209854 -7.155697 -0.393265 775 -0.594185 0.804322 0.003186
-7.209839 -7.155681 -0.390145 781 -0.594185 0.804322 0.003186
-7.209857 -7.155705 -0.387014 781 -0.594185 0.804322 0.003186
-7.210145 -7.155997 -0.383911 775 -0.594185 0.804322 0.003186
-7.210231 -7.156080 -0.380790 779 -0.594185 0.804322 0.003186
-7.209993 -7.155848 -0.377653 771 -0.594185 0.804322 0.003186
-7.209815 -7.155668 -0.374524 765 -0.594185 0.804322 0.003186
-7.210203 -7.156044 -0.371421 769 -0.594185 0.804322 0.003186
-7.210383 -7.156232 -0.368299 773 -0.594185 0.804322 0.003186
-7.210090 -7.155941 -0.365162 767 -0.594185 0.804322 0.003186
-7.210695 -7.156541 -0.362076 775 -0.594185 0.804322 0.003186
-7.211439 -7.157285 -0.358988 781 -0.594185 0.804322 0.003186
-7.211053 -7.156888 -0.355842 773 -0.594185 0.804322 0.003186
-7.210234 -7.156087 -0.352680 777 -0.594185 0.804322 0.003186
-7.210832 -7.156681 -0.349584 773 -0.594185 0.804322 0.003186
-7.211267 -7.157110 -0.346480 781 -0.594185 0.804322 0.003186
-7.211237 -7.157081 -0.343360 783 -0.594185 0.804322 0.003186
-7.211624 -7.157457 -0.340246 787 -0.594185 0.804322 0.003186
-7.211487 -7.157324 -0.337117 795 -0.594185 0.804322 0.003186
-7.211349 -7.157190 -0.333989 793 -0.594185 0.804322 0.003186
-7.210422 -7.156271 -0.330827 803 -0.594185 0.804322 0.003186
-7.209974 -7.155823 -0.327682 801 -0.594185 0.804322 0.003186
-7.210308 -7.156154 -0.324578 793 -0.594185 0.804322 0.003186
-7.210735 -7.156577 -0.321474 807 -0.594185 0.804322 0.003186
-7.210798 -7.156639 -0.318354 799 -0.594185 0.804322 0.003186
-7.211023 -7.156866 -0.315241 793 -0.594185 0.804322 0.003186
-7.211350 -7.157190 -0.312128 787 -0.594185 0.804322 0.003186
-7.211885 -7.157718 -0.309023 783 -0.594185 0.804322 0.003186
-7.212204 -7.158036 -0.305920 771 -0.594185 0.804322 0.003186
-7.211431 -7.157274 -0.302767 761 -0.594185 0.804322 0.003186
-7.210465 -7.156308 -0.299606 773 -0.594185 0.804322 0.003186
-7.220578 -7.162049 -0.669299 797 -0.594185 0.804322 0.003186
-7.219681 -7.161156 -0.666078 797 -0.594185 0.804322 0.003186
-7.219413 -7.160898 -0.662920 805 -0.594185 0.804322 0.003186
-7.219646 -7.161131 -0.659808 793 -0.594185 0.804322 0.003186
-7.220259 -7.161737 -0.656722 809 -0.594185 0.804322 0.003186
-7.220662 -7.162127 -0.653618 811 -0.594185 0.804322 0.003186
-7.220694 -7.162163 -0.650488 807 -0.594185 0.804322 0.003186
-7.220579 -7.162049 -0.647339 805 -0.594185 0.804322 0.003186
-7.220921 -7.162386 -0.644235 805 -0.594185 0.804322 0.003186
-7.221418 -7.162882 -0.641150 805 -0.594185 0.804322 0.003186
-7.221604 -7.163062 -0.638029 811 -0.594185 0.804322 0.003186
-7.221226 -7.162686 -0.634862 811 -0.594185 0.804322 0.003186
-7.220376 -7.161845 -0.631650 809 -0.594185 0.804322 0.003186
-7.220354 -7.161822 -0.628510 805 -0.594185 0.804322 0.003186
-7.221215 -7.162677 -0.625452 813 -0.594185 0.804322 0.003186
-7.220720 -7.162189 -0.622277 809 -0.594185 0.804322 0.003186
-7.220382 -7.161860 -0.619110 817 -0.594185 0.804322 0.003186
-7.220724 -7.162198 -0.616007 809 -0.594185 0.804322 0.003186
-7.220957 -7.162431 -0.612894 809 -0.594185 0.804322 0.003186
-7.221136 -7.162605 -0.609772 803 -0.594185 0.804322 0.003186
-7.221733 -7.163198 -0.606687 809 -0.594185 0.804322 0.003186
-7.221765 -7.163220 -0.603556 809 -0.594185 0.804322 0.003186
-7.220954 -7.162426 -0.600354 815 -0.594185 0.804322 0.003186
-7.221342 -7.162802 -0.597250 815 -0.594185 0.804322 0.003186
-7.221211 -7.162675 -0.594111 809 -0.594185 0.804322 0.003186
-7.220919 -7.162384 -0.590954 807 -0.594185 0.804322 0.003186
-7.221516 -7.162978 -0.587868 803 -0.594185 0.804322 0.003186
-7.221278 -7.162746 -0.584710 807 -0.594185 0.804322 0.003186
-7.220513 -7.161990 -0.581518 805 -0.594185 0.804322 0.003186
-7.221056 -7.162524 -0.578433 807 -0.594185 0.804322 0.003186
-7.221854 -7.163313 -0.575355 821 -0.594185 0.804322 0.003186
-7.221453 -7.162918 -0.572199 815 -0.594185 0.804322 0.003186
-7.221059 -7.162529 -0.569032 799 -0.594185 0.804322 0.003186
-7.221439 -7.162899 -0.565929 805 -0.594185 0.804322 0.003186
-7.221712 -7.163178 -0.562816 809 -0.594185 0.804322 0.003186
-7.221674 -7.163142 -0.559676 811 -0.594185 0.804322 0.003186
-7.221691 -7.163152 -0.556546 805 -0.594185 0.804322 0.003186
-7.221701 -7.163169 -0.553416 805 -0.594185 0.804322 0.003186
-7.221245 -7.162714 -0.550250 801 -0.594185 0.804322 0.003186
-7.221828 -7.163295 -0.547164 805 -0.594185 0.804322 0.003186
-7.221898 -7.163364 -0.544034 801 -0.594185 0.804322 0.003186
-7.221226 -7.162700 -0.540850 793 -0.594185 0.804322 0.003186
-7.221815 -7.163272 -0.537764 803 -0.594185 0.804322 0.003186
-7.221817 -7.163284 -0.534634 809 -0.594185 0.804322 0.003186
-7.221470 -7.162934 -0.531477 797 -0.594185 0.804322 0.003186
-7.221888 -7.163349 -0.528373 791 -0.594185 0.804322 0.003186
-7.222531 -7.163981 -0.525287 787 -0.594185 0.804322 0.003186
-7.222170 -7.163632 -0.522130 785 -0.594185 0.804322 0.003186
-7.222062 -7.163525 -0.518991 789 -0.594185 0.804322 0.003186
-7.222234 -7.163692 -0.515870 783 -0.594185 0.804322 0.003186
-7.221879 -7.163335 -0.512713 785 -0.594185 0.804322 0.003186
-7.221671 -7.163129 -0.509565 785 -0.594185 0.804322 0.003186
-7.221417 -7.162884 -0.506417 779 -0.594185 0.804322 0.003186
-7.221837 -7.163301 -0.503313 781 -0.594185 0.804322 0.003186
-7.222094 -7.163554 -0.500201 779 -0.594185 0.804322 0.003186
-7.221367 -7.162830 -0.497028 781 -0.594185 0.804322 0.003186
-7.221631 -7.163089 -0.493915 787 -0.594185 0.804322 0.003186
-7.222042 -7.163499 -0.490811 771 -0.594185 0.804322 0.003186
-7.221782 -7.163248 -0.487663 775 -0.594185 0.804322 0.003186
-7.221682 -7.163147 -0.484524 779 -0.594185 0.804322 0.003186
-7.221622 -7.163092 -0.481385 775 -0.594185 0.804322 0.003186
-7.221312 -7.162774 -0.478238 777 -0.594185 0.804322 0.003186
-7.221199 -7.162674 -0.475099 781 -0.594185 0.804322 0.003186
-7.220789 -7.162258 -0.471943 779 -0.594185 0.804322 0.003186
-7.221240 -7.162714 -0.468848 775 -0.594185 0.804322 0.003186
-7.222595 -7.164053 -0.465795 771 -0.594185 0.804322 0.003186
-7.222069 -7.163526 -0.462640 765 -0.594185 0.804322 0.003186
-7.221538 -7.163006 -0.459475 761 -0.594185 0.804322 0.003186
-7.221747 -7.163206 -0.456353 763 -0.594185 0.804322 0.003186
-7.221996 -7.163452 -0.453240 759 -0.594185 0.804322 0.003186
-7.222191 -7.163653 -0.450118 755 -0.594185 0.804322 0.003186
-7.221302 -7.162766 -0.446937 747 -0.594185 0.804322 0.003186
-7.221026 -7.162502 -0.443800 747 -0.594185 0.804322 0.003186
-7.221799 -7.163258 -0.440712 749 -0.594185 0.804322 0.003186
-7.222311 -7.163765 -0.437607 753 -0.594185 0.804322 0.003186
-7.222136 -7.163599 -0.434469 753 -0.594185 0.804322 0.003186
-7.221758 -7.163224 -0.431322 767 -0.594185 0.804322 0.003186
-7.222270 -7.163731 -0.428217 771 -0.594185 0.804322 0.003186
-7.222611 -7.164069 -0.425114 761 -0.594185 0.804322 0.003186
-7.222025 -7.163490 -0.421949 759 -0.594185 0.804322 0.003186
-7.222166 -7.163631 -0.418828 759 -0.594185 0.804322 0.003186
-7.222569 -7.164021 -0.415724 763 -0.594185 0.804322 0.003186
-7.222137 -7.163599 -0.412568 757 -0.594185 0.804322 0.003186
-7.221859 -7.163321 -0.409431 757 -0.594185 0.804322 0.003186
-7.221992 -7.163456 -0.406309 753 -0.594185 0.804322 0.003186
-7.222753 -7.164214 -0.403212 757 -0.594185 0.804322 0.003186
-7.223102 -7.164557 -0.400108 755 -0.594185 0.804322 0.003186
-7.222979 -7.164437 -0.396970 753 -0.594185 0.804322 0.003186
-7.223213 -7.164670 -0.393857 759 -0.594185 0.804322 0.003186
-7.223191 -7.164648 -0.390727 763 -0.594185 0.804322 0.003186
-7.223385 -7.164834 -0.387605 759 -0.594185 0.804322 0.003186
-7.223092 -7.164543 -0.384458 767 -0.594185 0.804322 0.003186
-7.222398 -7.163860 -0.381295 761 -0.594185 0.804322 0.003186
-7.222415 -7.163884 -0.378175 763 -0.594185 0.804322 0.003186
-7.222663 -7.164115 -0.375052 773 -0.594185 0.804322 0.003186
-7.222951 -7.164408 -0.371939 767 -0.594185 0.804322 0.003186
-7.223540 -7.164995 -0.368843 757 -0.594185 0.804322 0.003186
-7.223666 -7.165123 -0.365722 747 -0.594185 0.804322 0.003186
-7.223852 -7.165303 -0.362600 771 -0.594185 0.804322 0.003186
-7.224333 -7.165785 -0.359496 775 -0.594185 0.804322 0.003186
-7.224001 -7.165447 -0.356349 789 -0.594185 0.804322 0.003186
-7.223864 -7.165314 -0.353220 789 -0.594185 0.804322 0.003186
-7.224406 -7.165848 -0.350115 807 -0.594185 0.804322 0.003186
-7.224632 -7.166074 -0.346992 811 -0.594185 0.804322 0.003186
-7.224455 -7.165895 -0.343864 821 -0.594185 0.804322 0.003186
-7.223892 -7.165349 -0.340709 813 -0.594185 0.804322 0.003186
-7.223963 -7.165419 -0.337579 823 -0.594185 0.804322 0.003186
-7.224189 -7.165645 -0.334466 833 -0.594185 0.804322 0.003186
-7.224623 -7.166074 -0.331352 841 -0.594185 0.804322 0.003186
-7.224578 -7.166032 -0.328222 851 -0.594185 0.804322 0.003186
-7.224555 -7.165996 -0.325093 859 -0.594185 0.804322 0.003186
-7.224202 -7.165654 -0.321956 861 -0.594185 0.804322 0.003186
-7.223909 -7.165363 -0.318809 841 -0.594185 0.804322 0.003186
-7.224699 -7.166145 -0.315721 845 -0.594185 0.804322 0.003186
-7.225026 -7.166470 -0.312608 849 -0.594185 0.804322 0.003186
-7.225297 -7.166735 -0.309485 865 -0.594185 0.804322 0.003186
-7.225152 -7.166595 -0.306356 841 -0.594185 0.804322 0.003186
-7.224542 -7.165983 -0.303202 841 -0.594185 0.804322 0.003186
-7.224087 -7.165543 -0.300057 847 -0.594185 0.804322 0.003186
