774
-7.351836 -7.038455 -0.625663 1451 0.120658 0.992694 0.000000
-7.351383 -7.038027 -0.622487 1445 0.120658 0.992694 0.000000
-7.352159 -7.038769 -0.619410 1449 0.120658 0.992694 0.000000
-7.352448 -7.039046 -0.616297 1453 0.120658 0.992694 0.000000
-7.352168 -7.038768 -0.613140 1443 0.120658 0.992694 0.000000
-7.352138 -7.038741 -0.610000 1443 0.120658 0.992694 0.000000
-7.352635 -7.039223 -0.606905 1447 0.120658 0.992694 0.000000
-7.353611 -7.040163 -0.603846 1451 0.120658 0.992694 0.000000
-7.353261 -7.039829 -0.600679 1453 0.120658 0.992694 0.000000
-7.352232 -7.038839 -0.597469 1439 0.120658 0.992694 0.000000
-7.352201 -7.038811 -0.594329 1441 0.120658 0.992694 0.000000
-7.352545 -7.039132 -0.591216 1455 0.120658 0.992694 0.000000
-7.352355 -7.038951 -0.588067 1447 0.120658 0.992694 0.000000
-7.352172 -7.038777 -0.584919 1447 0.120658 0.992694 0.000000
-7.352134 -7.038742 -0.581779 1443 0.120658 0.992694 0.000000
-7.352201 -7.038817 -0.578649 1437 0.120658 0.992694 0.000000
-7.352273 -7.038885 -0.575518 1437 0.120658 0.992694 0.000000
-7.352555 -7.039156 -0.572405 1441 0.120658 0.992694 0.000000
-7.352156 -7.038771 -0.569239 1443 0.120658 0.992694 0.000000
-7.352381 -7.038984 -0.566117 1441 0.120658 0.992694 0.000000
-7.353134 -7.039708 -0.563039 1445 0.120658 0.992694 0.000000
-7.352673 -7.039273 -0.559874 1447 0.120658 0.992694 0.000000
-7.352169 -7.038778 -0.556698 1451 0.120658 0.992694 0.000000
-7.352386 -7.038986 -0.553586 1451 0.120658 0.992694 0.000000
-7.352612 -7.039213 -0.550464 1451 0.120658 0.992694 0.000000
-7.352780 -7.039370 -0.547342 1457 0.120658 0.992694 0.000000
-7.352894 -7.039482 -0.544211 1453 0.120658 0.992694 0.000000
-7.352759 -7.039344 -0.541072 1455 0.120658 0.992694 0.000000
-7.352921 -7.039508 -0.537951 1451 0.120658 0.992694 0.000000
-7.352715 -7.039315 -0.534803 1443 0.120658 0.992694 0.000000
-7.352149 -7.038771 -0.531628 1427 0.120658 0.992694 0.000000
-7.352575 -7.039183 -0.528524 1441 0.120658 0.992694 0.000000
-7.352799 -7.039396 -0.525402 1443 0.120658 0.992694 0.000000
-7.352857 -7.039451 -0.522271 1441 0.120658 0.992694 0.000000
-7.352817 -7.039402 -0.519131 1441 0.120658 0.992694 0.000000
-7.352443 -7.039050 -0.515975 1445 0.120658 0.992694 0.000000
-7.352717 -7.039316 -0.512862 1435 0.120658 0.992694 0.000000
-7.352885 -7.039471 -0.509740 1435 0.120658 0.992694 0.000000
-7.352775 -7.039367 -0.506601 1443 0.120658 0.992694 0.000000
-7.352944 -7.039536 -0.503480 1443 0.120658 0.992694 0.000000
-7.352897 -7.039482 -0.500340 1437 0.120658 0.992694 0.000000
-7.352732 -7.039334 -0.497192 1439 0.120658 0.992694 0.000000
-7.353045 -7.039630 -0.494079 1437 0.120658 0.992694 0.000000
-7.353310 -7.039889 -0.490966 1443 0.120658 0.992694 0.000000
-7.353262 -7.039834 -0.487826 1441 0.120658 0.992694 0.000000
-7.352840 -7.039431 -0.484670 1437 0.120658 0.992694 0.000000
-7.352363 -7.038983 -0.481505 1433 0.120658 0.992694 0.000000
-7.352787 -7.039382 -0.478401 1445 0.120658 0.992694 0.000000
-7.353564 -7.040137 -0.475323 1451 0.120658 0.992694 0.000000
-7.353357 -7.039930 -0.472175 1441 0.120658 0.992694 0.000000
-7.353031 -7.039615 -0.469018 1443 0.120658 0.992694 0.000000
-7.353080 -7.039663 -0.465888 1445 0.120658 0.992694 0.000000
-7.352810 -7.039406 -0.462740 1439 0.120658 0.992694 0.000000
-7.352533 -7.039143 -0.459593 1443 0.120658 0.992694 0.000000
-7.352742 -7.039344 -0.456471 1451 0.120658 0.992694 0.000000
-7.353046 -7.039634 -0.453358 1447 0.120658 0.992694 0.000000
-7.353041 -7.039639 -0.450227 1447 0.120658 0.992694 0.000000
-7.352826 -7.039425 -0.447080 1447 0.120658 0.992694 0.000000
-7.352811 -7.039410 -0.443950 1445 0.120658 0.992694 0.000000
-7.353012 -7.039604 -0.440828 1443 0.120658 0.992694 0.000000
-7.352735 -7.039341 -0.437680 1443 0.120658 0.992694 0.000000
-7.352513 -7.039135 -0.434542 1445 0.120658 0.992694 0.000000
-7.352810 -7.039419 -0.431429 1453 0.120658 0.992694 0.000000
-7.352692 -7.039309 -0.428290 1443 0.120658 0.992694 0.000000
-7.352628 -7.039242 -0.425151 1437 0.120658 0.992694 0.000000
-7.353084 -7.039678 -0.422046 1443 0.120658 0.992694 0.000000
-7.353334 -7.039924 -0.418934 1443 0.120658 0.992694 0.000000
-7.353160 -7.039756 -0.415786 1437 0.120658 0.992694 0.000000
-7.353089 -7.039683 -0.412656 1435 0.120658 0.992694 0.000000
-7.353122 -7.039719 -0.409526 1441 0.120658 0.992694 0.000000
-7.353530 -7.040103 -0.406412 1441 0.120658 0.992694 0.000000
-7.353932 -7.040497 -0.403308 1445 0.120658 0.992694 0.000000
-7.353487 -7.040074 -0.400152 1441 0.120658 0.992694 0.000000
-7.353359 -7.039943 -0.397013 1441 0.120658 0.992694 0.000000
-7.353344 -7.039927 -0.393883 1443 0.120658 0.992694 0.000000
-7.353108 -7.039710 -0.390735 1447 0.120658 0.992694 0.000000
-7.352829 -7.039433 -0.387598 1447 0.120658 0.992694 0.000000
-7.352743 -7.039361 -0.384459 1441 0.120658 0.992694 0.000000
-7.352615 -7.039230 -0.381320 1443 0.120658 0.992694 0.000000
-7.352746 -7.039369 -0.378199 1449 0.120658 0.992694 0.000000
-7.353457 -7.040047 -0.375102 1451 0.120658 0.992694 0.000000
-7.353067 -7.039668 -0.371955 1453 0.120658 0.992694 0.000000
-7.352565 -7.039187 -0.368800 1439 0.120658 0.992694 0.000000
-7.352751 -7.039371 -0.365678 1449 0.120658 0.992694 0.000000
-7.353192 -7.039795 -0.362574 1439 0.120658 0.992694 0.000000
-7.353632 -7.040218 -0.359460 1447 0.120658 0.992694 0.000000
-7.353762 -7.040343 -0.356338 1449 0.120658 0.992694 0.000000
-7.354050 -7.040620 -0.353226 1447 0.120658 0.992694 0.000000
-7.353971 -7.040541 -0.350086 1457 0.120658 0.992694 0.000000
-7.353830 -7.040412 -0.346948 1453 0.120658 0.992694 0.000000
-7.354014 -7.040580 -0.343826 1441 0.120658 0.992694 0.000000
-7.353873 -7.040451 -0.340697 1443 0.120658 0.992694 0.000000
-7.353897 -7.040466 -0.337567 1449 0.120658 0.992694 0.000000
-7.353747 -7.040331 -0.334428 1447 0.120658 0.992694 0.000000
-7.353717 -7.040303 -0.331298 1445 0.120658 0.992694 0.000000
-7.354205 -7.040765 -0.328194 1449 0.120658 0.992694 0.000000
-7.354383 -7.040941 -0.325072 1455 0.120658 0.992694 0.000000
-7.353768 -7.040345 -0.321918 1449 0.120658 0.992694 0.000000
-7.353522 -7.040107 -0.318770 1449 0.120658 0.992694 0.000000
-7.353683 -7.040270 -0.315648 1445 0.120658 0.992694 0.000000
-7.356449 -7.038465 -0.704353 1451 0.120658 0.992694 0.000000
-7.356658 -7.038667 -0.701231 1445 0.120658 0.992694 0.000000
-7.356907 -7.038913 -0.698109 1441 0.120658 0.992694 0.000000
-7.356644 -7.038648 -0.694951 1447 0.120658 0.992694 0.000000
-7.356046 -7.038079 -0.691757 1441 0.120658 0.992694 0.000000
-7.356143 -7.038178 -0.688616 1451 0.120658 0.992694 0.000000
-7.356402 -7.038431 -0.685503 1453 0.120658 0.992694 0.000000
-7.355916 -7.037963 -0.682318 1443 0.120658 0.992694 0.000000
-7.355798 -7.037853 -0.679169 1441 0.120658 0.992694 0.000000
-7.356005 -7.038039 -0.676047 1447 0.120658 0.992694 0.000000
-7.356144 -7.038185 -0.672925 1447 0.120658 0.992694 0.000000
-7.356551 -7.038570 -0.669821 1455 0.120658 0.992694 0.000000
-7.356490 -7.038517 -0.666672 1451 0.120658 0.992694 0.000000
-7.356635 -7.038654 -0.663540 1451 0.120658 0.992694 0.000000
-7.356300 -7.038332 -0.660374 1443 0.120658 0.992694 0.000000
-7.356397 -7.038419 -0.657243 1443 0.120658 0.992694 0.000000
-7.356431 -7.038455 -0.654112 1439 0.120658 0.992694 0.000000
-7.356096 -7.038134 -0.650945 1433 0.120658 0.992694 0.000000
-7.356130 -7.038169 -0.647805 1443 0.120658 0.992694 0.000000
-7.356115 -7.038154 -0.644665 1443 0.120658 0.992694 0.000000
-7.356780 -7.038795 -0.641589 1453 0.120658 0.992694 0.000000
-7.356869 -7.038874 -0.638448 1445 0.120658 0.992694 0.000000
-7.356423 -7.038451 -0.635272 1457 0.120658 0.992694 0.000000
-7.356449 -7.038481 -0.632141 1457 0.120658 0.992694 0.000000
-7.356537 -7.038561 -0.629011 1445 0.120658 0.992694 0.000000
-7.356244 -7.038284 -0.625843 1443 0.120658 0.992694 0.000000
-7.356541 -7.038568 -0.622730 1445 0.120658 0.992694 0.000000
-7.356732 -7.038743 -0.619609 1447 0.120658 0.992694 0.000000
-7.356599 -7.038620 -0.616460 1445 0.120658 0.992694 0.000000
-7.356625 -7.038650 -0.613329 1451 0.120658 0.992694 0.000000
-7.356913 -7.038927 -0.610217 1451 0.120658 0.992694 0.000000
-7.357265 -7.039254 -0.607103 1453 0.120658 0.992694 0.000000
-7.356971 -7.038979 -0.603946 1447 0.120658 0.992694 0.000000
-7.356254 -7.038288 -0.600753 1451 0.120658 0.992694 0.000000
-7.356120 -7.038165 -0.597604 1441 0.120658 0.992694 0.000000
-7.356720 -7.038741 -0.594508 1445 0.120658 0.992694 0.000000
-7.356802 -7.038815 -0.591377 1449 0.120658 0.992694 0.000000
-7.356556 -7.038590 -0.588229 1451 0.120658 0.992694 0.000000
-7.356420 -7.038453 -0.585081 1437 0.120658 0.992694 0.000000
-7.356023 -7.038068 -0.581914 1435 0.120658 0.992694 0.000000
-7.356192 -7.038238 -0.578783 1435 0.120658 0.992694 0.000000
-7.356425 -7.038458 -0.575670 1439 0.120658 0.992694 0.000000
-7.356284 -7.038329 -0.572522 1439 0.120658 0.992694 0.000000
-7.356771 -7.038790 -0.569427 1439 0.120658 0.992694 0.000000
-7.357011 -7.039016 -0.566305 1439 0.120658 0.992694 0.000000
-7.356973 -7.038982 -0.563165 1443 0.120658 0.992694 0.000000
-7.356927 -7.038941 -0.560025 1445 0.120658 0.992694 0.000000
-7.356737 -7.038760 -0.556877 1447 0.120658 0.992694 0.000000
-7.356747 -7.038777 -0.553737 1451 0.120658 0.992694 0.000000
-7.356763 -7.038787 -0.550607 1453 0.120658 0.992694 0.000000
-7.356461 -7.038491 -0.547449 1445 0.120658 0.992694 0.000000
-7.356630 -7.038661 -0.544328 1453 0.120658 0.992694 0.000000
-7.356744 -7.038773 -0.541196 1449 0.120658 0.992694 0.000000
-7.356858 -7.038886 -0.538075 1455 0.120658 0.992694 0.000000
-7.356986 -7.038996 -0.534944 1453 0.120658 0.992694 0.000000
-7.356668 -7.038702 -0.531787 1445 0.120658 0.992694 0.000000
-7.356893 -7.038915 -0.528665 1441 0.120658 0.992694 0.000000
-7.357054 -7.039065 -0.525543 1435 0.120658 0.992694 0.000000
-7.357438 -7.039431 -0.522439 1441 0.120658 0.992694 0.000000
-7.357440 -7.039442 -0.519299 1435 0.120658 0.992694 0.000000
-7.357130 -7.039140 -0.516152 1441 0.120658 0.992694 0.000000
-7.356973 -7.038998 -0.513004 1435 0.120658 0.992694 0.000000
-7.357133 -7.039147 -0.509882 1445 0.120658 0.992694 0.000000
-7.357461 -7.039456 -0.506769 1441 0.120658 0.992694 0.000000
-7.357719 -7.039709 -0.503646 1439 0.120658 0.992694 0.000000
-7.357513 -7.039515 -0.500498 1431 0.120658 0.992694 0.000000
-7.357042 -7.039060 -0.497333 1433 0.120658 0.992694 0.000000
-7.357363 -7.039363 -0.494219 1439 0.120658 0.992694 0.000000
-7.357301 -7.039310 -0.491080 1437 0.120658 0.992694 0.000000
-7.356719 -7.038753 -0.487915 1435 0.120658 0.992694 0.000000
-7.356457 -7.038502 -0.484768 1433 0.120658 0.992694 0.000000
-7.356403 -7.038456 -0.481628 1443 0.120658 0.992694 0.000000
-7.356875 -7.038905 -0.478524 1445 0.120658 0.992694 0.000000
-7.357244 -7.039258 -0.475410 1445 0.120658 0.992694 0.000000
-7.356917 -7.038943 -0.472263 1445 0.120658 0.992694 0.000000
-7.356864 -7.038897 -0.469124 1449 0.120658 0.992694 0.000000
-7.357073 -7.039098 -0.466002 1447 0.120658 0.992694 0.000000
-7.356963 -7.038994 -0.462862 1439 0.120658 0.992694 0.000000
-7.356845 -7.038883 -0.459723 1451 0.120658 0.992694 0.000000
-7.356997 -7.039026 -0.456602 1459 0.120658 0.992694 0.000000
-7.357199 -7.039222 -0.453480 1455 0.120658 0.992694 0.000000
-7.357080 -7.039111 -0.450341 1455 0.120658 0.992694 0.000000
-7.356595 -7.038643 -0.447176 1445 0.120658 0.992694 0.000000
-7.356325 -7.038385 -0.444028 1449 0.120658 0.992694 0.000000
-7.356845 -7.038886 -0.440923 1441 0.120658 0.992694 0.000000
-7.357150 -7.039176 -0.437810 1451 0.120658 0.992694 0.000000
-7.357135 -7.039161 -0.434680 1453 0.120658 0.992694 0.000000
-7.357071 -7.039094 -0.431541 1453 0.120658 0.992694 0.000000
-7.357154 -7.039181 -0.428420 1439 0.120658 0.992694 0.000000
-7.356987 -7.039019 -0.425271 1441 0.120658 0.992694 0.000000
-7.356917 -7.038960 -0.422142 1445 0.120658 0.992694 0.000000
-7.357326 -7.039345 -0.419028 1453 0.120658 0.992694 0.000000
-7.356991 -7.039024 -0.415881 1443 0.120658 0.992694 0.000000
-7.356602 -7.038659 -0.412725 1433 0.120658 0.992694 0.000000
-7.356907 -7.038949 -0.409612 1445 0.120658 0.992694 0.000000
-7.357155 -7.039181 -0.406489 1443 0.120658 0.992694 0.000000
-7.357237 -7.039268 -0.403368 1443 0.120658 0.992694 0.000000
-7.357166 -7.039196 -0.400229 1453 0.120658 0.992694 0.000000
-7.357303 -7.039326 -0.397108 1453 0.120658 0.992694 0.000000
-7.357392 -7.039406 -0.393977 1445 0.120658 0.992694 0.000000
-7.356946 -7.038983 -0.390821 1447 0.120658 0.992694 0.000000
-7.356502 -7.038561 -0.387675 1439 0.120658 0.992694 0.000000
-7.356631 -7.038686 -0.384544 1435 0.120658 0.992694 0.000000
-7.356872 -7.038912 -0.381431 1443 0.120658 0.992694 0.000000
-7.356426 -7.038490 -0.378276 1437 0.120658 0.992694 0.000000
-7.356396 -7.038462 -0.375146 1435 0.120658 0.992694 0.000000
-7.356684 -7.038739 -0.372023 1447 0.120658 0.992694 0.000000
-7.356551 -7.038616 -0.368884 1445 0.120658 0.992694 0.000000
-7.356742 -7.038791 -0.365772 1445 0.120658 0.992694 0.000000
-7.357191 -7.039221 -0.362658 1445 0.120658 0.992694 0.000000
-7.357312 -7.039339 -0.359537 1447 0.120658 0.992694 0.000000
-7.357393 -7.039413 -0.356406 1453 0.120658 0.992694 0.000000
-7.357211 -7.039238 -0.353268 1447 0.120658 0.992694 0.000000
-7.357172 -7.039204 -0.350138 1445 0.120658 0.992694 0.000000
-7.357350 -7.039380 -0.347016 1449 0.120658 0.992694 0.000000
-7.357583 -7.039600 -0.343894 1449 0.120658 0.992694 0.000000
-7.357344 -7.039368 -0.340756 1449 0.120658 0.992694 0.000000
-7.357035 -7.039080 -0.337609 1443 0.120658 0.992694 0.000000
-7.357267 -7.039299 -0.334486 1449 0.120658 0.992694 0.000000
-7.357605 -7.039629 -0.331373 1451 0.120658 0.992694 0.000000
-7.357830 -7.039842 -0.328251 1453 0.120658 0.992694 0.000000
-7.357848 -7.039865 -0.325121 1453 0.120658 0.992694 0.000000
-7.357816 -7.039824 -0.321991 1453 0.120658 0.992694 0.000000
-7.358146 -7.040146 -0.318878 1455 0.120658 0.992694 0.000000
-7.357419 -7.039449 -0.315715 1437 0.120658 0.992694 0.000000
-7.360080 -7.037727 -0.704500 1451 0.120658 0.992694 0.000000
-7.359713 -7.037367 -0.701323 1449 0.120658 0.992694 0.000000
-7.360553 -7.038174 -0.698255 1451 0.120658 0.992694 0.000000
-7.360754 -7.038368 -0.695133 1447 0.120658 0.992694 0.000000
-7.360428 -7.038053 -0.691966 1437 0.120658 0.992694 0.000000
-7.360366 -7.038000 -0.688817 1443 0.120658 0.992694 0.000000
-7.359880 -7.037532 -0.685631 1451 0.120658 0.992694 0.000000
-7.359818 -7.037480 -0.682482 1447 0.120658 0.992694 0.000000
-7.360075 -7.037718 -0.679369 1443 0.120658 0.992694 0.000000
-7.360116 -7.037760 -0.676229 1443 0.120658 0.992694 0.000000
-7.360309 -7.037949 -0.673107 1443 0.120658 0.992694 0.000000
-7.360405 -7.038034 -0.669976 1461 0.120658 0.992694 0.000000
-7.360128 -7.037771 -0.666808 1453 0.120658 0.992694 0.000000
-7.360064 -7.037704 -0.663659 1447 0.120658 0.992694 0.000000
-7.359994 -7.037645 -0.660519 1447 0.120658 0.992694 0.000000
-7.360083 -7.037724 -0.657389 1443 0.120658 0.992694 0.000000
-7.360228 -7.037861 -0.654257 1445 0.120658 0.992694 0.000000
-7.360150 -7.037796 -0.651108 1445 0.120658 0.992694 0.000000
-7.360247 -7.037882 -0.647977 1439 0.120658 0.992694 0.000000
-7.360432 -7.038064 -0.644855 1437 0.120658 0.992694 0.000000
-7.360937 -7.038552 -0.641760 1447 0.120658 0.992694 0.000000
-7.361034 -7.038638 -0.638629 1457 0.120658 0.992694 0.000000
-7.360796 -7.038419 -0.635471 1449 0.120658 0.992694 0.000000
-7.360877 -7.038493 -0.632340 1451 0.120658 0.992694 0.000000
-7.360814 -7.038426 -0.629191 1445 0.120658 0.992694 0.000000
-7.360688 -7.038309 -0.626042 1445 0.120658 0.992694 0.000000
-7.360450 -7.038077 -0.622884 1447 0.120658 0.992694 0.000000
-7.360212 -7.037858 -0.619726 1443 0.120658 0.992694 0.000000
-7.359926 -7.037589 -0.616559 1449 0.120658 0.992694 0.000000
-7.359999 -7.037656 -0.613428 1447 0.120658 0.992694 0.000000
-7.360981 -7.038588 -0.610369 1447 0.120658 0.992694 0.000000
-7.361216 -7.038822 -0.607257 1445 0.120658 0.992694 0.000000
-7.360874 -7.038495 -0.604090 1439 0.120658 0.992694 0.000000
-7.360683 -7.038314 -0.600932 1449 0.120658 0.992694 0.000000
-7.360334 -7.037981 -0.597765 1459 0.120658 0.992694 0.000000
-7.360463 -7.038105 -0.594643 1453 0.120658 0.992694 0.000000
-7.360752 -7.038383 -0.591531 1449 0.120658 0.992694 0.000000
-7.360784 -7.038404 -0.588390 1445 0.120658 0.992694 0.000000
-7.360642 -7.038275 -0.585242 1447 0.120658 0.992694 0.000000
-7.360979 -7.038590 -0.582128 1443 0.120658 0.992694 0.000000
-7.360940 -7.038555 -0.578989 1437 0.120658 0.992694 0.000000
-7.360647 -7.038280 -0.575831 1435 0.120658 0.992694 0.000000
-7.360823 -7.038441 -0.572710 1443 0.120658 0.992694 0.000000
-7.361311 -7.038917 -0.569605 1451 0.120658 0.992694 0.000000
-7.360914 -7.038532 -0.566439 1443 0.120658 0.992694 0.000000
-7.360716 -7.038345 -0.563290 1437 0.120658 0.992694 0.000000
-7.360734 -7.038368 -0.560150 1441 0.120658 0.992694 0.000000
-7.360216 -7.037876 -0.556975 1437 0.120658 0.992694 0.000000
-7.360024 -7.037681 -0.553827 1441 0.120658 0.992694 0.000000
-7.359987 -7.037647 -0.550687 1443 0.120658 0.992694 0.000000
-7.360100 -7.037759 -0.547566 1439 0.120658 0.992694 0.000000
-7.360907 -7.038526 -0.544488 1447 0.120658 0.992694 0.000000
-7.361548 -7.039148 -0.541392 1441 0.120658 0.992694 0.000000
-7.361668 -7.039252 -0.538261 1443 0.120658 0.992694 0.000000
-7.361199 -7.038811 -0.535095 1447 0.120658 0.992694 0.000000
-7.360570 -7.038218 -0.531921 1441 0.120658 0.992694 0.000000
-7.360690 -7.038322 -0.528790 1443 0.120658 0.992694 0.000000
-7.360964 -7.038587 -0.525667 1435 0.120658 0.992694 0.000000
-7.361501 -7.039100 -0.522572 1443 0.120658 0.992694 0.000000
-7.361660 -7.039249 -0.519450 1441 0.120658 0.992694 0.000000
-7.361560 -7.039165 -0.516311 1445 0.120658 0.992694 0.000000
-7.361672 -7.039264 -0.513180 1451 0.120658 0.992694 0.000000
-7.361250 -7.038860 -0.510014 1449 0.120658 0.992694 0.000000
-7.360836 -7.038463 -0.506848 1441 0.120658 0.992694 0.000000
-7.360893 -7.038517 -0.503717 1431 0.120658 0.992694 0.000000
-7.361207 -7.038827 -0.500604 1431 0.120658 0.992694 0.000000
-7.361264 -7.038882 -0.497474 1437 0.120658 0.992694 0.000000
-7.361376 -7.038980 -0.494342 1445 0.120658 0.992694 0.000000
-7.361363 -7.038979 -0.491212 1443 0.120658 0.992694 0.000000
-7.361004 -7.038625 -0.488056 1435 0.120658 0.992694 0.000000
-7.360622 -7.038266 -0.484899 1429 0.120658 0.992694 0.000000
-7.361262 -7.038874 -0.481803 1433 0.120658 0.992694 0.000000
-7.361527 -7.039133 -0.478681 1435 0.120658 0.992694 0.000000
-7.361306 -7.038927 -0.475533 1435 0.120658 0.992694 0.000000
-7.361036 -7.038670 -0.472385 1437 0.120658 0.992694 0.000000
-7.360828 -7.038463 -0.469237 1439 0.120658 0.992694 0.000000
-7.360656 -7.038308 -0.466099 1441 0.120658 0.992694 0.000000
-7.360546 -7.038204 -0.462950 1439 0.120658 0.992694 0.000000
-7.360379 -7.038042 -0.459811 1443 0.120658 0.992694 0.000000
-7.360212 -7.037879 -0.456663 1445 0.120658 0.992694 0.000000
-7.360684 -7.038329 -0.453558 1455 0.120658 0.992694 0.000000
-7.361413 -7.039033 -0.450471 1443 0.120658 0.992694 0.000000
-7.361247 -7.038871 -0.447323 1441 0.120658 0.992694 0.000000
-7.360912 -7.038550 -0.444176 1439 0.120658 0.992694 0.000000
-7.360594 -7.038241 -0.441019 1437 0.120658 0.992694 0.000000
-7.360468 -7.038125 -0.437880 1439 0.120658 0.992694 0.000000
-7.360302 -7.037963 -0.434741 1443 0.120658 0.992694 0.000000
-7.360121 -7.037802 -0.431593 1441 0.120658 0.992694 0.000000
-7.360807 -7.038448 -0.428506 1437 0.120658 0.992694 0.000000
-7.361471 -7.039088 -0.425410 1445 0.120658 0.992694 0.000000
-7.360923 -7.038571 -0.422245 1445 0.120658 0.992694 0.000000
-7.360651 -7.038300 -0.419098 1445 0.120658 0.992694 0.000000
-7.361108 -7.038736 -0.415993 1443 0.120658 0.992694 0.000000
-7.361094 -7.038734 -0.412853 1447 0.120658 0.992694 0.000000
-7.360753 -7.038407 -0.409706 1447 0.120658 0.992694 0.000000
-7.360746 -7.038398 -0.406576 1447 0.120658 0.992694 0.000000
-7.361084 -7.038727 -0.403453 1453 0.120658 0.992694 0.000000
-7.360963 -7.038602 -0.400324 1449 0.120658 0.992694 0.000000
-7.360887 -7.038537 -0.397185 1445 0.120658 0.992694 0.000000
-7.360816 -7.038464 -0.394045 1447 0.120658 0.992694 0.000000
-7.360632 -7.038289 -0.390907 1441 0.120658 0.992694 0.000000
-7.360777 -7.038426 -0.387786 1439 0.120658 0.992694 0.000000
-7.360747 -7.038398 -0.384646 1447 0.120658 0.992694 0.000000
-7.361252 -7.038886 -0.381541 1447 0.120658 0.992694 0.000000
-7.361118 -7.038763 -0.378402 1441 0.120658 0.992694 0.000000
-7.360831 -7.038479 -0.375255 1447 0.120658 0.992694 0.000000
-7.360906 -7.038560 -0.372134 1443 0.120658 0.992694 0.000000
-7.360515 -7.038182 -0.368978 1443 0.120658 0.992694 0.000000
-7.360652 -7.038313 -0.365856 1449 0.120658 0.992694 0.000000
-7.361037 -7.038680 -0.362742 1445 0.120658 0.992694 0.000000
-7.361533 -7.039160 -0.359638 1443 0.120658 0.992694 0.000000
-7.361823 -7.039438 -0.356515 1451 0.120658 0.992694 0.000000
-7.361855 -7.039460 -0.353384 1441 0.120658 0.992694 0.000000
-7.362296 -7.039884 -0.350270 1449 0.120658 0.992694 0.000000
-7.361946 -7.039551 -0.347124 1443 0.120658 0.992694 0.000000
-7.361485 -7.039115 -0.343978 1441 0.120658 0.992694 0.000000
-7.361295 -7.038936 -0.340840 1445 0.120658 0.992694 0.000000
-7.360937 -7.038596 -0.337693 1445 0.120658 0.992694 0.000000
-7.361386 -7.039026 -0.334578 1435 0.120658 0.992694 0.000000
-7.361562 -7.039188 -0.331457 1443 0.120658 0.992694 0.000000
-7.361372 -7.039007 -0.328318 1445 0.120658 0.992694 0.000000
-7.361125 -7.038768 -0.325171 1447 0.120658 0.992694 0.000000
-7.360927 -7.038581 -0.322033 1447 0.120658 0.992694 0.000000
-7.360619 -7.038293 -0.318895 1443 0.120658 0.992694 0.000000
-7.360484 -7.038157 -0.315757 1441 0.120658 0.992694 0.000000
-7.364554 -7.037699 -0.704719 1443 0.120658 0.992694 0.000000
-7.364181 -7.037346 -0.701542 1451 0.120658 0.992694 0.000000
-7.364285 -7.037438 -0.698401 1447 0.120658 0.992694 0.000000
-7.364326 -7.037480 -0.695271 1447 0.120658 0.992694 0.000000
-7.364208 -7.037370 -0.692112 1447 0.120658 0.992694 0.000000
-7.364360 -7.037513 -0.688980 1447 0.120658 0.992694 0.000000
-7.364250 -7.037409 -0.685831 1447 0.120658 0.992694 0.000000
-7.363924 -7.037094 -0.682664 1445 0.120658 0.992694 0.000000
-7.364077 -7.037237 -0.679533 1449 0.120658 0.992694 0.000000
-7.364741 -7.037878 -0.676456 1451 0.120658 0.992694 0.000000
-7.364679 -7.037825 -0.673307 1461 0.120658 0.992694 0.000000
-7.364457 -7.037605 -0.670139 1461 0.120658 0.992694 0.000000
-7.364338 -7.037495 -0.666990 1455 0.120658 0.992694 0.000000
-7.364644 -7.037785 -0.663877 1439 0.120658 0.992694 0.000000
-7.364725 -7.037872 -0.660746 1447 0.120658 0.992694 0.000000
-7.364662 -7.037805 -0.657597 1457 0.120658 0.992694 0.000000
-7.364704 -7.037847 -0.654456 1449 0.120658 0.992694 0.000000
-7.364680 -7.037825 -0.651316 1449 0.120658 0.992694 0.000000
-7.364985 -7.038115 -0.648203 1447 0.120658 0.992694 0.000000
-7.364851 -7.037992 -0.645054 1441 0.120658 0.992694 0.000000
-7.364566 -7.037722 -0.641887 1447 0.120658 0.992694 0.000000
-7.364655 -7.037802 -0.638756 1453 0.120658 0.992694 0.000000
-7.364591 -7.037734 -0.635607 1451 0.120658 0.992694 0.000000
-7.364089 -7.037254 -0.632421 1437 0.120658 0.992694 0.000000
-7.363700 -7.036890 -0.629255 1429 0.120658 0.992694 0.000000
-7.364149 -7.037320 -0.626151 1439 0.120658 0.992694 0.000000
-7.364335 -7.037502 -0.623029 1443 0.120658 0.992694 0.000000
-7.363944 -7.037124 -0.619853 1445 0.120658 0.992694 0.000000
-7.364449 -7.037612 -0.616758 1455 0.120658 0.992694 0.000000
-7.364313 -7.037474 -0.613609 1447 0.120658 0.992694 0.000000
-7.364707 -7.037861 -0.610505 1445 0.120658 0.992694 0.000000
-7.365211 -7.038334 -0.607400 1449 0.120658 0.992694 0.000000
-7.364820 -7.037956 -0.604234 1437 0.120658 0.992694 0.000000
-7.365054 -7.038190 -0.601112 1451 0.120658 0.992694 0.000000
-7.364393 -7.037557 -0.597918 1449 0.120658 0.992694 0.000000
-7.364043 -7.037224 -0.594751 1447 0.120658 0.992694 0.000000
-7.364858 -7.037997 -0.591683 1445 0.120658 0.992694 0.000000
-7.364987 -7.038121 -0.588552 1445 0.120658 0.992694 0.000000
-7.364583 -7.037744 -0.585386 1445 0.120658 0.992694 0.000000
-7.364233 -7.037410 -0.582219 1441 0.120658 0.992694 0.000000
-7.364153 -7.037331 -0.579070 1433 0.120658 0.992694 0.000000
-7.364275 -7.037449 -0.575948 1441 0.120658 0.992694 0.000000
-7.364340 -7.037510 -0.572808 1441 0.120658 0.992694 0.000000
-7.364572 -7.037730 -0.569695 1457 0.120658 0.992694 0.000000
-7.364534 -7.037696 -0.566556 1449 0.120658 0.992694 0.000000
-7.364495 -7.037661 -0.563416 1445 0.120658 0.992694 0.000000
-7.364672 -7.037824 -0.560284 1443 0.120658 0.992694 0.000000
-7.364690 -7.037847 -0.557154 1445 0.120658 0.992694 0.000000
-7.364652 -7.037813 -0.554014 1445 0.120658 0.992694 0.000000
-7.364509 -7.037669 -0.550865 1449 0.120658 0.992694 0.000000
-7.364678 -7.037839 -0.547734 1445 0.120658 0.992694 0.000000
-7.364895 -7.038046 -0.544622 1451 0.120658 0.992694 0.000000
-7.364863 -7.038004 -0.541482 1451 0.120658 0.992694 0.000000
-7.364874 -7.038022 -0.538342 1445 0.120658 0.992694 0.000000
-7.364723 -7.037872 -0.535193 1445 0.120658 0.992694 0.000000
-7.364573 -7.037736 -0.532044 1439 0.120658 0.992694 0.000000
-7.364902 -7.038045 -0.528931 1439 0.120658 0.992694 0.000000
-7.365015 -7.038157 -0.525800 1441 0.120658 0.992694 0.000000
-7.364913 -7.038059 -0.522661 1443 0.120658 0.992694 0.000000
-7.365234 -7.038376 -0.519548 1445 0.120658 0.992694 0.000000
-7.365562 -7.038684 -0.516435 1449 0.120658 0.992694 0.000000
-7.365460 -7.038587 -0.513286 1445 0.120658 0.992694 0.000000
-7.365094 -7.038240 -0.510129 1445 0.120658 0.992694 0.000000
-7.364886 -7.038033 -0.506981 1443 0.120658 0.992694 0.000000
-7.365104 -7.038240 -0.503859 1449 0.120658 0.992694 0.000000
-7.365521 -7.038645 -0.500755 1449 0.120658 0.992694 0.000000
-7.365689 -7.038801 -0.497623 1449 0.120658 0.992694 0.000000
-7.365684 -7.038806 -0.494493 1447 0.120658 0.992694 0.000000
-7.365525 -7.038650 -0.491344 1439 0.120658 0.992694 0.000000
-7.364625 -7.037788 -0.488153 1431 0.120658 0.992694 0.000000
-7.364626 -7.037799 -0.485013 1435 0.120658 0.992694 0.000000
-7.365369 -7.038502 -0.481926 1433 0.120658 0.992694 0.000000
-7.364892 -7.038041 -0.478760 1433 0.120658 0.992694 0.000000
-7.364989 -7.038141 -0.475629 1439 0.120658 0.992694 0.000000
-7.365357 -7.038495 -0.472526 1439 0.120658 0.992694 0.000000
-7.365031 -7.038179 -0.469369 1441 0.120658 0.992694 0.000000
-7.365025 -7.038170 -0.466229 1445 0.120658 0.992694 0.000000
-7.364860 -7.038022 -0.463090 1445 0.120658 0.992694 0.000000
-7.364333 -7.037509 -0.459915 1451 0.120658 0.992694 0.000000
-7.364854 -7.038010 -0.456820 1447 0.120658 0.992694 0.000000
-7.365255 -7.038403 -0.453706 1445 0.120658 0.992694 0.000000
-7.364728 -7.037890 -0.450541 1437 0.120658 0.992694 0.000000
-7.364826 -7.037990 -0.447410 1443 0.120658 0.992694 0.000000
-7.364388 -7.037573 -0.444254 1443 0.120658 0.992694 0.000000
-7.363854 -7.037055 -0.441089 1435 0.120658 0.992694 0.000000
-7.363944 -7.037148 -0.437958 1435 0.120658 0.992694 0.000000
-7.363778 -7.036986 -0.434820 1437 0.120658 0.992694 0.000000
-7.363860 -7.037073 -0.431689 1441 0.120658 0.992694 0.000000
-7.364803 -7.037974 -0.428610 1449 0.120658 0.992694 0.000000
-7.365100 -7.038258 -0.425487 1447 0.120658 0.992694 0.000000
-7.364773 -7.037943 -0.422340 1443 0.120658 0.992694 0.000000
-7.364758 -7.037927 -0.419200 1445 0.120658 0.992694 0.000000
-7.364792 -7.037963 -0.416070 1437 0.120658 0.992694 0.000000
-7.364675 -7.037853 -0.412931 1435 0.120658 0.992694 0.000000
-7.364707 -7.037875 -0.409800 1437 0.120658 0.992694 0.000000
-7.364948 -7.038115 -0.406678 1445 0.120658 0.992694 0.000000
-7.365085 -7.038246 -0.403556 1449 0.120658 0.992694 0.000000
-7.365119 -7.038282 -0.400426 1445 0.120658 0.992694 0.000000
-7.364945 -7.038113 -0.397288 1439 0.120658 0.992694 0.000000
-7.364922 -7.038092 -0.394148 1437 0.120658 0.992694 0.000000
-7.365010 -7.038171 -0.391017 1441 0.120658 0.992694 0.000000
-7.364932 -7.038092 -0.387888 1447 0.120658 0.992694 0.000000
-7.364806 -7.037975 -0.384749 1443 0.120658 0.992694 0.000000
-7.365143 -7.038303 -0.381625 1443 0.120658 0.992694 0.000000
-7.365703 -7.038835 -0.378520 1449 0.120658 0.992694 0.000000
-7.365312 -7.038456 -0.375374 1443 0.120658 0.992694 0.000000
-7.364908 -7.038079 -0.372217 1449 0.120658 0.992694 0.000000
-7.365468 -7.038611 -0.369112 1453 0.120658 0.992694 0.000000
-7.365445 -7.038589 -0.365982 1443 0.120658 0.992694 0.000000
-7.365366 -7.038509 -0.362843 1443 0.120658 0.992694 0.000000
-7.365592 -7.038737 -0.359721 1449 0.120658 0.992694 0.000000
-7.365562 -7.038710 -0.356591 1447 0.120658 0.992694 0.000000
-7.365163 -7.038324 -0.353435 1439 0.120658 0.992694 0.000000
-7.365126 -7.038290 -0.350305 1445 0.120658 0.992694 0.000000
-7.365103 -7.038268 -0.347175 1445 0.120658 0.992694 0.000000
-7.365384 -7.038539 -0.344052 1447 0.120658 0.992694 0.000000
-7.365887 -7.039013 -0.340947 1443 0.120658 0.992694 0.000000
-7.365689 -7.038826 -0.337799 1447 0.120658 0.992694 0.000000
-7.365123 -7.038282 -0.334644 1445 0.120658 0.992694 0.000000
-7.365093 -7.038254 -0.331515 1441 0.120658 0.992694 0.000000
-7.365263 -7.038424 -0.328393 1445 0.120658 0.992694 0.000000
-7.365384 -7.038543 -0.325262 1457 0.120658 0.992694 0.000000
-7.365186 -7.038356 -0.322124 1451 0.120658 0.992694 0.000000
-7.364829 -7.038016 -0.318977 1447 0.120658 0.992694 0.000000
-7.364845 -7.038025 -0.315847 1453 0.120658 0.992694 0.000000
-7.368709 -7.037364 -0.704901 1451 0.120658 0.992694 0.000000
-7.368501 -7.037157 -0.701743 1447 0.120658 0.992694 0.000000
-7.368599 -7.037257 -0.698602 1447 0.120658 0.992694 0.000000
-7.368752 -7.037400 -0.695480 1445 0.120658 0.992694 0.000000
-7.368322 -7.036990 -0.692294 1443 0.120658 0.992694 0.000000
-7.368052 -7.036733 -0.689127 1443 0.120658 0.992694 0.000000
-7.368197 -7.036870 -0.685995 1455 0.120658 0.992694 0.000000
-7.367968 -7.036659 -0.682837 1449 0.120658 0.992694 0.000000
-7.367960 -7.036649 -0.679687 1447 0.120658 0.992694 0.000000
-7.368536 -7.037193 -0.676602 1449 0.120658 0.992694 0.000000
-7.368730 -7.037382 -0.673480 1449 0.120658 0.992694 0.000000
-7.368403 -7.037066 -0.670303 1445 0.120658 0.992694 0.000000
-7.368493 -7.037160 -0.667172 1453 0.120658 0.992694 0.000000
-7.368909 -7.037551 -0.664068 1455 0.120658 0.992694 0.000000
-7.369053 -7.037689 -0.660937 1453 0.120658 0.992694 0.000000
-7.368656 -7.037318 -0.657760 1447 0.120658 0.992694 0.000000
-7.368538 -7.037207 -0.654611 1443 0.120658 0.992694 0.000000
-7.368578 -7.037235 -0.651471 1451 0.120658 0.992694 0.000000
-7.368238 -7.036922 -0.648294 1443 0.120658 0.992694 0.000000
-7.368375 -7.037053 -0.645173 1447 0.120658 0.992694 0.000000
-7.368734 -7.037386 -0.642059 1453 0.120658 0.992694 0.000000
-7.368879 -7.037523 -0.638928 1455 0.120658 0.992694 0.000000
-7.368531 -7.037204 -0.635761 1447 0.120658 0.992694 0.000000
-7.368299 -7.036977 -0.632603 1439 0.120658 0.992694 0.000000
-7.368277 -7.036956 -0.629453 1435 0.120658 0.992694 0.000000
-7.367991 -7.036686 -0.626296 1437 0.120658 0.992694 0.000000
-7.368239 -7.036918 -0.623173 1449 0.120658 0.992694 0.000000
-7.368840 -7.037496 -0.620088 1447 0.120658 0.992694 0.000000
-7.368714 -7.037378 -0.616929 1445 0.120658 0.992694 0.000000
-7.368684 -7.037351 -0.613789 1451 0.120658 0.992694 0.000000
-7.368613 -7.037277 -0.610639 1453 0.120658 0.992694 0.000000
-7.368270 -7.036950 -0.607473 1449 0.120658 0.992694 0.000000
-7.368608 -7.037279 -0.604359 1447 0.120658 0.992694 0.000000
-7.368209 -7.036894 -0.601193 1449 0.120658 0.992694 0.000000
-7.368068 -7.036764 -0.598044 1451 0.120658 0.992694 0.000000
-7.368197 -7.036889 -0.594913 1447 0.120658 0.992694 0.000000
-7.367910 -7.036605 -0.591756 1437 0.120658 0.992694 0.000000
-7.368199 -7.036882 -0.588633 1437 0.120658 0.992694 0.000000
-7.368536 -7.037211 -0.585520 1449 0.120658 0.992694 0.000000
-7.368393 -7.037068 -0.582371 1441 0.120658 0.992694 0.000000
-7.368362 -7.037040 -0.579231 1439 0.120658 0.992694 0.000000
-7.368381 -7.037064 -0.576091 1443 0.120658 0.992694 0.000000
-7.368245 -7.036926 -0.572942 1443 0.120658 0.992694 0.000000
-7.368415 -7.037096 -0.569820 1449 0.120658 0.992694 0.000000
-7.368599 -7.037264 -0.566699 1443 0.120658 0.992694 0.000000
-7.368561 -7.037230 -0.563559 1447 0.120658 0.992694 0.000000
-7.367829 -7.036541 -0.560366 1427 0.120658 0.992694 0.000000
-7.368213 -7.036907 -0.557252 1435 0.120658 0.992694 0.000000
-7.368757 -7.037426 -0.554157 1443 0.120658 0.992694 0.000000
-7.368663 -7.037335 -0.551008 1443 0.120658 0.992694 0.000000
-7.368776 -7.037447 -0.547876 1449 0.120658 0.992694 0.000000
-7.368800 -7.037462 -0.544746 1453 0.120658 0.992694 0.000000
-7.368962 -7.037626 -0.541614 1449 0.120658 0.992694 0.000000
-7.368827 -7.037489 -0.538466 1447 0.120658 0.992694 0.000000
-7.368670 -7.037347 -0.535327 1449 0.120658 0.992694 0.000000
-7.368949 -7.037604 -0.532204 1453 0.120658 0.992694 0.000000
-7.368689 -7.037367 -0.529047 1449 0.120658 0.992694 0.000000
-7.368587 -7.037269 -0.525908 1447 0.120658 0.992694 0.000000
-7.368763 -7.037432 -0.522776 1445 0.120658 0.992694 0.000000
-7.368868 -7.037538 -0.519655 1445 0.120658 0.992694 0.000000
-7.369196 -7.037846 -0.516532 1443 0.120658 0.992694 0.000000
-7.369516 -7.038148 -0.513419 1439 0.120658 0.992694 0.000000
-7.369414 -7.038051 -0.510279 1455 0.120658 0.992694 0.000000
-7.369154 -7.037814 -0.507122 1447 0.120658 0.992694 0.000000
-7.369266 -7.037912 -0.503991 1445 0.120658 0.992694 0.000000
-7.369212 -7.037865 -0.500851 1443 0.120658 0.992694 0.000000
-7.368790 -7.037461 -0.497685 1437 0.120658 0.992694 0.000000
-7.368736 -7.037415 -0.494545 1439 0.120658 0.992694 0.000000
-7.369375 -7.038023 -0.491449 1443 0.120658 0.992694 0.000000
-7.369369 -7.038013 -0.488319 1445 0.120658 0.992694 0.000000
-7.368891 -7.037566 -0.485154 1439 0.120658 0.992694 0.000000
-7.368573 -7.037257 -0.481997 1437 0.120658 0.992694 0.000000
-7.368831 -7.037509 -0.478874 1437 0.120658 0.992694 0.000000
-7.369463 -7.038112 -0.475778 1441 0.120658 0.992694 0.000000
-7.369775 -7.038407 -0.472665 1451 0.120658 0.992694 0.000000
-7.369353 -7.038004 -0.469499 1447 0.120658 0.992694 0.000000
-7.368924 -7.037594 -0.466343 1441 0.120658 0.992694 0.000000
-7.368862 -7.037541 -0.463204 1431 0.120658 0.992694 0.000000
-7.368917 -7.037581 -0.460063 1437 0.120658 0.992694 0.000000
-7.368799 -7.037471 -0.456924 1441 0.120658 0.992694 0.000000
-7.368890 -7.037565 -0.453793 1441 0.120658 0.992694 0.000000
-7.369153 -7.037809 -0.450680 1447 0.120658 0.992694 0.000000
-7.368980 -7.037655 -0.447532 1443 0.120658 0.992694 0.000000
-7.368654 -7.037340 -0.444375 1439 0.120658 0.992694 0.000000
-7.368967 -7.037636 -0.441262 1445 0.120658 0.992694 0.000000
-7.369216 -7.037883 -0.438140 1443 0.120658 0.992694 0.000000
-7.369256 -7.037910 -0.435009 1441 0.120658 0.992694 0.000000
-7.369458 -7.038106 -0.431887 1439 0.120658 0.992694 0.000000
-7.369499 -7.038148 -0.428747 1449 0.120658 0.992694 0.000000
-7.368894 -7.037572 -0.425582 1441 0.120658 0.992694 0.000000
-7.368088 -7.036799 -0.422400 1431 0.120658 0.992694 0.000000
-7.368442 -7.037140 -0.419286 1437 0.120658 0.992694 0.000000
-7.369274 -7.037941 -0.416198 1435 0.120658 0.992694 0.000000
-7.368834 -7.037510 -0.413043 1443 0.120658 0.992694 0.000000
-7.369236 -7.037903 -0.409929 1449 0.120658 0.992694 0.000000
-7.370275 -7.038893 -0.406849 1451 0.120658 0.992694 0.000000
-7.369886 -7.038528 -0.403692 1451 0.120658 0.992694 0.000000
-7.369073 -7.037749 -0.400520 1441 0.120658 0.992694 0.000000
-7.368682 -7.037370 -0.397364 1447 0.120658 0.992694 0.000000
-7.368716 -7.037406 -0.394233 1445 0.120658 0.992694 0.000000
-7.369005 -7.037683 -0.391120 1445 0.120658 0.992694 0.000000
-7.369358 -7.038025 -0.387997 1445 0.120658 0.992694 0.000000
-7.369487 -7.038150 -0.384876 1445 0.120658 0.992694 0.000000
-7.369839 -7.038477 -0.381752 1439 0.120658 0.992694 0.000000
-7.370136 -7.038761 -0.378639 1445 0.120658 0.992694 0.000000
-7.369571 -7.038231 -0.375475 1445 0.120658 0.992694 0.000000
-7.369444 -7.038100 -0.372336 1441 0.120658 0.992694 0.000000
-7.369261 -7.037925 -0.369198 1437 0.120658 0.992694 0.000000
-7.369239 -7.037904 -0.366058 1445 0.120658 0.992694 0.000000
-7.369625 -7.038284 -0.362944 1449 0.120658 0.992694 0.000000
-7.369171 -7.037841 -0.359788 1445 0.120658 0.992694 0.000000
-7.369085 -7.037770 -0.356659 1437 0.120658 0.992694 0.000000
-7.369214 -7.037895 -0.353528 1445 0.120658 0.992694 0.000000
-7.369238 -7.037910 -0.350397 1443 0.120658 0.992694 0.000000
-7.368737 -7.037430 -0.347242 1443 0.120658 0.992694 0.000000
-7.368699 -7.037395 -0.344102 1439 0.120658 0.992694 0.000000
-7.368979 -7.037667 -0.340989 1441 0.120658 0.992694 0.000000
-7.369109 -7.037792 -0.337858 1451 0.120658 0.992694 0.000000
-7.369756 -7.038406 -0.334752 1445 0.120658 0.992694 0.000000
-7.369989 -7.038626 -0.331630 1451 0.120658 0.992694 0.000000
-7.370056 -7.038701 -0.328499 1445 0.120658 0.992694 0.000000
-7.370191 -7.038817 -0.325378 1449 0.120658 0.992694 0.000000
-7.369562 -7.038223 -0.322214 1447 0.120658 0.992694 0.000000
-7.368734 -7.037432 -0.319051 1451 0.120658 0.992694 0.000000
-7.369166 -7.037850 -0.315937 1449 0.120658 0.992694 0.000000
-7.372663 -7.036832 -0.705075 1455 0.120658 0.992694 0.000000
-7.372871 -7.037034 -0.701953 1463 0.120658 0.992694 0.000000
-7.372593 -7.036769 -0.698775 1455 0.120658 0.992694 0.000000
-7.372164 -7.036360 -0.695599 1445 0.120658 0.992694 0.000000
-7.372108 -7.036299 -0.692450 1437 0.120658 0.992694 0.000000
-7.372358 -7.036545 -0.689327 1443 0.120658 0.992694 0.000000
-7.372614 -7.036784 -0.686205 1451 0.120658 0.992694 0.000000
-7.372393 -7.036578 -0.683037 1453 0.120658 0.992694 0.000000
-7.371644 -7.035862 -0.679834 1447 0.120658 0.992694 0.000000
-7.371317 -7.035547 -0.676657 1441 0.120658 0.992694 0.000000
-7.371781 -7.035990 -0.673552 1445 0.120658 0.992694 0.000000
-7.372502 -7.036689 -0.670475 1449 0.120658 0.992694 0.000000
-7.372807 -7.036979 -0.667362 1459 0.120658 0.992694 0.000000
-7.372473 -7.036658 -0.664196 1445 0.120658 0.992694 0.000000
-7.372306 -7.036496 -0.661037 1449 0.120658 0.992694 0.000000
-7.372922 -7.037085 -0.657941 1457 0.120658 0.992694 0.000000
-7.372221 -7.036420 -0.654738 1441 0.120658 0.992694 0.000000
-7.371679 -7.035895 -0.651553 1433 0.120658 0.992694 0.000000
-7.372663 -7.036841 -0.648493 1449 0.120658 0.992694 0.000000
-7.373071 -7.037226 -0.645389 1465 0.120658 0.992694 0.000000
-7.372889 -7.037052 -0.642231 1453 0.120658 0.992694 0.000000
-7.372603 -7.036782 -0.639064 1457 0.120658 0.992694 0.000000
-7.372374 -7.036570 -0.635906 1459 0.120658 0.992694 0.000000
-7.372462 -7.036650 -0.632765 1451 0.120658 0.992694 0.000000
-7.372647 -7.036832 -0.629643 1447 0.120658 0.992694 0.000000
-7.372417 -7.036606 -0.626485 1441 0.120658 0.992694 0.000000
-7.372283 -7.036482 -0.623326 1443 0.120658 0.992694 0.000000
-7.372842 -7.037014 -0.620241 1449 0.120658 0.992694 0.000000
-7.372820 -7.036993 -0.617091 1443 0.120658 0.992694 0.000000
-7.372630 -7.036812 -0.613933 1447 0.120658 0.992694 0.000000
-7.372710 -7.036885 -0.610802 1451 0.120658 0.992694 0.000000
-7.372376 -7.036564 -0.607635 1451 0.120658 0.992694 0.000000
-7.372346 -7.036535 -0.604495 1449 0.120658 0.992694 0.000000
-7.372572 -7.036764 -0.601373 1453 0.120658 0.992694 0.000000
-7.372653 -7.036837 -0.598232 1451 0.120658 0.992694 0.000000
-7.372414 -7.036604 -0.595074 1447 0.120658 0.992694 0.000000
-7.372120 -7.036328 -0.591917 1435 0.120658 0.992694 0.000000
-7.372561 -7.036752 -0.588813 1447 0.120658 0.992694 0.000000
-7.372953 -7.037125 -0.585699 1449 0.120658 0.992694 0.000000
-7.372132 -7.036339 -0.582497 1447 0.120658 0.992694 0.000000
-7.371735 -7.035954 -0.579331 1439 0.120658 0.992694 0.000000
-7.372015 -7.036225 -0.576208 1441 0.120658 0.992694 0.000000
-7.372345 -7.036549 -0.573095 1453 0.120658 0.992694 0.000000
-7.372577 -7.036768 -0.569972 1453 0.120658 0.992694 0.000000
-7.372753 -7.036931 -0.566851 1441 0.120658 0.992694 0.000000
-7.372500 -7.036699 -0.563693 1437 0.120658 0.992694 0.000000
-7.371407 -7.035645 -0.560473 1427 0.120658 0.992694 0.000000
-7.371745 -7.035975 -0.557360 1437 0.120658 0.992694 0.000000
-7.372440 -7.036640 -0.554263 1441 0.120658 0.992694 0.000000
-7.372457 -7.036649 -0.551133 1441 0.120658 0.992694 0.000000
-7.372467 -7.036666 -0.547993 1439 0.120658 0.992694 0.000000
-7.372484 -7.036676 -0.544853 1447 0.120658 0.992694 0.000000
-7.372957 -7.037139 -0.541748 1451 0.120658 0.992694 0.000000
-7.372870 -7.037053 -0.538609 1445 0.120658 0.992694 0.000000
-7.372664 -7.036860 -0.535451 1443 0.120658 0.992694 0.000000
-7.372833 -7.037016 -0.532329 1459 0.120658 0.992694 0.000000
-7.373010 -7.037179 -0.529197 1451 0.120658 0.992694 0.000000
-7.372963 -7.037138 -0.526058 1445 0.120658 0.992694 0.000000
-7.372278 -7.036486 -0.522874 1443 0.120658 0.992694 0.000000
-7.371962 -7.036191 -0.519717 1443 0.120658 0.992694 0.000000
-7.372338 -7.036551 -0.516603 1445 0.120658 0.992694 0.000000
-7.372506 -7.036707 -0.513482 1445 0.120658 0.992694 0.000000
-7.372301 -7.036514 -0.510324 1447 0.120658 0.992694 0.000000
-7.372469 -7.036670 -0.507202 1449 0.120658 0.992694 0.000000
-7.372838 -7.037024 -0.504088 1445 0.120658 0.992694 0.000000
-7.372894 -7.037078 -0.500958 1441 0.120658 0.992694 0.000000
-7.373152 -7.037331 -0.497835 1443 0.120658 0.992694 0.000000
-7.373105 -7.037277 -0.494696 1435 0.120658 0.992694 0.000000
-7.372636 -7.036835 -0.491530 1441 0.120658 0.992694 0.000000
-7.372789 -7.036979 -0.488398 1445 0.120658 0.992694 0.000000
-7.373109 -7.037282 -0.485285 1447 0.120658 0.992694 0.000000
-7.373207 -7.037381 -0.482154 1451 0.120658 0.992694 0.000000
-7.373319 -7.037479 -0.479023 1453 0.120658 0.992694 0.000000
-7.372889 -7.037069 -0.475857 1447 0.120658 0.992694 0.000000
-7.372564 -7.036768 -0.472700 1439 0.120658 0.992694 0.000000
-7.372980 -7.037160 -0.469596 1439 0.120658 0.992694 0.000000
-7.373397 -7.037565 -0.466482 1445 0.120658 0.992694 0.000000
-7.373182 -7.037351 -0.463334 1441 0.120658 0.992694 0.000000
-7.372912 -7.037094 -0.460177 1445 0.120658 0.992694 0.000000
-7.372802 -7.036990 -0.457038 1449 0.120658 0.992694 0.000000
-7.372629 -7.036836 -0.453889 1445 0.120658 0.992694 0.000000
-7.372844 -7.037029 -0.450767 1449 0.120658 0.992694 0.000000
-7.372934 -7.037123 -0.447636 1445 0.120658 0.992694 0.000000
-7.372968 -7.037158 -0.444506 1441 0.120658 0.992694 0.000000
-7.373223 -7.037397 -0.441383 1443 0.120658 0.992694 0.000000
-7.373425 -7.037591 -0.438261 1445 0.120658 0.992694 0.000000
-7.373363 -7.037539 -0.435122 1439 0.120658 0.992694 0.000000
-7.372981 -7.037166 -0.431965 1443 0.120658 0.992694 0.000000
-7.372751 -7.036954 -0.428817 1443 0.120658 0.992694 0.000000
-7.372848 -7.037040 -0.425686 1447 0.120658 0.992694 0.000000
-7.373041 -7.037229 -0.422564 1447 0.120658 0.992694 0.000000
-7.373449 -7.037614 -0.419451 1445 0.120658 0.992694 0.000000
-7.373593 -7.037751 -0.416319 1445 0.120658 0.992694 0.000000
-7.373308 -7.037481 -0.413172 1439 0.120658 0.992694 0.000000
-7.373350 -7.037523 -0.410041 1443 0.120658 0.992694 0.000000
-7.373057 -7.037248 -0.406884 1447 0.120658 0.992694 0.000000
-7.372985 -7.037174 -0.403744 1439 0.120658 0.992694 0.000000
-7.372970 -7.037158 -0.400615 1439 0.120658 0.992694 0.000000
-7.372796 -7.036991 -0.397466 1451 0.120658 0.992694 0.000000
-7.372607 -7.036824 -0.394328 1447 0.120658 0.992694 0.000000
-7.372744 -7.036954 -0.391196 1441 0.120658 0.992694 0.000000
-7.373192 -7.037385 -0.388082 1439 0.120658 0.992694 0.000000
-7.373552 -7.037718 -0.384969 1443 0.120658 0.992694 0.000000
-7.373362 -7.037538 -0.381830 1433 0.120658 0.992694 0.000000
-7.373548 -7.037720 -0.378699 1443 0.120658 0.992694 0.000000
-7.373316 -7.037493 -0.375551 1449 0.120658 0.992694 0.000000
-7.373286 -7.037466 -0.372421 1447 0.120658 0.992694 0.000000
-7.373041 -7.037241 -0.369273 1453 0.120658 0.992694 0.000000
-7.372388 -7.036615 -0.366109 1443 0.120658 0.992694 0.000000
-7.372724 -7.036930 -0.362996 1435 0.120658 0.992694 0.000000
-7.372958 -7.037164 -0.359874 1433 0.120658 0.992694 0.000000
-7.373150 -7.037339 -0.356742 1431 0.120658 0.992694 0.000000
-7.373430 -7.037609 -0.353619 1447 0.120658 0.992694 0.000000
-7.373137 -7.037333 -0.350472 1437 0.120658 0.992694 0.000000
-7.373481 -7.037655 -0.347358 1441 0.120658 0.992694 0.000000
-7.372853 -7.037061 -0.344194 1439 0.120658 0.992694 0.000000
-7.373093 -7.037287 -0.341072 1443 0.120658 0.992694 0.000000
-7.373534 -7.037711 -0.337958 1451 0.120658 0.992694 0.000000
-7.373287 -7.037473 -0.334820 1445 0.120658 0.992694 0.000000
-7.373617 -7.037795 -0.331697 1449 0.120658 0.992694 0.000000
-7.373530 -7.037710 -0.328557 1449 0.120658 0.992694 0.000000
-7.373714 -7.037878 -0.325436 1453 0.120658 0.992694 0.000000
-7.373348 -7.037532 -0.322289 1455 0.120658 0.992694 0.000000
-7.373207 -7.037403 -0.319150 1457 0.120658 0.992694 0.000000
-7.373391 -7.037571 -0.316019 1449 0.120658 0.992694 0.000000
-7.376609 -7.036294 -0.705239 1451 0.120658 0.992694 0.000000
-7.375867 -7.035584 -0.702026 1445 0.120658 0.992694 0.000000
-7.375701 -7.035422 -0.698867 1443 0.120658 0.992694 0.000000
-7.376110 -7.035821 -0.695763 1451 0.120658 0.992694 0.000000
-7.376630 -7.036321 -0.692668 1449 0.120658 0.992694 0.000000
-7.376943 -7.036618 -0.689545 1459 0.120658 0.992694 0.000000
-7.376241 -7.035939 -0.686342 1449 0.120658 0.992694 0.000000
-7.376131 -7.035836 -0.683183 1443 0.120658 0.992694 0.000000
-7.375909 -7.035629 -0.680025 1449 0.120658 0.992694 0.000000
-7.375846 -7.035563 -0.676875 1445 0.120658 0.992694 0.000000
-7.376469 -7.036158 -0.673789 1451 0.120658 0.992694 0.000000
-7.377039 -7.036710 -0.670694 1455 0.120658 0.992694 0.000000
-7.376914 -7.036593 -0.667535 1455 0.120658 0.992694 0.000000
-7.376849 -7.036526 -0.664386 1455 0.120658 0.992694 0.000000
-7.376723 -7.036409 -0.661237 1445 0.120658 0.992694 0.000000
-7.376294 -7.035998 -0.658051 1441 0.120658 0.992694 0.000000
-7.375959 -7.035678 -0.654884 1439 0.120658 0.992694 0.000000
-7.376144 -7.035860 -0.651752 1449 0.120658 0.992694 0.000000
-7.376873 -7.036551 -0.648675 1455 0.120658 0.992694 0.000000
-7.376697 -7.036382 -0.645517 1453 0.120658 0.992694 0.000000
-7.376626 -7.036309 -0.642367 1449 0.120658 0.992694 0.000000
-7.376868 -7.036549 -0.639245 1457 0.120658 0.992694 0.000000
-7.376583 -7.036279 -0.636077 1453 0.120658 0.992694 0.000000
-7.376193 -7.035901 -0.632901 1445 0.120658 0.992694 0.000000
-7.376489 -7.036184 -0.629788 1451 0.120658 0.992694 0.000000
-7.376683 -7.036373 -0.626656 1441 0.120658 0.992694 0.000000
-7.376070 -7.035791 -0.623472 1437 0.120658 0.992694 0.000000
-7.375887 -7.035617 -0.620314 1439 0.120658 0.992694 0.000000
-7.375927 -7.035645 -0.617173 1449 0.120658 0.992694 0.000000
-7.376153 -7.035872 -0.614051 1449 0.120658 0.992694 0.000000
-7.376602 -7.036303 -0.610947 1447 0.120658 0.992694 0.000000
-7.376371 -7.036077 -0.607789 1447 0.120658 0.992694 0.000000
-7.376078 -7.035801 -0.604621 1443 0.120658 0.992694 0.000000
-7.376421 -7.036121 -0.601508 1445 0.120658 0.992694 0.000000
-7.376759 -7.036450 -0.598395 1447 0.120658 0.992694 0.000000
-7.376368 -7.036072 -0.595218 1443 0.120658 0.992694 0.000000
-7.376386 -7.036095 -0.592078 1445 0.120658 0.992694 0.000000
-7.376348 -7.036061 -0.588938 1447 0.120658 0.992694 0.000000
-7.376372 -7.036077 -0.585798 1445 0.120658 0.992694 0.000000
-7.377132 -7.036806 -0.582721 1445 0.120658 0.992694 0.000000
-7.377476 -7.037127 -0.579598 1443 0.120658 0.992694 0.000000
-7.377285 -7.036946 -0.576449 1441 0.120658 0.992694 0.000000
-7.376776 -7.036460 -0.573264 1445 0.120658 0.992694 0.000000
-7.376419 -7.036120 -0.570097 1443 0.120658 0.992694 0.000000
-7.376277 -7.035991 -0.566949 1433 0.120658 0.992694 0.000000
-7.376399 -7.036109 -0.563817 1435 0.120658 0.992694 0.000000
-7.376623 -7.036323 -0.560695 1435 0.120658 0.992694 0.000000
-7.377063 -7.036747 -0.557591 1441 0.120658 0.992694 0.000000
-7.376920 -7.036603 -0.554442 1447 0.120658 0.992694 0.000000
