757
-7.372129 -7.058854 -0.611721 919 -0.403307 0.915060 0.003046
-7.371997 -7.058729 -0.608573 929 -0.403307 0.915060 0.003046
-7.371974 -7.058707 -0.605423 917 -0.403307 0.915060 0.003046
-7.372314 -7.059032 -0.602309 913 -0.403307 0.915060 0.003046
-7.371913 -7.058650 -0.599133 921 -0.403307 0.915060 0.003046
-7.371703 -7.058445 -0.592825 911 -0.403307 0.915060 0.003046
-7.371673 -7.058417 -0.589675 919 -0.403307 0.915060 0.003046
-7.371635 -7.058383 -0.586525 913 -0.403307 0.915060 0.003046
-7.371974 -7.058707 -0.583412 915 -0.403307 0.915060 0.003046
-7.371513 -7.058275 -0.580236 899 -0.403307 0.915060 0.003046
-7.371750 -7.058505 -0.577104 901 -0.403307 0.915060 0.003046
-7.372617 -7.059323 -0.574026 917 -0.403307 0.915060 0.003046
-7.372525 -7.059244 -0.570877 917 -0.403307 0.915060 0.003046
-7.372651 -7.059356 -0.567745 911 -0.403307 0.915060 0.003046
-7.372873 -7.059572 -0.564613 913 -0.403307 0.915060 0.003046
-7.373151 -7.059846 -0.561490 921 -0.403307 0.915060 0.003046
-7.373119 -7.059803 -0.558341 911 -0.403307 0.915060 0.003046
-7.372760 -7.059468 -0.555174 915 -0.403307 0.915060 0.003046
-7.372674 -7.059381 -0.552025 913 -0.403307 0.915060 0.003046
-7.372785 -7.059494 -0.548894 919 -0.403307 0.915060 0.003046
-7.372590 -7.059306 -0.545735 909 -0.403307 0.915060 0.003046
-7.372606 -7.059315 -0.542595 905 -0.403307 0.915060 0.003046
-7.372930 -7.059628 -0.539472 919 -0.403307 0.915060 0.003046
-7.373043 -7.059741 -0.536331 909 -0.403307 0.915060 0.003046
-7.373107 -7.059803 -0.533200 901 -0.403307 0.915060 0.003046
-7.372793 -7.059505 -0.530033 899 -0.403307 0.915060 0.003046
-7.372439 -7.059161 -0.526866 899 -0.403307 0.915060 0.003046
-7.372292 -7.059024 -0.523708 907 -0.403307 0.915060 0.003046
-7.371929 -7.058674 -0.520541 909 -0.403307 0.915060 0.003046
-7.372458 -7.059179 -0.517436 909 -0.403307 0.915060 0.003046
-7.373311 -7.059999 -0.514358 917 -0.403307 0.915060 0.003046
-7.373100 -7.059797 -0.511200 921 -0.403307 0.915060 0.003046
-7.372628 -7.059344 -0.508024 911 -0.403307 0.915060 0.003046
-7.372739 -7.059444 -0.504893 931 -0.403307 0.915060 0.003046
-7.372953 -7.059653 -0.501761 921 -0.403307 0.915060 0.003046
-7.373010 -7.059709 -0.498620 915 -0.403307 0.915060 0.003046
-7.373429 -7.060111 -0.495506 925 -0.403307 0.915060 0.003046
-7.373327 -7.060012 -0.492357 931 -0.403307 0.915060 0.003046
-7.373384 -7.060067 -0.489217 925 -0.403307 0.915060 0.003046
-7.373590 -7.060270 -0.486094 919 -0.403307 0.915060 0.003046
-7.372796 -7.059503 -0.482902 917 -0.403307 0.915060 0.003046
-7.372632 -7.059353 -0.479753 915 -0.403307 0.915060 0.003046
-7.373003 -7.059703 -0.476630 927 -0.403307 0.915060 0.003046
-7.373374 -7.060053 -0.473516 917 -0.403307 0.915060 0.003046
-7.372784 -7.059492 -0.470332 917 -0.403307 0.915060 0.003046
-7.372731 -7.059445 -0.467192 909 -0.403307 0.915060 0.003046
-7.373134 -7.059834 -0.464078 905 -0.403307 0.915060 0.003046
-7.373347 -7.060030 -0.460946 907 -0.403307 0.915060 0.003046
-7.373766 -7.060432 -0.457832 907 -0.403307 0.915060 0.003046
-7.373067 -7.059769 -0.454649 897 -0.403307 0.915060 0.003046
-7.372799 -7.059508 -0.451491 889 -0.403307 0.915060 0.003046
-7.372731 -7.059448 -0.448352 889 -0.403307 0.915060 0.003046
-7.372464 -7.059188 -0.445194 905 -0.403307 0.915060 0.003046
-7.373190 -7.059893 -0.442097 905 -0.403307 0.915060 0.003046
-7.373861 -7.060525 -0.438991 903 -0.403307 0.915060 0.003046
-7.373484 -7.060163 -0.435824 905 -0.403307 0.915060 0.003046
-7.373044 -7.059750 -0.432658 897 -0.403307 0.915060 0.003046
-7.373346 -7.060043 -0.429535 907 -0.403307 0.915060 0.003046
-7.373393 -7.060078 -0.426405 905 -0.403307 0.915060 0.003046
-7.373008 -7.059709 -0.423239 903 -0.403307 0.915060 0.003046
-7.372985 -7.059687 -0.420099 895 -0.403307 0.915060 0.003046
-7.373231 -7.059922 -0.416976 905 -0.403307 0.915060 0.003046
-7.373320 -7.060017 -0.413835 895 -0.403307 0.915060 0.003046
-7.374424 -7.061067 -0.410755 905 -0.403307 0.915060 0.003046
-7.375238 -7.061856 -0.407657 923 -0.403307 0.915060 0.003046
-7.374537 -7.061178 -0.404484 913 -0.403307 0.915060 0.003046
-7.373884 -7.060552 -0.401310 899 -0.403307 0.915060 0.003046
-7.372807 -7.059528 -0.398110 901 -0.403307 0.915060 0.003046
-7.372256 -7.058999 -0.394945 905 -0.403307 0.915060 0.003046
-7.373454 -7.060139 -0.391874 907 -0.403307 0.915060 0.003046
-7.374796 -7.061435 -0.388801 921 -0.403307 0.915060 0.003046
-7.375301 -7.061920 -0.385686 921 -0.403307 0.915060 0.003046
-7.375232 -7.061847 -0.382537 923 -0.403307 0.915060 0.003046
-7.374523 -7.061162 -0.379363 915 -0.403307 0.915060 0.003046
-7.373698 -7.060383 -0.376181 907 -0.403307 0.915060 0.003046
-7.373990 -7.060656 -0.373058 905 -0.403307 0.915060 0.003046
-7.374166 -7.060835 -0.369926 887 -0.403307 0.915060 0.003046
-7.374143 -7.060812 -0.366786 895 -0.403307 0.915060 0.003046
-7.373277 -7.059974 -0.363605 895 -0.403307 0.915060 0.003046
-7.373192 -7.059901 -0.360465 907 -0.403307 0.915060 0.003046
-7.373956 -7.060624 -0.357368 907 -0.403307 0.915060 0.003046
-7.373872 -7.060551 -0.354219 909 -0.403307 0.915060 0.003046
-7.373786 -7.060464 -0.351079 905 -0.403307 0.915060 0.003046
-7.373765 -7.060443 -0.347940 893 -0.403307 0.915060 0.003046
-7.374206 -7.060863 -0.344815 899 -0.403307 0.915060 0.003046
-7.373640 -7.060321 -0.341661 889 -0.403307 0.915060 0.003046
-7.373129 -7.059837 -0.338495 879 -0.403307 0.915060 0.003046
-7.372989 -7.059706 -0.335347 883 -0.403307 0.915060 0.003046
-7.372801 -7.059524 -0.332208 885 -0.403307 0.915060 0.003046
-7.373874 -7.060549 -0.329118 895 -0.403307 0.915060 0.003046
-7.375152 -7.061780 -0.326026 893 -0.403307 0.915060 0.003046
-7.375177 -7.061797 -0.322896 879 -0.403307 0.915060 0.003046
-7.374453 -7.061099 -0.319723 883 -0.403307 0.915060 0.003046
-7.374195 -7.060859 -0.316575 881 -0.403307 0.915060 0.003046
-7.381394 -7.063242 -0.612296 921 -0.403307 0.915060 0.003046
-7.381315 -7.063161 -0.609137 933 -0.403307 0.915060 0.003046
-7.381135 -7.062985 -0.605978 925 -0.403307 0.915060 0.003046
-7.381153 -7.063009 -0.602828 915 -0.403307 0.915060 0.003046
-7.381391 -7.063238 -0.599706 917 -0.403307 0.915060 0.003046
-7.381730 -7.063562 -0.596583 913 -0.403307 0.915060 0.003046
-7.381920 -7.063739 -0.593451 923 -0.403307 0.915060 0.003046
-7.381039 -7.062901 -0.590229 919 -0.403307 0.915060 0.003046
-7.380371 -7.062263 -0.587035 917 -0.403307 0.915060 0.003046
-7.381081 -7.062941 -0.583938 921 -0.403307 0.915060 0.003046
-7.381571 -7.063414 -0.580834 907 -0.403307 0.915060 0.003046
-7.381808 -7.063629 -0.577701 921 -0.403307 0.915060 0.003046
-7.381298 -7.063145 -0.574516 919 -0.403307 0.915060 0.003046
-7.381369 -7.063212 -0.571375 905 -0.403307 0.915060 0.003046
-7.382017 -7.063840 -0.568279 921 -0.403307 0.915060 0.003046
-7.382349 -7.064158 -0.565156 931 -0.403307 0.915060 0.003046
-7.381681 -7.063520 -0.561962 917 -0.403307 0.915060 0.003046
-7.381169 -7.063022 -0.558777 915 -0.403307 0.915060 0.003046
-7.381179 -7.063039 -0.555627 919 -0.403307 0.915060 0.003046
-7.381511 -7.063358 -0.552504 909 -0.403307 0.915060 0.003046
-7.382110 -7.063919 -0.549408 911 -0.403307 0.915060 0.003046
-7.381331 -7.063178 -0.546205 901 -0.403307 0.915060 0.003046
-7.381403 -7.063246 -0.543064 911 -0.403307 0.915060 0.003046
-7.381940 -7.063757 -0.539949 919 -0.403307 0.915060 0.003046
-7.382313 -7.064121 -0.536836 927 -0.403307 0.915060 0.003046
-7.382007 -7.063830 -0.533668 915 -0.403307 0.915060 0.003046
-7.381859 -7.063693 -0.530510 915 -0.403307 0.915060 0.003046
-7.382080 -7.063895 -0.527378 917 -0.403307 0.915060 0.003046
-7.381711 -7.063552 -0.524211 919 -0.403307 0.915060 0.003046
-7.382139 -7.063961 -0.521097 919 -0.403307 0.915060 0.003046
-7.382099 -7.063912 -0.517947 923 -0.403307 0.915060 0.003046
-7.381731 -7.063570 -0.514771 917 -0.403307 0.915060 0.003046
-7.382842 -7.064627 -0.511700 921 -0.403307 0.915060 0.003046
-7.382166 -7.063982 -0.508516 915 -0.403307 0.915060 0.003046
-7.381214 -7.063073 -0.505305 919 -0.403307 0.915060 0.003046
-7.381325 -7.063172 -0.502164 921 -0.403307 0.915060 0.003046
-7.381540 -7.063382 -0.499032 921 -0.403307 0.915060 0.003046
-7.382283 -7.064100 -0.495945 919 -0.403307 0.915060 0.003046
-7.381754 -7.063589 -0.492760 917 -0.403307 0.915060 0.003046
-7.381173 -7.063034 -0.489575 923 -0.403307 0.915060 0.003046
-7.381544 -7.063384 -0.486462 915 -0.403307 0.915060 0.003046
-7.381593 -7.063434 -0.483321 915 -0.403307 0.915060 0.003046
-7.381492 -7.063334 -0.480162 919 -0.403307 0.915060 0.003046
-7.381958 -7.063788 -0.477048 919 -0.403307 0.915060 0.003046
-7.382377 -7.064189 -0.473934 909 -0.403307 0.915060 0.003046
-7.382212 -7.064026 -0.470775 911 -0.403307 0.915060 0.003046
-7.382371 -7.064178 -0.467643 913 -0.403307 0.915060 0.003046
-7.382940 -7.064728 -0.464538 911 -0.403307 0.915060 0.003046
-7.382515 -7.064314 -0.461362 909 -0.403307 0.915060 0.003046
-7.382352 -7.064164 -0.458213 897 -0.403307 0.915060 0.003046
-7.383023 -7.064810 -0.455107 909 -0.403307 0.915060 0.003046
-7.382866 -7.064652 -0.451958 917 -0.403307 0.915060 0.003046
-7.382583 -7.064380 -0.448791 913 -0.403307 0.915060 0.003046
-7.381829 -7.063672 -0.445608 909 -0.403307 0.915060 0.003046
-7.381562 -7.063412 -0.442451 909 -0.403307 0.915060 0.003046
-7.382138 -7.063954 -0.439335 905 -0.403307 0.915060 0.003046
-7.382171 -7.063991 -0.436195 901 -0.403307 0.915060 0.003046
-7.382732 -7.064535 -0.433089 911 -0.403307 0.915060 0.003046
-7.383836 -7.065585 -0.430009 909 -0.403307 0.915060 0.003046
-7.383349 -7.065120 -0.426833 903 -0.403307 0.915060 0.003046
-7.382854 -7.064648 -0.423668 911 -0.403307 0.915060 0.003046
-7.383155 -7.064941 -0.420535 913 -0.403307 0.915060 0.003046
-7.382565 -7.064366 -0.417360 905 -0.403307 0.915060 0.003046
-7.382440 -7.064248 -0.414212 915 -0.403307 0.915060 0.003046
-7.383111 -7.064895 -0.411105 911 -0.403307 0.915060 0.003046
-7.383136 -7.064924 -0.407965 913 -0.403307 0.915060 0.003046
-7.382752 -7.064556 -0.404798 919 -0.403307 0.915060 0.003046
-7.382469 -7.064283 -0.401641 913 -0.403307 0.915060 0.003046
-7.382707 -7.064512 -0.398509 915 -0.403307 0.915060 0.003046
-7.382794 -7.064592 -0.395378 907 -0.403307 0.915060 0.003046
-7.382511 -7.064319 -0.392220 915 -0.403307 0.915060 0.003046
-7.382599 -7.064400 -0.389079 921 -0.403307 0.915060 0.003046
-7.383105 -7.064886 -0.385965 921 -0.403307 0.915060 0.003046
-7.382815 -7.064607 -0.382807 901 -0.403307 0.915060 0.003046
-7.382785 -7.064592 -0.379667 905 -0.403307 0.915060 0.003046
-7.382920 -7.064711 -0.376526 907 -0.403307 0.915060 0.003046
-7.382527 -7.064336 -0.373370 901 -0.403307 0.915060 0.003046
-7.382710 -7.064520 -0.370238 903 -0.403307 0.915060 0.003046
-7.383002 -7.064793 -0.367105 915 -0.403307 0.915060 0.003046
-7.382443 -7.064257 -0.363940 897 -0.403307 0.915060 0.003046
-7.382201 -7.064030 -0.360783 903 -0.403307 0.915060 0.003046
-7.382542 -7.064355 -0.357659 899 -0.403307 0.915060 0.003046
-7.383150 -7.064937 -0.354543 893 -0.403307 0.915060 0.003046
-7.383379 -7.065159 -0.351411 907 -0.403307 0.915060 0.003046
-7.383451 -7.065227 -0.348280 891 -0.403307 0.915060 0.003046
-7.383209 -7.065000 -0.345123 889 -0.403307 0.915060 0.003046
-7.382595 -7.064406 -0.341958 879 -0.403307 0.915060 0.003046
-7.382146 -7.063972 -0.338793 875 -0.403307 0.915060 0.003046
-7.382843 -7.064651 -0.335686 887 -0.403307 0.915060 0.003046
-7.382969 -7.064764 -0.332545 895 -0.403307 0.915060 0.003046
-7.382356 -7.064183 -0.329380 885 -0.403307 0.915060 0.003046
-7.382743 -7.064546 -0.326257 879 -0.403307 0.915060 0.003046
-7.383021 -7.064821 -0.323124 875 -0.403307 0.915060 0.003046
-7.382343 -7.064161 -0.319960 865 -0.403307 0.915060 0.003046
-7.383047 -7.064848 -0.316843 875 -0.403307 0.915060 0.003046
-7.389569 -7.066653 -0.612781 929 -0.403307 0.915060 0.003046
-7.389539 -7.066625 -0.609631 923 -0.403307 0.915060 0.003046
-7.388879 -7.065993 -0.606427 919 -0.403307 0.915060 0.003046
-7.388793 -7.065906 -0.603268 909 -0.403307 0.915060 0.003046
-7.389298 -7.066391 -0.600153 911 -0.403307 0.915060 0.003046
-7.389584 -7.066672 -0.597030 905 -0.403307 0.915060 0.003046
-7.389821 -7.066887 -0.593898 911 -0.403307 0.915060 0.003046
-7.389468 -7.066557 -0.590721 909 -0.403307 0.915060 0.003046
-7.389226 -7.066330 -0.587553 911 -0.403307 0.915060 0.003046
-7.389195 -7.066302 -0.584394 915 -0.403307 0.915060 0.003046
-7.389637 -7.066723 -0.581279 907 -0.403307 0.915060 0.003046
-7.390505 -7.067555 -0.578201 915 -0.403307 0.915060 0.003046
-7.390474 -7.067513 -0.575051 913 -0.403307 0.915060 0.003046
-7.389695 -7.066772 -0.571839 913 -0.403307 0.915060 0.003046
-7.389611 -7.066700 -0.568679 921 -0.403307 0.915060 0.003046
-7.389887 -7.066959 -0.565557 917 -0.403307 0.915060 0.003046
-7.389589 -7.066674 -0.562379 911 -0.403307 0.915060 0.003046
-7.389701 -7.066788 -0.559238 917 -0.403307 0.915060 0.003046
-7.389774 -7.066856 -0.556098 917 -0.403307 0.915060 0.003046
-7.390058 -7.067122 -0.552965 913 -0.403307 0.915060 0.003046
-7.390280 -7.067338 -0.549833 913 -0.403307 0.915060 0.003046
-7.390242 -7.067304 -0.546683 911 -0.403307 0.915060 0.003046
-7.389982 -7.067050 -0.543515 921 -0.403307 0.915060 0.003046
-7.389629 -7.066720 -0.540348 915 -0.403307 0.915060 0.003046
-7.390489 -7.067533 -0.537260 935 -0.403307 0.915060 0.003046
-7.391073 -7.068095 -0.534145 921 -0.403307 0.915060 0.003046
-7.390878 -7.067906 -0.530986 915 -0.403307 0.915060 0.003046
-7.389981 -7.067056 -0.527775 911 -0.403307 0.915060 0.003046
-7.389888 -7.066964 -0.524626 913 -0.403307 0.915060 0.003046
-7.390526 -7.067570 -0.521520 921 -0.403307 0.915060 0.003046
-7.390480 -7.067529 -0.518370 929 -0.403307 0.915060 0.003046
-7.390009 -7.067077 -0.515184 931 -0.403307 0.915060 0.003046
-7.390435 -7.067485 -0.512070 915 -0.403307 0.915060 0.003046
-7.391021 -7.068048 -0.508955 903 -0.403307 0.915060 0.003046
-7.390501 -7.067544 -0.505780 917 -0.403307 0.915060 0.003046
-7.390125 -7.067195 -0.502603 913 -0.403307 0.915060 0.003046
-7.390716 -7.067750 -0.499497 923 -0.403307 0.915060 0.003046
-7.390608 -7.067659 -0.496338 931 -0.403307 0.915060 0.003046
-7.390033 -7.067096 -0.493154 921 -0.403307 0.915060 0.003046
-7.390720 -7.067756 -0.490057 927 -0.403307 0.915060 0.003046
-7.391084 -7.068113 -0.486933 917 -0.403307 0.915060 0.003046
-7.390345 -7.067404 -0.483730 909 -0.403307 0.915060 0.003046
-7.390085 -7.067150 -0.480573 915 -0.403307 0.915060 0.003046
-7.390394 -7.067450 -0.477440 915 -0.403307 0.915060 0.003046
-7.390757 -7.067793 -0.474316 917 -0.403307 0.915060 0.003046
-7.390554 -7.067598 -0.471158 909 -0.403307 0.915060 0.003046
-7.390224 -7.067287 -0.467991 901 -0.403307 0.915060 0.003046
-7.390643 -7.067689 -0.464867 911 -0.403307 0.915060 0.003046
-7.390574 -7.067629 -0.461718 899 -0.403307 0.915060 0.003046
-7.390726 -7.067774 -0.458586 901 -0.403307 0.915060 0.003046
-7.390939 -7.067970 -0.455454 903 -0.403307 0.915060 0.003046
-7.391451 -7.068462 -0.452339 919 -0.403307 0.915060 0.003046
-7.391611 -7.068614 -0.449198 907 -0.403307 0.915060 0.003046
-7.391225 -7.068244 -0.446031 905 -0.403307 0.915060 0.003046
-7.391274 -7.068294 -0.442881 901 -0.403307 0.915060 0.003046
-7.391102 -7.068123 -0.439732 899 -0.403307 0.915060 0.003046
-7.391458 -7.068475 -0.436599 897 -0.403307 0.915060 0.003046
-7.391238 -7.068253 -0.433441 905 -0.403307 0.915060 0.003046
-7.390216 -7.067288 -0.430240 897 -0.403307 0.915060 0.003046
-7.390091 -7.067170 -0.427091 893 -0.403307 0.915060 0.003046
-7.391140 -7.068161 -0.424001 903 -0.403307 0.915060 0.003046
-7.391283 -7.068300 -0.420860 909 -0.403307 0.915060 0.003046
-7.391158 -7.068182 -0.417711 899 -0.403307 0.915060 0.003046
-7.390875 -7.067909 -0.414554 897 -0.403307 0.915060 0.003046
-7.389798 -7.066886 -0.411344 893 -0.403307 0.915060 0.003046
-7.390634 -7.067679 -0.408246 905 -0.403307 0.915060 0.003046
-7.391407 -7.068422 -0.405138 903 -0.403307 0.915060 0.003046
-7.390960 -7.068002 -0.401973 907 -0.403307 0.915060 0.003046
-7.389621 -7.066714 -0.398755 913 -0.403307 0.915060 0.003046
-7.389599 -7.066692 -0.395615 889 -0.403307 0.915060 0.003046
-7.390263 -7.067332 -0.392499 899 -0.403307 0.915060 0.003046
-7.390988 -7.068023 -0.389392 913 -0.403307 0.915060 0.003046
-7.391438 -7.068450 -0.386268 913 -0.403307 0.915060 0.003046
-7.391511 -7.068532 -0.383127 909 -0.403307 0.915060 0.003046
-7.391763 -7.068760 -0.379995 917 -0.403307 0.915060 0.003046
-7.391308 -7.068334 -0.376829 907 -0.403307 0.915060 0.003046
-7.391129 -7.068158 -0.373680 907 -0.403307 0.915060 0.003046
-7.390468 -7.067525 -0.370507 895 -0.403307 0.915060 0.003046
-7.390327 -7.067394 -0.367348 899 -0.403307 0.915060 0.003046
-7.390991 -7.068035 -0.364241 909 -0.403307 0.915060 0.003046
-7.391803 -7.068809 -0.361134 909 -0.403307 0.915060 0.003046
-7.391725 -7.068728 -0.357984 903 -0.403307 0.915060 0.003046
-7.391593 -7.068604 -0.354836 895 -0.403307 0.915060 0.003046
-7.391980 -7.068981 -0.351712 897 -0.403307 0.915060 0.003046
-7.392375 -7.069350 -0.348578 901 -0.403307 0.915060 0.003046
-7.392763 -7.069727 -0.345454 889 -0.403307 0.915060 0.003046
-7.392472 -7.069448 -0.342297 885 -0.403307 0.915060 0.003046
-7.391954 -7.068957 -0.339132 887 -0.403307 0.915060 0.003046
-7.391600 -7.068614 -0.335965 891 -0.403307 0.915060 0.003046
-7.391829 -7.068836 -0.332833 899 -0.403307 0.915060 0.003046
-7.392060 -7.069058 -0.329700 887 -0.403307 0.915060 0.003046
-7.392557 -7.069524 -0.326576 881 -0.403307 0.915060 0.003046
-7.392354 -7.069343 -0.323428 877 -0.403307 0.915060 0.003046
-7.391898 -7.068902 -0.320262 871 -0.403307 0.915060 0.003046
-7.391490 -7.068514 -0.317106 865 -0.403307 0.915060 0.003046
-7.398804 -7.071158 -0.613355 911 -0.403307 0.915060 0.003046
-7.398032 -7.070423 -0.610142 917 -0.403307 0.915060 0.003046
-7.397481 -7.069893 -0.606937 911 -0.403307 0.915060 0.003046
-7.397932 -7.070321 -0.603823 917 -0.403307 0.915060 0.003046
-7.398272 -7.070646 -0.600700 907 -0.403307 0.915060 0.003046
-7.398400 -7.070772 -0.597559 909 -0.403307 0.915060 0.003046
-7.397951 -7.070338 -0.594363 909 -0.403307 0.915060 0.003046
-7.397968 -7.070362 -0.591212 913 -0.403307 0.915060 0.003046
-7.397891 -7.070282 -0.588053 909 -0.403307 0.915060 0.003046
-7.397963 -7.070350 -0.584912 911 -0.403307 0.915060 0.003046
-7.398192 -7.070571 -0.581770 917 -0.403307 0.915060 0.003046
-7.397682 -7.070087 -0.578585 911 -0.403307 0.915060 0.003046
-7.397391 -7.069809 -0.575408 911 -0.403307 0.915060 0.003046
-7.397565 -7.069973 -0.572266 913 -0.403307 0.915060 0.003046
-7.398378 -7.070747 -0.569178 921 -0.403307 0.915060 0.003046
-7.398868 -7.071220 -0.566063 917 -0.403307 0.915060 0.003046
-7.399042 -7.071384 -0.562922 929 -0.403307 0.915060 0.003046
-7.398531 -7.070900 -0.559736 933 -0.403307 0.915060 0.003046
-7.397856 -7.070255 -0.556533 927 -0.403307 0.915060 0.003046
-7.397928 -7.070323 -0.553382 913 -0.403307 0.915060 0.003046
-7.398417 -7.070782 -0.550267 911 -0.403307 0.915060 0.003046
-7.398488 -7.070849 -0.547127 909 -0.403307 0.915060 0.003046
-7.398222 -7.070603 -0.543949 923 -0.403307 0.915060 0.003046
-7.398396 -7.070767 -0.540817 929 -0.403307 0.915060 0.003046
-7.398091 -7.070476 -0.537640 919 -0.403307 0.915060 0.003046
-7.397943 -7.070338 -0.534481 919 -0.403307 0.915060 0.003046
-7.398432 -7.070798 -0.531367 919 -0.403307 0.915060 0.003046
-7.398804 -7.071162 -0.528243 921 -0.403307 0.915060 0.003046
-7.399341 -7.071673 -0.525128 933 -0.403307 0.915060 0.003046
-7.399137 -7.071477 -0.521960 935 -0.403307 0.915060 0.003046
-7.398405 -7.070774 -0.518757 915 -0.403307 0.915060 0.003046
-7.398359 -7.070733 -0.515607 913 -0.403307 0.915060 0.003046
-7.398416 -7.070788 -0.512456 915 -0.403307 0.915060 0.003046
-7.398425 -7.070792 -0.509306 905 -0.403307 0.915060 0.003046
-7.398582 -7.070943 -0.506175 915 -0.403307 0.915060 0.003046
-7.398427 -7.070799 -0.503006 915 -0.403307 0.915060 0.003046
-7.398374 -7.070752 -0.499856 915 -0.403307 0.915060 0.003046
-7.398375 -7.070749 -0.496706 911 -0.403307 0.915060 0.003046
-7.398479 -7.070856 -0.493565 911 -0.403307 0.915060 0.003046
-7.398431 -7.070801 -0.490406 905 -0.403307 0.915060 0.003046
-7.398638 -7.071004 -0.487274 899 -0.403307 0.915060 0.003046
-7.399009 -7.071355 -0.484150 905 -0.403307 0.915060 0.003046
-7.398476 -7.070852 -0.480965 905 -0.403307 0.915060 0.003046
-7.398689 -7.071047 -0.477833 921 -0.403307 0.915060 0.003046
-7.398998 -7.071347 -0.474700 919 -0.403307 0.915060 0.003046
-7.398888 -7.071241 -0.471541 915 -0.403307 0.915060 0.003046
-7.398306 -7.070686 -0.468356 899 -0.403307 0.915060 0.003046
-7.397819 -7.070221 -0.465181 897 -0.403307 0.915060 0.003046
-7.398396 -7.070777 -0.462065 907 -0.403307 0.915060 0.003046
-7.398807 -7.071173 -0.458941 909 -0.403307 0.915060 0.003046
-7.398588 -7.070966 -0.455783 911 -0.403307 0.915060 0.003046
-7.398691 -7.071059 -0.452632 911 -0.403307 0.915060 0.003046
-7.399102 -7.071454 -0.449508 901 -0.403307 0.915060 0.003046
-7.399205 -7.071548 -0.446367 893 -0.403307 0.915060 0.003046
-7.399198 -7.071537 -0.443217 891 -0.403307 0.915060 0.003046
-7.399129 -7.071478 -0.440068 887 -0.403307 0.915060 0.003046
-7.399162 -7.071514 -0.436918 889 -0.403307 0.915060 0.003046
-7.398627 -7.070997 -0.433743 883 -0.403307 0.915060 0.003046
-7.398778 -7.071142 -0.430601 891 -0.403307 0.915060 0.003046
-7.398702 -7.071076 -0.427452 891 -0.403307 0.915060 0.003046
-7.398741 -7.071105 -0.424301 891 -0.403307 0.915060 0.003046
-7.399467 -7.071795 -0.421194 899 -0.403307 0.915060 0.003046
-7.399618 -7.071940 -0.418053 897 -0.403307 0.915060 0.003046
-7.399014 -7.071366 -0.414878 889 -0.403307 0.915060 0.003046
-7.398888 -7.071248 -0.411720 885 -0.403307 0.915060 0.003046
-7.399882 -7.072196 -0.408620 897 -0.403307 0.915060 0.003046
-7.399805 -7.072130 -0.405471 909 -0.403307 0.915060 0.003046
-7.399624 -7.071953 -0.402312 897 -0.403307 0.915060 0.003046
-7.399870 -7.072188 -0.399180 905 -0.403307 0.915060 0.003046
-7.399525 -7.071865 -0.396013 897 -0.403307 0.915060 0.003046
-7.399771 -7.072100 -0.392881 905 -0.403307 0.915060 0.003046
-7.399756 -7.072084 -0.389731 905 -0.403307 0.915060 0.003046
-7.398937 -7.071297 -0.386538 893 -0.403307 0.915060 0.003046
-7.398757 -7.071121 -0.383390 899 -0.403307 0.915060 0.003046
-7.399523 -7.071857 -0.380273 899 -0.403307 0.915060 0.003046
-7.399658 -7.071989 -0.377131 905 -0.403307 0.915060 0.003046
-7.399794 -7.072122 -0.374000 925 -0.403307 0.915060 0.003046
-7.400244 -7.072550 -0.370866 901 -0.403307 0.915060 0.003046
-7.400055 -7.072367 -0.367717 901 -0.403307 0.915060 0.003046
-7.399875 -7.072190 -0.364559 909 -0.403307 0.915060 0.003046
-7.400153 -7.072464 -0.361426 903 -0.403307 0.915060 0.003046
-7.400342 -7.072641 -0.358284 899 -0.403307 0.915060 0.003046
-7.400258 -7.072568 -0.355135 893 -0.403307 0.915060 0.003046
-7.399542 -7.071878 -0.351952 893 -0.403307 0.915060 0.003046
-7.399292 -7.071644 -0.348794 889 -0.403307 0.915060 0.003046
-7.399528 -7.071859 -0.345662 875 -0.403307 0.915060 0.003046
-7.399656 -7.071986 -0.342521 867 -0.403307 0.915060 0.003046
-7.399303 -7.071656 -0.339354 863 -0.403307 0.915060 0.003046
-7.399799 -7.072121 -0.336229 875 -0.403307 0.915060 0.003046
-7.400345 -7.072652 -0.333114 871 -0.403307 0.915060 0.003046
-7.400203 -7.072507 -0.329955 877 -0.403307 0.915060 0.003046
-7.400112 -7.072429 -0.326806 875 -0.403307 0.915060 0.003046
-7.399333 -7.071688 -0.323623 861 -0.403307 0.915060 0.003046
-7.398767 -7.071146 -0.320459 877 -0.403307 0.915060 0.003046
-7.399201 -7.071560 -0.317334 873 -0.403307 0.915060 0.003046
-7.406514 -7.074190 -0.613804 891 -0.403307 0.915060 0.003046
-7.406752 -7.074419 -0.610662 903 -0.403307 0.915060 0.003046
-7.406407 -7.074096 -0.607485 905 -0.403307 0.915060 0.003046
-7.405856 -7.073566 -0.604280 891 -0.403307 0.915060 0.003046
-7.406252 -7.073949 -0.601156 895 -0.403307 0.915060 0.003046
-7.406474 -7.074165 -0.598024 901 -0.403307 0.915060 0.003046
-7.406191 -7.073893 -0.594846 911 -0.403307 0.915060 0.003046
-7.406523 -7.074211 -0.591713 909 -0.403307 0.915060 0.003046
-7.405753 -7.073476 -0.588500 897 -0.403307 0.915060 0.003046
-7.405462 -7.073196 -0.585323 897 -0.403307 0.915060 0.003046
-7.406007 -7.073715 -0.582208 897 -0.403307 0.915060 0.003046
-7.406347 -7.074039 -0.579075 913 -0.403307 0.915060 0.003046
-7.406577 -7.074261 -0.575942 911 -0.403307 0.915060 0.003046
-7.406436 -7.074131 -0.572774 907 -0.403307 0.915060 0.003046
-7.406241 -7.073942 -0.569605 917 -0.403307 0.915060 0.003046
-7.406099 -7.073810 -0.566447 905 -0.403307 0.915060 0.003046
-7.406803 -7.074482 -0.563340 923 -0.403307 0.915060 0.003046
-7.407512 -7.075147 -0.560233 939 -0.403307 0.915060 0.003046
-7.406939 -7.074612 -0.557038 927 -0.403307 0.915060 0.003046
-7.406585 -7.074268 -0.553862 921 -0.403307 0.915060 0.003046
-7.406759 -7.074432 -0.550720 921 -0.403307 0.915060 0.003046
-7.406665 -7.074339 -0.547561 927 -0.403307 0.915060 0.003046
-7.406415 -7.074106 -0.544383 925 -0.403307 0.915060 0.003046
-7.406849 -7.074520 -0.541259 929 -0.403307 0.915060 0.003046
-7.407174 -7.074832 -0.538136 937 -0.403307 0.915060 0.003046
-7.407191 -7.074842 -0.534976 929 -0.403307 0.915060 0.003046
-7.407247 -7.074897 -0.531825 925 -0.403307 0.915060 0.003046
-7.406878 -7.074555 -0.528648 907 -0.403307 0.915060 0.003046
-7.406832 -7.074514 -0.525499 907 -0.403307 0.915060 0.003046
-7.406903 -7.074567 -0.522348 923 -0.403307 0.915060 0.003046
-7.407015 -7.074681 -0.519197 917 -0.403307 0.915060 0.003046
-7.406914 -7.074582 -0.516038 911 -0.403307 0.915060 0.003046
-7.406868 -7.074541 -0.512888 901 -0.403307 0.915060 0.003046
-7.406767 -7.074441 -0.509729 903 -0.403307 0.915060 0.003046
-7.406933 -7.074599 -0.506577 897 -0.403307 0.915060 0.003046
-7.407249 -7.074905 -0.503454 909 -0.403307 0.915060 0.003046
-7.406668 -7.074350 -0.500260 903 -0.403307 0.915060 0.003046
-7.406615 -7.074303 -0.497100 895 -0.403307 0.915060 0.003046
-7.406993 -7.074659 -0.493976 899 -0.403307 0.915060 0.003046
-7.407144 -7.074804 -0.490835 897 -0.403307 0.915060 0.003046
-7.407461 -7.075110 -0.487702 903 -0.403307 0.915060 0.003046
-7.406933 -7.074599 -0.484517 899 -0.403307 0.915060 0.003046
-7.406455 -7.074154 -0.481331 895 -0.403307 0.915060 0.003046
-7.406607 -7.074300 -0.478190 901 -0.403307 0.915060 0.003046
-7.406757 -7.074445 -0.475048 897 -0.403307 0.915060 0.003046
-7.406656 -7.074346 -0.471889 903 -0.403307 0.915060 0.003046
-7.406600 -7.074284 -0.468730 911 -0.403307 0.915060 0.003046
-7.407224 -7.074878 -0.465624 911 -0.403307 0.915060 0.003046
-7.407116 -7.074787 -0.462465 899 -0.403307 0.915060 0.003046
-7.406527 -7.074226 -0.459280 895 -0.403307 0.915060 0.003046
-7.406362 -7.074061 -0.456112 885 -0.403307 0.915060 0.003046
-7.407726 -7.075363 -0.453049 895 -0.403307 0.915060 0.003046
-7.408878 -7.076465 -0.449958 905 -0.403307 0.915060 0.003046
-7.408185 -7.075808 -0.446764 889 -0.403307 0.915060 0.003046
-7.407493 -7.075135 -0.443571 873 -0.403307 0.915060 0.003046
-7.406785 -7.074465 -0.440387 865 -0.403307 0.915060 0.003046
-7.406244 -7.073956 -0.437202 875 -0.403307 0.915060 0.003046
-7.407402 -7.075050 -0.434121 881 -0.403307 0.915060 0.003046
-7.408019 -7.075653 -0.431005 899 -0.403307 0.915060 0.003046
-7.408004 -7.075637 -0.427845 889 -0.403307 0.915060 0.003046
-7.408367 -7.075981 -0.424722 885 -0.403307 0.915060 0.003046
-7.408133 -7.075760 -0.421554 885 -0.403307 0.915060 0.003046
-7.407857 -7.075494 -0.418386 885 -0.403307 0.915060 0.003046
-7.407685 -7.075323 -0.415228 899 -0.403307 0.915060 0.003046
-7.408136 -7.075765 -0.412104 893 -0.403307 0.915060 0.003046
-7.408656 -7.076249 -0.408979 893 -0.403307 0.915060 0.003046
-7.408099 -7.075727 -0.405794 901 -0.403307 0.915060 0.003046
-7.407502 -7.075160 -0.402619 893 -0.403307 0.915060 0.003046
-7.407959 -7.075593 -0.399485 895 -0.403307 0.915060 0.003046
-7.408726 -7.076329 -0.396378 895 -0.403307 0.915060 0.003046
-7.408923 -7.076513 -0.393236 913 -0.403307 0.915060 0.003046
-7.407892 -7.075527 -0.390036 899 -0.403307 0.915060 0.003046
-7.406971 -7.074644 -0.386834 893 -0.403307 0.915060 0.003046
-7.407208 -7.074872 -0.383702 895 -0.403307 0.915060 0.003046
-7.407770 -7.075417 -0.380576 889 -0.403307 0.915060 0.003046
-7.407424 -7.075079 -0.377410 905 -0.403307 0.915060 0.003046
-7.407087 -7.074762 -0.374243 895 -0.403307 0.915060 0.003046
-7.407687 -7.075337 -0.371127 901 -0.403307 0.915060 0.003046
-7.407404 -7.075065 -0.367960 899 -0.403307 0.915060 0.003046
-7.406846 -7.074529 -0.364785 903 -0.403307 0.915060 0.003046
-7.406925 -7.074603 -0.361644 887 -0.403307 0.915060 0.003046
-7.407574 -7.075231 -0.358518 879 -0.403307 0.915060 0.003046
-7.408126 -7.075754 -0.355392 885 -0.403307 0.915060 0.003046
-7.407993 -7.075629 -0.352244 881 -0.403307 0.915060 0.003046
-7.408065 -7.075697 -0.349093 865 -0.403307 0.915060 0.003046
-7.408255 -7.075874 -0.345951 859 -0.403307 0.915060 0.003046
-7.408217 -7.075839 -0.342801 863 -0.403307 0.915060 0.003046
-7.407755 -7.075408 -0.339636 867 -0.403307 0.915060 0.003046
-7.407771 -7.075417 -0.336485 865 -0.403307 0.915060 0.003046
-7.407953 -7.075587 -0.333344 865 -0.403307 0.915060 0.003046
-7.408129 -7.075766 -0.330202 871 -0.403307 0.915060 0.003046
-7.407987 -7.075621 -0.327043 877 -0.403307 0.915060 0.003046
-7.407799 -7.075438 -0.323895 875 -0.403307 0.915060 0.003046
-7.408391 -7.076007 -0.320769 879 -0.403307 0.915060 0.003046
-7.407983 -7.075619 -0.317603 871 -0.403307 0.915060 0.003046
-7.414697 -7.077594 -0.614289 885 -0.403307 0.915060 0.003046
-7.414446 -7.077361 -0.611111 887 -0.403307 0.915060 0.003046
-7.414684 -7.077590 -0.607969 889 -0.403307 0.915060 0.003046
-7.414772 -7.077670 -0.604818 877 -0.403307 0.915060 0.003046
-7.414954 -7.077840 -0.601676 883 -0.403307 0.915060 0.003046
-7.415403 -7.078268 -0.598552 899 -0.403307 0.915060 0.003046
-7.415421 -7.078291 -0.595391 893 -0.403307 0.915060 0.003046
-7.415501 -7.078365 -0.592240 899 -0.403307 0.915060 0.003046
-7.415258 -7.078138 -0.589063 897 -0.403307 0.915060 0.003046
-7.414960 -7.077853 -0.585885 891 -0.403307 0.915060 0.003046
-7.414718 -7.077625 -0.582708 895 -0.403307 0.915060 0.003046
-7.414576 -7.077480 -0.579539 903 -0.403307 0.915060 0.003046
-7.414601 -7.077510 -0.576379 895 -0.403307 0.915060 0.003046
-7.415098 -7.077976 -0.573264 895 -0.403307 0.915060 0.003046
-7.415848 -7.078699 -0.570167 903 -0.403307 0.915060 0.003046
-7.415660 -7.078517 -0.566988 909 -0.403307 0.915060 0.003046
-7.415353 -7.078225 -0.563811 907 -0.403307 0.915060 0.003046
-7.415371 -7.078249 -0.560651 909 -0.403307 0.915060 0.003046
-7.415229 -7.078103 -0.557482 917 -0.403307 0.915060 0.003046
-7.415239 -7.078120 -0.554332 905 -0.403307 0.915060 0.003046
-7.415674 -7.078536 -0.551208 917 -0.403307 0.915060 0.003046
-7.415698 -7.078551 -0.548048 915 -0.403307 0.915060 0.003046
-7.415590 -7.078460 -0.544888 909 -0.403307 0.915060 0.003046
-7.415772 -7.078630 -0.541737 923 -0.403307 0.915060 0.003046
-7.414773 -7.077670 -0.538516 915 -0.403307 0.915060 0.003046
-7.414783 -7.077687 -0.535356 913 -0.403307 0.915060 0.003046
-7.414737 -7.077646 -0.532196 899 -0.403307 0.915060 0.003046
-7.414965 -7.077854 -0.529064 893 -0.403307 0.915060 0.003046
-7.415227 -7.078116 -0.525921 893 -0.403307 0.915060 0.003046
-7.415345 -7.078221 -0.522770 897 -0.403307 0.915060 0.003046
-7.416033 -7.078881 -0.519664 903 -0.403307 0.915060 0.003046
-7.415885 -7.078743 -0.516495 891 -0.403307 0.915060 0.003046
-7.415474 -7.078341 -0.513319 883 -0.403307 0.915060 0.003046
-7.415263 -7.078140 -0.510141 875 -0.403307 0.915060 0.003046
-7.415792 -7.078644 -0.507026 881 -0.403307 0.915060 0.003046
-7.416377 -7.079207 -0.503910 891 -0.403307 0.915060 0.003046
-7.415802 -7.078658 -0.500715 887 -0.403307 0.915060 0.003046
-7.415221 -7.078103 -0.497521 877 -0.403307 0.915060 0.003046
-7.415592 -7.078453 -0.494387 881 -0.403307 0.915060 0.003046
-7.416327 -7.079165 -0.491280 889 -0.403307 0.915060 0.003046
-7.416493 -7.079322 -0.488139 909 -0.403307 0.915060 0.003046
-7.416226 -7.079062 -0.484961 907 -0.403307 0.915060 0.003046
-7.416645 -7.079464 -0.481837 901 -0.403307 0.915060 0.003046
-7.415954 -7.078806 -0.478633 887 -0.403307 0.915060 0.003046
-7.415269 -7.078155 -0.475440 885 -0.403307 0.915060 0.003046
-7.414569 -7.077491 -0.472246 879 -0.403307 0.915060 0.003046
-7.414727 -7.077629 -0.469095 877 -0.403307 0.915060 0.003046
-7.415572 -7.078442 -0.465997 875 -0.403307 0.915060 0.003046
-7.415243 -7.078132 -0.462820 883 -0.403307 0.915060 0.003046
-7.415504 -7.078379 -0.459687 885 -0.403307 0.915060 0.003046
-7.415866 -7.078723 -0.456554 875 -0.403307 0.915060 0.003046
-7.415490 -7.078361 -0.453377 865 -0.403307 0.915060 0.003046
-7.415799 -7.078660 -0.450234 869 -0.403307 0.915060 0.003046
-7.415413 -7.078290 -0.447058 861 -0.403307 0.915060 0.003046
-7.415146 -7.078031 -0.443890 853 -0.403307 0.915060 0.003046
-7.415817 -7.078677 -0.440774 847 -0.403307 0.915060 0.003046
-7.416126 -7.078977 -0.437641 855 -0.403307 0.915060 0.003046
-7.415843 -7.078704 -0.434473 859 -0.403307 0.915060 0.003046
-7.415467 -7.078341 -0.431297 873 -0.403307 0.915060 0.003046
-7.415768 -7.078635 -0.428164 871 -0.403307 0.915060 0.003046
-7.416494 -7.079326 -0.425047 881 -0.403307 0.915060 0.003046
-7.416321 -7.079155 -0.421879 873 -0.403307 0.915060 0.003046
-7.415401 -7.078286 -0.418677 875 -0.403307 0.915060 0.003046
-7.415598 -7.078469 -0.415535 877 -0.403307 0.915060 0.003046
-7.416372 -7.079212 -0.412428 883 -0.403307 0.915060 0.003046
-7.416515 -7.079350 -0.409276 887 -0.403307 0.915060 0.003046
-7.416123 -7.078975 -0.406110 883 -0.403307 0.915060 0.003046
-7.415209 -7.078098 -0.402909 877 -0.403307 0.915060 0.003046
-7.415353 -7.078238 -0.399757 877 -0.403307 0.915060 0.003046
-7.416173 -7.079018 -0.396649 887 -0.403307 0.915060 0.003046
-7.416528 -7.079355 -0.393516 885 -0.403307 0.915060 0.003046
-7.416396 -7.079231 -0.390357 885 -0.403307 0.915060 0.003046
-7.416153 -7.079003 -0.387189 891 -0.403307 0.915060 0.003046
-7.415713 -7.078577 -0.384013 891 -0.403307 0.915060 0.003046
-7.416321 -7.079159 -0.380888 893 -0.403307 0.915060 0.003046
-7.417095 -7.079901 -0.377780 895 -0.403307 0.915060 0.003046
-7.416111 -7.078968 -0.374579 891 -0.403307 0.915060 0.003046
-7.416088 -7.078945 -0.371420 889 -0.403307 0.915060 0.003046
-7.416751 -7.079572 -0.368303 893 -0.403307 0.915060 0.003046
-7.416460 -7.079292 -0.365136 895 -0.403307 0.915060 0.003046
-7.416588 -7.079419 -0.361995 885 -0.403307 0.915060 0.003046
-7.417298 -7.080096 -0.358868 889 -0.403307 0.915060 0.003046
-7.417166 -7.079972 -0.355709 879 -0.403307 0.915060 0.003046
-7.416553 -7.079392 -0.352535 877 -0.403307 0.915060 0.003046
-7.416515 -7.079357 -0.349375 873 -0.403307 0.915060 0.003046
-7.416327 -7.079175 -0.346217 863 -0.403307 0.915060 0.003046
-7.416138 -7.078991 -0.343058 865 -0.403307 0.915060 0.003046
-7.416999 -7.079817 -0.339940 877 -0.403307 0.915060 0.003046
-7.416865 -7.079679 -0.336782 875 -0.403307 0.915060 0.003046
-7.415606 -7.078482 -0.333583 857 -0.403307 0.915060 0.003046
-7.415946 -7.078807 -0.330440 865 -0.403307 0.915060 0.003046
-7.415956 -7.078824 -0.327290 865 -0.403307 0.915060 0.003046
-7.415658 -7.078539 -0.324133 861 -0.403307 0.915060 0.003046
-7.416628 -7.079467 -0.321013 861 -0.403307 0.915060 0.003046
-7.417488 -7.080280 -0.317905 865 -0.403307 0.915060 0.003046
-7.423572 -7.081571 -0.611667 883 -0.403307 0.915060 0.003046
-7.424131 -7.082101 -0.608542 885 -0.403307 0.915060 0.003046
-7.424314 -7.082272 -0.605400 887 -0.403307 0.915060 0.003046
-7.423859 -7.081845 -0.602204 879 -0.403307 0.915060 0.003046
-7.424206 -7.082176 -0.599071 881 -0.403307 0.915060 0.003046
-7.425129 -7.083054 -0.595982 885 -0.403307 0.915060 0.003046
-7.424509 -7.082467 -0.592768 891 -0.403307 0.915060 0.003046
-7.423958 -7.081937 -0.589563 899 -0.403307 0.915060 0.003046
-7.423879 -7.081856 -0.586394 897 -0.403307 0.915060 0.003046
-7.423999 -7.081976 -0.583242 895 -0.403307 0.915060 0.003046
-7.424591 -7.082545 -0.580137 889 -0.403307 0.915060 0.003046
-7.424349 -7.082318 -0.576949 887 -0.403307 0.915060 0.003046
-7.424585 -7.082533 -0.573807 887 -0.403307 0.915060 0.003046
-7.425186 -7.083108 -0.570691 895 -0.403307 0.915060 0.003046
-7.425037 -7.082971 -0.567522 901 -0.403307 0.915060 0.003046
-7.424369 -7.082333 -0.564308 901 -0.403307 0.915060 0.003046
-7.424172 -7.082143 -0.561140 893 -0.403307 0.915060 0.003046
-7.423394 -7.081401 -0.557918 877 -0.403307 0.915060 0.003046
-7.423782 -7.081779 -0.554794 885 -0.403307 0.915060 0.003046
-7.424319 -7.082290 -0.551669 885 -0.403307 0.915060 0.003046
-7.423807 -7.081791 -0.548473 883 -0.403307 0.915060 0.003046
-7.424667 -7.082618 -0.545375 879 -0.403307 0.915060 0.003046
-7.425684 -7.083585 -0.542286 885 -0.403307 0.915060 0.003046
-7.425316 -7.083242 -0.539099 895 -0.403307 0.915060 0.003046
-7.424750 -7.082700 -0.535904 895 -0.403307 0.915060 0.003046
-7.424868 -7.082805 -0.532753 895 -0.403307 0.915060 0.003046
-7.425138 -7.083073 -0.529610 881 -0.403307 0.915060 0.003046
-7.424887 -7.082826 -0.526433 881 -0.403307 0.915060 0.003046
-7.424518 -7.082483 -0.523246 885 -0.403307 0.915060 0.003046
-7.424637 -7.082589 -0.520095 887 -0.403307 0.915060 0.003046
-7.424796 -7.082741 -0.516953 887 -0.403307 0.915060 0.003046
-7.424167 -7.082148 -0.513749 879 -0.403307 0.915060 0.003046
-7.423853 -7.081850 -0.510572 869 -0.403307 0.915060 0.003046
-7.424712 -7.082661 -0.507464 873 -0.403307 0.915060 0.003046
-7.424817 -7.082769 -0.504313 881 -0.403307 0.915060 0.003046
-7.424289 -7.082258 -0.501128 879 -0.403307 0.915060 0.003046
-7.424236 -7.082211 -0.497958 889 -0.403307 0.915060 0.003046
-7.424552 -7.082516 -0.494825 885 -0.403307 0.915060 0.003046
-7.425348 -7.083264 -0.491718 891 -0.403307 0.915060 0.003046
-7.424397 -7.082370 -0.488496 885 -0.403307 0.915060 0.003046
-7.423500 -7.081506 -0.485285 873 -0.403307 0.915060 0.003046
-7.424611 -7.082562 -0.482194 883 -0.403307 0.915060 0.003046
-7.425290 -7.083215 -0.479078 889 -0.403307 0.915060 0.003046
-7.424708 -7.082660 -0.475883 879 -0.403307 0.915060 0.003046
-7.424331 -7.082297 -0.472707 887 -0.403307 0.915060 0.003046
-7.424489 -7.082449 -0.469555 883 -0.403307 0.915060 0.003046
-7.424640 -7.082594 -0.466413 873 -0.403307 0.915060 0.003046
-7.424950 -7.082893 -0.463271 881 -0.403307 0.915060 0.003046
-7.424360 -7.082332 -0.460076 867 -0.403307 0.915060 0.003046
-7.424463 -7.082424 -0.456925 863 -0.403307 0.915060 0.003046
-7.424401 -7.082371 -0.453766 857 -0.403307 0.915060 0.003046
-7.424553 -7.082516 -0.450624 853 -0.403307 0.915060 0.003046
-7.425656 -7.083566 -0.447524 859 -0.403307 0.915060 0.003046
-7.426170 -7.084058 -0.444399 857 -0.403307 0.915060 0.003046
-7.425368 -7.083298 -0.441196 857 -0.403307 0.915060 0.003046
-7.425093 -7.083032 -0.438029 855 -0.403307 0.915060 0.003046
-7.425291 -7.083215 -0.434877 859 -0.403307 0.915060 0.003046
-7.425434 -7.083354 -0.431735 871 -0.403307 0.915060 0.003046
-7.425845 -7.083749 -0.428601 883 -0.403307 0.915060 0.003046
-7.425146 -7.083086 -0.425398 875 -0.403307 0.915060 0.003046
-7.424973 -7.082915 -0.422239 871 -0.403307 0.915060 0.003046
-7.425108 -7.083047 -0.419088 865 -0.403307 0.915060 0.003046
-7.425259 -7.083192 -0.415936 875 -0.403307 0.915060 0.003046
-7.425237 -7.083170 -0.412777 885 -0.403307 0.915060 0.003046
-7.424804 -7.082750 -0.409601 885 -0.403307 0.915060 0.003046
-7.424939 -7.082882 -0.406449 887 -0.403307 0.915060 0.003046
-7.425232 -7.083169 -0.403316 887 -0.403307 0.915060 0.003046
-7.424627 -7.082595 -0.400122 881 -0.403307 0.915060 0.003046
-7.424666 -7.082623 -0.396972 879 -0.403307 0.915060 0.003046
-7.424961 -7.082911 -0.393829 869 -0.403307 0.915060 0.003046
-7.425149 -7.083086 -0.390687 865 -0.403307 0.915060 0.003046
-7.425340 -7.083263 -0.387535 869 -0.403307 0.915060 0.003046
-7.425845 -7.083749 -0.384410 881 -0.403307 0.915060 0.003046
-7.425878 -7.083785 -0.381250 879 -0.403307 0.915060 0.003046
-7.425690 -7.083603 -0.378092 877 -0.403307 0.915060 0.003046
-7.425455 -7.083382 -0.374924 883 -0.403307 0.915060 0.003046
-7.425213 -7.083155 -0.371756 885 -0.403307 0.915060 0.003046
-7.425354 -7.083279 -0.368605 887 -0.403307 0.915060 0.003046
-7.425530 -7.083457 -0.365463 871 -0.403307 0.915060 0.003046
-7.425404 -7.083325 -0.362294 877 -0.403307 0.915060 0.003046
-7.425263 -7.083194 -0.359135 873 -0.403307 0.915060 0.003046
-7.425440 -7.083373 -0.355993 885 -0.403307 0.915060 0.003046
-7.425573 -7.083490 -0.352842 881 -0.403307 0.915060 0.003046
-7.425969 -7.083874 -0.349708 869 -0.403307 0.915060 0.003046
-7.425725 -7.083632 -0.346540 865 -0.403307 0.915060 0.003046
-7.425852 -7.083759 -0.343389 875 -0.403307 0.915060 0.003046
-7.426499 -7.084372 -0.340263 875 -0.403307 0.915060 0.003046
-7.426044 -7.083946 -0.337087 869 -0.403307 0.915060 0.003046
-7.425054 -7.083006 -0.333886 863 -0.403307 0.915060 0.003046
-7.425392 -7.083317 -0.330753 863 -0.403307 0.915060 0.003046
-7.426199 -7.084099 -0.327626 865 -0.403307 0.915060 0.003046
-7.426435 -7.084313 -0.324483 857 -0.403307 0.915060 0.003046
-7.425917 -7.083824 -0.321308 853 -0.403307 0.915060 0.003046
-7.425768 -7.083686 -0.318149 855 -0.403307 0.915060 0.003046
-7.432955 -7.086018 -0.612241 879 -0.403307 0.915060 0.003046
-7.432775 -7.085842 -0.609063 867 -0.403307 0.915060 0.003046
-7.433012 -7.086070 -0.605910 883 -0.403307 0.915060 0.003046
-7.432770 -7.085843 -0.602732 881 -0.403307 0.915060 0.003046
-7.432960 -7.086020 -0.599581 887 -0.403307 0.915060 0.003046
-7.433032 -7.086087 -0.596420 885 -0.403307 0.915060 0.003046
-7.433159 -7.086213 -0.593269 883 -0.403307 0.915060 0.003046
-7.432608 -7.085683 -0.590064 883 -0.403307 0.915060 0.003046
-7.432421 -7.085501 -0.586885 875 -0.403307 0.915060 0.003046
-7.433179 -7.086231 -0.583778 875 -0.403307 0.915060 0.003046
-7.432722 -7.085791 -0.580582 879 -0.403307 0.915060 0.003046
-7.432362 -7.085454 -0.577386 877 -0.403307 0.915060 0.003046
-7.433448 -7.086478 -0.574305 883 -0.403307 0.915060 0.003046
-7.434364 -7.087363 -0.571217 899 -0.403307 0.915060 0.003046
-7.433689 -7.086718 -0.568003 895 -0.403307 0.915060 0.003046
-7.432760 -7.085828 -0.564772 883 -0.403307 0.915060 0.003046
-7.432343 -7.085434 -0.561576 877 -0.403307 0.915060 0.003046
-7.431895 -7.085001 -0.558380 865 -0.403307 0.915060 0.003046
-7.432645 -7.085723 -0.555273 865 -0.403307 0.915060 0.003046
-7.433024 -7.086081 -0.552139 871 -0.403307 0.915060 0.003046
-7.433309 -7.086348 -0.548996 873 -0.403307 0.915060 0.003046
-7.433058 -7.086114 -0.545818 873 -0.403307 0.915060 0.003046
-7.432374 -7.085462 -0.542605 871 -0.403307 0.915060 0.003046
-7.432760 -7.085825 -0.539471 875 -0.403307 0.915060 0.003046
-7.432982 -7.086041 -0.536319 869 -0.403307 0.915060 0.003046
-7.433046 -7.086102 -0.533168 873 -0.403307 0.915060 0.003046
-7.432952 -7.086010 -0.529999 879 -0.403307 0.915060 0.003046
-7.433427 -7.086470 -0.526865 873 -0.403307 0.915060 0.003046
-7.433334 -7.086377 -0.523695 879 -0.403307 0.915060 0.003046
-7.433768 -7.086792 -0.520571 881 -0.403307 0.915060 0.003046
-7.434455 -7.087451 -0.517455 887 -0.403307 0.915060 0.003046
-7.433565 -7.086593 -0.514233 871 -0.403307 0.915060 0.003046
-7.433197 -7.086251 -0.511046 865 -0.403307 0.915060 0.003046
-7.433095 -7.086151 -0.507877 871 -0.403307 0.915060 0.003046
-7.432891 -7.085955 -0.504699 855 -0.403307 0.915060 0.003046
-7.433262 -7.086305 -0.501565 865 -0.403307 0.915060 0.003046
-7.433265 -7.086317 -0.498405 871 -0.403307 0.915060 0.003046
-7.433367 -7.086409 -0.495254 869 -0.403307 0.915060 0.003046
-7.433156 -7.086207 -0.492076 869 -0.403307 0.915060 0.003046
-7.432835 -7.085904 -0.488899 861 -0.403307 0.915060 0.003046
-7.432945 -7.086003 -0.485738 869 -0.403307 0.915060 0.003046
-7.433042 -7.086103 -0.482587 871 -0.403307 0.915060 0.003046
-7.433262 -7.086305 -0.479445 879 -0.403307 0.915060 0.003046
-7.433147 -7.086207 -0.476276 871 -0.403307 0.915060 0.003046
-7.433778 -7.086808 -0.473150 871 -0.403307 0.915060 0.003046
-7.433990 -7.087004 -0.470008 869 -0.403307 0.915060 0.003046
-7.433511 -7.086545 -0.466812 871 -0.403307 0.915060 0.003046
-7.432812 -7.085881 -0.463609 867 -0.403307 0.915060 0.003046
-7.432971 -7.086032 -0.460467 859 -0.403307 0.915060 0.003046
-7.432963 -7.086023 -0.457297 861 -0.403307 0.915060 0.003046
-7.433053 -7.086117 -0.454146 867 -0.403307 0.915060 0.003046
-7.433156 -7.086210 -0.450995 859 -0.403307 0.915060 0.003046
-7.432456 -7.085546 -0.447792 849 -0.403307 0.915060 0.003046
-7.432071 -7.085177 -0.444615 845 -0.403307 0.915060 0.003046
-7.433072 -7.086132 -0.441516 859 -0.403307 0.915060 0.003046
-7.433963 -7.086983 -0.438407 865 -0.403307 0.915060 0.003046
-7.433578 -7.086614 -0.435221 863 -0.403307 0.915060 0.003046
-7.432721 -7.085795 -0.432019 861 -0.403307 0.915060 0.003046
-7.432967 -7.086030 -0.428867 869 -0.403307 0.915060 0.003046
-7.433219 -7.086271 -0.425724 877 -0.403307 0.915060 0.003046
-7.433041 -7.086109 -0.422556 869 -0.403307 0.915060 0.003046
-7.433286 -7.086344 -0.419413 869 -0.403307 0.915060 0.003046
-7.433443 -7.086481 -0.416262 869 -0.403307 0.915060 0.003046
-7.434375 -7.087379 -0.413153 877 -0.403307 0.915060 0.003046
-7.434463 -7.087459 -0.409992 873 -0.403307 0.915060 0.003046
-7.434015 -7.087039 -0.406816 867 -0.403307 0.915060 0.003046
-7.434315 -7.087319 -0.403673 865 -0.403307 0.915060 0.003046
-7.434883 -7.087855 -0.400538 875 -0.403307 0.915060 0.003046
-7.434805 -7.087789 -0.397378 871 -0.403307 0.915060 0.003046
-7.434201 -7.087214 -0.394184 879 -0.403307 0.915060 0.003046
-7.433650 -7.086685 -0.390999 873 -0.403307 0.915060 0.003046
-7.433305 -7.086361 -0.387822 865 -0.403307 0.915060 0.003046
-7.433282 -7.086339 -0.384673 865 -0.403307 0.915060 0.003046
-7.433520 -7.086568 -0.381520 869 -0.403307 0.915060 0.003046
-7.433656 -7.086700 -0.378369 865 -0.403307 0.915060 0.003046
-7.433948 -7.086973 -0.375226 871 -0.403307 0.915060 0.003046
-7.433926 -7.086951 -0.372066 873 -0.403307 0.915060 0.003046
-7.433155 -7.086216 -0.368873 863 -0.403307 0.915060 0.003046
-7.432754 -7.085835 -0.365697 857 -0.403307 0.915060 0.003046
-7.432409 -7.085511 -0.362520 867 -0.403307 0.915060 0.003046
-7.433023 -7.086085 -0.359394 861 -0.403307 0.915060 0.003046
-7.433521 -7.086565 -0.356260 857 -0.403307 0.915060 0.003046
-7.434184 -7.087191 -0.353133 863 -0.403307 0.915060 0.003046
-7.434091 -7.087111 -0.349974 863 -0.403307 0.915060 0.003046
-7.433162 -7.086223 -0.346773 861 -0.403307 0.915060 0.003046
-7.433344 -7.086393 -0.343621 849 -0.403307 0.915060 0.003046
-7.433834 -7.086866 -0.340486 853 -0.403307 0.915060 0.003046
-7.434387 -7.087389 -0.337351 863 -0.403307 0.915060 0.003046
-7.435042 -7.088023 -0.334225 857 -0.403307 0.915060 0.003046
-7.434578 -7.087577 -0.331049 859 -0.403307 0.915060 0.003046
-7.434178 -7.087195 -0.327873 865 -0.403307 0.915060 0.003046
-7.434242 -7.087256 -0.324722 849 -0.403307 0.915060 0.003046
-7.434416 -7.087420 -0.321570 843 -0.403307 0.915060 0.003046
-7.434323 -7.087328 -0.318411 851 -0.403307 0.915060 0.003046
