786
-7.642503 -6.898403 -0.317320 561 0.733132 0.680086 0.000000
-7.642576 -6.898470 -0.314159 571 0.733132 0.680086 0.000000
-7.643842 -6.899606 -0.311037 597 0.733132 0.680086 0.000000
-7.643742 -6.899521 -0.307868 543 0.733132 0.680086 0.000000
-7.644377 -6.896025 -0.691301 549 0.733132 0.680086 0.000000
-7.645987 -6.897485 -0.688266 547 0.733132 0.680086 0.000000
-7.646297 -6.897768 -0.685113 551 0.733132 0.680086 0.000000
-7.646186 -6.897663 -0.681934 553 0.733132 0.680086 0.000000
-7.646013 -6.897508 -0.678736 543 0.733132 0.680086 0.000000
-7.645189 -6.896757 -0.675493 549 0.733132 0.680086 0.000000
-7.644850 -6.896458 -0.672286 563 0.733132 0.680086 0.000000
-7.645057 -6.896645 -0.669134 543 0.733132 0.680086 0.000000
-7.644987 -6.896585 -0.665945 563 0.733132 0.680086 0.000000
-7.645248 -6.896816 -0.662792 565 0.733132 0.680086 0.000000
-7.645724 -6.897244 -0.659658 545 0.733132 0.680086 0.000000
-7.645337 -6.896893 -0.656451 575 0.733132 0.680086 0.000000
-7.645321 -6.896877 -0.653282 573 0.733132 0.680086 0.000000
-7.645514 -6.897052 -0.650120 569 0.733132 0.680086 0.000000
-7.644580 -6.896214 -0.646868 565 0.733132 0.680086 0.000000
-7.643582 -6.895312 -0.643607 559 0.733132 0.680086 0.000000
-7.644320 -6.895974 -0.640501 577 0.733132 0.680086 0.000000
-7.645493 -6.897035 -0.637420 593 0.733132 0.680086 0.000000
-7.645470 -6.897013 -0.634250 575 0.733132 0.680086 0.000000
-7.645620 -6.897142 -0.631088 573 0.733132 0.680086 0.000000
-7.645217 -6.896779 -0.627882 565 0.733132 0.680086 0.000000
-7.644863 -6.896467 -0.624675 575 0.733132 0.680086 0.000000
-7.644785 -6.896401 -0.621496 577 0.733132 0.680086 0.000000
-7.645093 -6.896669 -0.618353 599 0.733132 0.680086 0.000000
-7.645998 -6.897490 -0.615244 599 0.733132 0.680086 0.000000
-7.647107 -6.898487 -0.612164 595 0.733132 0.680086 0.000000
-7.645722 -6.897237 -0.608877 575 0.733132 0.680086 0.000000
-7.644337 -6.895988 -0.605600 569 0.733132 0.680086 0.000000
-7.644804 -6.896409 -0.602465 557 0.733132 0.680086 0.000000
-7.644996 -6.896584 -0.599303 583 0.733132 0.680086 0.000000
-7.644742 -6.896352 -0.596116 585 0.733132 0.680086 0.000000
-7.644769 -6.896382 -0.592945 577 0.733132 0.680086 0.000000
-7.644904 -6.896499 -0.589784 571 0.733132 0.680086 0.000000
-7.645577 -6.897110 -0.586658 567 0.733132 0.680086 0.000000
-7.645167 -6.896740 -0.583461 581 0.733132 0.680086 0.000000
-7.644534 -6.896168 -0.580237 605 0.733132 0.680086 0.000000
-7.645755 -6.897266 -0.577156 615 0.733132 0.680086 0.000000
-7.646144 -6.897625 -0.574012 599 0.733132 0.680086 0.000000
-7.645740 -6.897248 -0.570816 583 0.733132 0.680086 0.000000
-7.644997 -6.896587 -0.567583 595 0.733132 0.680086 0.000000
-7.644039 -6.895717 -0.564341 595 0.733132 0.680086 0.000000
-7.645031 -6.896621 -0.561242 599 0.733132 0.680086 0.000000
-7.645704 -6.897218 -0.558126 605 0.733132 0.680086 0.000000
-7.645554 -6.897082 -0.554937 603 0.733132 0.680086 0.000000
-7.645515 -6.897048 -0.551767 615 0.733132 0.680086 0.000000
-7.644171 -6.895844 -0.548500 595 0.733132 0.680086 0.000000
-7.644464 -6.896099 -0.545357 589 0.733132 0.680086 0.000000
-7.644962 -6.896545 -0.542212 585 0.733132 0.680086 0.000000
-7.645076 -6.896657 -0.539051 577 0.733132 0.680086 0.000000
-7.644547 -6.896180 -0.535846 593 0.733132 0.680086 0.000000
-7.644451 -6.896088 -0.532667 589 0.733132 0.680086 0.000000
-7.644738 -6.896352 -0.529524 573 0.733132 0.680086 0.000000
-7.644421 -6.896057 -0.526327 577 0.733132 0.680086 0.000000
-7.645072 -6.896650 -0.523201 545 0.733132 0.680086 0.000000
-7.645842 -6.897350 -0.520084 567 0.733132 0.680086 0.000000
-7.646024 -6.897505 -0.516922 605 0.733132 0.680086 0.000000
-7.645652 -6.897166 -0.513735 597 0.733132 0.680086 0.000000
-7.645432 -6.896975 -0.510547 601 0.733132 0.680086 0.000000
-7.645600 -6.897130 -0.507385 583 0.733132 0.680086 0.000000
-7.645926 -6.897425 -0.504242 591 0.733132 0.680086 0.000000
-7.645236 -6.896794 -0.501029 595 0.733132 0.680086 0.000000
-7.644794 -6.896399 -0.497833 585 0.733132 0.680086 0.000000
-7.644526 -6.896156 -0.494645 597 0.733132 0.680086 0.000000
-7.644637 -6.896255 -0.491484 585 0.733132 0.680086 0.000000
-7.646048 -6.897531 -0.488401 593 0.733132 0.680086 0.000000
-7.645834 -6.897331 -0.485223 589 0.733132 0.680086 0.000000
-7.644260 -6.895918 -0.481957 605 0.733132 0.680086 0.000000
-7.644689 -6.896308 -0.478813 595 0.733132 0.680086 0.000000
-7.645663 -6.897184 -0.475704 631 0.733132 0.680086 0.000000
-7.645395 -6.896941 -0.472517 623 0.733132 0.680086 0.000000
-7.645173 -6.896735 -0.469339 597 0.733132 0.680086 0.000000
-7.645111 -6.896682 -0.466159 577 0.733132 0.680086 0.000000
-7.645382 -6.896933 -0.463006 605 0.733132 0.680086 0.000000
-7.645747 -6.897259 -0.459863 609 0.733132 0.680086 0.000000
-7.645962 -6.897452 -0.456711 591 0.733132 0.680086 0.000000
-7.645740 -6.897246 -0.453523 573 0.733132 0.680086 0.000000
-7.644807 -6.896409 -0.450302 589 0.733132 0.680086 0.000000
-7.644585 -6.896203 -0.447124 575 0.733132 0.680086 0.000000
-7.646417 -6.897866 -0.444067 601 0.733132 0.680086 0.000000
-7.645712 -6.897223 -0.440853 607 0.733132 0.680086 0.000000
-7.644660 -6.896277 -0.437623 597 0.733132 0.680086 0.000000
-7.646007 -6.897490 -0.434530 601 0.733132 0.680086 0.000000
-7.646594 -6.898019 -0.431395 625 0.733132 0.680086 0.000000
-7.645985 -6.897465 -0.428200 599 0.733132 0.680086 0.000000
-7.645700 -6.897209 -0.425013 593 0.733132 0.680086 0.000000
-7.645464 -6.897005 -0.421835 587 0.733132 0.680086 0.000000
-7.645893 -6.897381 -0.418691 623 0.733132 0.680086 0.000000
-7.646083 -6.897555 -0.415529 621 0.733132 0.680086 0.000000
-7.645468 -6.897010 -0.412335 609 0.733132 0.680086 0.000000
-7.645895 -6.897385 -0.409191 605 0.733132 0.680086 0.000000
-7.646142 -6.897618 -0.406038 577 0.733132 0.680086 0.000000
-7.644993 -6.896569 -0.402809 565 0.733132 0.680086 0.000000
-7.644854 -6.896455 -0.399640 571 0.733132 0.680086 0.000000
-7.645107 -6.896679 -0.396477 589 0.733132 0.680086 0.000000
-7.644387 -6.896024 -0.393284 555 0.733132 0.680086 0.000000
-7.644855 -6.896445 -0.390140 565 0.733132 0.680086 0.000000
-7.645529 -6.897057 -0.387003 575 0.733132 0.680086 0.000000
-7.645237 -6.896794 -0.383826 575 0.733132 0.680086 0.000000
-7.645159 -6.896729 -0.380657 573 0.733132 0.680086 0.000000
-7.645460 -6.896991 -0.377504 579 0.733132 0.680086 0.000000
-7.645541 -6.897064 -0.374343 561 0.733132 0.680086 0.000000
-7.644813 -6.896416 -0.371140 555 0.733132 0.680086 0.000000
-7.643919 -6.895610 -0.367928 569 0.733132 0.680086 0.000000
-7.645083 -6.896651 -0.364817 573 0.733132 0.680086 0.000000
-7.645925 -6.897421 -0.361689 577 0.733132 0.680086 0.000000
-7.645466 -6.897000 -0.358503 583 0.733132 0.680086 0.000000
-7.644730 -6.896332 -0.355310 561 0.733132 0.680086 0.000000
-7.644645 -6.896261 -0.352141 573 0.733132 0.680086 0.000000
-7.646079 -6.897555 -0.349037 603 0.733132 0.680086 0.000000
-7.646532 -6.897964 -0.345893 597 0.733132 0.680086 0.000000
-7.646231 -6.897696 -0.342716 561 0.733132 0.680086 0.000000
-7.646795 -6.898206 -0.339571 569 0.733132 0.680086 0.000000
-7.646756 -6.898172 -0.336401 593 0.733132 0.680086 0.000000
-7.645861 -6.897351 -0.333199 579 0.733132 0.680086 0.000000
-7.646044 -6.897519 -0.330037 573 0.733132 0.680086 0.000000
-7.645625 -6.897143 -0.326861 569 0.733132 0.680086 0.000000
-7.644059 -6.895737 -0.323625 555 0.733132 0.680086 0.000000
-7.645057 -6.896632 -0.320506 541 0.733132 0.680086 0.000000
-7.645724 -6.897237 -0.317370 563 0.733132 0.680086 0.000000
-7.644765 -6.896367 -0.314159 583 0.733132 0.680086 0.000000
-7.645757 -6.897270 -0.311039 581 0.733132 0.680086 0.000000
-7.645877 -6.897375 -0.307878 577 0.733132 0.680086 0.000000
-7.647387 -6.894755 -0.691393 551 0.733132 0.680086 0.000000
-7.647643 -6.894993 -0.688241 571 0.733132 0.680086 0.000000
-7.647206 -6.894591 -0.685024 575 0.733132 0.680086 0.000000
-7.647310 -6.894683 -0.681853 559 0.733132 0.680086 0.000000
-7.646860 -6.894282 -0.678638 555 0.733132 0.680086 0.000000
-7.646141 -6.893640 -0.675404 559 0.733132 0.680086 0.000000
-7.646616 -6.894068 -0.672270 563 0.733132 0.680086 0.000000
-7.646720 -6.894160 -0.669109 549 0.733132 0.680086 0.000000
-7.645842 -6.893365 -0.665857 565 0.733132 0.680086 0.000000
-7.646144 -6.893641 -0.662704 581 0.733132 0.680086 0.000000
-7.647546 -6.894898 -0.659651 555 0.733132 0.680086 0.000000
-7.647476 -6.894838 -0.656471 563 0.733132 0.680086 0.000000
-7.647143 -6.894531 -0.653264 555 0.733132 0.680086 0.000000
-7.647168 -6.894560 -0.650094 571 0.733132 0.680086 0.000000
-7.646987 -6.894400 -0.646906 579 0.733132 0.680086 0.000000
-7.646869 -6.894289 -0.643717 561 0.733132 0.680086 0.000000
-7.647115 -6.894507 -0.640564 575 0.733132 0.680086 0.000000
-7.647100 -6.894492 -0.637394 583 0.733132 0.680086 0.000000
-7.646048 -6.893546 -0.634134 545 0.733132 0.680086 0.000000
-7.646404 -6.893866 -0.630991 539 0.733132 0.680086 0.000000
-7.647309 -6.894687 -0.627892 553 0.733132 0.680086 0.000000
-7.647175 -6.894564 -0.624703 571 0.733132 0.680086 0.000000
-7.647317 -6.894687 -0.621542 597 0.733132 0.680086 0.000000
-7.646695 -6.894134 -0.618318 589 0.733132 0.680086 0.000000
-7.647162 -6.894555 -0.615183 595 0.733132 0.680086 0.000000
-7.647954 -6.895261 -0.612076 601 0.733132 0.680086 0.000000
-7.647931 -6.895238 -0.608896 585 0.733132 0.680086 0.000000
-7.647900 -6.895210 -0.605726 583 0.733132 0.680086 0.000000
-7.646943 -6.894354 -0.602475 585 0.733132 0.680086 0.000000
-7.646595 -6.894034 -0.599278 599 0.733132 0.680086 0.000000
-7.646509 -6.893962 -0.596099 581 0.733132 0.680086 0.000000
-7.646533 -6.893978 -0.592929 573 0.733132 0.680086 0.000000
-7.647153 -6.894546 -0.589803 577 0.733132 0.680086 0.000000
-7.647779 -6.895106 -0.586677 569 0.733132 0.680086 0.000000
-7.647534 -6.894881 -0.583489 577 0.733132 0.680086 0.000000
-7.647274 -6.894658 -0.580291 619 0.733132 0.680086 0.000000
-7.647790 -6.895117 -0.577167 611 0.733132 0.680086 0.000000
-7.647862 -6.895184 -0.573996 599 0.733132 0.680086 0.000000
-7.647555 -6.894909 -0.570799 581 0.733132 0.680086 0.000000
-7.647571 -6.894919 -0.567628 591 0.733132 0.680086 0.000000
-7.647437 -6.894795 -0.564450 605 0.733132 0.680086 0.000000
-7.647612 -6.894957 -0.561288 601 0.733132 0.680086 0.000000
-7.647034 -6.894429 -0.558073 589 0.733132 0.680086 0.000000
-7.646173 -6.893661 -0.554851 585 0.733132 0.680086 0.000000
-7.646736 -6.894171 -0.551716 591 0.733132 0.680086 0.000000
-7.647078 -6.894478 -0.548572 595 0.733132 0.680086 0.000000
-7.647308 -6.894684 -0.545410 599 0.733132 0.680086 0.000000
-7.647649 -6.894991 -0.542267 603 0.733132 0.680086 0.000000
-7.646851 -6.894274 -0.539044 585 0.733132 0.680086 0.000000
-7.646914 -6.894320 -0.535874 581 0.733132 0.680086 0.000000
-7.647089 -6.894483 -0.532722 575 0.733132 0.680086 0.000000
-7.647097 -6.894485 -0.529552 587 0.733132 0.680086 0.000000
-7.647868 -6.895186 -0.526425 603 0.733132 0.680086 0.000000
-7.647551 -6.894892 -0.523238 577 0.733132 0.680086 0.000000
-7.647614 -6.894952 -0.520077 569 0.733132 0.680086 0.000000
-7.647568 -6.894911 -0.516897 583 0.733132 0.680086 0.000000
-7.646436 -6.893890 -0.513658 571 0.733132 0.680086 0.000000
-7.646762 -6.894185 -0.510505 573 0.733132 0.680086 0.000000
-7.646881 -6.894289 -0.507343 575 0.733132 0.680086 0.000000
-7.647318 -6.894685 -0.504199 601 0.733132 0.680086 0.000000
-7.647367 -6.894734 -0.501039 585 0.733132 0.680086 0.000000
-7.647320 -6.894693 -0.497869 583 0.733132 0.680086 0.000000
-7.647701 -6.895031 -0.494726 613 0.733132 0.680086 0.000000
-7.646838 -6.894250 -0.491493 605 0.733132 0.680086 0.000000
-7.647331 -6.894704 -0.488359 609 0.733132 0.680086 0.000000
-7.648637 -6.895871 -0.485267 623 0.733132 0.680086 0.000000
-7.647650 -6.894989 -0.482046 631 0.733132 0.680086 0.000000
-7.647104 -6.894500 -0.478841 609 0.733132 0.680086 0.000000
-7.647540 -6.894882 -0.475697 599 0.733132 0.680086 0.000000
-7.647382 -6.894740 -0.472518 607 0.733132 0.680086 0.000000
-7.648079 -6.895370 -0.469391 597 0.733132 0.680086 0.000000
-7.647803 -6.895121 -0.466204 567 0.733132 0.680086 0.000000
-7.646919 -6.894334 -0.462982 563 0.733132 0.680086 0.000000
-7.646982 -6.894381 -0.459821 585 0.733132 0.680086 0.000000
-7.647672 -6.895005 -0.456695 579 0.733132 0.680086 0.000000
-7.647561 -6.894900 -0.453516 573 0.733132 0.680086 0.000000
-7.647285 -6.894651 -0.450338 589 0.733132 0.680086 0.000000
-7.647334 -6.894699 -0.447168 585 0.733132 0.680086 0.000000
-7.647208 -6.894582 -0.443999 587 0.733132 0.680086 0.000000
-7.647525 -6.894870 -0.440846 609 0.733132 0.680086 0.000000
-7.647352 -6.894716 -0.437667 591 0.733132 0.680086 0.000000
-7.646957 -6.894359 -0.434481 585 0.733132 0.680086 0.000000
-7.646998 -6.894401 -0.431310 585 0.733132 0.680086 0.000000
-7.647474 -6.894828 -0.428176 617 0.733132 0.680086 0.000000
-7.646658 -6.894084 -0.424964 601 0.733132 0.680086 0.000000
-7.646366 -6.893822 -0.421776 593 0.733132 0.680086 0.000000
-7.647596 -6.894941 -0.418675 611 0.733132 0.680086 0.000000
-7.647421 -6.894772 -0.415496 611 0.733132 0.680086 0.000000
-7.646749 -6.894168 -0.412302 599 0.733132 0.680086 0.000000
-7.646354 -6.893811 -0.409116 609 0.733132 0.680086 0.000000
-7.646822 -6.894233 -0.405972 597 0.733132 0.680086 0.000000
-7.646911 -6.894312 -0.402811 595 0.733132 0.680086 0.000000
-7.646245 -6.893714 -0.399607 569 0.733132 0.680086 0.000000
-7.646334 -6.893794 -0.396446 577 0.733132 0.680086 0.000000
-7.646470 -6.893925 -0.393284 569 0.733132 0.680086 0.000000
-7.646399 -6.893852 -0.390115 561 0.733132 0.680086 0.000000
-7.647185 -6.894565 -0.386988 607 0.733132 0.680086 0.000000
-7.647384 -6.894745 -0.383836 603 0.733132 0.680086 0.000000
-7.647353 -6.894717 -0.380666 583 0.733132 0.680086 0.000000
-7.647995 -6.895290 -0.377530 589 0.733132 0.680086 0.000000
-7.647583 -6.894920 -0.374344 583 0.733132 0.680086 0.000000
-7.646738 -6.894165 -0.371141 557 0.733132 0.680086 0.000000
-7.646818 -6.894239 -0.367971 559 0.733132 0.680086 0.000000
-7.647065 -6.894457 -0.364818 587 0.733132 0.680086 0.000000
-7.646875 -6.894290 -0.361650 589 0.733132 0.680086 0.000000
-7.646139 -6.893622 -0.358447 571 0.733132 0.680086 0.000000
-7.646434 -6.893892 -0.355294 583 0.733132 0.680086 0.000000
-7.647440 -6.894794 -0.352175 583 0.733132 0.680086 0.000000
-7.648280 -6.895551 -0.349047 583 0.733132 0.680086 0.000000
-7.647164 -6.894541 -0.345827 585 0.733132 0.680086 0.000000
-7.646691 -6.894122 -0.342641 557 0.733132 0.680086 0.000000
-7.647475 -6.894821 -0.339514 569 0.733132 0.680086 0.000000
-7.647444 -6.894793 -0.336344 565 0.733132 0.680086 0.000000
-7.647841 -6.895158 -0.333200 599 0.733132 0.680086 0.000000
-7.648182 -6.895464 -0.330047 569 0.733132 0.680086 0.000000
-7.647978 -6.895286 -0.326879 583 0.733132 0.680086 0.000000
-7.647456 -6.894814 -0.323684 557 0.733132 0.680086 0.000000
-7.647258 -6.894628 -0.320516 541 0.733132 0.680086 0.000000
-7.647117 -6.894498 -0.317347 583 0.733132 0.680086 0.000000
-7.647610 -6.894952 -0.314202 599 0.733132 0.680086 0.000000
-7.648125 -6.895411 -0.311057 587 0.733132 0.680086 0.000000
-7.647587 -6.894927 -0.307872 565 0.733132 0.680086 0.000000
-7.649546 -6.892562 -0.691403 567 0.733132 0.680086 0.000000
-7.648674 -6.891774 -0.688151 553 0.733132 0.680086 0.000000
-7.648287 -6.891423 -0.684935 561 0.733132 0.680086 0.000000
-7.649143 -6.892192 -0.681837 535 0.733132 0.680086 0.000000
-7.649192 -6.892241 -0.678666 543 0.733132 0.680086 0.000000
-7.648251 -6.891397 -0.675405 557 0.733132 0.680086 0.000000
-7.648955 -6.892019 -0.672298 565 0.733132 0.680086 0.000000
-7.648997 -6.892062 -0.669128 573 0.733132 0.680086 0.000000
-7.648609 -6.891710 -0.665912 573 0.733132 0.680086 0.000000
-7.649616 -6.892626 -0.662832 563 0.733132 0.680086 0.000000
-7.650036 -6.892995 -0.659688 585 0.733132 0.680086 0.000000
-7.648937 -6.892013 -0.656418 563 0.733132 0.680086 0.000000
-7.648493 -6.891604 -0.653212 563 0.733132 0.680086 0.000000
-7.648907 -6.891982 -0.650068 573 0.733132 0.680086 0.000000
-7.650031 -6.892991 -0.646988 567 0.733132 0.680086 0.000000
-7.649525 -6.892532 -0.643773 565 0.733132 0.680086 0.000000
-7.648584 -6.891688 -0.640521 555 0.733132 0.680086 0.000000
-7.648346 -6.891469 -0.637323 563 0.733132 0.680086 0.000000
-7.647786 -6.890967 -0.634108 583 0.733132 0.680086 0.000000
-7.649394 -6.892413 -0.631063 585 0.733132 0.680086 0.000000
-7.649861 -6.892834 -0.627929 579 0.733132 0.680086 0.000000
-7.649190 -6.892231 -0.624705 569 0.733132 0.680086 0.000000
-7.649595 -6.892601 -0.621561 573 0.733132 0.680086 0.000000
-7.649136 -6.892180 -0.618356 579 0.733132 0.680086 0.000000
-7.648575 -6.891678 -0.615131 591 0.733132 0.680086 0.000000
-7.649138 -6.892189 -0.612005 575 0.733132 0.680086 0.000000
-7.650041 -6.892994 -0.608907 577 0.733132 0.680086 0.000000
-7.650289 -6.893228 -0.605745 591 0.733132 0.680086 0.000000
-7.649821 -6.892800 -0.602539 607 0.733132 0.680086 0.000000
-7.649142 -6.892190 -0.599315 609 0.733132 0.680086 0.000000
-7.648897 -6.891965 -0.596127 581 0.733132 0.680086 0.000000
-7.649137 -6.892191 -0.592975 589 0.733132 0.680086 0.000000
-7.649002 -6.892068 -0.589786 569 0.733132 0.680086 0.000000
-7.648860 -6.891939 -0.586607 561 0.733132 0.680086 0.000000
-7.648615 -6.891714 -0.583410 559 0.733132 0.680086 0.000000
-7.649013 -6.892078 -0.580276 593 0.733132 0.680086 0.000000
-7.649963 -6.892923 -0.577167 597 0.733132 0.680086 0.000000
-7.650146 -6.893092 -0.574015 595 0.733132 0.680086 0.000000
-7.649893 -6.892860 -0.570827 595 0.733132 0.680086 0.000000
-7.649371 -6.892389 -0.567612 581 0.733132 0.680086 0.000000
-7.649603 -6.892609 -0.564460 585 0.733132 0.680086 0.000000
-7.650491 -6.893404 -0.561352 605 0.733132 0.680086 0.000000
-7.649746 -6.892729 -0.558129 591 0.733132 0.680086 0.000000
-7.648782 -6.891866 -0.554887 563 0.733132 0.680086 0.000000
-7.648687 -6.891774 -0.551708 585 0.733132 0.680086 0.000000
-7.648648 -6.891740 -0.548538 599 0.733132 0.680086 0.000000
-7.648666 -6.891764 -0.545368 603 0.733132 0.680086 0.000000
-7.648468 -6.891576 -0.542180 593 0.733132 0.680086 0.000000
-7.648587 -6.891681 -0.539019 573 0.733132 0.680086 0.000000
-7.648866 -6.891938 -0.535866 581 0.733132 0.680086 0.000000
-7.649414 -6.892436 -0.532741 583 0.733132 0.680086 0.000000
-7.649975 -6.892932 -0.529606 579 0.733132 0.680086 0.000000
-7.649169 -6.892208 -0.526383 587 0.733132 0.680086 0.000000
-7.648576 -6.891680 -0.523169 557 0.733132 0.680086 0.000000
-7.648530 -6.891639 -0.519999 569 0.733132 0.680086 0.000000
-7.647667 -6.890858 -0.516767 577 0.733132 0.680086 0.000000
-7.647898 -6.891064 -0.513615 587 0.733132 0.680086 0.000000
-7.648057 -6.891214 -0.510463 595 0.733132 0.680086 0.000000
-7.648074 -6.891223 -0.507293 575 0.733132 0.680086 0.000000
-7.648842 -6.891910 -0.504166 563 0.733132 0.680086 0.000000
-7.649708 -6.892700 -0.501058 583 0.733132 0.680086 0.000000
-7.649707 -6.892696 -0.497887 589 0.733132 0.680086 0.000000
-7.649605 -6.892598 -0.494708 617 0.733132 0.680086 0.000000
-7.648956 -6.892013 -0.491504 623 0.733132 0.680086 0.000000
-7.648625 -6.891719 -0.488317 625 0.733132 0.680086 0.000000
-7.649014 -6.892064 -0.485164 615 0.733132 0.680086 0.000000
-7.648627 -6.891726 -0.481977 575 0.733132 0.680086 0.000000
-7.649442 -6.892451 -0.478859 573 0.733132 0.680086 0.000000
-7.650148 -6.893087 -0.475733 619 0.733132 0.680086 0.000000
-7.649983 -6.892940 -0.472554 625 0.733132 0.680086 0.000000
-7.650086 -6.893031 -0.469393 615 0.733132 0.680086 0.000000
-7.650731 -6.893618 -0.466257 605 0.733132 0.680086 0.000000
-7.650185 -6.893128 -0.463062 611 0.733132 0.680086 0.000000
-7.648498 -6.891599 -0.459788 579 0.733132 0.680086 0.000000
-7.648705 -6.891787 -0.456636 585 0.733132 0.680086 0.000000
-7.649459 -6.892474 -0.453509 615 0.733132 0.680086 0.000000
-7.649666 -6.892662 -0.450357 607 0.733132 0.680086 0.000000
-7.649119 -6.892158 -0.447152 571 0.733132 0.680086 0.000000
-7.649548 -6.892548 -0.444008 583 0.733132 0.680086 0.000000
-7.649429 -6.892437 -0.440839 583 0.733132 0.680086 0.000000
-7.648331 -6.891454 -0.437609 565 0.733132 0.680086 0.000000
-7.649075 -6.892122 -0.434482 563 0.733132 0.680086 0.000000
-7.649448 -6.892454 -0.431338 589 0.733132 0.680086 0.000000
-7.649923 -6.892881 -0.428194 621 0.733132 0.680086 0.000000
-7.650614 -6.893506 -0.425067 615 0.733132 0.680086 0.000000
-7.650267 -6.893199 -0.421880 585 0.733132 0.680086 0.000000
-7.649547 -6.892544 -0.418677 585 0.733132 0.680086 0.000000
-7.649477 -6.892485 -0.415498 599 0.733132 0.680086 0.000000
-7.649303 -6.892331 -0.412329 581 0.733132 0.680086 0.000000
-7.649503 -6.892512 -0.409167 601 0.733132 0.680086 0.000000
-7.649590 -6.892591 -0.406006 603 0.733132 0.680086 0.000000
-7.649741 -6.892721 -0.402845 573 0.733132 0.680086 0.000000
-7.650155 -6.893098 -0.399701 591 0.733132 0.680086 0.000000
-7.650021 -6.892974 -0.396532 569 0.733132 0.680086 0.000000
-7.650171 -6.893105 -0.393371 577 0.733132 0.680086 0.000000
-7.650094 -6.893039 -0.390201 581 0.733132 0.680086 0.000000
-7.650388 -6.893309 -0.387049 579 0.733132 0.680086 0.000000
-7.650150 -6.893090 -0.383871 589 0.733132 0.680086 0.000000
-7.649693 -6.892683 -0.380675 601 0.733132 0.680086 0.000000
-7.649613 -6.892603 -0.377506 609 0.733132 0.680086 0.000000
-7.649536 -6.892538 -0.374336 593 0.733132 0.680086 0.000000
-7.649339 -6.892365 -0.371168 581 0.733132 0.680086 0.000000
-7.649157 -6.892190 -0.367990 571 0.733132 0.680086 0.000000
-7.649356 -6.892371 -0.364828 583 0.733132 0.680086 0.000000
-7.649436 -6.892445 -0.361667 579 0.733132 0.680086 0.000000
-7.649120 -6.892163 -0.358490 565 0.733132 0.680086 0.000000
-7.649693 -6.892680 -0.355354 585 0.733132 0.680086 0.000000
-7.649669 -6.892658 -0.352184 581 0.733132 0.680086 0.000000
-7.649631 -6.892624 -0.349015 561 0.733132 0.680086 0.000000
-7.650367 -6.893285 -0.345888 565 0.733132 0.680086 0.000000
-7.650274 -6.893207 -0.342719 537 0.733132 0.680086 0.000000
-7.649261 -6.892293 -0.339508 541 0.733132 0.680086 0.000000
-7.648628 -6.891720 -0.336314 545 0.733132 0.680086 0.000000
-7.648921 -6.891976 -0.333161 565 0.733132 0.680086 0.000000
-7.649105 -6.892145 -0.329999 563 0.733132 0.680086 0.000000
-7.649122 -6.892168 -0.326839 565 0.733132 0.680086 0.000000
-7.649692 -6.892671 -0.323694 567 0.733132 0.680086 0.000000
-7.649702 -6.892688 -0.320533 569 0.733132 0.680086 0.000000
-7.649883 -6.892842 -0.317372 595 0.733132 0.680086 0.000000
-7.649735 -6.892721 -0.314203 601 0.733132 0.680086 0.000000
-7.649315 -6.892330 -0.311017 565 0.733132 0.680086 0.000000
-7.648842 -6.891911 -0.307841 559 0.733132 0.680086 0.000000
-7.650889 -6.889451 -0.691332 555 0.733132 0.680086 0.000000
-7.651746 -6.890220 -0.688234 543 0.733132 0.680086 0.000000
-7.652112 -6.890561 -0.685091 587 0.733132 0.680086 0.000000
-7.651613 -6.890107 -0.681865 567 0.733132 0.680086 0.000000
-7.651440 -6.889953 -0.678677 565 0.733132 0.680086 0.000000
-7.652138 -6.890584 -0.675560 573 0.733132 0.680086 0.000000
-7.652234 -6.890669 -0.672399 555 0.733132 0.680086 0.000000
-7.651410 -6.889919 -0.669147 561 0.733132 0.680086 0.000000
-7.651886 -6.890346 -0.666013 579 0.733132 0.680086 0.000000
-7.650841 -6.889407 -0.662752 557 0.733132 0.680086 0.000000
-7.649693 -6.888372 -0.659483 555 0.733132 0.680086 0.000000
-7.651302 -6.889818 -0.656438 551 0.733132 0.680086 0.000000
-7.651889 -6.890348 -0.653312 559 0.733132 0.680086 0.000000
-7.651985 -6.890434 -0.650151 557 0.733132 0.680086 0.000000
-7.652605 -6.891001 -0.647025 543 0.733132 0.680086 0.000000
-7.652652 -6.891036 -0.643855 543 0.733132 0.680086 0.000000
-7.650942 -6.889502 -0.640541 541 0.733132 0.680086 0.000000
-7.650602 -6.889188 -0.637334 551 0.733132 0.680086 0.000000
-7.652322 -6.890736 -0.634308 583 0.733132 0.680086 0.000000
-7.651918 -6.890373 -0.631101 569 0.733132 0.680086 0.000000
-7.651841 -6.890307 -0.627922 569 0.733132 0.680086 0.000000
-7.652966 -6.891316 -0.624832 573 0.733132 0.680086 0.000000
-7.652991 -6.891346 -0.621661 601 0.733132 0.680086 0.000000
-7.651987 -6.890438 -0.618411 591 0.733132 0.680086 0.000000
-7.651100 -6.889637 -0.615169 593 0.733132 0.680086 0.000000
-7.650482 -6.889077 -0.611944 575 0.733132 0.680086 0.000000
-7.650500 -6.889101 -0.608774 567 0.733132 0.680086 0.000000
-7.651022 -6.889565 -0.605639 593 0.733132 0.680086 0.000000
-7.651919 -6.890380 -0.602541 587 0.733132 0.680086 0.000000
-7.651832 -6.890294 -0.599362 575 0.733132 0.680086 0.000000
-7.651153 -6.889684 -0.596138 571 0.733132 0.680086 0.000000
-7.651129 -6.889662 -0.592958 529 0.733132 0.680086 0.000000
-7.651684 -6.890165 -0.589833 543 0.733132 0.680086 0.000000
-7.651986 -6.890428 -0.586680 593 0.733132 0.680086 0.000000
-7.651734 -6.890212 -0.583492 601 0.733132 0.680086 0.000000
-7.650784 -6.889347 -0.580251 597 0.733132 0.680086 0.000000
-7.650641 -6.889217 -0.577062 589 0.733132 0.680086 0.000000
-7.651094 -6.889626 -0.573928 589 0.733132 0.680086 0.000000
-7.651872 -6.890333 -0.570810 585 0.733132 0.680086 0.000000
-7.652594 -6.890982 -0.567694 593 0.733132 0.680086 0.000000
-7.651588 -6.890073 -0.564453 591 0.733132 0.680086 0.000000
-7.651225 -6.889741 -0.561246 639 0.733132 0.680086 0.000000
-7.651131 -6.889663 -0.558077 615 0.733132 0.680086 0.000000
-7.651575 -6.890066 -0.554933 595 0.733132 0.680086 0.000000
-7.651377 -6.889878 -0.551745 597 0.733132 0.680086 0.000000
-7.650627 -6.889212 -0.548521 599 0.733132 0.680086 0.000000
-7.651411 -6.889911 -0.545414 595 0.733132 0.680086 0.000000
-7.651744 -6.890213 -0.542261 599 0.733132 0.680086 0.000000
-7.651871 -6.890323 -0.539100 591 0.733132 0.680086 0.000000
-7.652427 -6.890827 -0.535965 595 0.733132 0.680086 0.000000
-7.651558 -6.890053 -0.532742 605 0.733132 0.680086 0.000000
-7.651582 -6.890069 -0.529572 619 0.733132 0.680086 0.000000
-7.651045 -6.889585 -0.526367 575 0.733132 0.680086 0.000000
-7.650396 -6.888999 -0.523153 575 0.733132 0.680086 0.000000
-7.651283 -6.889794 -0.520035 577 0.733132 0.680086 0.000000
-7.651989 -6.890430 -0.516918 593 0.733132 0.680086 0.000000
-7.652053 -6.890491 -0.513747 595 0.733132 0.680086 0.000000
-7.651792 -6.890254 -0.510560 591 0.733132 0.680086 0.000000
-7.651627 -6.890106 -0.507381 593 0.733132 0.680086 0.000000
-7.651311 -6.889825 -0.504194 593 0.733132 0.680086 0.000000
-7.651741 -6.890215 -0.501050 605 0.733132 0.680086 0.000000
-7.651803 -6.890262 -0.497889 597 0.733132 0.680086 0.000000
-7.651155 -6.889677 -0.494675 601 0.733132 0.680086 0.000000
-7.651260 -6.889782 -0.491514 601 0.733132 0.680086 0.000000
-7.651863 -6.890325 -0.488379 613 0.733132 0.680086 0.000000
-7.651484 -6.889980 -0.485192 597 0.733132 0.680086 0.000000
-7.651318 -6.889831 -0.482013 599 0.733132 0.680086 0.000000
-7.650993 -6.889530 -0.478826 595 0.733132 0.680086 0.000000
-7.650988 -6.889535 -0.475656 581 0.733132 0.680086 0.000000
-7.651748 -6.890215 -0.472529 593 0.733132 0.680086 0.000000
-7.651900 -6.890358 -0.469368 625 0.733132 0.680086 0.000000
-7.651521 -6.890014 -0.466181 599 0.733132 0.680086 0.000000
-7.651458 -6.889960 -0.463012 579 0.733132 0.680086 0.000000
-7.651071 -6.889609 -0.459815 567 0.733132 0.680086 0.000000
-7.651562 -6.890049 -0.456681 593 0.733132 0.680086 0.000000
-7.652038 -6.890477 -0.453536 589 0.733132 0.680086 0.000000
-7.651920 -6.890367 -0.450367 605 0.733132 0.680086 0.000000
-7.652134 -6.890560 -0.447205 601 0.733132 0.680086 0.000000
-7.652721 -6.891088 -0.444070 607 0.733132 0.680086 0.000000
-7.652493 -6.890890 -0.440892 589 0.733132 0.680086 0.000000
-7.651772 -6.890235 -0.437678 599 0.733132 0.680086 0.000000
-7.651219 -6.889739 -0.434483 579 0.733132 0.680086 0.000000
-7.652029 -6.890470 -0.431366 599 0.733132 0.680086 0.000000
-7.652227 -6.890651 -0.428204 621 0.733132 0.680086 0.000000
-7.651190 -6.889704 -0.424983 617 0.733132 0.680086 0.000000
-7.651500 -6.889987 -0.421830 609 0.733132 0.680086 0.000000
-7.651637 -6.890118 -0.418669 597 0.733132 0.680086 0.000000
-7.651304 -6.889811 -0.415482 607 0.733132 0.680086 0.000000
-7.651448 -6.889948 -0.412331 603 0.733132 0.680086 0.000000
-7.651156 -6.889686 -0.409143 587 0.733132 0.680086 0.000000
-7.651093 -6.889618 -0.405974 599 0.733132 0.680086 0.000000
-7.651831 -6.890295 -0.402847 609 0.733132 0.680086 0.000000
-7.652409 -6.890802 -0.399711 605 0.733132 0.680086 0.000000
-7.652393 -6.890787 -0.396542 595 0.733132 0.680086 0.000000
-7.651604 -6.890090 -0.393339 571 0.733132 0.680086 0.000000
-7.651636 -6.890112 -0.390168 585 0.733132 0.680086 0.000000
-7.651455 -6.889951 -0.386990 581 0.733132 0.680086 0.000000
-7.651804 -6.890264 -0.383847 599 0.733132 0.680086 0.000000
-7.652280 -6.890692 -0.380702 601 0.733132 0.680086 0.000000
-7.651323 -6.889836 -0.377491 603 0.733132 0.680086 0.000000
-7.651569 -6.890054 -0.374339 587 0.733132 0.680086 0.000000
-7.652369 -6.890765 -0.371211 589 0.733132 0.680086 0.000000
-7.652172 -6.890592 -0.368033 569 0.733132 0.680086 0.000000
-7.652253 -6.890666 -0.364872 605 0.733132 0.680086 0.000000
-7.652610 -6.890985 -0.361719 603 0.733132 0.680086 0.000000
-7.652579 -6.890957 -0.358549 595 0.733132 0.680086 0.000000
-7.652217 -6.890639 -0.355372 585 0.733132 0.680086 0.000000
-7.652684 -6.891060 -0.352228 585 0.733132 0.680086 0.000000
-7.651894 -6.890348 -0.349025 587 0.733132 0.680086 0.000000
-7.650501 -6.889093 -0.345798 573 0.733132 0.680086 0.000000
-7.651230 -6.889748 -0.342661 583 0.733132 0.680086 0.000000
-7.651571 -6.890056 -0.339508 571 0.733132 0.680086 0.000000
-7.651976 -6.890413 -0.336364 549 0.733132 0.680086 0.000000
-7.652428 -6.890821 -0.333220 561 0.733132 0.680086 0.000000
-7.652562 -6.890938 -0.330058 587 0.733132 0.680086 0.000000
-7.653229 -6.891543 -0.326922 581 0.733132 0.680086 0.000000
-7.652708 -6.891072 -0.323737 569 0.733132 0.680086 0.000000
-7.651908 -6.890355 -0.320534 567 0.733132 0.680086 0.000000
-7.651213 -6.889733 -0.317341 571 0.733132 0.680086 0.000000
-7.652377 -6.890773 -0.314220 585 0.733132 0.680086 0.000000
-7.653251 -6.891569 -0.311092 593 0.733132 0.680086 0.000000
-7.652514 -6.890902 -0.307898 577 0.733132 0.680086 0.000000
-7.653880 -6.887756 -0.691406 555 0.733132 0.680086 0.000000
-7.653333 -6.887252 -0.688181 539 0.733132 0.680086 0.000000
-7.653976 -6.887838 -0.685055 561 0.733132 0.680086 0.000000
-7.653478 -6.887386 -0.681840 545 0.733132 0.680086 0.000000
-7.652655 -6.886650 -0.678597 539 0.733132 0.680086 0.000000
-7.652586 -6.886590 -0.675408 539 0.733132 0.680086 0.000000
-7.653061 -6.887018 -0.672283 549 0.733132 0.680086 0.000000
-7.653917 -6.887787 -0.669176 557 0.733132 0.680086 0.000000
-7.654068 -6.887917 -0.666014 559 0.733132 0.680086 0.000000
-7.654220 -6.888061 -0.662853 553 0.733132 0.680086 0.000000
-7.653990 -6.887848 -0.659655 555 0.733132 0.680086 0.000000
-7.654301 -6.888130 -0.656512 543 0.733132 0.680086 0.000000
-7.654776 -6.888558 -0.653377 557 0.733132 0.680086 0.000000
-7.653510 -6.887415 -0.650099 539 0.733132 0.680086 0.000000
-7.652631 -6.886621 -0.646847 507 0.733132 0.680086 0.000000
-7.653528 -6.887436 -0.643749 537 0.733132 0.680086 0.000000
-7.653885 -6.887755 -0.640605 551 0.733132 0.680086 0.000000
-7.653490 -6.887398 -0.637399 579 0.733132 0.680086 0.000000
-7.653467 -6.887376 -0.634219 577 0.733132 0.680086 0.000000
-7.653777 -6.887659 -0.631076 569 0.733132 0.680086 0.000000
-7.652993 -6.886953 -0.627833 571 0.733132 0.680086 0.000000
-7.652914 -6.886874 -0.624654 569 0.733132 0.680086 0.000000
-7.653051 -6.887005 -0.621492 577 0.733132 0.680086 0.000000
-7.652925 -6.886888 -0.618313 571 0.733132 0.680086 0.000000
-7.653227 -6.887164 -0.615161 593 0.733132 0.680086 0.000000
-7.652767 -6.886743 -0.611955 579 0.733132 0.680086 0.000000
-7.653664 -6.887557 -0.608846 577 0.733132 0.680086 0.000000
-7.654621 -6.888407 -0.605748 617 0.733132 0.680086 0.000000
-7.654432 -6.888240 -0.602559 607 0.733132 0.680086 0.000000
-7.654568 -6.888357 -0.599398 581 0.733132 0.680086 0.000000
-7.653508 -6.887405 -0.596148 579 0.733132 0.680086 0.000000
-7.653089 -6.887030 -0.592941 561 0.733132 0.680086 0.000000
-7.654469 -6.888281 -0.589879 567 0.733132 0.680086 0.000000
-7.654168 -6.887999 -0.586681 571 0.733132 0.680086 0.000000
-7.654841 -6.888609 -0.583555 577 0.733132 0.680086 0.000000
-7.654596 -6.888385 -0.580367 571 0.733132 0.680086 0.000000
-7.652824 -6.886788 -0.577064 561 0.733132 0.680086 0.000000
-7.653007 -6.886956 -0.573912 579 0.733132 0.680086 0.000000
-7.653134 -6.887067 -0.570750 595 0.733132 0.680086 0.000000
-7.653160 -6.887096 -0.567580 601 0.733132 0.680086 0.000000
-7.653992 -6.887846 -0.564462 605 0.733132 0.680086 0.000000
-7.654174 -6.888001 -0.561311 601 0.733132 0.680086 0.000000
-7.653866 -6.887726 -0.558113 595 0.733132 0.680086 0.000000
-7.654318 -6.888135 -0.554979 623 0.733132 0.680086 0.000000
-7.653955 -6.887803 -0.551772 617 0.733132 0.680086 0.000000
-7.654613 -6.888402 -0.548656 597 0.733132 0.680086 0.000000
-7.655438 -6.889147 -0.545539 591 0.733132 0.680086 0.000000
-7.654528 -6.888327 -0.542307 589 0.733132 0.680086 0.000000
-7.653951 -6.887799 -0.539092 603 0.733132 0.680086 0.000000
-7.654006 -6.887853 -0.535932 595 0.733132 0.680086 0.000000
-7.653645 -6.887535 -0.532735 597 0.733132 0.680086 0.000000
-7.654476 -6.888271 -0.529617 609 0.733132 0.680086 0.000000
-7.654754 -6.888528 -0.526464 609 0.733132 0.680086 0.000000
-7.653346 -6.887260 -0.523197 605 0.733132 0.680086 0.000000
-7.653790 -6.887662 -0.520063 611 0.733132 0.680086 0.000000
-7.654828 -6.888589 -0.516964 605 0.733132 0.680086 0.000000
-7.654346 -6.888163 -0.513758 569 0.733132 0.680086 0.000000
-7.654521 -6.888311 -0.510596 587 0.733132 0.680086 0.000000
-7.654300 -6.888119 -0.507418 577 0.733132 0.680086 0.000000
-7.653976 -6.887832 -0.504221 581 0.733132 0.680086 0.000000
-7.653659 -6.887537 -0.501034 591 0.733132 0.680086 0.000000
-7.652791 -6.886764 -0.497812 593 0.733132 0.680086 0.000000
-7.653068 -6.887007 -0.494659 617 0.733132 0.680086 0.000000
-7.653837 -6.887693 -0.491542 617 0.733132 0.680086 0.000000
-7.654265 -6.888083 -0.488398 615 0.733132 0.680086 0.000000
-7.654211 -6.888036 -0.485229 619 0.733132 0.680086 0.000000
-7.654268 -6.888091 -0.482058 629 0.733132 0.680086 0.000000
-7.653777 -6.887645 -0.478862 605 0.733132 0.680086 0.000000
-7.653826 -6.887694 -0.475692 593 0.733132 0.680086 0.000000
-7.654310 -6.888127 -0.472557 605 0.733132 0.680086 0.000000
-7.653930 -6.887782 -0.469361 607 0.733132 0.680086 0.000000
-7.653543 -6.887431 -0.466174 605 0.733132 0.680086 0.000000
-7.654351 -6.888163 -0.463047 605 0.733132 0.680086 0.000000
-7.653965 -6.887812 -0.459860 573 0.733132 0.680086 0.000000
-7.653150 -6.887082 -0.456648 563 0.733132 0.680086 0.000000
-7.653737 -6.887610 -0.453512 573 0.733132 0.680086 0.000000
-7.653626 -6.887506 -0.450333 595 0.733132 0.680086 0.000000
-7.653121 -6.887061 -0.447138 593 0.733132 0.680086 0.000000
-7.653273 -6.887191 -0.443976 601 0.733132 0.680086 0.000000
-7.654136 -6.887966 -0.440858 591 0.733132 0.680086 0.000000
-7.654129 -6.887957 -0.437698 593 0.733132 0.680086 0.000000
-7.653955 -6.887802 -0.434520 581 0.733132 0.680086 0.000000
-7.653719 -6.887598 -0.431332 593 0.733132 0.680086 0.000000
-7.653545 -6.887429 -0.428163 579 0.733132 0.680086 0.000000
-7.653752 -6.887617 -0.425001 591 0.733132 0.680086 0.000000
-7.653516 -6.887412 -0.421823 581 0.733132 0.680086 0.000000
-7.653176 -6.887099 -0.418637 595 0.733132 0.680086 0.000000
-7.653431 -6.887337 -0.415484 609 0.733132 0.680086 0.000000
-7.653090 -6.887023 -0.412297 585 0.733132 0.680086 0.000000
-7.653124 -6.887060 -0.409137 587 0.733132 0.680086 0.000000
-7.654471 -6.888272 -0.406034 603 0.733132 0.680086 0.000000
-7.654828 -6.888591 -0.402891 631 0.733132 0.680086 0.000000
-7.654107 -6.887937 -0.399688 609 0.733132 0.680086 0.000000
-7.653269 -6.887187 -0.396475 569 0.733132 0.680086 0.000000
-7.653412 -6.887311 -0.393314 579 0.733132 0.680086 0.000000
-7.654529 -6.888313 -0.390203 589 0.733132 0.680086 0.000000
-7.654348 -6.888153 -0.387035 579 0.733132 0.680086 0.000000
-7.653503 -6.887398 -0.383823 617 0.733132 0.680086 0.000000
-7.653211 -6.887136 -0.380645 603 0.733132 0.680086 0.000000
-7.654279 -6.888087 -0.377525 613 0.733132 0.680086 0.000000
-7.655010 -6.888757 -0.374399 609 0.733132 0.680086 0.000000
-7.654931 -6.888677 -0.371229 631 0.733132 0.680086 0.000000
-7.654528 -6.888314 -0.368043 579 0.733132 0.680086 0.000000
-7.655360 -6.889064 -0.364915 609 0.733132 0.680086 0.000000
-7.655068 -6.888802 -0.361738 611 0.733132 0.680086 0.000000
-7.653351 -6.887262 -0.358493 601 0.733132 0.680086 0.000000
-7.653044 -6.886987 -0.355306 579 0.733132 0.680086 0.000000
-7.653455 -6.887351 -0.352162 593 0.733132 0.680086 0.000000
-7.652871 -6.886830 -0.348968 583 0.733132 0.680086 0.000000
-7.653180 -6.887098 -0.345815 575 0.733132 0.680086 0.000000
-7.654123 -6.887950 -0.342696 585 0.733132 0.680086 0.000000
-7.653594 -6.887473 -0.339511 563 0.733132 0.680086 0.000000
-7.653896 -6.887749 -0.336358 539 0.733132 0.680086 0.000000
-7.654672 -6.888442 -0.333221 561 0.733132 0.680086 0.000000
-7.654372 -6.888173 -0.330043 579 0.733132 0.680086 0.000000
-7.654382 -6.888191 -0.326883 555 0.733132 0.680086 0.000000
-7.653535 -6.887421 -0.323681 553 0.733132 0.680086 0.000000
-7.653163 -6.887083 -0.320494 561 0.733132 0.680086 0.000000
-7.653347 -6.887252 -0.317343 589 0.733132 0.680086 0.000000
-7.653957 -6.887799 -0.314197 607 0.733132 0.680086 0.000000
-7.654734 -6.888505 -0.311070 591 0.733132 0.680086 0.000000
-7.654046 -6.887875 -0.307876 569 0.733132 0.680086 0.000000
-7.656587 -6.885951 -0.691462 563 0.733132 0.680086 0.000000
-7.656089 -6.885499 -0.688237 535 0.733132 0.680086 0.000000
-7.655543 -6.885008 -0.685012 553 0.733132 0.680086 0.000000
-7.655854 -6.885291 -0.681869 557 0.733132 0.680086 0.000000
-7.656178 -6.885571 -0.678716 561 0.733132 0.680086 0.000000
-7.656275 -6.885672 -0.675555 537 0.733132 0.680086 0.000000
-7.656149 -6.885554 -0.672366 557 0.733132 0.680086 0.000000
-7.655650 -6.885102 -0.669150 573 0.733132 0.680086 0.000000
-7.656340 -6.885726 -0.666034 559 0.733132 0.680086 0.000000
-7.655842 -6.885273 -0.662808 559 0.733132 0.680086 0.000000
-7.655392 -6.884872 -0.659603 569 0.733132 0.680086 0.000000
-7.656683 -6.886027 -0.656531 563 0.733132 0.680086 0.000000
-7.656716 -6.886063 -0.653360 553 0.733132 0.680086 0.000000
-7.655949 -6.885370 -0.650127 539 0.733132 0.680086 0.000000
-7.655656 -6.885108 -0.646920 541 0.733132 0.680086 0.000000
-7.656070 -6.885485 -0.643786 555 0.733132 0.680086 0.000000
-7.656435 -6.885811 -0.640642 555 0.733132 0.680086 0.000000
-7.656688 -6.886036 -0.637490 559 0.733132 0.680086 0.000000
-7.656285 -6.885673 -0.634284 585 0.733132 0.680086 0.000000
-7.655288 -6.884770 -0.631023 569 0.733132 0.680086 0.000000
-7.655210 -6.884705 -0.627843 555 0.733132 0.680086 0.000000
-7.656113 -6.885512 -0.624745 585 0.733132 0.680086 0.000000
-7.656796 -6.886130 -0.621629 575 0.733132 0.680086 0.000000
-7.656392 -6.885766 -0.618422 569 0.733132 0.680086 0.000000
-7.657026 -6.886333 -0.615297 587 0.733132 0.680086 0.000000
-7.657258 -6.886552 -0.612144 583 0.733132 0.680086 0.000000
-7.656260 -6.885650 -0.608893 585 0.733132 0.680086 0.000000
-7.655746 -6.885185 -0.605678 593 0.733132 0.680086 0.000000
-7.656104 -6.885505 -0.602535 593 0.733132 0.680086 0.000000
-7.656881 -6.886212 -0.599417 591 0.733132 0.680086 0.000000
-7.656367 -6.885747 -0.596212 577 0.733132 0.680086 0.000000
-7.656232 -6.885623 -0.593023 547 0.733132 0.680086 0.000000
-7.656417 -6.885792 -0.589861 571 0.733132 0.680086 0.000000
-7.656226 -6.885612 -0.586683 589 0.733132 0.680086 0.000000
-7.656243 -6.885634 -0.583513 559 0.733132 0.680086 0.000000
-7.655833 -6.885265 -0.580307 595 0.733132 0.680086 0.000000
-7.655857 -6.885280 -0.577136 599 0.733132 0.680086 0.000000
-7.655818 -6.885246 -0.573957 563 0.733132 0.680086 0.000000
-7.655027 -6.884534 -0.570734 583 0.733132 0.680086 0.000000
-7.654988 -6.884501 -0.567554 567 0.733132 0.680086 0.000000
-7.656043 -6.885454 -0.564464 599 0.733132 0.680086 0.000000
-7.656488 -6.885856 -0.561320 583 0.733132 0.680086 0.000000
-7.655862 -6.885289 -0.558106 611 0.733132 0.680086 0.000000
-7.655387 -6.884856 -0.554900 609 0.733132 0.680086 0.000000
-7.656489 -6.885847 -0.551810 607 0.733132 0.680086 0.000000
-7.656507 -6.885870 -0.548640 569 0.733132 0.680086 0.000000
-7.656460 -6.885829 -0.545470 579 0.733132 0.680086 0.000000
-7.656096 -6.885497 -0.542273 581 0.733132 0.680086 0.000000
-7.656161 -6.885558 -0.539103 581 0.733132 0.680086 0.000000
-7.656391 -6.885764 -0.535950 603 0.733132 0.680086 0.000000
-7.655433 -6.884893 -0.532709 605 0.733132 0.680086 0.000000
-7.655814 -6.885245 -0.529566 579 0.733132 0.680086 0.000000
-7.656156 -6.885552 -0.526422 577 0.733132 0.680086 0.000000
-7.655127 -6.884625 -0.523182 579 0.733132 0.680086 0.000000
-7.655246 -6.884730 -0.520021 577 0.733132 0.680086 0.000000
-7.655787 -6.885222 -0.516886 579 0.733132 0.680086 0.000000
-7.655968 -6.885376 -0.513724 577 0.733132 0.680086 0.000000
-7.655431 -6.884892 -0.510519 587 0.733132 0.680086 0.000000
-7.655004 -6.884510 -0.507323 577 0.733132 0.680086 0.000000
-7.655979 -6.885387 -0.504224 613 0.733132 0.680086 0.000000
-7.656099 -6.885492 -0.501062 607 0.733132 0.680086 0.000000
-7.656147 -6.885540 -0.497892 587 0.733132 0.680086 0.000000
-7.656916 -6.886227 -0.494775 587 0.733132 0.680086 0.000000
-7.657464 -6.886724 -0.491640 595 0.733132 0.680086 0.000000
-7.657084 -6.886379 -0.488443 603 0.733132 0.680086 0.000000
-7.655778 -6.885206 -0.485195 591 0.733132 0.680086 0.000000
-7.655447 -6.884913 -0.482008 601 0.733132 0.680086 0.000000
-7.656043 -6.885448 -0.478872 601 0.733132 0.680086 0.000000
-7.656043 -6.885445 -0.475702 591 0.733132 0.680086 0.000000
-7.655331 -6.884809 -0.472489 571 0.733132 0.680086 0.000000
-7.656147 -6.885533 -0.469371 591 0.733132 0.680086 0.000000
-7.656956 -6.886265 -0.466254 591 0.733132 0.680086 0.000000
-7.657005 -6.886314 -0.463083 601 0.733132 0.680086 0.000000
-7.656237 -6.885621 -0.459870 581 0.733132 0.680086 0.000000
-7.655526 -6.884986 -0.456667 575 0.733132 0.680086 0.000000
-7.655850 -6.885266 -0.453514 579 0.733132 0.680086 0.000000
-7.655573 -6.885017 -0.450326 609 0.733132 0.680086 0.000000
-7.655061 -6.884566 -0.447131 575 0.733132 0.680086 0.000000
-7.656147 -6.885544 -0.444031 589 0.733132 0.680086 0.000000
-7.656678 -6.886016 -0.440886 611 0.733132 0.680086 0.000000
-7.656394 -6.885760 -0.437708 601 0.733132 0.680086 0.000000
-7.656006 -6.885409 -0.434512 601 0.733132 0.680086 0.000000
-7.654900 -6.884419 -0.431282 603 0.733132 0.680086 0.000000
-7.655437 -6.884897 -0.428147 599 0.733132 0.680086 0.000000
-7.655914 -6.885324 -0.425012 599 0.733132 0.680086 0.000000
-7.655250 -6.884727 -0.421808 591 0.733132 0.680086 0.000000
-7.656374 -6.885736 -0.418698 587 0.733132 0.680086 0.000000
-7.656961 -6.886265 -0.415562 573 0.733132 0.680086 0.000000
-7.656171 -6.885554 -0.412350 587 0.733132 0.680086 0.000000
-7.655617 -6.885058 -0.409155 591 0.733132 0.680086 0.000000
-7.655159 -6.884650 -0.405969 599 0.733132 0.680086 0.000000
-7.655738 -6.885173 -0.402833 605 0.733132 0.680086 0.000000
-7.656435 -6.885789 -0.399697 579 0.733132 0.680086 0.000000
-7.656460 -6.885818 -0.396537 585 0.733132 0.680086 0.000000
-7.656714 -6.886044 -0.393374 581 0.733132 0.680086 0.000000
-7.656478 -6.885839 -0.390196 593 0.733132 0.680086 0.000000
-7.656456 -6.885817 -0.387036 613 0.733132 0.680086 0.000000
-7.656647 -6.885993 -0.383875 615 0.733132 0.680086 0.000000
-7.656243 -6.885629 -0.380688 585 0.733132 0.680086 0.000000
-7.655998 -6.885404 -0.377510 577 0.733132 0.680086 0.000000
-7.656190 -6.885579 -0.374359 585 0.733132 0.680086 0.000000
-7.656824 -6.886145 -0.371213 597 0.733132 0.680086 0.000000
-7.656738 -6.886073 -0.368043 569 0.733132 0.680086 0.000000
-7.656818 -6.886146 -0.364882 571 0.733132 0.680086 0.000000
-7.657990 -6.887193 -0.361772 601 0.733132 0.680086 0.000000
-7.657310 -6.886583 -0.358578 595 0.733132 0.680086 0.000000
-7.656132 -6.885524 -0.355359 587 0.733132 0.680086 0.000000
-7.656323 -6.885699 -0.352197 607 0.733132 0.680086 0.000000
-7.656189 -6.885575 -0.349028 587 0.733132 0.680086 0.000000
-7.656419 -6.885781 -0.345866 559 0.733132 0.680086 0.000000
-7.656823 -6.886138 -0.342722 551 0.733132 0.680086 0.000000
-7.657118 -6.886409 -0.339569 563 0.733132 0.680086 0.000000
-7.656707 -6.886039 -0.336383 557 0.733132 0.680086 0.000000
-7.656343 -6.885706 -0.333206 557 0.733132 0.680086 0.000000
-7.656472 -6.885831 -0.330045 577 0.733132 0.680086 0.000000
-7.655893 -6.885302 -0.326860 563 0.733132 0.680086 0.000000
-7.655903 -6.885320 -0.323690 573 0.733132 0.680086 0.000000
-7.656695 -6.886024 -0.320563 575 0.733132 0.680086 0.000000
-7.657574 -6.886813 -0.317425 589 0.733132 0.680086 0.000000
-7.657377 -6.886639 -0.314256 591 0.733132 0.680086 0.000000
-7.656951 -6.886257 -0.311070 585 0.733132 0.680086 0.000000
-7.656318 -6.885684 -0.307886 585 0.733132 0.680086 0.000000
-7.657917 -6.883162 -0.691400 567 0.733132 0.680086 0.000000
-7.657475 -6.882767 -0.688184 565 0.733132 0.680086 0.000000
-7.657793 -6.883055 -0.685041 565 0.733132 0.680086 0.000000
-7.657841 -6.883089 -0.681870 561 0.733132 0.680086 0.000000
-7.656519 -6.881903 -0.678572 553 0.733132 0.680086 0.000000
-7.656569 -6.881952 -0.675402 549 0.733132 0.680086 0.000000
-7.658081 -6.883309 -0.672358 573 0.733132 0.680086 0.000000
-7.658881 -6.884021 -0.669260 561 0.733132 0.680086 0.000000
-7.658479 -6.883671 -0.666044 547 0.733132 0.680086 0.000000
-7.658423 -6.883610 -0.662864 557 0.733132 0.680086 0.000000
-7.659549 -6.884620 -0.659784 561 0.733132 0.680086 0.000000
-7.658885 -6.884023 -0.656550 567 0.733132 0.680086 0.000000
-7.657508 -6.882793 -0.653263 549 0.733132 0.680086 0.000000
-7.657700 -6.882967 -0.650111 553 0.733132 0.680086 0.000000
-7.658175 -6.883395 -0.646966 563 0.733132 0.680086 0.000000
-7.658698 -6.883860 -0.643841 569 0.733132 0.680086 0.000000
-7.658525 -6.883706 -0.640653 561 0.733132 0.680086 0.000000
-7.657085 -6.882412 -0.637356 545 0.733132 0.680086 0.000000
-7.657070 -6.882396 -0.634186 547 0.733132 0.680086 0.000000
-7.657814 -6.883063 -0.631069 547 0.733132 0.680086 0.000000
-7.657736 -6.882998 -0.627890 567 0.733132 0.680086 0.000000
-7.657603 -6.882875 -0.624711 553 0.733132 0.680086 0.000000
-7.657745 -6.882998 -0.621550 581 0.733132 0.680086 0.000000
-7.657882 -6.883129 -0.618378 583 0.733132 0.680086 0.000000
-7.657747 -6.883006 -0.615199 591 0.733132 0.680086 0.000000
-7.658208 -6.883421 -0.612065 601 0.733132 0.680086 0.000000
-7.659048 -6.884178 -0.608957 615 0.733132 0.680086 0.000000
-7.658645 -6.883814 -0.605751 589 0.733132 0.680086 0.000000
-7.658407 -6.883595 -0.602563 585 0.733132 0.680086 0.000000
-7.658163 -6.883371 -0.599365 593 0.733132 0.680086 0.000000
-7.657974 -6.883204 -0.596177 605 0.733132 0.680086 0.000000
-7.658053 -6.883277 -0.593016 563 0.733132 0.680086 0.000000
-7.657532 -6.882806 -0.589801 557 0.733132 0.680086 0.000000
-7.657273 -6.882583 -0.586613 569 0.733132 0.680086 0.000000
-7.657091 -6.882408 -0.583425 571 0.733132 0.680086 0.000000
-7.657972 -6.883210 -0.580317 613 0.733132 0.680086 0.000000
-7.658058 -6.883276 -0.577156 609 0.733132 0.680086 0.000000
-7.657481 -6.882761 -0.573941 597 0.733132 0.680086 0.000000
-7.657926 -6.883163 -0.570797 585 0.733132 0.680086 0.000000
-7.657949 -6.883179 -0.567626 581 0.733132 0.680086 0.000000
-7.657808 -6.883049 -0.564448 589 0.733132 0.680086 0.000000
-7.658156 -6.883362 -0.561304 577 0.733132 0.680086 0.000000
-7.657787 -6.883038 -0.558108 593 0.733132 0.680086 0.000000
-7.657637 -6.882902 -0.554919 599 0.733132 0.680086 0.000000
-7.657543 -6.882824 -0.551750 605 0.733132 0.680086 0.000000
-7.658154 -6.883372 -0.548614 599 0.733132 0.680086 0.000000
-7.659524 -6.884603 -0.545541 601 0.733132 0.680086 0.000000
-7.659160 -6.884270 -0.542345 583 0.733132 0.680086 0.000000
-7.658853 -6.883996 -0.539157 591 0.733132 0.680086 0.000000
-7.659407 -6.884486 -0.536022 609 0.733132 0.680086 0.000000
