786
-7.581056 -7.008356 -0.450126 989 0.120658 0.992694 0.000000
-7.580993 -7.008303 -0.446947 965 0.120658 0.992694 0.000000
-7.580605 -7.007937 -0.443750 939 0.120658 0.992694 0.000000
-7.580917 -7.008234 -0.440587 955 0.120658 0.992694 0.000000
-7.581491 -7.008764 -0.437452 975 0.120658 0.992694 0.000000
-7.581857 -7.009103 -0.434288 995 0.120658 0.992694 0.000000
-7.582224 -7.009443 -0.431135 995 0.120658 0.992694 0.000000
-7.582098 -7.009326 -0.427956 977 0.120658 0.992694 0.000000
-7.581550 -7.008808 -0.424751 965 0.120658 0.992694 0.000000
-7.581321 -7.008610 -0.421563 981 0.120658 0.992694 0.000000
-7.581188 -7.008487 -0.418374 983 0.120658 0.992694 0.000000
-7.582198 -7.009416 -0.415255 981 0.120658 0.992694 0.000000
-7.582826 -7.009989 -0.412109 985 0.120658 0.992694 0.000000
-7.582319 -7.009531 -0.408913 983 0.120658 0.992694 0.000000
-7.582789 -7.009965 -0.405759 999 0.120658 0.992694 0.000000
-7.582393 -7.009593 -0.402563 1003 0.120658 0.992694 0.000000
-7.581353 -7.008634 -0.399332 973 0.120658 0.992694 0.000000
-7.581553 -7.008815 -0.396170 971 0.120658 0.992694 0.000000
-7.582278 -7.009490 -0.393033 991 0.120658 0.992694 0.000000
-7.582629 -7.009818 -0.389870 987 0.120658 0.992694 0.000000
-7.582598 -7.009789 -0.386690 979 0.120658 0.992694 0.000000
-7.582472 -7.009673 -0.383511 973 0.120658 0.992694 0.000000
-7.582615 -7.009795 -0.380340 981 0.120658 0.992694 0.000000
-7.583173 -7.010313 -0.377195 987 0.120658 0.992694 0.000000
-7.582935 -7.010094 -0.374007 989 0.120658 0.992694 0.000000
-7.582102 -7.009324 -0.370795 975 0.120658 0.992694 0.000000
-7.582342 -7.009550 -0.367632 969 0.120658 0.992694 0.000000
-7.582859 -7.010022 -0.364477 953 0.120658 0.992694 0.000000
-7.582878 -7.010046 -0.361307 941 0.120658 0.992694 0.000000
-7.582369 -7.009573 -0.358112 919 0.120658 0.992694 0.000000
-7.582656 -7.009836 -0.354949 917 0.120658 0.992694 0.000000
-7.583382 -7.010512 -0.351802 937 0.120658 0.992694 0.000000
-7.583723 -7.010818 -0.348639 947 0.120658 0.992694 0.000000
-7.583416 -7.010545 -0.345452 927 0.120658 0.992694 0.000000
-7.582908 -7.010072 -0.342256 919 0.120658 0.992694 0.000000
-7.583250 -7.010379 -0.339103 919 0.120658 0.992694 0.000000
-7.583378 -7.010504 -0.335932 931 0.120658 0.992694 0.000000
-7.582641 -7.009822 -0.332729 935 0.120658 0.992694 0.000000
-7.582762 -7.009941 -0.329557 925 0.120658 0.992694 0.000000
-7.583000 -7.010152 -0.326385 925 0.120658 0.992694 0.000000
-7.582580 -7.009762 -0.323199 913 0.120658 0.992694 0.000000
-7.583027 -7.010179 -0.320045 921 0.120658 0.992694 0.000000
-7.583362 -7.010493 -0.316882 923 0.120658 0.992694 0.000000
-7.582790 -7.009956 -0.313687 931 0.120658 0.992694 0.000000
-7.585055 -7.007680 -0.704717 981 0.120658 0.992694 0.000000
-7.584723 -7.007373 -0.701500 991 0.120658 0.992694 0.000000
-7.585417 -7.008025 -0.698373 993 0.120658 0.992694 0.000000
-7.585624 -7.008212 -0.695211 991 0.120658 0.992694 0.000000
-7.586205 -7.008747 -0.692076 979 0.120658 0.992694 0.000000
-7.587486 -7.009930 -0.689004 981 0.120658 0.992694 0.000000
-7.586295 -7.008823 -0.685715 971 0.120658 0.992694 0.000000
-7.585158 -7.007774 -0.682425 985 0.120658 0.992694 0.000000
-7.585685 -7.008266 -0.679290 977 0.120658 0.992694 0.000000
-7.585303 -7.007907 -0.676074 965 0.120658 0.992694 0.000000
-7.584859 -7.007499 -0.672848 953 0.120658 0.992694 0.000000
-7.585807 -7.008378 -0.669749 963 0.120658 0.992694 0.000000
-7.586277 -7.008812 -0.666604 959 0.120658 0.992694 0.000000
-7.586208 -7.008753 -0.663405 961 0.120658 0.992694 0.000000
-7.585819 -7.008388 -0.660188 959 0.120658 0.992694 0.000000
-7.584786 -7.007434 -0.656918 973 0.120658 0.992694 0.000000
-7.584120 -7.006822 -0.653684 959 0.120658 0.992694 0.000000
-7.585233 -7.007846 -0.650594 967 0.120658 0.992694 0.000000
-7.585856 -7.008428 -0.647458 961 0.120658 0.992694 0.000000
-7.586055 -7.008609 -0.644296 967 0.120658 0.992694 0.000000
-7.585817 -7.008389 -0.641088 973 0.120658 0.992694 0.000000
-7.585858 -7.008418 -0.637908 977 0.120658 0.992694 0.000000
-7.586472 -7.008993 -0.634772 985 0.120658 0.992694 0.000000
-7.586456 -7.008977 -0.631592 971 0.120658 0.992694 0.000000
-7.586274 -7.008802 -0.628393 959 0.120658 0.992694 0.000000
-7.586308 -7.008838 -0.625213 961 0.120658 0.992694 0.000000
-7.585910 -7.008466 -0.621997 979 0.120658 0.992694 0.000000
-7.585825 -7.008394 -0.618807 979 0.120658 0.992694 0.000000
-7.585429 -7.008024 -0.615591 959 0.120658 0.992694 0.000000
-7.585883 -7.008446 -0.612447 963 0.120658 0.992694 0.000000
-7.586392 -7.008912 -0.609302 977 0.120658 0.992694 0.000000
-7.585344 -7.007945 -0.606042 975 0.120658 0.992694 0.000000
-7.584622 -7.007276 -0.602808 957 0.120658 0.992694 0.000000
-7.584536 -7.007204 -0.599619 959 0.120658 0.992694 0.000000
-7.585316 -7.007924 -0.596492 979 0.120658 0.992694 0.000000
-7.585286 -7.007896 -0.593312 985 0.120658 0.992694 0.000000
-7.584880 -7.007518 -0.590096 973 0.120658 0.992694 0.000000
-7.585010 -7.007643 -0.586924 965 0.120658 0.992694 0.000000
-7.585566 -7.008146 -0.583789 973 0.120658 0.992694 0.000000
-7.585591 -7.008175 -0.580609 981 0.120658 0.992694 0.000000
-7.585393 -7.007988 -0.577411 969 0.120658 0.992694 0.000000
-7.585952 -7.008506 -0.574275 977 0.120658 0.992694 0.000000
-7.585373 -7.007977 -0.571051 971 0.120658 0.992694 0.000000
-7.586040 -7.008581 -0.567914 979 0.120658 0.992694 0.000000
-7.586647 -7.009150 -0.564779 975 0.120658 0.992694 0.000000
-7.585583 -7.008171 -0.561518 969 0.120658 0.992694 0.000000
-7.585178 -7.007794 -0.558312 965 0.120658 0.992694 0.000000
-7.585783 -7.008348 -0.555176 995 0.120658 0.992694 0.000000
-7.585793 -7.008366 -0.551996 987 0.120658 0.992694 0.000000
-7.585166 -7.007785 -0.548772 983 0.120658 0.992694 0.000000
-7.585771 -7.008340 -0.545636 991 0.120658 0.992694 0.000000
-7.586639 -7.009142 -0.542518 991 0.120658 0.992694 0.000000
-7.586593 -7.009102 -0.539328 993 0.120658 0.992694 0.000000
-7.586235 -7.008762 -0.536122 987 0.120658 0.992694 0.000000
-7.586777 -7.009267 -0.532987 995 0.120658 0.992694 0.000000
-7.586674 -7.009168 -0.529797 1001 0.120658 0.992694 0.000000
-7.586158 -7.008689 -0.526582 1001 0.120658 0.992694 0.000000
-7.586430 -7.008941 -0.523420 991 0.120658 0.992694 0.000000
-7.585843 -7.008405 -0.520205 981 0.120658 0.992694 0.000000
-7.585686 -7.008264 -0.517016 997 0.120658 0.992694 0.000000
-7.586234 -7.008760 -0.513871 997 0.120658 0.992694 0.000000
-7.586014 -7.008568 -0.510673 987 0.120658 0.992694 0.000000
-7.585656 -7.008229 -0.507476 985 0.120658 0.992694 0.000000
-7.586246 -7.008771 -0.504331 1001 0.120658 0.992694 0.000000
-7.586136 -7.008680 -0.501142 993 0.120658 0.992694 0.000000
-7.585709 -7.008284 -0.497936 981 0.120658 0.992694 0.000000
-7.585931 -7.008483 -0.494774 971 0.120658 0.992694 0.000000
-7.585552 -7.008139 -0.491577 971 0.120658 0.992694 0.000000
-7.585178 -7.007786 -0.488370 975 0.120658 0.992694 0.000000
-7.585387 -7.007987 -0.485208 985 0.120658 0.992694 0.000000
-7.585117 -7.007730 -0.482011 979 0.120658 0.992694 0.000000
-7.584523 -7.007189 -0.478796 959 0.120658 0.992694 0.000000
-7.584586 -7.007236 -0.475626 965 0.120658 0.992694 0.000000
-7.585216 -7.007823 -0.472480 965 0.120658 0.992694 0.000000
-7.585590 -7.008168 -0.469326 963 0.120658 0.992694 0.000000
-7.585307 -7.007913 -0.466139 949 0.120658 0.992694 0.000000
-7.585043 -7.007661 -0.462941 945 0.120658 0.992694 0.000000
-7.585245 -7.007856 -0.459779 961 0.120658 0.992694 0.000000
-7.585938 -7.008493 -0.456643 971 0.120658 0.992694 0.000000
-7.586194 -7.008732 -0.453480 977 0.120658 0.992694 0.000000
-7.586082 -7.008627 -0.450291 975 0.120658 0.992694 0.000000
-7.585487 -7.008072 -0.447077 955 0.120658 0.992694 0.000000
-7.585791 -7.008362 -0.443924 959 0.120658 0.992694 0.000000
-7.587072 -7.009545 -0.440812 973 0.120658 0.992694 0.000000
-7.587121 -7.009579 -0.437641 969 0.120658 0.992694 0.000000
-7.586511 -7.009025 -0.434427 975 0.120658 0.992694 0.000000
-7.586495 -7.009009 -0.431247 971 0.120658 0.992694 0.000000
-7.586862 -7.009349 -0.428093 981 0.120658 0.992694 0.000000
-7.586147 -7.008687 -0.424880 969 0.120658 0.992694 0.000000
-7.585973 -7.008518 -0.421692 983 0.120658 0.992694 0.000000
-7.585315 -7.007913 -0.418478 981 0.120658 0.992694 0.000000
-7.585729 -7.008290 -0.415324 973 0.120658 0.992694 0.000000
-7.587001 -7.009467 -0.412212 973 0.120658 0.992694 0.000000
-7.586391 -7.008913 -0.409007 975 0.120658 0.992694 0.000000
-7.585938 -7.008484 -0.405811 983 0.120658 0.992694 0.000000
-7.586617 -7.009123 -0.402665 985 0.120658 0.992694 0.000000
-7.586919 -7.009399 -0.399502 981 0.120658 0.992694 0.000000
-7.586523 -7.009028 -0.396306 975 0.120658 0.992694 0.000000
-7.586508 -7.009012 -0.393136 987 0.120658 0.992694 0.000000
-7.586962 -7.009434 -0.389982 985 0.120658 0.992694 0.000000
-7.587099 -7.009565 -0.386810 985 0.120658 0.992694 0.000000
-7.586813 -7.009295 -0.383623 989 0.120658 0.992694 0.000000
-7.586298 -7.008816 -0.380418 969 0.120658 0.992694 0.000000
-7.586760 -7.009245 -0.377263 971 0.120658 0.992694 0.000000
-7.586944 -7.009413 -0.374101 975 0.120658 0.992694 0.000000
-7.585738 -7.008308 -0.370862 965 0.120658 0.992694 0.000000
-7.585381 -7.007982 -0.367676 941 0.120658 0.992694 0.000000
-7.585739 -7.008302 -0.364512 949 0.120658 0.992694 0.000000
-7.585819 -7.008375 -0.361342 931 0.120658 0.992694 0.000000
-7.585623 -7.008201 -0.358153 923 0.120658 0.992694 0.000000
-7.585274 -7.007881 -0.354966 901 0.120658 0.992694 0.000000
-7.586372 -7.008893 -0.351836 915 0.120658 0.992694 0.000000
-7.587359 -7.009803 -0.348707 943 0.120658 0.992694 0.000000
-7.587486 -7.009913 -0.345536 941 0.120658 0.992694 0.000000
-7.587289 -7.009740 -0.342357 921 0.120658 0.992694 0.000000
-7.587626 -7.010055 -0.339194 901 0.120658 0.992694 0.000000
-7.588349 -7.010717 -0.336047 931 0.120658 0.992694 0.000000
-7.587294 -7.009745 -0.332827 927 0.120658 0.992694 0.000000
-7.586618 -7.009113 -0.329623 933 0.120658 0.992694 0.000000
-7.587113 -7.009581 -0.326469 929 0.120658 0.992694 0.000000
-7.587781 -7.010185 -0.323322 933 0.120658 0.992694 0.000000
-7.587099 -7.009562 -0.320119 913 0.120658 0.992694 0.000000
-7.587005 -7.009469 -0.316939 923 0.120658 0.992694 0.000000
-7.586681 -7.009182 -0.313752 925 0.120658 0.992694 0.000000
-7.590027 -7.007894 -0.704972 983 0.120658 0.992694 0.000000
-7.590719 -7.008532 -0.701846 983 0.120658 0.992694 0.000000
-7.590014 -7.007889 -0.698592 969 0.120658 0.992694 0.000000
-7.589521 -7.007429 -0.695367 971 0.120658 0.992694 0.000000
-7.589562 -7.007471 -0.692176 973 0.120658 0.992694 0.000000
-7.589555 -7.007461 -0.688996 961 0.120658 0.992694 0.000000
-7.589231 -7.007161 -0.685779 963 0.120658 0.992694 0.000000
-7.589160 -7.007100 -0.682590 959 0.120658 0.992694 0.000000
-7.589631 -7.007536 -0.679445 977 0.120658 0.992694 0.000000
-7.589463 -7.007373 -0.676247 953 0.120658 0.992694 0.000000
-7.589505 -7.007415 -0.673066 955 0.120658 0.992694 0.000000
-7.589872 -7.007754 -0.669903 951 0.120658 0.992694 0.000000
-7.590293 -7.008138 -0.666759 951 0.120658 0.992694 0.000000
-7.589356 -7.007272 -0.663497 933 0.120658 0.992694 0.000000
-7.589550 -7.007461 -0.660325 953 0.120658 0.992694 0.000000
-7.590623 -7.008440 -0.657225 981 0.120658 0.992694 0.000000
-7.590116 -7.007981 -0.654000 977 0.120658 0.992694 0.000000
-7.589456 -7.007362 -0.650766 965 0.120658 0.992694 0.000000
-7.589601 -7.007499 -0.647595 959 0.120658 0.992694 0.000000
-7.589252 -7.007179 -0.644378 967 0.120658 0.992694 0.000000
-7.588649 -7.006618 -0.641143 965 0.120658 0.992694 0.000000
-7.589160 -7.007098 -0.637999 971 0.120658 0.992694 0.000000
-7.589734 -7.007627 -0.634863 977 0.120658 0.992694 0.000000
-7.590251 -7.008100 -0.631728 983 0.120658 0.992694 0.000000
-7.590928 -7.008725 -0.628592 975 0.120658 0.992694 0.000000
-7.590801 -7.008607 -0.625403 949 0.120658 0.992694 0.000000
-7.590342 -7.008186 -0.622177 965 0.120658 0.992694 0.000000
-7.590485 -7.008309 -0.619006 965 0.120658 0.992694 0.000000
-7.589971 -7.007844 -0.615780 965 0.120658 0.992694 0.000000
-7.590161 -7.008018 -0.612619 971 0.120658 0.992694 0.000000
-7.590831 -7.008638 -0.609482 969 0.120658 0.992694 0.000000
-7.590434 -7.008266 -0.606266 969 0.120658 0.992694 0.000000
-7.590563 -7.008390 -0.603095 951 0.120658 0.992694 0.000000
-7.590372 -7.008210 -0.599896 969 0.120658 0.992694 0.000000
-7.589650 -7.007541 -0.596663 977 0.120658 0.992694 0.000000
-7.590048 -7.007905 -0.593509 971 0.120658 0.992694 0.000000
-7.590289 -7.008131 -0.590347 981 0.120658 0.992694 0.000000
-7.590194 -7.008039 -0.587158 979 0.120658 0.992694 0.000000
-7.590004 -7.007872 -0.583959 989 0.120658 0.992694 0.000000
-7.590077 -7.007939 -0.580779 983 0.120658 0.992694 0.000000
-7.589784 -7.007662 -0.577581 977 0.120658 0.992694 0.000000
-7.589094 -7.007033 -0.574348 965 0.120658 0.992694 0.000000
-7.589969 -7.007841 -0.571229 979 0.120658 0.992694 0.000000
-7.590742 -7.008555 -0.568102 989 0.120658 0.992694 0.000000
-7.590440 -7.008272 -0.564895 973 0.120658 0.992694 0.000000
-7.590665 -7.008486 -0.561733 975 0.120658 0.992694 0.000000
-7.590466 -7.008299 -0.558535 961 0.120658 0.992694 0.000000
-7.589411 -7.007326 -0.555284 967 0.120658 0.992694 0.000000
-7.589157 -7.007082 -0.552077 981 0.120658 0.992694 0.000000
-7.589874 -7.007751 -0.548950 979 0.120658 0.992694 0.000000
-7.590527 -7.008357 -0.545814 979 0.120658 0.992694 0.000000
-7.590321 -7.008164 -0.542616 987 0.120658 0.992694 0.000000
-7.589534 -7.007431 -0.539383 987 0.120658 0.992694 0.000000
-7.589537 -7.007442 -0.536203 977 0.120658 0.992694 0.000000
-7.590142 -7.007996 -0.533067 991 0.120658 0.992694 0.000000
-7.590580 -7.008406 -0.529913 1003 0.120658 0.992694 0.000000
-7.590215 -7.008060 -0.526706 977 0.120658 0.992694 0.000000
-7.590009 -7.007866 -0.523518 973 0.120658 0.992694 0.000000
-7.589851 -7.007724 -0.520319 981 0.120658 0.992694 0.000000
-7.589591 -7.007487 -0.517122 989 0.120658 0.992694 0.000000
-7.589917 -7.007782 -0.513969 983 0.120658 0.992694 0.000000
-7.589870 -7.007740 -0.510789 967 0.120658 0.992694 0.000000
-7.589762 -7.007650 -0.507600 991 0.120658 0.992694 0.000000
-7.589984 -7.007850 -0.504438 1001 0.120658 0.992694 0.000000
-7.589874 -7.007745 -0.501249 985 0.120658 0.992694 0.000000
-7.589884 -7.007762 -0.498069 977 0.120658 0.992694 0.000000
-7.590203 -7.008050 -0.494906 991 0.120658 0.992694 0.000000
-7.590362 -7.008199 -0.491744 997 0.120658 0.992694 0.000000
-7.589775 -7.007650 -0.488519 991 0.120658 0.992694 0.000000
-7.589991 -7.007858 -0.485357 989 0.120658 0.992694 0.000000
-7.590096 -7.007950 -0.482186 981 0.120658 0.992694 0.000000
-7.589501 -7.007409 -0.478972 971 0.120658 0.992694 0.000000
-7.589391 -7.007304 -0.475783 979 0.120658 0.992694 0.000000
-7.590042 -7.007896 -0.472647 975 0.120658 0.992694 0.000000
-7.590832 -7.008636 -0.469509 979 0.120658 0.992694 0.000000
-7.591039 -7.008823 -0.466347 969 0.120658 0.992694 0.000000
-7.590763 -7.008573 -0.463150 961 0.120658 0.992694 0.000000
-7.589849 -7.007727 -0.459918 949 0.120658 0.992694 0.000000
-7.590320 -7.008162 -0.456764 961 0.120658 0.992694 0.000000
-7.590583 -7.008406 -0.453601 971 0.120658 0.992694 0.000000
-7.590519 -7.008339 -0.450422 971 0.120658 0.992694 0.000000
-7.590728 -7.008540 -0.447260 953 0.120658 0.992694 0.000000
-7.590714 -7.008524 -0.444080 957 0.120658 0.992694 0.000000
-7.591032 -7.008812 -0.440917 973 0.120658 0.992694 0.000000
-7.591017 -7.008797 -0.437737 979 0.120658 0.992694 0.000000
-7.590303 -7.008147 -0.434523 971 0.120658 0.992694 0.000000
-7.589915 -7.007783 -0.431317 965 0.120658 0.992694 0.000000
-7.589631 -7.007527 -0.428129 961 0.120658 0.992694 0.000000
-7.589567 -7.007460 -0.424950 961 0.120658 0.992694 0.000000
-7.590252 -7.008091 -0.421803 977 0.120658 0.992694 0.000000
-7.590722 -7.008525 -0.418649 981 0.120658 0.992694 0.000000
-7.590167 -7.008016 -0.415444 967 0.120658 0.992694 0.000000
-7.590040 -7.007899 -0.412265 965 0.120658 0.992694 0.000000
-7.590343 -7.008174 -0.409102 967 0.120658 0.992694 0.000000
-7.590703 -7.008508 -0.405939 973 0.120658 0.992694 0.000000
-7.590569 -7.008385 -0.402760 971 0.120658 0.992694 0.000000
-7.590610 -7.008427 -0.399580 983 0.120658 0.992694 0.000000
-7.590802 -7.008601 -0.396418 969 0.120658 0.992694 0.000000
-7.590668 -7.008478 -0.393229 961 0.120658 0.992694 0.000000
-7.591297 -7.009065 -0.390083 963 0.120658 0.992694 0.000000
-7.591058 -7.008832 -0.386895 953 0.120658 0.992694 0.000000
-7.590330 -7.008172 -0.383682 965 0.120658 0.992694 0.000000
-7.590903 -7.008701 -0.380536 967 0.120658 0.992694 0.000000
-7.591953 -7.009661 -0.377407 973 0.120658 0.992694 0.000000
-7.591016 -7.008796 -0.374185 961 0.120658 0.992694 0.000000
-7.590072 -7.007925 -0.370964 955 0.120658 0.992694 0.000000
-7.590312 -7.008151 -0.367802 941 0.120658 0.992694 0.000000
-7.589803 -7.007678 -0.364596 937 0.120658 0.992694 0.000000
-7.589447 -7.007352 -0.361409 929 0.120658 0.992694 0.000000
-7.590170 -7.008014 -0.358263 933 0.120658 0.992694 0.000000
-7.590840 -7.008633 -0.355116 923 0.120658 0.992694 0.000000
-7.590969 -7.008757 -0.351945 929 0.120658 0.992694 0.000000
-7.591527 -7.009274 -0.348800 925 0.120658 0.992694 0.000000
-7.592354 -7.010032 -0.345662 929 0.120658 0.992694 0.000000
-7.592108 -7.009807 -0.342474 921 0.120658 0.992694 0.000000
-7.590616 -7.008435 -0.339228 905 0.120658 0.992694 0.000000
-7.590274 -7.008108 -0.336041 915 0.120658 0.992694 0.000000
-7.590547 -7.008373 -0.332879 925 0.120658 0.992694 0.000000
-7.591048 -7.008832 -0.329724 933 0.120658 0.992694 0.000000
-7.591503 -7.009254 -0.326559 927 0.120658 0.992694 0.000000
-7.591734 -7.009460 -0.323397 925 0.120658 0.992694 0.000000
-7.591910 -7.009622 -0.320226 913 0.120658 0.992694 0.000000
-7.591394 -7.009144 -0.317030 923 0.120658 0.992694 0.000000
-7.591022 -7.008804 -0.313844 931 0.120658 0.992694 0.000000
-7.593647 -7.006866 -0.705100 983 0.120658 0.992694 0.000000
-7.594728 -7.007851 -0.702010 985 0.120658 0.992694 0.000000
-7.595143 -7.008242 -0.698856 991 0.120658 0.992694 0.000000
-7.594388 -7.007548 -0.695603 973 0.120658 0.992694 0.000000
-7.594111 -7.007285 -0.692396 957 0.120658 0.992694 0.000000
-7.594264 -7.007428 -0.689214 961 0.120658 0.992694 0.000000
-7.593556 -7.006771 -0.685971 965 0.120658 0.992694 0.000000
-7.593765 -7.006971 -0.682799 977 0.120658 0.992694 0.000000
-7.594076 -7.007254 -0.679646 981 0.120658 0.992694 0.000000
-7.593472 -7.006692 -0.676401 967 0.120658 0.992694 0.000000
-7.593250 -7.006486 -0.673193 949 0.120658 0.992694 0.000000
-7.594206 -7.007371 -0.670094 953 0.120658 0.992694 0.000000
-7.595146 -7.008245 -0.666985 971 0.120658 0.992694 0.000000
-7.594279 -7.007435 -0.663733 971 0.120658 0.992694 0.000000
-7.593621 -7.006830 -0.660489 975 0.120658 0.992694 0.000000
-7.593606 -7.006814 -0.657299 969 0.120658 0.992694 0.000000
-7.593750 -7.006951 -0.654128 961 0.120658 0.992694 0.000000
-7.593036 -7.006289 -0.650885 939 0.120658 0.992694 0.000000
-7.593180 -7.006425 -0.647713 943 0.120658 0.992694 0.000000
-7.593801 -7.006992 -0.644577 963 0.120658 0.992694 0.000000
-7.593571 -7.006781 -0.641369 971 0.120658 0.992694 0.000000
-7.593223 -7.006460 -0.638163 969 0.120658 0.992694 0.000000
-7.594059 -7.007238 -0.635045 987 0.120658 0.992694 0.000000
-7.594745 -7.007869 -0.631908 991 0.120658 0.992694 0.000000
-7.594881 -7.008000 -0.628737 961 0.120658 0.992694 0.000000
-7.594539 -7.007673 -0.625530 953 0.120658 0.992694 0.000000
-7.594405 -7.007549 -0.622331 951 0.120658 0.992694 0.000000
-7.594382 -7.007527 -0.619141 951 0.120658 0.992694 0.000000
-7.593653 -7.006866 -0.615908 955 0.120658 0.992694 0.000000
-7.594170 -7.007338 -0.612763 983 0.120658 0.992694 0.000000
-7.594839 -7.007956 -0.609627 985 0.120658 0.992694 0.000000
-7.593362 -7.006597 -0.606330 953 0.120658 0.992694 0.000000
-7.594093 -7.007266 -0.603204 943 0.120658 0.992694 0.000000
-7.595344 -7.008424 -0.600112 957 0.120658 0.992694 0.000000
-7.594406 -7.007558 -0.596861 967 0.120658 0.992694 0.000000
-7.595345 -7.008417 -0.593752 973 0.120658 0.992694 0.000000
-7.595902 -7.008934 -0.590607 991 0.120658 0.992694 0.000000
-7.594901 -7.008005 -0.587346 991 0.120658 0.992694 0.000000
-7.593965 -7.007140 -0.584094 997 0.120658 0.992694 0.000000
-7.594030 -7.007214 -0.580914 983 0.120658 0.992694 0.000000
-7.593791 -7.006981 -0.577716 977 0.120658 0.992694 0.000000
-7.593690 -7.006897 -0.574527 969 0.120658 0.992694 0.000000
-7.594740 -7.007857 -0.571417 965 0.120658 0.992694 0.000000
-7.595512 -7.008571 -0.568290 969 0.120658 0.992694 0.000000
-7.595412 -7.008487 -0.565100 963 0.120658 0.992694 0.000000
-7.594673 -7.007805 -0.561867 961 0.120658 0.992694 0.000000
-7.593512 -7.006723 -0.558598 955 0.120658 0.992694 0.000000
-7.593093 -7.006348 -0.555392 969 0.120658 0.992694 0.000000
-7.594295 -7.007453 -0.552291 973 0.120658 0.992694 0.000000
-7.594843 -7.007951 -0.549145 961 0.120658 0.992694 0.000000
-7.594424 -7.007575 -0.545939 959 0.120658 0.992694 0.000000
-7.594552 -7.007685 -0.542768 983 0.120658 0.992694 0.000000
-7.594831 -7.007942 -0.539605 983 0.120658 0.992694 0.000000
-7.594570 -7.007705 -0.536398 983 0.120658 0.992694 0.000000
-7.594157 -7.007322 -0.533191 991 0.120658 0.992694 0.000000
-7.594643 -7.007769 -0.530047 975 0.120658 0.992694 0.000000
-7.594757 -7.007881 -0.526866 971 0.120658 0.992694 0.000000
-7.594820 -7.007927 -0.523695 973 0.120658 0.992694 0.000000
-7.595099 -7.008184 -0.520532 985 0.120658 0.992694 0.000000
-7.595045 -7.008138 -0.517343 991 0.120658 0.992694 0.000000
-7.594356 -7.007508 -0.514119 973 0.120658 0.992694 0.000000
-7.594093 -7.007257 -0.510921 973 0.120658 0.992694 0.000000
-7.593984 -7.007166 -0.507732 983 0.120658 0.992694 0.000000
-7.594311 -7.007461 -0.504569 985 0.120658 0.992694 0.000000
-7.595503 -7.008560 -0.501468 987 0.120658 0.992694 0.000000
-7.595561 -7.008615 -0.498288 987 0.120658 0.992694 0.000000
-7.595181 -7.008270 -0.495091 991 0.120658 0.992694 0.000000
-7.595181 -7.008266 -0.491911 993 0.120658 0.992694 0.000000
-7.594316 -7.007471 -0.488669 967 0.120658 0.992694 0.000000
-7.593888 -7.007075 -0.485463 963 0.120658 0.992694 0.000000
-7.594748 -7.007872 -0.482335 981 0.120658 0.992694 0.000000
-7.594701 -7.007817 -0.479155 977 0.120658 0.992694 0.000000
-7.594313 -7.007466 -0.475949 963 0.120658 0.992694 0.000000
-7.595116 -7.008204 -0.472821 965 0.120658 0.992694 0.000000
-7.595269 -7.008348 -0.469650 975 0.120658 0.992694 0.000000
-7.594681 -7.007800 -0.466435 971 0.120658 0.992694 0.000000
-7.594668 -7.007798 -0.463255 971 0.120658 0.992694 0.000000
-7.594508 -7.007641 -0.460066 959 0.120658 0.992694 0.000000
-7.594439 -7.007582 -0.456887 957 0.120658 0.992694 0.000000
-7.594972 -7.008067 -0.453732 963 0.120658 0.992694 0.000000
-7.595665 -7.008704 -0.450595 969 0.120658 0.992694 0.000000
-7.595229 -7.008302 -0.447389 969 0.120658 0.992694 0.000000
-7.594895 -7.007994 -0.444193 959 0.120658 0.992694 0.000000
-7.595677 -7.008728 -0.441055 965 0.120658 0.992694 0.000000
-7.595621 -7.008667 -0.437876 975 0.120658 0.992694 0.000000
-7.595392 -7.008455 -0.434678 983 0.120658 0.992694 0.000000
-7.595059 -7.008148 -0.431481 973 0.120658 0.992694 0.000000
-7.594338 -7.007493 -0.428267 967 0.120658 0.992694 0.000000
-7.594815 -7.007920 -0.425113 969 0.120658 0.992694 0.000000
-7.595071 -7.008158 -0.421950 963 0.120658 0.992694 0.000000
-7.595263 -7.008347 -0.418778 977 0.120658 0.992694 0.000000
-7.595518 -7.008570 -0.415616 981 0.120658 0.992694 0.000000
-7.594963 -7.008061 -0.412411 981 0.120658 0.992694 0.000000
-7.594630 -7.007753 -0.409214 979 0.120658 0.992694 0.000000
-7.594718 -7.007833 -0.406033 967 0.120658 0.992694 0.000000
-7.594418 -7.007565 -0.402846 973 0.120658 0.992694 0.000000
-7.594347 -7.007492 -0.399667 961 0.120658 0.992694 0.000000
-7.594270 -7.007426 -0.396477 967 0.120658 0.992694 0.000000
-7.594255 -7.007410 -0.393307 959 0.120658 0.992694 0.000000
-7.594286 -7.007432 -0.390127 943 0.120658 0.992694 0.000000
-7.594471 -7.007614 -0.386955 953 0.120658 0.992694 0.000000
-7.595203 -7.008282 -0.383818 973 0.120658 0.992694 0.000000
-7.595237 -7.008318 -0.380638 959 0.120658 0.992694 0.000000
-7.595531 -7.008587 -0.377475 965 0.120658 0.992694 0.000000
-7.595558 -7.008616 -0.374305 981 0.120658 0.992694 0.000000
-7.595319 -7.008384 -0.371107 963 0.120658 0.992694 0.000000
-7.595456 -7.008515 -0.367935 955 0.120658 0.992694 0.000000
-7.595425 -7.008487 -0.364766 939 0.120658 0.992694 0.000000
-7.595332 -7.008408 -0.361576 927 0.120658 0.992694 0.000000
-7.595363 -7.008430 -0.358406 925 0.120658 0.992694 0.000000
-7.594959 -7.008052 -0.355210 907 0.120658 0.992694 0.000000
-7.594936 -7.008031 -0.352030 925 0.120658 0.992694 0.000000
-7.594518 -7.007655 -0.348834 901 0.120658 0.992694 0.000000
-7.595455 -7.008513 -0.345695 905 0.120658 0.992694 0.000000
-7.596339 -7.009329 -0.342557 907 0.120658 0.992694 0.000000
-7.595760 -7.008800 -0.339362 911 0.120658 0.992694 0.000000
-7.595730 -7.008772 -0.336182 905 0.120658 0.992694 0.000000
-7.595857 -7.008882 -0.333011 921 0.120658 0.992694 0.000000
-7.595756 -7.008798 -0.329822 919 0.120658 0.992694 0.000000
-7.595566 -7.008617 -0.326643 921 0.120658 0.992694 0.000000
-7.594876 -7.007987 -0.323440 907 0.120658 0.992694 0.000000
-7.595226 -7.008301 -0.320276 915 0.120658 0.992694 0.000000
-7.594965 -7.008063 -0.317089 925 0.120658 0.992694 0.000000
-7.594878 -7.007977 -0.313910 931 0.120658 0.992694 0.000000
-7.598295 -7.006682 -0.705319 977 0.120658 0.992694 0.000000
-7.598662 -7.007022 -0.702166 981 0.120658 0.992694 0.000000
-7.598011 -7.006423 -0.698922 977 0.120658 0.992694 0.000000
-7.597257 -7.005729 -0.695669 957 0.120658 0.992694 0.000000
-7.597736 -7.006170 -0.692514 957 0.120658 0.992694 0.000000
-7.597451 -7.005914 -0.689306 965 0.120658 0.992694 0.000000
-7.597395 -7.005853 -0.686117 959 0.120658 0.992694 0.000000
-7.597540 -7.005990 -0.682936 965 0.120658 0.992694 0.000000
-7.597478 -7.005937 -0.679746 971 0.120658 0.992694 0.000000
-7.597574 -7.006022 -0.676565 965 0.120658 0.992694 0.000000
-7.597019 -7.005512 -0.673330 937 0.120658 0.992694 0.000000
-7.598141 -7.006542 -0.670240 945 0.120658 0.992694 0.000000
-7.599469 -7.007762 -0.667167 971 0.120658 0.992694 0.000000
-7.599135 -7.007455 -0.663950 983 0.120658 0.992694 0.000000
-7.598526 -7.006902 -0.660716 973 0.120658 0.992694 0.000000
-7.598726 -7.007082 -0.657544 963 0.120658 0.992694 0.000000
-7.598655 -7.007023 -0.654355 955 0.120658 0.992694 0.000000
-7.598321 -7.006701 -0.651138 943 0.120658 0.992694 0.000000
-7.598729 -7.007087 -0.647984 953 0.120658 0.992694 0.000000
-7.598928 -7.007267 -0.644822 967 0.120658 0.992694 0.000000
-7.597888 -7.006307 -0.641541 951 0.120658 0.992694 0.000000
-7.596896 -7.005397 -0.638280 949 0.120658 0.992694 0.000000
-7.597573 -7.006022 -0.635144 977 0.120658 0.992694 0.000000
-7.598575 -7.006945 -0.632045 969 0.120658 0.992694 0.000000
-7.599244 -7.007563 -0.628918 971 0.120658 0.992694 0.000000
-7.598370 -7.006748 -0.625657 943 0.120658 0.992694 0.000000
-7.597648 -7.006079 -0.622413 951 0.120658 0.992694 0.000000
-7.598054 -7.006464 -0.619259 955 0.120658 0.992694 0.000000
-7.598350 -7.006733 -0.616096 957 0.120658 0.992694 0.000000
-7.598382 -7.006755 -0.612916 961 0.120658 0.992694 0.000000
-7.598559 -7.006931 -0.609744 963 0.120658 0.992694 0.000000
-7.598433 -7.006814 -0.606555 935 0.120658 0.992694 0.000000
-7.598831 -7.007178 -0.603402 951 0.120658 0.992694 0.000000
-7.598323 -7.006706 -0.600176 969 0.120658 0.992694 0.000000
-7.597703 -7.006132 -0.596942 953 0.120658 0.992694 0.000000
-7.598913 -7.007245 -0.593851 977 0.120658 0.992694 0.000000
-7.599202 -7.007522 -0.590688 985 0.120658 0.992694 0.000000
-7.598852 -7.007188 -0.587481 985 0.120658 0.992694 0.000000
-7.598384 -7.006761 -0.584255 977 0.120658 0.992694 0.000000
-7.597979 -7.006383 -0.581039 969 0.120658 0.992694 0.000000
-7.598586 -7.006952 -0.577903 975 0.120658 0.992694 0.000000
-7.599524 -7.007811 -0.574795 979 0.120658 0.992694 0.000000
-7.599589 -7.007872 -0.571614 973 0.120658 0.992694 0.000000
-7.599875 -7.008134 -0.568451 973 0.120658 0.992694 0.000000
-7.599997 -7.008253 -0.565270 957 0.120658 0.992694 0.000000
-7.599544 -7.007824 -0.562054 965 0.120658 0.992694 0.000000
-7.599228 -7.007543 -0.558847 977 0.120658 0.992694 0.000000
-7.598655 -7.007006 -0.555622 969 0.120658 0.992694 0.000000
-7.598188 -7.006580 -0.552407 973 0.120658 0.992694 0.000000
-7.598467 -7.006836 -0.549244 961 0.120658 0.992694 0.000000
-7.598692 -7.007050 -0.546082 965 0.120658 0.992694 0.000000
-7.598708 -7.007059 -0.542901 967 0.120658 0.992694 0.000000
-7.599202 -7.007513 -0.539747 989 0.120658 0.992694 0.000000
-7.599004 -7.007325 -0.536559 977 0.120658 0.992694 0.000000
-7.599117 -7.007437 -0.533377 957 0.120658 0.992694 0.000000
-7.600088 -7.008335 -0.530268 983 0.120658 0.992694 0.000000
-7.599883 -7.008142 -0.527070 971 0.120658 0.992694 0.000000
-7.598770 -7.007111 -0.523810 965 0.120658 0.992694 0.000000
-7.599144 -7.007456 -0.520657 985 0.120658 0.992694 0.000000
-7.599099 -7.007416 -0.517467 981 0.120658 0.992694 0.000000
-7.599052 -7.007375 -0.514278 983 0.120658 0.992694 0.000000
-7.599164 -7.007473 -0.511106 979 0.120658 0.992694 0.000000
-7.598529 -7.006887 -0.507882 965 0.120658 0.992694 0.000000
-7.598689 -7.007036 -0.504711 983 0.120658 0.992694 0.000000
-7.599556 -7.007838 -0.501583 979 0.120658 0.992694 0.000000
-7.599717 -7.007988 -0.498411 969 0.120658 0.992694 0.000000
-7.600252 -7.008487 -0.495266 979 0.120658 0.992694 0.000000
-7.600578 -7.008781 -0.492103 977 0.120658 0.992694 0.000000
-7.599824 -7.008087 -0.488880 969 0.120658 0.992694 0.000000
-7.600095 -7.008338 -0.485717 995 0.120658 0.992694 0.000000
-7.600089 -7.008329 -0.482527 1001 0.120658 0.992694 0.000000
-7.598745 -7.007089 -0.479270 973 0.120658 0.992694 0.000000
-7.598367 -7.006744 -0.476063 949 0.120658 0.992694 0.000000
-7.599059 -7.007382 -0.472927 957 0.120658 0.992694 0.000000
-7.599052 -7.007372 -0.469747 971 0.120658 0.992694 0.000000
-7.599538 -7.007820 -0.466592 967 0.120658 0.992694 0.000000
-7.599850 -7.008116 -0.463429 967 0.120658 0.992694 0.000000
-7.599414 -7.007713 -0.460223 959 0.120658 0.992694 0.000000
-7.598817 -7.007158 -0.457008 947 0.120658 0.992694 0.000000
-7.598596 -7.006952 -0.453820 953 0.120658 0.992694 0.000000
-7.599114 -7.007438 -0.450665 969 0.120658 0.992694 0.000000
-7.599330 -7.007631 -0.447493 955 0.120658 0.992694 0.000000
-7.599315 -7.007615 -0.444314 955 0.120658 0.992694 0.000000
-7.600332 -7.008550 -0.441194 979 0.120658 0.992694 0.000000
-7.600526 -7.008738 -0.438022 983 0.120658 0.992694 0.000000
-7.600088 -7.008322 -0.434816 963 0.120658 0.992694 0.000000
-7.599804 -7.008067 -0.431629 967 0.120658 0.992694 0.000000
-7.599368 -7.007664 -0.428423 967 0.120658 0.992694 0.000000
-7.599290 -7.007598 -0.425233 971 0.120658 0.992694 0.000000
-7.599442 -7.007728 -0.422062 975 0.120658 0.992694 0.000000
-7.599483 -7.007770 -0.418891 973 0.120658 0.992694 0.000000
-7.599086 -7.007399 -0.415685 983 0.120658 0.992694 0.000000
-7.598531 -7.006888 -0.412480 963 0.120658 0.992694 0.000000
-7.598938 -7.007273 -0.409326 967 0.120658 0.992694 0.000000
-7.599352 -7.007650 -0.406162 979 0.120658 0.992694 0.000000
-7.600355 -7.008573 -0.403033 979 0.120658 0.992694 0.000000
-7.601142 -7.009299 -0.399895 985 0.120658 0.992694 0.000000
-7.600754 -7.008934 -0.396699 973 0.120658 0.992694 0.000000
-7.600350 -7.008571 -0.393493 947 0.120658 0.992694 0.000000
-7.599628 -7.007902 -0.390279 943 0.120658 0.992694 0.000000
-7.598476 -7.006840 -0.387050 927 0.120658 0.992694 0.000000
-7.599305 -7.007612 -0.383912 967 0.120658 0.992694 0.000000
-7.600251 -7.008477 -0.380773 969 0.120658 0.992694 0.000000
-7.599751 -7.008010 -0.377578 959 0.120658 0.992694 0.000000
-7.599340 -7.007641 -0.374372 959 0.120658 0.992694 0.000000
-7.599054 -7.007371 -0.371184 961 0.120658 0.992694 0.000000
-7.598969 -7.007299 -0.368005 931 0.120658 0.992694 0.000000
-7.599907 -7.008157 -0.364866 917 0.120658 0.992694 0.000000
-7.600036 -7.008282 -0.361695 931 0.120658 0.992694 0.000000
-7.599743 -7.008006 -0.358498 933 0.120658 0.992694 0.000000
-7.599552 -7.007825 -0.355319 911 0.120658 0.992694 0.000000
-7.599833 -7.008096 -0.352147 915 0.120658 0.992694 0.000000
-7.600342 -7.008562 -0.348992 913 0.120658 0.992694 0.000000
-7.600477 -7.008678 -0.345820 899 0.120658 0.992694 0.000000
-7.599684 -7.007953 -0.342608 889 0.120658 0.992694 0.000000
-7.599114 -7.007432 -0.339403 887 0.120658 0.992694 0.000000
-7.599774 -7.008043 -0.336257 895 0.120658 0.992694 0.000000
-7.600276 -7.008503 -0.333102 903 0.120658 0.992694 0.000000
-7.600786 -7.008969 -0.329947 909 0.120658 0.992694 0.000000
-7.600421 -7.008636 -0.326751 911 0.120658 0.992694 0.000000
-7.599960 -7.008202 -0.323555 909 0.120658 0.992694 0.000000
-7.600407 -7.008618 -0.320390 919 0.120658 0.992694 0.000000
-7.600846 -7.009027 -0.317236 931 0.120658 0.992694 0.000000
-7.600163 -7.008390 -0.314033 929 0.120658 0.992694 0.000000
-7.602697 -7.006196 -0.702331 985 0.120658 0.992694 0.000000
-7.602593 -7.006097 -0.699132 969 0.120658 0.992694 0.000000
-7.602206 -7.005747 -0.695905 957 0.120658 0.992694 0.000000
-7.602248 -7.005788 -0.692725 957 0.120658 0.992694 0.000000
-7.602940 -7.006425 -0.689598 969 0.120658 0.992694 0.000000
-7.603202 -7.006656 -0.686426 971 0.120658 0.992694 0.000000
-7.603243 -7.006698 -0.683245 981 0.120658 0.992694 0.000000
-7.603070 -7.006543 -0.680037 961 0.120658 0.992694 0.000000
-7.602960 -7.006439 -0.676838 959 0.120658 0.992694 0.000000
-7.602087 -7.005637 -0.673576 951 0.120658 0.992694 0.000000
-7.602015 -7.005563 -0.670386 947 0.120658 0.992694 0.000000
-7.603137 -7.006594 -0.667296 961 0.120658 0.992694 0.000000
-7.602901 -7.006389 -0.664088 969 0.120658 0.992694 0.000000
-7.602672 -7.006177 -0.660880 941 0.120658 0.992694 0.000000
-7.603522 -7.006953 -0.657762 953 0.120658 0.992694 0.000000
-7.602911 -7.006385 -0.654518 947 0.120658 0.992694 0.000000
-7.602516 -7.006028 -0.651301 951 0.120658 0.992694 0.000000
-7.602397 -7.005918 -0.648102 937 0.120658 0.992694 0.000000
-7.602962 -7.006441 -0.644967 955 0.120658 0.992694 0.000000
-7.602844 -7.006330 -0.641768 955 0.120658 0.992694 0.000000
-7.601955 -7.005516 -0.638506 961 0.120658 0.992694 0.000000
-7.602321 -7.005841 -0.635353 963 0.120658 0.992694 0.000000
-7.603101 -7.006561 -0.632225 965 0.120658 0.992694 0.000000
-7.602698 -7.006198 -0.629009 949 0.120658 0.992694 0.000000
-7.603104 -7.006569 -0.625855 953 0.120658 0.992694 0.000000
-7.604057 -7.007440 -0.622746 967 0.120658 0.992694 0.000000
-7.603273 -7.006721 -0.619493 963 0.120658 0.992694 0.000000
-7.602870 -7.006358 -0.616277 949 0.120658 0.992694 0.000000
-7.603116 -7.006576 -0.613115 953 0.120658 0.992694 0.000000
-7.603252 -7.006707 -0.609933 963 0.120658 0.992694 0.000000
-7.603062 -7.006525 -0.606735 953 0.120658 0.992694 0.000000
-7.602873 -7.006358 -0.603537 969 0.120658 0.992694 0.000000
-7.603383 -7.006825 -0.600392 975 0.120658 0.992694 0.000000
-7.602867 -7.006346 -0.597167 961 0.120658 0.992694 0.000000
-7.602892 -7.006375 -0.593986 961 0.120658 0.992694 0.000000
-7.602917 -7.006391 -0.590796 963 0.120658 0.992694 0.000000
-7.602997 -7.006464 -0.587625 977 0.120658 0.992694 0.000000
-7.603015 -7.006486 -0.584435 983 0.120658 0.992694 0.000000
-7.602816 -7.006299 -0.581237 989 0.120658 0.992694 0.000000
-7.603112 -7.006568 -0.578074 977 0.120658 0.992694 0.000000
-7.603670 -7.007086 -0.574929 969 0.120658 0.992694 0.000000
-7.604331 -7.007698 -0.571792 973 0.120658 0.992694 0.000000
-7.603544 -7.006965 -0.568550 961 0.120658 0.992694 0.000000
-7.602702 -7.006189 -0.565307 945 0.120658 0.992694 0.000000
-7.603475 -7.006903 -0.562180 963 0.120658 0.992694 0.000000
-7.603054 -7.006513 -0.558964 965 0.120658 0.992694 0.000000
-7.602373 -7.005889 -0.555730 951 0.120658 0.992694 0.000000
-7.602977 -7.006444 -0.552595 965 0.120658 0.992694 0.000000
-7.603201 -7.006657 -0.549422 961 0.120658 0.992694 0.000000
-7.603806 -7.007212 -0.546277 957 0.120658 0.992694 0.000000
-7.603608 -7.007024 -0.543088 961 0.120658 0.992694 0.000000
-7.603030 -7.006495 -0.539864 965 0.120658 0.992694 0.000000
-7.603198 -7.006651 -0.536692 951 0.120658 0.992694 0.000000
-7.603318 -7.006755 -0.533511 945 0.120658 0.992694 0.000000
-7.603860 -7.007261 -0.530366 971 0.120658 0.992694 0.000000
-7.603336 -7.006775 -0.527151 973 0.120658 0.992694 0.000000
-7.602535 -7.006044 -0.523908 957 0.120658 0.992694 0.000000
-7.603513 -7.006934 -0.520789 979 0.120658 0.992694 0.000000
-7.604166 -7.007540 -0.517653 975 0.120658 0.992694 0.000000
-7.604001 -7.007392 -0.514464 969 0.120658 0.992694 0.000000
-7.603580 -7.007002 -0.511248 975 0.120658 0.992694 0.000000
-7.602620 -7.006118 -0.508007 967 0.120658 0.992694 0.000000
-7.602509 -7.006013 -0.504818 977 0.120658 0.992694 0.000000
-7.603703 -7.007113 -0.501707 979 0.120658 0.992694 0.000000
-7.603600 -7.007015 -0.498518 967 0.120658 0.992694 0.000000
-7.602306 -7.005827 -0.495259 961 0.120658 0.992694 0.000000
-7.602736 -7.006217 -0.492105 961 0.120658 0.992694 0.000000
-7.603859 -7.007261 -0.488995 963 0.120658 0.992694 0.000000
-7.603644 -7.007061 -0.485797 981 0.120658 0.992694 0.000000
-7.602953 -7.006417 -0.482573 989 0.120658 0.992694 0.000000
-7.602137 -7.005673 -0.479341 965 0.120658 0.992694 0.000000
-7.602401 -7.005919 -0.476178 947 0.120658 0.992694 0.000000
-7.602990 -7.006461 -0.473023 945 0.120658 0.992694 0.000000
-7.603468 -7.006901 -0.469878 951 0.120658 0.992694 0.000000
-7.602992 -7.006454 -0.466662 949 0.120658 0.992694 0.000000
-7.602769 -7.006248 -0.463474 949 0.120658 0.992694 0.000000
-7.603779 -7.007176 -0.460345 951 0.120658 0.992694 0.000000
-7.604203 -7.007574 -0.457191 945 0.120658 0.992694 0.000000
-7.603878 -7.007273 -0.453994 943 0.120658 0.992694 0.000000
-7.603427 -7.006858 -0.450788 943 0.120658 0.992694 0.000000
-7.603586 -7.007007 -0.447616 957 0.120658 0.992694 0.000000
-7.603786 -7.007187 -0.444445 949 0.120658 0.992694 0.000000
-7.604264 -7.007629 -0.441290 971 0.120658 0.992694 0.000000
-7.604194 -7.007569 -0.438101 977 0.120658 0.992694 0.000000
-7.603328 -7.006760 -0.434879 969 0.120658 0.992694 0.000000
-7.603529 -7.006955 -0.431707 979 0.120658 0.992694 0.000000
-7.603514 -7.006939 -0.428527 971 0.120658 0.992694 0.000000
-7.603173 -7.006625 -0.425330 967 0.120658 0.992694 0.000000
-7.603746 -7.007155 -0.422174 973 0.120658 0.992694 0.000000
-7.603683 -7.007088 -0.418995 963 0.120658 0.992694 0.000000
-7.603765 -7.007175 -0.415814 967 0.120658 0.992694 0.000000
-7.604941 -7.008249 -0.412693 979 0.120658 0.992694 0.000000
-7.604600 -7.007935 -0.409496 967 0.120658 0.992694 0.000000
-7.604412 -7.007768 -0.406308 985 0.120658 0.992694 0.000000
-7.604071 -7.007455 -0.403111 953 0.120658 0.992694 0.000000
-7.603897 -7.007287 -0.399922 957 0.120658 0.992694 0.000000
-7.604033 -7.007417 -0.396751 963 0.120658 0.992694 0.000000
-7.603900 -7.007294 -0.393562 967 0.120658 0.992694 0.000000
-7.603074 -7.006530 -0.390340 953 0.120658 0.992694 0.000000
-7.602885 -7.006363 -0.387152 943 0.120658 0.992694 0.000000
-7.604102 -7.007482 -0.384030 957 0.120658 0.992694 0.000000
-7.604944 -7.008251 -0.380892 965 0.120658 0.992694 0.000000
-7.604707 -7.008033 -0.377704 957 0.120658 0.992694 0.000000
-7.604239 -7.007606 -0.374499 941 0.120658 0.992694 0.000000
-7.604591 -7.007933 -0.371335 953 0.120658 0.992694 0.000000
-7.604074 -7.007454 -0.368130 943 0.120658 0.992694 0.000000
-7.603195 -7.006647 -0.364918 921 0.120658 0.992694 0.000000
-7.603696 -7.007107 -0.361763 929 0.120658 0.992694 0.000000
-7.604214 -7.007579 -0.358599 937 0.120658 0.992694 0.000000
-7.604548 -7.007893 -0.355435 913 0.120658 0.992694 0.000000
-7.604741 -7.008068 -0.352273 923 0.120658 0.992694 0.000000
-7.604280 -7.007647 -0.349068 909 0.120658 0.992694 0.000000
-7.604734 -7.008055 -0.345913 885 0.120658 0.992694 0.000000
-7.605181 -7.008471 -0.342749 901 0.120658 0.992694 0.000000
-7.604339 -7.007694 -0.339537 877 0.120658 0.992694 0.000000
-7.604468 -7.007819 -0.336366 921 0.120658 0.992694 0.000000
-7.604485 -7.007828 -0.333185 945 0.120658 0.992694 0.000000
-7.604446 -7.007793 -0.330006 931 0.120658 0.992694 0.000000
-7.605059 -7.008354 -0.326850 931 0.120658 0.992694 0.000000
-7.605879 -7.009120 -0.323702 939 0.120658 0.992694 0.000000
-7.605522 -7.008779 -0.320505 931 0.120658 0.992694 0.000000
-7.604354 -7.007705 -0.317286 919 0.120658 0.992694 0.000000
-7.603888 -7.007278 -0.314091 919 0.120658 0.992694 0.000000
-7.605935 -7.004748 -0.702423 959 0.120658 0.992694 0.000000
-7.606516 -7.005284 -0.699287 955 0.120658 0.992694 0.000000
-7.606509 -7.005274 -0.696097 955 0.120658 0.992694 0.000000
-7.606336 -7.005120 -0.692889 955 0.120658 0.992694 0.000000
-7.605948 -7.004768 -0.689662 947 0.120658 0.992694 0.000000
-7.607069 -7.005799 -0.686582 969 0.120658 0.992694 0.000000
-7.607651 -7.006335 -0.683436 955 0.120658 0.992694 0.000000
-7.607540 -7.006230 -0.680237 965 0.120658 0.992694 0.000000
-7.607789 -7.006463 -0.677075 965 0.120658 0.992694 0.000000
-7.607781 -7.006453 -0.673885 953 0.120658 0.992694 0.000000
-7.607123 -7.005848 -0.670641 953 0.120658 0.992694 0.000000
-7.607059 -7.005781 -0.667441 967 0.120658 0.992694 0.000000
-7.606185 -7.004979 -0.664179 959 0.120658 0.992694 0.000000
-7.606282 -7.005064 -0.660998 949 0.120658 0.992694 0.000000
-7.607819 -7.006489 -0.657944 947 0.120658 0.992694 0.000000
-7.608121 -7.006765 -0.654781 957 0.120658 0.992694 0.000000
-7.607455 -7.006153 -0.651537 961 0.120658 0.992694 0.000000
-7.606970 -7.005699 -0.648302 935 0.120658 0.992694 0.000000
-7.607210 -7.005925 -0.645139 953 0.120658 0.992694 0.000000
-7.607673 -7.006354 -0.641985 965 0.120658 0.992694 0.000000
-7.608135 -7.006782 -0.638841 955 0.120658 0.992694 0.000000
-7.608072 -7.006715 -0.635641 965 0.120658 0.992694 0.000000
-7.607612 -7.006294 -0.632415 975 0.120658 0.992694 0.000000
-7.606897 -7.005630 -0.629172 955 0.120658 0.992694 0.000000
-7.607463 -7.006154 -0.626027 935 0.120658 0.992694 0.000000
-7.607489 -7.006184 -0.622846 951 0.120658 0.992694 0.000000
-7.607632 -7.006307 -0.619675 947 0.120658 0.992694 0.000000
-7.608246 -7.006882 -0.616529 953 0.120658 0.992694 0.000000
-7.607046 -7.005769 -0.613250 943 0.120658 0.992694 0.000000
-7.607016 -7.005740 -0.610060 959 0.120658 0.992694 0.000000
-7.607741 -7.006417 -0.606933 961 0.120658 0.992694 0.000000
-7.607557 -7.006241 -0.603725 961 0.120658 0.992694 0.000000
-7.607305 -7.006011 -0.600527 977 0.120658 0.992694 0.000000
-7.607275 -7.005982 -0.597338 971 0.120658 0.992694 0.000000
-7.607251 -7.005960 -0.594148 969 0.120658 0.992694 0.000000
-7.607380 -7.006085 -0.590976 985 0.120658 0.992694 0.000000
-7.607515 -7.006202 -0.587795 957 0.120658 0.992694 0.000000
-7.607692 -7.006364 -0.584624 961 0.120658 0.992694 0.000000
-7.607495 -7.006190 -0.581425 989 0.120658 0.992694 0.000000
-7.607575 -7.006263 -0.578244 995 0.120658 0.992694 0.000000
-7.607916 -7.006570 -0.575081 975 0.120658 0.992694 0.000000
-7.607290 -7.005990 -0.571847 961 0.120658 0.992694 0.000000
-7.607094 -7.005817 -0.568649 971 0.120658 0.992694 0.000000
-7.607372 -7.006073 -0.565486 967 0.120658 0.992694 0.000000
-7.607500 -7.006184 -0.562315 949 0.120658 0.992694 0.000000
-7.607843 -7.006505 -0.559151 957 0.120658 0.992694 0.000000
-7.607860 -7.006514 -0.555961 959 0.120658 0.992694 0.000000
-7.607329 -7.006037 -0.552746 959 0.120658 0.992694 0.000000
-7.607283 -7.005996 -0.549556 943 0.120658 0.992694 0.000000
-7.608214 -7.006849 -0.546438 957 0.120658 0.992694 0.000000
-7.608072 -7.006719 -0.543239 969 0.120658 0.992694 0.000000
-7.607277 -7.005980 -0.540006 959 0.120658 0.992694 0.000000
-7.607605 -7.006289 -0.536843 955 0.120658 0.992694 0.000000
-7.608107 -7.006748 -0.533688 957 0.120658 0.992694 0.000000
-7.607679 -7.006352 -0.530482 943 0.120658 0.992694 0.000000
-7.606878 -7.005620 -0.527240 951 0.120658 0.992694 0.000000
-7.606727 -7.005471 -0.524041 955 0.120658 0.992694 0.000000
-7.607222 -7.005938 -0.520896 979 0.120658 0.992694 0.000000
-7.606690 -7.005447 -0.517681 961 0.120658 0.992694 0.000000
-7.606962 -7.005698 -0.514509 967 0.120658 0.992694 0.000000
-7.607287 -7.005992 -0.511346 977 0.120658 0.992694 0.000000
-7.606756 -7.005501 -0.508130 969 0.120658 0.992694 0.000000
-7.606653 -7.005402 -0.504941 965 0.120658 0.992694 0.000000
-7.606496 -7.005260 -0.501753 973 0.120658 0.992694 0.000000
-7.606227 -7.005017 -0.498545 979 0.120658 0.992694 0.000000
-7.607302 -7.006010 -0.495435 971 0.120658 0.992694 0.000000
-7.608224 -7.006856 -0.492306 979 0.120658 0.992694 0.000000
-7.608170 -7.006809 -0.489127 975 0.120658 0.992694 0.000000
-7.608052 -7.006698 -0.485928 971 0.120658 0.992694 0.000000
-7.607838 -7.006498 -0.482740 973 0.120658 0.992694 0.000000
-7.607521 -7.006204 -0.479533 965 0.120658 0.992694 0.000000
-7.607348 -7.006049 -0.476344 963 0.120658 0.992694 0.000000
-7.607237 -7.005944 -0.473155 945 0.120658 0.992694 0.000000
-7.607986 -7.006639 -0.470018 957 0.120658 0.992694 0.000000
-7.608519 -7.007124 -0.466863 957 0.120658 0.992694 0.000000
-7.607765 -7.006430 -0.463640 941 0.120658 0.992694 0.000000
-7.607060 -7.005788 -0.460416 941 0.120658 0.992694 0.000000
-7.607322 -7.006018 -0.457244 947 0.120658 0.992694 0.000000
-7.607038 -7.005763 -0.454046 957 0.120658 0.992694 0.000000
-7.606761 -7.005513 -0.450849 957 0.120658 0.992694 0.000000
-7.607668 -7.006346 -0.447720 957 0.120658 0.992694 0.000000
-7.608090 -7.006730 -0.444566 967 0.120658 0.992694 0.000000
-7.607653 -7.006327 -0.441360 963 0.120658 0.992694 0.000000
-7.606828 -7.005564 -0.438128 957 0.120658 0.992694 0.000000
-7.607091 -7.005808 -0.434966 973 0.120658 0.992694 0.000000
-7.607499 -7.006192 -0.431802 957 0.120658 0.992694 0.000000
-7.607975 -7.006619 -0.428647 959 0.120658 0.992694 0.000000
-7.607851 -7.006516 -0.425458 959 0.120658 0.992694 0.000000
-7.607676 -7.006348 -0.422270 951 0.120658 0.992694 0.000000
-7.607661 -7.006332 -0.419090 953 0.120658 0.992694 0.000000
-7.607217 -7.005923 -0.415884 963 0.120658 0.992694 0.000000
-7.608164 -7.006802 -0.412755 963 0.120658 0.992694 0.000000
-7.608253 -7.006882 -0.409574 965 0.120658 0.992694 0.000000
-7.607428 -7.006118 -0.406352 959 0.120658 0.992694 0.000000
-7.608216 -7.006844 -0.403214 957 0.120658 0.992694 0.000000
-7.608304 -7.006923 -0.400033 959 0.120658 0.992694 0.000000
-7.608012 -7.006661 -0.396836 963 0.120658 0.992694 0.000000
-7.608051 -7.006689 -0.393666 943 0.120658 0.992694 0.000000
-7.607759 -7.006427 -0.390468 941 0.120658 0.992694 0.000000
-7.607943 -7.006595 -0.387297 959 0.120658 0.992694 0.000000
-7.607865 -7.006529 -0.384107 929 0.120658 0.992694 0.000000
-7.608008 -7.006652 -0.380936 931 0.120658 0.992694 0.000000
-7.608352 -7.006973 -0.377772 947 0.120658 0.992694 0.000000
-7.608336 -7.006957 -0.374593 953 0.120658 0.992694 0.000000
-7.608306 -7.006929 -0.371413 945 0.120658 0.992694 0.000000
-7.608110 -7.006756 -0.368225 935 0.120658 0.992694 0.000000
-7.608087 -7.006734 -0.365045 925 0.120658 0.992694 0.000000
-7.607841 -7.006509 -0.361847 929 0.120658 0.992694 0.000000
-7.608620 -7.007215 -0.358700 919 0.120658 0.992694 0.000000
-7.609124 -7.007689 -0.355545 905 0.120658 0.992694 0.000000
-7.607916 -7.006570 -0.352316 897 0.120658 0.992694 0.000000
-7.607822 -7.006491 -0.349127 907 0.120658 0.992694 0.000000
-7.608331 -7.006957 -0.345972 905 0.120658 0.992694 0.000000
-7.608570 -7.007169 -0.342800 901 0.120658 0.992694 0.000000
-7.608754 -7.007337 -0.339628 905 0.120658 0.992694 0.000000
-7.608501 -7.007106 -0.336440 909 0.120658 0.992694 0.000000
-7.608844 -7.007427 -0.333277 931 0.120658 0.992694 0.000000
-7.609338 -7.007881 -0.330112 939 0.120658 0.992694 0.000000
-7.609036 -7.007598 -0.326925 935 0.120658 0.992694 0.000000
-7.608292 -7.006925 -0.323712 921 0.120658 0.992694 0.000000
-7.607831 -7.006490 -0.320516 897 0.120658 0.992694 0.000000
-7.608119 -7.006753 -0.317353 899 0.120658 0.992694 0.000000
-7.608343 -7.006967 -0.314181 895 0.120658 0.992694 0.000000
