774
-7.401858 -7.091209 -0.566946 1293 0.282458 0.959280 0.000000
-7.401454 -7.090815 -0.563760 1291 0.282458 0.959280 0.000000
-7.401210 -7.090589 -0.560582 1293 0.282458 0.959280 0.000000
-7.400695 -7.090092 -0.557387 1289 0.282458 0.959280 0.000000
-7.400918 -7.090307 -0.554244 1291 0.282458 0.959280 0.000000
-7.400722 -7.090118 -0.551076 1283 0.282458 0.959280 0.000000
-7.400573 -7.089981 -0.547908 1285 0.282458 0.959280 0.000000
-7.401539 -7.090899 -0.544818 1297 0.282458 0.959280 0.000000
-7.401445 -7.090807 -0.541659 1293 0.282458 0.959280 0.000000
-7.401509 -7.090868 -0.538508 1299 0.282458 0.959280 0.000000
-7.401361 -7.090731 -0.535340 1283 0.282458 0.959280 0.000000
-7.401156 -7.090537 -0.532172 1291 0.282458 0.959280 0.000000
-7.401433 -7.090795 -0.529039 1291 0.282458 0.959280 0.000000
-7.402227 -7.091561 -0.525931 1289 0.282458 0.959280 0.000000
-7.402608 -7.091929 -0.522807 1293 0.282458 0.959280 0.000000
-7.402039 -7.091375 -0.519613 1305 0.282458 0.959280 0.000000
-7.401565 -7.090924 -0.516417 1311 0.282458 0.959280 0.000000
-7.401621 -7.090979 -0.513267 1293 0.282458 0.959279 0.000000
-7.401939 -7.091283 -0.510134 1309 0.282458 0.959280 0.000000
-7.401473 -7.090839 -0.506948 1309 0.282458 0.959280 0.000000
-7.401205 -7.090580 -0.503780 1303 0.282458 0.959280 0.000000
-7.401104 -7.090494 -0.500611 1299 0.282458 0.959280 0.000000
-7.401049 -7.090433 -0.497462 1301 0.282458 0.959280 0.000000
-7.401264 -7.090642 -0.494320 1311 0.282458 0.959280 0.000000
-7.401369 -7.090748 -0.491169 1303 0.282458 0.959280 0.000000
-7.401107 -7.090495 -0.488001 1287 0.282458 0.959280 0.000000
-7.401361 -7.090735 -0.484858 1305 0.282458 0.959280 0.000000
-7.401688 -7.091046 -0.481725 1305 0.282458 0.959280 0.000000
-7.401681 -7.091036 -0.478575 1303 0.282458 0.959280 0.000000
-7.401737 -7.091091 -0.475415 1297 0.282458 0.959279 0.000000
-7.401937 -7.091287 -0.472283 1305 0.282458 0.959280 0.000000
-7.402096 -7.091437 -0.469131 1299 0.282458 0.959280 0.000000
-7.402034 -7.091384 -0.465972 1295 0.282458 0.959280 0.000000
-7.402075 -7.091425 -0.462821 1295 0.282458 0.959280 0.000000
-7.402329 -7.091666 -0.459689 1297 0.282458 0.959280 0.000000
-7.401799 -7.091157 -0.456504 1287 0.282458 0.959280 0.000000
-7.401523 -7.090891 -0.453326 1297 0.282458 0.959280 0.000000
-7.401359 -7.090742 -0.450168 1289 0.282458 0.959280 0.000000
-7.401556 -7.090924 -0.447026 1289 0.282458 0.959280 0.000000
-7.401764 -7.091126 -0.443884 1295 0.282458 0.959280 0.000000
-7.401695 -7.091066 -0.440724 1289 0.282458 0.959280 0.000000
-7.402004 -7.091350 -0.437591 1293 0.282458 0.959280 0.000000
-7.402203 -7.091546 -0.434449 1303 0.282458 0.959280 0.000000
-7.402133 -7.091486 -0.431290 1299 0.282458 0.959280 0.000000
-7.402015 -7.091374 -0.428131 1297 0.282458 0.959280 0.000000
-7.401264 -7.090647 -0.424938 1287 0.282458 0.959280 0.000000
-7.400663 -7.090068 -0.421754 1287 0.282458 0.959280 0.000000
-7.400972 -7.090365 -0.418611 1293 0.282458 0.959280 0.000000
-7.401743 -7.091113 -0.415503 1291 0.282458 0.959280 0.000000
-7.401783 -7.091141 -0.412353 1295 0.282458 0.959280 0.000000
-7.401286 -7.090671 -0.409177 1287 0.282458 0.959280 0.000000
-7.401896 -7.091250 -0.406051 1295 0.282458 0.959280 0.000000
-7.402887 -7.092202 -0.402952 1299 0.282458 0.959280 0.000000
-7.402864 -7.092179 -0.399802 1299 0.282458 0.959280 0.000000
-7.402628 -7.091959 -0.396634 1301 0.282458 0.959280 0.000000
-7.402027 -7.091380 -0.393450 1299 0.282458 0.959280 0.000000
-7.401743 -7.091108 -0.390283 1301 0.282458 0.959280 0.000000
-7.401927 -7.091291 -0.387141 1297 0.282458 0.959280 0.000000
-7.401958 -7.091313 -0.383990 1303 0.282458 0.959280 0.000000
-7.401881 -7.091247 -0.380831 1311 0.282458 0.959280 0.000000
-7.401590 -7.090969 -0.377674 1293 0.282458 0.959280 0.000000
-7.401828 -7.091197 -0.374531 1295 0.282458 0.959280 0.000000
-7.402597 -7.091929 -0.371414 1299 0.282458 0.959280 0.000000
-7.401877 -7.091241 -0.368231 1283 0.282458 0.959280 0.000000
-7.401696 -7.091065 -0.365072 1277 0.282458 0.959279 0.000000
-7.402623 -7.091952 -0.361963 1291 0.282458 0.959280 0.000000
-7.402270 -7.091624 -0.358787 1295 0.282458 0.959280 0.000000
-7.401715 -7.091082 -0.355612 1273 0.282458 0.959280 0.000000
-7.401684 -7.091053 -0.352462 1279 0.282458 0.959280 0.000000
-7.401227 -7.090615 -0.349286 1275 0.282458 0.959280 0.000000
-7.401354 -7.090740 -0.346145 1283 0.282458 0.959280 0.000000
-7.402220 -7.091577 -0.343037 1287 0.282458 0.959280 0.000000
-7.402607 -7.091938 -0.339893 1285 0.282458 0.959280 0.000000
-7.402735 -7.092063 -0.336752 1289 0.282458 0.959280 0.000000
-7.402119 -7.091471 -0.333578 1275 0.282458 0.959280 0.000000
-7.400918 -7.090330 -0.330369 1275 0.282458 0.959280 0.000000
-7.400721 -7.090142 -0.327211 1275 0.282458 0.959280 0.000000
-7.401267 -7.090656 -0.324085 1275 0.282458 0.959280 0.000000
-7.401333 -7.090731 -0.320935 1279 0.282458 0.959280 0.000000
-7.401349 -7.090740 -0.317785 1269 0.282458 0.959280 0.000000
-7.402150 -7.091513 -0.314667 1273 0.282458 0.959280 0.000000
-7.401851 -7.091228 -0.311509 1289 0.282458 0.959280 0.000000
-7.404658 -7.089376 -0.709175 1279 0.282458 0.959280 0.000000
-7.404644 -7.089374 -0.706015 1281 0.282458 0.959280 0.000000
-7.404225 -7.088967 -0.702819 1289 0.282458 0.959280 0.000000
-7.404059 -7.088804 -0.699641 1273 0.282458 0.959280 0.000000
-7.404528 -7.089255 -0.696516 1281 0.282458 0.959280 0.000000
-7.405051 -7.089751 -0.693401 1289 0.282458 0.959280 0.000000
-7.404990 -7.089697 -0.690241 1291 0.282458 0.959280 0.000000
-7.404611 -7.089336 -0.687045 1297 0.282458 0.959280 0.000000
-7.403653 -7.088418 -0.683794 1283 0.282458 0.959280 0.000000
-7.403005 -7.087801 -0.680570 1271 0.282458 0.959280 0.000000
-7.404258 -7.089001 -0.677528 1289 0.282458 0.959280 0.000000
-7.405572 -7.090252 -0.674475 1295 0.282458 0.959280 0.000000
-7.404607 -7.089327 -0.671235 1291 0.282458 0.959280 0.000000
-7.403745 -7.088511 -0.667993 1281 0.282458 0.959280 0.000000
-7.404530 -7.089258 -0.664905 1281 0.282458 0.959280 0.000000
-7.404246 -7.088985 -0.661718 1281 0.282458 0.959280 0.000000
-7.403915 -7.088676 -0.658531 1295 0.282458 0.959280 0.000000
-7.404161 -7.088910 -0.655388 1303 0.282458 0.959280 0.000000
-7.404249 -7.088989 -0.652238 1299 0.282458 0.959280 0.000000
-7.404283 -7.089025 -0.649077 1297 0.282458 0.959280 0.000000
-7.403848 -7.088606 -0.645881 1299 0.282458 0.959280 0.000000
-7.403612 -7.088386 -0.642703 1295 0.282458 0.959280 0.000000
-7.403913 -7.088664 -0.639571 1283 0.282458 0.959280 0.000000
-7.404524 -7.089257 -0.636465 1289 0.282458 0.959280 0.000000
-7.405301 -7.089996 -0.633367 1293 0.282458 0.959280 0.000000
-7.405278 -7.089974 -0.630207 1301 0.282458 0.959280 0.000000
-7.404883 -7.089600 -0.627011 1287 0.282458 0.959280 0.000000
-7.405225 -7.089923 -0.623878 1291 0.282458 0.959280 0.000000
-7.404996 -7.089709 -0.620700 1289 0.282458 0.959280 0.000000
-7.404807 -7.089526 -0.617531 1301 0.282458 0.959280 0.000000
-7.404572 -7.089307 -0.614354 1303 0.282458 0.959280 0.000000
-7.404390 -7.089130 -0.611175 1299 0.282458 0.959280 0.000000
-7.404676 -7.089410 -0.608042 1295 0.282458 0.959280 0.000000
-7.404646 -7.089381 -0.604883 1297 0.282458 0.959280 0.000000
-7.404361 -7.089096 -0.601695 1289 0.282458 0.959280 0.000000
-7.404434 -7.089177 -0.598544 1297 0.282458 0.959280 0.000000
-7.404514 -7.089250 -0.595394 1307 0.282458 0.959280 0.000000
-7.405275 -7.089976 -0.592296 1307 0.282458 0.959280 0.000000
-7.405616 -7.090300 -0.589163 1321 0.282458 0.959280 0.000000
-7.404525 -7.089260 -0.585923 1307 0.282458 0.959280 0.000000
-7.404487 -7.089226 -0.582764 1303 0.282458 0.959280 0.000000
-7.405035 -7.089755 -0.579648 1299 0.282458 0.959280 0.000000
-7.405637 -7.090327 -0.576532 1311 0.282458 0.959280 0.000000
-7.405766 -7.090453 -0.573381 1305 0.282458 0.959280 0.000000
-7.406368 -7.091025 -0.570265 1309 0.282458 0.959280 0.000000
-7.406219 -7.090889 -0.567097 1301 0.282458 0.959280 0.000000
-7.405134 -7.089841 -0.563857 1301 0.282458 0.959280 0.000000
-7.404667 -7.089396 -0.560671 1303 0.282458 0.959280 0.000000
-7.404581 -7.089310 -0.557502 1291 0.282458 0.959280 0.000000
-7.404115 -7.088865 -0.554317 1281 0.282458 0.959280 0.000000
-7.403705 -7.088479 -0.551130 1285 0.282458 0.959280 0.000000
-7.403405 -7.088194 -0.547953 1279 0.282458 0.959280 0.000000
-7.403841 -7.088607 -0.544829 1289 0.282458 0.959280 0.000000
-7.404904 -7.089629 -0.541749 1301 0.282458 0.959280 0.000000
-7.405238 -7.089946 -0.538615 1311 0.282458 0.959280 0.000000
-7.405612 -7.090308 -0.535482 1321 0.282458 0.959280 0.000000
-7.405311 -7.090010 -0.532305 1303 0.282458 0.959280 0.000000
-7.404892 -7.089617 -0.529118 1299 0.282458 0.959280 0.000000
-7.405266 -7.089979 -0.525985 1283 0.282458 0.959280 0.000000
-7.405172 -7.089887 -0.522826 1289 0.282458 0.959280 0.000000
-7.404602 -7.089332 -0.519631 1305 0.282458 0.959280 0.000000
-7.404232 -7.088991 -0.516454 1303 0.282458 0.959280 0.000000
-7.404343 -7.089089 -0.513303 1293 0.282458 0.959280 0.000000
-7.404550 -7.089292 -0.510161 1285 0.282458 0.959280 0.000000
-7.404669 -7.089397 -0.507010 1293 0.282458 0.959280 0.000000
-7.405242 -7.089959 -0.503894 1303 0.282458 0.959280 0.000000
-7.405306 -7.090020 -0.500744 1303 0.282458 0.959280 0.000000
-7.404777 -7.089511 -0.497559 1303 0.282458 0.959280 0.000000
-7.404935 -7.089661 -0.494407 1313 0.282458 0.959280 0.000000
-7.405515 -7.090215 -0.491292 1305 0.282458 0.959280 0.000000
-7.405200 -7.089918 -0.488114 1295 0.282458 0.959280 0.000000
-7.404622 -7.089357 -0.484920 1297 0.282458 0.959280 0.000000
-7.404781 -7.089508 -0.481778 1305 0.282458 0.959280 0.000000
-7.404671 -7.089403 -0.478619 1295 0.282458 0.959279 0.000000
-7.404561 -7.089297 -0.475460 1283 0.282458 0.959280 0.000000
-7.405030 -7.089749 -0.472336 1303 0.282458 0.959280 0.000000
-7.405712 -7.090399 -0.469219 1317 0.282458 0.959280 0.000000
-7.405698 -7.090397 -0.466059 1317 0.282458 0.959280 0.000000
-7.404907 -7.089638 -0.462857 1297 0.282458 0.959280 0.000000
-7.405374 -7.090076 -0.459732 1299 0.282458 0.959280 0.000000
-7.405259 -7.089978 -0.456573 1295 0.282458 0.959280 0.000000
-7.404886 -7.089610 -0.453397 1283 0.282458 0.959280 0.000000
-7.405457 -7.090158 -0.450271 1291 0.282458 0.959280 0.000000
-7.405236 -7.089949 -0.447113 1297 0.282458 0.959280 0.000000
-7.404802 -7.089530 -0.443927 1305 0.282458 0.959280 0.000000
-7.405002 -7.089726 -0.440785 1295 0.282458 0.959280 0.000000
-7.405675 -7.090370 -0.437669 1295 0.282458 0.959280 0.000000
-7.405765 -7.090464 -0.434528 1299 0.282458 0.959280 0.000000
-7.405338 -7.090051 -0.431342 1283 0.282458 0.959280 0.000000
-7.405632 -7.090336 -0.428209 1301 0.282458 0.959280 0.000000
-7.405515 -7.090225 -0.425050 1299 0.282458 0.959280 0.000000
-7.405128 -7.089857 -0.421874 1301 0.282458 0.959280 0.000000
-7.405278 -7.089987 -0.418732 1297 0.282458 0.959280 0.000000
-7.406158 -7.090836 -0.415624 1299 0.282458 0.959280 0.000000
-7.406247 -7.090916 -0.412473 1299 0.282458 0.959280 0.000000
-7.405440 -7.090145 -0.409280 1297 0.282458 0.959280 0.000000
-7.405465 -7.090174 -0.406130 1291 0.282458 0.959280 0.000000
-7.405926 -7.090620 -0.402995 1307 0.282458 0.959279 0.000000
-7.405538 -7.090238 -0.399819 1299 0.282458 0.959280 0.000000
-7.406204 -7.090876 -0.396703 1307 0.282458 0.959280 0.000000
-7.405707 -7.090406 -0.393527 1297 0.282458 0.959280 0.000000
-7.404941 -7.089680 -0.390334 1295 0.282458 0.959280 0.000000
-7.405282 -7.090003 -0.387201 1293 0.282458 0.959280 0.000000
-7.406106 -7.090794 -0.384083 1313 0.282458 0.959280 0.000000
-7.405876 -7.090567 -0.380925 1291 0.282458 0.959280 0.000000
-7.405895 -7.090590 -0.377775 1307 0.282458 0.959280 0.000000
-7.405880 -7.090574 -0.374615 1313 0.282458 0.959280 0.000000
-7.405477 -7.090194 -0.371449 1289 0.282458 0.959280 0.000000
-7.405509 -7.090216 -0.368299 1285 0.282458 0.959280 0.000000
-7.405210 -7.089931 -0.365131 1287 0.282458 0.959280 0.000000
-7.405663 -7.090371 -0.361997 1297 0.282458 0.959280 0.000000
-7.406155 -7.090841 -0.358872 1303 0.282458 0.959280 0.000000
-7.405917 -7.090607 -0.355704 1299 0.282458 0.959280 0.000000
-7.405625 -7.090329 -0.352537 1291 0.282458 0.959280 0.000000
-7.405374 -7.090097 -0.349379 1291 0.282458 0.959280 0.000000
-7.405295 -7.090016 -0.346220 1285 0.282458 0.959280 0.000000
-7.405526 -7.090237 -0.343078 1289 0.282458 0.959280 0.000000
-7.405963 -7.090664 -0.339944 1281 0.282458 0.959280 0.000000
-7.405878 -7.090578 -0.336794 1277 0.282458 0.959280 0.000000
-7.405370 -7.090087 -0.333619 1283 0.282458 0.959280 0.000000
-7.404692 -7.089445 -0.330436 1277 0.282458 0.959280 0.000000
-7.404234 -7.089007 -0.327270 1263 0.282458 0.959280 0.000000
-7.404995 -7.089734 -0.324152 1273 0.282458 0.959279 0.000000
-7.405059 -7.089795 -0.321002 1281 0.282458 0.959280 0.000000
-7.404394 -7.089150 -0.317818 1273 0.282458 0.959280 0.000000
-7.404554 -7.089315 -0.314676 1275 0.282458 0.959280 0.000000
-7.404848 -7.089587 -0.311534 1281 0.282458 0.959280 0.000000
-7.409632 -7.089457 -0.706261 1299 0.282458 0.959280 0.000000
-7.408827 -7.088700 -0.703029 1289 0.282458 0.959280 0.000000
-7.408510 -7.088388 -0.699832 1289 0.282458 0.959280 0.000000
-7.408344 -7.088224 -0.696653 1285 0.282458 0.959279 0.000000
-7.408543 -7.088420 -0.693511 1287 0.282458 0.959280 0.000000
-7.409067 -7.088916 -0.690396 1291 0.282458 0.959280 0.000000
-7.408427 -7.088306 -0.687172 1295 0.282458 0.959280 0.000000
-7.407985 -7.087893 -0.683976 1289 0.282458 0.959280 0.000000
-7.407876 -7.087788 -0.680797 1289 0.282458 0.959280 0.000000
-7.407653 -7.087567 -0.677619 1287 0.282458 0.959280 0.000000
-7.407901 -7.087814 -0.674477 1295 0.282458 0.959280 0.000000
-7.407996 -7.087900 -0.671326 1301 0.282458 0.959280 0.000000
-7.407672 -7.087583 -0.668139 1293 0.282458 0.959280 0.000000
-7.407975 -7.087875 -0.665006 1295 0.282458 0.959280 0.000000
-7.408538 -7.088417 -0.661890 1295 0.282458 0.959280 0.000000
-7.408888 -7.088759 -0.658757 1307 0.282458 0.959280 0.000000
-7.408715 -7.088590 -0.655578 1321 0.282458 0.959279 0.000000
-7.407798 -7.087717 -0.652347 1305 0.282458 0.959280 0.000000
-7.407893 -7.087803 -0.649186 1303 0.282458 0.959280 0.000000
-7.408291 -7.088184 -0.646062 1293 0.282458 0.959280 0.000000
-7.408536 -7.088418 -0.642920 1301 0.282458 0.959280 0.000000
-7.408721 -7.088601 -0.639778 1297 0.282458 0.959280 0.000000
-7.408871 -7.088731 -0.636627 1297 0.282458 0.959280 0.000000
-7.408842 -7.088717 -0.633467 1293 0.282458 0.959280 0.000000
-7.408612 -7.088489 -0.630289 1289 0.282458 0.959280 0.000000
-7.409278 -7.089126 -0.627182 1297 0.282458 0.959280 0.000000
-7.409676 -7.089508 -0.624059 1303 0.282458 0.959280 0.000000
-7.409336 -7.089178 -0.620872 1301 0.282458 0.959280 0.000000
-7.409306 -7.089163 -0.617702 1293 0.282458 0.959279 0.000000
-7.408966 -7.088833 -0.614515 1299 0.282458 0.959280 0.000000
-7.408682 -7.088561 -0.611338 1305 0.282458 0.959280 0.000000
-7.409072 -7.088936 -0.608204 1307 0.282458 0.959280 0.000000
-7.408731 -7.088606 -0.605017 1293 0.282458 0.959280 0.000000
-7.408652 -7.088526 -0.601858 1289 0.282458 0.959280 0.000000
-7.408361 -7.088248 -0.598671 1285 0.282458 0.959280 0.000000
-7.407910 -7.087816 -0.595475 1287 0.282458 0.959280 0.000000
-7.408617 -7.088498 -0.592378 1297 0.282458 0.959280 0.000000
-7.409370 -7.089219 -0.589271 1297 0.282458 0.959280 0.000000
-7.409127 -7.088993 -0.586093 1301 0.282458 0.959280 0.000000
-7.408620 -7.088502 -0.582898 1301 0.282458 0.959280 0.000000
-7.408748 -7.088627 -0.579746 1291 0.282458 0.959280 0.000000
-7.408710 -7.088593 -0.576587 1295 0.282458 0.959280 0.000000
-7.408370 -7.088263 -0.573400 1297 0.282458 0.959280 0.000000
-7.408386 -7.088272 -0.570250 1293 0.282458 0.959280 0.000000
-7.408452 -7.088347 -0.567099 1293 0.282458 0.959280 0.000000
-7.408785 -7.088664 -0.563966 1317 0.282458 0.959280 0.000000
-7.409166 -7.089033 -0.560832 1311 0.282458 0.959280 0.000000
-7.408501 -7.088388 -0.557628 1293 0.282458 0.959280 0.000000
-7.408352 -7.088252 -0.554459 1289 0.282458 0.959280 0.000000
-7.408789 -7.088665 -0.551325 1301 0.282458 0.959280 0.000000
-7.409178 -7.089040 -0.548201 1299 0.282458 0.959280 0.000000
-7.409662 -7.089504 -0.545077 1297 0.282458 0.959280 0.000000
-7.409038 -7.088906 -0.541873 1297 0.282458 0.959280 0.000000
-7.408372 -7.088262 -0.538669 1285 0.282458 0.959280 0.000000
-7.408580 -7.088464 -0.535527 1297 0.282458 0.959280 0.000000
-7.408652 -7.088531 -0.532376 1309 0.282458 0.959280 0.000000
-7.408288 -7.088182 -0.529190 1285 0.282458 0.959280 0.000000
-7.408710 -7.088596 -0.526065 1303 0.282458 0.959280 0.000000
-7.408719 -7.088599 -0.522915 1303 0.282458 0.959280 0.000000
-7.408301 -7.088207 -0.519729 1309 0.282458 0.959280 0.000000
-7.407779 -7.087704 -0.516534 1301 0.282458 0.959280 0.000000
-7.408057 -7.087963 -0.513391 1307 0.282458 0.959280 0.000000
-7.409064 -7.088927 -0.510312 1319 0.282458 0.959280 0.000000
-7.409960 -7.089788 -0.507213 1317 0.282458 0.959280 0.000000
-7.409445 -7.089292 -0.504018 1311 0.282458 0.959280 0.000000
-7.408805 -7.088681 -0.500824 1303 0.282458 0.959280 0.000000
-7.409069 -7.088942 -0.497681 1303 0.282458 0.959279 0.000000
-7.409021 -7.088886 -0.494522 1317 0.282458 0.959279 0.000000
-7.408547 -7.088435 -0.491336 1311 0.282458 0.959280 0.000000
-7.408541 -7.088439 -0.488186 1303 0.282458 0.959280 0.000000
-7.408693 -7.088584 -0.485035 1305 0.282458 0.959280 0.000000
-7.408487 -7.088375 -0.481866 1309 0.282458 0.959280 0.000000
-7.408489 -7.088386 -0.478716 1297 0.282458 0.959280 0.000000
-7.408853 -7.088727 -0.475583 1293 0.282458 0.959280 0.000000
-7.409267 -7.089136 -0.472449 1303 0.282458 0.959280 0.000000
-7.409584 -7.089426 -0.469316 1321 0.282458 0.959280 0.000000
-7.409680 -7.089526 -0.466165 1317 0.282458 0.959280 0.000000
-7.409612 -7.089467 -0.463005 1311 0.282458 0.959280 0.000000
-7.409350 -7.089213 -0.459838 1301 0.282458 0.959280 0.000000
-7.408813 -7.088697 -0.456643 1297 0.282458 0.959280 0.000000
-7.408750 -7.088630 -0.453483 1291 0.282458 0.959280 0.000000
-7.408744 -7.088634 -0.450333 1291 0.282458 0.959280 0.000000
-7.408317 -7.088222 -0.447157 1293 0.282458 0.959280 0.000000
-7.408089 -7.088007 -0.443989 1303 0.282458 0.959280 0.000000
-7.408287 -7.088190 -0.440847 1299 0.282458 0.959280 0.000000
-7.408535 -7.088438 -0.437705 1285 0.282458 0.959280 0.000000
-7.408479 -7.088376 -0.434545 1289 0.282458 0.959280 0.000000
-7.408045 -7.087957 -0.431369 1289 0.282458 0.959280 0.000000
-7.408395 -7.088300 -0.428236 1291 0.282458 0.959280 0.000000
-7.409750 -7.089596 -0.425153 1301 0.282458 0.959280 0.000000
-7.409687 -7.089529 -0.421993 1303 0.282458 0.959280 0.000000
-7.409197 -7.089065 -0.418818 1295 0.282458 0.959280 0.000000
-7.409182 -7.089049 -0.415658 1303 0.282458 0.959280 0.000000
-7.409326 -7.089187 -0.412517 1301 0.282458 0.959280 0.000000
-7.409352 -7.089217 -0.409366 1295 0.282458 0.959279 0.000000
-7.409123 -7.089003 -0.406199 1305 0.282458 0.959280 0.000000
-7.409521 -7.089385 -0.403065 1317 0.282458 0.959280 0.000000
-7.409410 -7.089265 -0.399906 1303 0.282458 0.959280 0.000000
-7.409015 -7.088892 -0.396729 1293 0.282458 0.959280 0.000000
-7.409461 -7.089324 -0.393595 1305 0.282458 0.959280 0.000000
-7.409763 -7.089616 -0.390462 1305 0.282458 0.959280 0.000000
-7.409375 -7.089234 -0.387286 1289 0.282458 0.959280 0.000000
-7.409131 -7.089008 -0.384118 1293 0.282458 0.959280 0.000000
-7.409425 -7.089293 -0.380985 1305 0.282458 0.959280 0.000000
-7.409822 -7.089674 -0.377851 1309 0.282458 0.959280 0.000000
-7.410061 -7.089902 -0.374709 1309 0.282458 0.959280 0.000000
-7.409934 -7.089770 -0.371550 1299 0.282458 0.959280 0.000000
-7.409263 -7.089134 -0.368366 1281 0.282458 0.959280 0.000000
-7.408979 -7.088862 -0.365199 1279 0.282458 0.959280 0.000000
-7.408892 -7.088776 -0.362040 1291 0.282458 0.959280 0.000000
-7.408601 -7.088498 -0.358872 1287 0.282458 0.959280 0.000000
-7.409259 -7.089128 -0.355756 1289 0.282458 0.959280 0.000000
-7.409917 -7.089759 -0.352630 1293 0.282458 0.959280 0.000000
-7.409768 -7.089622 -0.349471 1295 0.282458 0.959280 0.000000
-7.409374 -7.089249 -0.346305 1287 0.282458 0.959279 0.000000
-7.409231 -7.089104 -0.343146 1289 0.282458 0.959280 0.000000
-7.409621 -7.089478 -0.340002 1291 0.282458 0.959280 0.000000
-7.410169 -7.090007 -0.336877 1293 0.282458 0.959280 0.000000
-7.410669 -7.090485 -0.333742 1303 0.282458 0.959279 0.000000
-7.410203 -7.090040 -0.330576 1291 0.282458 0.959280 0.000000
-7.409642 -7.089506 -0.327402 1293 0.282458 0.959280 0.000000
-7.409176 -7.089061 -0.324226 1281 0.282458 0.959280 0.000000
-7.409192 -7.089071 -0.321076 1277 0.282458 0.959280 0.000000
-7.408892 -7.088786 -0.317909 1287 0.282458 0.959280 0.000000
-7.408276 -7.088195 -0.314734 1271 0.282458 0.959280 0.000000
-7.409029 -7.088915 -0.311617 1273 0.282458 0.959280 0.000000
-7.411784 -7.087094 -0.706263 1289 0.282458 0.959280 0.000000
-7.411524 -7.086841 -0.703075 1279 0.282458 0.959280 0.000000
-7.411675 -7.086986 -0.699924 1289 0.282458 0.959280 0.000000
-7.411985 -7.087284 -0.696791 1287 0.282458 0.959280 0.000000
-7.412026 -7.087326 -0.693630 1287 0.282458 0.959280 0.000000
-7.411647 -7.086964 -0.690434 1285 0.282458 0.959280 0.000000
-7.412005 -7.087314 -0.687300 1291 0.282458 0.959280 0.000000
-7.412203 -7.087496 -0.684158 1289 0.282458 0.959280 0.000000
-7.412514 -7.087794 -0.681025 1285 0.282458 0.959280 0.000000
-7.413085 -7.088342 -0.677910 1303 0.282458 0.959280 0.000000
-7.412808 -7.088076 -0.674722 1303 0.282458 0.959280 0.000000
-7.412373 -7.087656 -0.671516 1311 0.282458 0.959280 0.000000
-7.411773 -7.087090 -0.668302 1301 0.282458 0.959280 0.000000
-7.412076 -7.087383 -0.665169 1299 0.282458 0.959280 0.000000
-7.412330 -7.087623 -0.662026 1301 0.282458 0.959280 0.000000
-7.411736 -7.087049 -0.658812 1297 0.282458 0.959280 0.000000
-7.411659 -7.086983 -0.655653 1301 0.282458 0.959280 0.000000
-7.411754 -7.087069 -0.652492 1301 0.282458 0.959280 0.000000
-7.411685 -7.087009 -0.649322 1301 0.282458 0.959280 0.000000
-7.411566 -7.086884 -0.646153 1301 0.282458 0.959280 0.000000
-7.411647 -7.086971 -0.643002 1299 0.282458 0.959280 0.000000
-7.411783 -7.087103 -0.639851 1295 0.282458 0.959280 0.000000
-7.411657 -7.086984 -0.636682 1289 0.282458 0.959280 0.000000
-7.412117 -7.087416 -0.633558 1285 0.282458 0.959280 0.000000
-7.412522 -7.087803 -0.630434 1289 0.282458 0.959280 0.000000
-7.412230 -7.087525 -0.627246 1299 0.282458 0.959280 0.000000
-7.411890 -7.087196 -0.624060 1295 0.282458 0.959280 0.000000
-7.412446 -7.087730 -0.620944 1299 0.282458 0.959280 0.000000
-7.412899 -7.088170 -0.617820 1303 0.282458 0.959280 0.000000
-7.412076 -7.087386 -0.614588 1305 0.282458 0.959280 0.000000
-7.411467 -7.086800 -0.611383 1297 0.282458 0.959280 0.000000
-7.411547 -7.086874 -0.608233 1299 0.282458 0.959280 0.000000
-7.411470 -7.086808 -0.605063 1279 0.282458 0.959280 0.000000
-7.411970 -7.087285 -0.601938 1293 0.282458 0.959280 0.000000
-7.411463 -7.086795 -0.598743 1285 0.282458 0.959280 0.000000
-7.411433 -7.086766 -0.595583 1293 0.282458 0.959280 0.000000
-7.412670 -7.087955 -0.592521 1297 0.282458 0.959280 0.000000
-7.413065 -7.088322 -0.589388 1299 0.282458 0.959280 0.000000
-7.412402 -7.087692 -0.586174 1291 0.282458 0.959280 0.000000
-7.412315 -7.087605 -0.583015 1299 0.282458 0.959280 0.000000
-7.411652 -7.086975 -0.579801 1293 0.282458 0.959280 0.000000
-7.411139 -7.086493 -0.576606 1289 0.282458 0.959280 0.000000
-7.411314 -7.086656 -0.573464 1293 0.282458 0.959280 0.000000
-7.412233 -7.087536 -0.570375 1301 0.282458 0.959280 0.000000
-7.412677 -7.087955 -0.567241 1307 0.282458 0.959280 0.000000
-7.412479 -7.087767 -0.564073 1309 0.282458 0.959280 0.000000
-7.412388 -7.087688 -0.560903 1301 0.282458 0.959280 0.000000
-7.412292 -7.087595 -0.557744 1303 0.282458 0.959280 0.000000
-7.412516 -7.087810 -0.554602 1307 0.282458 0.959280 0.000000
-7.412215 -7.087512 -0.551415 1295 0.282458 0.959280 0.000000
-7.411963 -7.087278 -0.548247 1293 0.282458 0.959280 0.000000
-7.412028 -7.087340 -0.545086 1295 0.282458 0.959280 0.000000
-7.412202 -7.087502 -0.541945 1285 0.282458 0.959280 0.000000
-7.412108 -7.087410 -0.538776 1293 0.282458 0.959279 0.000000
-7.412323 -7.087618 -0.535633 1297 0.282458 0.959280 0.000000
-7.412278 -7.087577 -0.532474 1297 0.282458 0.959280 0.000000
-7.412452 -7.087740 -0.529332 1297 0.282458 0.959280 0.000000
-7.412612 -7.087905 -0.526180 1297 0.282458 0.959280 0.000000
-7.412779 -7.088061 -0.523039 1301 0.282458 0.959280 0.000000
-7.413154 -7.088424 -0.519905 1311 0.282458 0.959280 0.000000
-7.412632 -7.087921 -0.516710 1315 0.282458 0.959280 0.000000
-7.411628 -7.086965 -0.513489 1305 0.282458 0.959280 0.000000
-7.411857 -7.087172 -0.510347 1309 0.282458 0.959280 0.000000
-7.412071 -7.087380 -0.507205 1303 0.282458 0.959280 0.000000
-7.412066 -7.087385 -0.504045 1301 0.282458 0.959280 0.000000
-7.412066 -7.087381 -0.500895 1301 0.282458 0.959280 0.000000
-7.412020 -7.087340 -0.497735 1313 0.282458 0.959280 0.000000
-7.412282 -7.087587 -0.494593 1311 0.282458 0.959280 0.000000
-7.412552 -7.087840 -0.491450 1317 0.282458 0.959280 0.000000
-7.412237 -7.087543 -0.488273 1307 0.282458 0.959280 0.000000
-7.412016 -7.087335 -0.485105 1307 0.282458 0.959280 0.000000
-7.411858 -7.087177 -0.481937 1315 0.282458 0.959280 0.000000
-7.411804 -7.087131 -0.478777 1301 0.282458 0.959280 0.000000
-7.412281 -7.087589 -0.475652 1299 0.282458 0.959280 0.000000
-7.412907 -7.088181 -0.472536 1317 0.282458 0.959280 0.000000
-7.413003 -7.088280 -0.469385 1323 0.282458 0.959280 0.000000
-7.413003 -7.088276 -0.466235 1305 0.282458 0.959280 0.000000
-7.412625 -7.087915 -0.463059 1295 0.282458 0.959280 0.000000
-7.412516 -7.087811 -0.459890 1293 0.282458 0.959279 0.000000
-7.412874 -7.088160 -0.456756 1297 0.282458 0.959280 0.000000
-7.413184 -7.088458 -0.453623 1303 0.282458 0.959280 0.000000
-7.413168 -7.088442 -0.450463 1309 0.282458 0.959280 0.000000
-7.412631 -7.087927 -0.447278 1297 0.282458 0.959280 0.000000
-7.412632 -7.087924 -0.444118 1311 0.282458 0.959280 0.000000
-7.412934 -7.088215 -0.440985 1309 0.282458 0.959280 0.000000
-7.413450 -7.088705 -0.437860 1301 0.282458 0.959280 0.000000
-7.413229 -7.088497 -0.434692 1307 0.282458 0.959280 0.000000
-7.412043 -7.087368 -0.431473 1305 0.282458 0.959280 0.000000
-7.411869 -7.087198 -0.428305 1297 0.282458 0.959280 0.000000
-7.412441 -7.087746 -0.425179 1299 0.282458 0.959280 0.000000
-7.412536 -7.087832 -0.422029 1293 0.282458 0.959280 0.000000
-7.412411 -7.087714 -0.418870 1293 0.282458 0.959280 0.000000
-7.412237 -7.087544 -0.415711 1307 0.282458 0.959280 0.000000
-7.412159 -7.087479 -0.412552 1307 0.282458 0.959280 0.000000
-7.412517 -7.087814 -0.409418 1303 0.282458 0.959280 0.000000
-7.412558 -7.087856 -0.406258 1313 0.282458 0.959280 0.000000
-7.412424 -7.087732 -0.403099 1301 0.282458 0.959280 0.000000
-7.412194 -7.087504 -0.399931 1291 0.282458 0.959280 0.000000
-7.412386 -7.087694 -0.396789 1299 0.282458 0.959280 0.000000
-7.412783 -7.088075 -0.393655 1301 0.282458 0.959280 0.000000
-7.412230 -7.087547 -0.390471 1297 0.282458 0.959280 0.000000
-7.412374 -7.087686 -0.387329 1305 0.282458 0.959280 0.000000
-7.412241 -7.087561 -0.384170 1297 0.282458 0.959280 0.000000
-7.412114 -7.087429 -0.381012 1295 0.282458 0.959280 0.000000
-7.413042 -7.088316 -0.377903 1299 0.282458 0.959280 0.000000
-7.413645 -7.088902 -0.374777 1297 0.282458 0.959280 0.000000
-7.413244 -7.088522 -0.371601 1293 0.282458 0.959279 0.000000
-7.412691 -7.087995 -0.368426 1291 0.282458 0.959280 0.000000
-7.412611 -7.087914 -0.365266 1293 0.282458 0.959279 0.000000
-7.412794 -7.088084 -0.362125 1293 0.282458 0.959280 0.000000
-7.412930 -7.088215 -0.358973 1289 0.282458 0.959280 0.000000
-7.412851 -7.088135 -0.355814 1293 0.282458 0.959280 0.000000
-7.412758 -7.088056 -0.352665 1299 0.282458 0.959280 0.000000
-7.412728 -7.088027 -0.349505 1295 0.282458 0.959280 0.000000
-7.412641 -7.087941 -0.346346 1285 0.282458 0.959280 0.000000
-7.413079 -7.088368 -0.343211 1287 0.282458 0.959280 0.000000
-7.413310 -7.088589 -0.340069 1295 0.282458 0.959280 0.000000
-7.413064 -7.088349 -0.336911 1289 0.282458 0.959280 0.000000
-7.412614 -7.087917 -0.333736 1287 0.282458 0.959279 0.000000
-7.412267 -7.087581 -0.330569 1281 0.282458 0.959280 0.000000
-7.412591 -7.087891 -0.327426 1287 0.282458 0.959280 0.000000
-7.412769 -7.088068 -0.324284 1283 0.282458 0.959280 0.000000
-7.412722 -7.088027 -0.321134 1279 0.282458 0.959280 0.000000
-7.412746 -7.088043 -0.317984 1279 0.282458 0.959279 0.000000
-7.412446 -7.087759 -0.314817 1269 0.282458 0.959280 0.000000
-7.412131 -7.087461 -0.311650 1269 0.282458 0.959280 0.000000
-7.414886 -7.085975 -0.706364 1295 0.282458 0.959280 0.000000
-7.414556 -7.085666 -0.703167 1285 0.282458 0.959280 0.000000
-7.415292 -7.086360 -0.700070 1291 0.282458 0.959280 0.000000
-7.415499 -7.086562 -0.696928 1283 0.282458 0.959280 0.000000
-7.415018 -7.086104 -0.693712 1281 0.282458 0.959280 0.000000
-7.415265 -7.086339 -0.690580 1287 0.282458 0.959280 0.000000
-7.415362 -7.086439 -0.687419 1293 0.282458 0.959280 0.000000
-7.414720 -7.085813 -0.684205 1293 0.282458 0.959279 0.000000
-7.414816 -7.085913 -0.681044 1289 0.282458 0.959280 0.000000
-7.415704 -7.086755 -0.677965 1299 0.282458 0.959280 0.000000
-7.415847 -7.086893 -0.674814 1295 0.282458 0.959280 0.000000
-7.414946 -7.086032 -0.671572 1291 0.282458 0.959280 0.000000
-7.414242 -7.085357 -0.668339 1275 0.282458 0.959280 0.000000
-7.414180 -7.085303 -0.665179 1289 0.282458 0.959280 0.000000
-7.414213 -7.085339 -0.662019 1281 0.282458 0.959280 0.000000
-7.414673 -7.085771 -0.658894 1285 0.282458 0.959280 0.000000
-7.414493 -7.085608 -0.655716 1289 0.282458 0.959280 0.000000
-7.414690 -7.085790 -0.652574 1301 0.282458 0.959280 0.000000
-7.414834 -7.085928 -0.649423 1295 0.282458 0.959280 0.000000
-7.415129 -7.086214 -0.646290 1293 0.282458 0.959280 0.000000
-7.415265 -7.086345 -0.643138 1293 0.282458 0.959280 0.000000
-7.415091 -7.086175 -0.639960 1301 0.282458 0.959280 0.000000
-7.415226 -7.086307 -0.636809 1295 0.282458 0.959280 0.000000
-7.414998 -7.086093 -0.633631 1287 0.282458 0.959280 0.000000
-7.414610 -7.085711 -0.630434 1283 0.282458 0.959280 0.000000
-7.414849 -7.085938 -0.627292 1281 0.282458 0.959280 0.000000
-7.415254 -7.086326 -0.624168 1287 0.282458 0.959280 0.000000
-7.415169 -7.086254 -0.620999 1287 0.282458 0.959280 0.000000
-7.415566 -7.086635 -0.617875 1299 0.282458 0.959280 0.000000
-7.415915 -7.086965 -0.614742 1303 0.282458 0.959280 0.000000
-7.415512 -7.086584 -0.611545 1299 0.282458 0.959280 0.000000
-7.415180 -7.086261 -0.608358 1295 0.282458 0.959280 0.000000
-7.415569 -7.086635 -0.605225 1301 0.282458 0.959280 0.000000
-7.415539 -7.086607 -0.602065 1303 0.282458 0.959280 0.000000
-7.415460 -7.086527 -0.598895 1307 0.282458 0.959280 0.000000
-7.415699 -7.086754 -0.595753 1301 0.282458 0.959280 0.000000
-7.415447 -7.086522 -0.592575 1283 0.282458 0.959280 0.000000
-7.415210 -7.086287 -0.589398 1283 0.282458 0.959279 0.000000
-7.415607 -7.086669 -0.586274 1305 0.282458 0.959280 0.000000
-7.415196 -7.086282 -0.583078 1295 0.282458 0.959280 0.000000
-7.414477 -7.085594 -0.579864 1277 0.282458 0.959280 0.000000
-7.414446 -7.085565 -0.576705 1279 0.282458 0.959280 0.000000
-7.415097 -7.086190 -0.573588 1293 0.282458 0.959280 0.000000
-7.415643 -7.086705 -0.570473 1293 0.282458 0.959280 0.000000
-7.415455 -7.086523 -0.567305 1299 0.282458 0.959280 0.000000
-7.415258 -7.086334 -0.564127 1289 0.282458 0.959280 0.000000
-7.415592 -7.086664 -0.560993 1299 0.282458 0.959279 0.000000
-7.415546 -7.086624 -0.557834 1293 0.282458 0.959280 0.000000
-7.415349 -7.086435 -0.554655 1295 0.282458 0.959280 0.000000
-7.415896 -7.086950 -0.551540 1295 0.282458 0.959280 0.000000
-7.416167 -7.087216 -0.548397 1305 0.282458 0.959280 0.000000
-7.416032 -7.087078 -0.545229 1307 0.282458 0.959280 0.000000
-7.415765 -7.086833 -0.542051 1297 0.282458 0.959280 0.000000
-7.414879 -7.085984 -0.538830 1283 0.282458 0.959280 0.000000
-7.414999 -7.086090 -0.535678 1285 0.282458 0.959280 0.000000
-7.415587 -7.086664 -0.532563 1303 0.282458 0.959280 0.000000
-7.415705 -7.086769 -0.529411 1291 0.282458 0.959280 0.000000
-7.415715 -7.086785 -0.526261 1297 0.282458 0.959280 0.000000
-7.415406 -7.086481 -0.523084 1299 0.282458 0.959280 0.000000
-7.415147 -7.086242 -0.519907 1291 0.282458 0.959280 0.000000
-7.415147 -7.086238 -0.516746 1293 0.282458 0.959280 0.000000
-7.415212 -7.086300 -0.513596 1303 0.282458 0.959280 0.000000
-7.414999 -7.086099 -0.510418 1299 0.282458 0.959280 0.000000
-7.415373 -7.086461 -0.507294 1295 0.282458 0.959280 0.000000
-7.415794 -7.086861 -0.504160 1307 0.282458 0.959280 0.000000
-7.415541 -7.086615 -0.500982 1311 0.282458 0.959280 0.000000
-7.415597 -7.086669 -0.497832 1313 0.282458 0.959280 0.000000
-7.416279 -7.087318 -0.494725 1315 0.282458 0.959280 0.000000
-7.416336 -7.087373 -0.491565 1327 0.282458 0.959280 0.000000
-7.415118 -7.086219 -0.488336 1303 0.282458 0.959280 0.000000
-7.414271 -7.085402 -0.485124 1293 0.282458 0.959280 0.000000
-7.414637 -7.085759 -0.481990 1303 0.282458 0.959280 0.000000
-7.415319 -7.086409 -0.478874 1295 0.282458 0.959280 0.000000
-7.415581 -7.086655 -0.475731 1307 0.282458 0.959280 0.000000
-7.415209 -7.086299 -0.472555 1305 0.282458 0.959280 0.000000
-7.415046 -7.086150 -0.469386 1299 0.282458 0.959280 0.000000
-7.415838 -7.086902 -0.466279 1295 0.282458 0.959280 0.000000
-7.416622 -7.087647 -0.463171 1305 0.282458 0.959280 0.000000
-7.415658 -7.086737 -0.459960 1295 0.282458 0.959279 0.000000
-7.415341 -7.086425 -0.456783 1303 0.282458 0.959280 0.000000
-7.416023 -7.087075 -0.453667 1303 0.282458 0.959280 0.000000
-7.416271 -7.087323 -0.450524 1309 0.282458 0.959280 0.000000
-7.415623 -7.086706 -0.447330 1295 0.282458 0.959280 0.000000
-7.415465 -7.086548 -0.444172 1301 0.282458 0.959280 0.000000
-7.414968 -7.086079 -0.440986 1301 0.282458 0.959280 0.000000
-7.414746 -7.085857 -0.437818 1287 0.282458 0.959280 0.000000
-7.415952 -7.087020 -0.434727 1299 0.282458 0.959280 0.000000
-7.415517 -7.086601 -0.431551 1299 0.282458 0.959280 0.000000
-7.414814 -7.085926 -0.428357 1301 0.282458 0.959280 0.000000
-7.415170 -7.086261 -0.425224 1297 0.282458 0.959280 0.000000
-7.415100 -7.086201 -0.422065 1295 0.282458 0.959279 0.000000
-7.415347 -7.086435 -0.418922 1295 0.282458 0.959280 0.000000
-7.416021 -7.087079 -0.415806 1293 0.282458 0.959280 0.000000
-7.416473 -7.087518 -0.412671 1305 0.282458 0.959280 0.000000
-7.415826 -7.086901 -0.409487 1293 0.282458 0.959280 0.000000
-7.415693 -7.086776 -0.406319 1297 0.282458 0.959280 0.000000
-7.416579 -7.087617 -0.403210 1307 0.282458 0.959280 0.000000
-7.416613 -7.087653 -0.400060 1311 0.282458 0.959280 0.000000
-7.415956 -7.087017 -0.396866 1309 0.282458 0.959280 0.000000
-7.415672 -7.086744 -0.393698 1303 0.282458 0.959280 0.000000
-7.415223 -7.086326 -0.390523 1305 0.282458 0.959280 0.000000
-7.415682 -7.086758 -0.387388 1311 0.282458 0.959280 0.000000
-7.416397 -7.087447 -0.384271 1299 0.282458 0.959280 0.000000
-7.416160 -7.087213 -0.381113 1303 0.282458 0.959280 0.000000
-7.415875 -7.086941 -0.377936 1305 0.282458 0.959280 0.000000
-7.415418 -7.086516 -0.374760 1283 0.282458 0.959280 0.000000
-7.415553 -7.086634 -0.371619 1289 0.282458 0.959280 0.000000
-7.415791 -7.086862 -0.368477 1299 0.282458 0.959280 0.000000
-7.415596 -7.086687 -0.365308 1295 0.282458 0.959280 0.000000
-7.415627 -7.086709 -0.362158 1299 0.282458 0.959280 0.000000
-7.415812 -7.086892 -0.359016 1301 0.282458 0.959280 0.000000
-7.416097 -7.087157 -0.355873 1301 0.282458 0.959279 0.000000
-7.416383 -7.087436 -0.352731 1309 0.282458 0.959280 0.000000
-7.415981 -7.087057 -0.349564 1291 0.282458 0.959280 0.000000
-7.415846 -7.086917 -0.346406 1267 0.282458 0.959280 0.000000
-7.416394 -7.087446 -0.343270 1289 0.282458 0.959280 0.000000
-7.416466 -7.087514 -0.340119 1293 0.282458 0.959280 0.000000
-7.416429 -7.087480 -0.336970 1291 0.282458 0.959280 0.000000
-7.416018 -7.087092 -0.333794 1293 0.282458 0.959280 0.000000
-7.415630 -7.086711 -0.330627 1293 0.282458 0.959280 0.000000
-7.416218 -7.087286 -0.327502 1299 0.282458 0.959280 0.000000
-7.416495 -7.087544 -0.324359 1307 0.282458 0.959280 0.000000
-7.416245 -7.087312 -0.321191 1289 0.282458 0.959280 0.000000
-7.416212 -7.087269 -0.318041 1279 0.282458 0.959280 0.000000
-7.415493 -7.086581 -0.314858 1259 0.282458 0.959280 0.000000
-7.415977 -7.087046 -0.311724 1275 0.282458 0.959280 0.000000
-7.417176 -7.084096 -0.706382 1279 0.282458 0.959280 0.000000
-7.418602 -7.085450 -0.703349 1297 0.282458 0.959280 0.000000
-7.418857 -7.085704 -0.700216 1293 0.282458 0.959280 0.000000
-7.417789 -7.084683 -0.696946 1277 0.282458 0.959280 0.000000
-7.417472 -7.084372 -0.693759 1289 0.282458 0.959280 0.000000
-7.417252 -7.084165 -0.690571 1283 0.282458 0.959280 0.000000
-7.417608 -7.084500 -0.687438 1279 0.282458 0.959280 0.000000
-7.418077 -7.084952 -0.684323 1279 0.282458 0.959280 0.000000
-7.418332 -7.085192 -0.681181 1283 0.282458 0.959280 0.000000
-7.418745 -7.085586 -0.678057 1285 0.282458 0.959280 0.000000
-7.418627 -7.085474 -0.674878 1283 0.282458 0.959280 0.000000
-7.418137 -7.085011 -0.671672 1283 0.282458 0.959280 0.000000
-7.418439 -7.085303 -0.668539 1285 0.282458 0.959280 0.000000
-7.418472 -7.085338 -0.665379 1293 0.282458 0.959280 0.000000
-7.418568 -7.085424 -0.662218 1299 0.282458 0.959280 0.000000
-7.419139 -7.085972 -0.659102 1309 0.282458 0.959280 0.000000
-7.418379 -7.085239 -0.655880 1299 0.282458 0.959280 0.000000
-7.417518 -7.084423 -0.652638 1287 0.282458 0.959280 0.000000
-7.417812 -7.084708 -0.649505 1293 0.282458 0.959280 0.000000
-7.418120 -7.084992 -0.646372 1293 0.282458 0.959280 0.000000
-7.418415 -7.085278 -0.643229 1291 0.282458 0.959280 0.000000
-7.418503 -7.085358 -0.640078 1295 0.282458 0.959280 0.000000
-7.418005 -7.084888 -0.636873 1291 0.282458 0.959280 0.000000
-7.418141 -7.085020 -0.633721 1295 0.282458 0.959280 0.000000
-7.418697 -7.085555 -0.630606 1293 0.282458 0.959280 0.000000
-7.419103 -7.085942 -0.627482 1283 0.282458 0.959280 0.000000
-7.419245 -7.086066 -0.624330 1297 0.282458 0.959280 0.000000
-7.418581 -7.085436 -0.621117 1291 0.282458 0.959280 0.000000
-7.418138 -7.085011 -0.617911 1283 0.282458 0.959280 0.000000
-7.418053 -7.084938 -0.614752 1295 0.282458 0.959280 0.000000
-7.417761 -7.084660 -0.611564 1283 0.282458 0.959280 0.000000
-7.418261 -7.085137 -0.608439 1297 0.282458 0.959279 0.000000
-7.419188 -7.086024 -0.605350 1305 0.282458 0.959280 0.000000
-7.420012 -7.086801 -0.602263 1313 0.282458 0.959280 0.000000
-7.419768 -7.086575 -0.599075 1315 0.282458 0.959280 0.000000
-7.418836 -7.085689 -0.595844 1295 0.282458 0.959280 0.000000
-7.418756 -7.085608 -0.592674 1285 0.282458 0.959279 0.000000
-7.418513 -7.085382 -0.589497 1285 0.282458 0.959280 0.000000
-7.418585 -7.085449 -0.586346 1291 0.282458 0.959280 0.000000
-7.418189 -7.085061 -0.583150 1291 0.282458 0.959280 0.000000
-7.418255 -7.085136 -0.579999 1283 0.282458 0.959280 0.000000
-7.418809 -7.085657 -0.576883 1295 0.282458 0.959280 0.000000
-7.417923 -7.084809 -0.573652 1295 0.282458 0.959280 0.000000
-7.417473 -7.084377 -0.570456 1277 0.282458 0.959280 0.000000
-7.418322 -7.085201 -0.567368 1289 0.282458 0.959280 0.000000
-7.418402 -7.085274 -0.564207 1293 0.282458 0.959280 0.000000
-7.418467 -7.085335 -0.561056 1309 0.282458 0.959280 0.000000
-7.418641 -7.085498 -0.557905 1299 0.282458 0.959280 0.000000
-7.418492 -7.085361 -0.554736 1291 0.282458 0.959280 0.000000
-7.418303 -7.085179 -0.551568 1291 0.282458 0.959280 0.000000
-7.417727 -7.084632 -0.548363 1281 0.282458 0.959280 0.000000
-7.417846 -7.084737 -0.545212 1291 0.282458 0.959280 0.000000
-7.418757 -7.085611 -0.542123 1297 0.282458 0.959280 0.000000
-7.419139 -7.085980 -0.538989 1295 0.282458 0.959280 0.000000
-7.419196 -7.086035 -0.535839 1307 0.282458 0.959280 0.000000
-7.419473 -7.086294 -0.532696 1299 0.282458 0.959280 0.000000
-7.419269 -7.086099 -0.529518 1293 0.282458 0.959280 0.000000
-7.419230 -7.086064 -0.526358 1299 0.282458 0.959280 0.000000
-7.419128 -7.085965 -0.523199 1283 0.282458 0.959280 0.000000
-7.418551 -7.085418 -0.519995 1293 0.282458 0.959280 0.000000
-7.417927 -7.084820 -0.516800 1299 0.282458 0.959280 0.000000
-7.418093 -7.084977 -0.513649 1289 0.282458 0.959280 0.000000
-7.419203 -7.086036 -0.510568 1299 0.282458 0.959280 0.000000
-7.419426 -7.086251 -0.507426 1311 0.282458 0.959279 0.000000
-7.418524 -7.085390 -0.504204 1291 0.282458 0.959280 0.000000
-7.418732 -7.085592 -0.501062 1313 0.282458 0.959280 0.000000
-7.418947 -7.085802 -0.497920 1305 0.282458 0.959280 0.000000
-7.419106 -7.085952 -0.494769 1297 0.282458 0.959280 0.000000
-7.419424 -7.086256 -0.491635 1303 0.282458 0.959280 0.000000
-7.419686 -7.086502 -0.488493 1325 0.282458 0.959280 0.000000
-7.418943 -7.085796 -0.485290 1303 0.282458 0.959280 0.000000
-7.418359 -7.085243 -0.482095 1289 0.282458 0.959280 0.000000
-7.418470 -7.085341 -0.478944 1293 0.282458 0.959280 0.000000
-7.418890 -7.085742 -0.475820 1301 0.282458 0.959280 0.000000
-7.418670 -7.085534 -0.472642 1289 0.282458 0.959280 0.000000
-7.418773 -7.085626 -0.469491 1287 0.282458 0.959280 0.000000
-7.418869 -7.085726 -0.466340 1303 0.282458 0.959280 0.000000
-7.418808 -7.085673 -0.463181 1299 0.282458 0.959280 0.000000
-7.419340 -7.086175 -0.460056 1295 0.282458 0.959280 0.000000
-7.419443 -7.086267 -0.456905 1293 0.282458 0.959280 0.000000
-7.419214 -7.086053 -0.453737 1291 0.282458 0.959280 0.000000
-7.419414 -7.086250 -0.450595 1313 0.282458 0.959280 0.000000
-7.418616 -7.085485 -0.447392 1291 0.282458 0.959280 0.000000
-7.418656 -7.085526 -0.444242 1291 0.282458 0.959280 0.000000
-7.419069 -7.085921 -0.441108 1299 0.282458 0.959280 0.000000
-7.419323 -7.086161 -0.437965 1299 0.282458 0.959280 0.000000
-7.419728 -7.086548 -0.434831 1315 0.282458 0.959280 0.000000
-7.419665 -7.086481 -0.431672 1309 0.282458 0.959280 0.000000
-7.419493 -7.086325 -0.428503 1305 0.282458 0.959280 0.000000
-7.418900 -7.085752 -0.425319 1301 0.282458 0.959279 0.000000
-7.418402 -7.085282 -0.422134 1289 0.282458 0.959280 0.000000
-7.418071 -7.084972 -0.418957 1287 0.282458 0.959280 0.000000
-7.418951 -7.085808 -0.415848 1313 0.282458 0.959280 0.000000
-7.419355 -7.086195 -0.412714 1307 0.282458 0.959279 0.000000
-7.418818 -7.085680 -0.409529 1297 0.282458 0.959280 0.000000
-7.418843 -7.085709 -0.406379 1301 0.282458 0.959280 0.000000
-7.419089 -7.085943 -0.403237 1303 0.282458 0.959280 0.000000
-7.419390 -7.086221 -0.400094 1307 0.282458 0.959280 0.000000
-7.419313 -7.086154 -0.396944 1303 0.282458 0.959280 0.000000
-7.418871 -7.085729 -0.393758 1287 0.282458 0.959280 0.000000
-7.419173 -7.086020 -0.390625 1299 0.282458 0.959280 0.000000
-7.419411 -7.086247 -0.387483 1307 0.282458 0.959280 0.000000
-7.419753 -7.086571 -0.384340 1307 0.282458 0.959280 0.000000
-7.419999 -7.086804 -0.381197 1311 0.282458 0.959280 0.000000
-7.419335 -7.086175 -0.378014 1303 0.282458 0.959280 0.000000
-7.419154 -7.085999 -0.374845 1293 0.282458 0.959280 0.000000
-7.419758 -7.086586 -0.371719 1305 0.282458 0.959280 0.000000
-7.419148 -7.086000 -0.368535 1299 0.282458 0.959280 0.000000
-7.417796 -7.084711 -0.365318 1283 0.282458 0.959280 0.000000
-7.418137 -7.085033 -0.362185 1285 0.282458 0.959280 0.000000
-7.418747 -7.085613 -0.359059 1287 0.282458 0.959280 0.000000
-7.418924 -7.085790 -0.355907 1293 0.282458 0.959280 0.000000
-7.419216 -7.086061 -0.352774 1293 0.282458 0.959280 0.000000
-7.419495 -7.086334 -0.349631 1301 0.282458 0.959280 0.000000
-7.419568 -7.086401 -0.346481 1291 0.282458 0.959280 0.000000
-7.419758 -7.086577 -0.343329 1287 0.282458 0.959280 0.000000
-7.419135 -7.085993 -0.340155 1275 0.282458 0.959280 0.000000
-7.418684 -7.085561 -0.336979 1275 0.282458 0.959280 0.000000
-7.419438 -7.086282 -0.333852 1297 0.282458 0.959280 0.000000
-7.419771 -7.086598 -0.330718 1295 0.282458 0.959280 0.000000
-7.419630 -7.086468 -0.327559 1291 0.282458 0.959280 0.000000
-7.419749 -7.086573 -0.324408 1291 0.282458 0.959280 0.000000
-7.419608 -7.086442 -0.321250 1275 0.282458 0.959280 0.000000
-7.419680 -7.086509 -0.318099 1281 0.282458 0.959280 0.000000
-7.419586 -7.086416 -0.314940 1289 0.282458 0.959280 0.000000
-7.419127 -7.085979 -0.311764 1289 0.282458 0.959280 0.000000
-7.422457 -7.084802 -0.706674 1289 0.282458 0.959280 0.000000
-7.422404 -7.084755 -0.703504 1279 0.282458 0.959280 0.000000
-7.421968 -7.084335 -0.700298 1281 0.282458 0.959280 0.000000
-7.421067 -7.083475 -0.697057 1275 0.282458 0.959280 0.000000
-7.420903 -7.083325 -0.693878 1279 0.282458 0.959280 0.000000
-7.421316 -7.083719 -0.690744 1277 0.282458 0.959279 0.000000
-7.421039 -7.083453 -0.687557 1285 0.282458 0.959280 0.000000
-7.420604 -7.083034 -0.684351 1287 0.282458 0.959280 0.000000
-7.421183 -7.083588 -0.681245 1283 0.282458 0.959280 0.000000
-7.421375 -7.083777 -0.678093 1283 0.282458 0.959280 0.000000
-7.421424 -7.083826 -0.674933 1287 0.282458 0.959280 0.000000
-7.421780 -7.084161 -0.671799 1281 0.282458 0.959280 0.000000
-7.422193 -7.084555 -0.668675 1293 0.282458 0.959280 0.000000
-7.421909 -7.084284 -0.665488 1287 0.282458 0.959280 0.000000
-7.421213 -7.083614 -0.662264 1283 0.282458 0.959279 0.000000
-7.421246 -7.083650 -0.659104 1283 0.282458 0.959279 0.000000
-7.421446 -7.083846 -0.655962 1295 0.282458 0.959280 0.000000
-7.421216 -7.083618 -0.652774 1293 0.282458 0.959280 0.000000
-7.421731 -7.084108 -0.649659 1299 0.282458 0.959280 0.000000
-7.421757 -7.084137 -0.646499 1297 0.282458 0.959280 0.000000
-7.421211 -7.083615 -0.643284 1291 0.282458 0.959280 0.000000
-7.421196 -7.083600 -0.640124 1279 0.282458 0.959280 0.000000
-7.421752 -7.084135 -0.637009 1287 0.282458 0.959280 0.000000
-7.422047 -7.084421 -0.633866 1291 0.282458 0.959280 0.000000
-7.422023 -7.084398 -0.630706 1285 0.282458 0.959280 0.000000
-7.422063 -7.084426 -0.627545 1291 0.282458 0.959280 0.000000
-7.422137 -7.084507 -0.624385 1309 0.282458 0.959280 0.000000
-7.422011 -7.084389 -0.621216 1297 0.282458 0.959280 0.000000
-7.422407 -7.084757 -0.618082 1297 0.282458 0.959280 0.000000
-7.422384 -7.084734 -0.614922 1301 0.282458 0.959280 0.000000
-7.422045 -7.084419 -0.611735 1305 0.282458 0.959280 0.000000
-7.422497 -7.084844 -0.608611 1307 0.282458 0.959280 0.000000
-7.422569 -7.084911 -0.605450 1301 0.282458 0.959280 0.000000
-7.422539 -7.084883 -0.602290 1297 0.282458 0.959280 0.000000
-7.422612 -7.084963 -0.599129 1295 0.282458 0.959280 0.000000
-7.422224 -7.084582 -0.595943 1289 0.282458 0.959280 0.000000
-7.421972 -7.084349 -0.592755 1295 0.282458 0.959280 0.000000
-7.421839 -7.084225 -0.589587 1291 0.282458 0.959280 0.000000
-7.421650 -7.084043 -0.586408 1295 0.282458 0.959280 0.000000
-7.422355 -7.084711 -0.583312 1297 0.282458 0.959280 0.000000
-7.422744 -7.085086 -0.580178 1301 0.282458 0.959280 0.000000
-7.422714 -7.085057 -0.577008 1313 0.282458 0.959280 0.000000
-7.422730 -7.085067 -0.573858 1301 0.282458 0.959280 0.000000
-7.422383 -7.084744 -0.570671 1293 0.282458 0.959279 0.000000
-7.421758 -7.084146 -0.567457 1283 0.282458 0.959280 0.000000
-7.421150 -7.083560 -0.564253 1285 0.282458 0.959280 0.000000
-7.421483 -7.083877 -0.561119 1295 0.282458 0.959280 0.000000
-7.422871 -7.085213 -0.558066 1307 0.282458 0.959280 0.000000
-7.423299 -7.085619 -0.554932 1303 0.282458 0.959280 0.000000
-7.422365 -7.084719 -0.551701 1299 0.282458 0.959280 0.000000
-7.422003 -7.084384 -0.548524 1297 0.282458 0.959280 0.000000
-7.421758 -7.084145 -0.545346 1295 0.282458 0.959280 0.000000
-7.421981 -7.084359 -0.542194 1309 0.282458 0.959279 0.000000
-7.422947 -7.085277 -0.539105 1311 0.282458 0.959280 0.000000
-7.422268 -7.084635 -0.535901 1301 0.282458 0.959280 0.000000
-7.421587 -7.083978 -0.532698 1301 0.282458 0.959280 0.000000
-7.422072 -7.084443 -0.529563 1311 0.282458 0.959280 0.000000
-7.422604 -7.084960 -0.526448 1309 0.282458 0.959280 0.000000
-7.422882 -7.085217 -0.523305 1301 0.282458 0.959280 0.000000
-7.422677 -7.085023 -0.520137 1309 0.282458 0.959280 0.000000
-7.422424 -7.084776 -0.516959 1301 0.282458 0.959280 0.000000
