82
-26.757908 -23.550022 -0.193535 1029 0.868571 -0.077501 -0.308948
-26.755724 -23.548035 -0.182579 1097 0.899994 -0.048905 -0.151308
-26.754128 -23.546585 -0.171618 1115 0.922965 -0.028048 0.006404
-26.753244 -23.545753 -0.160673 1123 0.935671 -0.016082 0.163886
-26.754341 -23.546654 -0.149737 1093 0.919891 -0.029036 0.321239
-26.758137 -23.549934 -0.138806 1027 0.865278 -0.076239 0.478519
-26.763857 -23.541080 -0.204518 1043 0.782973 0.051155 -0.466977
-26.758249 -23.536093 -0.193541 1115 0.863658 0.122921 -0.309035
-26.754469 -23.532705 -0.182574 1153 0.918052 0.171661 -0.151236
-26.752720 -23.531118 -0.171625 1171 0.943218 0.194495 0.006303
-26.752016 -23.530436 -0.160679 1183 0.953345 0.204320 0.163800
-26.753763 -23.531919 -0.149748 1167 0.928206 0.182968 0.321080
-26.758709 -23.536219 -0.138830 1139 0.857044 0.121110 0.478174
-26.764475 -23.541225 -0.127896 1073 0.774082 0.049070 0.635498
-26.764912 -23.527800 -0.204529 1103 0.767797 0.242247 -0.467136
-26.759272 -23.522778 -0.193554 1155 0.848949 0.314507 -0.309222
-26.757456 -23.521128 -0.182604 1195 0.875075 0.338246 -0.151668
-26.757023 -23.520695 -0.171658 1227 0.881305 0.344475 0.005829
-26.756186 -23.519907 -0.160711 1227 0.893353 0.355810 0.163339
-26.757357 -23.520868 -0.149786 1207 0.876502 0.341978 0.320534
-26.759274 -23.522495 -0.138844 1179 0.848921 0.318568 0.477972
-26.765629 -23.528036 -0.127926 1129 0.757478 0.238844 0.635066
-26.771721 -23.533337 -0.117001 1029 0.669822 0.162577 0.792260
-26.778147 -23.524408 -0.215565 1029 0.577364 0.291042 -0.625927
-26.770449 -23.517605 -0.204571 1135 0.688127 0.388934 -0.467740
-26.765194 -23.512920 -0.193592 1177 0.763735 0.456337 -0.309769
-26.761839 -23.509924 -0.182631 1217 0.812009 0.499451 -0.152056
-26.760252 -23.508472 -0.171690 1245 0.834842 0.520336 0.005368
-26.760757 -23.508863 -0.160748 1251 0.827570 0.514710 0.162807
-26.762339 -23.510199 -0.149819 1239 0.804819 0.495499 0.320059
-26.765688 -23.513081 -0.138889 1221 0.756627 0.454031 0.477325
-26.770416 -23.517178 -0.127972 1171 0.688594 0.395082 0.634404
-26.775906 -23.521940 -0.117039 1083 0.609611 0.326555 0.791713
-26.784052 -23.514816 -0.215601 1067 0.492398 0.429057 -0.626445
-26.776800 -23.508396 -0.204613 1147 0.596739 0.521433 -0.468344
-26.772026 -23.504143 -0.193642 1219 0.665431 0.582633 -0.310488
-26.768078 -23.500616 -0.182677 1253 0.722240 0.633377 -0.152718
-26.766047 -23.498783 -0.171728 1257 0.751468 0.659751 0.004821
-26.766321 -23.498974 -0.160797 1267 0.747516 0.657006 0.162102
-26.768183 -23.500546 -0.149866 1251 0.720731 0.634392 0.319382
-26.769777 -23.501886 -0.138926 1219 0.697788 0.615099 0.476793
-26.773626 -23.505217 -0.128004 1189 0.642406 0.567182 0.633944
-26.782299 -23.512772 -0.117083 1107 0.517619 0.458477 0.791080
-26.792305 -23.506735 -0.215656 1057 0.373648 0.545337 -0.627236
-26.784178 -23.499548 -0.204655 1147 0.490587 0.648746 -0.468949
-26.779295 -23.495203 -0.193684 1207 0.560843 0.711263 -0.311092
-26.776939 -23.493074 -0.182738 1251 0.594736 0.741890 -0.153596
-26.774408 -23.490808 -0.171784 1257 0.631154 0.774493 0.004016
-26.773758 -23.490171 -0.160837 1265 0.640512 0.783660 0.161526
-26.775953 -23.492046 -0.149914 1227 0.608925 0.756682 0.318692
-26.778862 -23.494549 -0.138987 1225 0.567073 0.720676 0.475915
-26.783422 -23.498495 -0.128060 1169 0.501454 0.663895 0.633138
-26.789742 -23.503975 -0.117132 1093 0.410533 0.585048 0.790375
-26.803047 -23.500792 -0.215729 1035 0.219084 0.630852 -0.628287
-26.793055 -23.491982 -0.204718 1143 0.362863 0.757615 -0.469855
-26.787899 -23.487396 -0.193749 1199 0.437044 0.823590 -0.312028
-26.784325 -23.484209 -0.182779 1215 0.488473 0.869449 -0.154186
-26.783228 -23.483196 -0.171835 1219 0.504254 0.884022 0.003282
-26.783335 -23.483240 -0.160906 1239 0.502717 0.883391 0.160534
-26.783825 -23.483603 -0.149964 1209 0.495664 0.878176 0.317972
-26.786909 -23.486252 -0.139034 1193 0.451287 0.840057 0.475239
-26.791899 -23.490576 -0.128115 1137 0.379494 0.777842 0.632347
-26.798653 -23.496443 -0.117186 1049 0.282315 0.693424 0.789598
-26.806471 -23.489536 -0.204796 1083 0.169823 0.792798 -0.470977
-26.799931 -23.483759 -0.193815 1165 0.263928 0.875926 -0.312977
-26.795046 -23.479412 -0.182854 1193 0.334211 0.938470 -0.155265
-26.793716 -23.478195 -0.171902 1201 0.353340 0.955980 0.002318
-26.794279 -23.478632 -0.160969 1207 0.345244 0.949695 0.159627
-26.795542 -23.479685 -0.150030 1199 0.327076 0.934546 0.317023
-26.798174 -23.481930 -0.139095 1165 0.289203 0.902245 0.474361
-26.803011 -23.486120 -0.128166 1091 0.219606 0.841950 0.631613
-26.812595 -23.480379 -0.193899 1089 0.081700 0.924556 -0.314186
-26.808487 -23.476725 -0.182934 1143 0.140814 0.977139 -0.156416
-26.806452 -23.474886 -0.171976 1157 0.170097 1.003595 0.001253
-26.806667 -23.475023 -0.161034 1159 0.166996 1.001619 0.158692
-26.808157 -23.476269 -0.150095 1145 0.145562 0.983698 0.316088
-26.810036 -23.477858 -0.139164 1103 0.118530 0.960837 0.473368
-26.815027 -23.482174 -0.128235 1039 0.046709 0.898732 0.630620
-26.822191 -23.473961 -0.183014 1049 -0.056370 1.016905 -0.157567
-26.818781 -23.470922 -0.172045 1093 -0.007300 1.060623 0.000260
-26.819656 -23.471624 -0.161108 1091 -0.019897 1.050524 0.157627
-26.822794 -23.474325 -0.150171 1075 -0.065042 1.011663 0.314994
