65
-28.506348 -25.356344 -0.202705 1047 0.785553 0.018223 -0.331757
-28.502365 -25.352736 -0.190969 1117 0.842856 0.070147 -0.162893
-28.499533 -25.350163 -0.179235 1127 0.883610 0.107168 0.005941
-28.500145 -25.350647 -0.167532 1141 0.874801 0.100198 0.174330
-28.503262 -25.353359 -0.155825 1109 0.829957 0.061172 0.342776
-28.513563 -25.346918 -0.214470 1053 0.681733 0.153850 -0.501037
-28.508390 -25.342253 -0.202721 1147 0.756161 0.220978 -0.331987
-28.504515 -25.338753 -0.190985 1183 0.811927 0.271338 -0.163124
-28.502888 -25.337252 -0.179264 1189 0.835336 0.292936 0.005524
-28.503504 -25.337727 -0.167561 1197 0.826472 0.286102 0.173912
-28.505959 -25.339848 -0.155855 1183 0.791152 0.255585 0.342344
-28.508972 -25.342468 -0.144157 1141 0.747790 0.217877 0.510660
-28.515839 -25.333027 -0.214485 1123 0.648993 0.353724 -0.501253
-28.512077 -25.329628 -0.202747 1197 0.703112 0.402629 -0.332361
-28.508144 -25.326088 -0.191021 1241 0.759701 0.453565 -0.163642
-28.506403 -25.324471 -0.179302 1243 0.784757 0.476837 0.004977
-28.508162 -25.325970 -0.167591 1239 0.759454 0.455266 0.173481
-28.508764 -25.326447 -0.155888 1229 0.750782 0.448405 0.341869
-28.510462 -25.327898 -0.144188 1185 0.726357 0.427521 0.510215
-28.515650 -25.332443 -0.132486 1133 0.651709 0.362122 0.678589
-28.520853 -25.322189 -0.214519 1143 0.576843 0.509660 -0.501742
-28.516497 -25.318268 -0.202785 1207 0.639524 0.566085 -0.332908
-28.511415 -25.313698 -0.191046 1239 0.712635 0.631840 -0.164001
-28.508972 -25.311468 -0.179321 1263 0.747790 0.663922 0.004704
-28.510227 -25.312525 -0.167623 1241 0.729732 0.648718 0.173020
-28.512150 -25.314169 -0.155922 1233 0.702069 0.625061 0.341380
-28.516474 -25.317953 -0.144226 1205 0.639854 0.570613 0.509668
-28.522984 -25.323671 -0.132538 1145 0.546188 0.488336 0.677840
-28.536085 -25.320498 -0.226332 1051 0.357676 0.534003 -0.671713
-28.526972 -25.312351 -0.214558 1149 0.488803 0.651215 -0.502304
-28.521568 -25.307501 -0.202820 1209 0.566551 0.721005 -0.333411
-28.519047 -25.305206 -0.191095 1255 0.602832 0.754020 -0.164706
-28.518139 -25.304337 -0.179380 1261 0.615895 0.766535 0.003855
-28.518679 -25.304764 -0.167677 1265 0.608129 0.760387 0.172243
-28.520327 -25.306170 -0.155968 1241 0.584417 0.740161 0.340718
-28.523659 -25.309065 -0.144278 1215 0.536473 0.698501 0.508919
-28.528976 -25.313723 -0.132585 1147 0.459959 0.631483 0.677164
-28.548016 -25.315201 -0.226410 1033 0.186015 0.610214 -0.672836
-28.539875 -25.307924 -0.214638 1149 0.303145 0.714913 -0.503455
-28.533150 -25.301899 -0.202888 1221 0.399912 0.801608 -0.334390
-28.529514 -25.298611 -0.191160 1219 0.452220 0.848921 -0.165642
-28.527439 -25.296703 -0.179434 1249 0.482079 0.876365 0.003078
-28.527384 -25.296598 -0.167723 1247 0.482875 0.877874 0.171581
-28.528490 -25.297518 -0.156027 1219 0.466957 0.864646 0.339869
-28.531490 -25.300127 -0.144329 1197 0.423788 0.827103 0.508186
-28.535986 -25.304052 -0.132633 1131 0.359103 0.770624 0.676473
-28.548798 -25.302284 -0.214699 1109 0.174763 0.796064 -0.504332
-28.542067 -25.296268 -0.202949 1161 0.271612 0.882622 -0.335268
-28.537643 -25.292295 -0.191206 1207 0.335254 0.939788 -0.166303
-28.536106 -25.290884 -0.179495 1209 0.357374 0.960096 0.002200
-28.535612 -25.290396 -0.167778 1223 0.364482 0.967122 0.170790
-28.536217 -25.290873 -0.156074 1205 0.355782 0.960261 0.339193
-28.540592 -25.294708 -0.144379 1155 0.292826 0.905071 0.507466
-28.547977 -25.301201 -0.132694 1093 0.186563 0.811652 0.675596
-28.559837 -25.294453 -0.214771 1029 0.015917 0.908749 -0.505368
-28.555643 -25.290676 -0.203028 1127 0.076267 0.963088 -0.336404
-28.550009 -25.285625 -0.191280 1161 0.157336 1.035759 -0.167368
-28.548635 -25.284361 -0.179569 1175 0.177095 1.053954 0.001135
-28.548979 -25.284594 -0.167858 1177 0.172155 1.050606 0.169639
-28.550514 -25.285900 -0.156149 1161 0.150063 1.031807 0.338114
-28.555607 -25.290348 -0.144459 1111 0.076788 0.967808 0.506315
-28.564928 -25.282667 -0.191372 1095 -0.057330 1.078324 -0.168692
-28.564335 -25.282080 -0.179655 1113 -0.048795 1.086777 -0.000102
-28.565712 -25.283241 -0.167948 1121 -0.068610 1.070064 0.168344
-28.567080 -25.284397 -0.156238 1089 -0.088287 1.053433 0.336833
