768
-1.108940 0.619120 -0.051500 1663 0.848482 -0.445594 0.286130
-1.109420 0.619390 -0.050550 1665 0.841576 -0.441709 0.299799
-1.109460 0.619410 -0.049570 1663 0.841000 -0.441422 0.313899
-1.109560 0.619460 -0.048600 1659 0.839561 -0.440702 0.327856
-1.109980 0.619690 -0.047640 1647 0.833518 -0.437393 0.341669
-1.110650 0.620070 -0.046690 1653 0.823879 -0.431925 0.355338
-1.110880 0.620200 -0.045720 1647 0.820568 -0.430055 0.369295
-1.111220 0.620390 -0.044760 1635 0.815676 -0.427321 0.383108
-1.111700 0.620660 -0.043800 1631 0.808769 -0.423436 0.396921
-1.112000 0.620820 -0.042830 1637 0.804453 -0.421134 0.410878
-1.112220 0.620940 -0.041860 1631 0.801287 -0.419407 0.424835
-1.112630 0.621170 -0.040900 1627 0.795388 -0.416098 0.438648
-1.113040 0.621400 -0.039930 1617 0.789490 -0.412788 0.452604
-1.113710 0.621780 -0.038980 1611 0.779848 -0.407321 0.466273
-1.114310 0.622110 -0.038020 1605 0.771215 -0.402572 0.480086
-1.114530 0.622240 -0.037040 1591 0.768051 -0.400702 0.494187
-1.115260 0.622640 -0.036090 1593 0.757547 -0.394946 0.507856
-1.116380 0.623270 -0.035140 1591 0.741432 -0.385882 0.521525
-1.116590 0.623390 -0.034160 1595 0.738410 -0.384155 0.535626
-1.116880 0.623550 -0.033190 1591 0.734237 -0.381853 0.549583
-1.117670 0.623990 -0.032230 1585 0.722870 -0.375522 0.563396
-1.118200 0.624290 -0.031260 1575 0.715245 -0.371206 0.577353
-1.119520 0.625020 -0.030310 1571 0.696253 -0.360702 0.591022
-1.120560 0.625600 -0.029350 1561 0.681287 -0.352357 0.604835
-1.121160 0.625940 -0.028380 1545 0.672654 -0.347464 0.618791
-1.121370 0.626050 -0.027400 1545 0.669634 -0.345882 0.632892
-1.121900 0.626350 -0.026430 1531 0.662008 -0.341565 0.646849
-1.122880 0.626900 -0.025460 1531 0.647907 -0.333651 0.660806
-1.122900 0.626910 -0.024480 1521 0.647619 -0.333508 0.674906
-1.123430 0.627200 -0.023500 1509 0.639993 -0.329335 0.689007
-1.124610 0.627860 -0.022530 1499 0.623015 -0.319839 0.702964
-1.125900 0.628590 -0.021570 1493 0.604453 -0.309335 0.716777
-1.126820 0.629100 -0.020600 1479 0.591216 -0.301997 0.730734
-1.128250 0.629890 -0.019630 1475 0.570640 -0.290630 0.744691
-1.130000 0.630870 -0.018670 1467 0.545461 -0.276530 0.758504
-1.130520 0.631160 -0.017680 1443 0.537979 -0.272356 0.772748
-1.130800 0.631320 -0.016690 1429 0.533950 -0.270054 0.786993
-1.132280 0.632150 -0.015720 1413 0.512655 -0.258112 0.800950
-1.133710 0.632940 -0.014740 1403 0.492079 -0.246745 0.815050
-1.135260 0.633810 -0.013760 1389 0.469777 -0.234227 0.829151
-1.136360 0.634420 -0.012770 1365 0.453949 -0.225451 0.843396
-1.137650 0.635150 -0.011790 1345 0.435388 -0.214946 0.857496
-1.139210 0.636010 -0.010800 1319 0.412943 -0.202573 0.871741
-1.140500 0.636730 -0.009810 1295 0.394382 -0.192213 0.885986
-1.141920 0.637530 -0.008820 1265 0.373950 -0.180702 0.900230
-1.143090 0.638180 -0.007820 1233 0.357115 -0.171349 0.914619
-1.145020 0.639260 -0.006830 1185 0.329345 -0.155810 0.928863
-1.148310 0.641090 -0.005840 1137 0.282008 -0.129479 0.943108
-1.137490 0.636240 -0.131320 1269 0.437690 -0.199263 -0.862360
-1.136040 0.635420 -0.130140 1305 0.458554 -0.211061 -0.845381
-1.134910 0.634790 -0.129000 1325 0.474813 -0.220126 -0.828978
-1.133780 0.634160 -0.127870 1357 0.491072 -0.229191 -0.812719
-1.132520 0.633450 -0.126720 1379 0.509202 -0.239407 -0.796173
-1.130950 0.632570 -0.125540 1395 0.531792 -0.252068 -0.779194
-1.129430 0.631730 -0.124370 1413 0.553661 -0.264155 -0.762360
-1.128110 0.630980 -0.123220 1425 0.572654 -0.274946 -0.745813
-1.127160 0.630460 -0.122120 1439 0.586324 -0.282428 -0.729986
-1.125200 0.629350 -0.120910 1447 0.614525 -0.298400 -0.712575
-1.123420 0.628360 -0.119720 1457 0.640137 -0.312645 -0.695453
-1.123240 0.628260 -0.118700 1475 0.642727 -0.314083 -0.680777
-1.122430 0.627800 -0.117620 1493 0.654382 -0.320702 -0.665237
-1.121100 0.627060 -0.116490 1493 0.673519 -0.331350 -0.648978
-1.120530 0.626740 -0.115440 1499 0.681719 -0.335954 -0.633871
-1.120420 0.626680 -0.114430 1515 0.683303 -0.336817 -0.619338
-1.119540 0.626190 -0.113350 1535 0.695964 -0.343867 -0.603799
-1.118140 0.625400 -0.112210 1535 0.716108 -0.355234 -0.587396
-1.117260 0.624910 -0.111140 1541 0.728770 -0.362285 -0.572000
-1.117260 0.624910 -0.110150 1547 0.728770 -0.362285 -0.557755
-1.116570 0.624520 -0.109090 1551 0.738698 -0.367896 -0.542504
-1.116260 0.624350 -0.108070 1567 0.743158 -0.370342 -0.527827
-1.115880 0.624140 -0.107040 1579 0.748626 -0.373363 -0.513007
-1.114860 0.623570 -0.105960 1583 0.763301 -0.381565 -0.497468
-1.113780 0.622960 -0.104870 1585 0.778841 -0.390343 -0.481784
-1.113530 0.622820 -0.103860 1591 0.782438 -0.392356 -0.467252
-1.113670 0.622900 -0.102890 1605 0.780425 -0.391205 -0.453295
-1.112960 0.622500 -0.101840 1611 0.790641 -0.396961 -0.438187
-1.112260 0.622110 -0.100790 1615 0.800713 -0.402572 -0.423079
-1.111880 0.621900 -0.099770 1613 0.806181 -0.405594 -0.408403
-1.111750 0.621830 -0.098770 1621 0.808050 -0.406601 -0.394014
-1.111510 0.621690 -0.097770 1633 0.811503 -0.408616 -0.379626
-1.110990 0.621400 -0.096740 1637 0.818985 -0.412788 -0.364806
-1.110350 0.621040 -0.095700 1633 0.828194 -0.417968 -0.349842
-1.109710 0.620680 -0.094660 1627 0.837403 -0.423148 -0.334878
-1.109580 0.620610 -0.093670 1631 0.839273 -0.424155 -0.320633
-1.109390 0.620500 -0.092670 1645 0.842007 -0.425738 -0.306245
-1.109260 0.620430 -0.091680 1649 0.843878 -0.426745 -0.292000
-1.109060 0.620320 -0.090690 1663 0.846755 -0.428328 -0.277755
-1.108670 0.620100 -0.089670 1661 0.852367 -0.431493 -0.263079
-1.108220 0.619850 -0.088660 1671 0.858842 -0.435091 -0.248547
-1.107960 0.619700 -0.087660 1677 0.862583 -0.437249 -0.234158
-1.108270 0.619870 -0.086700 1681 0.858122 -0.434803 -0.220345
-1.108460 0.619980 -0.085740 1679 0.855389 -0.433220 -0.206532
-1.108000 0.619720 -0.084720 1685 0.862007 -0.436961 -0.191856
-1.108120 0.619790 -0.083750 1691 0.860281 -0.435954 -0.177899
-1.108440 0.619960 -0.082800 1695 0.855676 -0.433508 -0.164230
-1.107850 0.619630 -0.081770 1683 0.864166 -0.438256 -0.149410
-1.107390 0.619380 -0.080760 1683 0.870784 -0.441853 -0.134878
-1.107310 0.619330 -0.079780 1697 0.871934 -0.442573 -0.120777
-1.107630 0.619510 -0.078820 1691 0.867331 -0.439983 -0.106964
-1.107620 0.619500 -0.077840 1691 0.867475 -0.440127 -0.092863
-1.107160 0.619250 -0.076830 1695 0.874094 -0.443724 -0.078331
-1.106620 0.618950 -0.075820 1705 0.881864 -0.448040 -0.063799
-1.106480 0.618870 -0.074830 1715 0.883878 -0.449191 -0.049554
-1.106470 0.618860 -0.073860 1713 0.884022 -0.449335 -0.035597
-1.105810 0.618490 -0.072840 1707 0.893517 -0.454659 -0.020921
-1.105540 0.618340 -0.071840 1701 0.897402 -0.456817 -0.006532
-1.106680 0.618980 -0.070940 1711 0.881000 -0.447609 0.006417
-1.107110 0.619220 -0.069990 1709 0.874813 -0.444155 0.020086
-1.106770 0.619030 -0.068990 1707 0.879705 -0.446889 0.034475
-1.106700 0.618990 -0.068010 1715 0.880713 -0.447464 0.048576
-1.106740 0.619010 -0.067040 1699 0.880137 -0.447177 0.062532
-1.107290 0.619320 -0.066090 1717 0.872223 -0.442717 0.076201
-1.107400 0.619380 -0.065120 1709 0.870641 -0.441853 0.090158
-1.106990 0.619150 -0.064120 1709 0.876540 -0.445163 0.104547
-1.106980 0.619140 -0.063150 1711 0.876684 -0.445306 0.118504
-1.106890 0.619090 -0.062160 1711 0.877979 -0.446025 0.132748
-1.106740 0.619010 -0.061180 1713 0.880137 -0.447177 0.146849
-1.107350 0.619350 -0.060240 1699 0.871360 -0.442284 0.160374
-1.107390 0.619370 -0.059260 1693 0.870784 -0.441997 0.174475
-1.107430 0.619400 -0.058290 1693 0.870209 -0.441565 0.188432
-1.107790 0.619600 -0.057330 1693 0.865029 -0.438688 0.202245
-1.107640 0.619510 -0.056350 1683 0.867187 -0.439983 0.216345
-1.107160 0.619250 -0.055350 1681 0.874094 -0.443724 0.230734
-1.107580 0.619480 -0.054390 1687 0.868051 -0.440414 0.244547
-1.108400 0.619930 -0.053450 1687 0.856252 -0.433939 0.258072
-1.108430 0.619950 -0.052480 1673 0.855820 -0.433652 0.272029
-1.108980 0.620260 -0.051530 1671 0.847907 -0.429191 0.285698
-1.109840 0.620740 -0.050590 1673 0.835532 -0.422285 0.299223
-1.110080 0.620870 -0.049620 1665 0.832079 -0.420414 0.313180
-1.110300 0.621000 -0.048650 1663 0.828915 -0.418544 0.327137
-1.110270 0.620980 -0.047670 1661 0.829345 -0.418831 0.341237
-1.110240 0.620960 -0.046700 1643 0.829777 -0.419119 0.355194
-1.110710 0.621230 -0.045740 1645 0.823014 -0.415234 0.369007
-1.110940 0.621360 -0.044770 1637 0.819705 -0.413364 0.382964
-1.111740 0.621800 -0.043820 1645 0.808194 -0.407033 0.396633
-1.112280 0.622110 -0.042860 1639 0.800424 -0.402572 0.410446
-1.112370 0.622160 -0.041890 1627 0.799129 -0.401853 0.424403
-1.112920 0.622460 -0.040930 1633 0.791215 -0.397536 0.438216
-1.113080 0.622550 -0.039950 1625 0.788913 -0.396241 0.452317
-1.113040 0.622530 -0.038970 1611 0.789490 -0.396530 0.466417
-1.113320 0.622680 -0.038000 1605 0.785461 -0.394371 0.480374
-1.113860 0.622990 -0.037040 1613 0.777691 -0.389910 0.494187
-1.114720 0.623470 -0.036080 1613 0.765317 -0.383004 0.508000
-1.115570 0.623950 -0.035130 1607 0.753087 -0.376098 0.521669
-1.116110 0.624250 -0.034160 1593 0.745317 -0.371781 0.535626
-1.116650 0.624550 -0.033200 1583 0.737547 -0.367465 0.549439
-1.116860 0.624670 -0.032220 1573 0.734525 -0.365738 0.563540
-1.117590 0.625070 -0.031260 1575 0.724022 -0.359983 0.577353
-1.118770 0.625730 -0.030310 1571 0.707043 -0.350486 0.591022
-1.119560 0.626170 -0.029340 1555 0.695676 -0.344156 0.604978
-1.120230 0.626550 -0.028370 1555 0.686037 -0.338687 0.618935
-1.120820 0.626880 -0.027400 1549 0.677546 -0.333940 0.632892
-1.121610 0.627320 -0.026430 1541 0.666179 -0.327609 0.646849
-1.122470 0.627800 -0.025470 1533 0.653805 -0.320702 0.660662
-1.123320 0.628270 -0.024500 1525 0.641576 -0.313940 0.674619
-1.123790 0.628540 -0.023520 1519 0.634813 -0.310055 0.688719
-1.124510 0.628940 -0.022540 1499 0.624453 -0.304299 0.702820
-1.125740 0.629630 -0.021580 1487 0.606755 -0.294371 0.716633
-1.126530 0.630070 -0.020600 1481 0.595388 -0.288041 0.730734
-1.127510 0.630620 -0.019630 1475 0.581289 -0.280126 0.744691
-1.128550 0.631200 -0.018650 1461 0.566323 -0.271781 0.758791
-1.129850 0.631930 -0.017680 1449 0.547618 -0.261278 0.772748
-1.131720 0.632980 -0.016710 1433 0.520713 -0.246170 0.786705
-1.132250 0.633270 -0.015720 1415 0.513087 -0.241997 0.800950
-1.132770 0.633560 -0.014730 1405 0.505605 -0.237824 0.815194
-1.134320 0.634430 -0.013750 1389 0.483302 -0.225306 0.829295
-1.135420 0.635040 -0.012770 1363 0.467475 -0.216530 0.843396
-1.136590 0.635700 -0.011780 1341 0.450640 -0.207033 0.857640
-1.138400 0.636710 -0.010800 1325 0.424598 -0.192501 0.871741
-1.140010 0.637610 -0.009810 1293 0.401432 -0.179551 0.885986
-1.141560 0.638480 -0.008820 1263 0.379130 -0.167033 0.900230
-1.142920 0.639240 -0.007820 1229 0.359561 -0.156097 0.914619
-1.145040 0.640430 -0.006830 1187 0.329057 -0.138976 0.928863
-1.148010 0.642080 -0.005840 1141 0.286324 -0.115234 0.943108
-1.137010 0.637240 -0.131320 1269 0.444597 -0.184875 -0.862360
-1.135370 0.636320 -0.130130 1305 0.468194 -0.198112 -0.845237
-1.133860 0.635470 -0.128940 1327 0.489921 -0.210343 -0.828115
-1.132350 0.634630 -0.127770 1349 0.511648 -0.222428 -0.811281
-1.131160 0.633960 -0.126630 1367 0.528770 -0.232069 -0.794878
-1.129830 0.633220 -0.125480 1385 0.547906 -0.242716 -0.778331
-1.128310 0.632360 -0.124300 1407 0.569778 -0.255091 -0.761353
-1.127310 0.631800 -0.123190 1417 0.584165 -0.263148 -0.745381
-1.126240 0.631200 -0.122080 1431 0.599561 -0.271781 -0.729410
-1.124720 0.630350 -0.120910 1441 0.621432 -0.284011 -0.712575
-1.123780 0.629820 -0.119810 1459 0.634957 -0.291637 -0.696748
-1.122960 0.629360 -0.118730 1477 0.646756 -0.298256 -0.681209
-1.121760 0.628690 -0.117610 1483 0.664021 -0.307896 -0.665093
-1.121010 0.628260 -0.116530 1491 0.674814 -0.314083 -0.649554
-1.120450 0.627950 -0.115480 1499 0.682870 -0.318544 -0.634446
-1.119760 0.627560 -0.114420 1513 0.692798 -0.324155 -0.619194
-1.118810 0.627030 -0.113330 1529 0.706467 -0.331781 -0.603511
-1.117990 0.626570 -0.112250 1541 0.718266 -0.338400 -0.587971
-1.117620 0.626360 -0.111230 1545 0.723590 -0.341421 -0.573295
-1.117430 0.626260 -0.110220 1553 0.726324 -0.342860 -0.558763
-1.116610 0.625800 -0.109140 1559 0.738122 -0.349479 -0.543223
-1.115150 0.624980 -0.108010 1567 0.759130 -0.361278 -0.526964
-1.114510 0.624620 -0.106960 1571 0.768337 -0.366457 -0.511856
-1.113820 0.624230 -0.105910 1573 0.778267 -0.372068 -0.496748
-1.112540 0.623520 -0.104800 1575 0.796683 -0.382284 -0.480777
-1.112230 0.623340 -0.103790 1589 0.801145 -0.384874 -0.466245
-1.112430 0.623450 -0.102820 1597 0.798267 -0.383292 -0.452288
-1.111720 0.623060 -0.101770 1605 0.808483 -0.388904 -0.437180
-1.111600 0.622990 -0.100780 1613 0.810208 -0.389910 -0.422935
-1.111610 0.622990 -0.099790 1615 0.810064 -0.389910 -0.408691
-1.111160 0.622740 -0.098770 1617 0.816539 -0.393508 -0.394014
-1.110650 0.622450 -0.097740 1627 0.823879 -0.397680 -0.379194
-1.110070 0.622130 -0.096710 1631 0.832223 -0.402285 -0.364374
-1.109430 0.621770 -0.095670 1631 0.841432 -0.407464 -0.349410
-1.109440 0.621770 -0.094690 1633 0.841288 -0.407464 -0.335309
-1.110010 0.622090 -0.093750 1651 0.833086 -0.402861 -0.321784
-1.109170 0.621620 -0.092700 1659 0.845173 -0.409623 -0.306676
-1.108410 0.621190 -0.091660 1655 0.856108 -0.415810 -0.291712
-1.109230 0.621660 -0.090740 1665 0.844309 -0.409047 -0.278475
-1.109360 0.621720 -0.089770 1675 0.842439 -0.408184 -0.264518
-1.108200 0.621070 -0.088700 1673 0.859130 -0.417536 -0.249122
-1.107300 0.620570 -0.087650 1671 0.872079 -0.424731 -0.234014
-1.107100 0.620460 -0.086650 1671 0.874957 -0.426314 -0.219626
-1.107160 0.620490 -0.085680 1667 0.874094 -0.425882 -0.205669
-1.106900 0.620350 -0.084680 1667 0.877835 -0.427896 -0.191281
-1.107020 0.620410 -0.083710 1681 0.876108 -0.427033 -0.177324
-1.107010 0.620410 -0.082730 1679 0.876252 -0.427033 -0.163223
-1.107000 0.620400 -0.081750 1685 0.876396 -0.427177 -0.149122
-1.107370 0.620610 -0.080800 1695 0.871072 -0.424155 -0.135453
-1.107230 0.620530 -0.079810 1701 0.873087 -0.425306 -0.121209
-1.106710 0.620240 -0.078800 1687 0.880569 -0.429479 -0.106676
-1.106640 0.620200 -0.077810 1685 0.881576 -0.430055 -0.092432
-1.106430 0.620080 -0.076820 1695 0.884596 -0.431781 -0.078187
-1.106290 0.620000 -0.075830 1713 0.886612 -0.432932 -0.063942
-1.106210 0.619960 -0.074850 1703 0.887763 -0.433508 -0.049842
-1.106130 0.619910 -0.073870 1703 0.888914 -0.434227 -0.035741
-1.106440 0.620080 -0.072910 1715 0.884454 -0.431781 -0.021928
-1.106810 0.620290 -0.071960 1721 0.879130 -0.428760 -0.008259
-1.106730 0.620250 -0.070980 1719 0.880281 -0.429335 0.005842
-1.106390 0.620060 -0.069980 1713 0.885173 -0.432068 0.020230
-1.106120 0.619910 -0.068980 1709 0.889058 -0.434227 0.034619
-1.106170 0.619930 -0.068010 1717 0.888337 -0.433939 0.048576
-1.106080 0.619880 -0.067030 1711 0.889632 -0.434659 0.062676
-1.106320 0.620020 -0.066070 1709 0.886180 -0.432645 0.076489
-1.106880 0.620330 -0.065120 1719 0.878123 -0.428184 0.090158
-1.106790 0.620280 -0.064140 1709 0.879418 -0.428903 0.104259
-1.106770 0.620270 -0.063160 1699 0.879705 -0.429047 0.118360
-1.107200 0.620510 -0.062210 1701 0.873518 -0.425594 0.132029
-1.107300 0.620560 -0.061240 1711 0.872079 -0.424875 0.145986
-1.107340 0.620590 -0.060270 1701 0.871504 -0.424443 0.159942
-1.107060 0.620430 -0.059270 1691 0.875533 -0.426745 0.174331
-1.106900 0.620340 -0.058290 1691 0.877835 -0.428040 0.188432
-1.107460 0.620650 -0.057340 1695 0.869777 -0.423580 0.202101
-1.107690 0.620780 -0.056380 1687 0.866468 -0.421709 0.215914
-1.107340 0.620590 -0.055380 1685 0.871504 -0.424443 0.230302
-1.107380 0.620610 -0.054410 1689 0.870928 -0.424155 0.244259
-1.108060 0.620990 -0.053460 1687 0.861144 -0.418688 0.257928
-1.108740 0.621370 -0.052520 1683 0.851360 -0.413220 0.271453
-1.108830 0.621420 -0.051550 1677 0.850065 -0.412500 0.285410
-1.109440 0.621770 -0.050600 1675 0.841288 -0.407464 0.299079
-1.109350 0.621710 -0.049610 1669 0.842583 -0.408328 0.313324
-1.109190 0.621620 -0.048630 1663 0.844885 -0.409623 0.327424
-1.110060 0.622110 -0.047690 1671 0.832367 -0.402572 0.340950
-1.109840 0.621980 -0.046700 1647 0.835532 -0.404443 0.355194
-1.109930 0.622040 -0.045730 1649 0.834237 -0.403580 0.369151
-1.110340 0.622270 -0.044770 1643 0.828338 -0.400270 0.382964
-1.110890 0.622570 -0.043810 1639 0.820424 -0.395954 0.396777
-1.111370 0.622840 -0.042850 1637 0.813519 -0.392069 0.410590
-1.111270 0.622780 -0.041860 1635 0.814958 -0.392932 0.424835
-1.111870 0.623120 -0.040910 1631 0.806323 -0.388040 0.438504
-1.112800 0.623640 -0.039960 1631 0.792942 -0.380558 0.452173
-1.113270 0.623910 -0.039000 1619 0.786179 -0.376673 0.465986
-1.113680 0.624140 -0.038030 1609 0.780281 -0.373363 0.479943
-1.113900 0.624260 -0.037060 1609 0.777116 -0.371637 0.493899
-1.114190 0.624420 -0.036080 1605 0.772943 -0.369335 0.508000
-1.114790 0.624760 -0.035120 1599 0.764310 -0.364443 0.521813
-1.115520 0.625170 -0.034160 1589 0.753806 -0.358544 0.535626
-1.115990 0.625430 -0.033190 1585 0.747043 -0.354803 0.549583
-1.116650 0.625800 -0.032230 1577 0.737547 -0.349479 0.563396
-1.117450 0.626250 -0.031270 1569 0.726036 -0.343004 0.577209
-1.118040 0.626580 -0.030300 1567 0.717547 -0.338256 0.591166
-1.118770 0.626990 -0.029330 1559 0.707043 -0.332356 0.605122
-1.120010 0.627680 -0.028380 1563 0.689201 -0.322429 0.618791
-1.120410 0.627910 -0.027400 1555 0.683447 -0.319119 0.632892
-1.120620 0.628030 -0.026420 1539 0.680424 -0.317393 0.646993
-1.121420 0.628470 -0.025450 1531 0.668913 -0.311062 0.660950
-1.122390 0.629020 -0.024490 1521 0.654956 -0.303148 0.674763
-1.123570 0.629680 -0.023520 1513 0.637979 -0.293652 0.688719
-1.124480 0.630190 -0.022550 1507 0.624885 -0.286313 0.702676
-1.124940 0.630450 -0.021570 1489 0.618266 -0.282572 0.716777
-1.125730 0.630890 -0.020600 1481 0.606899 -0.276241 0.730734
-1.126840 0.631510 -0.019620 1471 0.590928 -0.267320 0.744835
-1.128070 0.632200 -0.018650 1463 0.573230 -0.257393 0.758791
-1.128790 0.632600 -0.017670 1449 0.562870 -0.251637 0.772892
-1.129640 0.633080 -0.016690 1427 0.550641 -0.244731 0.786993
-1.131190 0.633950 -0.015720 1411 0.528339 -0.232213 0.800950
-1.132290 0.634570 -0.014730 1403 0.512511 -0.223292 0.815194
-1.133390 0.635180 -0.013750 1383 0.496684 -0.214515 0.829295
-1.135010 0.636090 -0.012770 1359 0.473374 -0.201422 0.843396
-1.136560 0.636960 -0.011790 1343 0.451073 -0.188903 0.857496
-1.138230 0.637900 -0.010800 1327 0.427044 -0.175378 0.871741
-1.139780 0.638770 -0.009810 1301 0.404740 -0.162860 0.885986
-1.141080 0.639490 -0.008820 1259 0.386036 -0.152500 0.900230
-1.142880 0.640500 -0.007830 1225 0.360137 -0.137968 0.914475
-1.145260 0.641840 -0.006840 1189 0.325892 -0.118688 0.928719
-1.147840 0.643280 -0.005840 1143 0.288770 -0.097968 0.943108
-1.136660 0.638160 -0.131340 1263 0.449633 -0.171637 -0.862647
-1.134890 0.637160 -0.130130 1295 0.475101 -0.186026 -0.845237
-1.133380 0.636320 -0.128940 1321 0.496827 -0.198112 -0.828115
-1.132260 0.635680 -0.127810 1349 0.512943 -0.207320 -0.811856
-1.131130 0.635050 -0.126680 1365 0.529202 -0.216385 -0.795597
-1.129940 0.634380 -0.125540 1387 0.546323 -0.226026 -0.779194
-1.128540 0.633600 -0.124380 1407 0.566467 -0.237249 -0.762504
-1.126970 0.632710 -0.123210 1415 0.589057 -0.250055 -0.745669
-1.125900 0.632110 -0.122090 1431 0.604453 -0.258688 -0.729554
-1.124380 0.631260 -0.120930 1447 0.626324 -0.270918 -0.712863
-1.123060 0.630510 -0.119790 1463 0.645317 -0.281710 -0.696460
-1.122880 0.630410 -0.118770 1479 0.647907 -0.283148 -0.681784
-1.121680 0.629740 -0.117650 1487 0.665172 -0.292788 -0.665669
-1.120670 0.629170 -0.116550 1491 0.679706 -0.300990 -0.649842
-1.120620 0.629140 -0.115550 1503 0.680424 -0.301421 -0.635453
-1.119610 0.628570 -0.114450 1515 0.694958 -0.309623 -0.619626
-1.118660 0.628040 -0.113360 1523 0.708626 -0.317249 -0.603942
-1.118030 0.627690 -0.112300 1543 0.717691 -0.322284 -0.588691
-1.117150 0.627190 -0.111230 1553 0.730353 -0.329479 -0.573295
-1.116580 0.626870 -0.110180 1557 0.738554 -0.334084 -0.558187
-1.115760 0.626410 -0.109110 1559 0.750353 -0.340702 -0.542791
-1.114490 0.625700 -0.107990 1567 0.768625 -0.350918 -0.526676
-1.114050 0.625450 -0.106960 1575 0.774956 -0.354515 -0.511856
-1.114310 0.625600 -0.106000 1573 0.771215 -0.352357 -0.498043
-1.113880 0.625350 -0.104970 1571 0.777402 -0.355954 -0.483223
-1.112600 0.624630 -0.103870 1583 0.795821 -0.366314 -0.467396
-1.111970 0.624280 -0.102820 1589 0.804886 -0.371350 -0.452288
-1.111900 0.624240 -0.101830 1597 0.805893 -0.371925 -0.438043
-1.111400 0.623960 -0.100800 1605 0.813086 -0.375954 -0.423223
-1.111340 0.623920 -0.099810 1607 0.813949 -0.376529 -0.408978
-1.111080 0.623780 -0.098800 1627 0.817690 -0.378544 -0.394446
-1.110570 0.623490 -0.097770 1633 0.825029 -0.382717 -0.379626
-1.109990 0.623170 -0.096740 1637 0.833374 -0.387320 -0.364806
-1.109160 0.622700 -0.095680 1631 0.845317 -0.394084 -0.349554
-1.109230 0.622740 -0.094710 1637 0.844309 -0.393508 -0.335597
-1.109230 0.622740 -0.093730 1643 0.844309 -0.393508 -0.321496
-1.108840 0.622520 -0.092710 1653 0.849921 -0.396673 -0.306820
-1.108330 0.622230 -0.091690 1655 0.857259 -0.400846 -0.292144
-1.108390 0.622270 -0.090710 1657 0.856396 -0.400270 -0.278043
-1.108830 0.622510 -0.089770 1665 0.850065 -0.396817 -0.264518
-1.108380 0.622260 -0.088750 1665 0.856540 -0.400415 -0.249842
-1.107670 0.621860 -0.087710 1667 0.866756 -0.406169 -0.234878
-1.106640 0.621280 -0.086650 1669 0.881576 -0.414515 -0.219626
-1.106120 0.620990 -0.085630 1665 0.889058 -0.418688 -0.204950
-1.106880 0.621420 -0.084710 1681 0.878123 -0.412500 -0.191712
-1.106880 0.621410 -0.083730 1685 0.878123 -0.412644 -0.177611
-1.106230 0.621050 -0.082710 1673 0.887475 -0.417824 -0.162935
-1.106210 0.621040 -0.081730 1681 0.887763 -0.417968 -0.148835
-1.106150 0.621000 -0.080740 1695 0.888626 -0.418544 -0.134590
-1.105940 0.620890 -0.079750 1693 0.891648 -0.420126 -0.120345
-1.105800 0.620810 -0.078760 1683 0.893661 -0.421278 -0.106101
-1.106170 0.621020 -0.077810 1693 0.888337 -0.418256 -0.092432
-1.106610 0.621260 -0.076860 1699 0.882008 -0.414803 -0.078763
-1.106150 0.621000 -0.075860 1697 0.888626 -0.418544 -0.064374
-1.105810 0.620810 -0.074860 1701 0.893517 -0.421278 -0.049986
-1.106510 0.621200 -0.073920 1701 0.883446 -0.415666 -0.036460
-1.106110 0.620980 -0.072920 1713 0.889202 -0.418831 -0.022072
-1.105520 0.620650 -0.071910 1711 0.897691 -0.423580 -0.007540
-1.106070 0.620960 -0.070960 1719 0.889776 -0.419119 0.006130
-1.106000 0.620920 -0.069980 1705 0.890785 -0.419695 0.020230
-1.105720 0.620760 -0.068990 1705 0.894812 -0.421997 0.034475
-1.105580 0.620680 -0.068000 1715 0.896828 -0.423148 0.048719
-1.105940 0.620880 -0.067050 1709 0.891648 -0.420270 0.062388
-1.106620 0.621270 -0.066110 1713 0.881864 -0.414659 0.075914
-1.106410 0.621150 -0.065120 1701 0.884885 -0.416385 0.090158
-1.105810 0.620810 -0.064110 1703 0.893517 -0.421278 0.104691
-1.105800 0.620800 -0.063140 1699 0.893661 -0.421421 0.118648
-1.106030 0.620930 -0.062170 1693 0.890353 -0.419551 0.132604
-1.106260 0.621060 -0.061210 1691 0.887044 -0.417680 0.146417
-1.106430 0.621160 -0.060240 1701 0.884596 -0.416242 0.160374
-1.105960 0.620890 -0.059240 1693 0.891360 -0.420126 0.174763
-1.106900 0.621420 -0.058310 1705 0.877835 -0.412500 0.188144
-1.107450 0.621730 -0.057370 1701 0.869921 -0.408040 0.201669
-1.107160 0.621570 -0.056370 1689 0.874094 -0.410342 0.216058
-1.106950 0.621450 -0.055390 1681 0.877115 -0.412069 0.230158
-1.107110 0.621540 -0.054420 1689 0.874813 -0.410774 0.244115
-1.106760 0.621340 -0.053420 1683 0.879849 -0.413652 0.258504
-1.106860 0.621390 -0.052450 1671 0.878410 -0.412932 0.272460
-1.107990 0.622030 -0.051530 1679 0.862151 -0.403723 0.285698
-1.108470 0.622300 -0.050570 1677 0.855245 -0.399838 0.299511
-1.108890 0.622530 -0.049610 1667 0.849201 -0.396530 0.313324
-1.108990 0.622590 -0.048640 1669 0.847763 -0.395666 0.327281
-1.109600 0.622930 -0.047690 1669 0.838986 -0.390774 0.340950
-1.110330 0.623350 -0.046740 1661 0.828482 -0.384730 0.354619
-1.110430 0.623400 -0.045770 1651 0.827043 -0.384012 0.368576
-1.110330 0.623340 -0.044780 1643 0.828482 -0.384874 0.382820
-1.110490 0.623430 -0.043810 1637 0.826180 -0.383579 0.396777
-1.110780 0.623590 -0.042840 1639 0.822007 -0.381278 0.410734
-1.111060 0.623750 -0.041870 1637 0.817978 -0.378976 0.424691
-1.111480 0.623990 -0.040910 1637 0.811935 -0.375522 0.438504
-1.112400 0.624510 -0.039960 1633 0.798697 -0.368040 0.452173
-1.112750 0.624700 -0.039000 1613 0.793661 -0.365306 0.465986
-1.112520 0.624570 -0.038010 1607 0.796972 -0.367177 0.480230
-1.113190 0.624940 -0.037050 1603 0.787330 -0.361853 0.494043
-1.113850 0.625320 -0.036090 1593 0.777835 -0.356385 0.507856
-1.114450 0.625660 -0.035130 1585 0.769202 -0.351493 0.521669
-1.115440 0.626210 -0.034170 1591 0.754957 -0.343580 0.535482
-1.116360 0.626720 -0.033220 1591 0.741720 -0.336241 0.549151
-1.116960 0.627060 -0.032250 1587 0.733086 -0.331350 0.563108
-1.117050 0.627110 -0.031270 1577 0.731791 -0.330630 0.577209
-1.117640 0.627440 -0.030300 1571 0.723302 -0.325882 0.591166
-1.118630 0.628000 -0.029340 1559 0.709057 -0.317824 0.604978
-1.119350 0.628410 -0.028380 1559 0.698699 -0.311925 0.618791
-1.120020 0.628780 -0.027410 1557 0.689057 -0.306601 0.632748
-1.120610 0.629110 -0.026430 1543 0.680568 -0.301853 0.646849
-1.121530 0.629630 -0.025470 1531 0.667330 -0.294371 0.660662
-1.122380 0.630110 -0.024500 1527 0.655101 -0.287464 0.674619
-1.123100 0.630510 -0.023520 1513 0.644740 -0.281710 0.688719
-1.123890 0.630950 -0.022550 1503 0.633374 -0.275379 0.702676
-1.125120 0.631640 -0.021580 1493 0.615676 -0.265450 0.716633
-1.126360 0.632340 -0.020610 1487 0.597834 -0.255378 0.730590
-1.127140 0.632780 -0.019640 1479 0.586611 -0.249047 0.744547
-1.128310 0.633430 -0.018660 1467 0.569778 -0.239695 0.758648
-1.129220 0.633940 -0.017680 1449 0.556683 -0.232357 0.772748
-1.130070 0.634420 -0.016700 1429 0.544454 -0.225451 0.786849
-1.131040 0.634970 -0.015720 1413 0.530497 -0.217536 0.800950
-1.132780 0.635950 -0.014750 1405 0.505461 -0.203435 0.814907
-1.134340 0.636820 -0.013770 1389 0.483014 -0.190918 0.829007
-1.135370 0.637400 -0.012780 1361 0.468194 -0.182573 0.843252
-1.136790 0.638200 -0.011790 1351 0.447762 -0.171062 0.857496
-1.137700 0.638710 -0.010800 1329 0.434670 -0.163723 0.871741
-1.138990 0.639430 -0.009810 1291 0.416107 -0.153364 0.885986
-1.140730 0.640410 -0.008820 1259 0.391072 -0.139263 0.900230
-1.142540 0.641420 -0.007830 1233 0.365029 -0.124731 0.914475
-1.144660 0.642620 -0.006830 1193 0.334525 -0.107464 0.928863
-1.146850 0.643840 -0.005840 1133 0.303015 -0.089910 0.943108
-1.135900 0.638910 -0.131310 1255 0.460568 -0.160846 -0.862216
-1.134330 0.638020 -0.130120 1291 0.483158 -0.173652 -0.845093
-1.132940 0.637240 -0.128950 1325 0.503158 -0.184875 -0.828259
-1.131620 0.636500 -0.127800 1347 0.522150 -0.195522 -0.811712
-1.130500 0.635860 -0.126660 1363 0.538267 -0.204730 -0.795309
-1.129630 0.635380 -0.125560 1383 0.550785 -0.211637 -0.779482
-1.128300 0.634630 -0.124410 1403 0.569922 -0.222428 -0.762935
-1.126470 0.633600 -0.123210 1411 0.596252 -0.237249 -0.745669
-1.125210 0.632890 -0.122070 1425 0.614381 -0.247465 -0.729266
-1.124390 0.632430 -0.120980 1439 0.626180 -0.254083 -0.713583
-1.123640 0.632010 -0.119900 1461 0.636972 -0.260127 -0.698043
-1.122580 0.631410 -0.118790 1479 0.652222 -0.268759 -0.682072
-1.121310 0.630690 -0.117660 1481 0.670497 -0.279120 -0.665813
-1.120430 0.630200 -0.116570 1485 0.683158 -0.286169 -0.650129
-1.119420 0.629630 -0.115470 1499 0.697690 -0.294371 -0.634302
-1.118790 0.629280 -0.114420 1515 0.706755 -0.299407 -0.619194
-1.118550 0.629140 -0.113400 1525 0.710209 -0.301421 -0.604518
-1.117860 0.628750 -0.112340 1543 0.720137 -0.307033 -0.589266
-1.116720 0.628110 -0.111230 1553 0.736540 -0.316242 -0.573295
-1.115770 0.627570 -0.110150 1557 0.750209 -0.324012 -0.557755
-1.115270 0.627290 -0.109110 1555 0.757403 -0.328040 -0.542791
-1.114890 0.627080 -0.108080 1559 0.762871 -0.331061 -0.527971
-1.114200 0.626690 -0.107030 1565 0.772799 -0.336674 -0.512863
-1.113180 0.626120 -0.105940 1569 0.787474 -0.344875 -0.497180
-1.112740 0.625870 -0.104910 1573 0.793805 -0.348472 -0.482360
-1.112810 0.625910 -0.103930 1589 0.792798 -0.347896 -0.468259
-1.111660 0.625260 -0.102840 1595 0.809345 -0.357249 -0.452576
-1.110650 0.624690 -0.101760 1597 0.823879 -0.365450 -0.437036
-1.110070 0.624370 -0.100720 1597 0.832223 -0.370055 -0.422072
-1.110330 0.624510 -0.099760 1607 0.828482 -0.368040 -0.408259
-1.110720 0.624730 -0.098810 1629 0.822870 -0.364875 -0.394590
-1.110210 0.624440 -0.097780 1631 0.830209 -0.369047 -0.379770
-1.109630 0.624120 -0.096750 1637 0.838554 -0.373652 -0.364950
-1.108800 0.623650 -0.095700 1639 0.850496 -0.380414 -0.349842
-1.108350 0.623400 -0.094680 1639 0.856971 -0.384012 -0.335165
-1.108160 0.623290 -0.093680 1641 0.859705 -0.385594 -0.320777
-1.107840 0.623110 -0.092670 1643 0.864310 -0.388184 -0.306245
-1.107900 0.623140 -0.091690 1651 0.863446 -0.387753 -0.292144
-1.107640 0.622990 -0.090690 1659 0.867187 -0.389910 -0.277755
-1.107770 0.623070 -0.089720 1659 0.865317 -0.388759 -0.263799
-1.108210 0.623310 -0.088770 1663 0.858986 -0.385306 -0.250129
-1.107370 0.622840 -0.087730 1669 0.871072 -0.392069 -0.235165
-1.106790 0.622510 -0.086700 1665 0.879418 -0.396817 -0.220345
-1.106400 0.622300 -0.085690 1675 0.885029 -0.399838 -0.205813
-1.106330 0.622260 -0.084710 1677 0.886036 -0.400415 -0.191712
-1.105740 0.621930 -0.083680 1679 0.894526 -0.405162 -0.176892
-1.105550 0.621810 -0.082690 1677 0.897258 -0.406889 -0.162647
-1.105980 0.622060 -0.081750 1689 0.891071 -0.403292 -0.149122
-1.105720 0.621910 -0.080750 1689 0.894812 -0.405451 -0.134734
-1.105330 0.621690 -0.079740 1685 0.900425 -0.408616 -0.120201
-1.105180 0.621610 -0.078750 1679 0.902582 -0.409767 -0.105957
-1.105490 0.621780 -0.077800 1689 0.898123 -0.407321 -0.092288
-1.105540 0.621810 -0.076830 1697 0.897402 -0.406889 -0.078331
-1.105460 0.621770 -0.075840 1699 0.898553 -0.407464 -0.064086
-1.105580 0.621830 -0.074870 1697 0.896828 -0.406601 -0.050129
-1.105950 0.622040 -0.073920 1707 0.891504 -0.403580 -0.036460
-1.106000 0.622070 -0.072950 1705 0.890785 -0.403148 -0.022504
-1.105530 0.621800 -0.071940 1705 0.897546 -0.407033 -0.007971
-1.104680 0.621330 -0.070910 1705 0.909778 -0.413795 0.006849
-1.105050 0.621530 -0.069950 1705 0.904454 -0.410918 0.020662
-1.105940 0.622030 -0.069030 1713 0.891648 -0.403723 0.033899
-1.105600 0.621840 -0.068030 1719 0.896540 -0.406457 0.048288
-1.104940 0.621470 -0.067020 1695 0.906035 -0.411781 0.062820
-1.105040 0.621530 -0.066050 1697 0.904598 -0.410918 0.076777
-1.105850 0.621980 -0.065120 1707 0.892943 -0.404443 0.090158
-1.106160 0.622160 -0.064160 1705 0.888481 -0.401853 0.103971
-1.105820 0.621960 -0.063160 1699 0.893375 -0.404731 0.118360
-1.105600 0.621840 -0.062180 1701 0.896540 -0.406457 0.132460
-1.105200 0.621610 -0.061180 1697 0.902294 -0.409767 0.146849
-1.105560 0.621820 -0.060220 1703 0.897116 -0.406746 0.160662
-1.106430 0.622300 -0.059290 1719 0.884596 -0.399838 0.174043
-1.106660 0.622430 -0.058330 1713 0.881288 -0.397968 0.187856
-1.106770 0.622500 -0.057360 1699 0.879705 -0.396961 0.201813
-1.106800 0.622520 -0.056380 1691 0.879274 -0.396673 0.215914
-1.106840 0.622540 -0.055410 1689 0.878698 -0.396385 0.229871
-1.106880 0.622560 -0.054430 1685 0.878123 -0.396097 0.243971
-1.107170 0.622720 -0.053470 1679 0.873950 -0.393795 0.257784
-1.107390 0.622850 -0.052500 1673 0.870784 -0.391925 0.271741
-1.107240 0.622760 -0.051520 1677 0.872943 -0.393220 0.285842
-1.107080 0.622670 -0.050530 1667 0.875245 -0.394515 0.300086
-1.108140 0.623270 -0.049600 1671 0.859993 -0.385882 0.313468
-1.108940 0.623720 -0.048660 1663 0.848482 -0.379407 0.326993
-1.109430 0.623990 -0.047700 1669 0.841432 -0.375522 0.340806
-1.109520 0.624040 -0.046730 1661 0.840137 -0.374803 0.354763
-1.109360 0.623950 -0.045740 1647 0.842439 -0.376098 0.369007
-1.109650 0.624110 -0.044780 1639 0.838266 -0.373796 0.382820
-1.109680 0.624130 -0.043800 1635 0.837834 -0.373508 0.396921
-1.110280 0.624470 -0.042840 1633 0.829201 -0.368616 0.410734
-1.110830 0.624780 -0.041880 1629 0.821289 -0.364155 0.424547
-1.111500 0.625150 -0.040930 1629 0.811647 -0.358831 0.438216
-1.111970 0.625420 -0.039970 1623 0.804886 -0.354947 0.452029
-1.112570 0.625760 -0.039010 1619 0.796251 -0.350054 0.465842
-1.113430 0.626240 -0.038050 1609 0.783877 -0.343148 0.479655
-1.113530 0.626300 -0.037080 1607 0.782438 -0.342285 0.493612
-1.113870 0.626490 -0.036110 1607 0.777546 -0.339551 0.507568
-1.114470 0.626830 -0.035140 1605 0.768914 -0.334659 0.521525
-1.114880 0.627060 -0.034170 1591 0.763015 -0.331350 0.535482
-1.116180 0.627790 -0.033230 1589 0.744310 -0.320846 0.549007
-1.117360 0.628450 -0.032280 1585 0.727331 -0.311350 0.562676
-1.117390 0.628460 -0.031290 1577 0.726899 -0.311206 0.576921
-1.117540 0.628550 -0.030310 1567 0.724741 -0.309911 0.591022
-1.117870 0.628740 -0.029340 1561 0.719993 -0.307177 0.604978
-1.119300 0.629540 -0.028390 1563 0.699417 -0.295666 0.618648
-1.120610 0.630280 -0.027430 1557 0.680568 -0.285018 0.632460
-1.120690 0.630320 -0.026450 1545 0.679417 -0.284443 0.646561
-1.121160 0.630590 -0.025470 1535 0.672654 -0.280558 0.660662
-1.122130 0.631140 -0.024500 1523 0.658697 -0.272645 0.674619
-1.123050 0.631650 -0.023530 1519 0.645461 -0.265307 0.688576
-1.123390 0.631840 -0.022550 1507 0.640569 -0.262573 0.702676
-1.124240 0.632320 -0.021580 1499 0.628338 -0.255666 0.716633
-1.125850 0.633230 -0.020610 1489 0.605173 -0.242573 0.730590
-1.126900 0.633810 -0.019640 1483 0.590065 -0.234227 0.744547
-1.127810 0.634330 -0.018660 1475 0.576971 -0.226746 0.758648
-1.128460 0.634700 -0.017680 1451 0.567618 -0.221421 0.772748
-1.129430 0.635240 -0.016700 1431 0.553661 -0.213651 0.786849
-1.130990 0.636120 -0.015730 1415 0.531215 -0.200989 0.800806
-1.132790 0.637130 -0.014750 1411 0.505317 -0.186457 0.814907
-1.134350 0.638000 -0.013770 1391 0.482871 -0.173939 0.829007
-1.135510 0.638660 -0.012790 1365 0.466180 -0.164443 0.843108
-1.136930 0.639460 -0.011800 1353 0.445748 -0.152932 0.857353
-1.138030 0.640080 -0.010810 1329 0.429920 -0.144012 0.871597
-1.139450 0.640880 -0.009820 1291 0.409490 -0.132501 0.885842
-1.141120 0.641820 -0.008830 1265 0.385461 -0.118975 0.900086
-1.142670 0.642690 -0.007830 1239 0.363158 -0.106457 0.914475
-1.144350 0.643630 -0.006840 1191 0.338985 -0.092932 0.928719
-1.146600 0.644900 -0.005840 1125 0.306611 -0.074658 0.943108
-1.135470 0.639840 -0.131320 1253 0.466755 -0.147464 -0.862360
-1.133830 0.638910 -0.130120 1287 0.490353 -0.160846 -0.845093
-1.132440 0.638130 -0.128950 1321 0.510353 -0.172069 -0.828259
-1.130930 0.637280 -0.127770 1343 0.532080 -0.184299 -0.811281
-1.130320 0.636930 -0.126700 1365 0.540857 -0.189335 -0.795885
-1.129260 0.636330 -0.125570 1385 0.556109 -0.197968 -0.779626
-1.127550 0.635370 -0.124380 1395 0.580712 -0.211781 -0.762504
-1.126740 0.634910 -0.123290 1413 0.592367 -0.218400 -0.746820
-1.125730 0.634350 -0.122180 1429 0.606899 -0.226457 -0.730849
-1.124540 0.633670 -0.121050 1437 0.624022 -0.236242 -0.714590
-1.123220 0.632930 -0.119910 1461 0.643015 -0.246889 -0.698187
-1.121630 0.632030 -0.118740 1471 0.665893 -0.259839 -0.681352
-1.120950 0.631640 -0.117680 1479 0.675677 -0.265450 -0.666101
-1.120320 0.631290 -0.116610 1499 0.684742 -0.270486 -0.650705
-1.119000 0.630540 -0.115480 1501 0.703734 -0.281277 -0.634446
-1.118620 0.630330 -0.114450 1513 0.709201 -0.284299 -0.619626
-1.118380 0.630190 -0.113430 1531 0.712655 -0.286313 -0.604950
-1.117500 0.629700 -0.112350 1533 0.725317 -0.293364 -0.589410
-1.116490 0.629130 -0.111260 1543 0.739849 -0.301565 -0.573727
-1.115410 0.628520 -0.110160 1551 0.755389 -0.310342 -0.557899
-1.114590 0.628060 -0.109090 1549 0.767186 -0.316961 -0.542504
-1.114090 0.627770 -0.108050 1563 0.774382 -0.321134 -0.527540
-1.113060 0.627200 -0.106960 1565 0.789201 -0.329335 -0.511856
-1.112620 0.626950 -0.105930 1575 0.795532 -0.332932 -0.497036
-1.112630 0.626950 -0.104950 1583 0.795388 -0.332932 -0.482935
-1.112190 0.626700 -0.103920 1589 0.801719 -0.336530 -0.468115
-1.111560 0.626350 -0.102870 1591 0.810784 -0.341565 -0.453007
-1.110730 0.625880 -0.101810 1601 0.822726 -0.348328 -0.437755
-1.110160 0.625560 -0.100780 1605 0.830928 -0.352932 -0.422935
-1.110030 0.625490 -0.099780 1619 0.832798 -0.353939 -0.408547
-1.110040 0.625490 -0.098800 1629 0.832655 -0.353939 -0.394446
-1.109400 0.625130 -0.097760 1627 0.841863 -0.359119 -0.379482
-1.108950 0.624880 -0.096730 1631 0.848338 -0.362716 -0.364662
-1.109080 0.624950 -0.095760 1645 0.846468 -0.361709 -0.350705
-1.108890 0.624840 -0.094760 1651 0.849201 -0.363292 -0.336317
-1.107930 0.624300 -0.093700 1649 0.863015 -0.371062 -0.321065
-1.107030 0.623790 -0.092640 1645 0.875964 -0.378399 -0.305813
-1.106650 0.623570 -0.091630 1655 0.881432 -0.381565 -0.291281
-1.106450 0.623460 -0.090630 1645 0.884310 -0.383148 -0.276892
-1.106830 0.623680 -0.089680 1657 0.878842 -0.379983 -0.263223
-1.106960 0.623750 -0.088710 1663 0.876970 -0.378976 -0.249266
-1.106890 0.623710 -0.087730 1671 0.877979 -0.379551 -0.235165
-1.106300 0.623380 -0.086700 1671 0.886468 -0.384299 -0.220345
-1.105650 0.623010 -0.085670 1673 0.895821 -0.389623 -0.205525
-1.105650 0.623010 -0.084690 1685 0.895821 -0.389623 -0.191424
-1.106030 0.623220 -0.083740 1683 0.890353 -0.386601 -0.177755
-1.106470 0.623470 -0.082800 1683 0.884022 -0.383004 -0.164230
-1.106710 0.623610 -0.081840 1685 0.880569 -0.380989 -0.150417
-1.106060 0.623240 -0.080810 1681 0.889921 -0.386314 -0.135597
-1.104900 0.622590 -0.079750 1677 0.906612 -0.395666 -0.120345
-1.104630 0.622440 -0.078750 1699 0.910497 -0.397825 -0.105957
-1.104750 0.622500 -0.077780 1709 0.908769 -0.396961 -0.092000
-1.104930 0.622600 -0.076820 1703 0.906179 -0.395522 -0.078187
-1.105110 0.622700 -0.075850 1701 0.903589 -0.394084 -0.064230
-1.105100 0.622700 -0.074870 1705 0.903733 -0.394084 -0.050129
-1.105020 0.622650 -0.073890 1707 0.904884 -0.394802 -0.036029
-1.105200 0.622750 -0.072930 1705 0.902294 -0.393364 -0.022216
-1.105310 0.622810 -0.071950 1709 0.900713 -0.392500 -0.008115
-1.105160 0.622730 -0.070970 1717 0.902871 -0.393651 0.005986
-1.105080 0.622690 -0.069990 1711 0.904022 -0.394227 0.020086
-1.105450 0.622890 -0.069030 1715 0.898697 -0.391350 0.033899
-1.105630 0.622990 -0.068070 1723 0.896107 -0.389910 0.047712
-1.105410 0.622870 -0.067080 1711 0.899274 -0.391637 0.061957
-1.105070 0.622680 -0.066080 1715 0.904166 -0.394371 0.076345
-1.105120 0.622700 -0.065100 1705 0.903447 -0.394084 0.090446
-1.105290 0.622800 -0.064140 1691 0.900999 -0.392645 0.104259
-1.105390 0.622860 -0.063170 1707 0.899562 -0.391781 0.118216
-1.105700 0.623030 -0.062210 1709 0.895101 -0.389335 0.132029
-1.105930 0.623160 -0.061240 1701 0.891792 -0.387464 0.145986
-1.105900 0.623150 -0.060270 1689 0.892222 -0.387609 0.159942
-1.105750 0.623060 -0.059280 1701 0.894382 -0.388904 0.174187
-1.106110 0.623260 -0.058320 1707 0.889202 -0.386025 0.188000
-1.106090 0.623250 -0.057350 1701 0.889490 -0.386169 0.201957
-1.105540 0.622940 -0.056340 1679 0.897402 -0.390630 0.216489
-1.106160 0.623290 -0.055400 1683 0.888481 -0.385594 0.230014
-1.107030 0.623780 -0.054460 1681 0.875964 -0.378544 0.243540
-1.106750 0.623620 -0.053470 1677 0.879993 -0.380846 0.257784
-1.107300 0.623930 -0.052520 1679 0.872079 -0.376386 0.271453
-1.107070 0.623800 -0.051530 1659 0.875389 -0.378256 0.285698
-1.107110 0.623820 -0.050560 1661 0.874813 -0.377968 0.299655
-1.107980 0.624310 -0.049620 1669 0.862295 -0.370918 0.313180
-1.107560 0.624080 -0.048620 1661 0.868338 -0.374227 0.327568
-1.107970 0.624310 -0.047660 1663 0.862439 -0.370918 0.341381
-1.108520 0.624620 -0.046710 1655 0.854525 -0.366457 0.355050
-1.108300 0.624490 -0.045720 1641 0.857691 -0.368328 0.369295
-1.108460 0.624580 -0.044750 1635 0.855389 -0.367033 0.383252
-1.108420 0.624560 -0.043770 1625 0.855964 -0.367321 0.397353
-1.108580 0.624650 -0.042800 1619 0.853662 -0.366026 0.411309
-1.109570 0.625210 -0.041860 1625 0.839417 -0.357968 0.424835
-1.110940 0.625980 -0.040930 1629 0.819705 -0.346889 0.438216
-1.111860 0.626500 -0.039980 1625 0.806467 -0.339407 0.451885
-1.112080 0.626620 -0.039010 1619 0.803303 -0.337680 0.465842
-1.112810 0.627040 -0.038050 1611 0.792798 -0.331637 0.479655
-1.112590 0.626910 -0.037060 1607 0.795965 -0.333508 0.493899
-1.112670 0.626960 -0.036080 1603 0.794814 -0.332789 0.508000
-1.114240 0.627840 -0.035150 1595 0.772222 -0.320127 0.521381
-1.115100 0.628320 -0.034190 1595 0.759849 -0.313220 0.535194
-1.115500 0.628550 -0.033220 1583 0.754094 -0.309911 0.549151
-1.116170 0.628930 -0.032260 1577 0.744453 -0.304443 0.562964
-1.116630 0.629190 -0.031290 1575 0.737835 -0.300702 0.576921
-1.117170 0.629490 -0.030320 1563 0.730065 -0.296385 0.590878
-1.117700 0.629790 -0.029340 1559 0.722439 -0.292069 0.604978
-1.118500 0.630240 -0.028380 1553 0.710928 -0.285594 0.618791
-1.119150 0.630610 -0.027410 1545 0.701575 -0.280270 0.632748
-1.119680 0.630910 -0.026430 1539 0.693949 -0.275954 0.646849
-1.120220 0.631200 -0.025460 1533 0.686181 -0.271781 0.660806
-1.120880 0.631580 -0.024490 1519 0.676683 -0.266314 0.674763
-1.121790 0.632090 -0.023520 1513 0.663589 -0.258976 0.688719
-1.122570 0.632530 -0.022540 1511 0.652366 -0.252645 0.702820
-1.123480 0.633050 -0.021570 1501 0.639274 -0.245162 0.716777
-1.124600 0.633670 -0.020600 1481 0.623158 -0.236242 0.730734
-1.125890 0.634400 -0.019630 1473 0.604597 -0.225738 0.744691
-1.126860 0.634950 -0.018660 1465 0.590640 -0.217825 0.758648
-1.127900 0.635530 -0.017680 1455 0.575676 -0.209479 0.772748
-1.129580 0.636480 -0.016710 1437 0.551503 -0.195810 0.786705
-1.130550 0.637030 -0.015730 1413 0.537546 -0.187896 0.800806
-1.131400 0.637510 -0.014740 1403 0.525317 -0.180990 0.815050
-1.133600 0.638740 -0.013770 1391 0.493662 -0.163292 0.829007
-1.135270 0.639690 -0.012790 1373 0.469633 -0.149623 0.843108
-1.136240 0.640240 -0.011800 1353 0.455676 -0.141709 0.857353
-1.137340 0.640850 -0.010810 1327 0.439850 -0.132932 0.871597
-1.138570 0.641550 -0.009820 1283 0.422152 -0.122860 0.885842
-1.140050 0.642380 -0.008820 1255 0.400855 -0.110918 0.900230
-1.142240 0.643610 -0.007830 1221 0.369345 -0.093220 0.914475
-1.145000 0.645170 -0.006840 1173 0.329633 -0.070774 0.928719
-1.147440 0.646550 -0.005840 1121 0.294526 -0.050918 0.943108
-1.135170 0.640810 -0.131340 1251 0.471072 -0.133508 -0.862647
-1.133530 0.639880 -0.130140 1281 0.494669 -0.146889 -0.845381
-1.132660 0.639390 -0.129030 1315 0.507187 -0.153940 -0.829410
-1.131220 0.638580 -0.127860 1337 0.527907 -0.165594 -0.812575
-1.129960 0.637870 -0.126710 1363 0.546037 -0.175810 -0.796029
-1.129150 0.637410 -0.125620 1385 0.557690 -0.182429 -0.780345
-1.127760 0.636620 -0.124460 1393 0.577690 -0.193796 -0.763655
-1.126640 0.635990 -0.123330 1411 0.593806 -0.202860 -0.747396
-1.125060 0.635100 -0.122160 1423 0.616540 -0.215666 -0.730561
-1.123550 0.634240 -0.121000 1435 0.638265 -0.228041 -0.713870
-1.122600 0.633710 -0.119900 1459 0.651936 -0.235666 -0.698043
-1.121790 0.633250 -0.118810 1469 0.663589 -0.242285 -0.682360
-1.120590 0.632570 -0.117690 1477 0.680857 -0.252068 -0.666245
-1.120090 0.632290 -0.116640 1497 0.688050 -0.256098 -0.651137
-1.120110 0.632300 -0.115650 1513 0.687762 -0.255953 -0.636892
-1.118970 0.631660 -0.114530 1521 0.704165 -0.265163 -0.620777
-1.117260 0.630690 -0.113370 1525 0.728770 -0.279120 -0.604086
-1.116440 0.630230 -0.112290 1525 0.740568 -0.285738 -0.588547
-1.116070 0.630020 -0.111260 1535 0.745892 -0.288759 -0.573727
-1.115380 0.629630 -0.110200 1547 0.755819 -0.294371 -0.558475
-1.114750 0.629270 -0.109150 1555 0.764885 -0.299551 -0.543367
-1.114120 0.628910 -0.108100 1561 0.773950 -0.304731 -0.528259
-1.113100 0.628340 -0.107010 1565 0.788625 -0.312932 -0.512576
-1.112660 0.628090 -0.105980 1571 0.794956 -0.316529 -0.497755
-1.112480 0.627990 -0.104980 1573 0.797546 -0.317968 -0.483367
-1.112420 0.627950 -0.103990 1581 0.798411 -0.318544 -0.469122
-1.112040 0.627740 -0.102960 1587 0.803877 -0.321565 -0.454302
-1.111720 0.627560 -0.101950 1603 0.808483 -0.324155 -0.439770
-1.111730 0.627560 -0.100960 1611 0.808338 -0.324155 -0.425525
-1.110640 0.626950 -0.099880 1617 0.824021 -0.332932 -0.409986
-1.109940 0.626550 -0.098830 1627 0.834093 -0.338687 -0.394878
-1.109560 0.626330 -0.097810 1623 0.839561 -0.341853 -0.380201
-1.109180 0.626120 -0.096800 1623 0.845029 -0.344875 -0.365669
-1.109240 0.626160 -0.095820 1635 0.844165 -0.344299 -0.351568
-1.109050 0.626050 -0.094820 1645 0.846899 -0.345882 -0.337180
-1.108350 0.625650 -0.093770 1647 0.856971 -0.351637 -0.322072
-1.107900 0.625400 -0.092750 1653 0.863446 -0.355234 -0.307396
-1.107380 0.625110 -0.091730 1661 0.870928 -0.359407 -0.292719
-1.106480 0.624600 -0.090670 1653 0.883878 -0.366745 -0.277468
-1.106160 0.624410 -0.089670 1649 0.888481 -0.369479 -0.263079
-1.106790 0.624770 -0.088740 1659 0.879418 -0.364299 -0.249698
-1.106790 0.624770 -0.087760 1665 0.879418 -0.364299 -0.235597
-1.106210 0.624440 -0.086730 1673 0.887763 -0.369047 -0.220777
-1.105500 0.624040 -0.085700 1671 0.897979 -0.374803 -0.205957
-1.105940 0.624290 -0.084750 1677 0.891648 -0.371206 -0.192288
-1.106320 0.624500 -0.083800 1689 0.886180 -0.368184 -0.178619
-1.105730 0.624170 -0.082780 1681 0.894668 -0.372932 -0.163942
-1.105400 0.623980 -0.081770 1677 0.899418 -0.375666 -0.149410
-1.105210 0.623870 -0.080780 1681 0.902152 -0.377249 -0.135165
-1.105070 0.623800 -0.079790 1691 0.904166 -0.378256 -0.120921
-1.105180 0.623860 -0.078820 1709 0.902582 -0.377393 -0.106964
-1.105100 0.623810 -0.077840 1709 0.903733 -0.378112 -0.092863
-1.104450 0.623450 -0.076820 1701 0.913087 -0.383292 -0.078187
-1.103930 0.623150 -0.075800 1691 0.920568 -0.387609 -0.063511
-1.103920 0.623140 -0.074830 1685 0.920713 -0.387753 -0.049554
-1.104090 0.623240 -0.073860 1685 0.918267 -0.386314 -0.035597
-1.104520 0.623480 -0.072910 1701 0.912080 -0.382860 -0.021928
-1.104770 0.623620 -0.071950 1705 0.908483 -0.380846 -0.008115
-1.104690 0.623580 -0.070970 1707 0.909634 -0.381422 0.005986
-1.104470 0.623460 -0.069980 1711 0.912798 -0.383148 0.020230
-1.104330 0.623380 -0.068990 1699 0.914814 -0.384299 0.034475
-1.104700 0.623580 -0.068040 1703 0.909490 -0.381422 0.048144
-1.104610 0.623530 -0.067060 1701 0.910785 -0.382141 0.062245
-1.105050 0.623780 -0.066110 1713 0.904454 -0.378544 0.075914
-1.105540 0.624060 -0.065160 1721 0.897402 -0.374515 0.089583
-1.105200 0.623860 -0.064160 1707 0.902294 -0.377393 0.103971
-1.105180 0.623850 -0.063180 1707 0.902582 -0.377537 0.118072
-1.105410 0.623980 -0.062220 1717 0.899274 -0.375666 0.131885
-1.105190 0.623860 -0.061230 1693 0.902438 -0.377393 0.146130
-1.104980 0.623740 -0.060240 1683 0.905461 -0.379119 0.160374
-1.105530 0.624050 -0.059290 1691 0.897546 -0.374658 0.174043
-1.106280 0.624470 -0.058360 1703 0.886756 -0.368616 0.187424
-1.106890 0.624820 -0.057410 1703 0.877979 -0.363580 0.201094
-1.106870 0.624810 -0.056430 1697 0.878265 -0.363724 0.215194
-1.106200 0.624430 -0.055420 1683 0.887907 -0.369191 0.229727
-1.106040 0.624340 -0.054440 1671 0.890209 -0.370486 0.243827
-1.106720 0.624720 -0.053490 1673 0.880425 -0.365019 0.257496
-1.107070 0.624920 -0.052530 1679 0.875389 -0.362141 0.271309
-1.107240 0.625010 -0.051560 1683 0.872943 -0.360846 0.285266
-1.107980 0.625430 -0.050620 1679 0.862295 -0.354803 0.298791
-1.108070 0.625480 -0.049640 1659 0.861000 -0.354083 0.312892
-1.107720 0.625290 -0.048650 1655 0.866036 -0.356817 0.327137
-1.107760 0.625300 -0.047670 1655 0.865461 -0.356673 0.341237
-1.108490 0.625720 -0.046730 1663 0.854957 -0.350630 0.354763
-1.108840 0.625920 -0.045760 1643 0.849921 -0.347752 0.368719
-1.108810 0.625900 -0.044780 1633 0.850353 -0.348041 0.382820
-1.108970 0.625990 -0.043810 1629 0.848050 -0.346746 0.396777
-1.109510 0.626290 -0.042850 1625 0.840281 -0.342428 0.410590
-1.110430 0.626820 -0.041910 1631 0.827043 -0.334802 0.424115
-1.110910 0.627090 -0.040940 1627 0.820136 -0.330918 0.438072
