778
-1.565670 0.868770 -0.040870 1573 0.915394 -0.032151 0.397181
-1.566080 0.868990 -0.039500 1559 0.909495 -0.028986 0.416893
-1.567190 0.869610 -0.038150 1557 0.893523 -0.020065 0.436318
-1.568180 0.870160 -0.036800 1547 0.879279 -0.012152 0.455742
-1.568960 0.870590 -0.035440 1533 0.868056 -0.005965 0.475311
-1.569500 0.870890 -0.034070 1531 0.860286 -0.001647 0.495023
-1.569900 0.871110 -0.032700 1525 0.854530 0.001518 0.514735
-1.570750 0.871590 -0.031340 1517 0.842300 0.008424 0.534303
-1.571420 0.871960 -0.029970 1501 0.832661 0.013748 0.554016
-1.572840 0.872740 -0.028620 1497 0.812229 0.024970 0.573440
-1.573880 0.873320 -0.027260 1485 0.797265 0.033316 0.593008
-1.574420 0.873620 -0.025880 1469 0.789495 0.037632 0.612864
-1.575710 0.874330 -0.024520 1465 0.770932 0.047848 0.632433
-1.577200 0.875160 -0.023160 1449 0.749494 0.059791 0.652001
-1.578290 0.875770 -0.021790 1429 0.733811 0.068568 0.671713
-1.579910 0.876660 -0.020420 1409 0.710501 0.081374 0.691426
-1.582030 0.877840 -0.019060 1399 0.679997 0.098352 0.710994
-1.583830 0.878840 -0.017690 1379 0.654099 0.112741 0.730706
-1.585180 0.879590 -0.016310 1353 0.634674 0.123532 0.750562
-1.586600 0.880380 -0.014930 1317 0.614243 0.134899 0.770419
-1.588330 0.881340 -0.013560 1287 0.589350 0.148712 0.790131
-1.590970 0.882800 -0.012180 1243 0.551364 0.169719 0.809987
-1.593720 0.884330 -0.010800 1193 0.511797 0.191733 0.829843
-1.596340 0.885780 -0.009420 1141 0.474100 0.212596 0.849699
-1.592570 0.885510 -0.125720 1103 0.528344 0.208712 -0.823682
-1.589090 0.883570 -0.124040 1161 0.578416 0.180798 -0.799510
-1.586490 0.882130 -0.122440 1217 0.615825 0.160079 -0.776488
-1.584860 0.881220 -0.120920 1267 0.639279 0.146985 -0.754618
-1.583150 0.880270 -0.119390 1305 0.663883 0.133316 -0.732603
-1.581260 0.879220 -0.117850 1321 0.691078 0.118208 -0.710445
-1.579420 0.878190 -0.116320 1345 0.717552 0.103388 -0.688430
-1.577840 0.877310 -0.114810 1369 0.740286 0.090726 -0.666704
-1.576650 0.876650 -0.113340 1397 0.757408 0.081230 -0.645553
-1.575000 0.875730 -0.111830 1409 0.781148 0.067992 -0.623826
-1.573420 0.874850 -0.110330 1413 0.803882 0.055330 -0.602243
-1.572090 0.874110 -0.108850 1431 0.823019 0.044683 -0.580948
-1.571460 0.873760 -0.107420 1455 0.832084 0.039647 -0.560373
-1.570900 0.873450 -0.106000 1471 0.840142 0.035186 -0.539941
-1.569890 0.872890 -0.104550 1493 0.854674 0.027129 -0.519078
-1.569440 0.872640 -0.103130 1503 0.861149 0.023532 -0.498646
-1.568810 0.872290 -0.101710 1507 0.870214 0.018496 -0.478215
-1.567540 0.871580 -0.100250 1501 0.888487 0.008280 -0.457207
-1.567030 0.871290 -0.098830 1527 0.895826 0.004108 -0.436776
-1.566210 0.870840 -0.097400 1537 0.907624 -0.002367 -0.416200
-1.565000 0.870160 -0.095950 1543 0.925033 -0.012152 -0.395337
-1.564620 0.869950 -0.094550 1551 0.930501 -0.015173 -0.375193
-1.564360 0.869810 -0.093150 1559 0.934242 -0.017188 -0.355049
-1.563910 0.869560 -0.091750 1559 0.940717 -0.020784 -0.334905
-1.563080 0.869100 -0.090320 1561 0.952661 -0.027404 -0.314330
-1.562180 0.868600 -0.088890 1571 0.965609 -0.034597 -0.293754
-1.561670 0.868310 -0.087490 1575 0.972948 -0.038770 -0.273610
-1.561470 0.868200 -0.086100 1581 0.975825 -0.040353 -0.253610
-1.561080 0.867980 -0.084710 1587 0.981437 -0.043518 -0.233610
-1.560430 0.867620 -0.083300 1583 0.990789 -0.048698 -0.213323
-1.560170 0.867480 -0.081910 1587 0.994530 -0.050713 -0.193323
-1.560670 0.867750 -0.080560 1593 0.987336 -0.046828 -0.173898
-1.560670 0.867750 -0.079190 1599 0.987336 -0.046828 -0.154186
-1.559890 0.867320 -0.077780 1599 0.998559 -0.053015 -0.133898
-1.559370 0.867020 -0.076380 1601 1.006041 -0.057331 -0.113754
-1.559100 0.866880 -0.074990 1595 1.009926 -0.059346 -0.093754
-1.559790 0.867260 -0.073650 1609 0.999998 -0.053878 -0.074474
-1.559900 0.867320 -0.072290 1615 0.998415 -0.053015 -0.054905
-1.559310 0.866990 -0.070890 1599 1.006905 -0.057763 -0.034761
-1.559230 0.866950 -0.069510 1603 1.008056 -0.058339 -0.014905
-1.559270 0.866970 -0.068140 1613 1.007480 -0.058051 0.004807
-1.559070 0.866860 -0.066760 1609 1.010358 -0.059634 0.024663
-1.558790 0.866700 -0.065380 1613 1.014387 -0.061936 0.044519
-1.559090 0.866870 -0.064020 1605 1.010070 -0.059490 0.064088
-1.559640 0.867170 -0.062670 1611 1.002156 -0.055173 0.083512
-1.560320 0.867550 -0.061330 1617 0.992372 -0.049705 0.102793
-1.560490 0.867650 -0.059960 1605 0.989926 -0.048267 0.122505
-1.560790 0.867810 -0.058600 1613 0.985610 -0.045964 0.142073
-1.560380 0.867580 -0.057210 1599 0.991509 -0.049274 0.162073
-1.559330 0.867000 -0.055800 1591 1.006617 -0.057619 0.182361
-1.559940 0.867340 -0.054450 1595 0.997840 -0.052727 0.201785
-1.561130 0.868000 -0.053120 1605 0.980717 -0.043231 0.220922
-1.561800 0.868370 -0.051770 1601 0.971077 -0.037907 0.240347
-1.561580 0.868250 -0.050390 1595 0.974244 -0.039633 0.260203
-1.562120 0.868550 -0.049030 1591 0.966473 -0.035317 0.279771
-1.563120 0.869100 -0.047690 1589 0.952084 -0.027404 0.299052
-1.563590 0.869370 -0.046330 1583 0.945321 -0.023519 0.318620
-1.564130 0.869670 -0.044970 1579 0.937553 -0.019202 0.338188
-1.564680 0.869970 -0.043610 1575 0.929639 -0.014885 0.357757
-1.565090 0.870200 -0.042250 1563 0.923740 -0.011576 0.377325
-1.565120 0.870210 -0.040870 1555 0.923308 -0.011432 0.397181
-1.565840 0.870620 -0.039510 1551 0.912948 -0.005533 0.416749
-1.566700 0.871090 -0.038160 1545 0.900574 0.001230 0.436174
-1.567690 0.871640 -0.036810 1541 0.886329 0.009144 0.455598
-1.568800 0.872260 -0.035450 1543 0.870358 0.018064 0.475167
-1.569650 0.872730 -0.034090 1537 0.858127 0.024827 0.494735
-1.570690 0.873310 -0.032730 1535 0.843163 0.033173 0.514303
-1.570780 0.873360 -0.031360 1509 0.841868 0.033891 0.534016
-1.571050 0.873510 -0.029980 1499 0.837983 0.036050 0.553872
-1.572730 0.874440 -0.028630 1491 0.813812 0.049432 0.573296
-1.574350 0.875340 -0.027280 1479 0.790502 0.062381 0.592721
-1.574750 0.875570 -0.025900 1465 0.784747 0.065690 0.612577
-1.575280 0.875860 -0.024520 1453 0.777121 0.069863 0.632433
-1.576700 0.876650 -0.023160 1433 0.756689 0.081230 0.652001
-1.578310 0.877550 -0.021800 1421 0.733523 0.094180 0.671570
-1.579410 0.878160 -0.020430 1397 0.717697 0.102957 0.691282
-1.580950 0.879010 -0.019060 1383 0.695537 0.115187 0.710994
-1.583400 0.880370 -0.017690 1369 0.660286 0.134755 0.730706
-1.585570 0.881580 -0.016320 1337 0.629063 0.152165 0.750419
-1.587700 0.882770 -0.014950 1297 0.598415 0.169287 0.770131
-1.589490 0.883760 -0.013570 1265 0.572659 0.183532 0.789987
-1.591040 0.884620 -0.012190 1223 0.550358 0.195906 0.809843
-1.593540 0.886010 -0.010810 1177 0.514387 0.215906 0.829699
-1.597180 0.888040 -0.009430 1123 0.462012 0.245115 0.849555
-1.591070 0.886300 -0.124250 1141 0.549925 0.220079 -0.802531
-1.587780 0.884460 -0.122590 1203 0.597264 0.193604 -0.778646
-1.585120 0.882980 -0.120990 1249 0.635538 0.172309 -0.755625
-1.583040 0.881820 -0.119430 1281 0.665466 0.155619 -0.733179
-1.581330 0.880870 -0.117910 1315 0.690071 0.141949 -0.711308
-1.579560 0.879890 -0.116380 1335 0.715537 0.127849 -0.689294
-1.578620 0.879360 -0.114920 1361 0.729063 0.120223 -0.668287
-1.577620 0.878800 -0.113460 1381 0.743451 0.112165 -0.647279
-1.575650 0.877710 -0.111920 1393 0.771797 0.096481 -0.625121
-1.573760 0.876650 -0.110400 1419 0.798990 0.081230 -0.603251
-1.572870 0.876160 -0.108950 1435 0.811796 0.074180 -0.582387
-1.572190 0.875770 -0.107520 1447 0.821580 0.068568 -0.561812
-1.570790 0.875000 -0.106040 1463 0.841724 0.057489 -0.540517
-1.569840 0.874470 -0.104590 1479 0.855394 0.049863 -0.519653
-1.569460 0.874250 -0.103180 1489 0.860861 0.046697 -0.499366
-1.568770 0.873870 -0.101750 1501 0.870789 0.041230 -0.478790
-1.568320 0.873620 -0.100340 1509 0.877264 0.037632 -0.458502
-1.567370 0.873090 -0.098900 1521 0.890933 0.030007 -0.437783
-1.565970 0.872310 -0.097430 1523 0.911078 0.018784 -0.416632
-1.565400 0.871990 -0.096010 1529 0.919279 0.014180 -0.396200
-1.565590 0.872100 -0.094650 1551 0.916544 0.015762 -0.376632
-1.564570 0.871530 -0.093210 1545 0.931222 0.007561 -0.355912
-1.563490 0.870920 -0.091760 1549 0.946760 -0.001216 -0.335049
-1.562780 0.870530 -0.090340 1555 0.956976 -0.006828 -0.314618
-1.561950 0.870060 -0.088920 1555 0.968919 -0.013590 -0.294186
-1.561690 0.869920 -0.087530 1563 0.972660 -0.015604 -0.274186
-1.562070 0.870130 -0.086170 1577 0.967192 -0.012583 -0.254618
-1.561810 0.869980 -0.084780 1583 0.970933 -0.014742 -0.234618
-1.560330 0.869160 -0.083330 1577 0.992228 -0.026540 -0.213754
-1.559750 0.868840 -0.081930 1581 1.000574 -0.031144 -0.193610
-1.560510 0.869260 -0.080590 1591 0.989638 -0.025101 -0.174330
-1.560180 0.869070 -0.079200 1589 0.994387 -0.027835 -0.154330
-1.559210 0.868530 -0.077780 1579 1.008344 -0.035605 -0.133898
-1.559010 0.868420 -0.076400 1585 1.011221 -0.037187 -0.114042
-1.559120 0.868480 -0.075030 1603 1.009637 -0.036324 -0.094330
-1.559680 0.868790 -0.073680 1613 1.001581 -0.031864 -0.074905
-1.559610 0.868750 -0.072300 1601 1.002588 -0.032440 -0.055049
-1.559210 0.868530 -0.070910 1597 1.008344 -0.035605 -0.035049
-1.559060 0.868450 -0.069540 1607 1.010502 -0.036756 -0.015337
-1.559040 0.868440 -0.068160 1609 1.010790 -0.036900 0.004519
-1.559030 0.868430 -0.066790 1603 1.010933 -0.037043 0.024231
-1.558880 0.868340 -0.065410 1603 1.013092 -0.038338 0.044087
-1.559110 0.868480 -0.064050 1603 1.009782 -0.036324 0.063656
-1.559850 0.868890 -0.062710 1611 0.999135 -0.030425 0.082936
-1.559840 0.868880 -0.061330 1613 0.999279 -0.030569 0.102793
-1.559560 0.868720 -0.059950 1601 1.003308 -0.032871 0.122649
-1.560110 0.869030 -0.058600 1613 0.995394 -0.028410 0.142073
-1.560590 0.869300 -0.057240 1595 0.988487 -0.024525 0.161641
-1.560190 0.869070 -0.055860 1593 0.994243 -0.027835 0.181498
-1.560350 0.869160 -0.054490 1601 0.991941 -0.026540 0.201210
-1.561030 0.869540 -0.053140 1599 0.982156 -0.021073 0.220634
-1.561820 0.869980 -0.051790 1597 0.970789 -0.014742 0.240059
-1.562240 0.870210 -0.050430 1589 0.964746 -0.011432 0.259627
-1.562530 0.870370 -0.049070 1587 0.960573 -0.009130 0.279195
-1.562880 0.870570 -0.047700 1583 0.955537 -0.006252 0.298908
-1.563170 0.870730 -0.046340 1571 0.951366 -0.003950 0.318476
-1.563840 0.871100 -0.044980 1575 0.941724 0.001374 0.338044
-1.564130 0.871260 -0.043620 1561 0.937553 0.003676 0.357613
-1.564280 0.871350 -0.042240 1549 0.935393 0.004971 0.377469
-1.565270 0.871900 -0.040890 1549 0.921150 0.012885 0.396893
-1.566570 0.872620 -0.039550 1551 0.902443 0.023244 0.416174
-1.567300 0.873030 -0.038190 1545 0.891941 0.029144 0.435742
-1.568090 0.873470 -0.036830 1533 0.880574 0.035475 0.455311
-1.568940 0.873940 -0.035470 1531 0.868343 0.042237 0.474879
-1.570050 0.874560 -0.034120 1531 0.852372 0.051158 0.494303
-1.571090 0.875140 -0.032760 1525 0.837408 0.059503 0.513872
-1.571560 0.875400 -0.031390 1517 0.830645 0.063244 0.533584
-1.571710 0.875490 -0.030010 1495 0.828487 0.064539 0.553440
-1.572620 0.875990 -0.028640 1483 0.815393 0.071733 0.573152
-1.573730 0.876610 -0.027280 1467 0.799423 0.080654 0.592721
-1.574700 0.877150 -0.025910 1451 0.785466 0.088424 0.612433
-1.576380 0.878090 -0.024550 1447 0.761293 0.101950 0.632001
-1.578190 0.879090 -0.023190 1431 0.735250 0.116338 0.651570
-1.579030 0.879560 -0.021820 1411 0.723163 0.123100 0.671282
-1.580190 0.880210 -0.020440 1393 0.706474 0.132453 0.691138
-1.581550 0.880960 -0.019070 1365 0.686904 0.143244 0.710850
-1.583480 0.882040 -0.017700 1347 0.659135 0.158784 0.730562
-1.585910 0.883390 -0.016340 1325 0.624171 0.178208 0.750131
-1.587710 0.884390 -0.014960 1285 0.598271 0.192597 0.769987
-1.589950 0.885640 -0.013580 1251 0.566042 0.210583 0.789843
-1.592260 0.886930 -0.012200 1207 0.532804 0.229143 0.809699
-1.594310 0.888070 -0.010820 1145 0.503307 0.245546 0.829555
-1.591810 0.888270 -0.124360 1101 0.539279 0.248424 -0.804114
-1.588590 0.886470 -0.122710 1169 0.585609 0.222525 -0.780373
-1.585610 0.884810 -0.121080 1223 0.628487 0.198640 -0.756920
-1.583400 0.883580 -0.119510 1261 0.660286 0.180943 -0.734330
-1.582020 0.882800 -0.118010 1297 0.680141 0.169719 -0.712747
-1.580250 0.881820 -0.116480 1329 0.705609 0.155619 -0.690733
-1.579110 0.881180 -0.115000 1351 0.722012 0.146410 -0.669438
-1.578300 0.880730 -0.113550 1377 0.733667 0.139935 -0.648574
-1.576780 0.879880 -0.112050 1389 0.755538 0.127705 -0.626992
-1.574880 0.878820 -0.110530 1415 0.782876 0.112453 -0.605121
-1.573430 0.878010 -0.109040 1427 0.803740 0.100798 -0.583682
-1.571910 0.877160 -0.107540 1431 0.825609 0.088568 -0.562099
-1.570390 0.876310 -0.106060 1445 0.847480 0.076338 -0.540805
-1.569500 0.875810 -0.104610 1463 0.860286 0.069144 -0.519941
-1.568880 0.875460 -0.103180 1477 0.869207 0.064108 -0.499366
-1.568180 0.875070 -0.101760 1485 0.879279 0.058496 -0.478934
-1.567800 0.874860 -0.100350 1499 0.884746 0.055474 -0.458646
-1.566980 0.874400 -0.098910 1509 0.896545 0.048856 -0.437927
-1.565700 0.873690 -0.097450 1513 0.914961 0.038640 -0.416920
-1.565710 0.873690 -0.096070 1533 0.914819 0.038640 -0.397064
-1.565390 0.873510 -0.094670 1541 0.919423 0.036050 -0.376920
-1.564110 0.872800 -0.093220 1535 0.937839 0.025834 -0.356056
-1.563850 0.872660 -0.091820 1551 0.941580 0.023820 -0.335912
-1.563340 0.872370 -0.090410 1553 0.948920 0.019647 -0.315625
-1.561810 0.871520 -0.088950 1549 0.970933 0.007417 -0.294618
-1.560910 0.871010 -0.087520 1549 0.983883 0.000079 -0.274042
-1.560840 0.870970 -0.086140 1561 0.984890 -0.000497 -0.254186
-1.560650 0.870860 -0.084760 1569 0.987624 -0.002080 -0.234330
-1.560640 0.870860 -0.083380 1583 0.987768 -0.002080 -0.214474
-1.560440 0.870750 -0.082000 1575 0.990646 -0.003662 -0.194618
-1.560500 0.870780 -0.080620 1585 0.989782 -0.003231 -0.174761
-1.560550 0.870810 -0.079250 1595 0.989063 -0.002799 -0.155049
-1.559780 0.870380 -0.077840 1577 1.000142 -0.008986 -0.134761
-1.559250 0.870080 -0.076440 1583 1.007768 -0.013303 -0.114617
-1.558920 0.869900 -0.075050 1593 1.012516 -0.015893 -0.094617
-1.559350 0.870140 -0.073700 1603 1.006329 -0.012439 -0.075193
-1.559080 0.869990 -0.072310 1595 1.010214 -0.014598 -0.055193
-1.558810 0.869840 -0.070930 1601 1.014099 -0.016755 -0.035337
-1.559050 0.869970 -0.069560 1599 1.010646 -0.014885 -0.015625
-1.558850 0.869850 -0.068180 1581 1.013523 -0.016612 0.004231
-1.559210 0.870050 -0.066820 1593 1.008344 -0.013734 0.023800
-1.559500 0.870220 -0.065460 1601 1.004171 -0.011288 0.043368
-1.559100 0.870000 -0.064070 1603 1.009926 -0.014453 0.063368
-1.559210 0.870050 -0.062710 1613 1.008344 -0.013734 0.082936
-1.559190 0.870040 -0.061330 1603 1.008631 -0.013878 0.102793
-1.559610 0.870280 -0.059980 1601 1.002588 -0.010424 0.122217
-1.560420 0.870730 -0.058630 1603 0.990933 -0.003950 0.141641
-1.560390 0.870710 -0.057260 1591 0.991365 -0.004238 0.161354
-1.560690 0.870880 -0.055900 1591 0.987048 -0.001792 0.180922
-1.560720 0.870900 -0.054520 1593 0.986617 -0.001504 0.200778
-1.560380 0.870700 -0.053140 1585 0.991509 -0.004382 0.220634
-1.561430 0.871290 -0.051800 1583 0.976401 0.004108 0.239915
-1.561840 0.871520 -0.050440 1575 0.970501 0.007417 0.259483
-1.562260 0.871750 -0.049080 1577 0.964458 0.010726 0.279052
-1.563120 0.872240 -0.047730 1577 0.952084 0.017777 0.298476
-1.563290 0.872330 -0.046360 1573 0.949638 0.019072 0.318188
-1.563630 0.872520 -0.044990 1573 0.944746 0.021806 0.337900
-1.563980 0.872710 -0.043630 1553 0.939711 0.024539 0.357469
-1.564710 0.873120 -0.042270 1549 0.929206 0.030439 0.377037
-1.565510 0.873560 -0.040920 1543 0.917695 0.036770 0.396462
-1.566230 0.873970 -0.039560 1539 0.907335 0.042668 0.416030
-1.567540 0.874700 -0.038210 1539 0.888487 0.053172 0.435454
-1.568520 0.875240 -0.036860 1535 0.874387 0.060943 0.454879
-1.568540 0.875260 -0.035480 1521 0.874099 0.061230 0.474735
-1.569780 0.875950 -0.034120 1515 0.856257 0.071158 0.494303
-1.570380 0.876280 -0.032760 1505 0.847624 0.075906 0.513872
-1.570720 0.876470 -0.031380 1493 0.842732 0.078640 0.533728
-1.572080 0.877230 -0.030030 1483 0.823163 0.089575 0.553152
-1.573180 0.877840 -0.028660 1473 0.807337 0.098352 0.572865
-1.574350 0.878500 -0.027300 1459 0.790502 0.107848 0.592433
-1.575770 0.879290 -0.025940 1443 0.770070 0.119215 0.612001
-1.575920 0.879370 -0.024550 1427 0.767912 0.120366 0.632001
-1.577150 0.880060 -0.023190 1413 0.750214 0.130295 0.651570
-1.578820 0.880990 -0.021820 1397 0.726185 0.143676 0.671282
-1.580170 0.881740 -0.020450 1373 0.706760 0.154467 0.690994
-1.581780 0.882640 -0.019080 1347 0.683596 0.167417 0.710706
-1.583580 0.883640 -0.017710 1327 0.657696 0.181805 0.730419
-1.585630 0.884790 -0.016340 1299 0.628199 0.198352 0.750131
-1.588070 0.886150 -0.014970 1261 0.593091 0.217921 0.769843
-1.590570 0.887540 -0.013590 1217 0.557121 0.237920 0.789699
-1.593260 0.889040 -0.012210 1173 0.518415 0.259503 0.809555
-1.596970 0.891110 -0.010840 1107 0.465035 0.289288 0.829267
-1.589430 0.888550 -0.122820 1125 0.573524 0.252453 -0.781956
-1.586710 0.887020 -0.121210 1183 0.612660 0.230438 -0.758790
-1.584180 0.885610 -0.119620 1239 0.649063 0.210151 -0.735913
-1.582480 0.884660 -0.118090 1283 0.673524 0.196482 -0.713898
-1.581150 0.883920 -0.116600 1309 0.692659 0.185834 -0.692459
-1.579520 0.883000 -0.115080 1335 0.716113 0.172597 -0.670589
-1.578010 0.882160 -0.113580 1357 0.737840 0.160511 -0.649006
-1.575980 0.881020 -0.112040 1377 0.767049 0.144108 -0.626848
-1.574330 0.880100 -0.110540 1387 0.790790 0.130870 -0.605265
-1.573640 0.879710 -0.109100 1403 0.800718 0.125259 -0.584546
-1.572690 0.879180 -0.107640 1419 0.814386 0.117633 -0.563538
-1.571300 0.878400 -0.106160 1437 0.834386 0.106410 -0.542243
-1.570100 0.877730 -0.104700 1455 0.851653 0.096770 -0.521236
-1.569220 0.877240 -0.103250 1471 0.864315 0.089719 -0.500373
-1.568460 0.876810 -0.101820 1485 0.875250 0.083532 -0.479797
-1.567760 0.876420 -0.100390 1499 0.885322 0.077921 -0.459222
-1.567130 0.876070 -0.098970 1507 0.894387 0.072885 -0.438790
-1.566680 0.875820 -0.097560 1511 0.900862 0.069287 -0.418502
-1.565610 0.875220 -0.096110 1515 0.916256 0.060654 -0.397639
-1.564390 0.874540 -0.094650 1521 0.933812 0.050870 -0.376632
-1.564650 0.874680 -0.093290 1537 0.930069 0.052884 -0.357064
-1.564520 0.874610 -0.091900 1541 0.931940 0.051877 -0.337064
-1.563760 0.874180 -0.090480 1553 0.942875 0.045691 -0.316632
-1.563110 0.873820 -0.089060 1553 0.952228 0.040511 -0.296200
-1.562400 0.873420 -0.087640 1553 0.962444 0.034755 -0.275769
-1.562150 0.873280 -0.086250 1561 0.966041 0.032741 -0.255769
-1.561880 0.873130 -0.084860 1561 0.969926 0.030583 -0.235769
-1.561300 0.872810 -0.083450 1571 0.978271 0.025978 -0.215481
-1.560470 0.872340 -0.082030 1573 0.990214 0.019216 -0.195049
-1.560460 0.872340 -0.080660 1587 0.990358 0.019216 -0.175337
-1.560580 0.872400 -0.079290 1583 0.988631 0.020079 -0.155625
-1.560060 0.872110 -0.077890 1579 0.996113 0.015906 -0.135481
-1.559860 0.871990 -0.076500 1587 0.998991 0.014180 -0.115481
-1.559580 0.871840 -0.075110 1589 1.003020 0.012021 -0.095481
-1.559320 0.871690 -0.073730 1595 1.006761 0.009863 -0.075625
-1.559430 0.871760 -0.072360 1599 1.005178 0.010870 -0.055912
-1.559360 0.871710 -0.070980 1597 1.006185 0.010151 -0.036056
-1.558640 0.871310 -0.069570 1591 1.016545 0.004395 -0.015769
-1.558740 0.871370 -0.068210 1587 1.015106 0.005259 0.003800
-1.559360 0.871720 -0.066860 1585 1.006185 0.010295 0.023224
-1.559600 0.871850 -0.065500 1593 1.002732 0.012165 0.042793
-1.559390 0.871730 -0.064110 1597 1.005754 0.010439 0.062793
-1.559240 0.871650 -0.062730 1597 1.007912 0.009287 0.082649
-1.560170 0.872170 -0.061400 1599 0.994530 0.016769 0.101785
-1.560600 0.872400 -0.060040 1597 0.988343 0.020079 0.121354
-1.560700 0.872460 -0.058670 1599 0.986904 0.020942 0.141066
-1.560740 0.872480 -0.057300 1589 0.986329 0.021230 0.160778
-1.560850 0.872540 -0.055930 1585 0.984746 0.022093 0.180490
-1.561580 0.872950 -0.054580 1585 0.974244 0.027993 0.199915
-1.561750 0.873050 -0.053210 1581 0.971796 0.029431 0.219627
-1.561400 0.872850 -0.051820 1571 0.976832 0.026554 0.239627
-1.562190 0.873290 -0.050470 1571 0.965465 0.032885 0.259052
-1.562420 0.873420 -0.049110 1567 0.962156 0.034755 0.278620
-1.562580 0.873510 -0.047730 1559 0.959854 0.036050 0.298476
-1.563570 0.874060 -0.046390 1559 0.945609 0.043963 0.317757
-1.563980 0.874290 -0.045020 1563 0.939711 0.047273 0.337469
-1.564460 0.874560 -0.043660 1555 0.932803 0.051158 0.357037
-1.565130 0.874930 -0.042300 1545 0.923164 0.056482 0.376606
-1.565720 0.875270 -0.040940 1551 0.914675 0.061374 0.396174
-1.566330 0.875600 -0.039580 1539 0.905898 0.066122 0.415742
-1.567050 0.876010 -0.038220 1529 0.895538 0.072021 0.435311
-1.567780 0.876420 -0.036850 1519 0.885034 0.077921 0.455023
-1.568510 0.876820 -0.035490 1517 0.874530 0.083676 0.474591
-1.569110 0.877150 -0.034120 1511 0.865897 0.088424 0.494303
-1.569630 0.877450 -0.032750 1491 0.858415 0.092741 0.514016
-1.570550 0.877960 -0.031390 1489 0.845178 0.100079 0.533584
-1.571470 0.878470 -0.030030 1471 0.831940 0.107417 0.553152
-1.573470 0.879590 -0.028680 1465 0.803164 0.123532 0.572577
-1.574760 0.880310 -0.027320 1451 0.784603 0.133892 0.592145
-1.575540 0.880750 -0.025950 1439 0.773380 0.140223 0.611857
-1.576450 0.881260 -0.024570 1421 0.760286 0.147561 0.631713
-1.577870 0.882050 -0.023210 1401 0.739854 0.158927 0.651282
-1.579480 0.882950 -0.021840 1389 0.716688 0.171878 0.670994
-1.580640 0.883600 -0.020470 1359 0.699999 0.181230 0.690706
-1.582380 0.884570 -0.019100 1329 0.674961 0.195187 0.710419
-1.584690 0.885860 -0.017730 1301 0.641725 0.213748 0.730131
-1.586740 0.887010 -0.016360 1271 0.612228 0.230294 0.749843
-1.588980 0.888260 -0.014980 1241 0.579999 0.248280 0.769699
-1.591290 0.889550 -0.013600 1199 0.546761 0.266841 0.789555
-1.594230 0.891200 -0.012230 1147 0.504458 0.290583 0.809267
-1.592230 0.891750 -0.123100 1101 0.533236 0.298496 -0.785984
-1.588300 0.889550 -0.121390 1159 0.589782 0.266841 -0.761380
-1.585400 0.887920 -0.119760 1213 0.631509 0.243388 -0.737927
-1.583060 0.886610 -0.118190 1251 0.665178 0.224539 -0.715337
-1.581360 0.885660 -0.116670 1277 0.689639 0.210870 -0.693466
-1.579650 0.884700 -0.115140 1305 0.714242 0.197057 -0.671452
-1.577820 0.883670 -0.113620 1337 0.740574 0.182237 -0.649581
-1.576820 0.883110 -0.112150 1361 0.754962 0.174179 -0.628430
-1.575490 0.882370 -0.110670 1381 0.774099 0.163532 -0.607135
-1.573780 0.881410 -0.109160 1389 0.798704 0.149719 -0.585409
-1.572580 0.880730 -0.107680 1407 0.815970 0.139935 -0.564114
-1.571380 0.880060 -0.106210 1429 0.833235 0.130295 -0.542963
-1.570180 0.879390 -0.104750 1441 0.850501 0.120654 -0.521956
-1.569360 0.878930 -0.103310 1455 0.862300 0.114035 -0.501236
-1.568530 0.878460 -0.101870 1465 0.874243 0.107273 -0.480517
-1.568040 0.878190 -0.100450 1477 0.881293 0.103388 -0.460085
-1.567590 0.877930 -0.099040 1491 0.887768 0.099647 -0.439797
-1.566510 0.877330 -0.097590 1507 0.903308 0.091014 -0.418934
-1.565560 0.876800 -0.096150 1509 0.916977 0.083388 -0.398215
-1.565050 0.876510 -0.094730 1511 0.924315 0.079216 -0.377783
-1.565050 0.876510 -0.093350 1527 0.924315 0.079216 -0.357927
-1.564730 0.876330 -0.091950 1533 0.928918 0.076626 -0.337783
-1.563390 0.875580 -0.090500 1533 0.948199 0.065834 -0.316920
-1.562750 0.875220 -0.089080 1537 0.957408 0.060654 -0.296488
-1.562740 0.875210 -0.087700 1545 0.957552 0.060510 -0.276632
-1.562230 0.874930 -0.086290 1551 0.964890 0.056482 -0.256344
-1.561590 0.874570 -0.084880 1559 0.974099 0.051302 -0.236056
-1.561390 0.874460 -0.083490 1567 0.976976 0.049719 -0.216056
-1.561120 0.874310 -0.082100 1569 0.980861 0.047561 -0.196056
-1.560800 0.874130 -0.080710 1577 0.985466 0.044971 -0.176056
-1.560470 0.873940 -0.079320 1573 0.990214 0.042237 -0.156056
-1.560200 0.873790 -0.077930 1571 0.994099 0.040079 -0.136056
-1.560390 0.873890 -0.076560 1577 0.991365 0.041517 -0.116344
-1.560310 0.873850 -0.075180 1589 0.992516 0.040942 -0.096488
-1.559850 0.873590 -0.073780 1581 0.999135 0.037201 -0.076344
-1.559070 0.873150 -0.072370 1579 1.010358 0.030870 -0.056056
-1.559050 0.873140 -0.071000 1587 1.010646 0.030726 -0.036344
-1.559670 0.873490 -0.069650 1595 1.001725 0.035762 -0.016920
-1.559970 0.873660 -0.068290 1591 0.997408 0.038209 0.002649
-1.559900 0.873610 -0.066910 1593 0.998415 0.037489 0.022505
-1.559050 0.873140 -0.065500 1589 1.010646 0.030726 0.042793
-1.559280 0.873270 -0.064140 1583 1.007336 0.032596 0.062361
-1.559900 0.873610 -0.062790 1587 0.998415 0.037489 0.081785
-1.559820 0.873570 -0.061410 1589 0.999566 0.036914 0.101642
-1.560110 0.873730 -0.060050 1597 0.995394 0.039216 0.121210
-1.559830 0.873570 -0.058660 1589 0.999423 0.036914 0.141210
-1.560060 0.873700 -0.057300 1581 0.996113 0.038784 0.160778
-1.560920 0.874180 -0.055950 1579 0.983739 0.045691 0.180203
-1.561030 0.874240 -0.054580 1579 0.982156 0.046553 0.199915
-1.560940 0.874190 -0.053200 1575 0.983451 0.045834 0.219771
-1.560780 0.874100 -0.051820 1565 0.985753 0.044540 0.239627
-1.561200 0.874340 -0.050460 1563 0.979710 0.047992 0.259195
-1.561740 0.874640 -0.049110 1563 0.971940 0.052309 0.278620
-1.562350 0.874980 -0.047750 1561 0.963163 0.057201 0.298188
-1.563340 0.875530 -0.046400 1557 0.948920 0.065115 0.317613
-1.564510 0.876190 -0.045060 1555 0.932085 0.074611 0.336893
-1.565430 0.876700 -0.043710 1549 0.918846 0.081949 0.356318
-1.565650 0.876830 -0.042330 1543 0.915682 0.083820 0.376174
-1.566060 0.877060 -0.040970 1535 0.909783 0.087129 0.395742
-1.566860 0.877500 -0.039610 1533 0.898272 0.093460 0.415311
-1.567650 0.877950 -0.038250 1523 0.886905 0.099935 0.434879
-1.567930 0.878100 -0.036870 1509 0.882876 0.102093 0.454735
-1.568340 0.878330 -0.035500 1505 0.876977 0.105402 0.474447
-1.569250 0.878840 -0.034140 1491 0.863883 0.112741 0.494016
-1.570350 0.879460 -0.032780 1479 0.848055 0.121661 0.513584
-1.571650 0.880180 -0.031430 1481 0.829350 0.132021 0.533008
-1.572630 0.880730 -0.030060 1469 0.815249 0.139935 0.552721
-1.573480 0.881210 -0.028690 1449 0.803020 0.146842 0.572433
-1.574710 0.881900 -0.027330 1439 0.785322 0.156770 0.592001
-1.575560 0.882370 -0.025960 1417 0.773092 0.163532 0.611713
-1.577100 0.883240 -0.024590 1407 0.750933 0.176050 0.631426
-1.578910 0.884250 -0.023230 1391 0.724890 0.190582 0.650994
-1.580510 0.885140 -0.021860 1369 0.701868 0.203388 0.670706
-1.581670 0.885800 -0.020490 1343 0.685177 0.212885 0.690418
-1.583090 0.886590 -0.019110 1315 0.664747 0.224252 0.710275
-1.585020 0.887670 -0.017740 1283 0.636977 0.239791 0.729987
-1.587190 0.888890 -0.016370 1253 0.605753 0.257345 0.749699
-1.589630 0.890250 -0.014990 1213 0.570645 0.276914 0.769555
-1.592060 0.891610 -0.013620 1161 0.535682 0.296482 0.789267
-1.596660 0.894190 -0.012250 1087 0.469494 0.333604 0.808980
-1.590270 0.892150 -0.121590 1115 0.561436 0.304251 -0.764258
-1.587110 0.890370 -0.119940 1177 0.606904 0.278640 -0.740517
-1.584650 0.888990 -0.118360 1225 0.642300 0.258784 -0.717783
-1.581990 0.887500 -0.116760 1249 0.680574 0.237345 -0.694761
-1.580420 0.886620 -0.115250 1283 0.703163 0.224683 -0.673035
-1.579420 0.886050 -0.113780 1319 0.717552 0.216481 -0.651884
-1.577390 0.884920 -0.112240 1351 0.746761 0.200223 -0.629725
-1.575430 0.883820 -0.110710 1365 0.774962 0.184395 -0.607711
-1.574430 0.883250 -0.109240 1377 0.789351 0.176194 -0.586560
-1.573030 0.882470 -0.107760 1397 0.809495 0.164971 -0.565265
-1.572090 0.881940 -0.106300 1415 0.823019 0.157345 -0.544258
-1.571070 0.881370 -0.104850 1431 0.837697 0.149144 -0.523395
-1.569560 0.880520 -0.103360 1441 0.859422 0.136913 -0.501956
-1.568670 0.880020 -0.101920 1457 0.872228 0.129719 -0.481236
-1.568230 0.879770 -0.100500 1469 0.878559 0.126122 -0.460805
-1.567470 0.879350 -0.099070 1479 0.889495 0.120079 -0.440229
-1.566710 0.878920 -0.097640 1487 0.900430 0.113892 -0.419653
-1.565880 0.878450 -0.096200 1497 0.912373 0.107129 -0.398934
-1.565820 0.878420 -0.094820 1511 0.913236 0.106697 -0.379078
-1.565370 0.878160 -0.093410 1507 0.919711 0.102957 -0.358790
-1.564160 0.877480 -0.091960 1513 0.937121 0.093172 -0.337927
-1.563840 0.877300 -0.090560 1523 0.941724 0.090583 -0.317783
-1.564090 0.877440 -0.089190 1533 0.938127 0.092596 -0.298071
-1.563770 0.877260 -0.087790 1539 0.942731 0.090007 -0.277927
-1.563000 0.876830 -0.086370 1547 0.953812 0.083820 -0.257495
-1.562170 0.876360 -0.084950 1553 0.965753 0.077057 -0.237064
-1.561970 0.876250 -0.083560 1557 0.968631 0.075475 -0.217064
-1.562090 0.876320 -0.082190 1565 0.966904 0.076482 -0.197351
-1.561830 0.876170 -0.080790 1563 0.970645 0.074323 -0.177207
-1.561120 0.875770 -0.079380 1561 0.980861 0.068568 -0.156920
-1.560410 0.875370 -0.077970 1563 0.991077 0.062813 -0.136632
-1.560140 0.875220 -0.076580 1575 0.994962 0.060654 -0.116632
-1.560640 0.875500 -0.075230 1575 0.987768 0.064683 -0.097207
-1.560310 0.875310 -0.073830 1573 0.992516 0.061949 -0.077064
-1.559720 0.874980 -0.072430 1569 1.001005 0.057201 -0.056920
-1.559960 0.875120 -0.071070 1581 0.997552 0.059215 -0.037351
-1.559880 0.875070 -0.069690 1575 0.998703 0.058496 -0.017495
-1.559800 0.875020 -0.068310 1583 0.999854 0.057777 0.002361
-1.559780 0.875010 -0.066930 1583 1.000142 0.057633 0.022217
-1.559950 0.875110 -0.065570 1585 0.997696 0.059071 0.041785
-1.560190 0.875240 -0.064200 1581 0.994243 0.060943 0.061498
-1.560290 0.875300 -0.062830 1577 0.992804 0.061805 0.081210
-1.560390 0.875350 -0.061460 1577 0.991365 0.062525 0.100922
-1.560500 0.875420 -0.060090 1593 0.989782 0.063532 0.120634
-1.560470 0.875400 -0.058710 1581 0.990214 0.063244 0.140490
-1.560580 0.875460 -0.057340 1567 0.988631 0.064108 0.160203
-1.561000 0.875690 -0.055980 1571 0.982588 0.067417 0.179771
-1.562250 0.876390 -0.054650 1581 0.964602 0.077489 0.198908
-1.562730 0.876660 -0.053290 1575 0.957697 0.081374 0.218476
-1.562390 0.876470 -0.051900 1563 0.962588 0.078640 0.238476
-1.562480 0.876520 -0.050520 1563 0.961293 0.079359 0.258332
-1.563410 0.877040 -0.049180 1555 0.947911 0.086842 0.277613
-1.564210 0.877490 -0.047820 1565 0.936400 0.093316 0.297181
-1.564430 0.877610 -0.046450 1559 0.933236 0.095043 0.316893
-1.564970 0.877910 -0.045090 1545 0.925465 0.099360 0.336462
-1.565380 0.878140 -0.043720 1543 0.919567 0.102668 0.356174
-1.566040 0.878520 -0.042360 1539 0.910069 0.108137 0.375742
-1.566400 0.878710 -0.040990 1535 0.904889 0.110870 0.395454
-1.566480 0.878760 -0.039610 1523 0.903738 0.111589 0.415311
-1.567780 0.879490 -0.038270 1519 0.885034 0.122093 0.434591
-1.568580 0.879930 -0.036900 1503 0.873523 0.128424 0.454303
-1.569240 0.880300 -0.035540 1495 0.864027 0.133748 0.473872
-1.570150 0.880820 -0.034170 1479 0.850933 0.141230 0.493584
-1.570690 0.881120 -0.032800 1471 0.843163 0.145547 0.513296
-1.571920 0.881810 -0.031440 1463 0.825465 0.155475 0.532865
-1.573080 0.882460 -0.030080 1455 0.808776 0.164827 0.552433
-1.574180 0.883080 -0.028720 1441 0.792948 0.173748 0.572001
-1.575610 0.883880 -0.027360 1427 0.772372 0.185259 0.591570
-1.576970 0.884640 -0.025990 1407 0.752804 0.196194 0.611282
-1.578070 0.885250 -0.024620 1391 0.736976 0.204971 0.630994
-1.579160 0.885870 -0.023250 1371 0.721293 0.213891 0.650706
-1.580330 0.886520 -0.021870 1349 0.704458 0.223245 0.670562
-1.582380 0.887670 -0.020510 1329 0.674961 0.239791 0.690131
-1.584180 0.888680 -0.019130 1297 0.649063 0.254323 0.709987
-1.586620 0.890050 -0.017770 1265 0.613955 0.274036 0.729555
-1.589810 0.891840 -0.016400 1233 0.568055 0.299791 0.749267
-1.591860 0.892990 -0.015020 1173 0.538558 0.316338 0.769124
-1.594300 0.894360 -0.013640 1111 0.503451 0.336050 0.788980
-1.588160 0.892810 -0.120080 1149 0.591796 0.313748 -0.742531
-1.585450 0.891290 -0.118470 1199 0.630789 0.291878 -0.719366
-1.582990 0.889900 -0.116890 1229 0.666184 0.271878 -0.696632
-1.580710 0.888620 -0.115320 1253 0.698990 0.253460 -0.674042
-1.579390 0.887880 -0.113830 1297 0.717983 0.242813 -0.652603
-1.577690 0.886920 -0.112310 1333 0.742444 0.228999 -0.630733
-1.575600 0.885740 -0.110770 1355 0.772516 0.212021 -0.608574
-1.574530 0.885140 -0.109310 1371 0.787912 0.203388 -0.587567
-1.574090 0.884900 -0.107880 1389 0.794243 0.199935 -0.566992
-1.572830 0.884190 -0.106410 1407 0.812373 0.189719 -0.545841
-1.571190 0.883260 -0.104910 1413 0.835969 0.176338 -0.524258
-1.569730 0.882440 -0.103420 1425 0.856976 0.164539 -0.502819
-1.568780 0.881910 -0.101970 1441 0.870646 0.156914 -0.481956
-1.568210 0.881590 -0.100550 1457 0.878847 0.152309 -0.461524
-1.567710 0.881310 -0.099130 1471 0.886041 0.148280 -0.441092
-1.567200 0.881020 -0.097720 1481 0.893380 0.144108 -0.420805
-1.566370 0.880550 -0.096280 1491 0.905322 0.137345 -0.400085
-1.565990 0.880340 -0.094880 1501 0.910790 0.134323 -0.379941
-1.565860 0.880260 -0.093490 1505 0.912659 0.133172 -0.359941
-1.564910 0.879730 -0.092050 1517 0.926328 0.125546 -0.339222
-1.563960 0.879190 -0.090610 1517 0.939999 0.117777 -0.318502
-1.563190 0.878760 -0.089180 1525 0.951077 0.111589 -0.297927
-1.562800 0.878540 -0.087780 1525 0.956688 0.108424 -0.277783
-1.562410 0.878320 -0.086380 1543 0.962300 0.105258 -0.257639
-1.562350 0.878290 -0.085000 1539 0.963163 0.104827 -0.237783
-1.562280 0.878240 -0.083620 1553 0.964170 0.104107 -0.217927
-1.561250 0.877670 -0.082180 1551 0.978991 0.095906 -0.197207
-1.560480 0.877230 -0.080760 1557 0.990070 0.089575 -0.176776
-1.560400 0.877190 -0.079380 1555 0.991221 0.089000 -0.156920
-1.560900 0.877470 -0.078030 1561 0.984027 0.093029 -0.137495
-1.560700 0.877350 -0.076640 1567 0.986904 0.091301 -0.117495
-1.560880 0.877460 -0.075280 1573 0.984315 0.092885 -0.097927
-1.560800 0.877410 -0.073890 1577 0.985466 0.092165 -0.077927
-1.560080 0.877010 -0.072480 1569 0.995825 0.086410 -0.057639
-1.559880 0.876890 -0.071100 1565 0.998703 0.084683 -0.037783
-1.559670 0.876770 -0.069710 1567 1.001725 0.082957 -0.017783
-1.559530 0.876690 -0.068330 1573 1.003739 0.081805 0.002073
-1.560210 0.877080 -0.066990 1569 0.993955 0.087417 0.021354
-1.560580 0.877280 -0.065620 1569 0.988631 0.090295 0.041066
-1.559980 0.876950 -0.064220 1565 0.997264 0.085547 0.061210
-1.559900 0.876900 -0.062840 1567 0.998415 0.084827 0.081066
-1.560130 0.877030 -0.061480 1557 0.995106 0.086698 0.100634
-1.560230 0.877090 -0.060110 1565 0.993667 0.087561 0.120347
-1.560910 0.877470 -0.058760 1573 0.983883 0.093029 0.139771
-1.561460 0.877780 -0.057400 1571 0.975969 0.097489 0.159339
-1.561430 0.877760 -0.056020 1563 0.976401 0.097201 0.179195
-1.562040 0.878100 -0.054670 1567 0.967624 0.102093 0.198620
-1.562780 0.878520 -0.053310 1561 0.956976 0.108137 0.218188
-1.562750 0.878500 -0.051940 1549 0.957408 0.107848 0.237900
-1.562660 0.878450 -0.050560 1551 0.958703 0.107129 0.257757
-1.563140 0.878720 -0.049190 1545 0.951796 0.111014 0.277469
-1.564310 0.879380 -0.047850 1543 0.934963 0.120510 0.296749
-1.564540 0.879500 -0.046480 1537 0.931652 0.122237 0.316462
-1.564820 0.879660 -0.045110 1537 0.927623 0.124539 0.336174
-1.565230 0.879890 -0.043740 1529 0.921724 0.127849 0.355886
-1.565710 0.880160 -0.042370 1521 0.914819 0.131733 0.375598
-1.566500 0.880610 -0.041010 1521 0.903452 0.138208 0.395167
-1.567230 0.881020 -0.039650 1517 0.892948 0.144108 0.414735
-1.568150 0.881530 -0.038290 1505 0.879710 0.151446 0.434303
-1.568680 0.881830 -0.036920 1487 0.872084 0.155762 0.454016
-1.569220 0.882130 -0.035550 1487 0.864315 0.160079 0.473728
-1.569690 0.882390 -0.034180 1471 0.857552 0.163820 0.493440
-1.570790 0.883010 -0.032820 1463 0.841724 0.172741 0.513008
-1.572280 0.883850 -0.031470 1451 0.820285 0.184827 0.532433
-1.573320 0.884430 -0.030100 1437 0.805321 0.193172 0.552145
-1.574490 0.885090 -0.028740 1429 0.788488 0.202669 0.571713
-1.575840 0.885850 -0.027370 1409 0.769063 0.213604 0.591426
-1.577260 0.886650 -0.026010 1399 0.748631 0.225115 0.610994
-1.578680 0.887450 -0.024640 1381 0.728199 0.236625 0.630706
-1.580160 0.888280 -0.023270 1345 0.706904 0.248568 0.650418
-1.581320 0.888930 -0.021900 1329 0.690213 0.257921 0.670131
-1.582930 0.889840 -0.020520 1303 0.667049 0.271014 0.689987
-1.584980 0.890990 -0.019150 1271 0.637552 0.287561 0.709699
-1.587020 0.892140 -0.017780 1233 0.608199 0.304107 0.729411
-1.589650 0.893620 -0.016410 1199 0.570357 0.325403 0.749124
-1.592470 0.895200 -0.015030 1139 0.529782 0.348137 0.768980
-1.589900 0.895080 -0.120250 1099 0.566760 0.346409 -0.744977
-1.586300 0.893060 -0.118580 1161 0.618559 0.317345 -0.720948
-1.583960 0.891740 -0.117000 1201 0.652227 0.298353 -0.698215
-1.582010 0.890640 -0.115460 1239 0.680285 0.282525 -0.676056
-1.580490 0.889780 -0.113950 1275 0.702156 0.270151 -0.654330
-1.578850 0.888860 -0.112440 1305 0.725753 0.256913 -0.632603
-1.577090 0.887860 -0.110910 1333 0.751077 0.242525 -0.610589
-1.576140 0.887330 -0.109450 1357 0.764746 0.234899 -0.589581
-1.574940 0.886660 -0.107980 1373 0.782013 0.225258 -0.568430
-1.573110 0.885630 -0.106460 1391 0.808344 0.210439 -0.546560
-1.571400 0.884660 -0.104960 1401 0.832947 0.196482 -0.524977
-1.570450 0.884130 -0.103510 1417 0.846618 0.188856 -0.504114
-1.569820 0.883770 -0.102080 1431 0.855681 0.183676 -0.483538
-1.568870 0.883240 -0.100630 1447 0.869351 0.176050 -0.462675
-1.568050 0.882780 -0.099190 1465 0.881149 0.169432 -0.441956
-1.567550 0.882490 -0.097770 1471 0.888344 0.165258 -0.421524
-1.566980 0.882170 -0.096350 1483 0.896545 0.160655 -0.401092
-1.566080 0.881660 -0.094910 1491 0.909495 0.153316 -0.380373
-1.565700 0.881450 -0.093510 1495 0.914961 0.150295 -0.360229
-1.565070 0.881090 -0.092090 1501 0.924026 0.145115 -0.339797
-1.564170 0.880590 -0.090650 1513 0.936976 0.137921 -0.319078
-1.563790 0.880370 -0.089250 1521 0.942445 0.134755 -0.298934
-1.563210 0.880050 -0.087840 1519 0.950789 0.130151 -0.278646
-1.562510 0.879650 -0.086420 1527 0.960861 0.124395 -0.258215
-1.562250 0.879500 -0.085020 1531 0.964602 0.122237 -0.238071
-1.562180 0.879460 -0.083640 1539 0.965609 0.121661 -0.218215
-1.561400 0.879030 -0.082220 1541 0.976832 0.115474 -0.197783
-1.561080 0.878840 -0.080820 1539 0.981437 0.112741 -0.177639
-1.561260 0.878940 -0.079450 1549 0.978847 0.114179 -0.157927
-1.561760 0.879220 -0.078100 1551 0.971653 0.118208 -0.138502
-1.561370 0.879000 -0.076700 1551 0.977264 0.115043 -0.118359
-1.560840 0.878710 -0.075300 1557 0.984890 0.110870 -0.098215
-1.560830 0.878700 -0.073920 1569 0.985034 0.110727 -0.078358
-1.560440 0.878480 -0.072530 1575 0.990646 0.107561 -0.058359
-1.560680 0.878610 -0.071160 1561 0.987192 0.109432 -0.038646
-1.560850 0.878710 -0.069790 1567 0.984746 0.110870 -0.018934
-1.560200 0.878340 -0.068380 1563 0.994099 0.105547 0.001354
-1.560050 0.878260 -0.067000 1569 0.996257 0.104396 0.021210
-1.560480 0.878500 -0.065640 1567 0.990070 0.107848 0.040778
-1.560390 0.878450 -0.064260 1555 0.991365 0.107129 0.060634
-1.560430 0.878470 -0.062890 1559 0.990789 0.107417 0.080347
-1.560540 0.878530 -0.061520 1563 0.989207 0.108281 0.100059
-1.560580 0.878560 -0.060140 1565 0.988631 0.108712 0.119915
-1.561070 0.878830 -0.058780 1563 0.981581 0.112597 0.139483
-1.561740 0.879210 -0.057430 1565 0.971940 0.118064 0.158908
-1.561650 0.879160 -0.056050 1553 0.973235 0.117345 0.178764
-1.561570 0.879110 -0.054670 1551 0.974386 0.116625 0.198620
-1.562050 0.879380 -0.053310 1547 0.967480 0.120510 0.218188
-1.562840 0.879820 -0.051960 1541 0.956113 0.126841 0.237613
-1.563830 0.880380 -0.050610 1547 0.941868 0.134899 0.257037
-1.563870 0.880400 -0.049230 1541 0.941294 0.135187 0.276893
-1.564090 0.880530 -0.047860 1533 0.938127 0.137057 0.296606
-1.565140 0.881120 -0.046510 1529 0.923020 0.145547 0.316030
-1.565230 0.881170 -0.045140 1529 0.921724 0.146266 0.335742
-1.565260 0.881190 -0.043760 1519 0.921292 0.146554 0.355598
-1.566120 0.881670 -0.042400 1523 0.908918 0.153460 0.375167
-1.566660 0.881970 -0.041030 1511 0.901148 0.157777 0.394879
-1.567520 0.882450 -0.039670 1507 0.888775 0.164683 0.414447
-1.568550 0.883040 -0.038320 1493 0.873955 0.173173 0.433872
-1.569090 0.883340 -0.036950 1485 0.866185 0.177489 0.453584
-1.569560 0.883600 -0.035570 1477 0.859422 0.181230 0.473440
-1.570470 0.884120 -0.034210 1467 0.846329 0.188712 0.493008
-1.571580 0.884740 -0.032850 1451 0.830357 0.197633 0.512577
-1.572560 0.885290 -0.031480 1443 0.816258 0.205547 0.532289
-1.573470 0.885800 -0.030120 1423 0.803164 0.212885 0.551857
-1.574830 0.886570 -0.028750 1407 0.783594 0.223963 0.571570
-1.576250 0.887370 -0.027390 1391 0.763164 0.235474 0.591138
-1.577980 0.888340 -0.026030 1375 0.738271 0.249431 0.610706
-1.579720 0.889320 -0.024670 1365 0.713235 0.263532 0.630275
-1.580750 0.889900 -0.023290 1333 0.698416 0.271878 0.650131
-1.582110 0.890670 -0.021910 1305 0.678846 0.282957 0.669987
-1.583840 0.891640 -0.020540 1277 0.653955 0.296913 0.689699
-1.585760 0.892720 -0.019170 1245 0.626329 0.312453 0.709411
-1.588450 0.894240 -0.017800 1203 0.587625 0.334324 0.729124
-1.590810 0.895570 -0.016430 1163 0.553668 0.353460 0.748836
-1.594650 0.897730 -0.015060 1097 0.498415 0.384539 0.768548
-1.589070 0.896450 -0.118840 1105 0.578704 0.366122 -0.724689
-1.585720 0.894560 -0.117190 1159 0.626905 0.338927 -0.700948
-1.583640 0.893380 -0.115630 1213 0.656833 0.321949 -0.678502
-1.582130 0.892530 -0.114120 1261 0.678560 0.309719 -0.656776
-1.579790 0.891210 -0.112560 1281 0.712228 0.290727 -0.634330
-1.577770 0.890070 -0.111020 1315 0.741293 0.274324 -0.612171
-1.576260 0.889220 -0.109520 1333 0.763020 0.262093 -0.590589
-1.574230 0.888070 -0.107980 1339 0.792229 0.245546 -0.568430
-1.573030 0.887390 -0.106510 1367 0.809495 0.235763 -0.547279
-1.572160 0.886900 -0.105060 1391 0.822012 0.228712 -0.526416
-1.571210 0.886360 -0.103610 1413 0.835681 0.220942 -0.505553
-1.570380 0.885900 -0.102160 1421 0.847624 0.214324 -0.484689
-1.569370 0.885330 -0.100710 1435 0.862156 0.206122 -0.463826
-1.568490 0.884830 -0.099270 1459 0.874818 0.198928 -0.443107
-1.567850 0.884470 -0.097840 1455 0.884027 0.193748 -0.422531
-1.567220 0.884110 -0.096420 1469 0.893092 0.188568 -0.402099
-1.566590 0.883750 -0.094990 1477 0.902157 0.183388 -0.381524
-1.565700 0.883250 -0.093550 1475 0.914961 0.176194 -0.360804
-1.565120 0.882930 -0.092140 1483 0.923308 0.171589 -0.340517
-1.564670 0.882670 -0.090730 1503 0.929783 0.167848 -0.320229
-1.563980 0.882280 -0.089300 1497 0.939711 0.162237 -0.299653
-1.563460 0.881990 -0.087890 1505 0.947192 0.158065 -0.279366
-1.563200 0.881840 -0.086500 1513 0.950933 0.155906 -0.259366
-1.563330 0.881910 -0.085120 1523 0.949062 0.156914 -0.239510
-1.562870 0.881650 -0.083720 1531 0.955681 0.153172 -0.219366
-1.561850 0.881070 -0.082280 1531 0.970358 0.144827 -0.198646
-1.561200 0.880710 -0.080870 1525 0.979710 0.139647 -0.178359
-1.561190 0.880700 -0.079490 1531 0.979854 0.139503 -0.158502
-1.561880 0.881090 -0.078150 1539 0.969926 0.145115 -0.139222
-1.562250 0.881300 -0.076780 1541 0.964602 0.148136 -0.119510
-1.561610 0.880930 -0.075370 1545 0.973811 0.142813 -0.099222
-1.560890 0.880530 -0.073960 1553 0.984171 0.137057 -0.078934
-1.560940 0.880560 -0.072580 1561 0.983451 0.137489 -0.059078
-1.561050 0.880620 -0.071210 1551 0.981868 0.138352 -0.039366
-1.560710 0.880430 -0.069820 1551 0.986761 0.135618 -0.019366
-1.560120 0.880090 -0.068410 1557 0.995250 0.130726 0.000922
-1.560050 0.880050 -0.067030 1557 0.996257 0.130151 0.020778
-1.560410 0.880250 -0.065670 1553 0.991077 0.133028 0.040347
-1.560830 0.880490 -0.064310 1553 0.985034 0.136482 0.059915
-1.560940 0.880550 -0.062940 1549 0.983451 0.137345 0.079627
-1.561110 0.880650 -0.061570 1549 0.981005 0.138784 0.099339
-1.561150 0.880670 -0.060190 1555 0.980430 0.139072 0.119195
-1.561000 0.880580 -0.058810 1547 0.982588 0.137777 0.139052
-1.561290 0.880750 -0.057440 1547 0.978415 0.140223 0.158764
-1.562280 0.881310 -0.056100 1555 0.964170 0.148280 0.178044
-1.562830 0.881610 -0.054740 1553 0.956257 0.152596 0.197613
-1.563250 0.881850 -0.053380 1553 0.950215 0.156050 0.217181
-1.563990 0.882270 -0.052020 1545 0.939566 0.162093 0.236749
-1.564270 0.882430 -0.050650 1547 0.935537 0.164396 0.256462
-1.563730 0.882120 -0.049250 1535 0.943307 0.159935 0.276606
-1.563700 0.882110 -0.047870 1519 0.943740 0.159791 0.296462
-1.564370 0.882480 -0.046510 1523 0.934098 0.165115 0.316030
-1.565290 0.883000 -0.045160 1521 0.920862 0.172597 0.335454
-1.566020 0.883410 -0.043800 1517 0.910358 0.178496 0.355023
-1.566310 0.883570 -0.042430 1513 0.906184 0.180798 0.374735
-1.566590 0.883730 -0.041050 1493 0.902157 0.183100 0.394591
-1.567310 0.884140 -0.039690 1485 0.891797 0.189000 0.414160
-1.568800 0.884980 -0.038340 1479 0.870358 0.201086 0.433584
-1.569590 0.885430 -0.036980 1467 0.858991 0.207561 0.453152
-1.570580 0.885980 -0.035610 1467 0.844746 0.215475 0.472865
-1.571360 0.886420 -0.034250 1457 0.833523 0.221806 0.492433
-1.571760 0.886650 -0.032870 1447 0.827767 0.225115 0.512289
-1.572990 0.887340 -0.031510 1429 0.810071 0.235043 0.531857
-1.574420 0.888150 -0.030150 1413 0.789495 0.246697 0.551426
-1.575770 0.888910 -0.028780 1397 0.770070 0.257633 0.571138
-1.576870 0.889530 -0.027410 1373 0.754243 0.266554 0.590850
-1.578350 0.890360 -0.026050 1355 0.732948 0.278496 0.610418
-1.580020 0.891310 -0.024680 1337 0.708920 0.292165 0.630131
-1.581190 0.891960 -0.023310 1305 0.692085 0.301518 0.649843
-1.582800 0.892870 -0.021930 1281 0.668918 0.314611 0.669699
-1.585350 0.894310 -0.020570 1249 0.632228 0.335331 0.689267
-1.587980 0.895790 -0.019210 1211 0.594386 0.356625 0.708836
-1.590020 0.896950 -0.017830 1155 0.565035 0.373316 0.728692
-1.593410 0.898860 -0.016460 1103 0.516257 0.400798 0.748404
-1.586900 0.896910 -0.117330 1115 0.609926 0.372741 -0.702963
-1.584440 0.895520 -0.115750 1173 0.645322 0.352740 -0.680229
-1.582740 0.894550 -0.114220 1213 0.669783 0.338784 -0.658215
-1.580790 0.893450 -0.112680 1245 0.697839 0.322957 -0.636056
-1.578580 0.892200 -0.111120 1277 0.729638 0.304971 -0.613610
-1.577190 0.891420 -0.109630 1301 0.749638 0.293748 -0.592171
-1.575430 0.890420 -0.108110 1317 0.774962 0.279360 -0.570301
-1.573720 0.889450 -0.106600 1343 0.799567 0.265403 -0.548574
-1.572710 0.888880 -0.105140 1365 0.814098 0.257201 -0.527567
-1.572210 0.888600 -0.103720 1391 0.821294 0.253172 -0.507136
-1.571010 0.887920 -0.102250 1415 0.838559 0.243388 -0.485984
-1.569930 0.887310 -0.100790 1423 0.854099 0.234612 -0.464977
-1.568920 0.886740 -0.099340 1439 0.868631 0.226410 -0.444114
-1.567770 0.886090 -0.097880 1437 0.885178 0.217057 -0.423107
-1.567010 0.885660 -0.096450 1449 0.896113 0.210870 -0.402531
-1.565750 0.884940 -0.094980 1455 0.914243 0.200511 -0.381380
-1.565110 0.884590 -0.093560 1457 0.923452 0.195475 -0.360948
-1.564920 0.884470 -0.092170 1471 0.926186 0.193748 -0.340948
-1.563960 0.883930 -0.090730 1475 0.939999 0.185979 -0.320229
-1.563130 0.883470 -0.089300 1479 0.951940 0.179359 -0.299653
-1.562880 0.883320 -0.087900 1497 0.955537 0.177201 -0.279510
-1.562680 0.883210 -0.086510 1507 0.958415 0.175618 -0.259510
-1.562540 0.883130 -0.085120 1509 0.960429 0.174468 -0.239510
-1.562350 0.883020 -0.083730 1515 0.963163 0.172884 -0.219510
-1.561900 0.882770 -0.082320 1519 0.969638 0.169287 -0.199222
-1.561630 0.882610 -0.080930 1521 0.973523 0.166986 -0.179222
-1.561240 0.882390 -0.079530 1517 0.979135 0.163820 -0.159078
-1.561680 0.882640 -0.078170 1539 0.972804 0.167417 -0.139510
-1.562110 0.882890 -0.076810 1537 0.966618 0.171014 -0.119941
-1.561210 0.882370 -0.075390 1533 0.979566 0.163532 -0.099510
-1.560680 0.882080 -0.073980 1541 0.987192 0.159360 -0.079222
-1.561240 0.882390 -0.072630 1555 0.979135 0.163820 -0.059797
-1.561100 0.882310 -0.071250 1543 0.981149 0.162668 -0.039941
-1.561340 0.882450 -0.069880 1549 0.977696 0.164683 -0.020229
-1.561450 0.882510 -0.068500 1557 0.976113 0.165547 -0.000373
-1.560470 0.881960 -0.067080 1539 0.990214 0.157632 0.020059
-1.560270 0.881840 -0.065700 1543 0.993092 0.155906 0.039915
-1.560440 0.881940 -0.064330 1543 0.990646 0.157345 0.059627
-1.561050 0.882280 -0.062970 1541 0.981868 0.162237 0.079195
-1.561660 0.882630 -0.061620 1543 0.973091 0.167273 0.098620
-1.562090 0.882870 -0.060260 1555 0.966904 0.170727 0.118188
-1.561360 0.882460 -0.058850 1539 0.977408 0.164827 0.138476
