768
-0.501770 0.262630 -0.019170 1145 0.232495 -0.545627 0.799737
-0.502890 0.263220 -0.018780 1139 0.216380 -0.537138 0.805349
-0.503550 0.263570 -0.018370 1127 0.206884 -0.532102 0.811248
-0.503040 0.263300 -0.017910 1109 0.214222 -0.535987 0.817867
-0.503510 0.263550 -0.017490 1095 0.207459 -0.532390 0.823910
-0.504490 0.264060 -0.017090 1085 0.193358 -0.525052 0.829665
-0.504890 0.264270 -0.016660 1077 0.187603 -0.522030 0.835852
-0.505950 0.264830 -0.016260 1065 0.172352 -0.513973 0.841608
-0.507060 0.265410 -0.015850 1051 0.156380 -0.505627 0.847507
-0.507850 0.265820 -0.015440 1041 0.145013 -0.499728 0.853406
-0.508970 0.266410 -0.015030 1025 0.128898 -0.491239 0.859306
-0.509760 0.266820 -0.014610 1011 0.117531 -0.485339 0.865349
-0.510150 0.267030 -0.014180 995 0.111920 -0.482318 0.871536
-0.511080 0.267510 -0.013760 977 0.098538 -0.475411 0.877579
-0.513030 0.268540 -0.013370 953 0.070481 -0.460591 0.883190
-0.514870 0.269500 -0.012970 925 0.044006 -0.446778 0.888946
-0.518510 0.271410 -0.012610 891 -0.008368 -0.419296 0.894126
-0.503900 0.264160 -0.132080 903 0.201848 -0.523613 -0.824867
-0.502220 0.263270 -0.131180 937 0.226021 -0.536419 -0.811918
-0.501040 0.262660 -0.130420 967 0.242999 -0.545196 -0.800982
-0.500240 0.262240 -0.129750 993 0.254509 -0.551239 -0.791342
-0.499070 0.261620 -0.128990 1005 0.271344 -0.560160 -0.780407
-0.497760 0.260930 -0.128200 1015 0.290193 -0.570088 -0.769040
-0.496840 0.260450 -0.127510 1027 0.303431 -0.576994 -0.759112
-0.496280 0.260160 -0.126920 1045 0.311488 -0.581167 -0.750623
-0.496060 0.260040 -0.126410 1069 0.314653 -0.582894 -0.743284
-0.495190 0.259580 -0.125740 1087 0.327172 -0.589512 -0.733644
-0.494520 0.259230 -0.125120 1101 0.336812 -0.594548 -0.724723
-0.493520 0.258710 -0.124410 1105 0.351200 -0.602030 -0.714507
-0.492600 0.258220 -0.123730 1105 0.364438 -0.609081 -0.704723
-0.491850 0.257830 -0.123100 1121 0.375229 -0.614692 -0.695658
-0.491170 0.257470 -0.122480 1131 0.385013 -0.619872 -0.686738
-0.490560 0.257150 -0.121880 1139 0.393790 -0.624476 -0.678105
-0.489250 0.256460 -0.121110 1147 0.412639 -0.634404 -0.667025
-0.488760 0.256210 -0.120550 1157 0.419690 -0.638001 -0.658968
-0.488970 0.256320 -0.120160 1169 0.416668 -0.636419 -0.653356
-0.488600 0.256120 -0.119620 1183 0.421992 -0.639296 -0.645587
-0.487790 0.255700 -0.118980 1191 0.433647 -0.645339 -0.636378
-0.487620 0.255610 -0.118500 1205 0.436092 -0.646635 -0.629471
-0.487260 0.255420 -0.117970 1211 0.441272 -0.649368 -0.621845
-0.486890 0.255220 -0.117440 1209 0.446596 -0.652246 -0.614220
-0.486850 0.255200 -0.116990 1211 0.447172 -0.652534 -0.607745
-0.486540 0.255040 -0.116470 1219 0.451632 -0.654836 -0.600263
-0.485670 0.254590 -0.115820 1229 0.464150 -0.661311 -0.590910
-0.485110 0.254290 -0.115250 1233 0.472207 -0.665627 -0.582709
-0.484870 0.254170 -0.114760 1233 0.475661 -0.667354 -0.575658
-0.484500 0.253970 -0.114230 1243 0.480985 -0.670232 -0.568033
-0.483240 0.253310 -0.113500 1247 0.499114 -0.679728 -0.557529
-0.483000 0.253180 -0.113000 1241 0.502567 -0.681598 -0.550335
-0.483590 0.253490 -0.112700 1245 0.494078 -0.677138 -0.546018
-0.483220 0.253300 -0.112180 1253 0.499402 -0.679872 -0.538536
-0.483110 0.253240 -0.111720 1263 0.500984 -0.680735 -0.531918
-0.483180 0.253280 -0.111300 1271 0.499977 -0.680159 -0.525874
-0.482620 0.252980 -0.110730 1271 0.508035 -0.684476 -0.517673
-0.482310 0.252820 -0.110230 1279 0.512495 -0.686778 -0.510479
-0.482000 0.252660 -0.109720 1287 0.516956 -0.689080 -0.503141
-0.481690 0.252500 -0.109220 1291 0.521416 -0.691383 -0.495946
-0.481330 0.252300 -0.108700 1295 0.526596 -0.694260 -0.488464
-0.480700 0.251970 -0.108130 1297 0.535661 -0.699009 -0.480263
-0.480070 0.251650 -0.107550 1297 0.544726 -0.703613 -0.471918
-0.480020 0.251620 -0.107110 1291 0.545445 -0.704045 -0.465587
-0.479900 0.251560 -0.106650 1299 0.547171 -0.704908 -0.458968
-0.479400 0.251290 -0.106110 1305 0.554366 -0.708793 -0.451198
-0.479340 0.251260 -0.105660 1311 0.555229 -0.709224 -0.444723
-0.479410 0.251300 -0.105250 1323 0.554222 -0.708649 -0.438824
-0.478470 0.250800 -0.104610 1319 0.567747 -0.715843 -0.429615
-0.477960 0.250540 -0.104070 1319 0.575085 -0.719584 -0.421846
-0.477840 0.250480 -0.103610 1317 0.576812 -0.720447 -0.415227
-0.477650 0.250380 -0.103140 1317 0.579546 -0.721886 -0.408464
-0.478430 0.250780 -0.102880 1335 0.568323 -0.716131 -0.404723
-0.478490 0.250820 -0.102460 1339 0.567459 -0.715555 -0.398680
-0.477670 0.250380 -0.101860 1333 0.579258 -0.721886 -0.390047
-0.477290 0.250190 -0.101350 1325 0.584725 -0.724620 -0.382709
-0.477750 0.250420 -0.101020 1329 0.578107 -0.721311 -0.377961
-0.478010 0.250560 -0.100640 1333 0.574366 -0.719296 -0.372493
-0.477690 0.250400 -0.100150 1341 0.578970 -0.721598 -0.365443
-0.477050 0.250060 -0.099590 1341 0.588179 -0.726491 -0.357385
-0.477310 0.250200 -0.099210 1341 0.584438 -0.724476 -0.351918
-0.477830 0.250470 -0.098890 1345 0.576956 -0.720591 -0.347313
-0.477710 0.250400 -0.098440 1351 0.578682 -0.721598 -0.340838
-0.477580 0.250340 -0.097990 1349 0.580553 -0.722461 -0.334364
-0.477650 0.250370 -0.097570 1355 0.579546 -0.722030 -0.328320
-0.477070 0.250070 -0.097030 1363 0.587891 -0.726346 -0.320551
-0.476500 0.249770 -0.096480 1361 0.596092 -0.730663 -0.312637
-0.477140 0.250110 -0.096190 1371 0.586884 -0.725771 -0.308464
-0.477010 0.250040 -0.095740 1369 0.588754 -0.726778 -0.301989
-0.476180 0.249600 -0.095140 1359 0.600697 -0.733109 -0.293356
-0.475930 0.249470 -0.094670 1365 0.604294 -0.734980 -0.286594
-0.475350 0.249170 -0.094130 1365 0.612639 -0.739296 -0.278824
-0.475220 0.249100 -0.093680 1373 0.614510 -0.740303 -0.272349
-0.475090 0.249030 -0.093230 1381 0.616380 -0.741311 -0.265874
-0.475030 0.249000 -0.092790 1379 0.617243 -0.741742 -0.259543
-0.475540 0.249270 -0.092470 1373 0.609905 -0.737857 -0.254939
-0.475540 0.249260 -0.092040 1377 0.609905 -0.738001 -0.248752
-0.475280 0.249130 -0.091570 1379 0.613647 -0.739872 -0.241989
-0.475080 0.249030 -0.091110 1375 0.616524 -0.741311 -0.235371
-0.474830 0.248900 -0.090630 1379 0.620121 -0.743181 -0.228464
-0.474320 0.248620 -0.090110 1373 0.627459 -0.747210 -0.220982
-0.474310 0.248620 -0.089690 1371 0.627603 -0.747210 -0.214939
-0.475210 0.249090 -0.089430 1389 0.614653 -0.740447 -0.211198
-0.475070 0.249020 -0.088990 1397 0.616668 -0.741455 -0.204867
-0.473660 0.248280 -0.088300 1385 0.636956 -0.752102 -0.194939
-0.473590 0.248240 -0.087860 1389 0.637963 -0.752678 -0.188608
-0.474350 0.248650 -0.087580 1395 0.627028 -0.746778 -0.184579
-0.474410 0.248680 -0.087170 1385 0.626164 -0.746347 -0.178680
-0.474090 0.248510 -0.086690 1381 0.630769 -0.748793 -0.171774
-0.474590 0.248770 -0.086360 1399 0.623574 -0.745052 -0.167025
-0.475170 0.249070 -0.086040 1411 0.615229 -0.740735 -0.162421
-0.474590 0.248770 -0.085520 1413 0.623574 -0.745052 -0.154939
-0.474070 0.248500 -0.085000 1401 0.631056 -0.748936 -0.147457
-0.473290 0.248080 -0.084440 1391 0.642280 -0.754980 -0.139400
-0.473030 0.247950 -0.083970 1387 0.646020 -0.756850 -0.132637
-0.473020 0.247940 -0.083550 1391 0.646165 -0.756994 -0.126594
-0.472950 0.247910 -0.083120 1395 0.647171 -0.757426 -0.120407
-0.473130 0.248000 -0.082730 1401 0.644582 -0.756131 -0.114795
-0.472930 0.247900 -0.082280 1393 0.647459 -0.757570 -0.108320
-0.473630 0.248260 -0.081980 1399 0.637387 -0.752390 -0.104004
-0.474580 0.248770 -0.081720 1405 0.623718 -0.745052 -0.100263
-0.474640 0.248790 -0.081310 1401 0.622855 -0.744764 -0.094363
-0.474120 0.248520 -0.080800 1409 0.630337 -0.748649 -0.087025
-0.473340 0.248110 -0.080250 1405 0.641560 -0.754548 -0.079112
-0.472940 0.247900 -0.079760 1393 0.647315 -0.757570 -0.072061
-0.473120 0.248000 -0.079370 1393 0.644725 -0.756131 -0.066450
-0.472980 0.247930 -0.078930 1401 0.646740 -0.757138 -0.060119
-0.472650 0.247750 -0.078460 1403 0.651488 -0.759728 -0.053356
-0.472130 0.247480 -0.077950 1401 0.658970 -0.763613 -0.046018
-0.472050 0.247430 -0.077520 1399 0.660121 -0.764332 -0.039831
-0.473000 0.247940 -0.077260 1409 0.646452 -0.756994 -0.036090
-0.473630 0.248270 -0.076940 1411 0.637387 -0.752246 -0.031486
-0.473300 0.248090 -0.076470 1407 0.642135 -0.754836 -0.024723
-0.472520 0.247680 -0.075930 1399 0.653359 -0.760735 -0.016953
-0.472760 0.247810 -0.075550 1403 0.649905 -0.758864 -0.011486
-0.473130 0.248000 -0.075190 1405 0.644582 -0.756131 -0.006306
-0.473310 0.248100 -0.074800 1405 0.641992 -0.754692 -0.000694
-0.473170 0.248020 -0.074360 1415 0.644006 -0.755843 0.005636
-0.473670 0.248290 -0.074020 1421 0.636812 -0.751958 0.010529
-0.473910 0.248410 -0.073640 1423 0.633359 -0.750231 0.015996
-0.472870 0.247870 -0.073060 1411 0.648323 -0.758001 0.024342
-0.472790 0.247820 -0.072630 1413 0.649474 -0.758721 0.030529
-0.473290 0.248090 -0.072290 1411 0.642280 -0.754836 0.035421
-0.473280 0.248080 -0.071870 1413 0.642423 -0.754980 0.041464
-0.473770 0.248340 -0.071520 1411 0.635373 -0.751239 0.046500
-0.473630 0.248260 -0.071080 1409 0.637387 -0.752390 0.052831
-0.473230 0.248050 -0.070610 1409 0.643143 -0.755411 0.059593
-0.473340 0.248110 -0.070200 1411 0.641560 -0.754548 0.065493
-0.473710 0.248310 -0.069840 1407 0.636236 -0.751670 0.070672
-0.474340 0.248640 -0.069520 1417 0.627172 -0.746922 0.075277
-0.474380 0.248660 -0.069100 1417 0.626596 -0.746634 0.081320
-0.474750 0.248860 -0.068740 1427 0.621272 -0.743757 0.086500
-0.474670 0.248810 -0.068310 1423 0.622423 -0.744476 0.092687
-0.473810 0.248360 -0.067770 1425 0.634798 -0.750951 0.100457
-0.473600 0.248250 -0.067320 1421 0.637819 -0.752534 0.106931
-0.473260 0.248070 -0.066860 1415 0.642711 -0.755124 0.113550
-0.472980 0.247920 -0.066400 1407 0.646740 -0.757282 0.120169
-0.473480 0.248190 -0.066050 1411 0.639546 -0.753397 0.125205
-0.473530 0.248210 -0.065640 1407 0.638826 -0.753109 0.131104
-0.473700 0.248300 -0.065250 1407 0.636380 -0.751814 0.136716
-0.473930 0.248420 -0.064870 1419 0.633071 -0.750088 0.142183
-0.474240 0.248590 -0.064490 1425 0.628610 -0.747641 0.147651
-0.474150 0.248540 -0.064060 1417 0.629905 -0.748361 0.153838
-0.473550 0.248230 -0.063560 1407 0.638539 -0.752821 0.161032
-0.474050 0.248480 -0.063210 1411 0.631344 -0.749224 0.166068
-0.473960 0.248440 -0.062790 1419 0.632639 -0.749800 0.172111
-0.473610 0.248260 -0.062320 1409 0.637675 -0.752390 0.178874
-0.474310 0.248620 -0.062000 1413 0.627603 -0.747210 0.183478
-0.474660 0.248810 -0.061630 1415 0.622567 -0.744476 0.188802
-0.475360 0.249170 -0.061300 1415 0.612495 -0.739296 0.193550
-0.476100 0.249560 -0.060980 1421 0.601848 -0.733685 0.198154
-0.476080 0.249550 -0.060560 1417 0.602136 -0.733829 0.204198
-0.476120 0.249570 -0.060140 1409 0.601560 -0.733541 0.210241
-0.475780 0.249390 -0.059680 1415 0.606452 -0.736131 0.216859
-0.475490 0.249240 -0.059230 1415 0.610625 -0.738289 0.223334
-0.475600 0.249300 -0.058830 1413 0.609042 -0.737426 0.229090
-0.475830 0.249420 -0.058440 1407 0.605733 -0.735699 0.234701
-0.475740 0.249370 -0.058010 1405 0.607028 -0.736419 0.240888
-0.475140 0.249060 -0.057520 1395 0.615661 -0.740879 0.247939
-0.474460 0.248700 -0.057020 1397 0.625445 -0.746059 0.255133
-0.474250 0.248590 -0.056580 1395 0.628467 -0.747641 0.261464
-0.474540 0.248740 -0.056200 1399 0.624294 -0.745483 0.266931
-0.474970 0.248970 -0.055830 1401 0.618107 -0.742174 0.272255
-0.475450 0.249220 -0.055470 1399 0.611200 -0.738577 0.277435
-0.475760 0.249380 -0.055090 1395 0.606740 -0.736275 0.282903
-0.475790 0.249400 -0.054680 1391 0.606308 -0.735987 0.288802
-0.475640 0.249320 -0.054240 1399 0.608467 -0.737138 0.295133
-0.476510 0.249780 -0.053930 1411 0.595949 -0.730519 0.299593
-0.477130 0.250100 -0.053580 1401 0.587028 -0.725915 0.304629
-0.476580 0.249820 -0.053100 1387 0.594941 -0.729944 0.311536
-0.476170 0.249600 -0.052640 1389 0.600841 -0.733109 0.318154
-0.476850 0.249950 -0.052290 1399 0.591056 -0.728073 0.323190
-0.477470 0.250280 -0.051940 1397 0.582135 -0.723325 0.328226
-0.477310 0.250200 -0.051510 1397 0.584438 -0.724476 0.334413
-0.477470 0.250280 -0.051110 1401 0.582135 -0.723325 0.340169
-0.477630 0.250370 -0.050710 1401 0.579834 -0.722030 0.345924
-0.477080 0.250080 -0.050230 1399 0.587747 -0.726203 0.352831
-0.477510 0.250300 -0.049860 1401 0.581560 -0.723037 0.358154
-0.478190 0.250660 -0.049510 1387 0.571776 -0.717857 0.363190
-0.478160 0.250640 -0.049090 1379 0.572208 -0.718145 0.369234
-0.477930 0.250520 -0.048650 1381 0.575517 -0.719872 0.375565
-0.477520 0.250310 -0.048190 1363 0.581416 -0.722893 0.382183
-0.478190 0.250660 -0.047840 1373 0.571776 -0.717857 0.387219
-0.478940 0.251050 -0.047500 1377 0.560984 -0.712246 0.392111
-0.479290 0.251240 -0.047110 1381 0.555948 -0.709512 0.397723
-0.478740 0.250950 -0.046640 1379 0.563862 -0.713685 0.404485
-0.477990 0.250560 -0.046150 1385 0.574654 -0.719296 0.411536
-0.478870 0.251020 -0.045820 1397 0.561992 -0.712677 0.416284
-0.479480 0.251340 -0.045460 1389 0.553215 -0.708073 0.421464
-0.479190 0.251180 -0.045010 1381 0.557387 -0.710375 0.427939
-0.479350 0.251270 -0.044610 1377 0.555085 -0.709080 0.433694
-0.479830 0.251520 -0.044230 1369 0.548179 -0.705483 0.439162
-0.480310 0.251770 -0.043860 1365 0.541272 -0.701886 0.444485
-0.480610 0.251930 -0.043470 1365 0.536956 -0.699584 0.450097
-0.480760 0.252010 -0.043060 1365 0.534797 -0.698433 0.455996
-0.480400 0.251820 -0.042610 1367 0.539977 -0.701167 0.462471
-0.480560 0.251900 -0.042200 1357 0.537675 -0.700016 0.468370
-0.481370 0.252330 -0.041850 1355 0.526020 -0.693829 0.473406
-0.482300 0.252820 -0.041510 1367 0.512639 -0.686778 0.478298
-0.482980 0.253170 -0.041150 1369 0.502855 -0.681742 0.483478
-0.481910 0.252610 -0.040640 1355 0.518251 -0.689800 0.490816
-0.481810 0.252560 -0.040210 1359 0.519690 -0.690519 0.497003
-0.482610 0.252980 -0.039860 1357 0.508179 -0.684476 0.502039
-0.482890 0.253130 -0.039460 1357 0.504150 -0.682318 0.507795
-0.482920 0.253140 -0.039040 1351 0.503718 -0.682174 0.513838
-0.482630 0.252990 -0.038600 1347 0.507891 -0.684332 0.520169
-0.482850 0.253100 -0.038190 1351 0.504726 -0.682749 0.526068
-0.483000 0.253180 -0.037790 1347 0.502567 -0.681598 0.531824
-0.482830 0.253090 -0.037350 1341 0.505013 -0.682893 0.538154
-0.482850 0.253110 -0.036930 1329 0.504726 -0.682606 0.544198
-0.483730 0.253570 -0.036580 1337 0.492064 -0.675987 0.549234
-0.484260 0.253850 -0.036200 1349 0.484438 -0.671958 0.554701
-0.484290 0.253860 -0.035780 1345 0.484006 -0.671814 0.560744
-0.484700 0.254080 -0.035390 1339 0.478107 -0.668649 0.566356
-0.484660 0.254060 -0.034960 1319 0.478682 -0.668936 0.572543
-0.484430 0.253940 -0.034520 1321 0.481992 -0.670663 0.578874
-0.484650 0.254050 -0.034120 1321 0.478826 -0.669081 0.584629
-0.485250 0.254370 -0.033740 1321 0.470193 -0.664476 0.590097
-0.485340 0.254410 -0.033320 1319 0.468898 -0.663901 0.596140
-0.485750 0.254630 -0.032920 1313 0.462999 -0.660735 0.601895
-0.486940 0.255250 -0.032580 1311 0.445877 -0.651814 0.606788
-0.488320 0.255980 -0.032250 1311 0.426021 -0.641310 0.611536
-0.489120 0.256400 -0.031880 1315 0.414510 -0.635268 0.616859
-0.489020 0.256340 -0.031440 1317 0.415949 -0.636131 0.623190
-0.488330 0.255980 -0.030970 1305 0.425876 -0.641310 0.629953
-0.488540 0.256090 -0.030560 1299 0.422855 -0.639728 0.635852
-0.489150 0.256410 -0.030180 1299 0.414078 -0.635123 0.641320
-0.489100 0.256390 -0.029750 1291 0.414797 -0.635411 0.647507
-0.489250 0.256460 -0.029330 1279 0.412639 -0.634404 0.653550
-0.488950 0.256310 -0.028890 1269 0.416956 -0.636563 0.659881
-0.488250 0.255940 -0.028420 1265 0.427028 -0.641886 0.666644
-0.488790 0.256230 -0.028030 1273 0.419258 -0.637714 0.672255
-0.490100 0.256910 -0.027680 1277 0.400409 -0.627929 0.677291
-0.490710 0.257230 -0.027280 1267 0.391632 -0.623325 0.683047
-0.491250 0.257510 -0.026890 1259 0.383862 -0.619296 0.688658
-0.491070 0.257420 -0.026450 1247 0.386452 -0.620591 0.694989
-0.490640 0.257190 -0.026000 1235 0.392639 -0.623901 0.701464
-0.491940 0.257880 -0.025640 1241 0.373934 -0.613972 0.706644
-0.493530 0.258710 -0.025300 1243 0.351056 -0.602030 0.711536
-0.494190 0.259060 -0.024900 1245 0.341560 -0.596994 0.717291
-0.494400 0.259170 -0.024480 1237 0.338539 -0.595411 0.723334
-0.494420 0.259180 -0.024050 1229 0.338251 -0.595267 0.729521
-0.493980 0.258950 -0.023600 1215 0.344582 -0.598577 0.735996
-0.494650 0.259300 -0.023200 1213 0.334941 -0.593541 0.741752
-0.495890 0.259950 -0.022830 1211 0.317100 -0.584188 0.747075
-0.496230 0.260130 -0.022420 1213 0.312207 -0.581599 0.752975
-0.496640 0.260340 -0.022000 1203 0.306308 -0.578577 0.759018
-0.497690 0.260890 -0.021620 1201 0.291200 -0.570663 0.764485
-0.498420 0.261280 -0.021220 1193 0.280697 -0.565052 0.770241
-0.498570 0.261360 -0.020790 1183 0.278539 -0.563901 0.776428
-0.498840 0.261500 -0.020370 1169 0.274653 -0.561886 0.782471
-0.499430 0.261810 -0.019960 1161 0.266164 -0.557426 0.788370
-0.499840 0.262020 -0.019540 1151 0.260265 -0.554404 0.794413
-0.501090 0.262680 -0.019150 1145 0.242280 -0.544908 0.800025
-0.502140 0.263230 -0.018760 1139 0.227172 -0.536994 0.805636
-0.502280 0.263310 -0.018330 1133 0.225157 -0.535843 0.811824
-0.502490 0.263410 -0.017900 1121 0.222136 -0.534404 0.818011
-0.503010 0.263690 -0.017480 1107 0.214654 -0.530375 0.824054
-0.503550 0.263970 -0.017060 1093 0.206884 -0.526347 0.830097
-0.504530 0.264490 -0.016660 1083 0.192783 -0.518864 0.835852
-0.505710 0.265110 -0.016260 1075 0.175805 -0.509944 0.841608
-0.506440 0.265490 -0.015840 1057 0.165301 -0.504476 0.847651
-0.507620 0.266110 -0.015440 1043 0.148323 -0.495555 0.853406
-0.509250 0.266960 -0.015040 1039 0.124870 -0.483325 0.859162
-0.510370 0.267550 -0.014630 1025 0.108754 -0.474836 0.865061
-0.510840 0.267800 -0.014200 1009 0.101992 -0.471239 0.871248
-0.511300 0.268040 -0.013770 987 0.095373 -0.467785 0.877435
-0.512670 0.268760 -0.013360 965 0.075661 -0.457426 0.883334
-0.513790 0.269340 -0.012950 935 0.059545 -0.449080 0.889234
-0.515610 0.270300 -0.012540 905 0.033359 -0.435267 0.895133
-0.505160 0.265400 -0.132930 889 0.183719 -0.505771 -0.837097
-0.502090 0.263780 -0.131670 915 0.227891 -0.529080 -0.818968
-0.500970 0.263190 -0.130920 943 0.244006 -0.537570 -0.808176
-0.499730 0.262540 -0.130140 969 0.261848 -0.546922 -0.796954
-0.498490 0.261890 -0.129360 995 0.279689 -0.556275 -0.785731
-0.497950 0.261600 -0.128760 1011 0.287459 -0.560447 -0.777097
-0.497780 0.261520 -0.128270 1027 0.289905 -0.561598 -0.770047
-0.496280 0.260730 -0.127430 1033 0.311488 -0.572965 -0.757961
-0.495170 0.260140 -0.126690 1043 0.327459 -0.581454 -0.747313
-0.495440 0.260290 -0.126310 1073 0.323574 -0.579296 -0.741846
-0.494510 0.259790 -0.125620 1095 0.336956 -0.586490 -0.731917
-0.493400 0.259210 -0.124890 1107 0.352927 -0.594836 -0.721414
-0.492910 0.258950 -0.124320 1115 0.359977 -0.598577 -0.713212
-0.492550 0.258760 -0.123780 1123 0.365157 -0.601311 -0.705443
-0.492130 0.258540 -0.123230 1135 0.371200 -0.604476 -0.697529
-0.491260 0.258080 -0.122560 1139 0.383718 -0.611095 -0.687889
-0.490260 0.257560 -0.121870 1143 0.398107 -0.618577 -0.677961
-0.489590 0.257200 -0.121250 1151 0.407747 -0.623757 -0.669040
-0.488590 0.256680 -0.120560 1159 0.422136 -0.631239 -0.659112
-0.487660 0.256190 -0.119890 1169 0.435517 -0.638289 -0.649471
-0.487550 0.256130 -0.119420 1185 0.437100 -0.639152 -0.642709
-0.486930 0.255800 -0.118830 1191 0.446020 -0.643900 -0.634220
-0.486500 0.255580 -0.118280 1197 0.452208 -0.647066 -0.626306
-0.486580 0.255620 -0.117860 1211 0.451056 -0.646490 -0.620263
-0.486470 0.255560 -0.117390 1213 0.452639 -0.647354 -0.613500
-0.485720 0.255170 -0.116770 1219 0.463430 -0.652965 -0.604579
-0.485170 0.254880 -0.116200 1221 0.471344 -0.657138 -0.596378
-0.485180 0.254890 -0.115760 1225 0.471200 -0.656994 -0.590047
-0.484570 0.254560 -0.115180 1231 0.479977 -0.661742 -0.581702
-0.483810 0.254170 -0.114560 1239 0.490912 -0.667354 -0.572781
-0.483830 0.254170 -0.114130 1241 0.490625 -0.667354 -0.566594
-0.483470 0.253980 -0.113600 1251 0.495805 -0.670087 -0.558968
-0.483150 0.253820 -0.113090 1247 0.500409 -0.672390 -0.551630
-0.483170 0.253830 -0.112660 1249 0.500121 -0.672246 -0.545443
-0.482610 0.253530 -0.112090 1247 0.508179 -0.676562 -0.537241
-0.481990 0.253200 -0.111510 1253 0.517099 -0.681311 -0.528896
-0.482120 0.253280 -0.111110 1269 0.515229 -0.680159 -0.523141
-0.481820 0.253110 -0.110600 1273 0.519546 -0.682606 -0.515802
-0.481200 0.252790 -0.110030 1271 0.528466 -0.687210 -0.507601
-0.481390 0.252890 -0.109640 1285 0.525733 -0.685771 -0.501989
-0.481350 0.252870 -0.109190 1299 0.526308 -0.686059 -0.495515
-0.481420 0.252910 -0.108770 1297 0.525301 -0.685483 -0.489471
-0.481230 0.252810 -0.108300 1295 0.528035 -0.686922 -0.482709
-0.480160 0.252240 -0.107620 1301 0.543431 -0.695124 -0.472925
-0.479280 0.251780 -0.106990 1301 0.556093 -0.701742 -0.463860
-0.479160 0.251720 -0.106540 1301 0.557819 -0.702605 -0.457385
-0.479420 0.251860 -0.106160 1313 0.554078 -0.700591 -0.451917
-0.479560 0.251930 -0.105760 1317 0.552064 -0.699584 -0.446162
-0.478860 0.251560 -0.105180 1321 0.562136 -0.704908 -0.437817
-0.477980 0.251100 -0.104550 1323 0.574798 -0.711526 -0.428752
-0.477480 0.250830 -0.104010 1329 0.581992 -0.715411 -0.420982
-0.477810 0.251010 -0.103650 1327 0.577244 -0.712821 -0.415802
-0.477880 0.251040 -0.103240 1325 0.576236 -0.712390 -0.409903
-0.478580 0.251410 -0.102960 1339 0.566164 -0.707066 -0.405874
-0.478780 0.251520 -0.102570 1341 0.563287 -0.705483 -0.400263
-0.477700 0.250950 -0.101910 1339 0.578826 -0.713685 -0.390766
-0.477320 0.250750 -0.101400 1337 0.584294 -0.716562 -0.383428
-0.477770 0.250990 -0.101070 1337 0.577819 -0.713109 -0.378680
-0.477720 0.250960 -0.100630 1337 0.578539 -0.713541 -0.372349
-0.477400 0.250790 -0.100140 1345 0.583143 -0.715987 -0.365299
-0.477150 0.250660 -0.099650 1347 0.586740 -0.717857 -0.358248
-0.476830 0.250490 -0.099160 1345 0.591344 -0.720303 -0.351198
-0.476460 0.250300 -0.098660 1343 0.596668 -0.723037 -0.344004
-0.476590 0.250360 -0.098260 1351 0.594797 -0.722174 -0.338248
-0.476210 0.250160 -0.097750 1349 0.600265 -0.725051 -0.330910
-0.476200 0.250160 -0.097320 1351 0.600409 -0.725051 -0.324723
-0.476020 0.250060 -0.096860 1361 0.602999 -0.726491 -0.318105
-0.475510 0.249800 -0.096330 1363 0.610337 -0.730232 -0.310479
-0.476720 0.250440 -0.096150 1373 0.592927 -0.721023 -0.307889
-0.477360 0.250770 -0.095850 1375 0.583718 -0.716275 -0.303572
-0.476340 0.250230 -0.095220 1365 0.598395 -0.724044 -0.294507
-0.475830 0.249960 -0.094690 1371 0.605733 -0.727929 -0.286882
-0.475770 0.249930 -0.094250 1365 0.606596 -0.728361 -0.280551
-0.475450 0.249770 -0.093770 1365 0.611200 -0.730663 -0.273644
-0.475000 0.249530 -0.093250 1375 0.617675 -0.734116 -0.266162
-0.474610 0.249320 -0.092750 1381 0.623287 -0.737138 -0.258968
-0.474480 0.249260 -0.092300 1373 0.625157 -0.738001 -0.252493
-0.475000 0.249530 -0.091980 1379 0.617675 -0.734116 -0.247889
-0.474610 0.249320 -0.091480 1377 0.623287 -0.737138 -0.240694
-0.474220 0.249120 -0.090980 1379 0.628898 -0.740016 -0.233500
-0.474220 0.249120 -0.090560 1385 0.628898 -0.740016 -0.227457
-0.473960 0.248980 -0.090090 1383 0.632639 -0.742030 -0.220694
-0.474210 0.249120 -0.089710 1383 0.629042 -0.740016 -0.215227
-0.474600 0.249320 -0.089360 1385 0.623431 -0.737138 -0.210191
-0.473950 0.248980 -0.088820 1389 0.632783 -0.742030 -0.202421
-0.473440 0.248710 -0.088300 1389 0.640121 -0.745915 -0.194939
-0.473880 0.248940 -0.087960 1395 0.633790 -0.742606 -0.190047
-0.474260 0.249140 -0.087610 1391 0.628323 -0.739728 -0.185011
-0.474190 0.249100 -0.087170 1391 0.629330 -0.740303 -0.178680
-0.474120 0.249070 -0.086740 1389 0.630337 -0.740735 -0.172493
-0.474120 0.249060 -0.086320 1395 0.630337 -0.740879 -0.166450
-0.474560 0.249300 -0.085970 1409 0.624006 -0.737426 -0.161414
-0.474490 0.249260 -0.085540 1411 0.625013 -0.738001 -0.155227
-0.474350 0.249190 -0.085090 1405 0.627028 -0.739008 -0.148752
-0.473770 0.248880 -0.084570 1401 0.635373 -0.743469 -0.141270
-0.472670 0.248310 -0.083950 1393 0.651200 -0.751670 -0.132349
-0.472350 0.248130 -0.083470 1395 0.655805 -0.754260 -0.125443
-0.472270 0.248090 -0.083040 1393 0.656956 -0.754836 -0.119256
-0.472140 0.248020 -0.082600 1397 0.658826 -0.755843 -0.112925
-0.471940 0.247920 -0.082140 1389 0.661704 -0.757282 -0.106306
-0.472630 0.248280 -0.081850 1395 0.651776 -0.752102 -0.102133
-0.473400 0.248690 -0.081560 1405 0.640697 -0.746203 -0.097961
-0.473070 0.248510 -0.081080 1399 0.645445 -0.748793 -0.091054
-0.472930 0.248440 -0.080640 1399 0.647459 -0.749800 -0.084723
-0.472850 0.248400 -0.080200 1399 0.648610 -0.750375 -0.078392
-0.472980 0.248460 -0.079810 1397 0.646740 -0.749512 -0.072781
-0.473670 0.248830 -0.079500 1399 0.636812 -0.744188 -0.068320
-0.473530 0.248760 -0.079060 1407 0.638826 -0.745196 -0.061989
-0.472750 0.248350 -0.078510 1403 0.650049 -0.751095 -0.054076
-0.472350 0.248140 -0.078030 1405 0.655805 -0.754116 -0.047169
-0.472400 0.248160 -0.077620 1399 0.655085 -0.753829 -0.041270
-0.472330 0.248130 -0.077190 1407 0.656092 -0.754260 -0.035083
-0.473280 0.248620 -0.076920 1417 0.642423 -0.747210 -0.031198
-0.473910 0.248960 -0.076600 1417 0.633359 -0.742318 -0.026594
-0.473190 0.248580 -0.076070 1407 0.643718 -0.747786 -0.018968
-0.473570 0.248770 -0.075710 1411 0.638251 -0.745052 -0.013788
-0.474130 0.249070 -0.075380 1415 0.630193 -0.740735 -0.009040
-0.473480 0.248730 -0.074860 1409 0.639546 -0.745627 -0.001558
-0.472890 0.248420 -0.074350 1413 0.648035 -0.750088 0.005780
-0.473380 0.248680 -0.074010 1421 0.640984 -0.746347 0.010672
-0.473430 0.248710 -0.073600 1429 0.640265 -0.745915 0.016572
-0.472710 0.248330 -0.073070 1415 0.650625 -0.751383 0.024198
-0.472760 0.248350 -0.072660 1423 0.649905 -0.751095 0.030097
-0.472620 0.248280 -0.072220 1419 0.651920 -0.752102 0.036428
-0.472920 0.248440 -0.071850 1417 0.647603 -0.749800 0.041752
-0.473360 0.248660 -0.071490 1417 0.641272 -0.746634 0.046931
-0.473020 0.248490 -0.071030 1411 0.646165 -0.749080 0.053550
-0.472160 0.248040 -0.070480 1407 0.658538 -0.755555 0.061464
-0.472210 0.248060 -0.070070 1405 0.657819 -0.755267 0.067363
-0.472850 0.248400 -0.069750 1409 0.648610 -0.750375 0.071967
-0.472500 0.248210 -0.069280 1413 0.653646 -0.753109 0.078730
-0.472420 0.248170 -0.068850 1415 0.654797 -0.753685 0.084917
-0.472720 0.248330 -0.068480 1401 0.650481 -0.751383 0.090241
-0.472580 0.248250 -0.068040 1411 0.652496 -0.752534 0.096572
-0.472620 0.248280 -0.067630 1421 0.651920 -0.752102 0.102471
-0.472470 0.248200 -0.067190 1421 0.654078 -0.753253 0.108802
-0.472130 0.248020 -0.066730 1417 0.658970 -0.755843 0.115421
-0.473020 0.248490 -0.066440 1411 0.646165 -0.749080 0.119593
-0.473510 0.248750 -0.066090 1415 0.639114 -0.745339 0.124629
-0.473810 0.248910 -0.065710 1425 0.634798 -0.743037 0.130097
-0.473470 0.248730 -0.065250 1415 0.639690 -0.745627 0.136716
-0.473070 0.248510 -0.064780 1409 0.645445 -0.748793 0.143478
-0.473950 0.248980 -0.064480 1423 0.632783 -0.742030 0.147795
-0.474320 0.249170 -0.064110 1419 0.627459 -0.739296 0.153118
-0.473840 0.248920 -0.063630 1413 0.634366 -0.742893 0.160025
-0.473050 0.248500 -0.063110 1407 0.645733 -0.748936 0.167507
-0.473670 0.248830 -0.062780 1413 0.636812 -0.744188 0.172255
-0.474290 0.249160 -0.062440 1411 0.627891 -0.739440 0.177147
-0.473950 0.248980 -0.061980 1413 0.632783 -0.742030 0.183766
-0.473740 0.248860 -0.061540 1411 0.635804 -0.743757 0.190097
-0.474090 0.249050 -0.061170 1415 0.630769 -0.741023 0.195421
-0.474790 0.249420 -0.060840 1425 0.620697 -0.735699 0.200169
-0.474440 0.249240 -0.060380 1413 0.625733 -0.738289 0.206788
-0.474160 0.249090 -0.059920 1395 0.629762 -0.740447 0.213406
-0.474970 0.249510 -0.059610 1409 0.618107 -0.734404 0.217867
-0.474880 0.249470 -0.059180 1419 0.619402 -0.734980 0.224054
-0.474860 0.249450 -0.058760 1417 0.619689 -0.735267 0.230097
-0.475350 0.249710 -0.058410 1409 0.612639 -0.731527 0.235133
-0.474610 0.249330 -0.057900 1403 0.623287 -0.736994 0.242471
-0.474330 0.249180 -0.057450 1401 0.627315 -0.739152 0.248946
-0.474760 0.249400 -0.057080 1401 0.621128 -0.735987 0.254270
-0.474860 0.249460 -0.056680 1401 0.619689 -0.735124 0.260025
-0.474640 0.249340 -0.056240 1399 0.622855 -0.736850 0.266356
-0.474680 0.249360 -0.055830 1397 0.622279 -0.736562 0.272255
-0.475170 0.249620 -0.055470 1393 0.615229 -0.732821 0.277435
-0.475790 0.249940 -0.055120 1393 0.606308 -0.728217 0.282471
-0.475570 0.249830 -0.054680 1397 0.609474 -0.729800 0.288802
-0.475090 0.249580 -0.054210 1387 0.616380 -0.733397 0.295565
-0.475640 0.249870 -0.053850 1403 0.608467 -0.729224 0.300744
-0.475930 0.250020 -0.053470 1401 0.604294 -0.727066 0.306212
-0.476160 0.250140 -0.053080 1407 0.600985 -0.725339 0.311824
-0.476260 0.250190 -0.052670 1401 0.599546 -0.724620 0.317723
-0.476170 0.250150 -0.052250 1397 0.600841 -0.725196 0.323766
-0.476600 0.250370 -0.051870 1397 0.594654 -0.722030 0.329234
-0.476950 0.250560 -0.051490 1401 0.589618 -0.719296 0.334701
-0.476470 0.250300 -0.051030 1399 0.596524 -0.723037 0.341320
-0.476570 0.250360 -0.050620 1395 0.595085 -0.722174 0.347219
-0.476660 0.250410 -0.050210 1391 0.593790 -0.721455 0.353119
-0.476700 0.250420 -0.049800 1381 0.593215 -0.721311 0.359018
-0.477250 0.250710 -0.049440 1371 0.585301 -0.717138 0.364198
-0.477670 0.250940 -0.049070 1383 0.579258 -0.713829 0.369521
-0.477960 0.251090 -0.048680 1381 0.575085 -0.711670 0.375133
-0.478130 0.251180 -0.048280 1389 0.572639 -0.710375 0.380888
-0.478290 0.251260 -0.047870 1383 0.570337 -0.709224 0.386788
-0.478190 0.251210 -0.047450 1375 0.571776 -0.709944 0.392831
-0.478290 0.251260 -0.047040 1371 0.570337 -0.709224 0.398730
-0.478260 0.251240 -0.046620 1373 0.570769 -0.709512 0.404773
-0.477960 0.251090 -0.046170 1371 0.575085 -0.711670 0.411248
-0.478190 0.251210 -0.045770 1383 0.571776 -0.709944 0.417003
-0.477770 0.250990 -0.045320 1371 0.577819 -0.713109 0.423478
-0.477930 0.251070 -0.044910 1375 0.575517 -0.711958 0.429377
-0.478540 0.251390 -0.044550 1375 0.566740 -0.707354 0.434557
-0.479090 0.251680 -0.044190 1367 0.558826 -0.703181 0.439737
-0.479890 0.252100 -0.043840 1367 0.547316 -0.697138 0.444773
-0.479920 0.252120 -0.043420 1365 0.546884 -0.696850 0.450816
-0.480140 0.252240 -0.043030 1359 0.543718 -0.695124 0.456428
-0.480310 0.252320 -0.042620 1361 0.541272 -0.693973 0.462327
-0.480530 0.252440 -0.042220 1359 0.538107 -0.692246 0.468083
-0.481400 0.252900 -0.041880 1355 0.525589 -0.685627 0.472975
-0.482270 0.253360 -0.041530 1367 0.513071 -0.679008 0.478011
-0.482360 0.253400 -0.041120 1371 0.511776 -0.678433 0.483910
-0.482130 0.253280 -0.040680 1363 0.515085 -0.680159 0.490241
-0.481900 0.253160 -0.040240 1361 0.518394 -0.681886 0.496572
-0.481350 0.252870 -0.039770 1357 0.526308 -0.686059 0.503334
-0.481180 0.252780 -0.039340 1353 0.528754 -0.687354 0.509521
-0.481990 0.253200 -0.038980 1347 0.517099 -0.681311 0.514701
-0.482590 0.253520 -0.038610 1351 0.508467 -0.676706 0.520025
-0.482680 0.253570 -0.038200 1347 0.507172 -0.675987 0.525924
-0.482960 0.253720 -0.037800 1347 0.503143 -0.673829 0.531680
-0.483320 0.253900 -0.037410 1343 0.497963 -0.671239 0.537291
-0.483790 0.254150 -0.037020 1343 0.491200 -0.667642 0.542903
-0.483890 0.254210 -0.036610 1347 0.489762 -0.666778 0.548802
-0.483450 0.253980 -0.036150 1339 0.496092 -0.670087 0.555421
-0.483420 0.253960 -0.035730 1333 0.496524 -0.670375 0.561464
-0.483630 0.254070 -0.035320 1341 0.493502 -0.668792 0.567363
-0.483790 0.254150 -0.034910 1327 0.491200 -0.667642 0.573262
-0.484910 0.254740 -0.034570 1325 0.475085 -0.659152 0.578154
-0.485390 0.255000 -0.034180 1325 0.468179 -0.655411 0.583766
-0.485410 0.255010 -0.033760 1321 0.467891 -0.655267 0.589809
-0.485630 0.255120 -0.033360 1323 0.464725 -0.653685 0.595565
-0.486240 0.255440 -0.032970 1317 0.455949 -0.649080 0.601176
-0.487810 0.256270 -0.032650 1323 0.433359 -0.637138 0.605780
-0.488480 0.256620 -0.032270 1321 0.423718 -0.632102 0.611248
-0.488250 0.256500 -0.031830 1311 0.427028 -0.633829 0.617579
-0.488140 0.256440 -0.031400 1313 0.428611 -0.634692 0.623766
-0.488100 0.256420 -0.030970 1307 0.429186 -0.634980 0.629953
-0.488180 0.256460 -0.030550 1307 0.428035 -0.634404 0.635996
-0.488460 0.256610 -0.030150 1293 0.424006 -0.632246 0.641752
-0.488740 0.256760 -0.029740 1283 0.419977 -0.630088 0.647651
-0.489210 0.257010 -0.029340 1285 0.413215 -0.626490 0.653406
-0.489690 0.257260 -0.028940 1281 0.406308 -0.622893 0.659162
-0.489770 0.257300 -0.028520 1277 0.405157 -0.622318 0.665205
-0.490120 0.257480 -0.028120 1275 0.400121 -0.619728 0.670960
-0.490330 0.257600 -0.027700 1271 0.397099 -0.618001 0.677003
-0.490470 0.257670 -0.027280 1265 0.395085 -0.616994 0.683047
-0.491540 0.258230 -0.026920 1267 0.379689 -0.608936 0.688226
-0.491620 0.258270 -0.026490 1261 0.378538 -0.608361 0.694413
-0.491570 0.258250 -0.026060 1251 0.379258 -0.608649 0.700601
-0.491590 0.258260 -0.025640 1247 0.378970 -0.608505 0.706644
-0.491860 0.258400 -0.025220 1239 0.375085 -0.606491 0.712687
-0.492140 0.258540 -0.024810 1229 0.371056 -0.604476 0.718586
-0.492740 0.258860 -0.024410 1227 0.362423 -0.599872 0.724342
-0.494050 0.259550 -0.024050 1225 0.343574 -0.589944 0.729521
-0.494530 0.259800 -0.023640 1221 0.336668 -0.586347 0.735421
-0.495130 0.260120 -0.023240 1215 0.328035 -0.581742 0.741176
-0.495210 0.260160 -0.022810 1215 0.326884 -0.581167 0.747363
-0.495670 0.260400 -0.022400 1217 0.320265 -0.577714 0.753262
-0.496730 0.260960 -0.022020 1215 0.305013 -0.569656 0.758730
-0.497200 0.261210 -0.021610 1209 0.298250 -0.566059 0.764629
-0.497470 0.261350 -0.021190 1191 0.294366 -0.564044 0.770672
-0.497230 0.261220 -0.020740 1179 0.297819 -0.565915 0.777147
-0.497430 0.261330 -0.020320 1167 0.294941 -0.564332 0.783190
-0.498480 0.261880 -0.019930 1161 0.279834 -0.556418 0.788802
-0.499600 0.262470 -0.019540 1155 0.263718 -0.547929 0.794413
-0.501050 0.263230 -0.019160 1155 0.242855 -0.536994 0.799881
-0.501900 0.263680 -0.018760 1155 0.230625 -0.530519 0.805636
-0.502240 0.263860 -0.018330 1155 0.225733 -0.527929 0.811824
-0.503090 0.264310 -0.017930 1147 0.213502 -0.521454 0.817579
-0.503300 0.264420 -0.017500 1125 0.210481 -0.519872 0.823766
-0.503120 0.264320 -0.017050 1109 0.213071 -0.521311 0.830241
-0.504230 0.264910 -0.016650 1103 0.197099 -0.512821 0.835996
-0.505670 0.265660 -0.016260 1089 0.176380 -0.502030 0.841608
-0.506200 0.265940 -0.015840 1069 0.168754 -0.498001 0.847651
-0.506470 0.266080 -0.015410 1055 0.164869 -0.495987 0.853838
-0.508230 0.267010 -0.015020 1047 0.139546 -0.482606 0.859449
-0.509420 0.267640 -0.014610 1037 0.122424 -0.473541 0.865349
-0.510010 0.267950 -0.014190 1013 0.113934 -0.469080 0.871392
-0.511190 0.268570 -0.013780 993 0.096956 -0.460159 0.877291
-0.511980 0.268980 -0.013350 977 0.085589 -0.454260 0.883478
-0.513280 0.269670 -0.012940 957 0.066884 -0.444332 0.889377
-0.515300 0.270730 -0.012540 935 0.037819 -0.429081 0.895133
-0.503820 0.265190 -0.132640 901 0.202999 -0.508793 -0.832925
-0.502130 0.264300 -0.131730 931 0.227316 -0.521599 -0.819831
-0.500380 0.263380 -0.130820 961 0.252496 -0.534836 -0.806738
-0.499150 0.262730 -0.130040 983 0.270193 -0.544188 -0.795515
-0.498410 0.262340 -0.129390 1005 0.280841 -0.549800 -0.786162
-0.497170 0.261690 -0.128620 1015 0.298682 -0.559152 -0.775083
-0.496500 0.261330 -0.127990 1027 0.308323 -0.564332 -0.766018
-0.495450 0.260780 -0.127270 1045 0.323431 -0.572246 -0.755658
-0.494710 0.260390 -0.126630 1055 0.334078 -0.577857 -0.746450
-0.494480 0.260270 -0.126120 1073 0.337387 -0.579584 -0.739112
-0.493930 0.259980 -0.125530 1093 0.345301 -0.583757 -0.730623
-0.493190 0.259590 -0.124890 1105 0.355949 -0.589368 -0.721414
-0.492010 0.258970 -0.124140 1115 0.372927 -0.598289 -0.710623
-0.491270 0.258580 -0.123510 1125 0.383574 -0.603901 -0.701558
-0.490030 0.257920 -0.122750 1135 0.401416 -0.613397 -0.690623
-0.489470 0.257630 -0.122170 1137 0.409474 -0.617570 -0.682277
-0.489490 0.257640 -0.121730 1145 0.409186 -0.617426 -0.675946
-0.489580 0.257680 -0.121300 1149 0.407891 -0.616850 -0.669759
-0.489280 0.257530 -0.120780 1157 0.412208 -0.619008 -0.662277
-0.488350 0.257040 -0.120110 1173 0.425589 -0.626059 -0.652637
-0.488170 0.256940 -0.119620 1189 0.428179 -0.627498 -0.645587
-0.487620 0.256650 -0.119040 1189 0.436092 -0.631670 -0.637241
-0.486870 0.256260 -0.118420 1197 0.446884 -0.637282 -0.628320
-0.487210 0.256440 -0.118060 1205 0.441992 -0.634692 -0.623141
-0.487160 0.256410 -0.117610 1215 0.442711 -0.635123 -0.616666
-0.485660 0.255620 -0.116800 1221 0.464294 -0.646490 -0.605011
-0.484970 0.255260 -0.116200 1225 0.474222 -0.651670 -0.596378
-0.484790 0.255160 -0.115720 1231 0.476812 -0.653109 -0.589471
-0.483860 0.254670 -0.115060 1237 0.490193 -0.660160 -0.579975
-0.483490 0.254480 -0.114530 1237 0.495517 -0.662893 -0.572349
-0.483760 0.254620 -0.114160 1245 0.491632 -0.660879 -0.567025
-0.483080 0.254260 -0.113560 1249 0.501416 -0.666059 -0.558392
-0.482830 0.254130 -0.113060 1251 0.505013 -0.667929 -0.551198
-0.482650 0.254030 -0.112580 1247 0.507603 -0.669368 -0.544292
-0.482290 0.253840 -0.112060 1251 0.512783 -0.672102 -0.536810
-0.482550 0.253980 -0.111690 1259 0.509042 -0.670087 -0.531486
-0.482760 0.254090 -0.111300 1265 0.506020 -0.668505 -0.525874
-0.482450 0.253930 -0.110790 1275 0.510481 -0.670807 -0.518536
-0.482210 0.253800 -0.110300 1285 0.513934 -0.672677 -0.511486
-0.482030 0.253700 -0.109820 1291 0.516524 -0.674117 -0.504579
-0.481590 0.253470 -0.109290 1297 0.522855 -0.677426 -0.496953
-0.480960 0.253140 -0.108710 1305 0.531920 -0.682174 -0.488608
-0.480150 0.252720 -0.108100 1299 0.543574 -0.688217 -0.479831
-0.479960 0.252620 -0.107620 1295 0.546308 -0.689656 -0.472925
-0.479460 0.252350 -0.107080 1299 0.553502 -0.693541 -0.465155
-0.478960 0.252090 -0.106540 1301 0.560697 -0.697282 -0.457385
-0.479680 0.252470 -0.106260 1317 0.550337 -0.691814 -0.453356
-0.479300 0.252270 -0.105750 1321 0.555805 -0.694692 -0.446018
-0.478740 0.251970 -0.105190 1321 0.563862 -0.699009 -0.437961
-0.478300 0.251740 -0.104660 1321 0.570193 -0.702318 -0.430335
-0.478180 0.251670 -0.104210 1329 0.571920 -0.703325 -0.423860
-0.478380 0.251780 -0.103820 1339 0.569042 -0.701742 -0.418248
-0.477930 0.251550 -0.103290 1337 0.575517 -0.705052 -0.410623
-0.477810 0.251480 -0.102840 1335 0.577244 -0.706059 -0.404148
-0.477690 0.251420 -0.102380 1333 0.578970 -0.706922 -0.397529
-0.477060 0.251080 -0.101820 1339 0.588035 -0.711814 -0.389471
-0.476360 0.250720 -0.101240 1333 0.598107 -0.716994 -0.381126
-0.476810 0.250950 -0.100910 1335 0.591632 -0.713685 -0.376378
-0.476760 0.250930 -0.100470 1339 0.592351 -0.713972 -0.370047
-0.476180 0.250620 -0.099920 1337 0.600697 -0.718433 -0.362133
-0.476130 0.250590 -0.099480 1341 0.601416 -0.718865 -0.355802
-0.475930 0.250490 -0.099020 1341 0.604294 -0.720303 -0.349184
-0.476380 0.250730 -0.098680 1347 0.597819 -0.716850 -0.344292
-0.476640 0.250870 -0.098310 1363 0.594078 -0.714836 -0.338968
-0.475750 0.250400 -0.097700 1353 0.606884 -0.721598 -0.330191
-0.475500 0.250270 -0.097220 1347 0.610481 -0.723469 -0.323284
-0.475820 0.250430 -0.096860 1361 0.605877 -0.721167 -0.318105
-0.475310 0.250170 -0.096330 1361 0.613215 -0.724908 -0.310479
-0.475510 0.250270 -0.095940 1355 0.610337 -0.723469 -0.304867
-0.476080 0.250570 -0.095630 1367 0.602136 -0.719152 -0.300407
-0.475700 0.250370 -0.095130 1371 0.607603 -0.722030 -0.293212
-0.475250 0.250130 -0.094620 1377 0.614078 -0.725483 -0.285874
-0.475890 0.250470 -0.094320 1381 0.604869 -0.720591 -0.281558
-0.476080 0.250570 -0.093930 1379 0.602136 -0.719152 -0.275946
-0.475000 0.250000 -0.093290 1369 0.617675 -0.727354 -0.266738
-0.474490 0.249730 -0.092770 1371 0.625013 -0.731239 -0.259256
-0.473710 0.249320 -0.092190 1371 0.636236 -0.737138 -0.250910
-0.473080 0.248990 -0.091650 1375 0.645301 -0.741886 -0.243141
-0.472950 0.248920 -0.091200 1371 0.647171 -0.742893 -0.236666
-0.473260 0.249080 -0.090840 1375 0.642711 -0.740591 -0.231486
-0.473580 0.249250 -0.090470 1385 0.638107 -0.738145 -0.226162
-0.473060 0.248980 -0.089950 1389 0.645589 -0.742030 -0.218680
-0.473060 0.248980 -0.089530 1383 0.645589 -0.742030 -0.212637
-0.473700 0.249310 -0.089230 1385 0.636380 -0.737282 -0.208320
-0.473820 0.249380 -0.088830 1387 0.634654 -0.736275 -0.202565
-0.474070 0.249510 -0.088450 1401 0.631056 -0.734404 -0.197097
-0.473940 0.249440 -0.088010 1399 0.632927 -0.735411 -0.190766
-0.473360 0.249140 -0.087480 1393 0.641272 -0.739728 -0.183141
-0.472840 0.248860 -0.086960 1389 0.648754 -0.743757 -0.175659
-0.473290 0.249100 -0.086620 1399 0.642280 -0.740303 -0.170766
-0.474050 0.249500 -0.086340 1401 0.631344 -0.734548 -0.166738
-0.474620 0.249800 -0.086020 1395 0.623143 -0.730232 -0.162133
-0.475130 0.250070 -0.085690 1407 0.615805 -0.726346 -0.157385
-0.474800 0.249900 -0.085210 1407 0.620553 -0.728793 -0.150479
-0.474020 0.249480 -0.084650 1411 0.631776 -0.734836 -0.142421
-0.472480 0.248670 -0.083950 1397 0.653934 -0.746491 -0.132349
-0.471830 0.248330 -0.083420 1391 0.663287 -0.751383 -0.124723
-0.471960 0.248400 -0.083020 1389 0.661416 -0.750375 -0.118968
-0.471750 0.248290 -0.082560 1393 0.664438 -0.751958 -0.112349
-0.471680 0.248250 -0.082130 1395 0.665445 -0.752534 -0.106162
-0.471990 0.248410 -0.081770 1401 0.660985 -0.750231 -0.100982
-0.472430 0.248650 -0.081420 1409 0.654654 -0.746778 -0.095946
-0.472490 0.248680 -0.081010 1405 0.653790 -0.746347 -0.090047
-0.471970 0.248400 -0.080510 1399 0.661272 -0.750375 -0.082853
-0.471890 0.248360 -0.080070 1397 0.662423 -0.750951 -0.076522
-0.472850 0.248860 -0.079820 1405 0.648610 -0.743757 -0.072925
-0.472960 0.248920 -0.079420 1401 0.647028 -0.742893 -0.067169
-0.472570 0.248720 -0.078930 1399 0.652639 -0.745771 -0.060119
-0.472490 0.248680 -0.078500 1405 0.653790 -0.746347 -0.053932
-0.472350 0.248600 -0.078060 1409 0.655805 -0.747498 -0.047601
-0.472020 0.248430 -0.077580 1395 0.660553 -0.749944 -0.040694
-0.472140 0.248490 -0.077190 1403 0.658826 -0.749080 -0.035083
-0.472700 0.248790 -0.076860 1407 0.650769 -0.744764 -0.030335
-0.473650 0.249290 -0.076590 1413 0.637100 -0.737570 -0.026450
-0.473650 0.249290 -0.076170 1421 0.637100 -0.737570 -0.020407
-0.472990 0.248940 -0.075650 1409 0.646596 -0.742606 -0.012925
-0.472910 0.248900 -0.075220 1409 0.647747 -0.743181 -0.006738
-0.472510 0.248690 -0.074740 1403 0.653502 -0.746203 0.000169
-0.471920 0.248380 -0.074230 1405 0.661991 -0.750663 0.007507
-0.472550 0.248710 -0.073910 1419 0.652927 -0.745915 0.012111
-0.473300 0.249100 -0.073610 1437 0.642135 -0.740303 0.016428
-0.472260 0.248560 -0.073030 1421 0.657100 -0.748073 0.024773
-0.471530 0.248170 -0.072500 1415 0.667603 -0.753685 0.032399
-0.471390 0.248100 -0.072060 1423 0.669617 -0.754692 0.038730
-0.471320 0.248060 -0.071630 1421 0.670625 -0.755267 0.044917
-0.472850 0.248860 -0.071450 1423 0.648610 -0.743757 0.047507
-0.473470 0.249200 -0.071120 1423 0.639690 -0.738865 0.052255
-0.472620 0.248740 -0.070580 1431 0.651920 -0.745483 0.060025
-0.472410 0.248640 -0.070130 1421 0.654941 -0.746922 0.066500
-0.472260 0.248550 -0.069690 1409 0.657100 -0.748217 0.072831
-0.472440 0.248650 -0.069300 1409 0.654510 -0.746778 0.078442
-0.472810 0.248840 -0.068940 1413 0.649186 -0.744044 0.083622
-0.472790 0.248840 -0.068520 1407 0.649474 -0.744044 0.089665
-0.472960 0.248930 -0.068120 1417 0.647028 -0.742749 0.095421
-0.473010 0.248950 -0.067710 1415 0.646308 -0.742462 0.101320
-0.473050 0.248970 -0.067300 1421 0.645733 -0.742174 0.107219
-0.473100 0.249000 -0.066890 1421 0.645013 -0.741742 0.113118
-0.473220 0.249060 -0.066490 1421 0.643287 -0.740879 0.118874
-0.473190 0.249050 -0.066070 1417 0.643718 -0.741023 0.124917
-0.473430 0.249170 -0.065690 1423 0.640265 -0.739296 0.130385
-0.473600 0.249260 -0.065290 1427 0.637819 -0.738001 0.136140
-0.473520 0.249220 -0.064870 1419 0.638970 -0.738577 0.142183
-0.473240 0.249070 -0.064410 1421 0.642999 -0.740735 0.148802
-0.473160 0.249030 -0.063980 1421 0.644150 -0.741311 0.154989
-0.473010 0.248950 -0.063550 1419 0.646308 -0.742462 0.161176
-0.472980 0.248930 -0.063130 1413 0.646740 -0.742749 0.167219
-0.473150 0.249030 -0.062730 1417 0.644294 -0.741311 0.172975
-0.472680 0.248780 -0.062260 1415 0.651056 -0.744908 0.179737
-0.472400 0.248630 -0.061800 1403 0.655085 -0.747066 0.186356
-0.473220 0.249060 -0.061490 1413 0.643287 -0.740879 0.190816
-0.473840 0.249390 -0.061160 1421 0.634366 -0.736131 0.195565
-0.474010 0.249480 -0.060760 1425 0.631920 -0.734836 0.201320
-0.473600 0.249260 -0.060290 1405 0.637819 -0.738001 0.208082
-0.473520 0.249220 -0.059870 1405 0.638970 -0.738577 0.214126
-0.474330 0.249650 -0.059550 1413 0.627315 -0.732390 0.218730
-0.474300 0.249630 -0.059130 1409 0.627747 -0.732677 0.224773
-0.473890 0.249410 -0.058670 1405 0.633646 -0.735843 0.231392
-0.474510 0.249740 -0.058330 1415 0.624725 -0.731095 0.236284
-0.474550 0.249760 -0.057910 1401 0.624150 -0.730807 0.242327
-0.474400 0.249680 -0.057480 1401 0.626308 -0.731958 0.248514
-0.475150 0.250080 -0.057150 1401 0.615517 -0.726203 0.253262
-0.475440 0.250230 -0.056770 1407 0.611344 -0.724044 0.258730
-0.475290 0.250150 -0.056340 1411 0.613502 -0.725196 0.264917
-0.474680 0.249830 -0.055850 1401 0.622279 -0.729800 0.271967
-0.474200 0.249580 -0.055380 1393 0.629186 -0.733397 0.278730
-0.474300 0.249630 -0.054970 1391 0.627747 -0.732677 0.284629
-0.474530 0.249750 -0.054580 1391 0.624438 -0.730951 0.290241
-0.474950 0.249980 -0.054210 1399 0.618395 -0.727642 0.295565
-0.474600 0.249790 -0.053760 1399 0.623431 -0.730375 0.302039
-0.474580 0.249780 -0.053340 1403 0.623718 -0.730519 0.308083
-0.474940 0.249970 -0.052960 1401 0.618538 -0.727785 0.313550
-0.474710 0.249850 -0.052520 1393 0.621848 -0.729512 0.319881
-0.475910 0.250480 -0.052240 1393 0.604581 -0.720447 0.323910
-0.476980 0.251050 -0.051940 1405 0.589186 -0.712246 0.328226
-0.476310 0.250690 -0.051450 1403 0.598826 -0.717426 0.335277
-0.476090 0.250570 -0.051010 1395 0.601991 -0.719152 0.341608
-0.476510 0.250790 -0.050630 1389 0.595949 -0.715987 0.347075
-0.476990 0.251050 -0.050270 1387 0.589042 -0.712246 0.352255
-0.477220 0.251170 -0.049870 1383 0.585733 -0.710519 0.358011
-0.477000 0.251050 -0.049430 1385 0.588898 -0.712246 0.364341
-0.476770 0.250930 -0.048990 1389 0.592207 -0.713972 0.370672
-0.476740 0.250910 -0.048570 1387 0.592639 -0.714260 0.376716
-0.476900 0.251000 -0.048170 1383 0.590337 -0.712965 0.382471
-0.477190 0.251150 -0.047780 1379 0.586165 -0.710807 0.388083
-0.477550 0.251340 -0.047400 1367 0.580984 -0.708073 0.393550
-0.477840 0.251490 -0.047010 1377 0.576812 -0.705915 0.399162
-0.477670 0.251410 -0.046580 1379 0.579258 -0.707066 0.405349
-0.477510 0.251320 -0.046150 1373 0.581560 -0.708361 0.411536
-0.477680 0.251410 -0.045740 1369 0.579114 -0.707066 0.417435
-0.478020 0.251590 -0.045360 1375 0.574222 -0.704476 0.422903
-0.479090 0.252160 -0.045040 1379 0.558826 -0.696274 0.427507
-0.479830 0.252550 -0.044690 1383 0.548179 -0.690663 0.432543
-0.479350 0.252290 -0.044230 1377 0.555085 -0.694404 0.439162
-0.479830 0.252540 -0.043850 1383 0.548179 -0.690807 0.444629
-0.480050 0.252660 -0.043450 1379 0.545013 -0.689080 0.450385
-0.478790 0.251990 -0.042920 1359 0.563143 -0.698721 0.458011
-0.479140 0.252180 -0.042530 1361 0.558107 -0.695987 0.463622
-0.480080 0.252680 -0.042200 1353 0.544581 -0.688793 0.468370
-0.480360 0.252830 -0.041800 1353 0.540553 -0.686634 0.474126
-0.480780 0.253040 -0.041420 1357 0.534510 -0.683613 0.479593
-0.480670 0.252990 -0.040990 1361 0.536092 -0.684332 0.485780
-0.480900 0.253110 -0.040590 1363 0.532783 -0.682606 0.491536
-0.481440 0.253400 -0.040220 1357 0.525013 -0.678433 0.496859
-0.480960 0.253140 -0.039760 1351 0.531920 -0.682174 0.503478
-0.481630 0.253490 -0.039390 1351 0.522280 -0.677138 0.508802
-0.482240 0.253810 -0.039020 1349 0.513503 -0.672534 0.514126
-0.482460 0.253930 -0.038620 1345 0.510337 -0.670807 0.519881
-0.482810 0.254120 -0.038230 1341 0.505301 -0.668073 0.525493
-0.482380 0.253890 -0.037770 1341 0.511488 -0.671382 0.532111
-0.482150 0.253770 -0.037330 1347 0.514798 -0.673109 0.538442
