768
-9.851865 -8.566781 -0.135404 1009 0.872495 -0.225191 0.356392
-9.853842 -8.568467 -0.131424 967 0.844050 -0.249451 0.413659
-9.857184 -8.571361 -0.127445 915 0.795954 -0.291083 0.470911
-9.864264 -8.572510 -0.203787 771 0.694097 -0.307618 -0.627536
-9.859900 -8.568690 -0.199692 901 0.756874 -0.252662 -0.568615
-9.855750 -8.565067 -0.195595 965 0.816592 -0.200532 -0.509665
-9.852980 -8.562637 -0.191542 1011 0.856454 -0.165569 -0.451348
-9.850880 -8.560796 -0.187492 1047 0.886670 -0.139072 -0.393075
-9.848274 -8.558513 -0.183437 1067 0.924158 -0.106221 -0.334730
-9.847168 -8.557529 -0.179415 1097 0.940076 -0.092074 -0.276859
-9.846434 -8.556866 -0.175398 1111 0.950642 -0.082524 -0.219061
-9.845543 -8.556076 -0.171373 1133 0.963458 -0.071162 -0.161147
-9.845200 -8.555758 -0.167366 1133 0.968398 -0.066593 -0.103492
-9.844971 -8.555538 -0.163357 1125 0.971691 -0.063423 -0.045809
-9.844961 -8.555507 -0.159347 1135 0.971828 -0.062970 0.011889
-9.844839 -8.555377 -0.155338 1133 0.973585 -0.061104 0.069572
-9.845428 -8.555879 -0.151344 1121 0.965105 -0.068322 0.127040
-9.847454 -8.557614 -0.147364 1125 0.935959 -0.093295 0.184306
-9.848661 -8.558642 -0.143375 1115 0.918587 -0.108088 0.241702
-9.848973 -8.558899 -0.139364 1095 0.914100 -0.111779 0.299414
-9.850060 -8.559820 -0.135378 1057 0.898457 -0.125034 0.356767
-9.852535 -8.561943 -0.131393 1027 0.862849 -0.155579 0.414105
-9.855544 -8.564548 -0.127416 993 0.819556 -0.193054 0.471328
-9.858239 -8.566860 -0.123442 933 0.780778 -0.226330 0.528508
-9.862023 -8.570131 -0.119470 859 0.726329 -0.273396 0.585659
-9.866433 -8.569024 -0.207807 781 0.662879 -0.257465 -0.685377
-9.861962 -8.565114 -0.203703 905 0.727208 -0.201205 -0.626327
-9.858303 -8.561920 -0.199623 981 0.779859 -0.155250 -0.567622
-9.854992 -8.559028 -0.195553 1029 0.827501 -0.113631 -0.509061
-9.852222 -8.556597 -0.191498 1063 0.867350 -0.078654 -0.450715
-9.849453 -8.554167 -0.187443 1085 0.907198 -0.043691 -0.392370
-9.848121 -8.552999 -0.183411 1125 0.926368 -0.026881 -0.334356
-9.847891 -8.552778 -0.179403 1151 0.929675 -0.023712 -0.276687
-9.846395 -8.551450 -0.175371 1163 0.951204 -0.004597 -0.218672
-9.844785 -8.550036 -0.171341 1155 0.974367 0.015739 -0.160687
-9.844712 -8.549955 -0.167332 1167 0.975410 0.016905 -0.103003
-9.844654 -8.549875 -0.163332 1171 0.976247 0.018058 -0.045449
-9.844581 -8.549794 -0.159323 1175 0.977304 0.019224 0.012234
-9.845070 -8.550199 -0.155329 1175 0.970264 0.013406 0.069702
-9.845496 -8.550553 -0.151327 1159 0.964130 0.008302 0.127285
-9.846205 -8.551146 -0.147333 1145 0.953935 -0.000220 0.184752
-9.846957 -8.551782 -0.143339 1137 0.943108 -0.009372 0.242220
-9.847767 -8.552458 -0.139334 1121 0.931459 -0.019101 0.299846
-9.849354 -8.553815 -0.135355 1113 0.908625 -0.038627 0.357098
-9.851600 -8.555756 -0.131372 1095 0.876310 -0.066551 0.414407
-9.854352 -8.558122 -0.127396 1061 0.836709 -0.100595 0.471616
-9.857317 -8.560672 -0.123419 1017 0.794047 -0.137288 0.528839
-9.860448 -8.563368 -0.119442 953 0.748998 -0.176080 0.586062
-9.864295 -8.566689 -0.115471 875 0.693644 -0.223860 0.643198
-9.864457 -8.561810 -0.207731 901 0.691311 -0.153658 -0.684284
-9.860584 -8.558434 -0.203644 985 0.747036 -0.105083 -0.625478
-9.856769 -8.555099 -0.199566 1027 0.801937 -0.057097 -0.566802
-9.853508 -8.552241 -0.195494 1075 0.848852 -0.015986 -0.508212
-9.851022 -8.550063 -0.191448 1105 0.884626 0.015355 -0.449996
-9.849349 -8.548602 -0.187408 1135 0.908694 0.036377 -0.391866
-9.847903 -8.547323 -0.183376 1153 0.929496 0.054778 -0.333852
-9.847012 -8.546533 -0.179361 1167 0.942326 0.066153 -0.276082
-9.846397 -8.545976 -0.175344 1173 0.951163 0.074167 -0.218284
-9.846062 -8.545664 -0.171337 1187 0.955993 0.078654 -0.160629
-9.845441 -8.545099 -0.167320 1191 0.964926 0.086778 -0.102830
-9.844992 -8.544690 -0.163313 1199 0.971389 0.092664 -0.045176
-9.844868 -8.544560 -0.159304 1193 0.973173 0.094530 0.012508
-9.844851 -8.544536 -0.155304 1191 0.973420 0.094887 0.070062
-9.845000 -8.544644 -0.151302 1179 0.971266 0.093323 0.127644
-9.845923 -8.545420 -0.147308 1175 0.957983 0.082167 0.185112
-9.846967 -8.546300 -0.143322 1169 0.942971 0.069502 0.242464
-9.847834 -8.547034 -0.139326 1157 0.930498 0.058936 0.299961
-9.849526 -8.548482 -0.135338 1141 0.906142 0.038106 0.357342
-9.851724 -8.550372 -0.131355 1121 0.874526 0.010909 0.414652
-9.853856 -8.552199 -0.127373 1101 0.843844 -0.015382 0.471947
-9.856274 -8.554280 -0.123400 1061 0.809059 -0.045324 0.529112
-9.859240 -8.556829 -0.119411 1011 0.766384 -0.082002 0.586508
-9.862974 -8.560052 -0.115440 943 0.712649 -0.128369 0.643644
-9.867377 -8.563849 -0.111477 861 0.649294 -0.183009 0.700666
-9.867914 -8.559640 -0.211773 879 0.641569 -0.122441 -0.742442
-9.863872 -8.556108 -0.207685 963 0.699736 -0.071628 -0.683622
-9.860112 -8.552830 -0.203607 1029 0.753828 -0.024452 -0.624945
-9.856844 -8.549979 -0.199535 1079 0.800853 0.016562 -0.566356
-9.853969 -8.547459 -0.195473 1113 0.842225 0.052829 -0.507910
-9.851803 -8.545568 -0.191435 1143 0.873387 0.080026 -0.449809
-9.850037 -8.544015 -0.187395 1159 0.898800 0.102379 -0.391679
-9.849202 -8.543267 -0.183380 1181 0.910807 0.113137 -0.333910
-9.848034 -8.542234 -0.179346 1193 0.927616 0.127998 -0.275866
-9.846530 -8.540912 -0.175325 1205 0.949256 0.147031 -0.218010
-9.846302 -8.540691 -0.171316 1215 0.952535 0.150200 -0.160327
-9.845460 -8.539938 -0.167301 1201 0.964652 0.161041 -0.102557
-9.844733 -8.539295 -0.163286 1199 0.975108 0.170289 -0.044787
-9.845051 -8.539545 -0.159284 1207 0.970539 0.166694 0.012795
-9.845874 -8.540236 -0.155300 1211 0.958697 0.156746 0.070119
-9.846514 -8.540772 -0.151306 1213 0.949489 0.149034 0.127587
-9.847110 -8.541268 -0.147303 1211 0.940913 0.141899 0.185184
-9.847421 -8.541524 -0.143310 1195 0.936440 0.138221 0.242637
-9.848131 -8.542117 -0.139316 1181 0.926217 0.129686 0.300105
-9.849552 -8.543326 -0.135328 1173 0.905771 0.112287 0.357486
-9.850747 -8.544341 -0.131332 1147 0.888577 0.097686 0.414983
-9.852446 -8.545796 -0.127352 1121 0.864139 0.076747 0.472249
-9.855296 -8.548246 -0.123377 1097 0.823124 0.041495 0.529443
-9.858156 -8.550706 -0.119400 1067 0.781972 0.006106 0.586666
-9.861172 -8.553305 -0.115423 1013 0.738583 -0.031286 0.643889
-9.865183 -8.556759 -0.111450 939 0.680869 -0.080987 0.701054
-9.870141 -8.561048 -0.107481 845 0.609528 -0.142694 0.758162
-9.867870 -8.554542 -0.211744 943 0.642200 -0.049083 -0.742025
-9.863009 -8.550302 -0.207641 1009 0.712141 0.011924 -0.682989
-9.859628 -8.547353 -0.203562 1063 0.760799 0.054353 -0.624298
-9.857092 -8.545126 -0.199505 1103 0.797285 0.086393 -0.565924
-9.854323 -8.542710 -0.195452 1133 0.837120 0.121151 -0.507608
-9.851872 -8.540567 -0.191406 1159 0.872386 0.151984 -0.449392
-9.850442 -8.539302 -0.187374 1183 0.892968 0.170193 -0.391377
-9.849935 -8.538850 -0.183367 1199 0.900269 0.176697 -0.333723
-9.848759 -8.537809 -0.179342 1207 0.917188 0.191668 -0.275809
-9.848259 -8.537350 -0.175325 1227 0.924378 0.198282 -0.218010
-9.847538 -8.536701 -0.171310 1221 0.934752 0.207613 -0.160240
-9.847295 -8.536481 -0.167301 1229 0.938251 0.210783 -0.102557
-9.847507 -8.536637 -0.163311 1245 0.935191 0.208532 -0.045147
-9.847326 -8.536467 -0.159302 1223 0.937798 0.210988 0.012536
-9.847702 -8.536772 -0.155300 1227 0.932392 0.206597 0.070119
-9.847637 -8.536685 -0.151300 1219 0.933325 0.207846 0.127673
-9.847898 -8.536891 -0.147299 1213 0.929579 0.204882 0.185241
-9.848104 -8.537058 -0.143297 1211 0.926615 0.202481 0.242824
-9.849140 -8.537930 -0.139311 1191 0.911699 0.189939 0.300177
-9.850677 -8.539238 -0.135322 1179 0.889593 0.171113 0.357572
-9.851926 -8.540309 -0.131336 1169 0.871617 0.155703 0.414925
-9.853618 -8.541757 -0.127346 1143 0.847274 0.134873 0.472335
-9.855431 -8.543297 -0.123365 1119 0.821189 0.112712 0.529616
-9.858667 -8.546084 -0.119388 1093 0.774617 0.072603 0.586839
-9.861633 -8.548635 -0.115412 1043 0.731942 0.035910 0.644047
-9.864762 -8.551332 -0.111433 979 0.686920 -0.002909 0.701299
-9.869769 -8.555654 -0.107475 895 0.614880 -0.065083 0.758249
-9.873733 -8.559059 -0.103493 759 0.557851 -0.114084 0.815544
-9.871868 -8.552634 -0.215805 903 0.584678 -0.021639 -0.800456
-9.867333 -8.548690 -0.211700 985 0.649926 0.035114 -0.741392
-9.863838 -8.545643 -0.207621 1047 0.700217 0.078956 -0.682701
-9.860691 -8.542897 -0.203558 1091 0.745499 0.118461 -0.624241
-9.857530 -8.540137 -0.199486 1129 0.790987 0.158173 -0.565651
-9.854596 -8.537575 -0.195433 1151 0.833196 0.195044 -0.507334
-9.852659 -8.535867 -0.191393 1181 0.861065 0.219620 -0.449205
-9.851818 -8.535127 -0.187368 1205 0.873168 0.230268 -0.391291
-9.851433 -8.534766 -0.183361 1221 0.878711 0.235455 -0.333636
-9.850092 -8.533591 -0.179338 1227 0.898004 0.252360 -0.275751
-9.848867 -8.532502 -0.175316 1227 0.915623 0.268031 -0.217881
-9.848644 -8.532288 -0.171306 1245 0.918834 0.271118 -0.160183
-9.848792 -8.532396 -0.167305 1251 0.916707 0.269554 -0.102615
-9.848399 -8.532043 -0.163298 1251 0.922361 0.274631 -0.044960
-9.847828 -8.531528 -0.159292 1243 0.930580 0.282041 0.012680
-9.847982 -8.531643 -0.155290 1235 0.928357 0.280394 0.070263
-9.848082 -8.531703 -0.151291 1229 0.926930 0.279529 0.127803
-9.848735 -8.532254 -0.147297 1231 0.917531 0.271598 0.185270
-9.849273 -8.532693 -0.143303 1231 0.909792 0.265286 0.242738
-9.849749 -8.533082 -0.139301 1219 0.902944 0.259688 0.300321
-9.851227 -8.534348 -0.135322 1211 0.881675 0.241479 0.357572
-9.852919 -8.535797 -0.131332 1193 0.857333 0.220621 0.414983
-9.854341 -8.537006 -0.127344 1177 0.836873 0.203222 0.472364
-9.855825 -8.538265 -0.123356 1159 0.815508 0.185109 0.529745
-9.858458 -8.540528 -0.119381 1119 0.777636 0.152547 0.586939
-9.861693 -8.543315 -0.115402 1077 0.731077 0.112451 0.644191
-9.865157 -8.546286 -0.111433 1029 0.681239 0.069707 0.701299
-9.870108 -8.550553 -0.107466 965 0.610009 0.008302 0.758378
-9.874960 -8.554737 -0.103498 859 0.540191 -0.051896 0.815472
-9.872278 -8.547704 -0.215774 935 0.578777 0.049303 -0.800010
-9.867679 -8.543709 -0.211670 1007 0.644958 0.106784 -0.740960
-9.864019 -8.540515 -0.207590 1059 0.697609 0.152739 -0.682255
-9.860646 -8.537573 -0.203520 1105 0.746144 0.195071 -0.623694
-9.857876 -8.535157 -0.199467 1143 0.786006 0.229829 -0.565377
-9.856329 -8.533792 -0.195425 1179 0.808263 0.249478 -0.507219
-9.854719 -8.532379 -0.191395 1201 0.831426 0.269801 -0.449233
-9.853161 -8.531015 -0.187363 1217 0.853847 0.289423 -0.391219
-9.852105 -8.530080 -0.183349 1231 0.869037 0.302884 -0.333464
-9.850873 -8.528996 -0.179325 1245 0.886766 0.318472 -0.275564
-9.850536 -8.528686 -0.175318 1249 0.891610 0.322946 -0.217910
-9.850477 -8.528605 -0.171308 1247 0.892461 0.324098 -0.160212
-9.850079 -8.528242 -0.167301 1249 0.898197 0.329326 -0.102557
-9.849578 -8.527783 -0.163294 1255 0.905401 0.335927 -0.044902
-9.849007 -8.527269 -0.159286 1253 0.913620 0.343323 0.012767
-9.849162 -8.527385 -0.155287 1255 0.911383 0.341662 0.070306
-9.850079 -8.528168 -0.151300 1245 0.898197 0.330397 0.127673
-9.850959 -8.528900 -0.147306 1249 0.885531 0.319858 0.185141
-9.851654 -8.529479 -0.143312 1241 0.875528 0.311529 0.242608
-9.852194 -8.529932 -0.139318 1235 0.867761 0.305011 0.300076
-9.852179 -8.529894 -0.135319 1209 0.867981 0.305560 0.357616
-9.853928 -8.531398 -0.131328 1205 0.842815 0.283920 0.415040
-9.856017 -8.533183 -0.127357 1193 0.812750 0.258233 0.472177
-9.858035 -8.534912 -0.123365 1175 0.783714 0.233355 0.529616
-9.860284 -8.536839 -0.119392 1147 0.751358 0.205637 0.586781
-9.862260 -8.538525 -0.115402 1101 0.722926 0.181377 0.644191
-9.865666 -8.541452 -0.111433 1049 0.673912 0.139250 0.701299
-9.870127 -8.545292 -0.107458 995 0.609734 0.084006 0.758493
-9.874417 -8.548993 -0.103493 905 0.547999 0.030751 0.815544
-9.877994 -8.552061 -0.099512 759 0.496542 -0.013393 0.872824
-9.879030 -8.548400 -0.219887 869 0.481626 0.039286 -0.859190
-9.873286 -8.543404 -0.215759 967 0.564273 0.111175 -0.799794
-9.869406 -8.540034 -0.211672 1043 0.620108 0.159655 -0.740989
-9.865355 -8.536510 -0.207584 1095 0.678399 0.210357 -0.682169
-9.862317 -8.533855 -0.203522 1129 0.722103 0.248559 -0.623722
-9.860600 -8.532351 -0.199482 1163 0.746802 0.270212 -0.565593
-9.858384 -8.530413 -0.195434 1195 0.778692 0.298095 -0.507349
-9.855721 -8.528088 -0.191389 1199 0.817004 0.331549 -0.449147
-9.854610 -8.527109 -0.187366 1217 0.832990 0.345628 -0.391262
-9.854331 -8.526839 -0.183357 1249 0.837010 0.349511 -0.333579
-9.853098 -8.525756 -0.179335 1257 0.854753 0.365099 -0.275708
-9.851929 -8.524721 -0.175312 1249 0.871576 0.379988 -0.217823
-9.851706 -8.524508 -0.171303 1263 0.874787 0.383048 -0.160140
-9.851299 -8.524140 -0.167295 1275 0.880632 0.388344 -0.102471
-9.850579 -8.523491 -0.163290 1265 0.890993 0.397689 -0.044845
-9.850171 -8.523123 -0.159281 1269 0.896866 0.402986 0.012839
-9.849829 -8.522805 -0.155273 1253 0.901792 0.407555 0.070508
-9.850262 -8.523152 -0.151281 1245 0.895562 0.402560 0.127947
-9.850842 -8.523647 -0.147287 1237 0.887205 0.395439 0.185414
-9.851887 -8.524527 -0.143301 1241 0.872180 0.382787 0.242767
-9.852810 -8.525302 -0.139307 1237 0.858897 0.371631 0.300234
-9.854233 -8.526513 -0.135328 1241 0.838424 0.354204 0.357486
-9.855875 -8.527911 -0.131340 1217 0.814795 0.334088 0.414867
-9.857239 -8.529080 -0.127352 1201 0.795172 0.317265 0.472249
-9.858709 -8.530326 -0.123363 1183 0.774013 0.299344 0.529644
-9.860694 -8.532020 -0.119383 1151 0.745458 0.274974 0.586911
-9.862763 -8.533797 -0.115400 1111 0.715681 0.249396 0.644220
-9.865899 -8.536487 -0.111423 1075 0.670563 0.210700 0.701443
-9.869910 -8.539941 -0.107450 1023 0.612849 0.160999 0.758608
-9.874321 -8.543732 -0.103485 939 0.549385 0.106455 0.815659
-9.879499 -8.548197 -0.099516 817 0.474875 0.042209 0.872767
-9.878716 -8.542951 -0.219850 891 0.486141 0.117693 -0.858658
-9.873676 -8.538578 -0.215729 983 0.558661 0.180608 -0.799363
-9.869696 -8.535110 -0.211641 1049 0.615936 0.230501 -0.740543
-9.866036 -8.531930 -0.207561 1111 0.668587 0.276264 -0.681838
-9.863324 -8.529555 -0.203508 1135 0.707613 0.310431 -0.623521
-9.861386 -8.527862 -0.199468 1181 0.735496 0.334801 -0.565392
-9.859720 -8.526407 -0.195429 1211 0.759468 0.355727 -0.507276
-9.857385 -8.524364 -0.191391 1217 0.793073 0.385120 -0.449176
-9.855284 -8.522522 -0.187343 1229 0.823302 0.411631 -0.390931
-9.854663 -8.521971 -0.183336 1237 0.832235 0.419562 -0.333277
-9.854433 -8.521751 -0.179329 1259 0.835542 0.422718 -0.275622
-9.853713 -8.521103 -0.175312 1255 0.845902 0.432049 -0.217823
-9.853148 -8.520595 -0.171306 1273 0.854026 0.439363 -0.160183
-9.851860 -8.519469 -0.167284 1273 0.872564 0.455554 -0.102312
-9.851132 -8.518812 -0.163277 1279 0.883034 0.465009 -0.044658
-9.851786 -8.519364 -0.159283 1277 0.873634 0.457064 0.012810
-9.852602 -8.520049 -0.155298 1281 0.861888 0.447212 0.070148
-9.852857 -8.520248 -0.151298 1267 0.858225 0.444344 0.127702
-9.853231 -8.520554 -0.147306 1261 0.852832 0.439953 0.185141
-9.853671 -8.520908 -0.143303 1261 0.846506 0.434848 0.242738
-9.854530 -8.521634 -0.139318 1259 0.834143 0.424406 0.300076
-9.855185 -8.522171 -0.135324 1243 0.824729 0.416680 0.357544
-9.856385 -8.523191 -0.131338 1219 0.807453 0.401998 0.414896
-9.858582 -8.525068 -0.127355 1217 0.775852 0.374993 0.472206
-9.860159 -8.526419 -0.123377 1195 0.753156 0.355563 0.529443
-9.862086 -8.528056 -0.119387 1169 0.725424 0.332002 0.586853
-9.864888 -8.530458 -0.115410 1151 0.685109 0.297437 0.644076
-9.867569 -8.532755 -0.111435 1115 0.646536 0.264394 0.701270
-9.871204 -8.535880 -0.107464 1059 0.594228 0.219427 0.758407
-9.875330 -8.539433 -0.103491 993 0.534867 0.168313 0.815572
-9.881006 -8.544316 -0.099529 887 0.453194 0.098043 0.872580
-9.880834 -8.539605 -0.219850 935 0.455678 0.165830 -0.858658
-9.875573 -8.535042 -0.215740 1007 0.531368 0.231489 -0.799521
-9.870804 -8.530909 -0.211635 1065 0.599992 0.290960 -0.740456
-9.867485 -8.528008 -0.207565 1117 0.647744 0.332688 -0.681895
-9.865051 -8.525894 -0.203508 1145 0.682762 0.363110 -0.623521
-9.862772 -8.523906 -0.199463 1185 0.715558 0.391720 -0.565320
-9.860892 -8.522254 -0.195423 1209 0.742604 0.415486 -0.507190
-9.860001 -8.521466 -0.191408 1229 0.755434 0.426821 -0.449420
-9.858604 -8.520235 -0.187376 1249 0.775522 0.444536 -0.391406
-9.857165 -8.518976 -0.183353 1245 0.796229 0.462649 -0.333521
-9.857107 -8.518896 -0.179344 1257 0.797066 0.463801 -0.275838
-9.856216 -8.518107 -0.175329 1281 0.809882 0.475149 -0.218068
-9.855196 -8.517207 -0.171316 1285 0.824565 0.488103 -0.160327
-9.854860 -8.516893 -0.167307 1273 0.829395 0.492617 -0.102643
-9.853962 -8.516098 -0.163292 1269 0.842321 0.504061 -0.044874
-9.854445 -8.516495 -0.159300 1287 0.835364 0.498353 0.012565
-9.855047 -8.516997 -0.155306 1287 0.826705 0.491122 0.070033
-9.855024 -8.516965 -0.151306 1269 0.827035 0.491588 0.127587
-9.855350 -8.517222 -0.147314 1259 0.822355 0.487883 0.185026
-9.855825 -8.517612 -0.143322 1257 0.815508 0.482271 0.242464
-9.857197 -8.518772 -0.139334 1259 0.795776 0.465585 0.299846
-9.858335 -8.519744 -0.135347 1241 0.779406 0.451603 0.357213
-9.859108 -8.520386 -0.131353 1229 0.768277 0.442368 0.414680
-9.860849 -8.521870 -0.127375 1219 0.743221 0.421016 0.471918
-9.862548 -8.523325 -0.123384 1201 0.718782 0.400077 0.529342
-9.863800 -8.524381 -0.119398 1181 0.700765 0.384887 0.586695
-9.866381 -8.526593 -0.115423 1151 0.663634 0.353052 0.643889
-9.870022 -8.529711 -0.111452 1117 0.611243 0.308195 0.701026
-9.874141 -8.533257 -0.107479 1069 0.551978 0.257176 0.758191
-9.878608 -8.537089 -0.103514 999 0.487705 0.202028 0.815241
-9.882577 -8.540501 -0.099531 897 0.430594 0.152945 0.872551
-9.881508 -8.535017 -0.219828 937 0.445977 0.231846 -0.858341
-9.876902 -8.531030 -0.215732 1019 0.512253 0.289217 -0.799406
-9.873086 -8.527710 -0.211645 1077 0.567155 0.336983 -0.740600
-9.869320 -8.524438 -0.207567 1105 0.621343 0.384063 -0.681924
-9.866708 -8.522162 -0.203510 1161 0.658927 0.416804 -0.623550
-9.865218 -8.520855 -0.199480 1185 0.680361 0.435616 -0.565564
-9.863772 -8.519588 -0.195448 1203 0.701163 0.453839 -0.507550
-9.861999 -8.518029 -0.191408 1217 0.726686 0.476275 -0.449420
-9.860553 -8.516763 -0.187385 1241 0.747489 0.494497 -0.391535
-9.858936 -8.515344 -0.183355 1247 0.770747 0.514916 -0.333550
-9.858429 -8.514892 -0.179348 1273 0.778047 0.521420 -0.275895
-9.858370 -8.514811 -0.175339 1285 0.778898 0.522586 -0.218212
-9.857976 -8.514457 -0.171341 1291 0.784565 0.527677 -0.160687
-9.857136 -8.513702 -0.167326 1299 0.796654 0.538531 -0.102917
-9.856131 -8.512815 -0.163311 1295 0.811117 0.551292 -0.045147
-9.856222 -8.512883 -0.159311 1285 0.809800 0.550318 0.012407
-9.856383 -8.512991 -0.155310 1289 0.807481 0.548768 0.069975
-9.856255 -8.512869 -0.151312 1269 0.809333 0.550524 0.127501
-9.857120 -8.513589 -0.147316 1265 0.796888 0.540164 0.184997
-9.857880 -8.514231 -0.143331 1261 0.785951 0.530929 0.242335
-9.858362 -8.514627 -0.139339 1241 0.779008 0.525221 0.299774
-9.859784 -8.515837 -0.135351 1233 0.758548 0.507821 0.357155
-9.861262 -8.517089 -0.131363 1241 0.737279 0.489804 0.414536
-9.862015 -8.517724 -0.127369 1205 0.726453 0.480666 0.472004
-9.863991 -8.519410 -0.123388 1207 0.698021 0.456405 0.529285
-9.866189 -8.521288 -0.119415 1189 0.666392 0.429387 0.586450
-9.868272 -8.523066 -0.115433 1147 0.636423 0.403809 0.643745
-9.870966 -8.525363 -0.111448 1109 0.597659 0.370753 0.701083
-9.874595 -8.528480 -0.107477 1063 0.545447 0.325910 0.758220
-9.879062 -8.532312 -0.103512 1003 0.481173 0.270761 0.815270
-9.884347 -8.536868 -0.099542 913 0.405126 0.205212 0.872393
-9.888593 -8.540512 -0.095568 761 0.344036 0.152780 0.929572
-9.884445 -8.532393 -0.219852 955 0.403713 0.269595 -0.858687
-9.879519 -8.528119 -0.215750 1033 0.474587 0.331097 -0.799665
-9.876080 -8.525128 -0.211670 1101 0.524082 0.374128 -0.740960
-9.872428 -8.521955 -0.207590 1137 0.576623 0.419795 -0.682255
-9.869537 -8.519447 -0.203525 1169 0.618214 0.455870 -0.623766
-9.867494 -8.517664 -0.199488 1195 0.647620 0.481530 -0.565679
-9.865271 -8.515718 -0.195440 1217 0.679606 0.509523 -0.507435
-9.863327 -8.514017 -0.191412 1231 0.707571 0.534003 -0.449478
-9.861888 -8.512758 -0.187380 1245 0.728278 0.552116 -0.391464
-9.861268 -8.512207 -0.183363 1255 0.737197 0.560047 -0.333665
-9.860768 -8.511748 -0.179356 1277 0.744387 0.566647 -0.276010
-9.859698 -8.510813 -0.175342 1291 0.759783 0.580108 -0.218255
-9.858750 -8.509968 -0.171327 1295 0.773423 0.592266 -0.160485
-9.858130 -8.509418 -0.167311 1299 0.782342 0.600184 -0.102701
-9.857843 -8.509141 -0.163313 1293 0.786473 0.604163 -0.045176
-9.858162 -8.509404 -0.159321 1285 0.781889 0.600376 0.012263
-9.858430 -8.509604 -0.155319 1287 0.778034 0.597494 0.069846
-9.858743 -8.509860 -0.151329 1289 0.773533 0.593817 0.127256
-9.859452 -8.510453 -0.147335 1277 0.763324 0.585282 0.184724
-9.860270 -8.511137 -0.143339 1269 0.751564 0.575443 0.242220
-9.860637 -8.511436 -0.139347 1255 0.746281 0.571134 0.299659
-9.862009 -8.512596 -0.135361 1251 0.726535 0.554448 0.357011
-9.863644 -8.513989 -0.131380 1241 0.703016 0.534401 0.414292
-9.864076 -8.514337 -0.127388 1223 0.696800 0.529406 0.471731
-9.865498 -8.515546 -0.123400 1211 0.676340 0.512006 0.529112
-9.867851 -8.517563 -0.119417 1189 0.642475 0.482985 0.586421
-9.870440 -8.519769 -0.115442 1153 0.605233 0.451246 0.643616
-9.873512 -8.522409 -0.111465 1111 0.561021 0.413250 0.700839
-9.877317 -8.525673 -0.107494 1081 0.506271 0.366293 0.757975
-9.881450 -8.529220 -0.103519 1021 0.446814 0.315261 0.815170
-9.885526 -8.532709 -0.099546 915 0.388166 0.265053 0.872335
-9.890655 -8.537124 -0.095579 787 0.314369 0.201534 0.929414
-9.886229 -8.528760 -0.219852 965 0.378053 0.321875 -0.858687
-9.881410 -8.524592 -0.215750 1029 0.447390 0.381840 -0.799665
-9.877030 -8.520786 -0.211655 1085 0.510401 0.436604 -0.740744
-9.872931 -8.517228 -0.207569 1115 0.569392 0.487801 -0.681953
-9.871158 -8.515682 -0.203529 1159 0.594901 0.510044 -0.623823
-9.868992 -8.513792 -0.199491 1185 0.626063 0.537241 -0.565722
-9.866992 -8.512049 -0.195442 1211 0.654838 0.562325 -0.507464
-9.865609 -8.510832 -0.191419 1229 0.674735 0.579834 -0.449579
-9.864491 -8.509848 -0.187397 1237 0.690817 0.593995 -0.391708
-9.864318 -8.509682 -0.183397 1263 0.693314 0.596383 -0.334154
-9.863086 -8.508599 -0.179375 1279 0.711043 0.611957 -0.276284
-9.861197 -8.506942 -0.175344 1273 0.738213 0.635806 -0.218284
-9.860520 -8.506349 -0.171329 1285 0.747955 0.644341 -0.160514
-9.860789 -8.506549 -0.167337 1299 0.744086 0.641459 -0.103075
-9.860781 -8.506531 -0.163338 1295 0.744209 0.641720 -0.045536
-9.859882 -8.505736 -0.159323 1291 0.757135 0.653150 0.012234
-9.860201 -8.505984 -0.155331 1293 0.752552 0.649583 0.069673
-9.861288 -8.506907 -0.151344 1285 0.736909 0.636300 0.127040
-9.861279 -8.506876 -0.147344 1269 0.737046 0.636753 0.184594
-9.861270 -8.506845 -0.143345 1257 0.737170 0.637192 0.242134
-9.862969 -8.508286 -0.139366 1243 0.712717 0.616458 0.299385
-9.865003 -8.510029 -0.135383 1253 0.683462 0.591388 0.356695
-9.865428 -8.510369 -0.131391 1239 0.677342 0.586489 0.414134
-9.866465 -8.511243 -0.127396 1219 0.662426 0.573920 0.471616
-9.868541 -8.513014 -0.123424 1215 0.632554 0.548438 0.528767
-9.870191 -8.514421 -0.119434 1177 0.608815 0.528185 0.586177
-9.872273 -8.516199 -0.115454 1147 0.578846 0.502607 0.643443
-9.875794 -8.519211 -0.111484 1115 0.528185 0.459273 0.700565
-9.878767 -8.521753 -0.107508 1069 0.485413 0.422690 0.757774
-9.882388 -8.524864 -0.103527 1009 0.433311 0.377929 0.815054
-9.887972 -8.529657 -0.099565 925 0.352969 0.308963 0.872062
-9.893477 -8.534388 -0.095604 783 0.273753 0.240902 0.929054
-9.888503 -8.525456 -0.219871 969 0.345326 0.369408 -0.858960
-9.883783 -8.521371 -0.215759 1025 0.413236 0.428193 -0.799794
-9.879846 -8.517960 -0.211681 1085 0.469894 0.477276 -0.741118
-9.875859 -8.514499 -0.207594 1129 0.527252 0.527073 -0.682313
-9.873367 -8.512327 -0.203539 1161 0.563107 0.558318 -0.623967
-9.871929 -8.511068 -0.199507 1185 0.583800 0.576431 -0.565953
-9.869920 -8.509319 -0.195467 1203 0.612712 0.601597 -0.507823
-9.868139 -8.507766 -0.191439 1237 0.638331 0.623950 -0.449867
-9.867085 -8.506830 -0.187414 1251 0.653493 0.637411 -0.391953
-9.866856 -8.506609 -0.183405 1273 0.656800 0.640595 -0.334269
-9.865965 -8.505820 -0.179390 1275 0.669617 0.651943 -0.276500
-9.864077 -8.504176 -0.175362 1271 0.696786 0.675599 -0.218543
-9.863783 -8.503905 -0.171352 1291 0.701012 0.679496 -0.160845
-9.863555 -8.503686 -0.167354 1287 0.704292 0.682652 -0.103320
-9.862820 -8.503037 -0.163349 1291 0.714872 0.691983 -0.045694
-9.863088 -8.503238 -0.159347 1289 0.711016 0.689102 0.011889
-9.863685 -8.503733 -0.155353 1281 0.702426 0.681980 0.069357
-9.864118 -8.504094 -0.151361 1281 0.696196 0.676779 0.126795
-9.864549 -8.504441 -0.147369 1279 0.689994 0.671785 0.184234
-9.865025 -8.504830 -0.143375 1255 0.683146 0.666186 0.241702
-9.866396 -8.505992 -0.139389 1261 0.663414 0.649473 0.299055
-9.867099 -8.506577 -0.135395 1249 0.653301 0.641061 0.356522
-9.868136 -8.507451 -0.131409 1237 0.638372 0.628478 0.413875
-9.869444 -8.508563 -0.127420 1223 0.619559 0.612478 0.471270
-9.870538 -8.509478 -0.123436 1201 0.603820 0.599319 0.528594
-9.872842 -8.511445 -0.119451 1185 0.570668 0.571011 0.585932
-9.875480 -8.513700 -0.115476 1159 0.532713 0.538572 0.643126
-9.877734 -8.515619 -0.111494 1107 0.500274 0.510950 0.700421
-9.880977 -8.518400 -0.107515 1065 0.453620 0.470937 0.757673
-9.885445 -8.522233 -0.103552 1013 0.389332 0.415788 0.814695
-9.890515 -8.526576 -0.099583 913 0.316373 0.353299 0.871803
-9.896641 -8.531848 -0.095617 777 0.228237 0.277444 0.928867
-9.892108 -8.523393 -0.219904 991 0.293457 0.399102 -0.859435
-9.886735 -8.518747 -0.215784 1035 0.370767 0.465942 -0.800154
-9.883067 -8.515574 -0.211704 1091 0.423541 0.511595 -0.741449
-9.880518 -8.513348 -0.207649 1133 0.460220 0.543636 -0.683104
-9.877749 -8.510945 -0.203594 1173 0.500055 0.578201 -0.624759
-9.874581 -8.508193 -0.199533 1187 0.545639 0.617803 -0.566327
-9.872757 -8.506598 -0.195494 1201 0.571889 0.640746 -0.508212
-9.871311 -8.505333 -0.191461 1233 0.592691 0.658955 -0.450183
-9.870251 -8.504404 -0.187446 1245 0.607950 0.672320 -0.392413
-9.869965 -8.504141 -0.183439 1263 0.612067 0.676107 -0.334759
-9.868958 -8.503253 -0.179415 1271 0.626543 0.688882 -0.276859
-9.867840 -8.502269 -0.175402 1285 0.642639 0.703043 -0.219118
-9.866834 -8.501381 -0.171387 1285 0.657116 0.715818 -0.161348
-9.866712 -8.501252 -0.167377 1287 0.658872 0.717671 -0.103651
-9.865813 -8.500456 -0.163362 1279 0.671798 0.729129 -0.045881
-9.865919 -8.500524 -0.159372 1285 0.670275 0.728154 0.011529
-9.866229 -8.500779 -0.155371 1291 0.665816 0.724477 0.069098
-9.865773 -8.500362 -0.151363 1281 0.672375 0.730473 0.126767
-9.866377 -8.500864 -0.147379 1275 0.663689 0.723256 0.184090
-9.867805 -8.502067 -0.143392 1267 0.643147 0.705952 0.241457
-9.868728 -8.502843 -0.139406 1257 0.629864 0.694783 0.298810
-9.869481 -8.503477 -0.135412 1241 0.619024 0.685658 0.356278
-9.870461 -8.504295 -0.131426 1225 0.604918 0.673884 0.413630
-9.871612 -8.505266 -0.127430 1219 0.588369 0.659915 0.471126
-9.873802 -8.507135 -0.123459 1201 0.556850 0.633020 0.528263
-9.876562 -8.509496 -0.119482 1179 0.517138 0.599058 0.585486
-9.878702 -8.511316 -0.115499 1149 0.486346 0.572863 0.642795
-9.881226 -8.513473 -0.111517 1113 0.450038 0.541838 0.700090
-9.884142 -8.515958 -0.107540 1063 0.408077 0.506079 0.757313
-9.887499 -8.518838 -0.103561 997 0.359775 0.464638 0.814565
-9.892470 -8.523098 -0.099592 907 0.288243 0.403342 0.871673
-9.900197 -8.529737 -0.095650 773 0.177068 0.307810 0.928393
-9.896228 -8.521993 -0.219959 991 0.234178 0.419246 -0.860226
-9.891237 -8.517669 -0.215849 1047 0.305985 0.481461 -0.801089
-9.887351 -8.514305 -0.211759 1101 0.361902 0.529859 -0.742241
-9.883635 -8.511084 -0.207682 1137 0.415377 0.576211 -0.683579
-9.880197 -8.508106 -0.203611 1153 0.464844 0.619051 -0.625003
-9.877306 -8.505599 -0.199547 1171 0.506435 0.655126 -0.566528
-9.875091 -8.503660 -0.195509 1197 0.538311 0.683023 -0.508428
-9.874079 -8.502781 -0.191486 1229 0.552870 0.695675 -0.450543
-9.872968 -8.501803 -0.187462 1231 0.568856 0.709740 -0.392643
-9.871742 -8.500727 -0.183439 1241 0.586489 0.725232 -0.334759
-9.870069 -8.499264 -0.179409 1253 0.610571 0.746281 -0.276773
-9.869006 -8.498322 -0.175394 1257 0.625857 0.759838 -0.219003
-9.869004 -8.498297 -0.171394 1269 0.625885 0.760195 -0.161449
-9.868938 -8.498224 -0.167395 1283 0.626832 0.761238 -0.103910
-9.868873 -8.498150 -0.163395 1279 0.627778 0.762308 -0.046356
-9.869583 -8.498743 -0.159401 1279 0.617556 0.753773 0.011112
-9.869460 -8.498614 -0.155401 1283 0.619326 0.755626 0.068666
-9.868719 -8.497958 -0.151386 1275 0.629988 0.765066 0.126436
-9.869535 -8.498643 -0.147402 1277 0.618242 0.755214 0.183759
-9.870188 -8.499179 -0.143408 1261 0.608856 0.747502 0.241227
-9.871061 -8.499906 -0.139423 1253 0.596287 0.737046 0.298565
-9.871878 -8.500588 -0.135429 1239 0.584541 0.727221 0.356033
-9.872802 -8.501365 -0.131433 1209 0.571244 0.716052 0.413529
-9.874835 -8.503094 -0.127462 1217 0.541989 0.691174 0.470666
-9.876804 -8.504773 -0.123482 1197 0.513653 0.667009 0.527932
-9.878945 -8.506593 -0.119499 1167 0.482847 0.640828 0.585241
-9.881256 -8.508567 -0.115517 1141 0.449599 0.612424 0.642536
-9.883950 -8.510865 -0.111542 1099 0.410835 0.579354 0.699731
-9.886873 -8.513357 -0.107553 1049 0.368777 0.543498 0.757126
-9.891171 -8.517035 -0.103590 989 0.306932 0.490587 0.814148
-9.896142 -8.521297 -0.099623 899 0.235413 0.429249 0.871227
-9.903099 -8.527275 -0.095663 753 0.135312 0.343240 0.928205
-9.899450 -8.519806 -0.219992 963 0.187812 0.450711 -0.860701
-9.894239 -8.515306 -0.215872 1033 0.262789 0.515451 -0.801420
-9.889968 -8.511606 -0.211775 1077 0.324249 0.568692 -0.742471
-9.886032 -8.508195 -0.207699 1127 0.380880 0.617775 -0.683823
-9.882751 -8.505359 -0.203627 1151 0.428083 0.658584 -0.625233
-9.880480 -8.503377 -0.199579 1173 0.460769 0.687098 -0.566989
-9.878861 -8.501971 -0.195549 1205 0.484055 0.707324 -0.509003
-9.877032 -8.500370 -0.191509 1217 0.510374 0.730364 -0.450874
-9.875742 -8.499244 -0.187487 1231 0.528939 0.746569 -0.393003
-9.874965 -8.498553 -0.183472 1249 0.540123 0.756504 -0.335233
-9.873796 -8.497519 -0.179447 1265 0.556932 0.771392 -0.277320
-9.872670 -8.496541 -0.175434 1263 0.573138 0.785457 -0.219579
-9.872163 -8.496074 -0.171417 1281 0.580438 0.792181 -0.161780
-9.871820 -8.495770 -0.167419 1275 0.585364 0.796544 -0.104255
-9.871982 -8.495879 -0.163418 1271 0.583045 0.794980 -0.046687
-9.872072 -8.495946 -0.159418 1269 0.581741 0.794020 0.010867
-9.872120 -8.495957 -0.155416 1281 0.581055 0.793855 0.068450
-9.872162 -8.495975 -0.151417 1275 0.580451 0.793608 0.125990
-9.872374 -8.496133 -0.147426 1265 0.577405 0.791330 0.183414
-9.872963 -8.496620 -0.143432 1243 0.568925 0.784318 0.240882
-9.874220 -8.497683 -0.139446 1247 0.550840 0.769032 0.298234
-9.875209 -8.498522 -0.135450 1239 0.536610 0.756957 0.355731
-9.876188 -8.499338 -0.131464 1221 0.522518 0.745211 0.413083
-9.877326 -8.500297 -0.127478 1201 0.506147 0.731420 0.470436
-9.879586 -8.502220 -0.123495 1183 0.473626 0.703743 0.527745
-9.882174 -8.504428 -0.119520 1167 0.436399 0.671977 0.584939
-9.883873 -8.505869 -0.115532 1137 0.411946 0.651243 0.642321
-9.885729 -8.507451 -0.111551 1083 0.385243 0.628478 0.699601
-9.889156 -8.510371 -0.107571 1037 0.335927 0.586462 0.756867
-9.893845 -8.514393 -0.103605 975 0.268470 0.528596 0.813932
-9.899643 -8.519355 -0.099642 887 0.185040 0.457201 0.870954
-9.907495 -8.526091 -0.095697 733 0.072068 0.360283 0.927716
-9.903554 -8.518178 -0.220039 941 0.128767 0.474134 -0.861377
-9.898343 -8.513680 -0.215919 1013 0.203743 0.538847 -0.802097
-9.893902 -8.509839 -0.211824 1057 0.267646 0.594119 -0.743176
-9.889573 -8.506098 -0.207729 1093 0.329930 0.647950 -0.684255
-9.886683 -8.503591 -0.203665 1133 0.371508 0.684025 -0.625780
-9.884078 -8.501322 -0.199621 1173 0.408996 0.716669 -0.567593
-9.881906 -8.499439 -0.195572 1187 0.440254 0.743756 -0.509334
-9.880239 -8.497985 -0.191542 1201 0.464240 0.764682 -0.451348
-9.879348 -8.497195 -0.187517 1217 0.477057 0.776044 -0.393435
-9.878677 -8.496596 -0.183512 1247 0.486703 0.784661 -0.335809
-9.877388 -8.495471 -0.179489 1249 0.505255 0.800853 -0.277924
-9.877272 -8.495347 -0.175480 1263 0.506929 0.802637 -0.220240
-9.876815 -8.494931 -0.171472 1273 0.513502 0.808620 -0.162571
-9.875197 -8.493525 -0.167440 1255 0.536775 0.828860 -0.104557
-9.874527 -8.492927 -0.163435 1251 0.546421 0.837463 -0.046931
-9.874903 -8.493232 -0.159443 1253 0.541015 0.833072 0.010508
-9.875776 -8.493958 -0.155447 1253 0.528445 0.822616 0.068004
-9.876260 -8.494354 -0.151455 1255 0.521488 0.816922 0.125443
-9.876684 -8.494709 -0.147463 1261 0.515382 0.811817 0.182882
-9.877443 -8.495336 -0.143469 1255 0.504459 0.802802 0.240349
-9.878489 -8.496217 -0.139482 1253 0.489420 0.790123 0.297716
-9.879305 -8.496901 -0.135488 1221 0.477674 0.780284 0.355184
-9.880065 -8.497529 -0.131494 1213 0.466738 0.771241 0.412652
-9.881207 -8.498493 -0.127508 1187 0.450299 0.757368 0.470004
-9.883127 -8.500124 -0.123527 1177 0.422677 0.733904 0.527285
-9.885268 -8.501944 -0.119545 1155 0.391871 0.707722 0.584580
-9.887301 -8.503673 -0.115562 1117 0.362616 0.682845 0.641889
-9.889662 -8.505683 -0.111580 1073 0.328654 0.653919 0.699184
-9.893196 -8.508695 -0.107599 1021 0.277801 0.610585 0.756465
-9.897665 -8.512527 -0.103636 945 0.213500 0.555436 0.813486
-9.904350 -8.518253 -0.099678 841 0.117309 0.473050 0.870436
-9.908710 -8.517250 -0.220104 915 0.054586 0.487485 -0.862312
-9.902383 -8.511790 -0.215969 1013 0.145617 0.566043 -0.802816
-9.897555 -8.507614 -0.211857 1057 0.215078 0.626132 -0.743651
-9.893832 -8.504398 -0.207777 1089 0.268648 0.672402 -0.684946
-9.890992 -8.501940 -0.203714 1121 0.309512 0.707777 -0.626485
-9.888002 -8.499351 -0.199661 1139 0.352530 0.745032 -0.568169
-9.885943 -8.497551 -0.195612 1179 0.382156 0.770926 -0.509910
-9.883999 -8.495865 -0.191574 1193 0.410135 0.795186 -0.451809
-9.882376 -8.494452 -0.187542 1207 0.433490 0.815508 -0.393795
-9.881207 -8.493417 -0.183519 1215 0.450299 0.830410 -0.335910
-9.880529 -8.492826 -0.179514 1235 0.460055 0.838904 -0.278284
-9.879695 -8.492078 -0.175497 1241 0.472062 0.849676 -0.220485
-9.879188 -8.491627 -0.171480 1253 0.479362 0.856166 -0.162687
-9.878781 -8.491258 -0.167473 1257 0.485208 0.861477 -0.105032
-9.879113 -8.491522 -0.163481 1263 0.480432 0.857676 -0.047593
-9.879702 -8.492008 -0.159489 1261 0.471966 0.850677 0.009846
-9.879865 -8.492132 -0.155487 1261 0.469619 0.848894 0.067429
-9.879735 -8.491995 -0.151487 1251 0.471486 0.850870 0.124983
-9.879947 -8.492153 -0.147488 1249 0.468439 0.848592 0.182522
-9.880713 -8.492788 -0.143492 1251 0.457407 0.839453 0.240018
-9.881466 -8.493423 -0.139509 1227 0.446580 0.830314 0.297328
-9.882781 -8.494529 -0.135521 1217 0.427658 0.814410 0.354709
-9.883768 -8.495353 -0.131525 1203 0.413456 0.802555 0.412206
-9.885026 -8.496415 -0.127539 1193 0.395356 0.787268 0.469558
-9.885942 -8.497184 -0.123543 1165 0.382170 0.776209 0.527054
-9.887698 -8.498681 -0.119564 1137 0.356907 0.754665 0.584306
-9.890615 -8.501167 -0.115587 1101 0.314932 0.718892 0.641529
-9.893203 -8.503359 -0.111603 1053 0.277704 0.687359 0.698853
-9.896680 -8.506330 -0.107633 989 0.227674 0.644615 0.755975
-9.902534 -8.511347 -0.103670 927 0.143449 0.572424 0.812997
-9.909783 -8.517557 -0.099720 811 0.039135 0.483067 0.869831
-9.914363 -8.516728 -0.220184 843 -0.026758 0.494991 -0.863464
-9.907694 -8.510988 -0.216032 967 0.069200 0.577584 -0.803723
-9.902640 -8.506630 -0.211920 1031 0.141912 0.640293 -0.744557
-9.898205 -8.502797 -0.207826 1071 0.205733 0.695441 -0.685651
-9.894646 -8.499716 -0.203756 1101 0.256943 0.739777 -0.627090
-9.891983 -8.497404 -0.199701 1131 0.295255 0.773039 -0.568744
-9.889533 -8.495291 -0.195644 1159 0.330506 0.803447 -0.510370
-9.887745 -8.493730 -0.191614 1175 0.356235 0.825909 -0.452384
-9.885909 -8.492134 -0.187574 1199 0.382650 0.848866 -0.394255
-9.884242 -8.490681 -0.183544 1211 0.406636 0.869778 -0.336269
-9.883841 -8.490318 -0.179537 1223 0.412413 0.874993 -0.278615
-9.883505 -8.490007 -0.175529 1229 0.417243 0.879466 -0.220946
-9.882998 -8.489555 -0.171522 1231 0.424529 0.885970 -0.163291
-9.882763 -8.489327 -0.167513 1241 0.427918 0.889250 -0.105607
-9.882312 -8.488917 -0.163505 1237 0.434409 0.895150 -0.047938
-9.882524 -8.489076 -0.159504 1243 0.431363 0.892872 0.009630
-9.882843 -8.489339 -0.155514 1241 0.426766 0.889085 0.067040
-9.883104 -8.489532 -0.151512 1241 0.423006 0.886300 0.124623
-9.883814 -8.490125 -0.147518 1243 0.412797 0.877778 0.182090
-9.883855 -8.490143 -0.143516 1225 0.412207 0.877518 0.239673
-9.884501 -8.490672 -0.139524 1219 0.402903 0.869902 0.297112
-9.886258 -8.492170 -0.135544 1215 0.377628 0.848345 0.354378
-9.887351 -8.493086 -0.131557 1199 0.361902 0.835172 0.411745
-9.887940 -8.493573 -0.127554 1175 0.353422 0.828160 0.469342
-9.889980 -8.495295 -0.123573 1147 0.324071 0.803392 0.526623
-9.892734 -8.497648 -0.119598 1105 0.284456 0.769526 0.583817
-9.895712 -8.500182 -0.115621 1079 0.241602 0.733067 0.641040
-9.898357 -8.502430 -0.111647 1031 0.203537 0.700724 0.698220
-9.901877 -8.505443 -0.107666 959 0.152890 0.657377 0.755500
-9.907804 -8.510503 -0.103712 881 0.067622 0.584568 0.812393
-9.913346 -8.510368 -0.216114 907 -0.012130 0.586503 -0.804902
-9.907894 -8.505672 -0.211994 991 0.066318 0.654070 -0.745622
-9.903617 -8.501981 -0.207899 1049 0.127861 0.707187 -0.686701
-9.899673 -8.498576 -0.203821 1077 0.184601 0.756175 -0.628025
-9.896177 -8.495557 -0.199739 1117 0.234906 0.799618 -0.569291
-9.894061 -8.493716 -0.195701 1149 0.265355 0.826102 -0.511190
-9.892551 -8.492401 -0.191671 1175 0.287077 0.845024 -0.453205
-9.891220 -8.491235 -0.187639 1201 0.306232 0.861806 -0.395190
-9.889603 -8.489828 -0.183607 1203 0.329505 0.882046 -0.337176
-9.888092 -8.488514 -0.179586 1223 0.351240 0.900955 -0.279320
-9.887088 -8.487628 -0.175562 1225 0.365690 0.913702 -0.221420
-9.887306 -8.487792 -0.171560 1235 0.362547 0.911342 -0.163838
-9.887454 -8.487901 -0.167560 1247 0.360420 0.909778 -0.106284
-9.886727 -8.487259 -0.163553 1227 0.370876 0.919013 -0.048629
-9.886718 -8.487228 -0.159544 1233 0.371014 0.919452 0.009054
-9.886929 -8.487386 -0.155554 1233 0.367981 0.917188 0.066465
-9.887463 -8.487832 -0.151550 1237 0.360297 0.910766 0.124076
-9.887780 -8.488080 -0.147558 1235 0.355727 0.907198 0.181515
-9.887772 -8.488050 -0.143558 1203 0.355851 0.907624 0.239069
-9.888140 -8.488348 -0.139557 1193 0.350554 0.903342 0.296637
-9.889340 -8.489354 -0.135570 1191 0.333278 0.888866 0.354004
-9.891217 -8.490943 -0.131590 1175 0.306274 0.866005 0.411270
-9.892859 -8.492342 -0.127600 1151 0.282644 0.845875 0.468680
-9.895170 -8.494303 -0.123617 1129 0.249396 0.817663 0.525990
-9.897816 -8.496550 -0.119642 1097 0.211331 0.785334 0.583184
-9.899850 -8.498280 -0.115662 1057 0.182063 0.760442 0.640450
-9.902664 -8.500668 -0.111675 1005 0.141569 0.726082 0.697817
-9.907865 -8.505111 -0.107715 929 0.066743 0.662152 0.754795
-9.913947 -8.510310 -0.103762 841 -0.020775 0.587340 0.811673
-9.918894 -8.509968 -0.216194 821 -0.091951 0.592266 -0.806054
-9.913448 -8.505280 -0.212074 939 -0.013598 0.659723 -0.746773
-9.908396 -8.500922 -0.207962 987 0.059100 0.722419 -0.687608
-9.904282 -8.497361 -0.203876 1041 0.118297 0.773656 -0.628816
-9.900999 -8.494539 -0.199804 1095 0.165528 0.814259 -0.570226
-9.898777 -8.492607 -0.195757 1127 0.197500 0.842060 -0.511996
-9.897111 -8.491153 -0.191717 1153 0.221472 0.862986 -0.453866
-9.895267 -8.489551 -0.187687 1177 0.248010 0.886039 -0.395881
-9.893877 -8.488340 -0.183655 1187 0.268003 0.903452 -0.337866
-9.892922 -8.487503 -0.179640 1211 0.281739 0.915500 -0.280097
-9.891696 -8.486426 -0.175617 1215 0.299385 0.930992 -0.222212
-9.891076 -8.485876 -0.171600 1215 0.308304 0.938910 -0.164413
-9.891287 -8.486034 -0.167599 1223 0.305272 0.936632 -0.106845
-9.891158 -8.485912 -0.163589 1225 0.307124 0.938388 -0.049147
-9.890814 -8.485594 -0.159592 1223 0.312078 0.942971 0.008364
-9.890692 -8.485463 -0.155582 1231 0.313834 0.944851 0.066062
-9.891793 -8.486385 -0.151596 1229 0.297985 0.931582 0.123414
-9.892219 -8.486740 -0.147594 1225 0.291865 0.926477 0.180997
-9.891704 -8.486268 -0.143587 1195 0.299275 0.933270 0.238652
-9.892968 -8.487338 -0.139601 1191 0.281080 0.917874 0.296004
-9.894114 -8.488302 -0.135614 1179 0.264600 0.904001 0.353371
-9.895493 -8.489455 -0.131626 1153 0.244758 0.887411 0.410752
-9.897183 -8.490890 -0.127638 1135 0.220429 0.866773 0.468134
-9.898776 -8.492240 -0.123648 1105 0.197514 0.847343 0.525544
-9.901535 -8.494586 -0.119673 1073 0.157816 0.813587 0.582738
-9.905013 -8.497542 -0.115703 1029 0.107772 0.771049 0.639860
-9.909551 -8.501416 -0.111738 965 0.042483 0.715311 0.696911
-9.914580 -8.505719 -0.107769 873 -0.029886 0.653397 0.754018
-9.919733 -8.505927 -0.212158 865 -0.104026 0.650406 -0.747981
-9.913748 -8.500763 -0.208031 951 -0.017907 0.724710 -0.688600
-9.909299 -8.496930 -0.203936 999 0.046106 0.779859 -0.629679
-9.906238 -8.494284 -0.199873 1057 0.090153 0.817937 -0.571219
-9.903561 -8.491973 -0.195820 1095 0.128671 0.851185 -0.512902
-9.900662 -8.489472 -0.191755 1121 0.170372 0.887164 -0.454413
-9.898441 -8.487541 -0.187717 1149 0.202330 0.914951 -0.396313
-9.897770 -8.486940 -0.183702 1177 0.211990 0.923596 -0.338543
-9.897428 -8.486636 -0.179684 1203 0.216916 0.927973 -0.280730
-9.896244 -8.485602 -0.175661 1203 0.233945 0.942848 -0.222845
-9.895190 -8.484667 -0.171646 1203 0.249108 0.956309 -0.165075
-9.895010 -8.484495 -0.167637 1213 0.251701 0.958779 -0.107392
-9.894440 -8.483993 -0.163620 1203 0.259907 0.966010 -0.049593
-9.893818 -8.483430 -0.159614 1201 0.268854 0.974106 0.008047
-9.894422 -8.483931 -0.155620 1213 0.260168 0.966902 0.065515
-9.895018 -8.484426 -0.151628 1219 0.251592 0.959781 0.122954
-9.895279 -8.484632 -0.147627 1209 0.247832 0.956817 0.180522
-9.895099 -8.484447 -0.143618 1185 0.250425 0.959479 0.238205
-9.895739 -8.484984 -0.139624 1169 0.241218 0.951740 0.295673
-9.897901 -8.486811 -0.135641 1155 0.210110 0.925462 0.352983
-9.899599 -8.488253 -0.131662 1133 0.185671 0.904714 0.410234
-9.901419 -8.489785 -0.127672 1113 0.159490 0.882663 0.467644
-9.903558 -8.491605 -0.123690 1085 0.128712 0.856482 0.524939
-9.906318 -8.493950 -0.119715 1049 0.089000 0.822740 0.582134
-9.910016 -8.497095 -0.115744 991 0.035787 0.777485 0.639270
-9.914284 -8.500732 -0.111769 931 -0.025619 0.725149 0.696465
-9.918978 -8.504748 -0.107803 819 -0.093158 0.667366 0.753529
-9.925573 -8.505984 -0.212244 761 -0.188059 0.649583 -0.749219
-9.919568 -8.500813 -0.208118 881 -0.101652 0.723997 -0.689852
-9.915233 -8.497078 -0.204023 963 -0.039272 0.777732 -0.630931
-9.910499 -8.493009 -0.199921 1015 0.028844 0.836283 -0.571910
-9.907004 -8.489988 -0.195850 1047 0.079121 0.879741 -0.513334
-9.905116 -8.488344 -0.191810 1089 0.106290 0.903397 -0.455205
-9.903607 -8.487029 -0.187778 1121 0.127998 0.922320 -0.397190
-9.902039 -8.485673 -0.183748 1147 0.150571 0.941832 -0.339205
-9.900593 -8.484407 -0.179716 1155 0.171373 0.960041 -0.281190
-9.899972 -8.483857 -0.175699 1173 0.180306 0.967959 -0.223392
-9.899232 -8.483202 -0.171684 1181 0.190954 0.977386 -0.165622
-9.898895 -8.482890 -0.167675 1187 0.195798 0.981873 -0.107938
-9.898323 -8.482388 -0.163658 1191 0.204031 0.989104 -0.050140
-9.897923 -8.482027 -0.159651 1191 0.209781 0.994291 0.007515
-9.898249 -8.482285 -0.155649 1187 0.205102 0.990586 0.065097
-9.898789 -8.482722 -0.151657 1187 0.197321 0.984288 0.122536
-9.899719 -8.483505 -0.147661 1189 0.183943 0.973022 0.180033
-9.900478 -8.484132 -0.143667 1173 0.173020 0.964007 0.237501
-9.901195 -8.484717 -0.139673 1153 0.162715 0.955582 0.294968
-9.902668 -8.485964 -0.135685 1133 0.141514 0.937647 0.352349
-9.904429 -8.487453 -0.131704 1125 0.116170 0.916213 0.409630
-9.906363 -8.489084 -0.127714 1095 0.088356 0.892749 0.467040
-9.908895 -8.491234 -0.123739 1063 0.051924 0.861820 0.524234
-9.911988 -8.493867 -0.119762 1013 0.007410 0.823933 0.581457
-9.915957 -8.497252 -0.115789 951 -0.049701 0.775221 0.638623
-9.921220 -8.501742 -0.111830 869 -0.125418 0.710618 0.695587
-9.927726 -8.502550 -0.208235 759 -0.219029 0.698995 -0.691535
-9.921833 -8.497477 -0.204107 883 -0.134242 0.771996 -0.632140
-9.918159 -8.494310 -0.200029 963 -0.081371 0.817553 -0.573464
-9.915490 -8.492007 -0.195974 1015 -0.042977 0.850691 -0.515118
-9.912478 -8.489409 -0.191910 1055 0.000357 0.888070 -0.456643
-9.909752 -8.487049 -0.187857 1079 0.039588 0.922032 -0.398327
-9.907964 -8.485503 -0.183817 1109 0.065316 0.944275 -0.340197
-9.906297 -8.484048 -0.179785 1135 0.089302 0.965214 -0.282183
-9.904836 -8.482782 -0.175754 1147 0.110324 0.983423 -0.224183
-9.903882 -8.481946 -0.171730 1159 0.124046 0.995458 -0.166284
-9.903154 -8.481303 -0.167713 1159 0.134516 1.004706 -0.108485
-9.903031 -8.481174 -0.163713 1159 0.136286 1.006559 -0.050931
-9.903741 -8.481767 -0.159719 1165 0.126077 0.998037 0.006536
-9.903953 -8.481925 -0.155720 1155 0.123031 0.995759 0.064076
-9.904386 -8.482273 -0.151716 1155 0.116801 0.990751 0.121688
-9.905309 -8.483047 -0.147722 1147 0.103518 0.979622 0.179155
-9.905962 -8.483584 -0.143728 1147 0.094119 0.971883 0.236623
-9.907227 -8.484638 -0.139730 1127 0.075923 0.956721 0.294148
-9.908655 -8.485843 -0.135742 1101 0.055368 0.939390 0.351529
-9.910689 -8.487572 -0.131761 1073 0.026099 0.914512 0.408810
-9.912843 -8.489391 -0.127779 1057 -0.004885 0.888330 0.466105
-9.914983 -8.491212 -0.123798 1025 -0.035677 0.862135 0.523385
-9.918304 -8.494027 -0.119820 963 -0.083471 0.821628 0.580623
-9.922501 -8.497607 -0.115845 891 -0.143847 0.770116 0.637817
-9.930440 -8.499685 -0.204241 771 -0.258082 0.740216 -0.634068
-9.924932 -8.494963 -0.200132 897 -0.178824 0.808167 -0.574946
-9.920589 -8.491220 -0.196037 965 -0.116348 0.862012 -0.516025
-9.917919 -8.488917 -0.191982 1011 -0.077927 0.895150 -0.457679
-9.915299 -8.486649 -0.187925 1051 -0.040233 0.927795 -0.399305
-9.913511 -8.485104 -0.183885 1079 -0.014504 0.950024 -0.341176
-9.912222 -8.483978 -0.179853 1095 0.004048 0.966216 -0.283162
-9.910498 -8.482480 -0.175823 1113 0.028857 0.987773 -0.225176
-9.909431 -8.481544 -0.171799 1123 0.044198 1.001248 -0.167277
-9.908916 -8.481085 -0.167782 1117 0.051608 1.007849 -0.109478
-9.909020 -8.481152 -0.163782 1129 0.050112 1.006888 -0.051924
-9.909061 -8.481171 -0.159771 1133 0.049522 1.006613 0.005788
-9.908441 -8.480620 -0.155756 1127 0.058455 1.014531 0.063558
-9.908483 -8.480639 -0.151754 1125 0.057852 1.014257 0.121141
-9.909911 -8.481840 -0.147766 1115 0.037296 0.996981 0.178522
-9.911843 -8.483471 -0.143785 1109 0.009496 0.973516 0.235803
-9.913108 -8.484527 -0.139789 1099 -0.008700 0.958326 0.293299
-9.913975 -8.485246 -0.135794 1065 -0.021173 0.947980 0.350781
-9.916017 -8.486981 -0.131813 1027 -0.050552 0.923006 0.408062
-9.918447 -8.489034 -0.127828 1013 -0.085515 0.893476 0.465400
-9.920317 -8.490615 -0.123838 955 -0.112424 0.870725 0.522810
-9.924849 -8.494481 -0.119873 881 -0.177630 0.815097 0.579860
-9.932537 -8.496421 -0.200239 745 -0.288257 0.787186 -0.576485
-9.928145 -8.492645 -0.196144 879 -0.225067 0.841511 -0.517564
-9.925019 -8.489948 -0.192072 941 -0.180087 0.880317 -0.458974
-9.922187 -8.487497 -0.188019 1003 -0.139333 0.915582 -0.400658
-9.920114 -8.485713 -0.183969 1041 -0.109501 0.941256 -0.342385
-9.918112 -8.483970 -0.179932 1057 -0.080699 0.966340 -0.284298
-9.916701 -8.482755 -0.175899 1067 -0.060404 0.983821 -0.226269
-9.916423 -8.482485 -0.171881 1081 -0.056397 0.987705 -0.168456
-9.916357 -8.482410 -0.167871 1103 -0.055450 0.988775 -0.110759
-9.914953 -8.481188 -0.163849 1099 -0.035252 1.006366 -0.052888
-9.915328 -8.481493 -0.159847 1113 -0.040644 1.001976 0.004695
-9.915819 -8.481897 -0.155844 1107 -0.047711 0.996157 0.062292
-9.915532 -8.481619 -0.151836 1087 -0.043581 1.000164 0.119961
-9.916178 -8.482163 -0.147833 1083 -0.052871 0.992329 0.177558
-9.916945 -8.482798 -0.143839 1059 -0.063917 0.983204 0.235026
