77
-27.942215 -25.222286 -0.191800 1077 0.949722 -0.045173 -0.159911
-27.941568 -25.221640 -0.180235 1107 0.959026 -0.035869 0.006492
-27.940269 -25.220404 -0.168674 1107 0.977715 -0.018086 0.172837
-27.941420 -25.221384 -0.157117 1089 0.961167 -0.032192 0.339125
-27.946255 -25.225681 -0.145578 1029 0.891596 -0.094023 0.505154
-27.950401 -25.214235 -0.203409 1099 0.831933 0.070668 -0.326947
-27.945726 -25.209963 -0.191826 1165 0.899198 0.132142 -0.160285
-27.943020 -25.207464 -0.180251 1189 0.938141 0.168094 0.006262
-27.941294 -25.205841 -0.168694 1185 0.962978 0.191448 0.172549
-27.942490 -25.206865 -0.157137 1175 0.945771 0.176711 0.338837
-27.947371 -25.211212 -0.145597 1125 0.875542 0.114166 0.504880
-27.954926 -25.217957 -0.134062 1045 0.766836 0.017125 0.670852
-27.957424 -25.205137 -0.215013 1073 0.730885 0.201575 -0.493911
-27.950428 -25.198778 -0.203415 1161 0.831549 0.293073 -0.327033
-27.945986 -25.194714 -0.191831 1189 0.895466 0.351556 -0.160357
-27.944088 -25.192942 -0.180273 1225 0.922773 0.377051 0.005945
-27.945894 -25.194500 -0.168722 1221 0.896783 0.354630 0.172147
-27.947586 -25.195967 -0.157171 1223 0.872440 0.333525 0.338348
-27.950079 -25.198164 -0.145628 1183 0.836571 0.301910 0.504434
-27.956070 -25.203501 -0.134091 1133 0.750370 0.225122 0.670434
-27.962893 -25.209591 -0.122551 1007 0.652203 0.137494 0.836478
-27.969845 -25.200916 -0.226654 995 0.552171 0.262308 -0.661407
-27.961107 -25.192986 -0.215036 1125 0.677891 0.376420 -0.494242
-27.954863 -25.187298 -0.203443 1191 0.767742 0.458258 -0.327436
-27.951618 -25.184315 -0.191874 1245 0.814424 0.501180 -0.160976
-27.949833 -25.182642 -0.180313 1251 0.840112 0.525248 0.005370
-27.949673 -25.182446 -0.168755 1255 0.842417 0.528075 0.171672
-27.951305 -25.183851 -0.157206 1237 0.818925 0.507849 0.337844
-27.953529 -25.185791 -0.145662 1209 0.786925 0.479938 0.503945
-27.958443 -25.190155 -0.134122 1151 0.716230 0.417147 0.669988
-27.966841 -25.197664 -0.122593 1051 0.595395 0.309100 0.835873
-27.976810 -25.191097 -0.226702 1013 0.451946 0.403589 -0.662098
-27.967850 -25.182968 -0.215086 1137 0.580877 0.520555 -0.494961
-27.961514 -25.177204 -0.203493 1199 0.672045 0.603491 -0.328156
-27.957653 -25.173672 -0.191917 1241 0.727592 0.654317 -0.161594
-27.956573 -25.172642 -0.180353 1245 0.743125 0.669136 0.004794
-27.957241 -25.173174 -0.168810 1271 0.733520 0.661479 0.170881
-27.958988 -25.174685 -0.157259 1263 0.708381 0.639744 0.337082
-27.960827 -25.176291 -0.145718 1215 0.681925 0.616636 0.503140
-27.964796 -25.179804 -0.134174 1157 0.624815 0.566085 0.669240
-27.971485 -25.185757 -0.122635 1087 0.528569 0.480432 0.835269
-27.986622 -25.184135 -0.226763 1017 0.310774 0.503760 -0.662976
-27.978209 -25.176516 -0.215153 1131 0.431829 0.613398 -0.495925
-27.971367 -25.170298 -0.203552 1201 0.530270 0.702865 -0.329004
-27.966326 -25.165701 -0.191973 1245 0.602804 0.769005 -0.162400
-27.965075 -25.164513 -0.180410 1257 0.620808 0.786102 0.003974
-27.965677 -25.164995 -0.168858 1261 0.612135 0.779159 0.170190
-27.967207 -25.166313 -0.157318 1239 0.590125 0.760195 0.336233
-27.969166 -25.168013 -0.145767 1205 0.561941 0.735743 0.502434
-27.972429 -25.170885 -0.134228 1159 0.514984 0.694412 0.668463
-27.979555 -25.177237 -0.122684 1067 0.412454 0.603024 0.834564
-27.986488 -25.168491 -0.215208 1115 0.312695 0.728854 -0.496717
-27.979103 -25.161797 -0.203601 1171 0.418958 0.825182 -0.329710
-27.975788 -25.158754 -0.192032 1239 0.466655 0.868955 -0.163249
-27.974819 -25.157822 -0.180467 1231 0.480597 0.882375 0.003154
-27.974070 -25.157085 -0.168913 1259 0.491382 0.892968 0.169398
-27.974558 -25.157465 -0.157359 1219 0.484357 0.887507 0.335643
-27.977448 -25.160004 -0.145822 1181 0.442779 0.850979 0.501643
-27.982393 -25.164387 -0.134283 1113 0.371617 0.787913 0.667672
-27.991484 -25.172495 -0.122748 1025 0.240820 0.671250 0.833643
-28.000557 -25.165670 -0.215289 1043 0.110269 0.769444 -0.497882
-27.993336 -25.159111 -0.203693 1145 0.214172 0.863823 -0.331033
-27.988556 -25.154758 -0.192112 1177 0.282946 0.926450 -0.164400
-27.983721 -25.150354 -0.180531 1197 0.352516 0.989818 0.002233
-27.982792 -25.149464 -0.168966 1197 0.365882 1.002634 0.168636
-27.985952 -25.152243 -0.157429 1195 0.320407 0.962648 0.334636
-27.990030 -25.155851 -0.145884 1169 0.261732 0.910725 0.500751
-27.996458 -25.161560 -0.134356 1089 0.169246 0.828585 0.666621
-28.006624 -25.155600 -0.203770 1049 0.022971 0.914347 -0.332141
-27.999619 -25.149246 -0.192173 1117 0.123772 1.005763 -0.165278
-27.997164 -25.146984 -0.180606 1145 0.159092 1.038311 0.001154
-27.998158 -25.147808 -0.169052 1159 0.144794 1.026455 0.167398
-27.999958 -25.149372 -0.157501 1135 0.118887 1.003951 0.333600
-28.003212 -25.152235 -0.145962 1095 0.072068 0.962758 0.499629
-28.015562 -25.148630 -0.180709 1049 -0.105631 1.014627 -0.000328
-28.014206 -25.147348 -0.169138 1047 -0.086119 1.033069 0.166161
-28.016983 -25.149786 -0.157591 1029 -0.126077 0.997996 0.332305
