768
-4.171998 -3.563257 -0.182679 1731 0.826925 0.385408 -0.362006
-4.171983 -3.563233 -0.180989 1749 0.827144 0.385754 -0.337690
-4.171755 -3.563026 -0.179301 1747 0.830424 0.388732 -0.313402
-4.171186 -3.562538 -0.177585 1741 0.838609 0.395754 -0.288711
-4.170958 -3.562331 -0.175894 1743 0.841889 0.398732 -0.264380
-4.170389 -3.561843 -0.174188 1745 0.850074 0.405754 -0.239834
-4.170040 -3.561531 -0.172480 1757 0.855096 0.410241 -0.215258
-4.169684 -3.561226 -0.170783 1761 0.860221 0.414632 -0.190841
-4.168795 -3.560449 -0.169068 1761 0.873010 0.425812 -0.166164
-4.168546 -3.560235 -0.167369 1759 0.876591 0.428889 -0.141718
-4.169213 -3.560787 -0.165706 1753 0.867000 0.420948 -0.117790
-4.169355 -3.560904 -0.164035 1757 0.864955 0.419263 -0.093747
-4.168906 -3.560507 -0.162328 1757 0.871411 0.424975 -0.069186
-4.168771 -3.560391 -0.160637 1763 0.873360 0.426646 -0.044855
-4.169196 -3.560747 -0.158965 1765 0.867240 0.421524 -0.020798
-4.169906 -3.561341 -0.157310 1771 0.857024 0.412975 0.003015
-4.169948 -3.561373 -0.155621 1787 0.856420 0.412516 0.027317
-4.169265 -3.560772 -0.153913 1773 0.866252 0.421164 0.051893
-4.168803 -3.560376 -0.152217 1757 0.872893 0.426862 0.076296
-4.168952 -3.560485 -0.150536 1761 0.870753 0.425294 0.100483
-4.169434 -3.560896 -0.148864 1757 0.863816 0.419380 0.124540
-4.169909 -3.561287 -0.147191 1751 0.856983 0.413754 0.148612
-4.170498 -3.561790 -0.145528 1751 0.848509 0.406516 0.172540
-4.171158 -3.562334 -0.143864 1745 0.839014 0.398687 0.196483
-4.171527 -3.562648 -0.142192 1745 0.833703 0.394169 0.220540
-4.171946 -3.562995 -0.140521 1743 0.827673 0.389178 0.244584
-4.172200 -3.563210 -0.138839 1739 0.824016 0.386084 0.268785
-4.172242 -3.563228 -0.137158 1733 0.823412 0.385826 0.292972
-4.172554 -3.563485 -0.135478 1725 0.818925 0.382128 0.317145
-4.173243 -3.564072 -0.133813 1729 0.809011 0.373683 0.341102
-4.173512 -3.564287 -0.132142 1721 0.805141 0.370588 0.365145
-4.174201 -3.564874 -0.130467 1719 0.795227 0.362142 0.389246
-4.175237 -3.565749 -0.128812 1727 0.780318 0.349553 0.413058
-4.175769 -3.566196 -0.127138 1721 0.772668 0.343120 0.437145
-4.176252 -3.566593 -0.125466 1705 0.765718 0.337409 0.461202
-4.176955 -3.567181 -0.123803 1701 0.755598 0.328946 0.485130
-4.177814 -3.567908 -0.122138 1689 0.743242 0.318486 0.509087
-4.178389 -3.568397 -0.120465 1671 0.734967 0.311450 0.533159
-4.179311 -3.569174 -0.118800 1657 0.721705 0.300270 0.557116
-4.180625 -3.570281 -0.117143 1653 0.702796 0.284342 0.580958
-4.181605 -3.571114 -0.115476 1639 0.688697 0.272356 0.604943
-4.182187 -3.571595 -0.113803 1625 0.680320 0.265437 0.629015
-4.183103 -3.572380 -0.112138 1613 0.667140 0.254140 0.652972
-4.184295 -3.573381 -0.110482 1595 0.649987 0.239739 0.676799
-4.186106 -3.574924 -0.108832 1581 0.623929 0.217537 0.700540
-4.188074 -3.576593 -0.107192 1565 0.595614 0.193524 0.724138
-4.189437 -3.577749 -0.105523 1541 0.576006 0.176889 0.748152
-4.190964 -3.579039 -0.103865 1519 0.554030 0.158327 0.772008
-4.193102 -3.580863 -0.102223 1489 0.523272 0.132084 0.795634
-4.195396 -3.582813 -0.100581 1441 0.490264 0.104026 0.819260
-4.197762 -3.584820 -0.098937 1393 0.456220 0.075148 0.842915
-4.200574 -3.587212 -0.097301 1345 0.415761 0.040730 0.866454
-4.203813 -3.589971 -0.095673 1267 0.369154 0.001033 0.889879
-4.196305 -3.582020 -0.219287 1407 0.477187 0.115436 -0.888740
-4.193854 -3.579923 -0.217471 1451 0.512452 0.145610 -0.862611
-4.191352 -3.577776 -0.215655 1479 0.548452 0.176502 -0.836481
-4.189845 -3.576486 -0.213883 1511 0.570133 0.195061 -0.810985
-4.188622 -3.575436 -0.212130 1541 0.587731 0.210169 -0.785762
-4.187123 -3.574139 -0.210358 1557 0.609302 0.228830 -0.760265
-4.184841 -3.572182 -0.208562 1573 0.642132 0.256991 -0.734424
-4.182560 -3.570225 -0.206763 1591 0.674954 0.285149 -0.708539
-4.181558 -3.569365 -0.205020 1613 0.689369 0.297522 -0.683459
-4.180768 -3.568687 -0.203294 1631 0.700738 0.307279 -0.658625
-4.180099 -3.568100 -0.201568 1639 0.710364 0.315725 -0.633790
-4.179922 -3.567943 -0.199878 1653 0.712909 0.317982 -0.609474
-4.179309 -3.567412 -0.198151 1669 0.721732 0.325625 -0.584625
-4.178634 -3.566833 -0.196434 1685 0.731441 0.333954 -0.559920
-4.177795 -3.566106 -0.194710 1689 0.743516 0.344414 -0.535114
-4.176231 -3.564760 -0.192948 1689 0.766020 0.363782 -0.509762
-4.175222 -3.563893 -0.191214 1699 0.780538 0.376255 -0.484812
-4.175044 -3.563735 -0.189526 1713 0.783097 0.378530 -0.460524
-4.174481 -3.563239 -0.187808 1717 0.791200 0.385665 -0.435805
-4.173536 -3.562421 -0.186084 1719 0.804798 0.397435 -0.410999
-4.173024 -3.561975 -0.184376 1727 0.812160 0.403854 -0.386424
-4.172838 -3.561810 -0.182677 1737 0.814836 0.406228 -0.361978
-4.172056 -3.561140 -0.180962 1737 0.826088 0.415867 -0.337301
-4.171210 -3.560405 -0.179236 1737 0.838266 0.426443 -0.312467
-4.171366 -3.560536 -0.177556 1743 0.836016 0.424560 -0.288294
-4.171635 -3.560750 -0.175884 1749 0.832146 0.421479 -0.264236
-4.171229 -3.560396 -0.174188 1753 0.837992 0.426574 -0.239834
-4.170497 -3.559760 -0.172471 1755 0.848523 0.435723 -0.215129
-4.169650 -3.559026 -0.170747 1759 0.860708 0.446285 -0.190323
-4.168854 -3.558341 -0.169030 1761 0.872159 0.456141 -0.165618
-4.168846 -3.558324 -0.167350 1755 0.872276 0.456385 -0.141445
-4.169272 -3.558680 -0.165679 1761 0.866149 0.451263 -0.117402
-4.169378 -3.558760 -0.163997 1757 0.864626 0.450114 -0.093200
-4.169583 -3.558927 -0.162316 1755 0.861676 0.447709 -0.069013
-4.169220 -3.558614 -0.160619 1761 0.866897 0.452213 -0.044596
-4.168992 -3.558407 -0.158929 1761 0.870176 0.455191 -0.020280
-4.169972 -3.559240 -0.157284 1775 0.856077 0.443205 0.003389
-4.170291 -3.559504 -0.155602 1783 0.851487 0.439407 0.027591
-4.169772 -3.559051 -0.153905 1767 0.858952 0.445925 0.052008
-4.169537 -3.558837 -0.152207 1753 0.862334 0.449006 0.076440
-4.169685 -3.558960 -0.150524 1761 0.860207 0.447236 0.100656
-4.169727 -3.558978 -0.148846 1755 0.859604 0.446975 0.124799
-4.169648 -3.558905 -0.147157 1749 0.860736 0.448028 0.149102
-4.170124 -3.559309 -0.145493 1751 0.853888 0.442213 0.173044
-4.171161 -3.560185 -0.143838 1753 0.838966 0.429610 0.196857
-4.172310 -3.561158 -0.142192 1751 0.822438 0.415610 0.220540
-4.172623 -3.561415 -0.140519 1751 0.817930 0.411912 0.244613
-4.172323 -3.561152 -0.138821 1741 0.822246 0.415696 0.269044
-4.172472 -3.561261 -0.137141 1733 0.820105 0.414128 0.293217
-4.173004 -3.561708 -0.135468 1727 0.812448 0.407696 0.317289
-4.173877 -3.562449 -0.133813 1725 0.799893 0.397034 0.341102
-4.174516 -3.562988 -0.132140 1719 0.790692 0.389278 0.365174
-4.175268 -3.563624 -0.130475 1719 0.779872 0.380128 0.389130
-4.176028 -3.564253 -0.128812 1721 0.768943 0.371075 0.413058
-4.176503 -3.564657 -0.127138 1715 0.762102 0.365264 0.437145
-4.177036 -3.565104 -0.125466 1701 0.754439 0.358832 0.461202
-4.177959 -3.565881 -0.123811 1701 0.741156 0.347652 0.485015
-4.178768 -3.566559 -0.122136 1693 0.729513 0.337896 0.509116
-4.179293 -3.566999 -0.120463 1681 0.721959 0.331566 0.533188
-4.180109 -3.567684 -0.118798 1673 0.710220 0.321711 0.557145
-4.181196 -3.568609 -0.117143 1665 0.694577 0.308400 0.580958
-4.182055 -3.569336 -0.115476 1653 0.682220 0.297941 0.604943
-4.182587 -3.569783 -0.113795 1631 0.674563 0.291509 0.629130
-4.183836 -3.570841 -0.112138 1617 0.656594 0.276284 0.652972
-4.185534 -3.572271 -0.110488 1599 0.632163 0.255708 0.676713
-4.187004 -3.573519 -0.108840 1587 0.611010 0.237753 0.700425
-4.188758 -3.575005 -0.107190 1567 0.585776 0.216371 0.724166
-4.190228 -3.576253 -0.105533 1543 0.564623 0.198416 0.748008
-4.191641 -3.577458 -0.103864 1519 0.544294 0.181078 0.772023
-4.193338 -3.578888 -0.102216 1481 0.519876 0.160502 0.795735
-4.195143 -3.580424 -0.100554 1447 0.493900 0.138399 0.819648
-4.197835 -3.582712 -0.098920 1411 0.455170 0.105480 0.843159
-4.200974 -3.585386 -0.097293 1361 0.410004 0.067004 0.866569
-4.204114 -3.588046 -0.095666 1295 0.364825 0.028730 0.889979
-4.196819 -3.580292 -0.219268 1415 0.469791 0.140300 -0.888467
-4.194318 -3.578145 -0.217452 1459 0.505777 0.171191 -0.862337
-4.192477 -3.576567 -0.215661 1485 0.532260 0.193898 -0.836568
-4.191084 -3.575377 -0.213899 1515 0.552308 0.211019 -0.811215
-4.189754 -3.574235 -0.212136 1547 0.571443 0.227451 -0.785848
-4.187693 -3.572468 -0.210347 1565 0.601096 0.252875 -0.760107
-4.185362 -3.570461 -0.208541 1575 0.634639 0.281752 -0.734122
-4.184019 -3.569305 -0.206788 1591 0.653960 0.298387 -0.708898
-4.183343 -3.568726 -0.205062 1613 0.663689 0.306716 -0.684064
-4.182227 -3.567767 -0.203318 1629 0.679743 0.320517 -0.658970
-4.180777 -3.566520 -0.201555 1643 0.700608 0.338458 -0.633603
-4.180101 -3.565940 -0.199839 1657 0.710336 0.346805 -0.608913
-4.179589 -3.565494 -0.198123 1667 0.717705 0.353220 -0.584222
-4.178430 -3.564493 -0.196388 1679 0.734377 0.367624 -0.559258
-4.177421 -3.563626 -0.194655 1685 0.748895 0.380098 -0.534323
-4.176908 -3.563179 -0.192939 1693 0.756277 0.386530 -0.509632
-4.176240 -3.562593 -0.191222 1705 0.765890 0.394962 -0.484927
-4.175998 -3.562386 -0.189523 1719 0.769368 0.397939 -0.460481
-4.175272 -3.561757 -0.187808 1717 0.779817 0.406989 -0.435805
-4.174433 -3.561030 -0.186082 1713 0.791886 0.417452 -0.410970
-4.174752 -3.561294 -0.184411 1725 0.787296 0.413651 -0.386927
-4.174468 -3.561045 -0.182711 1737 0.791385 0.417236 -0.362467
-4.173174 -3.559924 -0.180970 1737 0.810006 0.433366 -0.337416
-4.172328 -3.559205 -0.179244 1735 0.822177 0.443709 -0.312582
-4.171766 -3.558709 -0.177536 1741 0.830266 0.450848 -0.288006
-4.171808 -3.558741 -0.175856 1743 0.829662 0.450385 -0.263834
-4.172020 -3.558914 -0.174176 1755 0.826609 0.447898 -0.239661
-4.171679 -3.558609 -0.172477 1761 0.831515 0.452285 -0.215215
-4.171052 -3.558064 -0.170771 1765 0.840537 0.460127 -0.190668
-4.170540 -3.557618 -0.169064 1767 0.847906 0.466546 -0.166107
-4.170291 -3.557404 -0.167365 1765 0.851487 0.469623 -0.141661
-4.170113 -3.557247 -0.165677 1773 0.854046 0.471884 -0.117373
-4.170325 -3.557419 -0.164006 1769 0.851000 0.469407 -0.093330
-4.170417 -3.557486 -0.162314 1769 0.849676 0.468443 -0.068985
-4.170018 -3.557138 -0.160617 1765 0.855412 0.473451 -0.044567
-4.169776 -3.556918 -0.158929 1763 0.858897 0.476618 -0.020280
-4.170202 -3.557273 -0.157256 1769 0.852770 0.471510 0.003792
-4.170634 -3.557635 -0.155583 1771 0.846554 0.466299 0.027864
-4.170563 -3.557569 -0.153905 1759 0.847569 0.467249 0.052008
-4.170548 -3.557544 -0.152215 1763 0.847789 0.467609 0.076325
-4.170583 -3.557570 -0.150534 1767 0.847288 0.467235 0.100512
-4.170895 -3.557826 -0.148862 1763 0.842794 0.463551 0.124569
-4.171156 -3.558034 -0.147181 1753 0.839041 0.460560 0.148756
-4.171525 -3.558347 -0.145509 1755 0.833731 0.456055 0.172814
-4.172449 -3.559124 -0.143853 1755 0.820434 0.444875 0.196641
-4.173045 -3.559620 -0.142190 1755 0.811858 0.437740 0.220569
-4.173137 -3.559687 -0.140500 1743 0.810534 0.436776 0.244886
-4.173228 -3.559754 -0.138820 1739 0.809230 0.435812 0.269058
-4.173767 -3.560208 -0.137156 1743 0.801471 0.429277 0.293001
-4.174520 -3.560844 -0.135493 1741 0.790637 0.420128 0.316929
-4.174895 -3.561150 -0.133811 1733 0.785244 0.415723 0.341130
-4.174923 -3.561168 -0.132130 1715 0.784840 0.415466 0.365318
-4.175448 -3.561607 -0.130458 1713 0.777286 0.409150 0.389375
-4.176315 -3.562342 -0.128802 1715 0.764813 0.398574 0.413202
-4.177131 -3.563028 -0.127137 1711 0.753067 0.388701 0.437159
-4.177222 -3.563094 -0.125447 1701 0.751763 0.387754 0.461476
-4.177804 -3.563591 -0.123784 1701 0.743386 0.380602 0.485404
-4.179005 -3.564599 -0.122128 1697 0.726103 0.366098 0.509231
-4.180140 -3.565558 -0.120471 1687 0.709774 0.352300 0.533073
-4.181113 -3.566385 -0.118806 1677 0.695777 0.340400 0.557030
-4.181645 -3.566832 -0.117133 1671 0.688121 0.333968 0.581102
-4.182014 -3.567130 -0.115451 1649 0.682810 0.329680 0.605303
-4.182937 -3.567907 -0.113786 1631 0.669527 0.318500 0.629260
-4.184457 -3.569204 -0.112138 1619 0.647662 0.299838 0.652972
-4.186268 -3.570733 -0.110488 1609 0.621604 0.277838 0.676713
-4.187525 -3.571798 -0.108829 1589 0.603518 0.262514 0.700584
-4.189215 -3.573235 -0.107180 1575 0.579196 0.241839 0.724310
-4.191133 -3.574855 -0.105531 1555 0.551601 0.218529 0.748037
-4.192553 -3.576053 -0.103873 1527 0.531169 0.201294 0.771893
-4.193802 -3.577111 -0.102206 1489 0.513200 0.186069 0.795879
-4.195543 -3.578598 -0.100556 1455 0.488151 0.164673 0.819620
-4.198626 -3.581215 -0.098929 1421 0.443788 0.127021 0.843030
-4.201772 -3.583882 -0.097291 1373 0.398519 0.088644 0.866598
-4.204123 -3.585889 -0.095649 1307 0.364695 0.059766 0.890224
-4.207376 -3.588647 -0.094020 1217 0.317889 0.020085 0.913663
-4.197333 -3.578564 -0.219247 1427 0.462395 0.165164 -0.888165
-4.195499 -3.576979 -0.217458 1463 0.488782 0.187970 -0.862423
-4.193325 -3.575127 -0.215659 1489 0.520061 0.214618 -0.836539
-4.191328 -3.573409 -0.213860 1515 0.548795 0.239335 -0.810654
-4.189046 -3.571452 -0.212064 1543 0.581632 0.267495 -0.784812
-4.187596 -3.570219 -0.210292 1563 0.602496 0.285234 -0.759316
-4.186700 -3.569436 -0.208556 1579 0.615387 0.296500 -0.734337
-4.185698 -3.568575 -0.206822 1601 0.629802 0.308891 -0.709387
-4.184581 -3.567616 -0.205079 1619 0.645878 0.322688 -0.684308
-4.183132 -3.566369 -0.203317 1639 0.666721 0.340630 -0.658956
-4.181795 -3.565220 -0.201564 1647 0.685959 0.357161 -0.633733
-4.181006 -3.564542 -0.199838 1657 0.697314 0.366918 -0.608898
-4.179946 -3.563626 -0.198104 1671 0.712566 0.380098 -0.583949
-4.178830 -3.562666 -0.196360 1677 0.728621 0.393912 -0.558855
-4.178041 -3.561988 -0.194633 1685 0.739976 0.403665 -0.534006
-4.177578 -3.561592 -0.192927 1701 0.746638 0.409363 -0.509460
-4.177137 -3.561202 -0.191220 1711 0.752984 0.414975 -0.484898
-4.176732 -3.560848 -0.189523 1711 0.758809 0.420070 -0.460481
-4.176120 -3.560317 -0.187806 1715 0.767619 0.427709 -0.435776
-4.175331 -3.559639 -0.186080 1723 0.778967 0.437466 -0.410941
-4.175096 -3.559425 -0.184381 1733 0.782349 0.440543 -0.386495
-4.174868 -3.559219 -0.182692 1737 0.785629 0.443510 -0.362193
-4.174625 -3.559011 -0.180995 1741 0.789128 0.446501 -0.337776
-4.174333 -3.558756 -0.179295 1743 0.793327 0.450169 -0.313316
-4.174276 -3.558689 -0.177605 1755 0.794150 0.451133 -0.288999
-4.173544 -3.558053 -0.175891 1757 0.804682 0.460285 -0.264337
-4.173301 -3.557846 -0.174191 1761 0.808174 0.463263 -0.239877
-4.172846 -3.557442 -0.172494 1759 0.814726 0.469077 -0.215459
-4.171730 -3.556483 -0.170760 1765 0.830781 0.482875 -0.190510
-4.171217 -3.556037 -0.169053 1765 0.838163 0.489293 -0.165949
-4.170748 -3.555634 -0.167355 1769 0.844907 0.495091 -0.141517
-4.170903 -3.555764 -0.165675 1775 0.842678 0.493221 -0.117344
-4.171670 -3.556401 -0.164021 1771 0.831645 0.484055 -0.093546
-4.171932 -3.556622 -0.162338 1775 0.827872 0.480875 -0.069330
-4.171299 -3.556071 -0.160632 1767 0.836983 0.488803 -0.044783
-4.171071 -3.555864 -0.158944 1761 0.840263 0.491780 -0.020495
-4.171213 -3.555980 -0.157264 1763 0.838218 0.490113 0.003677
-4.171141 -3.555914 -0.155574 1765 0.839254 0.491063 0.027994
-4.170963 -3.555742 -0.153886 1761 0.841820 0.493537 0.052281
-4.171112 -3.555866 -0.152203 1765 0.839673 0.491753 0.076497
-4.171537 -3.556221 -0.150532 1769 0.833559 0.486645 0.100540
-4.171686 -3.556344 -0.148849 1765 0.831412 0.484875 0.124756
-4.171727 -3.556362 -0.147170 1759 0.830822 0.484618 0.148914
-4.171982 -3.556576 -0.145499 1755 0.827158 0.481537 0.172958
-4.172792 -3.557255 -0.143834 1761 0.815501 0.471767 0.196915
-4.173168 -3.557561 -0.142163 1753 0.810088 0.467366 0.220958
-4.173252 -3.557635 -0.140483 1739 0.808881 0.466299 0.245130
-4.173400 -3.557745 -0.138802 1743 0.806754 0.464717 0.269317
-4.174047 -3.558290 -0.137137 1743 0.797443 0.456875 0.293274
-4.174749 -3.558877 -0.135473 1743 0.787344 0.448429 0.317217
-4.175175 -3.559232 -0.133801 1731 0.781210 0.443321 0.341274
-4.175707 -3.559678 -0.132129 1723 0.773560 0.436903 0.365332
-4.176516 -3.560357 -0.130463 1727 0.761917 0.427133 0.389303
-4.177603 -3.561281 -0.128808 1731 0.746281 0.413840 0.413116
-4.178085 -3.561679 -0.127135 1727 0.739345 0.408114 0.437188
-4.178177 -3.561746 -0.125455 1709 0.738020 0.407150 0.461361
-4.178645 -3.562143 -0.123782 1703 0.731283 0.401435 0.485433
-4.179632 -3.562969 -0.122117 1695 0.717081 0.389552 0.509389
-4.180704 -3.563880 -0.120461 1681 0.701657 0.376444 0.533217
-4.181854 -3.564853 -0.118804 1677 0.685116 0.362444 0.557058
-4.182721 -3.565574 -0.117141 1671 0.672635 0.352070 0.580986
-4.183196 -3.565978 -0.115456 1651 0.665802 0.346256 0.605231
-4.183941 -3.566608 -0.113793 1633 0.655085 0.337192 0.629159
-4.185361 -3.567806 -0.112136 1617 0.634653 0.319954 0.653001
-4.186725 -3.568962 -0.110478 1609 0.615024 0.303320 0.676857
-4.188095 -3.570111 -0.108821 1595 0.595312 0.286788 0.700699
-4.189679 -3.571457 -0.107171 1579 0.572520 0.267423 0.724440
-4.191540 -3.573035 -0.105520 1557 0.545749 0.244717 0.748195
-4.193287 -3.574515 -0.103871 1537 0.520610 0.223421 0.771922
-4.194707 -3.575713 -0.102214 1507 0.500178 0.206186 0.795763
-4.196397 -3.577150 -0.100554 1463 0.475863 0.185507 0.819648
-4.198805 -3.579199 -0.098909 1423 0.441215 0.156025 0.843318
-4.201561 -3.581536 -0.097275 1377 0.401559 0.122400 0.866828
-4.204473 -3.584013 -0.095639 1315 0.359659 0.086760 0.890368
-4.208011 -3.587010 -0.094020 1231 0.308750 0.043639 0.913663
-4.198308 -3.577179 -0.219256 1423 0.448364 0.185092 -0.888294
-4.195423 -3.574709 -0.217412 1463 0.489873 0.220632 -0.861762
-4.193085 -3.572710 -0.215594 1489 0.523512 0.249393 -0.835603
-4.191308 -3.571182 -0.213814 1507 0.549083 0.271379 -0.809992
-4.190071 -3.570131 -0.212062 1537 0.566880 0.286500 -0.784783
-4.188358 -3.568652 -0.210292 1561 0.591532 0.307783 -0.759316
-4.186844 -3.567356 -0.208520 1583 0.613316 0.326428 -0.733819
-4.186169 -3.566776 -0.206803 1605 0.623024 0.334774 -0.709114
-4.185116 -3.565866 -0.205058 1621 0.638180 0.347868 -0.684006
-4.183887 -3.564809 -0.203305 1637 0.655860 0.363075 -0.658783
-4.183097 -3.564131 -0.201581 1653 0.667229 0.372832 -0.633978
-4.182422 -3.563552 -0.199864 1665 0.676937 0.381164 -0.609272
-4.181255 -3.562543 -0.198121 1675 0.693733 0.395682 -0.584193
-4.180246 -3.561676 -0.196385 1687 0.708251 0.408155 -0.559215
-4.179513 -3.561040 -0.194661 1695 0.718796 0.417308 -0.534409
-4.178668 -3.560320 -0.192935 1713 0.730954 0.427668 -0.509575
-4.177672 -3.559453 -0.191211 1715 0.745286 0.440141 -0.484769
-4.177209 -3.559056 -0.189504 1707 0.751948 0.445853 -0.460208
-4.177145 -3.558996 -0.187804 1717 0.752868 0.446718 -0.435747
-4.176413 -3.558360 -0.186087 1721 0.763399 0.455867 -0.411042
-4.176071 -3.558055 -0.184390 1731 0.768318 0.460258 -0.386625
-4.175615 -3.557665 -0.182681 1747 0.774884 0.465866 -0.362035
-4.175217 -3.557318 -0.180983 1749 0.780606 0.470861 -0.337604
-4.175152 -3.557244 -0.179295 1747 0.781546 0.471925 -0.313316
-4.174413 -3.556616 -0.177579 1757 0.792174 0.480961 -0.288625
-4.174121 -3.556360 -0.175879 1759 0.796380 0.484645 -0.264165
-4.173999 -3.556244 -0.174191 1765 0.798136 0.486316 -0.239877
-4.173928 -3.556178 -0.172501 1773 0.799159 0.487262 -0.215560
-4.173145 -3.555493 -0.170786 1769 0.810424 0.497118 -0.190884
-4.172015 -3.554520 -0.169053 1765 0.826678 0.511121 -0.165949
-4.172171 -3.554650 -0.167371 1779 0.824434 0.509248 -0.141747
-4.172710 -3.555104 -0.165707 1783 0.816681 0.502717 -0.117805
-4.172475 -3.554890 -0.164019 1779 0.820064 0.505797 -0.093517
-4.172460 -3.554866 -0.162330 1783 0.820277 0.506140 -0.069215
-4.172112 -3.554567 -0.160632 1779 0.825285 0.510442 -0.044783
-4.171706 -3.554213 -0.158934 1767 0.831124 0.515536 -0.020352
-4.171748 -3.554231 -0.157254 1773 0.830520 0.515279 0.003821
-4.171832 -3.554305 -0.155574 1769 0.829312 0.514212 0.027994
-4.171547 -3.554056 -0.153874 1753 0.833415 0.517797 0.052454
-4.171476 -3.553976 -0.152184 1759 0.834438 0.518946 0.076771
-4.172064 -3.554478 -0.150521 1773 0.825978 0.511725 0.100699
-4.172490 -3.554819 -0.148849 1765 0.819844 0.506816 0.124756
-4.172198 -3.554563 -0.147161 1759 0.824050 0.510500 0.149044
-4.172781 -3.555059 -0.145497 1763 0.815659 0.503365 0.172987
-4.173824 -3.555942 -0.143842 1755 0.800654 0.490659 0.196800
-4.173979 -3.556057 -0.142161 1749 0.798424 0.489005 0.220987
-4.173837 -3.555935 -0.140473 1747 0.800462 0.490761 0.245274
-4.173879 -3.555953 -0.138793 1745 0.799858 0.490501 0.269447
-4.174241 -3.556259 -0.137120 1737 0.794651 0.486099 0.293519
-4.175618 -3.557415 -0.135472 1731 0.774836 0.469465 0.317231
-4.176257 -3.557953 -0.133808 1723 0.765643 0.461726 0.341174
-4.176512 -3.558168 -0.132127 1721 0.761979 0.458632 0.365361
-4.177044 -3.558614 -0.130454 1713 0.754322 0.452213 0.389433
-4.177861 -3.559300 -0.128790 1719 0.742562 0.442344 0.413375
-4.178776 -3.560070 -0.127135 1723 0.729403 0.431263 0.437188
-4.179308 -3.560516 -0.125462 1711 0.721746 0.424845 0.461260
-4.179571 -3.560724 -0.123780 1701 0.717959 0.421853 0.485461
-4.180323 -3.561360 -0.122117 1691 0.707139 0.412704 0.509389
-4.181353 -3.562228 -0.120461 1675 0.692320 0.400214 0.533217
-4.182446 -3.563146 -0.118793 1673 0.676594 0.387003 0.557217
-4.183305 -3.563873 -0.117128 1669 0.664238 0.376544 0.581174
-4.183731 -3.564229 -0.115458 1651 0.658104 0.371422 0.605202
-4.184476 -3.564858 -0.113784 1633 0.647387 0.362372 0.629289
-4.185790 -3.565965 -0.112126 1621 0.628478 0.346444 0.653145
-4.187316 -3.567255 -0.110478 1611 0.606523 0.327882 0.676857
-4.188623 -3.568354 -0.108821 1599 0.587717 0.312071 0.700699
-4.189987 -3.569511 -0.107163 1579 0.568088 0.295423 0.724555
-4.191911 -3.571138 -0.105512 1557 0.540404 0.272013 0.748310
-4.193715 -3.572674 -0.103862 1537 0.514449 0.249911 0.772051
-4.195292 -3.574013 -0.102204 1513 0.491760 0.230645 0.795907
-4.196769 -3.575253 -0.100545 1473 0.470504 0.212803 0.819778
-4.198907 -3.577063 -0.098893 1437 0.439747 0.186759 0.843548
-4.201712 -3.579449 -0.097268 1397 0.399384 0.152430 0.866929
-4.204461 -3.581778 -0.095622 1337 0.359830 0.118918 0.890612
-4.207658 -3.584494 -0.093994 1245 0.313834 0.079838 0.914037
-4.199006 -3.575478 -0.219235 1427 0.438320 0.209565 -0.887992
-4.196661 -3.573472 -0.217417 1469 0.472062 0.238429 -0.861834
-4.194827 -3.571901 -0.215638 1505 0.498449 0.261032 -0.836236
-4.192659 -3.570043 -0.213830 1529 0.529646 0.287766 -0.810222
-4.191095 -3.568711 -0.212069 1555 0.552150 0.306932 -0.784884
-4.189923 -3.567696 -0.210317 1579 0.569014 0.321536 -0.759675
-4.188365 -3.566357 -0.208544 1595 0.591429 0.340805 -0.734165
-4.187250 -3.565398 -0.206801 1613 0.607470 0.354602 -0.709085
-4.186517 -3.564777 -0.205075 1631 0.618022 0.363539 -0.684251
-4.185352 -3.563769 -0.203332 1645 0.634783 0.378039 -0.659172
-4.183887 -3.562522 -0.201578 1659 0.655860 0.395984 -0.633934
-4.182444 -3.561281 -0.199818 1661 0.676622 0.413840 -0.608611
-4.181776 -3.560695 -0.198102 1675 0.686234 0.422272 -0.583920
-4.181427 -3.560396 -0.196393 1695 0.691256 0.426574 -0.559330
-4.180588 -3.559669 -0.194669 1701 0.703331 0.437033 -0.534524
-4.180197 -3.559329 -0.192960 1711 0.708957 0.441925 -0.509934
-4.179571 -3.558784 -0.191243 1711 0.717959 0.449767 -0.485229
-4.178341 -3.557727 -0.189511 1711 0.735660 0.464975 -0.460308
-4.177665 -3.557148 -0.187795 1729 0.745382 0.473307 -0.435618
-4.177316 -3.556849 -0.186086 1731 0.750404 0.477609 -0.411028
-4.176811 -3.556410 -0.184378 1729 0.757670 0.483925 -0.386452
-4.176022 -3.555719 -0.182664 1737 0.769025 0.493870 -0.361791
-4.176064 -3.555751 -0.180974 1745 0.768421 0.493406 -0.337474
-4.176163 -3.555825 -0.179293 1753 0.766994 0.492343 -0.313287
-4.175814 -3.555526 -0.177594 1761 0.772017 0.496645 -0.288841
-4.175252 -3.555031 -0.175887 1765 0.780106 0.503766 -0.264280
-4.174903 -3.554733 -0.174188 1769 0.785128 0.508055 -0.239834
-4.174725 -3.554561 -0.172490 1777 0.787687 0.510531 -0.215402
-4.173985 -3.553933 -0.170775 1771 0.798335 0.519567 -0.190726
-4.173082 -3.553156 -0.169061 1775 0.811330 0.530747 -0.166064
-4.172740 -3.552851 -0.167361 1779 0.816249 0.535135 -0.141603
-4.172619 -3.552735 -0.165673 1783 0.817992 0.536802 -0.117316
-4.172825 -3.552901 -0.163990 1783 0.815028 0.534414 -0.093100
-4.172696 -3.552793 -0.162302 1783 0.816880 0.535968 -0.068812
-4.172674 -3.552761 -0.160622 1779 0.817196 0.536428 -0.044639
-4.172830 -3.552891 -0.158942 1779 0.814952 0.534558 -0.020467
-4.173319 -3.553296 -0.157269 1783 0.807920 0.528730 0.003605
-4.173191 -3.553173 -0.155578 1781 0.809759 0.530500 0.027936
-4.172678 -3.552727 -0.153882 1773 0.817141 0.536919 0.052339
-4.173040 -3.553033 -0.152211 1777 0.811934 0.532514 0.076382
-4.173629 -3.553522 -0.150548 1779 0.803460 0.525478 0.100310
-4.173948 -3.553786 -0.148875 1777 0.798870 0.521680 0.124382
-4.173763 -3.553622 -0.147176 1773 0.801532 0.524041 0.148828
-4.173854 -3.553688 -0.145495 1765 0.800222 0.523090 0.173015
-4.174565 -3.554282 -0.143842 1753 0.789992 0.514545 0.196800
-4.174940 -3.554589 -0.142159 1755 0.784593 0.510127 0.221015
-4.175082 -3.554705 -0.140479 1747 0.782548 0.508459 0.245188
-4.175727 -3.555250 -0.138816 1745 0.773272 0.500617 0.269116
-4.176651 -3.556027 -0.137160 1743 0.759976 0.489437 0.292943
-4.177019 -3.556325 -0.135489 1741 0.754679 0.485149 0.316987
-4.177601 -3.556821 -0.133815 1735 0.746309 0.478010 0.341073
-4.178304 -3.557409 -0.132151 1729 0.736189 0.469551 0.365015
-4.178509 -3.557574 -0.130471 1723 0.733238 0.467177 0.389188
-4.178878 -3.557873 -0.128798 1717 0.727935 0.462875 0.413260
-4.179744 -3.558608 -0.127133 1709 0.715475 0.452299 0.437217
-4.180439 -3.559188 -0.125470 1707 0.705472 0.443956 0.461145
-4.181192 -3.559824 -0.123805 1705 0.694639 0.434803 0.485102
-4.181724 -3.560271 -0.122132 1703 0.686982 0.428371 0.509174
-4.182199 -3.560661 -0.120459 1695 0.680148 0.422759 0.533246
-4.183407 -3.561677 -0.118804 1685 0.662769 0.408142 0.557058
-4.184109 -3.562264 -0.117128 1677 0.652663 0.399696 0.581174
-4.184464 -3.562563 -0.115447 1661 0.647559 0.395394 0.605361
-4.185493 -3.563431 -0.113791 1647 0.632753 0.382904 0.629188
-4.186857 -3.564587 -0.112134 1641 0.613123 0.366269 0.653030
-4.188498 -3.565975 -0.110486 1623 0.589515 0.346300 0.676742
-4.189754 -3.567026 -0.108828 1599 0.571443 0.331179 0.700598
-4.191175 -3.568239 -0.107171 1579 0.550997 0.313725 0.724440
-4.192978 -3.569760 -0.105520 1557 0.525056 0.291838 0.748195
-4.194512 -3.571057 -0.103862 1539 0.502984 0.273176 0.772051
-4.195925 -3.572248 -0.102204 1509 0.482648 0.256041 0.795907
-4.197850 -3.573875 -0.100552 1475 0.454951 0.232631 0.819677
-4.200315 -3.575966 -0.098909 1445 0.419486 0.202546 0.843318
-4.203127 -3.578359 -0.097274 1411 0.379027 0.168114 0.866843
-4.205983 -3.580780 -0.095639 1353 0.337930 0.133278 0.890368
-4.208796 -3.583159 -0.094002 1273 0.297457 0.099048 0.913922
-4.199839 -3.573925 -0.219223 1437 0.426334 0.231911 -0.887819
-4.197217 -3.571687 -0.217399 1479 0.464062 0.264113 -0.861575
-4.195496 -3.570215 -0.215619 1511 0.488823 0.285293 -0.835963
-4.193712 -3.568679 -0.213839 1535 0.514490 0.307392 -0.810352
-4.191822 -3.567066 -0.212059 1553 0.541687 0.330603 -0.784740
-4.190095 -3.565587 -0.210278 1579 0.566537 0.351882 -0.759114
-4.188538 -3.564249 -0.208506 1595 0.588938 0.371134 -0.733618
-4.187642 -3.563480 -0.206782 1613 0.601830 0.382200 -0.708812
-4.186966 -3.562900 -0.205056 1637 0.611559 0.390543 -0.683977
-4.185907 -3.561983 -0.203313 1647 0.626797 0.403737 -0.658898
-4.184401 -3.560694 -0.201550 1655 0.648464 0.422286 -0.633532
-4.183114 -3.559594 -0.199807 1671 0.666982 0.438114 -0.608452
-4.182495 -3.559057 -0.198090 1683 0.675888 0.445839 -0.583747
-4.181990 -3.558619 -0.196374 1691 0.683153 0.452141 -0.559057
-4.181257 -3.557982 -0.194657 1699 0.693705 0.461307 -0.534352
-4.180355 -3.557206 -0.192933 1703 0.706680 0.472474 -0.509546
-4.179288 -3.556297 -0.191190 1699 0.722034 0.485551 -0.484467
-4.178677 -3.555766 -0.189483 1709 0.730823 0.493190 -0.459906
-4.178157 -3.555313 -0.187775 1723 0.738309 0.499708 -0.435330
-4.177936 -3.555114 -0.186076 1731 0.741485 0.502573 -0.410884
-4.177197 -3.554485 -0.184361 1733 0.752120 0.511622 -0.386208
-4.176464 -3.553849 -0.182635 1729 0.762665 0.520775 -0.361373
-4.176620 -3.553980 -0.180964 1743 0.760422 0.518888 -0.337330
-4.176498 -3.553864 -0.179265 1753 0.762178 0.520559 -0.312884
-4.176100 -3.553516 -0.177567 1753 0.767907 0.525567 -0.288452
-4.175361 -3.552873 -0.175851 1753 0.778534 0.534819 -0.263762
-4.174898 -3.552477 -0.174144 1765 0.785196 0.540517 -0.239201
-4.174450 -3.552081 -0.172446 1777 0.791646 0.546212 -0.214769
-4.174158 -3.551824 -0.170747 1777 0.795845 0.549910 -0.190323
-4.173915 -3.551618 -0.169059 1775 0.799344 0.552874 -0.166035
-4.173616 -3.551354 -0.167361 1779 0.803646 0.556675 -0.141603
-4.173559 -3.551288 -0.165671 1783 0.804462 0.557625 -0.117287
-4.173430 -3.551179 -0.163980 1783 0.806321 0.559193 -0.092956
-4.173636 -3.551345 -0.162310 1781 0.803357 0.556802 -0.068927
-4.174345 -3.551939 -0.160647 1779 0.793155 0.548256 -0.044999
-4.174714 -3.552238 -0.158975 1791 0.787845 0.543955 -0.020942
-4.174032 -3.551651 -0.157269 1793 0.797656 0.552400 0.003605
-4.173242 -3.550973 -0.155553 1789 0.809025 0.562157 0.028296
-4.173668 -3.551329 -0.153880 1787 0.802898 0.557035 0.052368
-4.174378 -3.551923 -0.152225 1785 0.792682 0.548486 0.076181
-4.174419 -3.551941 -0.150546 1777 0.792092 0.548229 0.100339
-4.174391 -3.551917 -0.148856 1771 0.792497 0.548572 0.124656
-4.174262 -3.551794 -0.147168 1769 0.794349 0.550342 0.148943
-4.174247 -3.551770 -0.145488 1763 0.794569 0.550689 0.173116
-4.175170 -3.552547 -0.143831 1755 0.781286 0.539509 0.196958
-4.175879 -3.553141 -0.142169 1755 0.771083 0.530960 0.220871
-4.175410 -3.552737 -0.140471 1741 0.777835 0.536775 0.245303
-4.175559 -3.552860 -0.138791 1739 0.775687 0.535004 0.269476
-4.176205 -3.553391 -0.137125 1735 0.766391 0.527365 0.293447
-4.177234 -3.554259 -0.135470 1735 0.751585 0.514874 0.317260
-4.178711 -3.555514 -0.133821 1741 0.730336 0.496816 0.340987
-4.179591 -3.556249 -0.132169 1741 0.717671 0.486244 0.364756
-4.179569 -3.556217 -0.130479 1735 0.717993 0.486703 0.389073
-4.179654 -3.556292 -0.128798 1717 0.716765 0.485623 0.413260
-4.180527 -3.557019 -0.127133 1711 0.704203 0.475163 0.437217
-4.181500 -3.557846 -0.125478 1711 0.690206 0.463263 0.461030
-4.182260 -3.558475 -0.123813 1715 0.679270 0.454213 0.484986
-4.182791 -3.558921 -0.122140 1707 0.671627 0.447795 0.509059
-4.183096 -3.559171 -0.120459 1697 0.667243 0.444200 0.533246
-4.184062 -3.559990 -0.118792 1683 0.653342 0.432416 0.557231
-4.185049 -3.560816 -0.117139 1675 0.639140 0.420529 0.581015
-4.185638 -3.561305 -0.115463 1663 0.630667 0.413493 0.605130
-4.186220 -3.561801 -0.113791 1647 0.622290 0.406358 0.629188
-4.187867 -3.563182 -0.112141 1641 0.598592 0.386485 0.652929
-4.189898 -3.564900 -0.110501 1625 0.569371 0.361768 0.676526
-4.190978 -3.565817 -0.108834 1607 0.553831 0.348571 0.700512
-4.192178 -3.566826 -0.107179 1587 0.536569 0.334054 0.724325
-4.193648 -3.568074 -0.105520 1559 0.515416 0.316098 0.748195
-4.195068 -3.569272 -0.103862 1535 0.494984 0.298860 0.772051
-4.196765 -3.570702 -0.102202 1509 0.470566 0.278284 0.795936
-4.198960 -3.572568 -0.100560 1479 0.438985 0.251437 0.819562
-4.201261 -3.574511 -0.098917 1445 0.405874 0.223479 0.843202
-4.203463 -3.576370 -0.097265 1397 0.374190 0.196731 0.866972
-4.206048 -3.578567 -0.095622 1335 0.336997 0.165119 0.890612
-4.209458 -3.581465 -0.094002 1267 0.287934 0.123422 0.913922
-4.200836 -3.572647 -0.219231 1443 0.411987 0.250298 -0.887934
-4.198220 -3.570401 -0.217406 1475 0.449633 0.282617 -0.861675
-4.195875 -3.568409 -0.215600 1499 0.483369 0.311279 -0.835690
-4.194035 -3.566832 -0.213809 1525 0.509845 0.333968 -0.809920
-4.192982 -3.565922 -0.212066 1551 0.524994 0.347062 -0.784841
-4.191589 -3.564731 -0.210303 1585 0.545042 0.364201 -0.759474
-4.190018 -3.563392 -0.208543 1603 0.567642 0.383466 -0.734150
-4.189194 -3.562679 -0.206807 1621 0.579498 0.393723 -0.709172
-4.187900 -3.561573 -0.205054 1635 0.598118 0.409637 -0.683949
-4.186670 -3.560515 -0.203310 1645 0.615820 0.424862 -0.658855
-4.185497 -3.559514 -0.201568 1659 0.632698 0.439263 -0.633790
-4.184331 -3.558506 -0.199823 1673 0.649473 0.453767 -0.608683
-4.183591 -3.557878 -0.198098 1683 0.660121 0.462803 -0.583862
-4.182980 -3.557347 -0.196380 1687 0.668910 0.470443 -0.559143
-4.182304 -3.556754 -0.194664 1693 0.678639 0.478974 -0.534452
-4.181124 -3.555745 -0.192921 1695 0.695613 0.493496 -0.509373
-4.180058 -3.554836 -0.191188 1699 0.710954 0.506573 -0.484438
-4.179830 -3.554629 -0.189488 1719 0.714233 0.509550 -0.459977
-4.179652 -3.554471 -0.187800 1727 0.716793 0.511825 -0.435690
-4.179359 -3.554215 -0.186100 1733 0.721012 0.515509 -0.411229
-4.178634 -3.553586 -0.184375 1731 0.731441 0.524559 -0.386409
-4.177732 -3.552810 -0.182660 1727 0.744422 0.535725 -0.361733
-4.177503 -3.552603 -0.180962 1745 0.747715 0.538702 -0.337301
-4.177211 -3.552347 -0.179263 1759 0.751921 0.542387 -0.312855
-4.176422 -3.551669 -0.177548 1757 0.763269 0.552143 -0.288179
-4.175903 -3.551216 -0.175840 1757 0.770740 0.558661 -0.263603
-4.175667 -3.551016 -0.174142 1767 0.774137 0.561536 -0.239172
-4.175042 -3.550472 -0.172435 1775 0.783124 0.569364 -0.214611
-4.175204 -3.550595 -0.170753 1773 0.780799 0.567594 -0.190409
-4.176021 -3.551280 -0.169101 1775 0.769039 0.557738 -0.166639
-4.175842 -3.551123 -0.167410 1785 0.771619 0.559999 -0.142308
-4.175273 -3.550635 -0.165704 1795 0.779804 0.567018 -0.117762
-4.174811 -3.550238 -0.164006 1791 0.786452 0.572733 -0.093330
-4.174960 -3.550347 -0.162326 1781 0.784304 0.571162 -0.069157
-4.175612 -3.550899 -0.160663 1785 0.774926 0.563220 -0.045229
-4.175654 -3.550917 -0.158982 1797 0.774322 0.562963 -0.021042
-4.175696 -3.550949 -0.157292 1803 0.773718 0.562500 0.003274
-4.175568 -3.550827 -0.155602 1795 0.775557 0.564256 0.027591
-4.175319 -3.550613 -0.153913 1789 0.779138 0.567337 0.051893
-4.174870 -3.550216 -0.152217 1779 0.785601 0.573048 0.076296
-4.174905 -3.550241 -0.150527 1775 0.785100 0.572688 0.100612
-4.174940 -3.550266 -0.148846 1775 0.784593 0.572328 0.124799
-4.175032 -3.550333 -0.147166 1775 0.783269 0.571364 0.148972
-4.175678 -3.550878 -0.145503 1765 0.773979 0.563522 0.172900
-4.176217 -3.551317 -0.143840 1765 0.766219 0.557207 0.196828
-4.176301 -3.551392 -0.142159 1755 0.765011 0.556126 0.221015
-4.176571 -3.551606 -0.140477 1747 0.761128 0.553049 0.245217
-4.177096 -3.552046 -0.138803 1741 0.753574 0.546716 0.269303
-4.177919 -3.552738 -0.137151 1733 0.741732 0.536761 0.293073
-4.179005 -3.553649 -0.135493 1737 0.726103 0.523653 0.316929
-4.179538 -3.554095 -0.133832 1743 0.718439 0.517235 0.340828
-4.179743 -3.554261 -0.132150 1739 0.715489 0.514847 0.365030
-4.180112 -3.554560 -0.130479 1731 0.710179 0.510545 0.389073
-4.180750 -3.555098 -0.128803 1725 0.700999 0.502802 0.413188
-4.181844 -3.556015 -0.127148 1721 0.685253 0.489609 0.437001
-4.182326 -3.556427 -0.125476 1715 0.678323 0.483681 0.461058
-4.182802 -3.556817 -0.123803 1705 0.671469 0.478069 0.485130
-4.183334 -3.557264 -0.122130 1691 0.663819 0.471637 0.509202
-4.184207 -3.557991 -0.120465 1687 0.651257 0.461177 0.533159
-4.184953 -3.558621 -0.118802 1683 0.640519 0.452114 0.557087
-4.185812 -3.559348 -0.117137 1675 0.628163 0.441651 0.581044
-4.187019 -3.560364 -0.115479 1667 0.610798 0.427033 0.604900
-4.187437 -3.560712 -0.113797 1647 0.604780 0.422025 0.629102
-4.188459 -3.561573 -0.112132 1639 0.590077 0.409637 0.653059
-4.190050 -3.562912 -0.110482 1627 0.567182 0.390372 0.676799
-4.191080 -3.563780 -0.108817 1607 0.552363 0.377881 0.700756
-4.192557 -3.565021 -0.107169 1579 0.531114 0.360026 0.724469
-4.194254 -3.566465 -0.105510 1559 0.506696 0.339251 0.748339
-4.195618 -3.567607 -0.103852 1531 0.487067 0.322819 0.772195
-4.197364 -3.569086 -0.102202 1507 0.461949 0.301536 0.795936
-4.199680 -3.571044 -0.100560 1489 0.428625 0.273365 0.819562
-4.201754 -3.572804 -0.098908 1447 0.398780 0.248041 0.843332
-4.203785 -3.574523 -0.097257 1395 0.369559 0.223307 0.867087
-4.206769 -3.577042 -0.095630 1337 0.326623 0.187061 0.890497
-4.210576 -3.580278 -0.094010 1269 0.271845 0.140502 0.913807
-4.201989 -3.571495 -0.219249 1451 0.395397 0.266874 -0.888193
-4.199211 -3.569130 -0.217414 1479 0.435369 0.300905 -0.861791
-4.196979 -3.567222 -0.215605 1507 0.467486 0.328356 -0.835762
-4.195032 -3.565553 -0.213817 1535 0.495499 0.352372 -0.810035
-4.193688 -3.564412 -0.212054 1557 0.514840 0.368787 -0.784668
-4.192302 -3.563228 -0.210301 1587 0.534778 0.385826 -0.759445
-4.190902 -3.562030 -0.208539 1613 0.554922 0.403061 -0.734093
-4.189566 -3.560881 -0.206788 1623 0.574146 0.419596 -0.708898
-4.188222 -3.559725 -0.205026 1629 0.593487 0.436227 -0.683546
-4.187156 -3.558816 -0.203290 1643 0.608822 0.449308 -0.658567
-4.186601 -3.558327 -0.201573 1659 0.616808 0.456343 -0.633862
-4.185755 -3.557607 -0.199849 1673 0.628986 0.466704 -0.609057
-4.184304 -3.556360 -0.198087 1677 0.649857 0.484645 -0.583704
-4.183686 -3.555837 -0.196370 1689 0.658756 0.492171 -0.558999
-4.182946 -3.555194 -0.194653 1701 0.669397 0.501423 -0.534294
-4.181944 -3.554334 -0.192919 1699 0.683819 0.513797 -0.509344
-4.181325 -3.553796 -0.191203 1703 0.692724 0.521536 -0.484654
-4.180926 -3.553449 -0.189505 1717 0.698467 0.526531 -0.460222
-4.180528 -3.553101 -0.187798 1723 0.704189 0.531536 -0.435661
-4.180016 -3.552655 -0.186091 1727 0.711558 0.537955 -0.411100
-4.179454 -3.552174 -0.184373 1731 0.719647 0.544874 -0.386380
-4.179218 -3.551960 -0.182685 1737 0.723043 0.547954 -0.362093
-4.178926 -3.551704 -0.180987 1757 0.727242 0.551639 -0.337661
-4.178251 -3.551125 -0.179271 1763 0.736957 0.559968 -0.312970
-4.177462 -3.550447 -0.177554 1761 0.748305 0.569724 -0.288265
-4.176552 -3.549664 -0.175830 1759 0.761403 0.580990 -0.263460
-4.176096 -3.549274 -0.174123 1759 0.767962 0.586602 -0.238898
-4.175641 -3.548870 -0.172425 1765 0.774507 0.592414 -0.214467
-4.175740 -3.548944 -0.170745 1769 0.773087 0.591350 -0.190294
-4.176720 -3.549778 -0.169098 1777 0.758981 0.579350 -0.166596
-4.176598 -3.549662 -0.167409 1781 0.760737 0.581017 -0.142294
-4.176029 -3.549174 -0.165704 1793 0.768922 0.588040 -0.117762
-4.175730 -3.548911 -0.164004 1787 0.773224 0.591824 -0.093301
-4.175893 -3.549034 -0.162324 1785 0.770884 0.590053 -0.069129
-4.176034 -3.549150 -0.160643 1785 0.768854 0.588386 -0.044941
-4.175806 -3.548944 -0.158954 1785 0.772133 0.591350 -0.020639
-4.176061 -3.549158 -0.157283 1785 0.768463 0.588270 0.003404
-4.175826 -3.548944 -0.155583 1779 0.771845 0.591350 0.027864
-4.175470 -3.548639 -0.153886 1769 0.776970 0.595738 0.052281
-4.175569 -3.548713 -0.152205 1775 0.775543 0.594674 0.076468
-4.175881 -3.548970 -0.150534 1779 0.771056 0.590976 0.100512
-4.176257 -3.549276 -0.148862 1791 0.765643 0.586571 0.124569
-4.176853 -3.549772 -0.147199 1787 0.757066 0.579436 0.148497
-4.177335 -3.550169 -0.145526 1771 0.750137 0.573724 0.172569
-4.176916 -3.549814 -0.143828 1765 0.756161 0.578832 0.197001
-4.176396 -3.549362 -0.142130 1753 0.763646 0.585337 0.221433
-4.176382 -3.549337 -0.140441 1743 0.763845 0.585697 0.245735
-4.177418 -3.550213 -0.138795 1743 0.748936 0.573090 0.269418
-4.179236 -3.551748 -0.137166 1751 0.722782 0.551004 0.292857
-4.180159 -3.552525 -0.135509 1745 0.709499 0.539824 0.316699
-4.180243 -3.552585 -0.133830 1743 0.708292 0.538963 0.340857
-4.180392 -3.552709 -0.132138 1737 0.706151 0.537176 0.365202
-4.181436 -3.553576 -0.130483 1735 0.691126 0.524703 0.389015
-4.182515 -3.554494 -0.128836 1729 0.675599 0.511495 0.412713
-4.182997 -3.554891 -0.127164 1725 0.668663 0.505780 0.436771
-4.183302 -3.555141 -0.125483 1715 0.664279 0.502185 0.460958
-4.183621 -3.555405 -0.123801 1707 0.659689 0.498387 0.485159
-4.184381 -3.556035 -0.122138 1697 0.648752 0.489321 0.509087
-4.185403 -3.556895 -0.120481 1687 0.634049 0.476947 0.532929
-4.186106 -3.557483 -0.118808 1683 0.623929 0.468487 0.557001
-4.187143 -3.558358 -0.117151 1679 0.609014 0.455897 0.580843
-4.187952 -3.559036 -0.115476 1661 0.597371 0.446141 0.604943
-4.188583 -3.559567 -0.113805 1643 0.588294 0.438502 0.628986
-4.189677 -3.560484 -0.112146 1631 0.572555 0.425308 0.652857
-4.190592 -3.561254 -0.110482 1619 0.559388 0.414227 0.676799
-4.191906 -3.562361 -0.108826 1599 0.540479 0.398300 0.700627
-4.193660 -3.563848 -0.107177 1577 0.515245 0.376904 0.724353
-4.195244 -3.565180 -0.105517 1557 0.492453 0.357738 0.748238
-4.196608 -3.566336 -0.103860 1535 0.472824 0.341107 0.772080
-4.198305 -3.567766 -0.102210 1519 0.448405 0.320531 0.795821
-4.200670 -3.569772 -0.100568 1495 0.414382 0.291667 0.819447
-4.202865 -3.571624 -0.098914 1457 0.382794 0.265019 0.843246
-4.204895 -3.573343 -0.097264 1409 0.353587 0.240285 0.866987
-4.207644 -3.575673 -0.095628 1359 0.314033 0.206759 0.890526
-4.210841 -3.578374 -0.094001 1289 0.268031 0.167898 0.913936
-4.202751 -3.569942 -0.219236 1457 0.384434 0.289221 -0.888006
-4.200235 -3.567795 -0.217412 1487 0.420639 0.320112 -0.861762
-4.198068 -3.565950 -0.215613 1519 0.451815 0.346661 -0.835877
-4.196398 -3.564514 -0.213832 1539 0.475849 0.367322 -0.810251
-4.195111 -3.563414 -0.212079 1561 0.494367 0.383147 -0.785028
-4.193782 -3.562273 -0.210328 1583 0.513488 0.399566 -0.759834
-4.192261 -3.560983 -0.208556 1607 0.535368 0.418128 -0.734337
-4.190484 -3.559455 -0.206786 1621 0.560939 0.440114 -0.708870
-4.188977 -3.558165 -0.205024 1631 0.582626 0.458673 -0.683517
-4.188025 -3.557354 -0.203290 1643 0.596321 0.470343 -0.658567
-4.187185 -3.556627 -0.201554 1655 0.608410 0.480803 -0.633589
-4.185948 -3.555577 -0.199811 1665 0.626207 0.495911 -0.608510
-4.184605 -3.554421 -0.198058 1677 0.645528 0.512545 -0.583287
-4.183709 -3.553652 -0.196334 1691 0.658419 0.523608 -0.558481
-4.183033 -3.553072 -0.194617 1695 0.668148 0.531955 -0.533776
-4.182472 -3.552591 -0.192901 1697 0.676217 0.538874 -0.509085
-4.181960 -3.552145 -0.191193 1701 0.683586 0.545292 -0.484510
-4.181674 -3.551896 -0.189494 1719 0.687702 0.548874 -0.460064
-4.181106 -3.551394 -0.187777 1729 0.695873 0.556098 -0.435359
-4.180324 -3.550723 -0.186063 1723 0.707125 0.565752 -0.410697
-4.180309 -3.550699 -0.184373 1725 0.707345 0.566098 -0.386380
-4.180741 -3.551061 -0.182710 1747 0.701129 0.560891 -0.362452
-4.179959 -3.550390 -0.180983 1755 0.712381 0.570544 -0.337604
-4.178494 -3.549143 -0.179242 1751 0.733458 0.588486 -0.312553
-4.177876 -3.548606 -0.177535 1753 0.742350 0.596215 -0.287992
-4.177918 -3.548624 -0.175845 1759 0.741746 0.595954 -0.263675
-4.177789 -3.548515 -0.174157 1759 0.743598 0.597522 -0.239387
-4.177782 -3.548498 -0.172477 1769 0.743701 0.597769 -0.215215
-4.177433 -3.548186 -0.170779 1771 0.748724 0.602256 -0.190783
-4.177084 -3.547888 -0.169080 1771 0.753746 0.606544 -0.166337
-4.176685 -3.547540 -0.167373 1775 0.759488 0.611552 -0.141776
-4.176500 -3.547375 -0.165683 1783 0.762150 0.613926 -0.117460
-4.176713 -3.547548 -0.164011 1787 0.759084 0.611436 -0.093402
-4.176804 -3.547615 -0.162331 1793 0.757773 0.610472 -0.069229
-4.176512 -3.547359 -0.160634 1781 0.761979 0.614156 -0.044812
-4.176433 -3.547285 -0.158944 1775 0.763111 0.615219 -0.020495
-4.175921 -3.546839 -0.157246 1775 0.770480 0.621638 0.003936
-4.175402 -3.546386 -0.155539 1765 0.777944 0.628156 0.028497
-4.175770 -3.546699 -0.153869 1765 0.772655 0.623652 0.052526
-4.175763 -3.546682 -0.152188 1775 0.772751 0.623899 0.076713
-4.176352 -3.547171 -0.150524 1781 0.764277 0.616859 0.100656
-4.177339 -3.547997 -0.148869 1781 0.750075 0.604976 0.124469
-4.177594 -3.548212 -0.147199 1771 0.746405 0.601882 0.148497
-4.177749 -3.548328 -0.145516 1759 0.744175 0.600214 0.172713
-4.177954 -3.548493 -0.143836 1759 0.741225 0.597841 0.196886
-4.178317 -3.548800 -0.142163 1753 0.736003 0.593422 0.220958
-4.178359 -3.548817 -0.140483 1743 0.735400 0.593179 0.245130
-4.178442 -3.548892 -0.138802 1745 0.734206 0.592098 0.269317
-4.179487 -3.549760 -0.137147 1753 0.719167 0.579608 0.293130
-4.179848 -3.550066 -0.135476 1737 0.713973 0.575206 0.317174
-4.180835 -3.550892 -0.133820 1733 0.699777 0.563320 0.341001
-4.181701 -3.551613 -0.132155 1733 0.687311 0.552946 0.364958
-4.181679 -3.551595 -0.130475 1729 0.687634 0.553207 0.389130
-4.182048 -3.551894 -0.128793 1717 0.682323 0.548905 0.413332
-4.183141 -3.552811 -0.127137 1719 0.666591 0.535711 0.437159
-4.183951 -3.553490 -0.125472 1707 0.654941 0.525941 0.461116
-4.184654 -3.554077 -0.123809 1693 0.644821 0.517495 0.485044
-4.185406 -3.554713 -0.122146 1691 0.634001 0.508343 0.508972
-4.186215 -3.555392 -0.120480 1683 0.622365 0.498573 0.532943
-4.187024 -3.556070 -0.118815 1677 0.610722 0.488816 0.556900
-4.187550 -3.556510 -0.117143 1675 0.603154 0.482487 0.580958
-4.188138 -3.556998 -0.115470 1657 0.594695 0.475465 0.605030
-4.189232 -3.557916 -0.113803 1643 0.578956 0.462258 0.629015
-4.190652 -3.559114 -0.112154 1631 0.558524 0.445019 0.652742
-4.191795 -3.560081 -0.110490 1619 0.542078 0.431105 0.676684
-4.192768 -3.560893 -0.108824 1599 0.528075 0.419421 0.700656
-4.194515 -3.562372 -0.107175 1575 0.502936 0.398142 0.724382
-4.196781 -3.564280 -0.105542 1557 0.470333 0.370688 0.747879
-4.198087 -3.565380 -0.103875 1539 0.451541 0.354859 0.771864
-4.199557 -3.566628 -0.102216 1515 0.430395 0.336904 0.795735
-4.201475 -3.568248 -0.100566 1489 0.402794 0.313594 0.819476
-4.203343 -3.569819 -0.098916 1461 0.375919 0.290991 0.843217
-4.205260 -3.571438 -0.097255 1413 0.348338 0.267694 0.867116
-4.207569 -3.573389 -0.095612 1353 0.315110 0.239623 0.890756
-4.211106 -3.576386 -0.093993 1277 0.264223 0.196502 0.914051
-4.203357 -3.568206 -0.219218 1461 0.375713 0.314198 -0.887747
-4.201239 -3.566396 -0.217419 1485 0.406190 0.340242 -0.861862
-4.199455 -3.564875 -0.215640 1511 0.431864 0.362129 -0.836265
-4.197728 -3.563396 -0.213858 1535 0.456707 0.383408 -0.810625
-4.196164 -3.562065 -0.212088 1559 0.479211 0.402560 -0.785157
-4.194771 -3.560874 -0.210325 1577 0.499259 0.419696 -0.759790
-4.193427 -3.559718 -0.208573 1597 0.518593 0.436330 -0.734582
-4.192035 -3.558527 -0.206811 1619 0.538620 0.453465 -0.709229
-4.191252 -3.557856 -0.205085 1635 0.549886 0.463119 -0.684395
-4.190633 -3.557319 -0.203368 1651 0.558798 0.470848 -0.659690
-4.188793 -3.555756 -0.201588 1657 0.585268 0.493334 -0.634078
-4.187229 -3.554410 -0.199828 1671 0.607772 0.512703 -0.608754
-4.186489 -3.553781 -0.198102 1681 0.618420 0.521752 -0.583920
-4.186155 -3.553483 -0.196402 1689 0.623230 0.526041 -0.559460
-4.185756 -3.553135 -0.194695 1703 0.628965 0.531049 -0.534898
-4.184626 -3.552176 -0.192962 1707 0.645226 0.544846 -0.509963
-4.183460 -3.551168 -0.191218 1701 0.662001 0.559351 -0.484870
-4.182785 -3.550589 -0.189502 1717 0.671716 0.567680 -0.460179
-4.182166 -3.550051 -0.187785 1721 0.680622 0.575422 -0.435474
-4.181483 -3.549465 -0.186068 1717 0.690453 0.583854 -0.410769
-4.181355 -3.549356 -0.184380 1717 0.692292 0.585422 -0.386481
-4.181573 -3.549522 -0.182698 1741 0.689157 0.583035 -0.362280
-4.181169 -3.549182 -0.181001 1757 0.694968 0.587927 -0.337862
-4.180265 -3.548405 -0.179276 1753 0.707976 0.599106 -0.313042
-4.179924 -3.548100 -0.177579 1757 0.712882 0.603494 -0.288625
-4.179575 -3.547802 -0.175879 1765 0.717904 0.607782 -0.264165
-4.179120 -3.547398 -0.174172 1761 0.724449 0.613593 -0.239603
-4.179276 -3.547528 -0.172492 1767 0.722206 0.611724 -0.215431
-4.179153 -3.547412 -0.170802 1769 0.723976 0.613394 -0.191114
-4.178357 -3.546728 -0.169087 1777 0.735427 0.623236 -0.166438
-4.177788 -3.546240 -0.167379 1785 0.743619 0.630255 -0.141862
-4.177447 -3.545934 -0.165683 1785 0.748525 0.634660 -0.117460
-4.177652 -3.546100 -0.164010 1771 0.745574 0.632272 -0.093388
-4.177907 -3.546315 -0.162338 1767 0.741904 0.629178 -0.069330
-4.177835 -3.546248 -0.160649 1769 0.742940 0.630142 -0.045028
-4.177600 -3.546034 -0.158952 1771 0.746322 0.633219 -0.020611
-4.177088 -3.545588 -0.157254 1767 0.753691 0.639638 0.003821
-4.176505 -3.545086 -0.155547 1771 0.762075 0.646862 0.028382
-4.176610 -3.545167 -0.153867 1769 0.760566 0.645696 0.052555
-4.177249 -3.545705 -0.152203 1769 0.751372 0.637953 0.076497
-4.177845 -3.546201 -0.150540 1775 0.742796 0.630818 0.100425
