66
-29.093216 -25.430033 -0.181447 1077 1.074290 -0.195867 -0.163719
-29.093708 -25.430405 -0.169583 1075 1.067210 -0.201218 0.006986
-29.100815 -25.421724 -0.205234 1111 0.964954 -0.076321 -0.505978
-29.097086 -25.418404 -0.193347 1149 1.018607 -0.028542 -0.334942
-29.094116 -25.415758 -0.181464 1171 1.061337 0.009523 -0.163964
-29.093845 -25.415455 -0.169597 1159 1.065234 0.013887 0.006784
-29.097048 -25.418194 -0.157748 1143 1.019155 -0.025523 0.177274
-29.101070 -25.421650 -0.145904 1083 0.961276 -0.075251 0.347691
-29.106705 -25.411568 -0.217134 1091 0.880207 0.069817 -0.677201
-29.101713 -25.407154 -0.205245 1165 0.952028 0.133322 -0.506136
-29.098789 -25.404541 -0.193362 1191 0.994099 0.170920 -0.335158
-29.096935 -25.402855 -0.181493 1223 1.020775 0.195181 -0.164381
-29.097763 -25.403526 -0.169639 1211 1.008864 0.185521 0.006180
-29.099865 -25.405289 -0.157777 1189 0.978621 0.160162 0.176856
-29.103395 -25.408321 -0.145934 1135 0.927822 0.116527 0.347259
-29.110933 -25.414833 -0.134090 1053 0.819364 0.022833 0.517676
-29.110760 -25.399128 -0.217170 1135 0.821861 0.248806 -0.677719
-29.105818 -25.394753 -0.205270 1201 0.892968 0.311762 -0.506496
-29.104010 -25.393114 -0.193401 1223 0.918985 0.335337 -0.335719
-29.102310 -25.391582 -0.181531 1257 0.943438 0.357374 -0.164928
-29.100988 -25.390366 -0.169667 1237 0.962456 0.374883 0.005777
-29.103247 -25.392281 -0.157815 1215 0.929963 0.347330 0.176310
-29.107716 -25.396116 -0.145969 1181 0.865662 0.292140 0.346756
-29.114389 -25.401867 -0.134130 1113 0.769636 0.209397 0.517101
-29.124830 -25.395483 -0.229125 1053 0.619408 0.301251 -0.849733
-29.117310 -25.388865 -0.217210 1141 0.727619 0.396482 -0.678295
-29.112473 -25.384588 -0.205320 1213 0.797217 0.458011 -0.507216
-29.109272 -25.381744 -0.193439 1245 0.843268 0.498929 -0.336266
-29.108187 -25.380728 -0.181575 1257 0.858883 0.513557 -0.165561
-29.107861 -25.380384 -0.169717 1271 0.863576 0.518497 0.005058
-29.109688 -25.381924 -0.157867 1237 0.837285 0.496350 0.175561
-29.113272 -25.384991 -0.146014 1189 0.785718 0.452220 0.346108
-29.119379 -25.390247 -0.134168 1141 0.697843 0.376585 0.516554
-29.133211 -25.402252 -0.122346 1007 0.498820 0.203853 0.686655
-29.134111 -25.387299 -0.229181 1055 0.485866 0.419013 -0.850539
-29.126953 -25.381006 -0.217273 1153 0.588863 0.509550 -0.679201
-29.120861 -25.375631 -0.205369 1209 0.676519 0.586887 -0.507921
-29.118046 -25.373123 -0.193496 1239 0.717026 0.622976 -0.337086
-29.115633 -25.370960 -0.181621 1261 0.751742 0.654097 -0.166223
-29.115482 -25.370762 -0.169763 1249 0.753910 0.656951 0.004396
-29.117413 -25.372385 -0.157911 1213 0.726137 0.633597 0.174928
-29.121328 -25.375738 -0.146068 1193 0.669795 0.585350 0.345331
-29.127220 -25.380808 -0.134223 1131 0.585021 0.512404 0.515763
-29.136505 -25.373045 -0.217338 1137 0.451424 0.624101 -0.680136
-29.131170 -25.368341 -0.205440 1187 0.528185 0.691778 -0.508942
-29.127476 -25.365068 -0.193561 1231 0.581343 0.738871 -0.338021
-29.124571 -25.362471 -0.181680 1225 0.623140 0.776250 -0.167072
-29.124578 -25.362427 -0.169818 1203 0.623031 0.776881 0.003605
-29.126507 -25.364046 -0.157968 1199 0.595285 0.753581 0.174108
-29.130825 -25.367735 -0.146123 1147 0.533152 0.700505 0.344540
-29.136648 -25.372755 -0.134278 1085 0.449366 0.628272 0.514971
-29.150091 -25.368916 -0.217416 1073 0.255941 0.683517 -0.681259
-29.143984 -25.363537 -0.205522 1153 0.343817 0.760909 -0.510122
-29.140905 -25.360798 -0.193641 1187 0.388111 0.800318 -0.339173
-29.137112 -25.357443 -0.181754 1197 0.442697 0.848592 -0.168136
-29.135183 -25.355703 -0.169885 1189 0.470443 0.873621 0.002641
-29.139000 -25.358959 -0.158042 1185 0.415528 0.826774 0.173043
-29.143408 -25.362736 -0.146196 1127 0.352105 0.772435 0.343490
-29.151457 -25.369677 -0.134359 1039 0.236292 0.672567 0.513806
-29.160017 -25.361835 -0.205615 1069 0.113124 0.785389 -0.511460
-29.154621 -25.357084 -0.193717 1121 0.190762 0.853751 -0.340266
-29.151981 -25.354719 -0.181842 1139 0.228745 0.887782 -0.169403
-29.152374 -25.355007 -0.169980 1133 0.223091 0.883638 0.001274
-29.154409 -25.356720 -0.158118 1123 0.193809 0.858993 0.171950
-29.167505 -25.352577 -0.181928 1035 0.005379 0.918601 -0.170640
-29.167900 -25.352865 -0.170066 1035 -0.000302 0.914457 0.000036
