767
-8.358115 -7.244845 -0.113997 935 0.637439 -0.278631 0.643689
-8.359144 -7.241922 -0.215916 929 0.622633 -0.236573 -0.822771
-8.354494 -7.237884 -0.212412 1049 0.689541 -0.178474 -0.772354
-8.350461 -7.234371 -0.208926 1115 0.747571 -0.127930 -0.722196
-8.347643 -7.231908 -0.205462 1187 0.788119 -0.092486 -0.672354
-8.345093 -7.229683 -0.202017 1221 0.824812 -0.060473 -0.622786
-8.341877 -7.226882 -0.198556 1237 0.871082 -0.020171 -0.572987
-8.340606 -7.225757 -0.195134 1271 0.889373 -0.003986 -0.523750
-8.340043 -7.225251 -0.191737 1289 0.897469 0.003293 -0.474872
-8.338714 -7.224082 -0.188313 1305 0.916598 0.020116 -0.425606
-8.336712 -7.222330 -0.184886 1321 0.945400 0.045324 -0.376296
-8.335766 -7.221500 -0.181481 1333 0.959012 0.057268 -0.327304
-8.335529 -7.221275 -0.178092 1339 0.962415 0.060507 -0.278541
-8.335082 -7.220867 -0.174695 1337 0.968851 0.066373 -0.229663
-8.335016 -7.220798 -0.171305 1345 0.969798 0.067368 -0.180886
-8.334894 -7.220671 -0.167916 1351 0.971554 0.069193 -0.132124
-8.335099 -7.220840 -0.164534 1351 0.968604 0.066764 -0.083462
-8.334919 -7.220657 -0.161135 1343 0.971197 0.069399 -0.034555
-8.335074 -7.220778 -0.157755 1349 0.968961 0.067656 0.014078
-8.335619 -7.221228 -0.154381 1337 0.961125 0.061179 0.062624
-8.335652 -7.221242 -0.150992 1335 0.960645 0.060980 0.111387
-8.336247 -7.221743 -0.147608 1335 0.952083 0.053769 0.160078
-8.337665 -7.222961 -0.144250 1331 0.931692 0.036246 0.208394
-8.338424 -7.223595 -0.140866 1327 0.920769 0.027121 0.257085
-8.339124 -7.224186 -0.137492 1303 0.910697 0.018621 0.305632
-8.340542 -7.225390 -0.134123 1275 0.890293 0.001297 0.354106
-8.342400 -7.226988 -0.130753 1265 0.863562 -0.021694 0.402596
-8.344647 -7.228918 -0.127400 1245 0.831220 -0.049468 0.450840
-8.346612 -7.230607 -0.124030 1215 0.802953 -0.073769 0.499329
-8.349300 -7.232915 -0.120673 1167 0.764270 -0.106976 0.547632
-8.352485 -7.235661 -0.117316 1119 0.718453 -0.146488 0.595934
-8.355450 -7.238202 -0.113959 1041 0.675791 -0.183051 0.644236
-8.359955 -7.242087 -0.110612 909 0.610969 -0.238947 0.692394
-8.358228 -7.237393 -0.215865 1029 0.635819 -0.171408 -0.822037
-8.353805 -7.233551 -0.212359 1109 0.699462 -0.116129 -0.771591
-8.350034 -7.230271 -0.208882 1153 0.753718 -0.068932 -0.721563
-8.347059 -7.227667 -0.205418 1203 0.796517 -0.031464 -0.671721
-8.344510 -7.225443 -0.201974 1245 0.833196 0.000535 -0.622167
-8.342613 -7.223796 -0.198544 1261 0.860489 0.024233 -0.572814
-8.341285 -7.222629 -0.195122 1293 0.879603 0.041022 -0.523577
-8.340063 -7.221552 -0.191708 1311 0.897181 0.056521 -0.474455
-8.339224 -7.220814 -0.188304 1335 0.909256 0.067135 -0.425476
-8.338165 -7.219871 -0.184889 1339 0.924488 0.080706 -0.376340
-8.337376 -7.219181 -0.181485 1349 0.935850 0.090633 -0.327361
-8.336437 -7.218344 -0.178080 1349 0.949352 0.102674 -0.278368
-8.336032 -7.217978 -0.174693 1353 0.955184 0.107944 -0.229635
-8.335803 -7.217760 -0.171294 1363 0.958477 0.111079 -0.180728
-8.335518 -7.217501 -0.167904 1357 0.962580 0.114805 -0.131951
-8.335395 -7.217374 -0.164517 1363 0.964350 0.116636 -0.083217
-8.334932 -7.216966 -0.161118 1359 0.971005 0.122503 -0.034311
-8.335087 -7.217086 -0.157738 1355 0.968782 0.120780 0.014322
-8.335845 -7.217720 -0.154364 1365 0.957873 0.111655 0.062869
-8.336219 -7.218029 -0.150981 1349 0.952494 0.107209 0.111545
-8.337027 -7.218713 -0.147606 1337 0.940872 0.097371 0.160106
-8.338566 -7.220023 -0.144248 1351 0.918725 0.078517 0.208423
-8.338706 -7.220129 -0.140856 1337 0.916707 0.076994 0.257229
-8.339187 -7.220530 -0.137475 1317 0.909792 0.071224 0.305876
-8.340824 -7.221938 -0.134116 1299 0.886231 0.050963 0.354207
-8.342293 -7.223192 -0.130747 1281 0.865099 0.032919 0.402682
-8.343937 -7.224592 -0.127377 1261 0.841443 0.012775 0.451171
-8.346234 -7.226570 -0.124014 1235 0.808387 -0.015684 0.499560
-8.349590 -7.229456 -0.120665 1203 0.760099 -0.057207 0.547747
-8.352434 -7.231906 -0.117308 1159 0.719180 -0.092458 0.596049
-8.355016 -7.234124 -0.113944 1093 0.682035 -0.124376 0.644452
-8.358527 -7.237150 -0.110592 991 0.631511 -0.167915 0.692682
-8.361544 -7.235379 -0.219294 981 0.588108 -0.142434 -0.871376
-8.357114 -7.231529 -0.215790 1091 0.651847 -0.087038 -0.820958
-8.353464 -7.228354 -0.212311 1159 0.704361 -0.041351 -0.770901
-8.349857 -7.225223 -0.208842 1201 0.756257 0.003698 -0.720987
-8.347202 -7.222907 -0.205388 1243 0.794459 0.037022 -0.671289
-8.345759 -7.221641 -0.201966 1283 0.815220 0.055238 -0.622052
-8.343714 -7.219846 -0.198527 1297 0.844654 0.081069 -0.572570
-8.341549 -7.217960 -0.195090 1311 0.875802 0.108204 -0.523117
-8.340823 -7.217306 -0.191695 1331 0.886245 0.117611 -0.474268
-8.340430 -7.216954 -0.188296 1349 0.891898 0.122674 -0.425361
-8.339593 -7.216216 -0.184891 1351 0.903946 0.133295 -0.376368
-8.338200 -7.214984 -0.181470 1361 0.923994 0.151024 -0.327145
-8.336750 -7.213725 -0.178057 1349 0.944851 0.169137 -0.278037
-8.336473 -7.213458 -0.174670 1369 0.948830 0.172979 -0.229304
-8.335896 -7.212952 -0.171273 1369 0.957146 0.180258 -0.180426
-8.335554 -7.212635 -0.167876 1355 0.962058 0.184821 -0.131548
-8.335765 -7.212797 -0.164494 1365 0.959026 0.182488 -0.082886
-8.335863 -7.212861 -0.161114 1367 0.957613 0.181569 -0.034253
-8.336351 -7.213270 -0.157731 1367 0.950587 0.175682 0.014423
-8.336782 -7.213622 -0.154359 1363 0.944385 0.170619 0.062941
-8.337646 -7.214361 -0.150982 1367 0.931966 0.159984 0.111531
-8.338575 -7.215136 -0.147608 1367 0.918587 0.148835 0.160078
-8.339438 -7.215875 -0.144232 1369 0.906169 0.138200 0.208653
-8.339643 -7.216030 -0.140853 1349 0.903233 0.135971 0.257272
-8.340338 -7.216615 -0.137478 1329 0.893229 0.127552 0.305833
-8.341875 -7.217924 -0.134110 1321 0.871109 0.108719 0.354293
-8.342911 -7.218804 -0.130734 1293 0.856207 0.096060 0.402869
-8.345044 -7.220634 -0.127371 1287 0.825511 0.069728 0.451258
-8.347349 -7.222606 -0.124018 1267 0.792346 0.041351 0.499502
-8.349590 -7.224527 -0.120656 1227 0.760099 0.013715 0.547876
-8.352221 -7.226794 -0.117289 1191 0.722254 -0.018902 0.596322
-8.354967 -7.229145 -0.113934 1125 0.682735 -0.052733 0.644596
-8.358591 -7.232270 -0.110583 1047 0.630591 -0.097693 0.692811
-8.363486 -7.236487 -0.107236 933 0.560157 -0.158372 0.740970
-8.367346 -7.235956 -0.222798 913 0.504624 -0.150735 -0.921793
-8.361028 -7.230473 -0.219245 1051 0.595532 -0.071841 -0.870671
-8.356613 -7.226637 -0.215741 1127 0.659051 -0.016645 -0.820253
-8.353566 -7.223977 -0.212279 1183 0.702892 0.021626 -0.770440
-8.350854 -7.221619 -0.208825 1227 0.741917 0.055553 -0.720743
-8.348576 -7.219635 -0.205388 1259 0.774699 0.084102 -0.671289
-8.346316 -7.217657 -0.201939 1285 0.807206 0.112561 -0.621663
-8.344256 -7.215862 -0.198512 1299 0.836846 0.138393 -0.572354
-8.343091 -7.214842 -0.195099 1325 0.853614 0.153068 -0.523246
-8.341372 -7.213330 -0.191668 1343 0.878355 0.174824 -0.473879
-8.340086 -7.212204 -0.188256 1355 0.896852 0.191023 -0.424786
-8.339638 -7.211796 -0.184859 1359 0.903301 0.196896 -0.375908
-8.338579 -7.210867 -0.181454 1371 0.918532 0.210261 -0.326915
-8.337406 -7.209840 -0.178042 1371 0.935410 0.225040 -0.277822
-8.337398 -7.209812 -0.174662 1379 0.935534 0.225438 -0.229188
-8.336395 -7.208926 -0.171258 1373 0.949956 0.238185 -0.180210
-8.336046 -7.208602 -0.167859 1381 0.954978 0.242851 -0.131304
-8.336698 -7.209158 -0.164487 1389 0.945606 0.234851 -0.082786
-8.336575 -7.209033 -0.161097 1385 0.947376 0.236648 -0.034009
-8.336731 -7.209153 -0.157715 1381 0.945126 0.234919 0.014653
-8.337040 -7.209399 -0.154334 1377 0.940680 0.231379 0.063301
-8.337584 -7.209849 -0.150962 1375 0.932858 0.224909 0.111819
-8.338727 -7.210822 -0.147595 1371 0.916406 0.210906 0.160265
-8.339711 -7.211653 -0.144219 1371 0.902245 0.198947 0.208840
-8.339850 -7.211758 -0.140837 1361 0.900241 0.197438 0.257502
-8.340503 -7.212300 -0.137465 1339 0.890855 0.189644 0.306020
-8.341807 -7.213420 -0.134097 1331 0.872084 0.173528 0.354481
-8.343339 -7.214723 -0.130728 1313 0.850046 0.154777 0.402955
-8.345366 -7.216461 -0.127366 1307 0.820887 0.129768 0.451329
-8.347281 -7.218102 -0.124005 1289 0.793320 0.106160 0.499689
-8.349090 -7.219636 -0.120635 1261 0.767303 0.084088 0.548178
-8.351274 -7.221516 -0.117272 1211 0.735880 0.057035 0.596567
-8.354289 -7.224106 -0.113915 1165 0.692491 0.019773 0.644869
-8.357594 -7.226943 -0.110556 1093 0.644945 -0.021049 0.693200
-8.362545 -7.231201 -0.107218 1003 0.573700 -0.082318 0.741229
-8.367802 -7.231619 -0.222766 987 0.498065 -0.088328 -0.921332
-8.361498 -7.226150 -0.219212 1085 0.588767 -0.009640 -0.870196
-8.356842 -7.222118 -0.215708 1147 0.655757 0.048377 -0.819779
-8.353958 -7.219605 -0.212254 1191 0.697253 0.084534 -0.770081
-8.351579 -7.217536 -0.208808 1235 0.731489 0.114304 -0.720498
-8.348207 -7.214594 -0.205338 1257 0.779996 0.156636 -0.670570
-8.346261 -7.212898 -0.201909 1285 0.808002 0.181040 -0.621232
-8.345756 -7.212448 -0.198502 1319 0.815275 0.187510 -0.572210
-8.344541 -7.211379 -0.195090 1339 0.832757 0.202892 -0.523117
-8.343538 -7.210492 -0.191685 1357 0.847178 0.215654 -0.474124
-8.342422 -7.209507 -0.188271 1369 0.863247 0.229829 -0.425002
-8.340640 -7.207959 -0.184851 1373 0.888879 0.252099 -0.375793
-8.339808 -7.207213 -0.181447 1373 0.900845 0.262837 -0.326814
-8.338855 -7.206376 -0.178042 1383 0.914567 0.274878 -0.277822
-8.337853 -7.205489 -0.174637 1387 0.928975 0.287639 -0.228829
-8.337610 -7.205272 -0.171250 1395 0.932474 0.290761 -0.180095
-8.337772 -7.205384 -0.167868 1385 0.930141 0.289155 -0.131433
-8.337928 -7.205505 -0.164488 1399 0.927905 0.287413 -0.082800
-8.337407 -7.205041 -0.161091 1387 0.935397 0.294088 -0.033922
-8.338002 -7.205541 -0.157717 1383 0.926834 0.286891 0.014624
-8.338767 -7.206182 -0.154343 1389 0.915829 0.277670 0.063171
-8.338417 -7.205858 -0.150956 1375 0.920865 0.282329 0.111905
-8.339012 -7.206358 -0.147582 1385 0.912303 0.275138 0.160452
-8.340039 -7.207232 -0.144206 1377 0.897524 0.262562 0.209027
-8.340911 -7.207964 -0.140832 1361 0.884982 0.252031 0.257574
-8.341888 -7.208788 -0.137465 1355 0.870917 0.240175 0.306020
-8.342589 -7.209379 -0.134091 1341 0.860832 0.231667 0.354567
-8.343681 -7.210301 -0.130715 1327 0.845120 0.218405 0.403142
-8.345880 -7.212182 -0.127352 1323 0.813491 0.191339 0.451531
-8.347950 -7.213963 -0.123990 1295 0.783701 0.165713 0.499905
-8.350205 -7.215884 -0.120638 1269 0.751248 0.138070 0.548135
-8.352837 -7.218150 -0.117272 1241 0.713390 0.105467 0.596567
-8.355802 -7.220691 -0.113915 1199 0.670728 0.068905 0.644869
-8.358823 -7.223289 -0.110558 1135 0.627257 0.031526 0.693171
-8.362838 -7.226731 -0.107215 1049 0.569488 -0.017996 0.741272
-8.368670 -7.231763 -0.103871 935 0.485564 -0.090400 0.789387
-8.372665 -7.230927 -0.226237 895 0.428083 -0.078373 -0.971275
-8.366511 -7.225606 -0.222693 1029 0.516631 -0.001811 -0.920282
-8.361981 -7.221672 -0.219189 1123 0.581810 0.054792 -0.869865
-8.358659 -7.218779 -0.215708 1185 0.629617 0.096417 -0.819779
-8.355280 -7.215845 -0.212237 1227 0.678234 0.138633 -0.769836
-8.352453 -7.213388 -0.208783 1265 0.718906 0.173987 -0.720138
-8.350231 -7.211460 -0.205346 1297 0.750878 0.201726 -0.670685
-8.348299 -7.209764 -0.201907 1313 0.778679 0.226131 -0.621203
-8.346509 -7.208209 -0.198487 1333 0.804435 0.248504 -0.571994
-8.344627 -7.206563 -0.195059 1343 0.831508 0.272188 -0.522671
-8.343290 -7.205387 -0.191647 1369 0.850746 0.289107 -0.473577
-8.342232 -7.204459 -0.188233 1381 0.865977 0.302459 -0.424455
-8.341344 -7.203671 -0.184828 1377 0.878753 0.313800 -0.375462
-8.340278 -7.202734 -0.181424 1377 0.894094 0.327282 -0.326484
-8.339332 -7.201905 -0.178019 1393 0.907706 0.339213 -0.277491
-8.338663 -7.201307 -0.174624 1391 0.917325 0.347817 -0.228642
-8.338811 -7.201420 -0.171242 1405 0.915198 0.346191 -0.179980
-8.339241 -7.201772 -0.167870 1405 0.909009 0.341120 -0.131462
-8.339347 -7.201843 -0.164479 1417 0.907486 0.340105 -0.082671
-8.338884 -7.201435 -0.161091 1409 0.914141 0.345971 -0.033922
-8.338713 -7.201260 -0.157704 1397 0.916611 0.348489 0.014812
-8.339740 -7.202133 -0.154338 1397 0.901833 0.335927 0.063243
-8.339781 -7.202155 -0.150958 1395 0.901243 0.335611 0.111876
-8.340262 -7.202556 -0.147574 1391 0.894313 0.329841 0.160567
-8.341573 -7.203668 -0.144208 1389 0.875459 0.313841 0.208999
-8.342501 -7.204443 -0.140841 1379 0.862108 0.302692 0.257444
-8.342919 -7.204795 -0.137459 1363 0.856084 0.297629 0.306107
-8.344123 -7.205816 -0.134093 1357 0.838767 0.282939 0.354538
-8.345819 -7.207267 -0.130723 1337 0.814356 0.262061 0.403027
-8.347300 -7.208519 -0.127364 1319 0.793059 0.244045 0.451358
-8.349271 -7.210202 -0.123994 1309 0.764696 0.219825 0.499847
-8.351846 -7.212412 -0.120638 1283 0.727647 0.188032 0.548135
-8.353980 -7.214243 -0.117276 1257 0.696937 0.161686 0.596509
-8.356562 -7.216445 -0.113921 1219 0.659792 0.130002 0.644783
-8.359413 -7.218902 -0.110554 1165 0.618763 0.094647 0.693229
-8.362930 -7.221922 -0.107205 1099 0.568157 0.051197 0.741416
-8.368167 -7.226420 -0.103865 1005 0.492810 -0.013523 0.789473
-8.373100 -7.226838 -0.226212 939 0.421826 -0.019540 -0.970915
-8.367067 -7.221608 -0.222666 1055 0.508631 0.055711 -0.919894
-8.361970 -7.217196 -0.219145 1131 0.581975 0.119196 -0.869232
-8.358591 -7.214261 -0.215676 1193 0.630591 0.161425 -0.819318
-8.355659 -7.211714 -0.212212 1241 0.672786 0.198076 -0.769476
-8.353385 -7.209735 -0.208766 1265 0.705499 0.226549 -0.719894
-8.351724 -7.208279 -0.205346 1303 0.729403 0.247496 -0.670685
-8.349565 -7.206400 -0.201907 1319 0.760469 0.274535 -0.621203
-8.348278 -7.205274 -0.198495 1335 0.778980 0.290733 -0.572109
-8.347000 -7.204155 -0.195073 1367 0.797368 0.306836 -0.522872
-8.345004 -7.202411 -0.191643 1375 0.826088 0.331927 -0.473519
-8.343604 -7.201186 -0.188231 1373 0.846232 0.349553 -0.424426
-8.342766 -7.200448 -0.184826 1373 0.858293 0.360173 -0.375433
-8.342047 -7.199800 -0.181431 1389 0.868640 0.369497 -0.326584
-8.341038 -7.198921 -0.178027 1393 0.883157 0.382142 -0.277606
-8.340468 -7.198407 -0.174630 1399 0.891349 0.389538 -0.228728
-8.340466 -7.198386 -0.171250 1407 0.891391 0.389840 -0.180095
-8.340557 -7.198457 -0.167870 1423 0.890073 0.388825 -0.131462
-8.340549 -7.198430 -0.164479 1423 0.890183 0.389209 -0.082671
-8.340540 -7.198401 -0.161099 1429 0.890320 0.389627 -0.034037
-8.340752 -7.198564 -0.157719 1413 0.887274 0.387281 0.014596
-8.341730 -7.199388 -0.154343 1405 0.873195 0.375425 0.063171
-8.342040 -7.199649 -0.150971 1401 0.868736 0.371672 0.111689
-8.342309 -7.199853 -0.147589 1391 0.864866 0.368736 0.160351
-8.343009 -7.200445 -0.144215 1395 0.854794 0.360214 0.208898
-8.343816 -7.201128 -0.140841 1387 0.843185 0.350390 0.257444
-8.345078 -7.202191 -0.137475 1383 0.825018 0.335096 0.305876
-8.346113 -7.203072 -0.134099 1369 0.810129 0.322417 0.354452
-8.346865 -7.203698 -0.130725 1357 0.799316 0.313409 0.402999
-8.348168 -7.204818 -0.127356 1341 0.780558 0.297299 0.451473
-8.350204 -7.206550 -0.123995 1319 0.751262 0.272373 0.499833
-8.352111 -7.208183 -0.120635 1299 0.723832 0.248882 0.548178
-8.354145 -7.209914 -0.117272 1269 0.694563 0.223969 0.596567
-8.356670 -7.212075 -0.113907 1227 0.658227 0.192875 0.644984
-8.360239 -7.215144 -0.110558 1187 0.606880 0.148718 0.693171
-8.363374 -7.217826 -0.107199 1125 0.561776 0.110132 0.741502
-8.367496 -7.221374 -0.103846 1039 0.502470 0.059080 0.789747
-8.374675 -7.227546 -0.100524 891 0.399171 -0.029729 0.837545
-8.373198 -7.222806 -0.226176 979 0.420426 0.038476 -0.970397
-8.367106 -7.217535 -0.222632 1087 0.508068 0.114317 -0.919404
-8.362563 -7.213601 -0.219128 1153 0.573440 0.170920 -0.868987
-8.359405 -7.210856 -0.215657 1207 0.618887 0.210419 -0.819045
-8.356969 -7.208731 -0.212210 1253 0.653932 0.240991 -0.769448
-8.355412 -7.207379 -0.208779 1283 0.676340 0.260449 -0.720081
-8.353417 -7.205634 -0.205350 1309 0.705033 0.285553 -0.670742
-8.350428 -7.203045 -0.201897 1321 0.748051 0.322808 -0.621059
-8.348481 -7.201349 -0.198470 1337 0.776058 0.347213 -0.571750
-8.347806 -7.200745 -0.195063 1359 0.785773 0.355899 -0.522728
-8.346754 -7.199821 -0.191659 1371 0.800908 0.369195 -0.473750
-8.345084 -7.198359 -0.188239 1381 0.824935 0.390231 -0.424541
-8.343693 -7.197141 -0.184817 1381 0.844955 0.407754 -0.375304
-8.343236 -7.196741 -0.181430 1395 0.851528 0.413510 -0.326570
-8.342780 -7.196325 -0.178033 1409 0.858087 0.419500 -0.277692
-8.342609 -7.196164 -0.174643 1419 0.860544 0.421812 -0.228915
-8.342707 -7.196228 -0.171263 1435 0.859144 0.420893 -0.180282
-8.341647 -7.195299 -0.167859 1431 0.874389 0.434258 -0.131304
-8.341525 -7.195172 -0.164479 1435 0.876145 0.436090 -0.082671
-8.341453 -7.195096 -0.161090 1417 0.877188 0.437181 -0.033908
-8.341885 -7.195448 -0.157717 1409 0.870972 0.432117 0.014624
-8.342699 -7.196138 -0.154343 1413 0.859254 0.422190 0.063171
-8.342520 -7.195955 -0.150954 1405 0.861833 0.424824 0.111934
-8.342831 -7.196217 -0.147582 1391 0.857360 0.421051 0.160452
-8.343702 -7.196949 -0.144208 1391 0.844818 0.410519 0.208999
-8.344460 -7.197582 -0.140833 1385 0.833923 0.401415 0.257560
-8.345942 -7.198849 -0.137475 1379 0.812599 0.383178 0.305876
-8.346969 -7.199708 -0.134099 1365 0.797821 0.370822 0.354452
-8.348224 -7.200779 -0.130732 1357 0.779763 0.355412 0.402898
-8.350145 -7.202413 -0.127370 1345 0.752113 0.331899 0.451272
-8.351946 -7.203954 -0.124011 1329 0.726206 0.309725 0.499603
-8.353535 -7.205312 -0.120640 1303 0.703345 0.290191 0.548106
-8.355676 -7.207136 -0.117278 1275 0.672539 0.263941 0.596480
-8.358363 -7.209430 -0.113913 1247 0.633871 0.230933 0.644898
-8.361328 -7.211971 -0.110556 1211 0.591209 0.194378 0.693200
-8.364017 -7.214280 -0.107201 1143 0.552527 0.161150 0.741473
-8.367975 -7.217680 -0.103848 1069 0.495568 0.112232 0.789718
-8.374382 -7.223184 -0.100512 957 0.403384 0.033036 0.837718
-8.374045 -7.219254 -0.226159 1015 0.408228 0.089584 -0.970153
-8.369005 -7.214883 -0.222638 1097 0.480748 0.152478 -0.919491
-8.364405 -7.210906 -0.219134 1161 0.546943 0.209699 -0.869073
-8.360970 -7.207929 -0.215663 1217 0.596369 0.252532 -0.819131
-8.359030 -7.206241 -0.212224 1257 0.624279 0.276819 -0.769649
-8.356481 -7.204017 -0.208769 1287 0.660958 0.308819 -0.719937
-8.354088 -7.201948 -0.205332 1309 0.695386 0.338589 -0.670483
-8.352539 -7.200590 -0.201913 1331 0.717671 0.358129 -0.621289
-8.350756 -7.199041 -0.198481 1353 0.743331 0.380420 -0.571908
-8.349144 -7.197633 -0.195061 1363 0.766521 0.400680 -0.522699
-8.347971 -7.196606 -0.191647 1389 0.783399 0.415452 -0.473577
-8.346309 -7.195150 -0.188227 1377 0.807316 0.436405 -0.424368
-8.344747 -7.193792 -0.184817 1387 0.829793 0.455946 -0.375304
-8.343801 -7.192948 -0.181412 1387 0.843405 0.468089 -0.326311
-8.343181 -7.192399 -0.178015 1397 0.852324 0.475986 -0.277433
-8.343556 -7.192709 -0.174643 1419 0.846918 0.471527 -0.228915
-8.343994 -7.193069 -0.171261 1453 0.840619 0.466347 -0.180253
-8.343148 -7.192323 -0.167866 1437 0.852791 0.477077 -0.131404
-8.343133 -7.192288 -0.164477 1431 0.853010 0.477585 -0.082642
-8.342954 -7.192120 -0.161097 1415 0.855590 0.480000 -0.034009
-8.343328 -7.192430 -0.157715 1427 0.850197 0.475540 0.014653
-8.343540 -7.192592 -0.154334 1417 0.847151 0.473208 0.063301
-8.344077 -7.193036 -0.150962 1397 0.839426 0.466820 0.111819
-8.345552 -7.194296 -0.147603 1401 0.818198 0.448693 0.160150
-8.346643 -7.195218 -0.144236 1405 0.802500 0.435424 0.208596
-8.347351 -7.195803 -0.140862 1395 0.792318 0.427006 0.257142
-8.347606 -7.196007 -0.137480 1385 0.788654 0.424076 0.305804
-8.348810 -7.197029 -0.134114 1367 0.771324 0.409366 0.354236
-8.350172 -7.198190 -0.130746 1365 0.751729 0.392660 0.402696
-8.351540 -7.199345 -0.127379 1347 0.732051 0.376043 0.451142
-8.353674 -7.201175 -0.124016 1327 0.701342 0.349710 0.499531
-8.355816 -7.202998 -0.120654 1315 0.670522 0.323481 0.547905
-8.357120 -7.204103 -0.117276 1275 0.651764 0.307584 0.596509
-8.359644 -7.206264 -0.113923 1253 0.615442 0.276490 0.644754
-8.363561 -7.209621 -0.110579 1217 0.559086 0.228189 0.692869
-8.366411 -7.212064 -0.107213 1157 0.518072 0.193040 0.741301
-8.369539 -7.214739 -0.103856 1081 0.473064 0.154550 0.789603
-8.375612 -7.219954 -0.100520 969 0.385682 0.079512 0.837603
-8.374970 -7.215593 -0.226140 1045 0.394917 0.142262 -0.969879
-8.370370 -7.211617 -0.222636 1115 0.461112 0.199469 -0.919462
-8.367274 -7.208921 -0.219164 1177 0.505653 0.238261 -0.869505
-8.363839 -7.205945 -0.215684 1235 0.555080 0.281080 -0.819433
-8.360118 -7.202728 -0.212216 1263 0.608623 0.327371 -0.769534
-8.358130 -7.200990 -0.208777 1291 0.637219 0.352372 -0.720052
-8.356240 -7.199350 -0.205348 1321 0.664416 0.375974 -0.670714
-8.353854 -7.197275 -0.201901 1335 0.698748 0.405826 -0.621117
-8.352732 -7.196297 -0.198489 1359 0.714899 0.419898 -0.572023
-8.351183 -7.194938 -0.195077 1375 0.737183 0.439452 -0.522930
-8.349727 -7.193672 -0.191655 1375 0.758137 0.457668 -0.473692
-8.348781 -7.192841 -0.188250 1393 0.771749 0.469626 -0.424699
-8.347779 -7.191955 -0.184847 1411 0.786157 0.482374 -0.375735
-8.346990 -7.191266 -0.181441 1415 0.797519 0.492288 -0.326728
-8.346377 -7.190710 -0.178044 1425 0.806328 0.500288 -0.277850
-8.346029 -7.190401 -0.174657 1435 0.811337 0.504734 -0.229117
-8.345304 -7.189761 -0.171261 1429 0.821779 0.513941 -0.180253
-8.344513 -7.189057 -0.167866 1433 0.833155 0.524075 -0.131404
-8.344441 -7.188981 -0.164475 1423 0.834184 0.525166 -0.082613
-8.344482 -7.189002 -0.161095 1429 0.833594 0.524864 -0.033980
-8.344914 -7.189354 -0.157723 1427 0.827378 0.519801 0.014538
-8.345565 -7.189896 -0.154349 1427 0.818019 0.512000 0.063085
-8.345329 -7.189672 -0.150962 1409 0.821409 0.515224 0.111819
-8.346251 -7.190454 -0.147595 1407 0.808153 0.503972 0.160265
-8.347902 -7.191862 -0.144236 1403 0.784387 0.483712 0.208596
-8.348433 -7.192298 -0.140853 1387 0.776757 0.477441 0.257272
-8.349084 -7.192841 -0.137480 1389 0.767385 0.469626 0.305804
-8.350679 -7.194192 -0.134120 1379 0.744429 0.450189 0.354150
-8.351927 -7.195255 -0.130753 1373 0.726480 0.434896 0.402596
-8.352856 -7.196030 -0.127379 1351 0.713115 0.423740 0.451142
-8.354656 -7.197571 -0.124018 1335 0.687208 0.401572 0.499502
-8.356627 -7.199254 -0.120646 1315 0.658845 0.377353 0.548020
-8.359053 -7.201317 -0.117293 1283 0.623950 0.347673 0.596265
-8.362400 -7.204195 -0.113944 1267 0.575786 0.306260 0.644452
-8.365152 -7.206539 -0.110577 1227 0.536185 0.272531 0.692898
-8.367734 -7.208742 -0.107222 1179 0.499039 0.240834 0.741171
-8.371579 -7.212044 -0.103871 1097 0.443712 0.193328 0.789387
-8.376815 -7.216542 -0.100522 995 0.368379 0.128609 0.837574
-8.376450 -7.212313 -0.226140 1073 0.373635 0.189452 -0.969879
-8.371678 -7.208197 -0.222626 1131 0.442285 0.248676 -0.919318
-8.367739 -7.204790 -0.219140 1185 0.498971 0.297697 -0.869160
-8.363919 -7.201475 -0.215651 1223 0.553927 0.345395 -0.818958
-8.360979 -7.198935 -0.212199 1255 0.596232 0.381943 -0.769289
-8.359260 -7.197436 -0.208768 1289 0.620972 0.403514 -0.719922
-8.357648 -7.196028 -0.205338 1319 0.644162 0.423768 -0.670570
-8.356425 -7.194952 -0.201924 1337 0.661754 0.439253 -0.621447
-8.354806 -7.193551 -0.198504 1353 0.685054 0.459410 -0.572239
-8.353087 -7.192052 -0.195084 1373 0.709781 0.480981 -0.523030
-8.351915 -7.191026 -0.191670 1383 0.726645 0.495739 -0.473908
-8.350359 -7.189660 -0.188250 1391 0.749039 0.515396 -0.424699
-8.349350 -7.188781 -0.184846 1415 0.763557 0.528047 -0.375721
-8.349121 -7.188563 -0.181456 1419 0.766850 0.531183 -0.326944
-8.348175 -7.187733 -0.178052 1417 0.780462 0.543121 -0.277965
-8.347266 -7.186938 -0.174657 1419 0.793539 0.554565 -0.229117
-8.346882 -7.186580 -0.171269 1421 0.799069 0.559711 -0.180368
-8.346695 -7.186404 -0.167882 1431 0.801759 0.562242 -0.131635
-8.346907 -7.186566 -0.164500 1447 0.798713 0.559917 -0.082973
-8.347338 -7.186933 -0.161128 1427 0.792510 0.554634 -0.034455
-8.347650 -7.187180 -0.157746 1417 0.788023 0.551080 0.014207
-8.347859 -7.187341 -0.154364 1423 0.785004 0.548761 0.062869
-8.348121 -7.187553 -0.150982 1431 0.781245 0.545714 0.111531
-8.348723 -7.188047 -0.147610 1401 0.772572 0.538606 0.160049
-8.350147 -7.189257 -0.144251 1417 0.752085 0.521193 0.208380
-8.351125 -7.190081 -0.140875 1407 0.738020 0.509338 0.256955
-8.351379 -7.190285 -0.137494 1393 0.734357 0.506401 0.305603
-8.351916 -7.190730 -0.134122 1379 0.726631 0.500000 0.354121
-8.353222 -7.191834 -0.130753 1365 0.707846 0.484117 0.402596
-8.355037 -7.193376 -0.127394 1355 0.681733 0.461928 0.450927
-8.356454 -7.194580 -0.124026 1335 0.661342 0.444604 0.499387
-8.358319 -7.196170 -0.120654 1319 0.634502 0.421730 0.547905
-8.360901 -7.198375 -0.117301 1297 0.597357 0.389998 0.596150
-8.363482 -7.200577 -0.113946 1267 0.560212 0.358321 0.644423
-8.365340 -7.202161 -0.110575 1221 0.533481 0.335529 0.692927
-8.368034 -7.204463 -0.107209 1165 0.494717 0.302404 0.741358
-8.372830 -7.208580 -0.103871 1105 0.425709 0.243166 0.789387
-8.378229 -7.213212 -0.100531 1001 0.348029 0.176519 0.837445
-8.378538 -7.209653 -0.226145 1087 0.343583 0.227729 -0.969951
-8.374492 -7.206155 -0.222659 1131 0.401806 0.278061 -0.919793
-8.370275 -7.202518 -0.219163 1181 0.462484 0.330390 -0.869491
-8.366555 -7.199301 -0.215674 1215 0.516000 0.376681 -0.819289
-8.363955 -7.197042 -0.212229 1265 0.553419 0.409181 -0.769721
-8.362287 -7.195592 -0.208798 1301 0.577419 0.430045 -0.720354
-8.360851 -7.194333 -0.205376 1331 0.598070 0.448158 -0.671117
-8.358955 -7.192686 -0.201947 1345 0.625350 0.471856 -0.621778
-8.356952 -7.190948 -0.198519 1361 0.654179 0.496864 -0.572455
-8.355233 -7.189448 -0.195088 1381 0.678906 0.518449 -0.523088
-8.353947 -7.188323 -0.191676 1389 0.697417 0.534634 -0.473994
-8.352938 -7.187443 -0.188271 1399 0.711935 0.547299 -0.425002
-8.351439 -7.186134 -0.184861 1395 0.733492 0.566133 -0.375937
-8.350430 -7.185242 -0.181456 1409 0.748024 0.578963 -0.326944
-8.349817 -7.184700 -0.178059 1425 0.756833 0.586764 -0.278066
-8.349362 -7.184299 -0.174672 1431 0.763379 0.592534 -0.229332
-8.348907 -7.183884 -0.171275 1445 0.769924 0.598503 -0.180455
-8.348727 -7.183715 -0.167885 1429 0.772517 0.600938 -0.131678
-8.349379 -7.184258 -0.164523 1449 0.763145 0.593124 -0.083304
-8.349257 -7.184132 -0.161133 1453 0.764888 0.594935 -0.034527
-8.348411 -7.183385 -0.157738 1435 0.777073 0.605686 0.014322
-8.348785 -7.183695 -0.154357 1429 0.771680 0.601227 0.062970
-8.349599 -7.184372 -0.150992 1423 0.759976 0.591484 0.111387
-8.350131 -7.184824 -0.147618 1421 0.752319 0.584980 0.159934
-8.350887 -7.185456 -0.144244 1407 0.741437 0.575889 0.208481
-8.351823 -7.186238 -0.140870 1399 0.727976 0.564637 0.257027
-8.352574 -7.186865 -0.137494 1387 0.717163 0.555615 0.305603
-8.353445 -7.187597 -0.134129 1369 0.704635 0.545083 0.354020
-8.354871 -7.188807 -0.130761 1375 0.684121 0.527670 0.402481
-8.356955 -7.190589 -0.127400 1355 0.654138 0.502031 0.450840
-8.358649 -7.192025 -0.124039 1339 0.629754 0.481365 0.499200
-8.360515 -7.193616 -0.120669 1325 0.602914 0.458477 0.547689
-8.362606 -7.195390 -0.117308 1295 0.572822 0.432948 0.596049
-8.364967 -7.197403 -0.113953 1269 0.538847 0.403987 0.644322
-8.368039 -7.200036 -0.110596 1233 0.494648 0.366101 0.692624
-8.371287 -7.202816 -0.107237 1191 0.447911 0.326102 0.740955
-8.375254 -7.206209 -0.103884 1125 0.390842 0.277279 0.789200
-8.379886 -7.210179 -0.100539 1015 0.324194 0.220162 0.837330
-8.380692 -7.207141 -0.226159 1089 0.312599 0.263873 -0.970153
-8.376099 -7.203172 -0.222655 1139 0.378684 0.320977 -0.919735
-8.372378 -7.199956 -0.219166 1187 0.432213 0.367254 -0.869534
-8.369048 -7.197084 -0.215695 1233 0.480130 0.408577 -0.819591
-8.366109 -7.194529 -0.212243 1263 0.522421 0.445338 -0.769922
-8.363617 -7.192377 -0.208798 1293 0.558277 0.476302 -0.720354
-8.361501 -7.190538 -0.205359 1317 0.588726 0.502765 -0.670872
-8.359781 -7.189041 -0.201930 1335 0.613466 0.524301 -0.621534
-8.357721 -7.187246 -0.198500 1353 0.643106 0.550133 -0.572181
-8.356606 -7.186275 -0.195088 1365 0.659160 0.564102 -0.523088
-8.356101 -7.185825 -0.191691 1385 0.666419 0.570579 -0.474210
-8.354594 -7.184509 -0.188279 1405 0.688100 0.589515 -0.425117
-8.352983 -7.183102 -0.184859 1407 0.711276 0.609755 -0.375908
-8.352477 -7.182652 -0.181471 1411 0.718563 0.616231 -0.327160
-8.352191 -7.182392 -0.178082 1423 0.722679 0.619971 -0.278397
-8.351679 -7.181934 -0.174685 1437 0.730048 0.626564 -0.229519
-8.350613 -7.180998 -0.171282 1425 0.745389 0.640032 -0.180555
-8.350213 -7.180641 -0.167895 1415 0.751139 0.645164 -0.131822
-8.350589 -7.180950 -0.164513 1423 0.745732 0.640718 -0.083160
-8.350183 -7.180585 -0.161124 1411 0.751578 0.645974 -0.034397
-8.349727 -7.180170 -0.157738 1423 0.758137 0.651943 0.014322
-8.350158 -7.180522 -0.154364 1417 0.751934 0.646879 0.062869
-8.351249 -7.181445 -0.151000 1415 0.736237 0.633597 0.111272
-8.352072 -7.182128 -0.147624 1405 0.724395 0.623772 0.159847
-8.352438 -7.182431 -0.144242 1395 0.719125 0.619408 0.208509
-8.353586 -7.183395 -0.140875 1393 0.702604 0.605542 0.256955
-8.355289 -7.184853 -0.137517 1379 0.678097 0.584561 0.305272
-8.356102 -7.185529 -0.134152 1371 0.666406 0.574832 0.353689
-8.357074 -7.186346 -0.130776 1355 0.652423 0.563080 0.402265
-8.358938 -7.187937 -0.127415 1359 0.625597 0.540191 0.450624
-8.360867 -7.189576 -0.124055 1337 0.597851 0.516603 0.498970
-8.362505 -7.190970 -0.120684 1309 0.574277 0.496549 0.547473
-8.364923 -7.193026 -0.117331 1291 0.539492 0.466964 0.595718
-8.367057 -7.194842 -0.113968 1265 0.508782 0.440838 0.644106
-8.369427 -7.196863 -0.110606 1213 0.474683 0.411754 0.692481
-8.372952 -7.199875 -0.107245 1169 0.423953 0.368420 0.740840
-8.377137 -7.203457 -0.103902 1101 0.363741 0.316881 0.788941
-8.382210 -7.207807 -0.100552 1009 0.290754 0.254288 0.837142
-8.382192 -7.204066 -0.226157 1095 0.291015 0.308119 -0.970124
-8.378138 -7.200561 -0.222670 1151 0.349347 0.358547 -0.919951
-8.374432 -7.197359 -0.219182 1187 0.402670 0.404619 -0.869764
-8.371088 -7.194473 -0.215710 1233 0.450779 0.446148 -0.819807
-8.368213 -7.191982 -0.212258 1271 0.492151 0.481990 -0.770138
-8.365373 -7.189526 -0.208804 1291 0.533015 0.517324 -0.720440
-8.363100 -7.187548 -0.205357 1311 0.565714 0.545783 -0.670843
-8.362041 -7.186634 -0.201953 1333 0.580945 0.558935 -0.621865
-8.360599 -7.185368 -0.198531 1343 0.601707 0.577151 -0.572627
-8.359036 -7.184009 -0.195111 1357 0.624183 0.596705 -0.523419
-8.358027 -7.183130 -0.191706 1381 0.638701 0.609357 -0.474426
-8.356917 -7.182152 -0.188292 1391 0.654673 0.623429 -0.425304
-8.355803 -7.181180 -0.184889 1407 0.670714 0.637411 -0.376340
-8.354630 -7.180154 -0.181485 1413 0.687579 0.652176 -0.327361
-8.354224 -7.179789 -0.178088 1419 0.693424 0.657425 -0.278483
-8.354322 -7.179852 -0.174708 1431 0.692011 0.656519 -0.229850
-8.353092 -7.178783 -0.171305 1435 0.709712 0.671901 -0.180886
-8.352253 -7.178044 -0.167910 1429 0.721787 0.682536 -0.132037
-8.352629 -7.178354 -0.164527 1413 0.716381 0.678076 -0.083361
-8.352889 -7.178551 -0.161147 1409 0.712635 0.675236 -0.034728
-8.353101 -7.178714 -0.157775 1425 0.709589 0.672896 0.013790
-8.352751 -7.178404 -0.154387 1421 0.714625 0.677356 0.062538
-8.353509 -7.179039 -0.151013 1397 0.703716 0.668217 0.111085
-8.354494 -7.179870 -0.147647 1401 0.689541 0.656258 0.159517
-8.355145 -7.180412 -0.144272 1399 0.680169 0.648464 0.208078
-8.356733 -7.181756 -0.140914 1391 0.657322 0.629123 0.256394
-8.357825 -7.182678 -0.137538 1383 0.641610 0.615854 0.304970
-8.358867 -7.183552 -0.134171 1377 0.626626 0.603285 0.353416
-8.360178 -7.184664 -0.130805 1365 0.607758 0.587285 0.401847
-8.361985 -7.186198 -0.127444 1353 0.581755 0.565206 0.450207
-8.363516 -7.187500 -0.124076 1339 0.559731 0.546476 0.498668
-8.364764 -7.188550 -0.120698 1307 0.541769 0.531368 0.547272
-8.366849 -7.190331 -0.117337 1283 0.511773 0.505742 0.595632
-8.369274 -7.192394 -0.113982 1257 0.476878 0.476062 0.643905
-8.372020 -7.194730 -0.110617 1221 0.437373 0.442450 0.692322
-8.375048 -7.197321 -0.107260 1171 0.393806 0.405168 0.740624
-8.379404 -7.201044 -0.103915 1103 0.331124 0.351597 0.788754
-8.384533 -7.205436 -0.100575 1005 0.257327 0.288401 0.836811
-8.385764 -7.202595 -0.226205 1109 0.239612 0.329278 -0.970815
-8.380716 -7.198246 -0.222693 1153 0.312243 0.391857 -0.920282
-8.376833 -7.194895 -0.219206 1185 0.368118 0.440076 -0.870109
-8.373447 -7.191967 -0.215726 1225 0.416831 0.482202 -0.820037
-8.370613 -7.189518 -0.212271 1259 0.457613 0.517440 -0.770325
-8.368561 -7.187731 -0.208834 1299 0.487142 0.543155 -0.720872
-8.366438 -7.185901 -0.205395 1319 0.517687 0.569481 -0.671390
-8.364718 -7.184402 -0.201975 1335 0.542428 0.591052 -0.622181
-8.362275 -7.182284 -0.198529 1351 0.577584 0.621528 -0.572599
-8.360721 -7.180933 -0.195119 1363 0.599950 0.640965 -0.523534
-8.360769 -7.180962 -0.191727 1393 0.599250 0.640547 -0.474728
-8.359262 -7.179646 -0.188317 1389 0.620931 0.659483 -0.425663
-8.357636 -7.178239 -0.184895 1403 0.644327 0.679730 -0.376426
-8.357081 -7.177740 -0.181500 1413 0.652313 0.686906 -0.327577
-8.356462 -7.177191 -0.178103 1421 0.661232 0.694810 -0.278699
-8.356063 -7.176832 -0.174716 1427 0.666968 0.699970 -0.229965
-8.355877 -7.176657 -0.171326 1425 0.669644 0.702487 -0.181188
-8.355541 -7.176347 -0.167939 1433 0.674474 0.706954 -0.132455
-8.355313 -7.176130 -0.164549 1431 0.677754 0.710076 -0.083678
-8.355404 -7.176200 -0.161170 1417 0.676450 0.709067 -0.035059
-8.355558 -7.176306 -0.157788 1417 0.674227 0.707544 0.013603
-8.355486 -7.176229 -0.154408 1403 0.675270 0.708649 0.062236
-8.355803 -7.176483 -0.151026 1401 0.670714 0.704992 0.110898
-8.356731 -7.177272 -0.147662 1395 0.657349 0.693644 0.159301
-8.357830 -7.178187 -0.144295 1405 0.641542 0.680477 0.207747
-8.358304 -7.178582 -0.140914 1393 0.634722 0.674790 0.256394
-8.358786 -7.178984 -0.137540 1371 0.627792 0.669006 0.304941
-8.360600 -7.180525 -0.134181 1365 0.601679 0.646838 0.353272
-8.362799 -7.182391 -0.130828 1361 0.570050 0.619984 0.401517
-8.364274 -7.183637 -0.127459 1353 0.548822 0.602057 0.449991
-8.365591 -7.184756 -0.124091 1337 0.529872 0.585961 0.498452
-8.366953 -7.185904 -0.120713 1321 0.510278 0.569440 0.547056
-8.368988 -7.187635 -0.117352 1299 0.480995 0.544534 0.595416
-8.371058 -7.189402 -0.113989 1263 0.451205 0.519108 0.643804
-8.373653 -7.191605 -0.110625 1211 0.413867 0.487410 0.692207
-8.377619 -7.194998 -0.107283 1165 0.356811 0.438594 0.740293
-8.381536 -7.198341 -0.103930 1105 0.300455 0.390492 0.788538
-8.386061 -7.202205 -0.100585 1003 0.235345 0.334891 0.836668
-8.389343 -7.201130 -0.226252 1063 0.188114 0.350362 -0.971491
-8.384459 -7.196914 -0.222741 1155 0.258398 0.411020 -0.920973
-8.380185 -7.193234 -0.219245 1201 0.319886 0.463973 -0.870671
-8.376076 -7.189687 -0.215758 1231 0.379014 0.515012 -0.820498
-8.373241 -7.187238 -0.212294 1263 0.419795 0.550243 -0.770656
-8.371303 -7.185564 -0.208865 1291 0.447692 0.574332 -0.721318
-8.369854 -7.184290 -0.205443 1317 0.468535 0.592664 -0.672081
-8.368128 -7.182798 -0.202014 1343 0.493372 0.614132 -0.622742
-8.366017 -7.180968 -0.198586 1339 0.523739 0.640464 -0.573419
-8.365003 -7.180082 -0.195172 1357 0.538339 0.653212 -0.524296
-8.363283 -7.178583 -0.191752 1389 0.563080 0.674776 -0.475088
-8.361159 -7.176754 -0.188325 1379 0.593638 0.701095 -0.425779
-8.360492 -7.176155 -0.184928 1397 0.603244 0.709712 -0.376901
-8.359368 -7.175178 -0.181513 1399 0.619408 0.723770 -0.327764
-8.358309 -7.174249 -0.178111 1407 0.634653 0.737135 -0.278814
-8.358685 -7.174559 -0.174739 1427 0.629247 0.732676 -0.230296
-8.358683 -7.174539 -0.171359 1429 0.629274 0.732964 -0.181663
-8.358390 -7.174271 -0.167960 1427 0.633487 0.736820 -0.132757
-8.357870 -7.173807 -0.164572 1413 0.640965 0.743495 -0.084009
-8.357422 -7.173399 -0.161185 1427 0.647415 0.749368 -0.035275
-8.358017 -7.173899 -0.157813 1419 0.638852 0.742171 0.013243
-8.358661 -7.174434 -0.154439 1405 0.629590 0.734473 0.061790
-8.358822 -7.174547 -0.151057 1391 0.627271 0.732847 0.110452
-8.359524 -7.175140 -0.147683 1389 0.617171 0.724319 0.158999
-8.360117 -7.175624 -0.144311 1397 0.608636 0.717355 0.207517
-8.360762 -7.176160 -0.140936 1385 0.599360 0.709643 0.256078
-8.362804 -7.177899 -0.137576 1379 0.569968 0.684622 0.304423
-8.364058 -7.178956 -0.134207 1361 0.551937 0.669411 0.352898
-8.364703 -7.179490 -0.130833 1353 0.542648 0.661726 0.401445
-8.366908 -7.181363 -0.127473 1353 0.510922 0.634777 0.449790
-8.368723 -7.182904 -0.124112 1321 0.484810 0.612609 0.498150
-8.369915 -7.183911 -0.120745 1311 0.467657 0.598118 0.546596
-8.371885 -7.185593 -0.117373 1285 0.439308 0.573913 0.595114
-8.374140 -7.187501 -0.114010 1249 0.406869 0.546462 0.643502
-8.376730 -7.189712 -0.110655 1205 0.369600 0.514648 0.691776
-8.380361 -7.192815 -0.107304 1155 0.317361 0.470004 0.739991
-8.385107 -7.196870 -0.103957 1095 0.249067 0.411658 0.788150
-8.390364 -7.201361 -0.100617 977 0.173432 0.347035 0.836207
-8.391497 -7.198618 -0.226266 1033 0.157130 0.386506 -0.971692
-8.387053 -7.194783 -0.222762 1123 0.221074 0.441682 -0.921275
-8.382785 -7.191109 -0.219266 1189 0.282480 0.494545 -0.870973
-8.379896 -7.188603 -0.215804 1217 0.324043 0.530607 -0.821160
-8.377006 -7.186112 -0.212350 1249 0.365635 0.566448 -0.771462
-8.373676 -7.183241 -0.208878 1269 0.413538 0.607758 -0.721505
-8.372064 -7.181834 -0.205458 1301 0.436742 0.627998 -0.672296
-8.370387 -7.180377 -0.202027 1327 0.460865 0.648965 -0.622929
-8.368441 -7.178695 -0.198599 1335 0.488871 0.673164 -0.573606
-8.366936 -7.177394 -0.195187 1347 0.510525 0.691887 -0.524512
-8.365543 -7.176177 -0.191765 1361 0.530559 0.709396 -0.475275
-8.364420 -7.175199 -0.188361 1385 0.546723 0.723468 -0.426297
-8.363475 -7.174368 -0.184956 1399 0.560321 0.735427 -0.377304
-8.362466 -7.173489 -0.181553 1405 0.574839 0.748072 -0.328340
-8.361796 -7.172891 -0.178156 1423 0.584472 0.756675 -0.279462
-8.361334 -7.172483 -0.174760 1427 0.591127 0.762548 -0.230599
-8.361162 -7.172308 -0.171370 1415 0.593597 0.765066 -0.181822
-8.361316 -7.172428 -0.167990 1411 0.591388 0.763337 -0.133189
-8.361415 -7.172491 -0.164609 1413 0.589961 0.762432 -0.084541
-8.361569 -7.172612 -0.161229 1425 0.587738 0.760689 -0.035908
-8.361114 -7.172196 -0.157841 1411 0.594297 0.766679 0.012840
-8.360651 -7.171789 -0.154444 1399 0.600952 0.772531 0.061718
-8.360854 -7.171944 -0.151063 1393 0.598029 0.770301 0.110366
-8.361393 -7.172388 -0.147690 1385 0.590276 0.763914 0.158898
-8.362158 -7.173028 -0.144314 1397 0.579271 0.754706 0.207473
-8.363355 -7.174043 -0.140957 1371 0.562050 0.740099 0.255776
-8.365121 -7.175534 -0.137599 1365 0.536637 0.718652 0.304092
-8.366382 -7.176598 -0.134230 1361 0.518497 0.703338 0.352567
-8.367638 -7.177654 -0.130854 1351 0.500425 0.688148 0.401142
-8.369218 -7.178992 -0.127495 1343 0.477688 0.668896 0.449473
-8.370975 -7.180490 -0.124125 1319 0.452412 0.647339 0.497963
-8.373231 -7.182413 -0.120772 1299 0.419946 0.619669 0.546207
-8.374983 -7.183891 -0.117402 1269 0.394739 0.598407 0.594696
-8.376791 -7.185426 -0.114031 1237 0.368722 0.576314 0.643200
-8.379656 -7.187868 -0.110676 1193 0.327501 0.541179 0.691473
-8.383621 -7.191247 -0.107323 1147 0.270446 0.492563 0.739718
-8.388318 -7.195266 -0.103985 1075 0.202865 0.434738 0.787747
-8.393120 -7.199362 -0.100638 943 0.133775 0.375803 0.835905
-8.397155 -7.199104 -0.226370 1019 0.075718 0.379514 -0.973189
-8.391157 -7.193939 -0.222825 1119 0.162015 0.453825 -0.922181
-8.386315 -7.189779 -0.219313 1171 0.231681 0.513687 -0.871649
-8.382653 -7.186620 -0.215834 1205 0.284373 0.559134 -0.821591
-8.379436 -7.183847 -0.212372 1237 0.330671 0.599038 -0.771779
-8.377099 -7.181819 -0.208926 1267 0.364290 0.628218 -0.722196
-8.375041 -7.180039 -0.205487 1293 0.393902 0.653830 -0.672714
-8.373371 -7.178590 -0.202067 1325 0.417929 0.674680 -0.623505
-8.371204 -7.176719 -0.198630 1337 0.449105 0.701596 -0.574052
-8.369636 -7.175354 -0.195208 1351 0.471678 0.721238 -0.524814
-8.368697 -7.174530 -0.191804 1361 0.485180 0.733094 -0.475836
-8.367411 -7.173404 -0.188391 1369 0.503691 0.749293 -0.426728
-8.366785 -7.172863 -0.184994 1377 0.512693 0.757080 -0.377850
-8.365613 -7.171835 -0.181582 1383 0.529557 0.771872 -0.328757
-8.364269 -7.170668 -0.178170 1389 0.548891 0.788661 -0.279663
-8.364375 -7.170739 -0.174788 1401 0.547368 0.787639 -0.231001
-8.364302 -7.170661 -0.171408 1407 0.548424 0.788764 -0.182368
-8.363853 -7.170253 -0.168011 1405 0.554874 0.794637 -0.133491
-8.363724 -7.170134 -0.164633 1407 0.556740 0.796346 -0.084886
-8.364268 -7.170585 -0.161250 1409 0.548905 0.789855 -0.036210
-8.364758 -7.170979 -0.157878 1389 0.541865 0.784188 0.012308
-8.364408 -7.170656 -0.154488 1381 0.546901 0.788833 0.061085
-8.364676 -7.170875 -0.151106 1393 0.543032 0.785684 0.109747
-8.365385 -7.171460 -0.147734 1407 0.532836 0.777265 0.158265
-8.365574 -7.171615 -0.144353 1385 0.530119 0.775035 0.206912
-8.366615 -7.172487 -0.140986 1367 0.515135 0.762493 0.255358
-8.368098 -7.173740 -0.137618 1369 0.493797 0.744463 0.303819
-8.369522 -7.174938 -0.134261 1353 0.473311 0.727221 0.352121
-8.371174 -7.176345 -0.130890 1349 0.449544 0.706981 0.400624
-8.372145 -7.177163 -0.127514 1329 0.435575 0.695208 0.449200
-8.373576 -7.178366 -0.124146 1309 0.414979 0.677898 0.497660
-8.376216 -7.180612 -0.120791 1285 0.376996 0.645583 0.545934
-8.378746 -7.182766 -0.117438 1263 0.340592 0.614592 0.594178
-8.380335 -7.184110 -0.114068 1231 0.317731 0.595251 0.642668
-8.382747 -7.186159 -0.110705 1175 0.283029 0.565769 0.691056
-8.386335 -7.189219 -0.107344 1115 0.231393 0.521742 0.739416
-8.390982 -7.193175 -0.103997 1035 0.164540 0.464824 0.787574
-8.396892 -7.198229 -0.100665 901 0.079505 0.392104 0.835516
-8.400657 -7.197817 -0.226416 955 0.025331 0.398032 -0.973850
-8.395205 -7.193138 -0.222888 1101 0.103779 0.465352 -0.923088
-8.390322 -7.188936 -0.219376 1165 0.174035 0.525811 -0.872555
-8.386992 -7.186065 -0.215905 1203 0.221939 0.567121 -0.822613
-8.384315 -7.183756 -0.212451 1235 0.260470 0.600348 -0.772915
-8.381206 -7.181075 -0.208989 1261 0.305203 0.638921 -0.723102
-8.378429 -7.178668 -0.205535 1287 0.345148 0.673555 -0.673404
-8.376093 -7.176656 -0.202088 1317 0.378767 0.702508 -0.623807
-8.374139 -7.174966 -0.198659 1329 0.406883 0.726823 -0.574469
-8.373195 -7.174137 -0.195254 1351 0.420467 0.738748 -0.525476
-8.371859 -7.172976 -0.191842 1367 0.439692 0.755454 -0.476383
-8.370125 -7.171477 -0.188422 1357 0.464638 0.777025 -0.427174
-8.368620 -7.170161 -0.185000 1369 0.486292 0.795961 -0.377937
-8.368334 -7.169901 -0.181613 1379 0.490408 0.799700 -0.329203
-8.368218 -7.169782 -0.178223 1391 0.492068 0.801409 -0.280426
-8.367585 -7.169233 -0.174826 1395 0.501180 0.809313 -0.231548
-8.366918 -7.168635 -0.171431 1399 0.510785 0.817916 -0.182699
-8.366014 -7.167848 -0.168027 1399 0.523794 0.829237 -0.133721
-8.365998 -7.167812 -0.164645 1393 0.524013 0.829758 -0.085059
-8.366593 -7.168313 -0.161273 1387 0.515451 0.822548 -0.036541
-8.367088 -7.168715 -0.157900 1385 0.508329 0.816764 0.011991
-8.366902 -7.168539 -0.154511 1385 0.511005 0.819295 0.060754
-8.367000 -7.168603 -0.151129 1385 0.509605 0.818376 0.109416
-8.368148 -7.169567 -0.147763 1381 0.493084 0.804503 0.157847
-8.368799 -7.170109 -0.144379 1375 0.483712 0.796709 0.206538
-8.369614 -7.170785 -0.141015 1371 0.471993 0.786980 0.254941
-8.370763 -7.171763 -0.137639 1353 0.455458 0.772908 0.303517
-8.371861 -7.172679 -0.134272 1345 0.439651 0.759729 0.351963
-8.372611 -7.173306 -0.130898 1333 0.428865 0.750706 0.400509
-8.374093 -7.174560 -0.127530 1317 0.407541 0.732662 0.448970
-8.376184 -7.176333 -0.124169 1307 0.377449 0.707153 0.497329
-8.378433 -7.178247 -0.120804 1273 0.345093 0.679613 0.545747
-8.381021 -7.180444 -0.117451 1245 0.307865 0.648005 0.593991
-8.383162 -7.182267 -0.114089 1209 0.277060 0.621768 0.642365
-8.385744 -7.184456 -0.110724 1169 0.239901 0.590276 0.690783
-8.390057 -7.188137 -0.107379 1109 0.177850 0.537310 0.738912
-8.394590 -7.191994 -0.104033 1017 0.112616 0.481811 0.787056
-8.399557 -7.196239 -0.100686 865 0.041152 0.420735 0.835214
-8.399779 -7.192872 -0.222968 1067 0.037955 0.469180 -0.924239
-8.394278 -7.188142 -0.219439 1151 0.117117 0.537241 -0.873462
-8.389892 -7.184363 -0.215933 1189 0.180224 0.591614 -0.823016
-8.386107 -7.181111 -0.212456 1211 0.234672 0.638406 -0.772987
-8.383557 -7.178901 -0.209000 1243 0.271365 0.670200 -0.723261
-8.381108 -7.176790 -0.205565 1275 0.306603 0.700573 -0.673836
-8.378879 -7.174870 -0.202117 1295 0.338685 0.728202 -0.624224
-8.377159 -7.173370 -0.198697 1333 0.363425 0.749787 -0.575016
-8.375313 -7.171773 -0.195267 1339 0.389991 0.772764 -0.525663
-8.373977 -7.170612 -0.191855 1343 0.409215 0.789471 -0.476570
-8.373302 -7.170022 -0.188449 1359 0.418917 0.797958 -0.427563
-8.371738 -7.168663 -0.185038 1367 0.441421 0.817512 -0.378484
-8.370616 -7.167686 -0.181624 1367 0.457572 0.831570 -0.329361
-8.370443 -7.167524 -0.178237 1373 0.460055 0.833902 -0.280627
-8.369875 -7.167010 -0.174849 1377 0.468234 0.841299 -0.231879
-8.369264 -7.166470 -0.171452 1383 0.477029 0.849065 -0.183001
-8.368970 -7.166202 -0.168055 1377 0.481256 0.852921 -0.134124
-8.369231 -7.166414 -0.164683 1383 0.477496 0.849875 -0.085606
-8.369223 -7.166386 -0.161294 1381 0.477619 0.850273 -0.036843
-8.369257 -7.166400 -0.157912 1383 0.477125 0.850074 0.011819
-8.369354 -7.166464 -0.154532 1375 0.475726 0.849154 0.060452
-8.369729 -7.166774 -0.151150 1377 0.470333 0.844695 0.109114
-8.370877 -7.167738 -0.147784 1373 0.453812 0.830822 0.157545
-8.371869 -7.168562 -0.144417 1377 0.439541 0.818966 0.205991
-8.372676 -7.169245 -0.141043 1351 0.427932 0.809141 0.254538
-8.373931 -7.170301 -0.137677 1345 0.409874 0.793944 0.302970
-8.374809 -7.171026 -0.134301 1329 0.397236 0.783509 0.351545
-8.376341 -7.172329 -0.130932 1321 0.375199 0.764764 0.400020
-8.377929 -7.173674 -0.127564 1309 0.352352 0.745410 0.448481
-8.379800 -7.175258 -0.124203 1293 0.325429 0.722618 0.496840
-8.381722 -7.176877 -0.120843 1273 0.297766 0.699325 0.545186
-8.383814 -7.178650 -0.117470 1231 0.267674 0.673815 0.593718
-8.387120 -7.181473 -0.114121 1207 0.220100 0.633199 0.641905
-8.389602 -7.183578 -0.110757 1141 0.184395 0.602907 0.690308
-8.392403 -7.185957 -0.107392 1063 0.144094 0.568678 0.738725
-8.397823 -7.190581 -0.104060 969 0.066099 0.502147 0.786668
-8.404977 -7.192872 -0.223055 997 -0.036830 0.469180 -0.925491
-8.398638 -7.187425 -0.219502 1111 0.054380 0.547553 -0.874368
-8.393861 -7.183328 -0.215989 1161 0.123113 0.606503 -0.823822
-8.390246 -7.180218 -0.212519 1201 0.175119 0.651250 -0.773894
-8.387520 -7.177860 -0.209065 1227 0.214350 0.685184 -0.724196
-8.385120 -7.175798 -0.205619 1259 0.248875 0.714851 -0.674613
-8.382848 -7.173835 -0.202172 1289 0.281574 0.743098 -0.625016
-8.381001 -7.172238 -0.198743 1307 0.308140 0.766075 -0.575678
-8.379396 -7.170837 -0.195321 1325 0.331234 0.786232 -0.526440
-8.378054 -7.169670 -0.191908 1331 0.350554 0.803021 -0.477332
-8.377093 -7.168839 -0.188506 1349 0.364372 0.814980 -0.428383
-8.375538 -7.167489 -0.185084 1357 0.386753 0.834403 -0.379145
-8.374479 -7.166560 -0.181679 1367 0.401984 0.847768 -0.330152
-8.373626 -7.165821 -0.178275 1365 0.414265 0.858403 -0.281174
-8.373178 -7.165413 -0.174878 1371 0.420714 0.864276 -0.232296
-8.372991 -7.165237 -0.171488 1377 0.423404 0.866808 -0.183519
-8.372869 -7.165111 -0.168099 1391 0.425160 0.868619 -0.134757
-8.372854 -7.165091 -0.164719 1389 0.425366 0.868907 -0.086124
-8.372461 -7.164739 -0.161332 1385 0.431020 0.873971 -0.037390
-8.372609 -7.164838 -0.157941 1373 0.428893 0.872550 0.011401
-8.373601 -7.165676 -0.154576 1367 0.414622 0.860489 0.059819
-8.374465 -7.166401 -0.151200 1375 0.402190 0.850060 0.108394
-8.374953 -7.166795 -0.147828 1377 0.395164 0.844393 0.156912
-8.375165 -7.166958 -0.144446 1355 0.392118 0.842046 0.205574
-8.376036 -7.167690 -0.141072 1349 0.379590 0.831515 0.254121
-8.377234 -7.168690 -0.137705 1339 0.362341 0.817120 0.302567
-8.378219 -7.169520 -0.134329 1327 0.348180 0.805182 0.351142
-8.380134 -7.171147 -0.130969 1313 0.320627 0.781773 0.399488
-8.381629 -7.172400 -0.127600 1289 0.299111 0.763742 0.447963
-8.382989 -7.173548 -0.124232 1271 0.279543 0.747221 0.496423
