768
1.744530 1.908290 -0.091310 1549 -0.699441 -0.701839 -0.075297
1.743840 1.907530 -0.089290 1553 -0.709369 -0.712776 -0.046233
1.744140 1.907850 -0.087320 1545 -0.705052 -0.708170 -0.017887
1.744770 1.908550 -0.085370 1565 -0.695987 -0.698098 0.010170
1.744870 1.908640 -0.083390 1551 -0.694549 -0.696803 0.038659
1.744960 1.908740 -0.081410 1557 -0.693254 -0.695364 0.067149
1.744900 1.908680 -0.079420 1545 -0.694117 -0.696229 0.095782
1.744350 1.908080 -0.077420 1537 -0.702031 -0.704861 0.124559
1.744390 1.908120 -0.075440 1535 -0.701455 -0.704285 0.153048
1.745220 1.909030 -0.073490 1539 -0.689513 -0.691193 0.181105
1.745600 1.909440 -0.071520 1525 -0.684045 -0.685292 0.209451
1.745790 1.909650 -0.069540 1525 -0.681311 -0.682272 0.237940
1.746070 1.909960 -0.067570 1525 -0.677282 -0.677810 0.266285
1.746300 1.910210 -0.065590 1515 -0.673973 -0.674213 0.294774
1.746340 1.910240 -0.063610 1497 -0.673397 -0.673781 0.323264
1.746760 1.910710 -0.061640 1483 -0.667354 -0.667020 0.351609
1.747680 1.911710 -0.059690 1483 -0.654118 -0.652631 0.379667
1.748250 1.912340 -0.057720 1477 -0.645915 -0.643566 0.408012
1.749070 1.913230 -0.055760 1465 -0.634116 -0.630761 0.436213
1.750240 1.914510 -0.053810 1465 -0.617283 -0.612343 0.464271
1.750710 1.915020 -0.051840 1451 -0.610520 -0.605005 0.492616
1.751380 1.915760 -0.049870 1449 -0.600880 -0.594357 0.520962
1.752590 1.917070 -0.047910 1445 -0.583470 -0.575508 0.549163
1.753400 1.917960 -0.045940 1431 -0.571815 -0.562702 0.577508
1.753770 1.918360 -0.043960 1415 -0.566491 -0.556948 0.605998
1.754490 1.919150 -0.041980 1397 -0.556131 -0.545581 0.634487
1.755740 1.920510 -0.040020 1373 -0.538145 -0.526011 0.662688
1.756850 1.921720 -0.038050 1355 -0.522174 -0.508602 0.691033
1.758200 1.923200 -0.036080 1341 -0.502749 -0.487307 0.719379
1.759950 1.925110 -0.034110 1321 -0.477570 -0.459825 0.747724
1.761340 1.926640 -0.032140 1291 -0.457570 -0.437810 0.776069
1.762690 1.928110 -0.030160 1261 -0.438146 -0.416660 0.804559
1.764830 1.930450 -0.028200 1229 -0.407354 -0.382991 0.832760
1.767460 1.933330 -0.026230 1193 -0.369513 -0.341551 0.861105
1.770190 1.936310 -0.024260 1137 -0.330232 -0.298673 0.889451
1.772910 1.939290 -0.022280 1073 -0.291095 -0.255796 0.917940
1.776080 1.942750 -0.020310 961 -0.245484 -0.206013 0.946285
1.767480 1.930440 -0.144680 1195 -0.369225 -0.383135 -0.843211
1.765290 1.928050 -0.142490 1235 -0.400735 -0.417522 -0.811700
1.763400 1.925980 -0.140330 1277 -0.427930 -0.447308 -0.780621
1.761390 1.923790 -0.138170 1299 -0.456851 -0.478818 -0.749542
1.759640 1.921870 -0.136030 1327 -0.482031 -0.506444 -0.718751
1.758130 1.920230 -0.133910 1347 -0.503758 -0.530041 -0.688247
1.756970 1.918950 -0.131830 1369 -0.520447 -0.548459 -0.658319
1.755750 1.917630 -0.129740 1387 -0.538003 -0.567452 -0.628247
1.754440 1.916190 -0.127650 1401 -0.556851 -0.588170 -0.598175
1.753620 1.915300 -0.125590 1417 -0.568649 -0.600976 -0.568535
1.753240 1.914880 -0.123570 1437 -0.574117 -0.607019 -0.539470
1.752220 1.913760 -0.121510 1457 -0.588793 -0.623135 -0.509830
1.751190 1.912650 -0.119440 1457 -0.603614 -0.639106 -0.480046
1.750660 1.912060 -0.117420 1469 -0.611240 -0.647595 -0.450981
1.750130 1.911480 -0.115390 1471 -0.618864 -0.655941 -0.421772
1.749750 1.911070 -0.113380 1491 -0.624332 -0.661840 -0.392851
1.749020 1.910270 -0.111340 1493 -0.634837 -0.673351 -0.363499
1.748340 1.909520 -0.109310 1497 -0.644620 -0.684141 -0.334290
1.747950 1.909090 -0.107300 1507 -0.650233 -0.690328 -0.305369
1.747360 1.908450 -0.105280 1523 -0.658721 -0.699537 -0.276305
1.747120 1.908190 -0.103280 1523 -0.662174 -0.703278 -0.247528
1.747220 1.908300 -0.101300 1539 -0.660735 -0.701695 -0.219039
1.746580 1.907600 -0.099280 1533 -0.669944 -0.711767 -0.189974
1.746340 1.907330 -0.097280 1541 -0.673397 -0.715652 -0.161197
1.746340 1.907330 -0.095290 1551 -0.673397 -0.715652 -0.132564
1.745840 1.906790 -0.093280 1545 -0.680592 -0.723422 -0.103643
1.745740 1.906680 -0.091290 1551 -0.682030 -0.725005 -0.075010
1.746140 1.907110 -0.089330 1545 -0.676275 -0.718818 -0.046808
1.746430 1.907430 -0.087360 1549 -0.672102 -0.714213 -0.018463
1.746230 1.907210 -0.085370 1553 -0.674980 -0.717379 0.010170
1.746130 1.907100 -0.083380 1553 -0.676419 -0.718962 0.038803
1.745720 1.906660 -0.081380 1555 -0.682318 -0.725293 0.067580
1.745470 1.906380 -0.079380 1547 -0.685915 -0.729321 0.096357
1.745560 1.906470 -0.077400 1545 -0.684620 -0.728027 0.124846
1.745850 1.906790 -0.075440 1535 -0.680448 -0.723422 0.153048
1.746480 1.907480 -0.073480 1531 -0.671383 -0.713494 0.181249
1.747110 1.908160 -0.071520 1539 -0.662318 -0.703710 0.209451
1.747490 1.908580 -0.069550 1531 -0.656850 -0.697668 0.237796
1.747230 1.908300 -0.067560 1523 -0.660591 -0.701695 0.266429
1.747810 1.908920 -0.065600 1515 -0.652246 -0.692774 0.294631
1.748140 1.909280 -0.063620 1493 -0.647499 -0.687596 0.323120
1.747980 1.909110 -0.061630 1487 -0.649800 -0.690042 0.351753
1.748500 1.909680 -0.059670 1491 -0.642319 -0.681839 0.379954
1.749620 1.910900 -0.057720 1479 -0.626204 -0.664286 0.408012
1.750590 1.911950 -0.055760 1475 -0.612247 -0.649178 0.436213
1.751210 1.912630 -0.053790 1469 -0.603326 -0.639394 0.464559
1.751630 1.913090 -0.051820 1453 -0.597283 -0.632775 0.492904
1.752100 1.913610 -0.049840 1445 -0.590520 -0.625293 0.521393
1.752970 1.914550 -0.047880 1439 -0.578002 -0.611768 0.549595
1.753730 1.915380 -0.045910 1419 -0.567066 -0.599825 0.577940
1.754940 1.916700 -0.043950 1419 -0.549656 -0.580832 0.606141
1.756200 1.918070 -0.041990 1395 -0.531528 -0.561121 0.634343
1.757310 1.919280 -0.040020 1381 -0.515555 -0.543709 0.662688
1.758520 1.920600 -0.038050 1355 -0.498146 -0.524716 0.691033
1.759720 1.921910 -0.036080 1337 -0.480880 -0.505868 0.719379
1.760680 1.922960 -0.034100 1315 -0.467067 -0.490760 0.747868
1.762270 1.924700 -0.032130 1289 -0.444189 -0.465724 0.776213
1.763870 1.926440 -0.030160 1261 -0.421167 -0.440688 0.804559
1.765810 1.928560 -0.028190 1223 -0.393253 -0.410185 0.832904
1.768150 1.931110 -0.026220 1187 -0.359585 -0.373494 0.861249
1.770780 1.933980 -0.024250 1137 -0.321743 -0.332199 0.889595
1.774250 1.937770 -0.022280 1073 -0.271814 -0.277667 0.917940
1.777180 1.940960 -0.020300 965 -0.229657 -0.231767 0.946429
1.769050 1.929300 -0.144690 1193 -0.346635 -0.399538 -0.843355
1.766560 1.926580 -0.142480 1233 -0.382463 -0.438675 -0.811556
1.763880 1.923650 -0.140260 1273 -0.421023 -0.480832 -0.779614
1.761730 1.921310 -0.138090 1293 -0.451959 -0.514502 -0.748391
1.760660 1.920140 -0.136000 1321 -0.467354 -0.531336 -0.718319
1.759790 1.919200 -0.133930 1351 -0.479873 -0.544862 -0.688535
1.759070 1.918410 -0.131880 1383 -0.490231 -0.556229 -0.659038
1.757810 1.917030 -0.129790 1399 -0.508362 -0.576084 -0.628966
1.755900 1.914950 -0.127650 1409 -0.535843 -0.606012 -0.598175
1.754480 1.913410 -0.125550 1425 -0.556275 -0.628171 -0.567959
1.753460 1.912290 -0.123490 1429 -0.570951 -0.644286 -0.538319
1.753030 1.911830 -0.121470 1449 -0.577139 -0.650905 -0.509254
1.752060 1.910760 -0.119410 1461 -0.591095 -0.666299 -0.479614
1.751230 1.909860 -0.117360 1469 -0.603038 -0.679249 -0.450118
1.750900 1.909490 -0.115350 1477 -0.607786 -0.684574 -0.421197
1.750460 1.909020 -0.113330 1481 -0.614117 -0.691337 -0.392132
1.749930 1.908430 -0.111310 1485 -0.621742 -0.699825 -0.363067
1.749400 1.907860 -0.109290 1505 -0.629368 -0.708026 -0.334002
1.748860 1.907270 -0.107270 1519 -0.637138 -0.716516 -0.304938
1.748420 1.906790 -0.105260 1513 -0.643469 -0.723422 -0.276017
1.748520 1.906900 -0.103280 1529 -0.642030 -0.721839 -0.247528
1.748430 1.906800 -0.101290 1541 -0.643325 -0.723278 -0.218895
1.748090 1.906430 -0.099280 1549 -0.648217 -0.728602 -0.189974
1.747540 1.905830 -0.097270 1535 -0.656131 -0.737235 -0.161053
1.747700 1.906000 -0.095290 1543 -0.653830 -0.734789 -0.132564
1.747500 1.905780 -0.093300 1553 -0.656708 -0.737955 -0.103931
1.746950 1.905180 -0.091280 1549 -0.664620 -0.746588 -0.074866
1.746800 1.905020 -0.089290 1551 -0.666780 -0.748890 -0.046233
1.746650 1.904850 -0.087300 1545 -0.668937 -0.751336 -0.017600
1.746740 1.904950 -0.085320 1539 -0.667642 -0.749897 0.010890
1.746540 1.904730 -0.083330 1537 -0.670521 -0.753063 0.039523
1.746980 1.905210 -0.081370 1549 -0.664190 -0.746156 0.067724
1.747410 1.905680 -0.079410 1553 -0.658001 -0.739394 0.095926
1.747310 1.905570 -0.077420 1545 -0.659440 -0.740976 0.124559
1.747550 1.905830 -0.075450 1545 -0.655987 -0.737235 0.152904
1.747680 1.905970 -0.073470 1529 -0.654118 -0.735221 0.181393
1.747970 1.906280 -0.071500 1527 -0.649944 -0.730760 0.209738
1.748700 1.907080 -0.069540 1533 -0.639440 -0.719249 0.237940
1.749080 1.907500 -0.067580 1527 -0.633974 -0.713206 0.266141
1.748970 1.907370 -0.065590 1509 -0.635555 -0.715077 0.294774
1.749000 1.907410 -0.063600 1487 -0.635125 -0.714501 0.323408
1.749190 1.907600 -0.061630 1489 -0.632391 -0.711767 0.351753
1.749610 1.908070 -0.059660 1479 -0.626348 -0.705005 0.380098
1.750780 1.909340 -0.057710 1475 -0.609513 -0.686731 0.408156
1.751450 1.910070 -0.055750 1467 -0.599873 -0.676229 0.436357
1.751830 1.910480 -0.053770 1463 -0.594405 -0.670328 0.464846
1.752840 1.911590 -0.051810 1457 -0.579872 -0.654358 0.493048
1.753510 1.912310 -0.049840 1443 -0.570232 -0.643998 0.521393
1.754030 1.912880 -0.047870 1429 -0.562750 -0.635797 0.549739
1.755440 1.914420 -0.045920 1419 -0.542462 -0.613638 0.577796
1.756850 1.915950 -0.043960 1413 -0.522174 -0.591625 0.605998
1.757410 1.916570 -0.041980 1399 -0.514116 -0.582704 0.634487
1.758030 1.917240 -0.040000 1375 -0.505195 -0.573062 0.662976
1.759380 1.918710 -0.038040 1361 -0.485772 -0.551912 0.691177
1.761280 1.920780 -0.036080 1345 -0.458434 -0.522128 0.719379
1.762830 1.922470 -0.034110 1323 -0.436131 -0.497811 0.747724
1.764530 1.924320 -0.032150 1295 -0.411672 -0.471192 0.775926
1.766180 1.926120 -0.030170 1269 -0.387929 -0.445292 0.804415
1.767930 1.928020 -0.028200 1235 -0.362750 -0.417955 0.832760
1.769920 1.930190 -0.026220 1193 -0.334117 -0.386732 0.861249
1.772110 1.932570 -0.024250 1139 -0.302606 -0.352487 0.889595
1.775580 1.936360 -0.022280 1067 -0.252677 -0.297955 0.917940
1.779190 1.940300 -0.020310 965 -0.200736 -0.241264 0.946285
1.770380 1.927890 -0.144690 1191 -0.327498 -0.419826 -0.843355
1.768430 1.925770 -0.142520 1237 -0.355556 -0.450328 -0.812132
1.766230 1.923370 -0.140330 1271 -0.387211 -0.484861 -0.780621
1.764030 1.920970 -0.138160 1301 -0.418865 -0.519394 -0.749398
1.762320 1.919120 -0.136020 1325 -0.443469 -0.546013 -0.718607
1.761210 1.917900 -0.133930 1349 -0.459441 -0.563567 -0.688535
1.759900 1.916470 -0.131830 1365 -0.478290 -0.584141 -0.658319
1.758530 1.914990 -0.129740 1389 -0.498002 -0.605437 -0.628247
1.757610 1.913980 -0.127670 1409 -0.511240 -0.619969 -0.598463
1.756580 1.912860 -0.125600 1429 -0.526059 -0.636084 -0.568679
1.755760 1.911970 -0.123550 1431 -0.537859 -0.648890 -0.539182
1.754980 1.911120 -0.121500 1439 -0.549081 -0.661119 -0.509686
1.753720 1.909740 -0.119420 1451 -0.567210 -0.680977 -0.479758
1.752790 1.908730 -0.117370 1459 -0.580592 -0.695508 -0.450262
1.752300 1.908200 -0.115350 1475 -0.587642 -0.703134 -0.421197
1.751280 1.907080 -0.113290 1477 -0.602319 -0.719249 -0.391556
1.750790 1.906550 -0.111280 1489 -0.609369 -0.726875 -0.362636
1.750650 1.906400 -0.109280 1501 -0.611382 -0.729034 -0.333859
1.750760 1.906520 -0.107300 1515 -0.609801 -0.727307 -0.305369
1.750670 1.906410 -0.105310 1521 -0.611096 -0.728890 -0.276736
1.750130 1.905820 -0.103290 1519 -0.618864 -0.737379 -0.247672
1.749640 1.905290 -0.101280 1525 -0.625916 -0.745005 -0.218751
1.749240 1.904860 -0.099270 1531 -0.631670 -0.751192 -0.189830
1.749440 1.905080 -0.097290 1543 -0.628794 -0.748027 -0.161341
1.749640 1.905300 -0.095320 1549 -0.625916 -0.744861 -0.132995
1.748850 1.904440 -0.093290 1555 -0.637283 -0.757235 -0.103787
1.748410 1.903950 -0.091290 1539 -0.643614 -0.764286 -0.075010
1.748010 1.903520 -0.089280 1545 -0.649368 -0.770473 -0.046089
1.747260 1.902700 -0.087260 1529 -0.660160 -0.782272 -0.017024
1.747800 1.903290 -0.085310 1549 -0.652390 -0.773781 0.011034
1.748440 1.903980 -0.083360 1553 -0.643181 -0.763854 0.039091
1.748680 1.904240 -0.081380 1553 -0.639728 -0.760113 0.067580
1.748680 1.904240 -0.079400 1553 -0.639728 -0.760113 0.096069
1.748720 1.904280 -0.077420 1539 -0.639152 -0.759538 0.124559
1.748810 1.904370 -0.075440 1539 -0.637857 -0.758243 0.153048
1.748940 1.904520 -0.073460 1531 -0.635988 -0.756084 0.181537
1.749030 1.904620 -0.071490 1527 -0.634693 -0.754645 0.209882
1.749710 1.905360 -0.069530 1525 -0.624909 -0.743998 0.238084
1.750440 1.906150 -0.067570 1515 -0.614405 -0.732631 0.266285
1.750620 1.906350 -0.065600 1509 -0.611815 -0.729753 0.294631
1.751150 1.906920 -0.063630 1497 -0.604189 -0.721552 0.322976
1.751530 1.907330 -0.061660 1487 -0.598720 -0.715652 0.351321
1.751610 1.907420 -0.059680 1479 -0.597570 -0.714357 0.379810
1.752180 1.908040 -0.057710 1479 -0.589369 -0.705436 0.408156
1.752960 1.908890 -0.055750 1463 -0.578146 -0.693206 0.436357
1.753530 1.909510 -0.053780 1451 -0.569944 -0.684285 0.464703
1.754200 1.910230 -0.051810 1447 -0.560304 -0.673925 0.493048
1.754970 1.911070 -0.049850 1431 -0.549226 -0.661840 0.521249
1.755540 1.911700 -0.047870 1427 -0.541023 -0.652775 0.549739
1.756560 1.912800 -0.045910 1421 -0.526348 -0.636948 0.577940
1.757820 1.914170 -0.043950 1413 -0.508218 -0.617235 0.606141
1.758830 1.915270 -0.041980 1395 -0.493686 -0.601408 0.634487
1.759990 1.916530 -0.040020 1373 -0.476995 -0.583278 0.662688
1.761590 1.918270 -0.038060 1359 -0.453973 -0.558242 0.690890
1.763000 1.919800 -0.036090 1341 -0.433685 -0.536227 0.719235
1.764150 1.921060 -0.034110 1323 -0.417138 -0.518099 0.747724
1.765510 1.922530 -0.032140 1293 -0.397571 -0.496947 0.776069
1.767300 1.924490 -0.030170 1263 -0.371815 -0.468746 0.804415
1.769540 1.926930 -0.028200 1237 -0.339585 -0.433639 0.832760
1.771790 1.929360 -0.026230 1195 -0.307210 -0.398674 0.861105
1.774130 1.931910 -0.024250 1141 -0.273542 -0.361983 0.889595
1.776760 1.934770 -0.022280 1061 -0.235700 -0.320833 0.917940
1.780330 1.938670 -0.020300 961 -0.184334 -0.264717 0.946429
1.771450 1.926110 -0.144650 1177 -0.312102 -0.445436 -0.842779
1.769600 1.924090 -0.142490 1227 -0.338721 -0.474501 -0.811700
1.767800 1.922130 -0.140340 1265 -0.364621 -0.502703 -0.780765
1.765500 1.919630 -0.138160 1291 -0.397715 -0.538673 -0.749398
1.763980 1.917980 -0.136030 1323 -0.419584 -0.562416 -0.718751
1.762970 1.916880 -0.133960 1347 -0.434117 -0.578242 -0.688966
1.761660 1.915450 -0.131860 1367 -0.452966 -0.598818 -0.658751
1.759940 1.913590 -0.129730 1385 -0.477714 -0.625581 -0.628103
1.758820 1.912370 -0.127650 1405 -0.493828 -0.643135 -0.598175
1.758250 1.911740 -0.125620 1425 -0.502031 -0.652200 -0.568966
1.757420 1.910840 -0.123560 1427 -0.513974 -0.665148 -0.539326
1.756350 1.909680 -0.121500 1441 -0.529368 -0.681839 -0.509686
1.755320 1.908560 -0.119430 1449 -0.544190 -0.697954 -0.479902
1.754490 1.907660 -0.117390 1459 -0.556131 -0.710904 -0.450549
1.754110 1.907240 -0.115370 1471 -0.561599 -0.716947 -0.421485
1.753470 1.906550 -0.113340 1481 -0.570808 -0.726875 -0.392276
1.752550 1.905540 -0.111290 1489 -0.584045 -0.741408 -0.362779
1.751960 1.904900 -0.109270 1505 -0.592534 -0.750617 -0.333715
1.751670 1.904590 -0.107270 1505 -0.596707 -0.755077 -0.304938
1.751630 1.904540 -0.105280 1507 -0.597283 -0.755797 -0.276305
1.751230 1.904110 -0.103270 1511 -0.603038 -0.761984 -0.247384
1.750840 1.903680 -0.101260 1529 -0.608650 -0.768171 -0.218463
1.750450 1.903260 -0.099250 1533 -0.614261 -0.774214 -0.189542
1.750450 1.903260 -0.097270 1543 -0.614261 -0.774214 -0.161053
1.750750 1.903580 -0.095300 1557 -0.609945 -0.769610 -0.132707
1.750160 1.902940 -0.093290 1547 -0.618434 -0.778817 -0.103787
1.749410 1.902130 -0.091260 1541 -0.629224 -0.790473 -0.074578
1.749460 1.902180 -0.089280 1545 -0.628506 -0.789754 -0.046089
1.749600 1.902330 -0.087310 1537 -0.626490 -0.787594 -0.017744
1.749650 1.902380 -0.085330 1541 -0.625772 -0.786876 0.010746
1.750040 1.902810 -0.083360 1545 -0.620159 -0.780689 0.039091
1.750380 1.903170 -0.081400 1551 -0.615267 -0.775509 0.067292
1.750520 1.903330 -0.079420 1545 -0.613254 -0.773207 0.095782
1.750560 1.903370 -0.077440 1539 -0.612677 -0.772631 0.124271
1.750210 1.902990 -0.075440 1543 -0.617713 -0.778099 0.153048
1.750250 1.903030 -0.073460 1539 -0.617139 -0.777522 0.181537
1.751030 1.903870 -0.071510 1539 -0.605916 -0.765437 0.209595
1.751410 1.904290 -0.069540 1517 -0.600448 -0.759394 0.237940
1.751800 1.904710 -0.067570 1517 -0.594837 -0.753350 0.266285
1.751730 1.904630 -0.065580 1503 -0.595844 -0.754502 0.294918
1.752450 1.905420 -0.063630 1507 -0.585484 -0.743135 0.322976
1.753530 1.906590 -0.061680 1489 -0.569944 -0.726300 0.351033
1.753310 1.906350 -0.059680 1487 -0.573110 -0.729753 0.379810
1.753400 1.906440 -0.057700 1481 -0.571815 -0.728458 0.408300
1.754310 1.907440 -0.055750 1467 -0.558721 -0.714070 0.436357
1.755680 1.908920 -0.053800 1465 -0.539010 -0.692774 0.464415
1.756450 1.909760 -0.051840 1449 -0.527929 -0.680689 0.492616
1.756470 1.909780 -0.049850 1431 -0.527643 -0.680400 0.521249
1.757440 1.910830 -0.047880 1427 -0.513686 -0.665293 0.549595
1.758510 1.911990 -0.045920 1421 -0.498290 -0.648601 0.577796
1.759370 1.912930 -0.043950 1411 -0.485916 -0.635077 0.606141
1.760240 1.913870 -0.041980 1393 -0.473398 -0.621552 0.634487
1.761050 1.914760 -0.040010 1375 -0.461743 -0.608746 0.662832
1.762610 1.916440 -0.038050 1359 -0.439297 -0.584573 0.691033
1.764310 1.918290 -0.036090 1339 -0.414836 -0.557954 0.719235
1.765760 1.919870 -0.034120 1325 -0.393974 -0.535221 0.747580
1.767660 1.921940 -0.032150 1303 -0.366635 -0.505437 0.775926
1.769370 1.923790 -0.030180 1257 -0.342031 -0.478818 0.804271
1.771060 1.925630 -0.028200 1231 -0.317714 -0.452344 0.832760
1.772910 1.927640 -0.026220 1185 -0.291095 -0.423423 0.861249
1.775300 1.930230 -0.024250 1127 -0.256706 -0.386156 0.889595
1.778380 1.933580 -0.022280 1053 -0.212390 -0.337954 0.917940
1.773540 1.925470 -0.144710 1167 -0.282030 -0.454645 -0.843643
1.771350 1.923080 -0.142520 1215 -0.313541 -0.489034 -0.812132
1.769390 1.920960 -0.140350 1255 -0.341743 -0.519538 -0.780909
1.767530 1.918950 -0.138200 1291 -0.368506 -0.548459 -0.749974
1.765920 1.917190 -0.136070 1325 -0.391670 -0.573783 -0.719326
1.764810 1.915980 -0.133990 1343 -0.407643 -0.591192 -0.689398
1.763190 1.914230 -0.131860 1357 -0.430951 -0.616372 -0.658751
1.761480 1.912370 -0.129740 1371 -0.455556 -0.643135 -0.628247
1.760460 1.911260 -0.127670 1395 -0.470232 -0.659106 -0.598463
1.759580 1.910310 -0.125610 1411 -0.482894 -0.672774 -0.568823
1.758900 1.909570 -0.123570 1429 -0.492677 -0.683423 -0.539470
1.757980 1.908570 -0.121510 1441 -0.505916 -0.697810 -0.509830
1.757250 1.907780 -0.119470 1453 -0.516420 -0.709177 -0.480477
1.756670 1.907150 -0.117440 1465 -0.524764 -0.718242 -0.451269
1.755590 1.905980 -0.115380 1473 -0.540305 -0.735077 -0.421628
1.754610 1.904910 -0.113320 1471 -0.554406 -0.750473 -0.391988
1.754220 1.904490 -0.111310 1487 -0.560016 -0.756516 -0.363067
1.753740 1.903960 -0.109290 1501 -0.566923 -0.764142 -0.334002
1.753540 1.903750 -0.107290 1499 -0.569800 -0.767164 -0.305226
1.753110 1.903270 -0.105280 1503 -0.575987 -0.774070 -0.276305
1.752620 1.902740 -0.103270 1511 -0.583038 -0.781696 -0.247384
1.752820 1.902960 -0.101290 1523 -0.580160 -0.778531 -0.218895
1.752320 1.902420 -0.099280 1521 -0.587354 -0.786299 -0.189974
1.752030 1.902100 -0.097280 1527 -0.591527 -0.790905 -0.161197
1.752180 1.902270 -0.095300 1533 -0.589369 -0.788459 -0.132707
1.752280 1.902370 -0.093320 1541 -0.587930 -0.787020 -0.104218
1.752080 1.902160 -0.091330 1547 -0.590808 -0.790040 -0.075585
1.751780 1.901830 -0.089330 1547 -0.595124 -0.794790 -0.046808
1.751680 1.901710 -0.087340 1551 -0.596563 -0.796515 -0.018175
1.751530 1.901550 -0.085350 1541 -0.598720 -0.798817 0.010458
1.751670 1.901710 -0.083370 1565 -0.596707 -0.796515 0.038947
1.751760 1.901800 -0.081390 1545 -0.595412 -0.795220 0.067436
1.752250 1.902330 -0.079430 1555 -0.588362 -0.787594 0.095638
1.752440 1.902540 -0.077460 1537 -0.585628 -0.784574 0.123983
1.752580 1.902690 -0.075480 1533 -0.583613 -0.782414 0.152472
1.752570 1.902680 -0.073500 1531 -0.583757 -0.782558 0.180962
1.752610 1.902720 -0.071510 1521 -0.583182 -0.781984 0.209595
1.753240 1.903400 -0.069550 1517 -0.574117 -0.772200 0.237796
1.753230 1.903390 -0.067570 1507 -0.574261 -0.772342 0.266285
1.753110 1.903260 -0.065580 1497 -0.575987 -0.774214 0.294918
1.753590 1.903780 -0.063610 1493 -0.569081 -0.766732 0.323264
1.754220 1.904460 -0.061650 1491 -0.560016 -0.756948 0.351465
1.754500 1.904770 -0.059680 1483 -0.555987 -0.752487 0.379810
1.754580 1.904850 -0.057690 1467 -0.554836 -0.751336 0.408444
1.755750 1.906120 -0.055750 1467 -0.538003 -0.733063 0.436357
1.756420 1.906850 -0.053780 1459 -0.528361 -0.722559 0.464703
1.757000 1.907470 -0.051810 1445 -0.520017 -0.713638 0.493048
1.758410 1.909010 -0.049860 1439 -0.499729 -0.691479 0.521105
1.759470 1.910160 -0.047900 1437 -0.484477 -0.674934 0.549307
1.760340 1.911100 -0.045930 1423 -0.471959 -0.661407 0.577652
1.761110 1.911930 -0.043960 1401 -0.460880 -0.649466 0.605998
1.761730 1.912600 -0.041980 1379 -0.451959 -0.639825 0.634487
1.762590 1.913530 -0.040010 1365 -0.439584 -0.626444 0.662832
1.763850 1.914900 -0.038040 1355 -0.421455 -0.606732 0.691177
1.765650 1.916860 -0.036080 1337 -0.395555 -0.578530 0.719379
1.767160 1.918490 -0.034110 1307 -0.373828 -0.555076 0.747724
1.768660 1.920120 -0.032140 1287 -0.352247 -0.531624 0.776069
1.770460 1.922070 -0.030170 1265 -0.326347 -0.503566 0.804415
1.772210 1.923970 -0.028200 1225 -0.301167 -0.476228 0.832760
1.774510 1.926460 -0.026230 1183 -0.268073 -0.440400 0.861105
1.777050 1.929220 -0.024250 1123 -0.231527 -0.400689 0.889595
1.779980 1.932400 -0.022280 1047 -0.189370 -0.354933 0.917940
1.775530 1.924740 -0.144750 1155 -0.253398 -0.465149 -0.844218
1.772680 1.921650 -0.142510 1205 -0.294404 -0.509609 -0.811988
1.770970 1.919800 -0.140370 1253 -0.319009 -0.536227 -0.781197
1.769110 1.917790 -0.138210 1289 -0.345772 -0.565148 -0.750118
1.767450 1.915990 -0.136080 1319 -0.369657 -0.591048 -0.719470
1.766530 1.914990 -0.134010 1347 -0.382893 -0.605437 -0.689686
1.765110 1.913450 -0.131900 1361 -0.403325 -0.627595 -0.659326
1.763250 1.911430 -0.129760 1371 -0.430088 -0.656660 -0.628535
1.762280 1.910380 -0.127700 1393 -0.444045 -0.671768 -0.598895
1.761350 1.909370 -0.125630 1411 -0.457426 -0.686301 -0.569111
1.760130 1.908050 -0.123550 1423 -0.474980 -0.705294 -0.539182
1.759250 1.907100 -0.121500 1445 -0.487641 -0.718962 -0.509686
1.758520 1.906310 -0.119460 1449 -0.498146 -0.730329 -0.480333
1.757990 1.905730 -0.117430 1453 -0.505772 -0.738674 -0.451125
1.757510 1.905200 -0.115410 1469 -0.512679 -0.746300 -0.422060
1.756770 1.904410 -0.113370 1475 -0.523325 -0.757667 -0.392708
1.755840 1.903400 -0.111320 1481 -0.536708 -0.772200 -0.363211
1.755300 1.902820 -0.109300 1483 -0.544476 -0.780545 -0.334146
1.755010 1.902500 -0.107300 1501 -0.548649 -0.785148 -0.305369
1.754430 1.901860 -0.105270 1509 -0.556994 -0.794358 -0.276161
1.754080 1.901490 -0.103270 1515 -0.562030 -0.799682 -0.247384
1.754090 1.901500 -0.101280 1517 -0.561887 -0.799538 -0.218751
1.753740 1.901120 -0.099280 1531 -0.566923 -0.805006 -0.189974
1.753250 1.900590 -0.097270 1531 -0.573973 -0.812632 -0.161053
1.753050 1.900370 -0.095270 1523 -0.576851 -0.815796 -0.132276
1.752800 1.900100 -0.093270 1519 -0.580448 -0.819681 -0.103499
1.753050 1.900370 -0.091300 1539 -0.576851 -0.815796 -0.075154
1.753490 1.900850 -0.089340 1539 -0.570520 -0.808889 -0.046952
1.753340 1.900680 -0.087350 1551 -0.572678 -0.811337 -0.018319
1.752940 1.900250 -0.085350 1539 -0.578433 -0.817524 0.010458
1.753180 1.900510 -0.083380 1553 -0.574980 -0.813783 0.038803
1.753030 1.900340 -0.081390 1541 -0.577139 -0.816229 0.067436
1.753520 1.900870 -0.079430 1549 -0.570088 -0.808603 0.095638
1.753710 1.901070 -0.077450 1545 -0.567354 -0.805724 0.124127
1.753850 1.901230 -0.075470 1553 -0.565340 -0.803423 0.152616
1.754030 1.901420 -0.073500 1527 -0.562750 -0.800689 0.180962
1.753630 1.900990 -0.071500 1515 -0.568505 -0.806875 0.209738
1.754060 1.901450 -0.069530 1515 -0.562318 -0.800256 0.238084
1.754240 1.901650 -0.067550 1511 -0.559728 -0.797380 0.266573
1.754430 1.901850 -0.065580 1493 -0.556994 -0.794502 0.294918
1.755010 1.902470 -0.063610 1485 -0.548649 -0.785581 0.323264
1.755690 1.903210 -0.061650 1489 -0.538865 -0.774932 0.351465
1.756410 1.904000 -0.059690 1479 -0.528505 -0.763566 0.379667
1.756790 1.904400 -0.057720 1475 -0.523037 -0.757811 0.408012
1.757460 1.905130 -0.055750 1473 -0.513398 -0.747307 0.436357
1.758690 1.906460 -0.053810 1459 -0.495700 -0.728170 0.464271
1.759260 1.907070 -0.051830 1449 -0.487497 -0.719393 0.492760
1.759580 1.907420 -0.049850 1443 -0.482894 -0.714357 0.521249
1.760750 1.908690 -0.047900 1435 -0.466059 -0.696084 0.549307
1.761960 1.910010 -0.045940 1423 -0.448649 -0.677092 0.577508
1.762830 1.910940 -0.043970 1405 -0.436131 -0.663709 0.605854
1.763540 1.911710 -0.041990 1383 -0.425915 -0.652631 0.634343
1.764160 1.912380 -0.040010 1365 -0.416994 -0.642991 0.662832
1.765570 1.913910 -0.038050 1359 -0.396706 -0.620976 0.691033
1.767570 1.916080 -0.036090 1339 -0.367930 -0.589753 0.719235
1.769130 1.917770 -0.034130 1307 -0.345484 -0.565436 0.747436
1.770490 1.919240 -0.032150 1285 -0.325915 -0.544286 0.775926
1.772040 1.920920 -0.030180 1257 -0.303613 -0.520113 0.804271
1.774090 1.923140 -0.028200 1215 -0.274116 -0.488170 0.832760
1.776530 1.925780 -0.026240 1169 -0.239009 -0.450184 0.860962
1.779380 1.928860 -0.024270 1121 -0.198002 -0.405869 0.889307
1.782320 1.932050 -0.022290 1045 -0.155699 -0.359969 0.917796
1.777410 1.923790 -0.144780 1149 -0.226347 -0.478818 -0.844650
1.774860 1.921030 -0.142570 1199 -0.263037 -0.518530 -0.812851
1.772710 1.918700 -0.140390 1247 -0.293974 -0.552056 -0.781484
1.770690 1.916520 -0.138220 1285 -0.323038 -0.583422 -0.750261
1.768980 1.914670 -0.136080 1309 -0.347642 -0.610041 -0.719470
1.767220 1.912760 -0.133950 1337 -0.372966 -0.637523 -0.688823
1.766350 1.911820 -0.131880 1361 -0.385483 -0.651047 -0.659038
1.765570 1.910980 -0.129830 1381 -0.396706 -0.663135 -0.629542
1.764110 1.909390 -0.127720 1387 -0.417715 -0.686013 -0.599182
1.763280 1.908490 -0.125670 1407 -0.429656 -0.698963 -0.569686
1.762100 1.907220 -0.123590 1415 -0.446635 -0.717235 -0.539758
1.760680 1.905680 -0.121500 1429 -0.467067 -0.739394 -0.509686
1.759800 1.904730 -0.119440 1443 -0.479729 -0.753063 -0.480046
1.759170 1.904050 -0.117410 1449 -0.488792 -0.762847 -0.450837
1.758880 1.903730 -0.115400 1473 -0.492966 -0.767451 -0.421916
1.758440 1.903260 -0.113380 1481 -0.499297 -0.774214 -0.392851
1.757910 1.902680 -0.111360 1489 -0.506922 -0.782558 -0.363787
1.756830 1.901510 -0.109300 1481 -0.522463 -0.799393 -0.334146
1.756540 1.901190 -0.107300 1501 -0.526636 -0.803997 -0.305369
1.756400 1.901040 -0.105300 1501 -0.528649 -0.806157 -0.276592
1.756050 1.900660 -0.103300 1507 -0.533685 -0.811623 -0.247815
1.756010 1.900620 -0.101310 1509 -0.534260 -0.812199 -0.219182
1.755510 1.900080 -0.099300 1513 -0.541455 -0.819970 -0.190261
1.754870 1.899390 -0.097280 1509 -0.550663 -0.829897 -0.161197
1.755070 1.899600 -0.095300 1529 -0.547786 -0.826875 -0.132707
1.754820 1.899330 -0.093300 1543 -0.551383 -0.830760 -0.103931
1.754320 1.898790 -0.091290 1541 -0.558577 -0.838530 -0.075010
1.754770 1.899270 -0.089330 1543 -0.552102 -0.831623 -0.046808
1.755160 1.899700 -0.087370 1543 -0.546491 -0.825436 -0.018607
1.755210 1.899740 -0.085390 1535 -0.545771 -0.824861 0.009882
1.754950 1.899470 -0.083390 1529 -0.549512 -0.828746 0.038659
1.755150 1.899680 -0.081420 1533 -0.546636 -0.825724 0.067005
1.755240 1.899780 -0.079440 1539 -0.545340 -0.824285 0.095494
1.754690 1.899180 -0.077430 1535 -0.553253 -0.832918 0.124415
1.755220 1.899760 -0.075470 1531 -0.545627 -0.824573 0.152616
1.755760 1.900330 -0.073510 1525 -0.537859 -0.816373 0.180818
1.756190 1.900810 -0.071540 1519 -0.531672 -0.809465 0.209163
1.756280 1.900900 -0.069560 1515 -0.530377 -0.808170 0.237652
1.755870 1.900450 -0.067560 1493 -0.536275 -0.814645 0.266429
1.756150 1.900760 -0.065590 1493 -0.532246 -0.810184 0.294774
1.756430 1.901060 -0.063610 1491 -0.528217 -0.805869 0.323264
1.756870 1.901530 -0.061640 1481 -0.521886 -0.799105 0.351609
1.758090 1.902850 -0.059700 1471 -0.504332 -0.780112 0.379523
1.758560 1.903360 -0.057730 1475 -0.497571 -0.772775 0.407868
1.758590 1.903400 -0.055740 1461 -0.497139 -0.772200 0.436501
1.759760 1.904660 -0.053790 1449 -0.480304 -0.754070 0.464559
1.761130 1.906140 -0.051850 1445 -0.460592 -0.732775 0.492472
1.762050 1.907130 -0.049880 1439 -0.447354 -0.718530 0.520818
1.762420 1.907530 -0.047900 1417 -0.442030 -0.712776 0.549307
1.763150 1.908320 -0.045930 1413 -0.431527 -0.701409 0.577652
1.764410 1.909680 -0.043970 1399 -0.413397 -0.681839 0.605854
1.764880 1.910190 -0.041990 1381 -0.406636 -0.674502 0.634343
1.765900 1.911290 -0.040020 1365 -0.391958 -0.658673 0.662688
1.767650 1.913190 -0.038060 1341 -0.366779 -0.631336 0.690890
1.769460 1.915140 -0.036100 1331 -0.340736 -0.603278 0.719091
1.770920 1.916720 -0.034130 1317 -0.319728 -0.580544 0.747436
1.772520 1.918450 -0.032160 1289 -0.296708 -0.555652 0.775782
1.774280 1.920350 -0.030190 1251 -0.271384 -0.528315 0.804127
1.776180 1.922410 -0.028210 1213 -0.244045 -0.498674 0.832616
1.778620 1.925050 -0.026240 1173 -0.208937 -0.460688 0.860962
1.781070 1.927690 -0.024270 1113 -0.173685 -0.422702 0.889307
1.784160 1.931040 -0.022300 1029 -0.129225 -0.374501 0.917652
1.779400 1.922940 -0.144820 1147 -0.197714 -0.491048 -0.845226
1.776750 1.920080 -0.142600 1197 -0.235844 -0.532200 -0.813283
1.774740 1.917910 -0.140430 1247 -0.264765 -0.563423 -0.782060
1.773180 1.916220 -0.138300 1287 -0.287210 -0.587740 -0.751413
1.771710 1.914630 -0.136180 1311 -0.308361 -0.610616 -0.720909
1.769650 1.912410 -0.134020 1333 -0.338002 -0.642559 -0.689830
1.768570 1.911240 -0.131940 1351 -0.353542 -0.659394 -0.659902
1.767260 1.909820 -0.129840 1371 -0.372391 -0.679826 -0.629686
1.765530 1.907960 -0.127720 1385 -0.397283 -0.706587 -0.599182
1.764760 1.907120 -0.125670 1403 -0.408361 -0.718674 -0.569686
1.763340 1.905590 -0.123570 1415 -0.428793 -0.740688 -0.539470
1.762060 1.904200 -0.121490 1419 -0.447210 -0.760689 -0.509542
1.761530 1.903630 -0.119460 1437 -0.454836 -0.768890 -0.480333
1.760750 1.902780 -0.117420 1449 -0.466059 -0.781119 -0.450981
1.760120 1.902100 -0.115390 1459 -0.475124 -0.790905 -0.421772
1.759630 1.901570 -0.113360 1469 -0.482175 -0.798531 -0.392564
1.759290 1.901210 -0.111350 1479 -0.487067 -0.803711 -0.363643
1.759050 1.900950 -0.109350 1477 -0.490520 -0.807452 -0.334866
1.758810 1.900680 -0.107350 1497 -0.493972 -0.811337 -0.306089
1.758370 1.900210 -0.105330 1505 -0.500303 -0.818098 -0.277024
1.758020 1.899830 -0.103330 1515 -0.505339 -0.823566 -0.248247
1.758030 1.899840 -0.101340 1503 -0.505195 -0.823422 -0.219614
1.757840 1.899630 -0.099340 1525 -0.507929 -0.826445 -0.190837
1.757090 1.898830 -0.097320 1541 -0.518722 -0.837954 -0.161772
1.756700 1.898400 -0.095310 1529 -0.524332 -0.844142 -0.132851
1.756640 1.898340 -0.093320 1529 -0.525197 -0.845005 -0.104218
1.756690 1.898390 -0.091340 1541 -0.524476 -0.844285 -0.075729
1.756740 1.898440 -0.089360 1543 -0.523758 -0.843566 -0.047240
1.756740 1.898440 -0.087370 1543 -0.523758 -0.843566 -0.018607
1.756490 1.898170 -0.085380 1533 -0.527354 -0.847451 0.010026
1.756280 1.897940 -0.083380 1531 -0.530377 -0.850760 0.038803
1.756620 1.898310 -0.081420 1531 -0.525483 -0.845437 0.067005
1.757060 1.898790 -0.079450 1533 -0.519152 -0.838530 0.095350
1.757200 1.898940 -0.077470 1539 -0.517138 -0.836372 0.123839
1.757590 1.899360 -0.075510 1523 -0.511526 -0.830330 0.152041
1.757980 1.899770 -0.073540 1517 -0.505916 -0.824429 0.180386
1.758110 1.899920 -0.071560 1523 -0.504044 -0.822271 0.208875
1.758210 1.900020 -0.069580 1507 -0.502607 -0.820832 0.237364
1.758040 1.899830 -0.067590 1503 -0.505053 -0.823566 0.265998
1.757920 1.899710 -0.065600 1487 -0.506778 -0.825292 0.294631
1.757810 1.899590 -0.063610 1481 -0.508362 -0.827019 0.323264
1.758390 1.900210 -0.061650 1471 -0.500017 -0.818098 0.351465
1.759760 1.901690 -0.059710 1469 -0.480304 -0.796803 0.379379
1.760490 1.902480 -0.057740 1473 -0.469801 -0.785437 0.407724
1.761060 1.903100 -0.055780 1463 -0.461599 -0.776516 0.435926
1.761890 1.903990 -0.053810 1449 -0.449656 -0.763710 0.464271
1.762410 1.904550 -0.051840 1441 -0.442174 -0.755653 0.492616
1.763040 1.905230 -0.049870 1429 -0.433111 -0.745868 0.520962
1.764260 1.906540 -0.047910 1413 -0.415555 -0.727019 0.549163
1.765170 1.907530 -0.045940 1415 -0.402463 -0.712776 0.577508
1.765990 1.908410 -0.043970 1395 -0.390663 -0.700114 0.605854
1.767160 1.909680 -0.042010 1373 -0.373828 -0.681839 0.634055
1.768120 1.910710 -0.040030 1359 -0.360015 -0.667020 0.662544
1.769290 1.911980 -0.038060 1337 -0.343182 -0.648746 0.690890
1.770700 1.913490 -0.036100 1327 -0.322894 -0.627019 0.719091
1.772810 1.915770 -0.034140 1317 -0.292534 -0.594213 0.747293
1.774610 1.917720 -0.032170 1289 -0.266634 -0.566157 0.775638
1.775720 1.918920 -0.030190 1247 -0.250664 -0.548889 0.804127
1.777820 1.921190 -0.028220 1203 -0.220448 -0.516228 0.832472
1.780720 1.924310 -0.026250 1157 -0.178721 -0.471336 0.860818
1.783560 1.927390 -0.024280 1095 -0.137857 -0.427020 0.889163
1.786550 1.930610 -0.022310 1009 -0.094836 -0.380689 0.917508
1.781980 1.922850 -0.144920 1145 -0.160591 -0.492343 -0.846664
1.778930 1.919560 -0.142660 1197 -0.204477 -0.539682 -0.814147
1.776270 1.916690 -0.140440 1231 -0.242750 -0.580976 -0.782204
1.774610 1.914900 -0.138300 1265 -0.266634 -0.606732 -0.751413
1.773140 1.913310 -0.136180 1293 -0.287787 -0.629609 -0.720909
1.772120 1.912210 -0.134100 1329 -0.302462 -0.645437 -0.690981
1.770500 1.910470 -0.131980 1347 -0.325772 -0.670473 -0.660477
1.768930 1.908770 -0.129860 1365 -0.348362 -0.694934 -0.629974
1.767660 1.907400 -0.127770 1377 -0.366635 -0.714645 -0.599902
1.766630 1.906290 -0.125700 1399 -0.381454 -0.730616 -0.570118
1.765650 1.905230 -0.123630 1413 -0.395555 -0.745868 -0.540333
1.764430 1.903900 -0.121550 1427 -0.413109 -0.765005 -0.510405
1.763450 1.902850 -0.119490 1437 -0.427210 -0.780112 -0.480765
1.763010 1.902380 -0.117470 1447 -0.433541 -0.786876 -0.451700
1.762720 1.902070 -0.115460 1457 -0.437714 -0.791335 -0.422780
1.761790 1.901060 -0.113410 1455 -0.451095 -0.805869 -0.393283
1.761460 1.900700 -0.111400 1475 -0.455844 -0.811049 -0.364362
1.761010 1.900220 -0.109380 1479 -0.462318 -0.817954 -0.335297
1.760030 1.899160 -0.107340 1491 -0.476419 -0.833206 -0.305945
1.759140 1.898200 -0.105300 1497 -0.489225 -0.847019 -0.276592
1.758700 1.897720 -0.103280 1487 -0.495556 -0.853926 -0.247528
1.758500 1.897510 -0.101290 1499 -0.498434 -0.856947 -0.218895
1.758160 1.897140 -0.099280 1503 -0.503326 -0.862271 -0.189974
1.757770 1.896710 -0.097280 1511 -0.508938 -0.868458 -0.161197
1.758060 1.897030 -0.095310 1523 -0.504765 -0.863854 -0.132851
1.758460 1.897460 -0.093340 1535 -0.499008 -0.857667 -0.104506
1.758210 1.897190 -0.091350 1523 -0.502607 -0.861552 -0.075873
1.758310 1.897290 -0.089370 1533 -0.501168 -0.860113 -0.047384
1.758400 1.897390 -0.087390 1537 -0.499873 -0.858674 -0.018895
1.758350 1.897340 -0.085400 1527 -0.500592 -0.859393 0.009738
1.758050 1.897010 -0.083400 1527 -0.504909 -0.864142 0.038515
1.758090 1.897060 -0.081420 1525 -0.504332 -0.863422 0.067005
1.758580 1.897580 -0.079460 1525 -0.497283 -0.855940 0.095206
1.758770 1.897780 -0.077480 1531 -0.494549 -0.853063 0.123695
1.758660 1.897660 -0.075490 1511 -0.496132 -0.854789 0.152328
1.759100 1.898140 -0.073530 1509 -0.489801 -0.847883 0.180530
1.759480 1.898550 -0.071560 1513 -0.484333 -0.841983 0.208875
1.759720 1.898800 -0.069580 1505 -0.480880 -0.838386 0.237364
1.760100 1.899220 -0.067610 1495 -0.475412 -0.832343 0.265710
1.760990 1.900170 -0.065660 1493 -0.462606 -0.818675 0.293767
1.760770 1.899930 -0.063660 1487 -0.465772 -0.822127 0.322544
1.761050 1.900240 -0.061690 1479 -0.461743 -0.817668 0.350890
1.761680 1.900920 -0.059720 1467 -0.452678 -0.807882 0.379235
1.761760 1.901000 -0.057740 1455 -0.451527 -0.806731 0.407724
1.762090 1.901360 -0.055760 1447 -0.446779 -0.801551 0.436213
1.763070 1.902410 -0.053810 1445 -0.432678 -0.786443 0.464271
1.764240 1.903670 -0.051850 1439 -0.415843 -0.768315 0.492472
1.765110 1.904610 -0.049890 1437 -0.403325 -0.754789 0.520674
1.766030 1.905600 -0.047920 1413 -0.390089 -0.740545 0.549019
1.767000 1.906650 -0.045950 1399 -0.376132 -0.725437 0.577364
1.767720 1.907420 -0.043980 1387 -0.365772 -0.714357 0.605710
1.768880 1.908670 -0.042010 1375 -0.349081 -0.696373 0.634055
1.770640 1.910570 -0.040060 1367 -0.323757 -0.669033 0.662113
1.771760 1.911780 -0.038090 1343 -0.307642 -0.651624 0.690458
1.772720 1.912810 -0.036110 1321 -0.293829 -0.636804 0.718947
1.774180 1.914390 -0.034140 1299 -0.272821 -0.614070 0.747293
1.776290 1.916660 -0.032180 1273 -0.242461 -0.581409 0.775494
1.777750 1.918230 -0.030200 1235 -0.221455 -0.558817 0.803983
1.779450 1.920070 -0.028220 1191 -0.196994 -0.532342 0.832472
1.782150 1.922980 -0.026250 1147 -0.158145 -0.490473 0.860818
1.785150 1.926220 -0.024280 1083 -0.114980 -0.443853 0.889163
1.788890 1.930250 -0.022320 1003 -0.061167 -0.385868 0.917364
1.783710 1.921840 -0.144940 1121 -0.135700 -0.506876 -0.846952
1.780700 1.918610 -0.142680 1177 -0.179009 -0.553351 -0.814434
1.778200 1.915900 -0.140480 1217 -0.214980 -0.592343 -0.782779
1.776630 1.914210 -0.138340 1265 -0.237570 -0.616660 -0.751988
1.774860 1.912310 -0.136200 1289 -0.263037 -0.643998 -0.721197
1.773090 1.910400 -0.134060 1311 -0.288505 -0.671479 -0.690405
1.771820 1.909040 -0.131970 1337 -0.306780 -0.691049 -0.660334
1.770600 1.907720 -0.129880 1363 -0.324333 -0.710041 -0.630261
1.769080 1.906080 -0.127770 1373 -0.346203 -0.733638 -0.599902
1.768300 1.905230 -0.125720 1385 -0.357425 -0.745868 -0.570405
1.767620 1.904510 -0.123670 1405 -0.367211 -0.756228 -0.540909
1.766240 1.903020 -0.121580 1421 -0.387067 -0.777667 -0.510837
1.765410 1.902120 -0.119530 1437 -0.399010 -0.790617 -0.481341
1.764980 1.901660 -0.117510 1443 -0.405197 -0.797236 -0.452276
1.764140 1.900750 -0.115460 1447 -0.417282 -0.810328 -0.422780
1.763060 1.899590 -0.113400 1461 -0.432822 -0.827019 -0.393139
1.762570 1.899060 -0.111380 1469 -0.439872 -0.834645 -0.364074
1.762380 1.898860 -0.109380 1473 -0.442606 -0.837523 -0.335297
1.761640 1.898060 -0.107350 1475 -0.453254 -0.849034 -0.306089
1.761200 1.897580 -0.105330 1495 -0.459585 -0.855940 -0.277024
1.760910 1.897270 -0.103330 1499 -0.463757 -0.860401 -0.248247
1.760860 1.897220 -0.101340 1509 -0.464477 -0.861120 -0.219614
1.760370 1.896690 -0.099330 1501 -0.471527 -0.868746 -0.190693
1.759870 1.896150 -0.097310 1497 -0.478720 -0.876516 -0.161628
1.760070 1.896360 -0.095340 1519 -0.475844 -0.873494 -0.133283
1.759920 1.896200 -0.093350 1519 -0.478002 -0.875797 -0.104650
1.759870 1.896140 -0.091360 1511 -0.478720 -0.876660 -0.076017
1.760520 1.896840 -0.089410 1535 -0.469369 -0.866588 -0.047959
1.761160 1.897530 -0.087450 1549 -0.460160 -0.856660 -0.019758
1.760710 1.897050 -0.085450 1543 -0.466635 -0.863566 0.009019
1.760160 1.896450 -0.083430 1523 -0.474549 -0.872199 0.038084
1.760440 1.896760 -0.081460 1539 -0.470520 -0.867739 0.066429
1.759990 1.896270 -0.079460 1523 -0.476995 -0.874789 0.095206
1.759880 1.896150 -0.077470 1517 -0.478578 -0.876516 0.123839
1.759920 1.896190 -0.075490 1507 -0.478002 -0.875940 0.152328
1.760410 1.896720 -0.073520 1513 -0.470952 -0.868314 0.180674
1.761050 1.897400 -0.071560 1511 -0.461743 -0.858530 0.208875
1.760890 1.897230 -0.069570 1495 -0.464045 -0.860976 0.237508
1.761620 1.898020 -0.067620 1489 -0.453541 -0.849609 0.265566
1.762250 1.898700 -0.065650 1485 -0.444477 -0.839825 0.293911
1.762680 1.899160 -0.063680 1477 -0.438289 -0.833206 0.322256
1.763710 1.900270 -0.061730 1485 -0.423469 -0.817235 0.350314
1.764140 1.900730 -0.059760 1473 -0.417282 -0.810616 0.378659
1.763870 1.900440 -0.057760 1461 -0.421167 -0.814789 0.407436
1.763850 1.900420 -0.055770 1445 -0.421455 -0.815078 0.436069
1.764530 1.901150 -0.053810 1435 -0.411672 -0.804574 0.464271
1.765400 1.902080 -0.051840 1433 -0.399152 -0.791191 0.492616
1.766330 1.903080 -0.049880 1425 -0.385772 -0.776804 0.520818
1.767490 1.904340 -0.047920 1409 -0.369081 -0.758674 0.549019
1.768510 1.905430 -0.045960 1395 -0.354405 -0.742991 0.577220
1.769840 1.906860 -0.044000 1387 -0.335268 -0.722415 0.605422
1.771050 1.908160 -0.042030 1375 -0.317858 -0.703710 0.633767
1.772510 1.909740 -0.040070 1359 -0.296850 -0.680977 0.661969
1.774430 1.911800 -0.038110 1343 -0.269224 -0.651336 0.690170
1.775790 1.913260 -0.036140 1327 -0.249657 -0.630329 0.718516
1.776510 1.914030 -0.034150 1295 -0.239297 -0.619250 0.747149
1.778010 1.915660 -0.032180 1263 -0.217714 -0.595796 0.775494
1.779620 1.917390 -0.030200 1223 -0.194548 -0.570904 0.803983
1.781830 1.919760 -0.028230 1185 -0.162751 -0.536804 0.832328
1.784530 1.922670 -0.026270 1141 -0.123900 -0.494933 0.860530
1.787780 1.926170 -0.024300 1069 -0.077138 -0.444573 0.888875
1.786070 1.921350 -0.145010 1101 -0.101743 -0.513926 -0.847959
1.783310 1.918380 -0.142770 1165 -0.141454 -0.556659 -0.815729
1.780650 1.915520 -0.140550 1205 -0.179728 -0.597811 -0.783787
1.779080 1.913830 -0.138420 1249 -0.202318 -0.622127 -0.753139
1.777510 1.912140 -0.136290 1283 -0.224908 -0.646444 -0.722492
1.776190 1.910720 -0.134180 1315 -0.243900 -0.666876 -0.692132
1.775070 1.909510 -0.132100 1341 -0.260017 -0.684285 -0.662204
1.772850 1.907120 -0.129930 1355 -0.291958 -0.718674 -0.630981
1.771270 1.905430 -0.127820 1373 -0.314692 -0.742991 -0.600621
1.770650 1.904750 -0.125780 1391 -0.323613 -0.752775 -0.571269
1.769570 1.903590 -0.123700 1405 -0.339153 -0.769466 -0.541341
1.767990 1.901890 -0.121600 1411 -0.361887 -0.793925 -0.511125
1.767110 1.900940 -0.119540 1427 -0.374549 -0.807596 -0.481485
1.766470 1.900260 -0.117510 1441 -0.383758 -0.817380 -0.452276
1.766090 1.899840 -0.115490 1451 -0.389224 -0.823422 -0.423211
1.765650 1.899370 -0.113470 1461 -0.395555 -0.830186 -0.394146
1.764610 1.898260 -0.111420 1465 -0.410519 -0.846156 -0.364650
1.763630 1.897200 -0.109370 1465 -0.424620 -0.861408 -0.335154
1.763540 1.897100 -0.107370 1475 -0.425915 -0.862847 -0.306377
1.763190 1.896730 -0.105360 1481 -0.430951 -0.868171 -0.277456
1.762900 1.896410 -0.103360 1489 -0.435124 -0.872775 -0.248679
1.762660 1.896150 -0.101360 1505 -0.438577 -0.876516 -0.219902
1.761960 1.895400 -0.099330 1499 -0.448649 -0.887307 -0.190693
1.762110 1.895560 -0.097350 1499 -0.446491 -0.885005 -0.162204
1.762310 1.895780 -0.095380 1511 -0.443613 -0.881840 -0.133859
1.761910 1.895350 -0.093370 1511 -0.449369 -0.888027 -0.104938
1.762070 1.895510 -0.091390 1515 -0.447067 -0.885725 -0.076449
1.761810 1.895240 -0.089400 1513 -0.450808 -0.889610 -0.047815
1.761710 1.895130 -0.087410 1505 -0.452246 -0.891191 -0.019182
1.761800 1.895230 -0.085430 1515 -0.450951 -0.889752 0.009307
1.761450 1.894850 -0.083420 1507 -0.455987 -0.895221 0.038228
1.761390 1.894780 -0.081440 1517 -0.456851 -0.896227 0.066717
1.761740 1.895150 -0.079470 1511 -0.451815 -0.890905 0.095062
1.762170 1.895620 -0.077500 1509 -0.445628 -0.884142 0.123408
1.762060 1.895500 -0.075510 1515 -0.447210 -0.885869 0.152041
1.762350 1.895810 -0.073540 1503 -0.443038 -0.881408 0.180386
1.763090 1.896600 -0.071590 1501 -0.432390 -0.870041 0.208444
1.763480 1.897020 -0.069620 1507 -0.426780 -0.863998 0.236789
1.763220 1.896740 -0.067620 1481 -0.430521 -0.868027 0.265566
1.763400 1.896930 -0.065640 1467 -0.427930 -0.865293 0.294055
1.764030 1.897610 -0.063680 1473 -0.418865 -0.855509 0.322256
1.764610 1.898230 -0.061710 1475 -0.410519 -0.846588 0.350602
1.765290 1.898960 -0.059750 1461 -0.400735 -0.836084 0.378803
1.765870 1.899580 -0.057780 1449 -0.392391 -0.827163 0.407149
1.766540 1.900310 -0.055810 1447 -0.382749 -0.816659 0.435494
1.766780 1.900560 -0.053830 1439 -0.379297 -0.813062 0.463983
1.767250 1.901070 -0.051850 1431 -0.372535 -0.805724 0.492472
1.768320 1.902220 -0.049890 1411 -0.357139 -0.789178 0.520674
1.769550 1.903540 -0.047940 1403 -0.339441 -0.770185 0.548731
1.770810 1.904890 -0.045980 1391 -0.321311 -0.750761 0.576933
1.771780 1.905940 -0.044010 1377 -0.307354 -0.735652 0.605278
1.772900 1.907140 -0.042040 1357 -0.291239 -0.718386 0.633623
1.773970 1.908290 -0.040070 1347 -0.275843 -0.701839 0.661969
1.774940 1.909330 -0.038090 1325 -0.261887 -0.686875 0.690458
1.776850 1.911380 -0.036130 1309 -0.234405 -0.657378 0.718659
1.778760 1.913440 -0.034170 1289 -0.206923 -0.627739 0.746861
1.780270 1.915060 -0.032190 1261 -0.185196 -0.604429 0.775350
1.782130 1.917050 -0.030220 1217 -0.158433 -0.575796 0.803695
1.784680 1.919800 -0.028260 1179 -0.121743 -0.536227 0.831897
1.787190 1.922500 -0.026280 1117 -0.085628 -0.497379 0.860386
1.790040 1.925560 -0.024310 1047 -0.044620 -0.453350 0.888731
1.788050 1.920410 -0.145050 1079 -0.073253 -0.527451 -0.848535
1.785430 1.917600 -0.142820 1151 -0.110952 -0.567882 -0.816449
1.783020 1.915010 -0.140620 1199 -0.145627 -0.605149 -0.784794
1.780600 1.912410 -0.138420 1237 -0.180449 -0.642559 -0.753139
1.779030 1.910730 -0.136290 1271 -0.203038 -0.666732 -0.722492
1.777760 1.909360 -0.134190 1307 -0.221311 -0.686443 -0.692276
1.776590 1.908100 -0.132100 1331 -0.238146 -0.704573 -0.662204
1.775110 1.906510 -0.129990 1343 -0.259441 -0.727451 -0.631844
1.773580 1.904880 -0.127880 1359 -0.281456 -0.750904 -0.601485
1.772460 1.903670 -0.125800 1385 -0.297570 -0.768315 -0.571556
1.771430 1.902560 -0.123730 1389 -0.312390 -0.784286 -0.541772
1.770600 1.901660 -0.121670 1403 -0.324333 -0.797236 -0.512132
1.769620 1.900610 -0.119610 1415 -0.338434 -0.812344 -0.482492
1.768880 1.899820 -0.117570 1425 -0.349081 -0.823710 -0.453139
1.768200 1.899080 -0.115530 1435 -0.358865 -0.834357 -0.423787
1.767610 1.898450 -0.113500 1451 -0.367355 -0.843422 -0.394578
1.767220 1.898030 -0.111490 1457 -0.372966 -0.849465 -0.365657
1.766530 1.897290 -0.109450 1463 -0.382893 -0.860113 -0.336305
1.765840 1.896550 -0.107420 1471 -0.392821 -0.870760 -0.307096
1.765800 1.896500 -0.105430 1479 -0.393398 -0.871480 -0.278463
1.765250 1.895920 -0.103410 1481 -0.401312 -0.879825 -0.249398
1.764510 1.895120 -0.101380 1477 -0.411958 -0.891336 -0.220190
1.764620 1.895230 -0.099400 1501 -0.410377 -0.889752 -0.191700
1.764310 1.894910 -0.097390 1503 -0.414836 -0.894358 -0.162780
1.763870 1.894430 -0.095380 1499 -0.421167 -0.901263 -0.133859
1.763870 1.894430 -0.093400 1507 -0.421167 -0.901263 -0.105369
1.763470 1.894000 -0.091390 1503 -0.426922 -0.907450 -0.076449
1.762770 1.893240 -0.089370 1501 -0.436994 -0.918387 -0.047384
1.762770 1.893240 -0.087380 1515 -0.436994 -0.918387 -0.018751
1.763660 1.894200 -0.085440 1521 -0.424190 -0.904574 0.009163
1.764400 1.895000 -0.083490 1517 -0.413541 -0.893063 0.037221
1.764540 1.895150 -0.081510 1505 -0.411528 -0.890905 0.065710
1.764240 1.894820 -0.079510 1493 -0.415843 -0.895653 0.094487
1.763530 1.894060 -0.077500 1491 -0.426059 -0.906588 0.123408
1.763470 1.894000 -0.075510 1493 -0.426922 -0.907450 0.152041
1.764110 1.894680 -0.073550 1485 -0.417715 -0.897667 0.180242
1.764740 1.895360 -0.071590 1485 -0.408649 -0.887883 0.208444
1.765430 1.896090 -0.069630 1495 -0.398722 -0.877379 0.236645
1.765570 1.896240 -0.067650 1487 -0.396706 -0.875221 0.265134
1.765650 1.896330 -0.065670 1471 -0.395555 -0.873926 0.293623
1.766630 1.897380 -0.063720 1467 -0.381454 -0.858818 0.321681
1.766720 1.897470 -0.061730 1461 -0.380159 -0.857523 0.350314
1.766550 1.897290 -0.059740 1453 -0.382607 -0.860113 0.378947
1.767380 1.898180 -0.057780 1435 -0.370664 -0.847307 0.407149
1.768300 1.899170 -0.055820 1435 -0.357425 -0.833062 0.435350
1.768980 1.899900 -0.053850 1433 -0.347642 -0.822560 0.463695
1.770110 1.901110 -0.051890 1431 -0.331383 -0.805148 0.491897
1.771130 1.902200 -0.049930 1417 -0.316707 -0.789466 0.520098
