763
-1.923024 -1.574681 -0.159091 1499 0.944729 0.063841 -0.025831
-1.922953 -1.574619 -0.158321 1499 0.945752 0.064733 -0.014752
-1.923164 -1.574785 -0.157571 1499 0.942716 0.062346 -0.003960
-1.923418 -1.574994 -0.156829 1499 0.939060 0.059339 0.006716
-1.923404 -1.574975 -0.156059 1501 0.939263 0.059612 0.017795
-1.923100 -1.574722 -0.155271 1499 0.943637 0.063251 0.029133
-1.922747 -1.574433 -0.154472 1501 0.948716 0.067411 0.040630
-1.922718 -1.574400 -0.153703 1499 0.949132 0.067886 0.051694
-1.922358 -1.574104 -0.152915 1489 0.954312 0.072145 0.063033
-1.922393 -1.574135 -0.152154 1487 0.953810 0.071699 0.073982
-1.922604 -1.574301 -0.151403 1491 0.950774 0.069309 0.084788
-1.922858 -1.574509 -0.150651 1485 0.947119 0.066316 0.095608
-1.923690 -1.575186 -0.149948 1489 0.935148 0.056576 0.105723
-1.924007 -1.575430 -0.149206 1501 0.930585 0.053064 0.116400
-1.923421 -1.574950 -0.148399 1497 0.939018 0.059972 0.128011
-1.923167 -1.574746 -0.147611 1487 0.942673 0.062906 0.139349
-1.923321 -1.574870 -0.146860 1473 0.940457 0.061123 0.150155
-1.923872 -1.575305 -0.146127 1475 0.932529 0.054864 0.160702
-1.924908 -1.576160 -0.145441 1483 0.917622 0.042562 0.170572
-1.925684 -1.576780 -0.144727 1483 0.906457 0.033641 0.180845
-1.925211 -1.576399 -0.143930 1483 0.913263 0.039123 0.192313
-1.924512 -1.575819 -0.143114 1483 0.923320 0.047468 0.204054
-1.924766 -1.576028 -0.142362 1485 0.919666 0.044461 0.214874
-1.925252 -1.576413 -0.141630 1485 0.912673 0.038921 0.225407
-1.925513 -1.576629 -0.140878 1477 0.908917 0.035813 0.236227
-1.925780 -1.576837 -0.140136 1469 0.905075 0.032821 0.246903
-1.925865 -1.576904 -0.139375 1465 0.903852 0.031855 0.257853
-1.925949 -1.576970 -0.138616 1463 0.902644 0.030907 0.268774
-1.926661 -1.577555 -0.137891 1467 0.892399 0.022490 0.279205
-1.927091 -1.577898 -0.137149 1463 0.886212 0.017554 0.289881
-1.926957 -1.577787 -0.136381 1463 0.888140 0.019151 0.300932
-1.927041 -1.577853 -0.135620 1457 0.886931 0.018202 0.311882
-1.928029 -1.578658 -0.134914 1455 0.872717 0.006619 0.322040
-1.928861 -1.579335 -0.134201 1457 0.860744 -0.003122 0.332299
-1.929291 -1.579678 -0.133457 1451 0.854557 -0.008058 0.343004
-1.929431 -1.579787 -0.132698 1443 0.852544 -0.009626 0.353925
-1.930080 -1.580322 -0.131973 1443 0.843204 -0.017324 0.364356
-1.930679 -1.580807 -0.131240 1447 0.834587 -0.024302 0.374903
-1.930658 -1.580781 -0.130470 1441 0.834889 -0.023928 0.385982
-1.930573 -1.580706 -0.129701 1429 0.836112 -0.022849 0.397047
-1.930996 -1.581056 -0.128959 1425 0.830026 -0.027885 0.407723
-1.931200 -1.581214 -0.128208 1413 0.827089 -0.030157 0.418529
-1.931736 -1.581650 -0.127464 1401 0.819378 -0.036432 0.429234
-1.932497 -1.582270 -0.126741 1403 0.808428 -0.045353 0.439637
-1.932871 -1.582571 -0.125999 1401 0.803047 -0.049684 0.450313
-1.933294 -1.582907 -0.125257 1399 0.796960 -0.054517 0.460989
-1.933555 -1.583122 -0.124506 1389 0.793205 -0.057612 0.471795
-1.934154 -1.583607 -0.123771 1379 0.784586 -0.064589 0.482371
-1.934795 -1.584135 -0.123039 1373 0.775363 -0.072188 0.492903
-1.935338 -1.584563 -0.122295 1363 0.767550 -0.078345 0.503608
-1.935881 -1.585006 -0.121562 1357 0.759737 -0.084719 0.514155
-1.936466 -1.585491 -0.120819 1351 0.751320 -0.091697 0.524845
-1.937058 -1.585969 -0.120086 1343 0.742803 -0.098575 0.535392
-1.937715 -1.586497 -0.119352 1331 0.733348 -0.106172 0.545953
-1.938582 -1.587209 -0.118627 1321 0.720875 -0.116417 0.556385
-1.939358 -1.587830 -0.117904 1311 0.709709 -0.125352 0.566788
-1.939717 -1.588130 -0.117151 1299 0.704542 -0.129669 0.577623
-1.940316 -1.588615 -0.116418 1289 0.695925 -0.136646 0.588169
-1.941134 -1.589278 -0.115684 1271 0.684155 -0.146187 0.598730
-1.941670 -1.589713 -0.114940 1253 0.676443 -0.152446 0.609435
-1.941867 -1.589865 -0.114179 1239 0.673608 -0.154632 0.620385
-1.942572 -1.590442 -0.113447 1223 0.663464 -0.162934 0.630917
-1.943729 -1.591389 -0.112739 1207 0.646816 -0.176560 0.641105
-1.944999 -1.592420 -0.112033 1185 0.628543 -0.191395 0.651263
-1.946332 -1.593502 -0.111326 1163 0.609364 -0.206964 0.661435
-1.947594 -1.594541 -0.110620 1135 0.591204 -0.221913 0.671594
-1.950165 -1.596206 -0.215641 1059 0.554212 -0.245870 -0.839500
-1.947328 -1.593881 -0.213775 1129 0.595033 -0.212417 -0.812651
-1.943990 -1.591138 -0.211874 1177 0.643061 -0.172950 -0.785298
-1.942402 -1.589834 -0.210931 1197 0.665910 -0.154187 -0.771730
-1.941668 -1.589233 -0.210086 1217 0.676471 -0.145540 -0.759572
-1.941089 -1.588759 -0.209249 1239 0.684802 -0.138718 -0.747529
-1.939946 -1.587817 -0.208354 1253 0.701247 -0.125165 -0.734651
-1.939163 -1.587166 -0.207500 1263 0.712515 -0.115798 -0.722363
-1.938358 -1.586509 -0.206644 1275 0.724098 -0.106345 -0.710047
-1.937793 -1.586035 -0.205806 1293 0.732226 -0.099525 -0.697989
-1.937384 -1.585704 -0.204999 1311 0.738111 -0.094762 -0.686378
-1.936410 -1.584904 -0.204124 1317 0.752127 -0.083251 -0.673788
-1.935337 -1.584018 -0.203241 1317 0.767565 -0.070503 -0.661083
-1.934144 -1.583041 -0.202346 1323 0.784730 -0.056445 -0.648205
-1.933904 -1.582838 -0.201559 1339 0.788183 -0.053526 -0.636881
-1.933784 -1.582741 -0.200769 1353 0.789910 -0.052130 -0.625514
-1.933325 -1.582360 -0.199951 1361 0.796514 -0.046648 -0.613744
-1.932866 -1.581979 -0.199132 1371 0.803119 -0.041166 -0.601960
-1.932061 -1.581321 -0.198287 1383 0.814702 -0.031698 -0.589802
-1.932336 -1.581536 -0.197546 1391 0.810745 -0.034792 -0.579140
-1.932498 -1.581666 -0.196784 1397 0.808414 -0.036662 -0.568176
-1.931524 -1.580866 -0.195920 1399 0.822427 -0.025151 -0.555744
-1.930839 -1.580301 -0.195085 1401 0.832285 -0.017022 -0.543730
-1.930317 -1.579870 -0.194267 1407 0.839794 -0.010820 -0.531960
-1.929463 -1.579163 -0.193412 1417 0.852082 -0.000647 -0.519658
-1.928602 -1.578462 -0.192556 1425 0.864471 0.009439 -0.507341
-1.928030 -1.577982 -0.191740 1429 0.872701 0.016346 -0.495601
-1.927571 -1.577601 -0.190921 1433 0.879305 0.021828 -0.483816
-1.927726 -1.577724 -0.190172 1433 0.877075 0.020058 -0.473039
-1.928106 -1.578032 -0.189439 1443 0.871609 0.015626 -0.462493
-1.927534 -1.577565 -0.188612 1445 0.879838 0.022346 -0.450593
-1.927174 -1.577270 -0.187814 1451 0.885018 0.026590 -0.439111
-1.926998 -1.577116 -0.187025 1455 0.887550 0.028806 -0.427759
-1.926645 -1.576827 -0.186227 1457 0.892629 0.032964 -0.416277
-1.926298 -1.576532 -0.185419 1457 0.897622 0.037209 -0.404651
-1.925663 -1.576016 -0.184593 1459 0.906759 0.044634 -0.392766
-1.924633 -1.575159 -0.183738 1457 0.921579 0.056965 -0.380464
-1.923997 -1.574643 -0.182910 1459 0.930730 0.064388 -0.368550
-1.924378 -1.574951 -0.182180 1471 0.925248 0.059956 -0.358047
-1.924984 -1.575444 -0.181467 1481 0.916529 0.052864 -0.347788
-1.925139 -1.575567 -0.180715 1487 0.914299 0.051094 -0.336967
-1.924793 -1.575271 -0.179906 1491 0.919277 0.055353 -0.325327
-1.924602 -1.575117 -0.179128 1485 0.922025 0.057569 -0.314133
-1.924595 -1.575105 -0.178358 1491 0.922126 0.057742 -0.303054
-1.924630 -1.575136 -0.177598 1501 0.921622 0.057296 -0.292119
-1.924792 -1.575252 -0.176837 1505 0.919291 0.055625 -0.281169
-1.924495 -1.575006 -0.176050 1507 0.923565 0.059166 -0.269845
-1.924142 -1.574718 -0.175251 1505 0.928644 0.063310 -0.258349
-1.923676 -1.574330 -0.174444 1503 0.935349 0.068893 -0.246737
-1.923379 -1.574084 -0.173654 1503 0.939623 0.072431 -0.235370
-1.923534 -1.574207 -0.172895 1507 0.937392 0.070663 -0.224449
-1.923336 -1.574046 -0.172115 1511 0.940241 0.072978 -0.213226
-1.922934 -1.573708 -0.171318 1507 0.946024 0.077841 -0.201759
-1.922411 -1.573277 -0.170499 1501 0.953551 0.084043 -0.189975
-1.922107 -1.573024 -0.169712 1501 0.957925 0.087683 -0.178651
-1.922206 -1.573104 -0.168951 1505 0.956499 0.086532 -0.167701
-1.921733 -1.572709 -0.168144 1499 0.963305 0.092217 -0.156090
-1.921267 -1.572321 -0.167346 1497 0.970010 0.097798 -0.144608
-1.922036 -1.572949 -0.166643 1503 0.958945 0.088762 -0.134493
-1.922416 -1.573256 -0.165910 1491 0.953479 0.084345 -0.123946
-1.922402 -1.573238 -0.165140 1497 0.953679 0.084604 -0.112867
-1.922606 -1.573410 -0.164388 1509 0.950745 0.082129 -0.102047
-1.922648 -1.573434 -0.163629 1509 0.950141 0.081784 -0.091126
-1.922633 -1.573415 -0.162858 1503 0.950355 0.082057 -0.080032
-1.922273 -1.573120 -0.162061 1497 0.955535 0.086302 -0.068565
-1.922252 -1.573108 -0.161300 1503 0.955837 0.086476 -0.057615
-1.923091 -1.573778 -0.160596 1507 0.943765 0.076834 -0.047485
-1.923859 -1.574405 -0.159893 1507 0.932716 0.067814 -0.037370
-1.923274 -1.573925 -0.159076 1503 0.941132 0.074719 -0.025615
-1.922801 -1.573530 -0.158279 1501 0.947939 0.080404 -0.014147
-1.923513 -1.574114 -0.157564 1503 0.937693 0.072001 -0.003860
-1.924063 -1.574564 -0.156841 1507 0.929781 0.065526 0.006543
-1.924097 -1.574581 -0.156082 1509 0.929292 0.065280 0.017464
-1.923575 -1.574150 -0.155275 1505 0.936801 0.071483 0.029076
-1.923046 -1.573713 -0.154466 1505 0.944414 0.077771 0.040716
-1.922453 -1.573225 -0.153650 1499 0.952945 0.084791 0.052457
-1.922212 -1.573022 -0.152872 1485 0.956414 0.087712 0.063651
-1.922586 -1.573323 -0.152130 1483 0.951033 0.083381 0.074328
-1.922847 -1.573538 -0.151388 1491 0.947276 0.080289 0.085004
-1.923058 -1.573704 -0.150636 1489 0.944241 0.077899 0.095824
-1.923763 -1.574281 -0.149923 1489 0.934097 0.069598 0.106083
-1.924137 -1.574582 -0.149181 1499 0.928716 0.065267 0.116759
-1.924341 -1.574741 -0.148429 1501 0.925781 0.062979 0.127579
-1.924037 -1.574487 -0.147642 1491 0.930155 0.066634 0.138903
-1.923846 -1.574334 -0.146863 1481 0.932903 0.068834 0.150112
-1.924735 -1.575053 -0.146158 1485 0.920112 0.058490 0.160256
-1.924939 -1.575212 -0.145406 1491 0.917176 0.056202 0.171076
-1.925193 -1.575420 -0.144666 1489 0.913522 0.053209 0.181723
-1.925058 -1.575309 -0.143886 1489 0.915464 0.054805 0.192946
-1.924529 -1.574872 -0.143079 1483 0.923076 0.061093 0.204558
-1.924613 -1.574938 -0.142318 1483 0.921867 0.060143 0.215507
-1.925107 -1.575331 -0.141586 1481 0.914759 0.054490 0.226040
-1.925304 -1.575497 -0.140834 1467 0.911924 0.052100 0.236860
-1.925346 -1.575520 -0.140075 1469 0.911320 0.051769 0.247781
-1.925776 -1.575864 -0.139333 1469 0.905133 0.046821 0.258457
-1.926029 -1.576072 -0.138591 1471 0.901493 0.043828 0.269133
-1.926459 -1.576415 -0.137849 1467 0.895306 0.038893 0.279810
-1.927002 -1.576858 -0.137115 1471 0.887493 0.032518 0.290371
-1.927312 -1.577109 -0.136375 1469 0.883032 0.028907 0.301018
-1.927467 -1.577232 -0.135614 1465 0.880802 0.027137 0.311968
-1.927996 -1.577660 -0.134880 1459 0.873190 0.020979 0.322529
-1.928828 -1.578337 -0.134166 1459 0.861219 0.011238 0.332802
-1.928792 -1.578311 -0.133396 1451 0.861737 0.011612 0.343881
-1.928891 -1.578378 -0.132637 1445 0.860314 0.010648 0.354802
-1.929596 -1.578955 -0.131912 1445 0.850170 0.002345 0.365234
-1.930590 -1.579767 -0.131206 1447 0.835866 -0.009338 0.375392
-1.931126 -1.580202 -0.130474 1443 0.828155 -0.015597 0.385925
-1.930879 -1.579992 -0.129695 1431 0.831709 -0.012576 0.397133
-1.931020 -1.580101 -0.128934 1427 0.829679 -0.014144 0.408083
-1.931330 -1.580352 -0.128183 1415 0.825220 -0.017754 0.418889
-1.931936 -1.580844 -0.127449 1407 0.816500 -0.024835 0.429450
-1.932698 -1.581464 -0.126735 1407 0.805536 -0.033756 0.439723
-1.932951 -1.581673 -0.125974 1405 0.801896 -0.036763 0.450673
-1.933431 -1.582051 -0.125242 1405 0.794989 -0.042202 0.461205
-1.933797 -1.582359 -0.124488 1393 0.789723 -0.046632 0.472054
-1.934566 -1.582972 -0.123765 1385 0.778658 -0.055454 0.482457
-1.935334 -1.583599 -0.123041 1381 0.767608 -0.064474 0.492874
-1.935129 -1.583431 -0.122262 1375 0.770557 -0.062057 0.504083
-1.935785 -1.583959 -0.121528 1365 0.761118 -0.069654 0.514644
-1.936829 -1.584806 -0.120822 1359 0.746098 -0.081841 0.524802
-1.937146 -1.585064 -0.120071 1343 0.741537 -0.085555 0.535608
-1.937682 -1.585500 -0.119329 1333 0.733823 -0.091827 0.546284
-1.938218 -1.585935 -0.118585 1325 0.726112 -0.098086 0.556989
-1.938471 -1.586144 -0.117834 1315 0.722472 -0.101093 0.567795
-1.939459 -1.586948 -0.117118 1309 0.708256 -0.112662 0.578097
-1.940672 -1.587937 -0.116413 1299 0.690802 -0.126892 0.588241
-1.941264 -1.588415 -0.115669 1281 0.682284 -0.133770 0.598946
-1.941581 -1.588673 -0.114917 1267 0.677723 -0.137482 0.609766
-1.942117 -1.589109 -0.114175 1249 0.670011 -0.143754 0.620443
-1.942991 -1.589814 -0.113451 1237 0.657435 -0.153898 0.630860
-1.944035 -1.590661 -0.112733 1221 0.642413 -0.166087 0.641191
-1.945022 -1.591466 -0.112009 1197 0.628212 -0.177668 0.651608
-1.945953 -1.592228 -0.111284 1175 0.614816 -0.188634 0.662040
-1.947117 -1.593167 -0.110578 1151 0.598069 -0.202143 0.672198
-1.951558 -1.596364 -0.216518 1047 0.534169 -0.248144 -0.852118
-1.944536 -1.590600 -0.212667 1177 0.635205 -0.165209 -0.796708
-1.943344 -1.589622 -0.211763 1193 0.652356 -0.151137 -0.783701
-1.942433 -1.588872 -0.210887 1215 0.665464 -0.140345 -0.771097
-1.941523 -1.588122 -0.210021 1233 0.678558 -0.129554 -0.758637
-1.941008 -1.587698 -0.209196 1253 0.685968 -0.123453 -0.746766
-1.939935 -1.586813 -0.208311 1267 0.701407 -0.110719 -0.734032
-1.939187 -1.586197 -0.207454 1283 0.712168 -0.101856 -0.721701
-1.938615 -1.585731 -0.206628 1297 0.720400 -0.095151 -0.709816
-1.937994 -1.585215 -0.205781 1311 0.729334 -0.087726 -0.697629
-1.937415 -1.584742 -0.204954 1321 0.737665 -0.080920 -0.685730
-1.936674 -1.584134 -0.204109 1325 0.748327 -0.072172 -0.673572
-1.935594 -1.583242 -0.203224 1327 0.763867 -0.059339 -0.660838
-1.934507 -1.582356 -0.202341 1333 0.779507 -0.046589 -0.648133
-1.933942 -1.581883 -0.201513 1349 0.787637 -0.039783 -0.636219
-1.933427 -1.581459 -0.200687 1367 0.795047 -0.033684 -0.624334
-1.932904 -1.581029 -0.199869 1375 0.802572 -0.027497 -0.612565
-1.932325 -1.580555 -0.199043 1383 0.810903 -0.020676 -0.600680
-1.932036 -1.580316 -0.198244 1391 0.815060 -0.017236 -0.589183
-1.932254 -1.580489 -0.197492 1395 0.811925 -0.019727 -0.578363
-1.931908 -1.580193 -0.196685 1403 0.816903 -0.015468 -0.566752
-1.930758 -1.579258 -0.195800 1405 0.833450 -0.002014 -0.554018
-1.930073 -1.578693 -0.194965 1411 0.843305 0.006115 -0.542003
-1.929678 -1.578362 -0.194156 1419 0.848990 0.010878 -0.530363
-1.929155 -1.577931 -0.193340 1423 0.856514 0.017079 -0.518622
-1.928463 -1.577358 -0.192502 1427 0.866471 0.025324 -0.506565
-1.927722 -1.576750 -0.191667 1429 0.877133 0.034072 -0.494550
-1.927651 -1.576689 -0.190887 1435 0.878154 0.034950 -0.483327
-1.927863 -1.576854 -0.190135 1437 0.875104 0.032576 -0.472507
-1.927799 -1.576800 -0.189367 1443 0.876025 0.033353 -0.461457
-1.927728 -1.576739 -0.188587 1453 0.877046 0.034231 -0.450234
-1.927156 -1.576272 -0.187770 1461 0.885277 0.040950 -0.438478
-1.926746 -1.575927 -0.186962 1463 0.891176 0.045914 -0.426852
-1.926224 -1.575496 -0.186145 1461 0.898687 0.052116 -0.415097
-1.926040 -1.575349 -0.185356 1457 0.901334 0.054231 -0.403744
-1.925920 -1.575238 -0.184577 1463 0.903061 0.055828 -0.392536
-1.924826 -1.574346 -0.183713 1467 0.918802 0.068663 -0.380104
-1.924593 -1.574150 -0.182924 1473 0.922155 0.071483 -0.368752
-1.924861 -1.574358 -0.182182 1483 0.918299 0.068490 -0.358075
-1.924620 -1.574169 -0.181394 1489 0.921766 0.071208 -0.346737
-1.924500 -1.574058 -0.180614 1489 0.923493 0.072805 -0.335514
-1.924478 -1.574032 -0.179845 1489 0.923809 0.073181 -0.324450
-1.924464 -1.574027 -0.179075 1491 0.924011 0.073253 -0.313370
-1.924344 -1.573916 -0.178295 1497 0.925738 0.074850 -0.302147
-1.924435 -1.573990 -0.177536 1505 0.924428 0.073785 -0.291226
-1.924428 -1.573978 -0.176775 1511 0.924529 0.073958 -0.280277
-1.924173 -1.573775 -0.175987 1509 0.928198 0.076877 -0.268939
-1.924053 -1.573664 -0.175207 1505 0.929925 0.078476 -0.257716
-1.924088 -1.573694 -0.174436 1507 0.929421 0.078043 -0.246622
-1.923685 -1.573356 -0.173639 1505 0.935220 0.082906 -0.235154
-1.923445 -1.573153 -0.172851 1503 0.938673 0.085827 -0.223816
-1.923374 -1.573091 -0.172081 1505 0.939693 0.086719 -0.212737
-1.922901 -1.572710 -0.171274 1507 0.946499 0.092201 -0.201126
-1.922322 -1.572223 -0.170457 1511 0.954830 0.099210 -0.189370
-1.922075 -1.572026 -0.169668 1505 0.958384 0.102043 -0.178018
-1.921778 -1.571780 -0.168880 1503 0.962659 0.105583 -0.166680
-1.921475 -1.571527 -0.168090 1497 0.967017 0.109223 -0.155313
-1.921911 -1.571878 -0.167358 1497 0.960745 0.104173 -0.144780
-1.922680 -1.572505 -0.166654 1499 0.949680 0.095151 -0.134651
-1.923011 -1.572763 -0.165924 1495 0.944918 0.091440 -0.124147
-1.922715 -1.572517 -0.165124 1503 0.949177 0.094978 -0.112636
-1.922411 -1.572264 -0.164337 1509 0.953551 0.098620 -0.101313
-1.922390 -1.572252 -0.163566 1509 0.953853 0.098791 -0.090219
-1.922996 -1.572745 -0.162853 1511 0.945132 0.091699 -0.079960
-1.923094 -1.572811 -0.162092 1505 0.943722 0.090748 -0.069011
-1.922565 -1.572373 -0.161285 1509 0.951335 0.097050 -0.057399
-1.922656 -1.572447 -0.160524 1515 0.950024 0.095987 -0.046449
-1.922755 -1.572527 -0.159774 1513 0.948601 0.094834 -0.035658
-1.922571 -1.572367 -0.158985 1507 0.951249 0.097138 -0.024306
-1.922204 -1.572064 -0.158197 1501 0.956528 0.101496 -0.012967
-1.922810 -1.572556 -0.157474 1505 0.947810 0.094417 -0.002565
-1.923522 -1.573141 -0.156770 1509 0.937565 0.086000 0.007565
-1.923677 -1.573264 -0.156009 1515 0.935335 0.084230 0.018515
-1.923204 -1.572869 -0.155212 1511 0.942141 0.089915 0.029982
-1.922957 -1.572659 -0.154424 1507 0.945695 0.092935 0.041320
-1.922540 -1.572320 -0.153625 1501 0.951695 0.097813 0.052817
-1.922011 -1.571882 -0.152828 1493 0.959305 0.104115 0.064284
-1.922328 -1.572140 -0.152086 1493 0.954745 0.100403 0.074961
-1.923273 -1.572903 -0.151382 1503 0.941148 0.089424 0.085090
-1.923759 -1.573303 -0.150659 1497 0.934155 0.083669 0.095493
-1.923963 -1.573461 -0.149908 1499 0.931220 0.081395 0.106299
-1.923829 -1.573350 -0.149129 1505 0.933148 0.082994 0.117507
-1.923814 -1.573331 -0.148359 1507 0.933362 0.083266 0.128587
-1.923730 -1.573256 -0.147588 1499 0.934572 0.084345 0.139680
-1.923708 -1.573244 -0.146820 1495 0.934889 0.084519 0.150731
-1.924258 -1.573680 -0.146097 1501 0.926975 0.078244 0.161133
-1.924906 -1.574214 -0.145372 1497 0.917651 0.070562 0.171565
-1.924885 -1.574189 -0.144613 1495 0.917953 0.070922 0.182486
-1.924356 -1.573751 -0.143806 1487 0.925565 0.077224 0.194097
-1.924158 -1.573590 -0.143028 1479 0.928414 0.079539 0.205291
-1.924588 -1.573934 -0.142295 1483 0.922227 0.074591 0.215838
-1.924961 -1.574234 -0.141553 1481 0.916860 0.070273 0.226515
-1.924940 -1.574208 -0.140783 1475 0.917162 0.070647 0.237594
-1.925426 -1.574608 -0.140050 1477 0.910169 0.064893 0.248141
-1.926025 -1.575094 -0.139328 1485 0.901550 0.057900 0.258529
-1.926053 -1.575117 -0.138557 1481 0.901147 0.057569 0.269622
-1.926483 -1.575461 -0.137825 1477 0.894960 0.052618 0.280155
-1.926962 -1.575853 -0.137092 1481 0.888068 0.046979 0.290702
-1.927287 -1.576105 -0.136341 1475 0.883392 0.043353 0.301507
-1.927540 -1.576313 -0.135589 1471 0.879753 0.040360 0.312327
-1.928429 -1.577032 -0.134883 1475 0.866960 0.030015 0.322486
-1.928908 -1.577425 -0.134151 1477 0.860068 0.024360 0.333018
-1.928831 -1.577357 -0.133373 1463 0.861176 0.025338 0.344212
-1.929140 -1.577608 -0.132631 1451 0.856731 0.021727 0.354889
-1.929451 -1.577859 -0.131879 1451 0.852256 0.018115 0.365709
-1.929542 -1.577918 -0.131118 1447 0.850947 0.017266 0.376658
-1.930198 -1.578460 -0.130395 1443 0.841508 0.009468 0.387061
-1.930959 -1.579080 -0.129671 1441 0.830558 0.000547 0.397479
-1.931043 -1.579146 -0.128910 1431 0.829348 -0.000403 0.408428
-1.931191 -1.579262 -0.128149 1413 0.827220 -0.002072 0.419378
-1.931903 -1.579833 -0.127426 1413 0.816975 -0.010288 0.429781
-1.932383 -1.580226 -0.126684 1419 0.810069 -0.015941 0.440457
-1.932919 -1.580661 -0.125949 1417 0.802356 -0.022202 0.451033
-1.933292 -1.580962 -0.125207 1407 0.796989 -0.026531 0.461709
-1.933602 -1.581213 -0.124456 1397 0.792529 -0.030144 0.472515
-1.934202 -1.581698 -0.123724 1391 0.783896 -0.037121 0.483047
-1.934681 -1.582077 -0.122980 1385 0.777003 -0.042576 0.493752
-1.935273 -1.582569 -0.122247 1381 0.768485 -0.049655 0.504299
-1.935640 -1.582862 -0.121496 1373 0.763205 -0.053871 0.515105
-1.936070 -1.583206 -0.120754 1361 0.757018 -0.058821 0.525781
-1.936323 -1.583414 -0.119991 1349 0.753377 -0.061812 0.536759
-1.936520 -1.583565 -0.119241 1335 0.750543 -0.063985 0.547551
-1.937508 -1.584370 -0.118526 1329 0.736327 -0.075568 0.557838
-1.938728 -1.585366 -0.117818 1327 0.718774 -0.089899 0.568025
-1.939490 -1.585986 -0.117095 1321 0.707810 -0.098820 0.578428
-1.940428 -1.586741 -0.116369 1307 0.694313 -0.109683 0.588874
-1.941020 -1.587219 -0.115636 1293 0.685795 -0.116561 0.599421
-1.941330 -1.587470 -0.114885 1279 0.681335 -0.120173 0.610227
-1.941922 -1.587949 -0.114141 1269 0.672817 -0.127065 0.620932
-1.943022 -1.588852 -0.113426 1251 0.656989 -0.140058 0.631220
-1.944405 -1.589969 -0.112728 1237 0.637090 -0.156130 0.641263
-1.945053 -1.590504 -0.111995 1215 0.627766 -0.163828 0.651810
-1.945646 -1.590982 -0.111251 1193 0.619233 -0.170704 0.662515
-1.946633 -1.591787 -0.110527 1167 0.605033 -0.182287 0.672932
-1.947903 -1.592818 -0.109819 1149 0.586758 -0.197122 0.683119
-1.949123 -1.593815 -0.109102 1125 0.569205 -0.211467 0.693435
-1.952113 -1.596247 -0.107708 1049 0.526183 -0.246460 0.713493
-1.945478 -1.590388 -0.213487 1169 0.621652 -0.162157 -0.808507
-1.944116 -1.589269 -0.212574 1187 0.641248 -0.146058 -0.795370
-1.942810 -1.588192 -0.211662 1209 0.660039 -0.130561 -0.782248
-1.941844 -1.587399 -0.210786 1227 0.673939 -0.119151 -0.769644
-1.941159 -1.586833 -0.209939 1247 0.683795 -0.111007 -0.757457
-1.940481 -1.586275 -0.209095 1265 0.693551 -0.102978 -0.745313
-1.940079 -1.585950 -0.208276 1279 0.699335 -0.098302 -0.733529
-1.939281 -1.585285 -0.207420 1293 0.710817 -0.088733 -0.721212
-1.938646 -1.584769 -0.206584 1313 0.719954 -0.081309 -0.709183
-1.938307 -1.584481 -0.205776 1325 0.724830 -0.077165 -0.697557
-1.937396 -1.583730 -0.204910 1333 0.737938 -0.066359 -0.685097
-1.936429 -1.582937 -0.204036 1335 0.751852 -0.054949 -0.672521
-1.935688 -1.582329 -0.203189 1335 0.762514 -0.046202 -0.660334
-1.934989 -1.581764 -0.202344 1345 0.772572 -0.038072 -0.648176
-1.934255 -1.581148 -0.201498 1359 0.783133 -0.029209 -0.636003
-1.933281 -1.580348 -0.200634 1377 0.797148 -0.017698 -0.623572
-1.932766 -1.579925 -0.199806 1385 0.804558 -0.011610 -0.611658
-1.932582 -1.579778 -0.199016 1389 0.807205 -0.009496 -0.600291
-1.932067 -1.579354 -0.198200 1397 0.814615 -0.003396 -0.588550
-1.931946 -1.579243 -0.197420 1403 0.816356 -0.001798 -0.577327
-1.931713 -1.579047 -0.196622 1409 0.819709 0.001022 -0.565845
-1.930852 -1.578346 -0.195766 1415 0.832096 0.011108 -0.553529
-1.929998 -1.577639 -0.194921 1421 0.844384 0.021281 -0.541370
-1.929765 -1.577442 -0.194122 1427 0.847738 0.024115 -0.529874
-1.929969 -1.577615 -0.193370 1433 0.844803 0.021626 -0.519054
-1.929348 -1.577099 -0.192544 1431 0.853737 0.029051 -0.507169
-1.928205 -1.576158 -0.191671 1433 0.870183 0.042589 -0.494608
-1.927626 -1.575684 -0.190843 1435 0.878514 0.049411 -0.482694
-1.927675 -1.575715 -0.190084 1441 0.877809 0.048965 -0.471773
-1.927653 -1.575703 -0.189313 1445 0.878127 0.049137 -0.460680
-1.927702 -1.575734 -0.188543 1455 0.877422 0.048691 -0.449601
-1.927349 -1.575446 -0.187746 1461 0.882500 0.052835 -0.438133
-1.926883 -1.575058 -0.186927 1465 0.889205 0.058418 -0.426349
-1.926586 -1.574811 -0.186140 1465 0.893478 0.061972 -0.415025
-1.926410 -1.574658 -0.185350 1463 0.896011 0.064172 -0.403658
-1.926162 -1.574461 -0.184562 1469 0.899579 0.067008 -0.392320
-1.925711 -1.574088 -0.183753 1475 0.906068 0.072375 -0.380680
-1.925245 -1.573699 -0.182947 1481 0.912773 0.077971 -0.369082
-1.925167 -1.573631 -0.182167 1491 0.913896 0.078949 -0.357859
-1.924990 -1.573477 -0.181388 1495 0.916442 0.081165 -0.346651
-1.924637 -1.573189 -0.180589 1487 0.921522 0.085309 -0.335155
-1.924220 -1.572850 -0.179782 1485 0.927522 0.090187 -0.323543
-1.924213 -1.572838 -0.179012 1491 0.927622 0.090361 -0.312464
-1.924819 -1.573331 -0.178298 1499 0.918903 0.083266 -0.302190
-1.924247 -1.572850 -0.177482 1507 0.927133 0.090187 -0.290449
-1.923146 -1.571951 -0.176618 1505 0.942975 0.103122 -0.278018
-1.923195 -1.571982 -0.175857 1501 0.942270 0.102676 -0.267068
-1.923456 -1.572198 -0.175117 1499 0.938515 0.099568 -0.256421
-1.923611 -1.572321 -0.174366 1503 0.936283 0.097798 -0.245615
-1.923709 -1.572401 -0.173604 1501 0.934874 0.096647 -0.234651
-1.923695 -1.572382 -0.172836 1505 0.935076 0.096921 -0.223601
-1.923560 -1.572271 -0.172056 1505 0.937018 0.098518 -0.212378
-1.922989 -1.571791 -0.171239 1507 0.945234 0.105424 -0.200622
-1.922741 -1.571595 -0.170459 1503 0.948801 0.108245 -0.189399
-1.922840 -1.571661 -0.169700 1503 0.947378 0.107295 -0.178478
-1.922656 -1.571514 -0.168920 1503 0.950024 0.109410 -0.167255
-1.922183 -1.571119 -0.168113 1501 0.956830 0.115094 -0.155644
-1.921950 -1.570923 -0.167324 1499 0.960184 0.117914 -0.144291
-1.922097 -1.571039 -0.166574 1493 0.958069 0.116245 -0.133500
-1.922076 -1.571027 -0.165803 1495 0.958371 0.116417 -0.122406
-1.922626 -1.571463 -0.165081 1507 0.950457 0.110144 -0.112018
-1.922886 -1.571679 -0.164339 1511 0.946716 0.107036 -0.101342
-1.922929 -1.571702 -0.163579 1515 0.946096 0.106705 -0.090406
-1.923309 -1.572010 -0.162847 1515 0.940630 0.102273 -0.079874
-1.923344 -1.572041 -0.162076 1513 0.940126 0.101827 -0.068780
-1.923097 -1.571831 -0.161298 1511 0.943680 0.104849 -0.057586
-1.922574 -1.571400 -0.160491 1513 0.951204 0.111050 -0.045975
-1.922271 -1.571147 -0.159704 1511 0.955564 0.114691 -0.034651
-1.922305 -1.571178 -0.158933 1505 0.955076 0.114245 -0.023557
-1.922178 -1.571059 -0.158163 1503 0.956902 0.115957 -0.012478
-1.922608 -1.571417 -0.157430 1505 0.950716 0.110806 -0.001931
-1.923102 -1.571810 -0.156698 1511 0.943608 0.105151 0.008601
-1.923031 -1.571748 -0.155929 1511 0.944630 0.106043 0.019666
-1.923122 -1.571822 -0.155168 1511 0.943319 0.104978 0.030615
-1.923101 -1.571796 -0.154409 1507 0.943623 0.105354 0.041536
-1.923023 -1.571727 -0.153629 1509 0.944745 0.106345 0.052759
-1.923001 -1.571716 -0.152870 1505 0.945060 0.106504 0.063680
-1.923043 -1.571739 -0.152099 1511 0.944457 0.106173 0.074774
-1.923812 -1.572367 -0.151395 1517 0.933392 0.097138 0.084903
-1.924016 -1.572526 -0.150644 1505 0.930457 0.094849 0.095709
-1.923762 -1.572322 -0.149854 1501 0.934112 0.097784 0.107076
-1.923634 -1.572204 -0.149086 1511 0.935952 0.099482 0.118126
-1.923443 -1.572050 -0.148307 1511 0.938702 0.101698 0.129335
-1.923528 -1.572116 -0.147546 1505 0.937479 0.100748 0.140284
-1.924360 -1.572793 -0.146842 1505 0.925507 0.091007 0.150414
-1.924959 -1.573279 -0.146118 1505 0.916889 0.084014 0.160831
-1.925043 -1.573345 -0.145359 1497 0.915680 0.083066 0.171752
-1.924803 -1.573142 -0.144569 1487 0.919133 0.085985 0.183119
-1.924161 -1.572605 -0.143762 1477 0.928371 0.093712 0.194730
-1.924245 -1.572671 -0.143003 1479 0.927162 0.092762 0.205651
-1.924845 -1.573156 -0.142280 1483 0.918529 0.085784 0.216054
-1.924999 -1.573280 -0.141529 1481 0.916313 0.084001 0.226860
-1.925479 -1.573672 -0.140787 1483 0.909406 0.078359 0.237536
-1.926240 -1.574293 -0.140071 1493 0.898457 0.069424 0.247838
-1.926226 -1.574274 -0.139312 1493 0.898658 0.069699 0.258759
-1.926028 -1.574113 -0.138532 1483 0.901507 0.072014 0.269982
-1.926288 -1.574314 -0.137781 1477 0.897766 0.069123 0.280788
-1.926316 -1.574338 -0.137022 1479 0.897363 0.068778 0.291709
-1.927205 -1.575058 -0.136306 1481 0.884572 0.058418 0.302011
-1.928136 -1.575819 -0.135601 1487 0.871176 0.047468 0.312155
-1.928855 -1.576397 -0.134887 1491 0.860832 0.039152 0.322428
-1.929335 -1.576790 -0.134145 1481 0.853924 0.033497 0.333104
-1.929087 -1.576579 -0.133367 1465 0.857492 0.036533 0.344299
-1.928607 -1.576177 -0.132570 1453 0.864399 0.042317 0.355766
-1.928635 -1.576201 -0.131799 1447 0.863996 0.041972 0.366860
-1.929291 -1.576729 -0.131074 1443 0.854557 0.034373 0.377292
-1.929996 -1.577306 -0.130352 1445 0.844413 0.026072 0.387680
-1.930828 -1.577983 -0.129636 1443 0.832443 0.016331 0.397982
-1.930969 -1.578092 -0.128877 1431 0.830414 0.014763 0.408903
-1.931053 -1.578159 -0.128116 1419 0.829204 0.013799 0.419853
-1.931758 -1.578736 -0.127391 1425 0.819060 0.005497 0.430284
-1.932414 -1.579264 -0.126659 1429 0.809621 -0.002101 0.440817
-1.933070 -1.579792 -0.125934 1423 0.800184 -0.009698 0.451248
-1.932872 -1.579631 -0.125156 1409 0.803032 -0.007381 0.462443
-1.933520 -1.580152 -0.124424 1397 0.793709 -0.014878 0.472975
-1.934346 -1.580821 -0.123708 1389 0.781824 -0.024504 0.483277
-1.934373 -1.580845 -0.122938 1391 0.781435 -0.024849 0.494356
-1.934966 -1.581323 -0.122205 1385 0.772903 -0.031727 0.504903
-1.935678 -1.581908 -0.121471 1377 0.762658 -0.040144 0.515464
-1.936101 -1.582244 -0.120729 1365 0.756572 -0.044979 0.526141
-1.936587 -1.582630 -0.119987 1355 0.749579 -0.050533 0.536817
-1.936721 -1.582746 -0.119226 1347 0.747652 -0.052202 0.547766
-1.937659 -1.583501 -0.118511 1343 0.734154 -0.063064 0.558054
-1.939323 -1.584859 -0.117832 1343 0.710213 -0.082604 0.567824
-1.940254 -1.585621 -0.117116 1335 0.696817 -0.093568 0.578126
-1.941030 -1.586241 -0.116382 1325 0.685651 -0.102489 0.588687
-1.941383 -1.586535 -0.115631 1307 0.680572 -0.106719 0.599493
-1.941530 -1.586651 -0.114870 1291 0.678457 -0.108388 0.610443
-1.942510 -1.587448 -0.114154 1283 0.664356 -0.119856 0.620745
-1.943561 -1.588302 -0.113439 1267 0.649234 -0.132144 0.631033
-1.944153 -1.588780 -0.112695 1251 0.640716 -0.139022 0.641738
-1.944746 -1.589259 -0.111951 1231 0.632183 -0.145914 0.652443
-1.945514 -1.589885 -0.111219 1211 0.621134 -0.154921 0.662975
-1.946615 -1.590775 -0.110502 1191 0.605292 -0.167727 0.673292
-1.947722 -1.591672 -0.109787 1171 0.589364 -0.180632 0.683579
-1.948653 -1.592434 -0.109062 1149 0.575968 -0.191598 0.694011
-1.950085 -1.593601 -0.108364 1119 0.555363 -0.208388 0.704054
-1.951643 -1.594867 -0.107666 1081 0.532946 -0.226604 0.714097
-1.947887 -1.591389 -0.215250 1131 0.586990 -0.176560 -0.833874
-1.945961 -1.589815 -0.214271 1159 0.614701 -0.153914 -0.819788
-1.945050 -1.589064 -0.213396 1185 0.627809 -0.143108 -0.807198
-1.944083 -1.588271 -0.212520 1207 0.641723 -0.131698 -0.794593
-1.943236 -1.587571 -0.211654 1229 0.653910 -0.121626 -0.782133
-1.942213 -1.586735 -0.210771 1245 0.668629 -0.109597 -0.769428
-1.941133 -1.585843 -0.209886 1261 0.684169 -0.096762 -0.756694
-1.940392 -1.585235 -0.209041 1279 0.694831 -0.088014 -0.744536
-1.939877 -1.584811 -0.208213 1289 0.702240 -0.081913 -0.732622
-1.939136 -1.584203 -0.207357 1301 0.712902 -0.073165 -0.720306
-1.938268 -1.583495 -0.206502 1317 0.725393 -0.062979 -0.708003
-1.937928 -1.583206 -0.205694 1333 0.730285 -0.058821 -0.696378
-1.936284 -1.581859 -0.204753 1341 0.753940 -0.039439 -0.682838
-1.935148 -1.580925 -0.203859 1341 0.770284 -0.026000 -0.669975
-1.934971 -1.580785 -0.203069 1341 0.772831 -0.023986 -0.658608
-1.934625 -1.580489 -0.202262 1355 0.777809 -0.019727 -0.646996
-1.934272 -1.580201 -0.201463 1367 0.782888 -0.015583 -0.635500
-1.933531 -1.579592 -0.200618 1381 0.793550 -0.006820 -0.623342
-1.932451 -1.578700 -0.199733 1383 0.809090 0.006015 -0.610608
-1.931936 -1.578277 -0.198917 1383 0.816500 0.012101 -0.598867
-1.932034 -1.578357 -0.198156 1397 0.815090 0.010950 -0.587917
-1.931963 -1.578296 -0.197376 1409 0.816112 0.011828 -0.576694
-1.931448 -1.577872 -0.196559 1413 0.823522 0.017928 -0.564939
-1.930474 -1.577072 -0.195693 1419 0.837535 0.029439 -0.552478
-1.930079 -1.576741 -0.194887 1427 0.843220 0.034202 -0.540881
-1.930071 -1.576729 -0.194116 1433 0.843335 0.034373 -0.529788
-1.929824 -1.576533 -0.193317 1437 0.846889 0.037195 -0.518291
-1.929478 -1.576237 -0.192520 1439 0.851866 0.041454 -0.506823
-1.928899 -1.575764 -0.191692 1439 0.860197 0.048260 -0.494910
-1.928376 -1.575333 -0.190876 1443 0.867724 0.054461 -0.483169
-1.928249 -1.575229 -0.190095 1451 0.869550 0.055956 -0.471932
-1.927910 -1.574940 -0.189289 1453 0.874428 0.060116 -0.460334
-1.927663 -1.574744 -0.188499 1457 0.877982 0.062936 -0.448967
-1.927874 -1.574910 -0.187747 1459 0.874946 0.060546 -0.438147
-1.927697 -1.574756 -0.186969 1467 0.877494 0.062762 -0.426953
-1.927231 -1.574382 -0.186151 1469 0.884198 0.068145 -0.415183
-1.926540 -1.573809 -0.185325 1471 0.894140 0.076388 -0.403298
-1.925904 -1.573279 -0.184499 1475 0.903291 0.084014 -0.391413
-1.925332 -1.572813 -0.183681 1479 0.911522 0.090719 -0.379644
-1.924979 -1.572524 -0.182884 1483 0.916601 0.094879 -0.368176
-1.925190 -1.572690 -0.182132 1487 0.913565 0.092489 -0.357356
-1.925627 -1.573041 -0.181400 1495 0.907277 0.087440 -0.346824
-1.925387 -1.572837 -0.180612 1489 0.910730 0.090374 -0.335485
-1.925091 -1.572591 -0.179822 1489 0.914989 0.093915 -0.324118
-1.925309 -1.572764 -0.179073 1495 0.911853 0.091424 -0.313342
-1.924892 -1.572426 -0.178274 1501 0.917853 0.096289 -0.301845
-1.924377 -1.572002 -0.177457 1505 0.925263 0.102388 -0.290090
-1.923516 -1.571288 -0.176612 1503 0.937651 0.112662 -0.277932
-1.923156 -1.570992 -0.175813 1499 0.942831 0.116921 -0.266435
-1.923536 -1.571299 -0.175081 1499 0.937364 0.112504 -0.255903
-1.923635 -1.571380 -0.174331 1499 0.935939 0.111338 -0.245111
-1.923564 -1.571319 -0.173551 1501 0.936961 0.112216 -0.233888
-1.923606 -1.571342 -0.172792 1501 0.936356 0.111885 -0.222967
-1.923253 -1.571054 -0.171993 1503 0.941434 0.116029 -0.211471
-1.922829 -1.570709 -0.171196 1507 0.947535 0.120993 -0.200003
-1.923160 -1.570966 -0.170454 1505 0.942774 0.117295 -0.189327
-1.923089 -1.570905 -0.169685 1507 0.943795 0.118173 -0.178262
-1.922673 -1.570567 -0.168886 1505 0.949781 0.123036 -0.166766
-1.922263 -1.570221 -0.168079 1501 0.955679 0.128015 -0.155155
-1.921684 -1.569748 -0.167272 1501 0.964010 0.134820 -0.143543
-1.921663 -1.569722 -0.166502 1491 0.964312 0.135194 -0.132464
-1.922043 -1.570030 -0.165769 1493 0.958846 0.130763 -0.121917
-1.922643 -1.570515 -0.165056 1505 0.950213 0.123784 -0.111658
-1.923256 -1.571015 -0.164333 1513 0.941391 0.116590 -0.101255
-1.923912 -1.571543 -0.163620 1519 0.931953 0.108993 -0.090996
-1.923947 -1.571573 -0.162860 1521 0.931450 0.108561 -0.080061
-1.923869 -1.571505 -0.162090 1521 0.932572 0.109540 -0.068982
-1.923572 -1.571259 -0.161302 1519 0.936846 0.113079 -0.057644
-1.922873 -1.570679 -0.160476 1507 0.946903 0.121425 -0.045759
-1.922351 -1.570249 -0.159667 1505 0.954414 0.127612 -0.034119
-1.922386 -1.570280 -0.158908 1505 0.953909 0.127166 -0.023198
-1.922590 -1.570438 -0.158157 1503 0.950975 0.124892 -0.012392
-1.922512 -1.570370 -0.157388 1507 0.952096 0.125871 -0.001327
-1.922893 -1.570678 -0.156656 1509 0.946614 0.121439 0.009205
-1.923436 -1.571120 -0.155933 1511 0.938801 0.115079 0.019608
-1.923647 -1.571286 -0.155181 1509 0.935766 0.112691 0.030428
-1.924020 -1.571587 -0.154439 1509 0.930399 0.108360 0.041104
-1.923942 -1.571518 -0.153669 1515 0.931522 0.109354 0.052184
-1.923413 -1.571081 -0.152862 1517 0.939133 0.115640 0.063795
-1.923568 -1.571204 -0.152112 1525 0.936903 0.113871 0.074586
-1.924449 -1.571930 -0.151407 1523 0.924227 0.103424 0.084730
-1.924484 -1.571947 -0.150648 1511 0.923723 0.103180 0.095651
-1.924117 -1.571644 -0.149858 1505 0.929004 0.107541 0.107018
-1.924392 -1.571860 -0.149107 1515 0.925047 0.104432 0.117824
-1.924420 -1.571884 -0.148347 1515 0.924644 0.104086 0.128759
-1.924285 -1.571772 -0.147567 1513 0.926585 0.105698 0.139982
-1.924433 -1.571889 -0.146818 1513 0.924457 0.104014 0.150759
-1.924750 -1.572146 -0.146076 1505 0.919896 0.100316 0.161436
-1.924898 -1.572263 -0.145315 1491 0.917766 0.098633 0.172385
-1.924594 -1.572010 -0.144527 1489 0.922140 0.102273 0.183723
-1.924629 -1.572026 -0.143766 1487 0.921637 0.102043 0.194673
-1.925172 -1.572469 -0.143034 1491 0.913824 0.095669 0.205205
-1.925263 -1.572542 -0.142282 1489 0.912514 0.094620 0.216025
-1.925573 -1.572793 -0.141531 1489 0.908054 0.091007 0.226831
-1.926293 -1.573371 -0.140817 1495 0.897694 0.082690 0.237104
-1.926151 -1.573253 -0.140037 1497 0.899737 0.084388 0.248328
-1.926010 -1.573134 -0.139268 1489 0.901766 0.086102 0.259392
-1.925995 -1.573116 -0.138500 1483 0.901982 0.086361 0.270443
-1.925967 -1.573097 -0.137729 1483 0.902385 0.086633 0.281536
-1.926686 -1.573674 -0.137016 1485 0.892039 0.078332 0.291795
-1.927560 -1.574380 -0.136301 1491 0.879464 0.068172 0.302083
-1.928837 -1.575419 -0.135623 1499 0.861091 0.053224 0.311838
-1.929895 -1.576280 -0.134927 1495 0.845866 0.040835 0.321853
-1.929295 -1.575786 -0.134120 1477 0.854501 0.047943 0.333464
-1.928878 -1.575447 -0.133323 1463 0.860501 0.052821 0.344932
-1.928857 -1.575421 -0.132553 1455 0.860803 0.053195 0.356011
-1.928821 -1.575395 -0.131784 1445 0.861321 0.053569 0.367076
-1.929314 -1.575788 -0.131052 1445 0.854226 0.047914 0.377608
-1.930133 -1.576451 -0.130336 1445 0.842443 0.038375 0.387910
-1.930450 -1.576709 -0.129585 1447 0.837882 0.034662 0.398716
-1.930421 -1.576676 -0.128814 1431 0.838299 0.035137 0.409810
-1.931020 -1.577162 -0.128091 1429 0.829679 0.028144 0.420213
-1.931838 -1.577838 -0.127367 1431 0.817910 0.018418 0.430630
-1.932431 -1.578316 -0.126634 1429 0.809378 0.011540 0.441176
-1.932804 -1.578617 -0.125892 1425 0.804011 0.007209 0.451853
-1.932719 -1.578541 -0.125124 1409 0.805234 0.008302 0.462903
-1.933375 -1.579069 -0.124389 1397 0.795795 0.000705 0.473479
-1.934137 -1.579689 -0.123664 1389 0.784831 -0.008216 0.483910
-1.933995 -1.579571 -0.122886 1387 0.786874 -0.006518 0.495104
-1.934481 -1.579957 -0.122154 1383 0.779881 -0.012072 0.505637
-1.935349 -1.580669 -0.121429 1381 0.767392 -0.022317 0.516069
-1.935892 -1.581112 -0.120697 1373 0.759579 -0.028691 0.526601
-1.936033 -1.581221 -0.119936 1367 0.757550 -0.030259 0.537551
-1.936463 -1.581564 -0.119182 1357 0.751363 -0.035193 0.548400
-1.937788 -1.582638 -0.118495 1355 0.732298 -0.050648 0.558284
-1.939354 -1.583912 -0.117807 1347 0.709767 -0.068978 0.568184
-1.940561 -1.584894 -0.117111 1341 0.692398 -0.083107 0.578198
-1.940990 -1.585251 -0.116357 1333 0.686227 -0.088244 0.589047
-1.941533 -1.585679 -0.115615 1317 0.678414 -0.094403 0.599723
-1.942062 -1.586108 -0.114873 1303 0.670802 -0.100575 0.610399
-1.942993 -1.586870 -0.114158 1295 0.657406 -0.111539 0.620687
-1.944093 -1.587759 -0.113441 1281 0.641579 -0.124331 0.631004
-1.944692 -1.588245 -0.112699 1267 0.632960 -0.131324 0.641680
-1.945623 -1.589007 -0.111974 1247 0.619564 -0.142288 0.652112
-1.946103 -1.589385 -0.111230 1225 0.612659 -0.147727 0.662817
-1.946751 -1.589920 -0.110487 1201 0.603334 -0.155425 0.673507
-1.948021 -1.590952 -0.109781 1183 0.585060 -0.170274 0.683666
-1.948839 -1.591614 -0.109046 1161 0.573292 -0.179798 0.694241
-1.950108 -1.592646 -0.108339 1135 0.555032 -0.194647 0.704414
-1.951667 -1.593912 -0.107641 1101 0.532601 -0.212863 0.714457
-1.952760 -1.594809 -0.106925 1057 0.516874 -0.225770 0.724759
-1.945928 -1.588817 -0.214216 1175 0.615177 -0.139554 -0.818996
-1.944461 -1.587605 -0.213295 1197 0.636284 -0.122115 -0.805744
-1.943762 -1.587040 -0.212438 1219 0.646342 -0.113985 -0.793414
-1.943084 -1.586481 -0.211591 1241 0.656097 -0.105942 -0.781227
-1.941722 -1.585361 -0.210680 1257 0.675694 -0.089827 -0.768118
-1.940868 -1.584654 -0.209814 1271 0.687982 -0.079654 -0.755658
-1.940247 -1.584152 -0.208976 1287 0.696916 -0.072431 -0.743601
-1.939724 -1.583721 -0.208150 1295 0.704443 -0.066231 -0.731716
-1.939378 -1.583426 -0.207342 1305 0.709421 -0.061985 -0.720090
-1.938178 -1.582455 -0.206449 1317 0.726688 -0.048015 -0.707241
-1.936986 -1.581477 -0.205545 1329 0.743839 -0.033943 -0.694234
-1.936026 -1.580677 -0.204679 1339 0.757651 -0.022432 -0.681773
-1.935228 -1.580027 -0.203825 1345 0.769133 -0.013079 -0.669485
-1.934988 -1.579823 -0.203025 1353 0.772586 -0.010144 -0.657975
-1.934642 -1.579541 -0.202228 1359 0.777565 -0.006086 -0.646507
-1.933732 -1.578791 -0.201362 1371 0.790658 0.004705 -0.634047
-1.933047 -1.578226 -0.200527 1387 0.800514 0.012835 -0.622032
-1.932637 -1.577894 -0.199708 1391 0.806414 0.017612 -0.610248
-1.931896 -1.577286 -0.198871 1389 0.817076 0.026360 -0.598205
-1.931381 -1.576862 -0.198045 1393 0.824486 0.032461 -0.586320
-1.931253 -1.576759 -0.197265 1409 0.826328 0.033943 -0.575097
-1.930731 -1.576328 -0.196439 1415 0.833837 0.040144 -0.563212
-1.930272 -1.575947 -0.195631 1419 0.840443 0.045625 -0.551586
-1.930152 -1.575836 -0.194852 1423 0.842168 0.047224 -0.540377
-1.930024 -1.575731 -0.194063 1433 0.844010 0.048733 -0.529025
-1.929791 -1.575535 -0.193273 1439 0.847364 0.051553 -0.517658
-1.929727 -1.575481 -0.192493 1443 0.848285 0.052330 -0.506435
-1.929536 -1.575327 -0.191715 1449 0.851033 0.054546 -0.495241
-1.928908 -1.574804 -0.190877 1453 0.860068 0.062073 -0.483183
-1.928386 -1.574373 -0.190061 1457 0.867579 0.068273 -0.471442
-1.928033 -1.574085 -0.189264 1459 0.872658 0.072417 -0.459975
-1.927905 -1.573981 -0.188484 1461 0.874501 0.073913 -0.448752
-1.927954 -1.574012 -0.187723 1459 0.873796 0.073467 -0.437802
-1.927827 -1.573908 -0.186935 1467 0.875622 0.074965 -0.426464
-1.927481 -1.573612 -0.186136 1477 0.880600 0.079224 -0.414968
-1.926620 -1.572911 -0.185291 1481 0.892989 0.089309 -0.402809
-1.926034 -1.572431 -0.184474 1481 0.901421 0.096216 -0.391054
-1.925688 -1.572135 -0.183675 1483 0.906399 0.100475 -0.379557
-1.925215 -1.571754 -0.182859 1485 0.913205 0.105957 -0.367816
-1.925094 -1.571643 -0.182079 1485 0.914946 0.107554 -0.356593
-1.925369 -1.571873 -0.181337 1489 0.910989 0.104246 -0.345917
-1.925411 -1.571897 -0.180578 1493 0.910385 0.103899 -0.334996
-1.925220 -1.571743 -0.179798 1497 0.913133 0.106115 -0.323773
-1.925262 -1.571767 -0.179029 1499 0.912529 0.105770 -0.312708
-1.924909 -1.571478 -0.178230 1501 0.917608 0.109928 -0.301212
-1.924732 -1.571324 -0.177452 1507 0.920155 0.112144 -0.290018
-1.924436 -1.571078 -0.176652 1503 0.924414 0.115684 -0.278507
-1.924139 -1.570832 -0.175865 1505 0.928687 0.119223 -0.267183
-1.924400 -1.571048 -0.175123 1505 0.924932 0.116115 -0.256507
-1.924159 -1.570844 -0.174333 1501 0.928399 0.119050 -0.245140
-1.923743 -1.570506 -0.173536 1503 0.934385 0.123914 -0.233673
-1.923848 -1.570579 -0.172775 1503 0.932874 0.122863 -0.222723
-1.924060 -1.570759 -0.172025 1509 0.929824 0.120273 -0.211931
-1.923812 -1.570549 -0.171236 1511 0.933392 0.123295 -0.200579
-1.923572 -1.570345 -0.170457 1511 0.936846 0.126230 -0.189370
-1.923212 -1.570050 -0.169660 1513 0.942024 0.130475 -0.177903
-1.922809 -1.569712 -0.168861 1509 0.947824 0.135338 -0.166406
-1.922555 -1.569508 -0.168073 1507 0.951479 0.138274 -0.155068
-1.922259 -1.569262 -0.167284 1507 0.955738 0.141813 -0.143716
-1.922187 -1.569201 -0.166515 1501 0.956774 0.142691 -0.132651
-1.922512 -1.569452 -0.165773 1503 0.952096 0.139079 -0.121975
-1.922836 -1.569717 -0.165031 1517 0.947436 0.135266 -0.111298
-1.923379 -1.570159 -0.164308 1519 0.939623 0.128907 -0.100895
-1.923921 -1.570602 -0.163585 1527 0.931824 0.122532 -0.090493
-1.923625 -1.570356 -0.162797 1529 0.936083 0.126072 -0.079155
-1.923434 -1.570188 -0.162017 1531 0.938831 0.128489 -0.067932
-1.923645 -1.570354 -0.161268 1531 0.935795 0.126101 -0.057154
-1.923349 -1.570108 -0.160478 1515 0.940054 0.129640 -0.045788
-1.923158 -1.569954 -0.159700 1513 0.942801 0.131856 -0.034593
-1.923023 -1.569843 -0.158920 1517 0.944745 0.133453 -0.023370
-1.922720 -1.569590 -0.158132 1511 0.949105 0.137094 -0.012032
-1.922874 -1.569713 -0.157381 1511 0.946889 0.135324 -0.001226
-1.923305 -1.570057 -0.156648 1511 0.940687 0.130374 0.009320
-1.923516 -1.570222 -0.155899 1509 0.937651 0.128000 0.020097
-1.923438 -1.570154 -0.155128 1509 0.938774 0.128979 0.031191
-1.923529 -1.570227 -0.154367 1513 0.937464 0.127928 0.042140
-1.923966 -1.570578 -0.153635 1521 0.931176 0.122878 0.052673
-1.924051 -1.570644 -0.152885 1531 0.929953 0.121928 0.063464
-1.924318 -1.570866 -0.152133 1533 0.926112 0.118734 0.074284
-1.924635 -1.571110 -0.151392 1533 0.921550 0.115223 0.084946
-1.924670 -1.571141 -0.150632 1521 0.921047 0.114777 0.095882
-1.924825 -1.571265 -0.149871 1513 0.918817 0.112993 0.106831
-1.925135 -1.571515 -0.149129 1521 0.914356 0.109396 0.117507
-1.925234 -1.571582 -0.148368 1529 0.912932 0.108432 0.128457
-1.925269 -1.571613 -0.147609 1527 0.912428 0.107986 0.139378
-1.925296 -1.571636 -0.146848 1519 0.912040 0.107655 0.150328
-1.924929 -1.571334 -0.146051 1511 0.917320 0.112000 0.161795
-1.924520 -1.570988 -0.145263 1501 0.923205 0.116978 0.173133
-1.924505 -1.570969 -0.144493 1499 0.923421 0.117252 0.184212
-1.924702 -1.571135 -0.143741 1501 0.920586 0.114863 0.195033
-1.924794 -1.571195 -0.142980 1503 0.919263 0.114000 0.205982
-1.924935 -1.571318 -0.142231 1497 0.917234 0.112230 0.216759
-1.925541 -1.571810 -0.141508 1499 0.908514 0.105151 0.227162
-1.926190 -1.572331 -0.140783 1505 0.899176 0.097656 0.237594
-1.926231 -1.572355 -0.140014 1497 0.898586 0.097309 0.248659
-1.926485 -1.572563 -0.139272 1495 0.894932 0.094316 0.259335
-1.927141 -1.573091 -0.138549 1493 0.885493 0.086719 0.269738
-1.927514 -1.573391 -0.137807 1499 0.880126 0.082404 0.280414
-1.927944 -1.573735 -0.137064 1499 0.873940 0.077453 0.291105
-1.928657 -1.574319 -0.136350 1497 0.863679 0.069050 0.301378
-1.929143 -1.574705 -0.135618 1497 0.856688 0.063497 0.311910
-1.929058 -1.574644 -0.134838 1487 0.857911 0.064375 0.323133
-1.928804 -1.574426 -0.134059 1475 0.861564 0.067510 0.334342
-1.928500 -1.574173 -0.133272 1471 0.865938 0.071152 0.345666
-1.928584 -1.574239 -0.132511 1461 0.864730 0.070201 0.356615
-1.929120 -1.574675 -0.131778 1455 0.857019 0.063929 0.367162
-1.930009 -1.575395 -0.131063 1453 0.844226 0.053569 0.377450
-1.930213 -1.575553 -0.130311 1453 0.841292 0.051294 0.388270
-1.930523 -1.575804 -0.129570 1453 0.836830 0.047684 0.398932
-1.930727 -1.575963 -0.128808 1445 0.833896 0.045396 0.409896
-1.931207 -1.576356 -0.128076 1441 0.826990 0.039740 0.420428
-1.931968 -1.576976 -0.127353 1439 0.816040 0.030821 0.430831
-1.932116 -1.577092 -0.126592 1437 0.813910 0.029151 0.441781
-1.932320 -1.577250 -0.125841 1429 0.810975 0.026878 0.452586
-1.932687 -1.577544 -0.125089 1419 0.805694 0.022648 0.463407
-1.933731 -1.578391 -0.124383 1409 0.790673 0.010461 0.473565
-1.934386 -1.578933 -0.123659 1401 0.781248 0.002662 0.483982
-1.934245 -1.578801 -0.122880 1393 0.783277 0.004561 0.495191
-1.934724 -1.579194 -0.122139 1389 0.776385 -0.001093 0.505853
-1.935154 -1.579537 -0.121395 1387 0.770198 -0.006029 0.516558
-1.935690 -1.579972 -0.120653 1381 0.762485 -0.012288 0.527234
-1.936621 -1.580734 -0.119937 1379 0.749091 -0.023252 0.537536
-1.937446 -1.581404 -0.119224 1369 0.737219 -0.032891 0.547795
-1.938546 -1.582294 -0.118507 1361 0.721393 -0.045697 0.558112
-1.939484 -1.583049 -0.117792 1353 0.707896 -0.056562 0.568399
-1.940076 -1.583527 -0.117059 1353 0.699378 -0.063438 0.578946
-1.940661 -1.584012 -0.116315 1341 0.690961 -0.070418 0.589651
-1.941035 -1.584313 -0.115564 1327 0.685579 -0.074749 0.600457
-1.941747 -1.584883 -0.114830 1315 0.675335 -0.082949 0.611018
-1.943017 -1.585915 -0.114133 1307 0.657061 -0.097798 0.621047
-1.943898 -1.586627 -0.113409 1295 0.644385 -0.108043 0.631464
-1.944766 -1.587340 -0.112684 1279 0.631895 -0.118302 0.641896
-1.945252 -1.587725 -0.111930 1259 0.624904 -0.123842 0.652745
-1.945894 -1.588253 -0.111198 1243 0.615665 -0.131439 0.663277
-1.946938 -1.589100 -0.110483 1223 0.600643 -0.143626 0.673565
-1.947932 -1.589898 -0.109756 1207 0.586342 -0.155108 0.684025
-1.948701 -1.590525 -0.109024 1181 0.575277 -0.164130 0.694558
-1.950196 -1.591741 -0.108325 1155 0.553766 -0.181625 0.704615
-1.951804 -1.593057 -0.107625 1123 0.530629 -0.200561 0.714687
-1.952679 -1.593762 -0.106901 1083 0.518039 -0.210705 0.725105
-1.946891 -1.588570 -0.215047 1169 0.601321 -0.136000 -0.830953
-1.943652 -1.585926 -0.213155 1211 0.647924 -0.097957 -0.803730
-1.942692 -1.585140 -0.212280 1227 0.661737 -0.086647 -0.791140
-1.942170 -1.584710 -0.211452 1245 0.669248 -0.080460 -0.779227
-1.941887 -1.584478 -0.210643 1267 0.673320 -0.077122 -0.767586
-1.941365 -1.584047 -0.209817 1279 0.680831 -0.070920 -0.755701
-1.940172 -1.583070 -0.208923 1287 0.697997 -0.056864 -0.742838
