769
-2.927520 1.528240 -0.115790 1059 0.243413 -0.552807 -0.804413
-2.923450 1.526110 -0.113090 1123 0.301975 -0.583453 -0.765564
-2.920540 1.524590 -0.110450 1175 0.343844 -0.605324 -0.727579
-2.917490 1.523000 -0.107800 1221 0.387730 -0.628202 -0.689449
-2.915420 1.521920 -0.105200 1235 0.417514 -0.643742 -0.652039
-2.914330 1.521350 -0.102630 1273 0.433198 -0.651943 -0.615061
-2.912190 1.520230 -0.100030 1289 0.463990 -0.668057 -0.577650
-2.910770 1.519490 -0.097460 1305 0.484422 -0.678706 -0.540672
-2.908630 1.518370 -0.094870 1319 0.515214 -0.694820 -0.503406
-2.906800 1.517410 -0.092290 1335 0.541543 -0.708633 -0.466284
-2.905890 1.516940 -0.089740 1349 0.554637 -0.715396 -0.429593
-2.904450 1.516180 -0.087180 1345 0.575357 -0.726331 -0.392758
-2.904000 1.515950 -0.084650 1369 0.581831 -0.729641 -0.356356
-2.903410 1.515640 -0.082110 1383 0.590321 -0.734101 -0.319809
-2.902490 1.515160 -0.079570 1389 0.603559 -0.741008 -0.283262
-2.901300 1.514530 -0.077030 1401 0.620681 -0.750073 -0.246715
-2.900380 1.514050 -0.074490 1399 0.633919 -0.756979 -0.210169
-2.899390 1.513540 -0.071950 1393 0.648162 -0.764317 -0.173622
-2.899570 1.513630 -0.069440 1391 0.645572 -0.763022 -0.137507
-2.900660 1.514190 -0.066960 1411 0.629888 -0.754965 -0.101823
-2.900310 1.514010 -0.064440 1413 0.634924 -0.757555 -0.065564
-2.899710 1.513700 -0.061910 1417 0.643559 -0.762015 -0.029161
-2.899360 1.513510 -0.059390 1399 0.648595 -0.764749 0.007098
-2.899460 1.513570 -0.056880 1407 0.647154 -0.763886 0.043213
-2.899950 1.513820 -0.054380 1401 0.640104 -0.760288 0.079184
-2.900190 1.513940 -0.051870 1401 0.636650 -0.758562 0.115299
-2.900680 1.514200 -0.049370 1397 0.629600 -0.754821 0.151270
-2.901360 1.514550 -0.046860 1395 0.619816 -0.749785 0.187385
-2.901850 1.514800 -0.044360 1381 0.612767 -0.746188 0.223357
-2.903050 1.515430 -0.041860 1385 0.595501 -0.737123 0.259328
-2.902950 1.515380 -0.039350 1365 0.596938 -0.737842 0.295443
-2.903370 1.515590 -0.036840 1369 0.590897 -0.734821 0.331558
-2.904750 1.516310 -0.034340 1355 0.571038 -0.724461 0.367529
-2.905620 1.516770 -0.031830 1341 0.558520 -0.717842 0.403644
-2.907010 1.517490 -0.029330 1339 0.538521 -0.707482 0.439616
-2.908260 1.518140 -0.026820 1319 0.520535 -0.698131 0.475731
-2.909580 1.518830 -0.024310 1311 0.501544 -0.688203 0.511846
-2.911220 1.519690 -0.021810 1295 0.477945 -0.675828 0.547817
-2.912990 1.520610 -0.019300 1283 0.452477 -0.662591 0.583932
-2.914170 1.521230 -0.016780 1249 0.435500 -0.653670 0.620191
-2.915940 1.522150 -0.014260 1231 0.410032 -0.640432 0.656450
-2.918020 1.523230 -0.011750 1199 0.380104 -0.624893 0.692565
-2.920560 1.524560 -0.009230 1161 0.343559 -0.605756 0.728824
-2.924200 1.526460 -0.006710 1113 0.291183 -0.578417 0.765083
-2.928240 1.528570 -0.004180 1059 0.233053 -0.548057 0.801486
-2.932600 1.530840 -0.001650 991 0.170320 -0.515396 0.837889
-2.937340 1.533310 0.000900 883 0.102119 -0.479856 0.874580
-2.929370 1.532100 -0.118450 1017 0.216796 -0.497267 -0.842687
-2.924720 1.529670 -0.115720 1091 0.283701 -0.532231 -0.803406
-2.922140 1.528320 -0.113090 1151 0.320826 -0.551656 -0.765564
-2.919290 1.526830 -0.110440 1203 0.361830 -0.573095 -0.727435
-2.916190 1.525200 -0.107800 1225 0.406437 -0.596547 -0.689449
-2.913850 1.523980 -0.105180 1255 0.440104 -0.614101 -0.651751
-2.911790 1.522900 -0.102580 1273 0.469746 -0.629641 -0.614341
-2.910550 1.522250 -0.100020 1295 0.487585 -0.638993 -0.577507
-2.909260 1.521570 -0.097450 1317 0.506147 -0.648778 -0.540528
-2.907310 1.520560 -0.094860 1325 0.534205 -0.663310 -0.503262
-2.906340 1.520050 -0.092310 1357 0.548164 -0.670647 -0.466571
-2.905100 1.519400 -0.089750 1367 0.566002 -0.680001 -0.429737
-2.902960 1.518270 -0.087170 1361 0.596794 -0.696259 -0.392615
-2.901520 1.517520 -0.084610 1377 0.617514 -0.707052 -0.355780
-2.901060 1.517280 -0.082080 1385 0.624132 -0.710505 -0.319377
-2.900270 1.516860 -0.079540 1393 0.635500 -0.716547 -0.282830
-2.899150 1.516280 -0.077000 1395 0.651617 -0.724892 -0.246284
-2.898690 1.516040 -0.074480 1391 0.658234 -0.728346 -0.210025
-2.898350 1.515860 -0.071950 1407 0.663126 -0.730936 -0.173622
-2.897740 1.515540 -0.069430 1417 0.671905 -0.735540 -0.137363
-2.897660 1.515500 -0.066910 1417 0.673054 -0.736117 -0.101104
-2.897640 1.515480 -0.064400 1421 0.673342 -0.736403 -0.064989
-2.896650 1.514960 -0.061870 1413 0.687585 -0.743885 -0.028586
-2.896760 1.515020 -0.059360 1405 0.686004 -0.743022 0.007529
-2.897250 1.515280 -0.056860 1405 0.678954 -0.739281 0.043501
-2.897740 1.515530 -0.054360 1409 0.671905 -0.735684 0.079472
-2.897840 1.515580 -0.051850 1401 0.670464 -0.734964 0.115587
-2.897940 1.515640 -0.049340 1397 0.669027 -0.734101 0.151702
-2.898230 1.515790 -0.046830 1393 0.664852 -0.731943 0.187817
-2.898590 1.515970 -0.044330 1393 0.659672 -0.729353 0.223788
-2.899660 1.516530 -0.041830 1391 0.644276 -0.721295 0.259760
-2.900800 1.517120 -0.039330 1385 0.627874 -0.712806 0.295731
-2.901600 1.517550 -0.036830 1375 0.616365 -0.706620 0.331702
-2.902080 1.517790 -0.034320 1361 0.609456 -0.703167 0.367817
-2.902940 1.518240 -0.031810 1347 0.597082 -0.696692 0.403932
-2.904590 1.519100 -0.029320 1341 0.573344 -0.684318 0.439760
-2.906160 1.519930 -0.026810 1329 0.550750 -0.672375 0.475875
-2.907030 1.520380 -0.024300 1313 0.538233 -0.665900 0.511990
-2.908150 1.520960 -0.021790 1303 0.522120 -0.657555 0.548105
-2.909720 1.521790 -0.019280 1293 0.499530 -0.645612 0.584220
-2.911740 1.522840 -0.016770 1271 0.470463 -0.630504 0.620335
-2.913970 1.524010 -0.014260 1249 0.438378 -0.613671 0.656450
-2.915270 1.524690 -0.011740 1209 0.419672 -0.603885 0.692709
-2.917040 1.525610 -0.009220 1169 0.394204 -0.590649 0.728968
-2.921000 1.527680 -0.006700 1123 0.337227 -0.560863 0.765227
-2.925160 1.529860 -0.004180 1085 0.277372 -0.529497 0.801486
-2.929060 1.531900 -0.001640 1027 0.221256 -0.500144 0.838033
-2.934000 1.534480 0.000890 929 0.150176 -0.463023 0.874436
-2.926990 1.533650 -0.118400 1037 0.251039 -0.474964 -0.841967
-2.923180 1.531650 -0.115710 1101 0.305858 -0.503742 -0.803262
-2.919490 1.529720 -0.113030 1161 0.358952 -0.531512 -0.764701
-2.915810 1.527790 -0.110360 1199 0.411902 -0.559282 -0.726284
-2.913410 1.526530 -0.107740 1235 0.446436 -0.577410 -0.688586
-2.911670 1.525620 -0.105150 1263 0.471472 -0.590505 -0.651320
-2.909870 1.524670 -0.102560 1289 0.497372 -0.604173 -0.614053
-2.908570 1.523990 -0.099990 1307 0.516075 -0.613957 -0.577075
-2.906750 1.523040 -0.097400 1327 0.542263 -0.627626 -0.539809
-2.905000 1.522120 -0.094820 1331 0.567443 -0.640864 -0.502687
-2.903510 1.521340 -0.092260 1357 0.588880 -0.652087 -0.465852
-2.902340 1.520720 -0.089700 1361 0.605717 -0.661008 -0.429017
-2.901370 1.520210 -0.087160 1373 0.619672 -0.668346 -0.392471
-2.899020 1.518980 -0.084570 1381 0.653486 -0.686043 -0.355204
-2.898370 1.518640 -0.082040 1381 0.662838 -0.690935 -0.318802
-2.898740 1.518830 -0.079530 1393 0.657514 -0.688203 -0.282687
-2.897820 1.518350 -0.077000 1397 0.670752 -0.695109 -0.246284
-2.897480 1.518170 -0.074470 1403 0.675644 -0.697699 -0.209881
-2.897080 1.517960 -0.071950 1407 0.681400 -0.700721 -0.173622
-2.896020 1.517400 -0.069410 1409 0.696652 -0.708777 -0.137075
-2.895230 1.516990 -0.066880 1411 0.708017 -0.714678 -0.100672
-2.895410 1.517080 -0.064380 1417 0.705427 -0.713383 -0.064701
-2.895450 1.517100 -0.061870 1415 0.704851 -0.713095 -0.028586
-2.895290 1.517020 -0.059350 1409 0.707156 -0.714245 0.007673
-2.895470 1.517110 -0.056850 1409 0.704566 -0.712950 0.043644
-2.896020 1.517400 -0.054350 1415 0.696652 -0.708777 0.079616
-2.896380 1.517590 -0.051840 1401 0.691472 -0.706043 0.115731
-2.896810 1.517810 -0.049340 1403 0.685284 -0.702879 0.151702
-2.897290 1.518060 -0.046840 1409 0.678378 -0.699282 0.187673
-2.897650 1.518250 -0.044330 1391 0.673198 -0.696548 0.223788
-2.898000 1.518430 -0.041820 1379 0.668162 -0.693958 0.259903
-2.899070 1.518990 -0.039320 1385 0.652766 -0.685899 0.295875
-2.899610 1.519270 -0.036820 1367 0.644996 -0.681872 0.331846
-2.899710 1.519320 -0.034310 1365 0.643559 -0.681152 0.367961
-2.901160 1.520080 -0.031810 1355 0.622694 -0.670217 0.403932
-2.902090 1.520570 -0.029300 1333 0.609312 -0.663166 0.440047
-2.903660 1.521390 -0.026800 1325 0.586722 -0.651368 0.476019
-2.905240 1.522210 -0.024300 1323 0.563989 -0.639569 0.511990
-2.906300 1.522770 -0.021790 1311 0.548737 -0.631511 0.548105
-2.908190 1.523760 -0.019280 1297 0.521543 -0.617267 0.584220
-2.909960 1.524680 -0.016770 1265 0.496075 -0.604029 0.620335
-2.911470 1.525470 -0.014250 1251 0.474350 -0.592662 0.656594
-2.913550 1.526560 -0.011740 1227 0.444423 -0.576980 0.692709
-2.915500 1.527590 -0.009220 1195 0.416365 -0.562158 0.728968
-2.917520 1.528640 -0.006700 1149 0.387298 -0.547051 0.765227
-2.921810 1.530890 -0.004170 1101 0.325573 -0.514677 0.801630
-2.926220 1.533200 -0.001640 1049 0.262120 -0.481439 0.838033
-2.930710 1.535550 0.000890 963 0.197514 -0.447627 0.874436
-2.924640 1.535450 -0.118350 1067 0.284854 -0.449066 -0.841248
-2.920450 1.533250 -0.115650 1123 0.345141 -0.480720 -0.802399
-2.916500 1.531170 -0.112960 1169 0.401974 -0.510648 -0.763694
-2.913460 1.529580 -0.110310 1207 0.445716 -0.533526 -0.725564
-2.911270 1.528430 -0.107700 1253 0.477228 -0.550073 -0.688010
-2.909790 1.527640 -0.105120 1269 0.498521 -0.561440 -0.650888
-2.908940 1.527200 -0.102570 1297 0.510751 -0.567771 -0.614197
-2.907000 1.526180 -0.099980 1317 0.538665 -0.582446 -0.576931
-2.904540 1.524890 -0.097370 1327 0.574060 -0.601009 -0.539377
-2.902730 1.523940 -0.094790 1345 0.600105 -0.614677 -0.502255
-2.901040 1.523050 -0.092220 1359 0.624420 -0.627483 -0.465276
-2.900190 1.522600 -0.089670 1375 0.636650 -0.633957 -0.428586
-2.898700 1.521820 -0.087110 1375 0.658090 -0.645181 -0.391751
-2.897780 1.521330 -0.084570 1385 0.671328 -0.652231 -0.355204
-2.896940 1.520890 -0.082030 1393 0.683414 -0.658562 -0.318658
-2.895630 1.520200 -0.079480 1393 0.702264 -0.668490 -0.281967
-2.894710 1.519720 -0.076950 1395 0.715499 -0.675397 -0.245564
-2.894110 1.519400 -0.074420 1401 0.724134 -0.680001 -0.209161
-2.893700 1.519190 -0.071900 1425 0.730034 -0.683023 -0.172902
-2.893360 1.519010 -0.069380 1415 0.734926 -0.685613 -0.136643
-2.893480 1.519070 -0.066870 1419 0.733197 -0.684748 -0.100528
-2.893330 1.518990 -0.064360 1419 0.735355 -0.685899 -0.064413
-2.893570 1.519110 -0.061850 1427 0.731904 -0.684174 -0.028298
-2.894000 1.519340 -0.059350 1429 0.725715 -0.680863 0.007673
-2.893770 1.519220 -0.056840 1421 0.729026 -0.682591 0.043788
-2.893690 1.519170 -0.054330 1427 0.730175 -0.683309 0.079903
-2.893850 1.519250 -0.051820 1421 0.727873 -0.682158 0.116019
-2.894270 1.519480 -0.049320 1427 0.721832 -0.678850 0.151990
-2.894770 1.519730 -0.046810 1413 0.714638 -0.675253 0.188105
-2.894920 1.519820 -0.044310 1405 0.712477 -0.673958 0.224076
-2.895470 1.520100 -0.041800 1397 0.704566 -0.669929 0.260191
-2.895760 1.520250 -0.039300 1393 0.700391 -0.667771 0.296162
-2.896560 1.520670 -0.036800 1371 0.688882 -0.661726 0.332134
-2.897820 1.521330 -0.034300 1379 0.670752 -0.652231 0.368105
-2.898820 1.521850 -0.031800 1357 0.656365 -0.644749 0.404076
-2.900400 1.522680 -0.029300 1361 0.633631 -0.632806 0.440047
-2.901580 1.523310 -0.026790 1339 0.616650 -0.623742 0.476162
-2.902710 1.523890 -0.024290 1323 0.600393 -0.615396 0.512134
-2.904480 1.524820 -0.021780 1315 0.574925 -0.602015 0.548249
-2.906440 1.525850 -0.019280 1301 0.546723 -0.587194 0.584220
-2.907940 1.526640 -0.016770 1279 0.525142 -0.575827 0.620335
-2.909960 1.527700 -0.014250 1261 0.496075 -0.560577 0.656594
-2.911790 1.528660 -0.011740 1235 0.469746 -0.546762 0.692709
-2.913290 1.529440 -0.009220 1205 0.448162 -0.535540 0.728968
-2.916080 1.530910 -0.006700 1163 0.408018 -0.514389 0.765227
-2.919460 1.532680 -0.004170 1121 0.359384 -0.488921 0.801630
-2.923160 1.534630 -0.001640 1059 0.306147 -0.460865 0.838033
-2.927900 1.537110 0.000890 979 0.237945 -0.425181 0.874436
-2.932440 1.539500 0.003440 871 0.172622 -0.390792 0.911126
-2.921420 1.536560 -0.118270 1081 0.331182 -0.433093 -0.840097
-2.917410 1.534450 -0.115570 1133 0.388883 -0.463453 -0.801248
-2.913920 1.532620 -0.112900 1189 0.439098 -0.489786 -0.762830
-2.911210 1.531190 -0.110270 1225 0.478089 -0.510360 -0.724989
-2.909340 1.530200 -0.107670 1251 0.504998 -0.524605 -0.687579
-2.908110 1.529560 -0.105100 1281 0.522696 -0.533814 -0.650600
-2.906570 1.528740 -0.102520 1301 0.544853 -0.545612 -0.613478
-2.904430 1.527620 -0.099930 1317 0.575645 -0.561728 -0.576212
-2.902550 1.526630 -0.097340 1329 0.602695 -0.575971 -0.538945
-2.901120 1.525880 -0.094780 1343 0.623271 -0.586764 -0.502111
-2.899960 1.525260 -0.092220 1359 0.639960 -0.595685 -0.465276
-2.898790 1.524650 -0.089670 1375 0.656797 -0.604461 -0.428586
-2.897300 1.523860 -0.087100 1391 0.678234 -0.615828 -0.391607
-2.895600 1.522970 -0.084540 1389 0.702693 -0.628634 -0.354773
-2.894820 1.522550 -0.082000 1399 0.713918 -0.634677 -0.318226
-2.893830 1.522030 -0.079460 1397 0.728161 -0.642159 -0.281679
-2.893760 1.521990 -0.076950 1415 0.729170 -0.642735 -0.245564
-2.893230 1.521710 -0.074430 1425 0.736796 -0.646763 -0.209305
-2.893020 1.521600 -0.071910 1427 0.739818 -0.648346 -0.173046
-2.893190 1.521690 -0.069400 1429 0.737372 -0.647051 -0.136931
-2.892460 1.521310 -0.066880 1441 0.747873 -0.652519 -0.100672
-2.892120 1.521120 -0.064360 1423 0.752768 -0.655253 -0.064413
-2.892100 1.521110 -0.061850 1431 0.753053 -0.655396 -0.028298
-2.891490 1.520790 -0.059330 1421 0.761831 -0.660001 0.007961
-2.890620 1.520330 -0.056800 1423 0.774349 -0.666620 0.044364
-2.890790 1.520420 -0.054290 1423 0.771903 -0.665325 0.080479
-2.891870 1.520990 -0.051800 1429 0.756363 -0.657123 0.116306
-2.892620 1.521380 -0.049310 1421 0.745571 -0.651512 0.152134
-2.893160 1.521670 -0.046810 1413 0.737801 -0.647339 0.188105
-2.893520 1.521850 -0.044300 1411 0.732621 -0.644749 0.224220
-2.894070 1.522140 -0.041800 1403 0.724710 -0.640576 0.260191
-2.894620 1.522430 -0.039300 1387 0.716796 -0.636404 0.296162
-2.895420 1.522850 -0.036800 1385 0.705283 -0.630360 0.332134
-2.896160 1.523240 -0.034290 1391 0.694639 -0.624749 0.368249
-2.897410 1.523900 -0.031790 1379 0.676652 -0.615252 0.404220
-2.899130 1.524800 -0.029300 1363 0.651902 -0.602304 0.440047
-2.900630 1.525590 -0.026800 1355 0.630320 -0.590937 0.476019
-2.901880 1.526240 -0.024290 1343 0.612334 -0.581584 0.512134
-2.902750 1.526700 -0.021780 1327 0.599817 -0.574964 0.548249
-2.904440 1.527590 -0.019270 1309 0.575501 -0.562158 0.584364
-2.906400 1.528620 -0.016760 1285 0.547299 -0.547339 0.620479
-2.908160 1.529540 -0.014250 1265 0.521975 -0.534102 0.656594
-2.910180 1.530610 -0.011740 1243 0.492909 -0.518706 0.692709
-2.911810 1.531460 -0.009220 1205 0.469458 -0.506475 0.728968
-2.913700 1.532450 -0.006690 1175 0.442261 -0.492231 0.765371
-2.916630 1.533990 -0.004170 1129 0.400104 -0.470072 0.801630
-2.921170 1.536380 -0.001640 1079 0.334781 -0.435683 0.838033
-2.925770 1.538800 0.000890 1007 0.268593 -0.400864 0.874436
-2.930830 1.541460 0.003440 903 0.195788 -0.362590 0.911126
-2.920020 1.538890 -0.118260 1095 0.351326 -0.399569 -0.839953
-2.915820 1.536670 -0.115560 1141 0.411761 -0.431512 -0.801104
-2.912280 1.534800 -0.112890 1191 0.462693 -0.458417 -0.762686
-2.909820 1.533510 -0.110270 1229 0.498089 -0.476980 -0.724989
-2.907950 1.532520 -0.107670 1263 0.524998 -0.491223 -0.687579
-2.905890 1.531430 -0.105070 1281 0.554637 -0.506907 -0.650169
-2.904470 1.530680 -0.102490 1309 0.575069 -0.517699 -0.613046
-2.903180 1.530000 -0.099930 1325 0.593631 -0.527483 -0.576212
-2.901490 1.529110 -0.097350 1353 0.617947 -0.540289 -0.539089
-2.899750 1.528190 -0.094770 1355 0.642982 -0.553526 -0.501967
-2.897990 1.527260 -0.092200 1369 0.668306 -0.566908 -0.464989
-2.896240 1.526340 -0.089630 1371 0.693486 -0.580144 -0.428010
-2.894940 1.525650 -0.087070 1401 0.712192 -0.590072 -0.391176
-2.893960 1.525140 -0.084530 1395 0.726292 -0.597410 -0.354629
-2.893240 1.524760 -0.082000 1405 0.736652 -0.602878 -0.318226
-2.891680 1.523930 -0.079440 1401 0.759097 -0.614821 -0.281392
-2.891010 1.523580 -0.076910 1411 0.768737 -0.619857 -0.244989
-2.891590 1.523880 -0.074420 1435 0.760391 -0.615540 -0.209161
-2.891580 1.523880 -0.071900 1427 0.760535 -0.615540 -0.172902
-2.890580 1.523350 -0.069370 1429 0.774926 -0.623166 -0.136499
-2.890370 1.523240 -0.066860 1431 0.777948 -0.624749 -0.100384
-2.890810 1.523470 -0.064360 1439 0.771615 -0.621439 -0.064413
-2.890330 1.523210 -0.061840 1447 0.778521 -0.625180 -0.028154
-2.889720 1.522890 -0.059310 1429 0.787299 -0.629785 0.008249
-2.890280 1.523190 -0.056820 1427 0.779241 -0.625468 0.044076
-2.890060 1.523070 -0.054300 1427 0.782407 -0.627195 0.080335
-2.889900 1.522980 -0.051790 1419 0.784709 -0.628490 0.116450
-2.890910 1.523510 -0.049300 1441 0.770178 -0.620864 0.152278
-2.891330 1.523740 -0.046800 1421 0.764133 -0.617554 0.188249
-2.891490 1.523820 -0.044290 1415 0.761831 -0.616403 0.224364
-2.891650 1.523910 -0.041780 1405 0.759530 -0.615108 0.260479
-2.892330 1.524260 -0.039280 1393 0.749746 -0.610072 0.296450
-2.893390 1.524820 -0.036790 1395 0.734494 -0.602015 0.332278
-2.894710 1.525520 -0.034290 1377 0.715499 -0.591944 0.368249
-2.896490 1.526450 -0.031800 1371 0.689887 -0.578561 0.404076
-2.897680 1.527080 -0.029290 1363 0.672766 -0.569496 0.440191
-2.898730 1.527630 -0.026790 1355 0.657658 -0.561584 0.476162
-2.899400 1.527980 -0.024280 1343 0.648018 -0.556548 0.512278
-2.900250 1.528430 -0.021770 1327 0.635789 -0.550073 0.548393
-2.901820 1.529260 -0.019260 1309 0.613199 -0.538130 0.584508
-2.903660 1.530220 -0.016750 1287 0.586722 -0.524317 0.620623
-2.906070 1.531490 -0.014250 1275 0.552047 -0.506044 0.656594
-2.908150 1.532590 -0.011730 1259 0.522120 -0.490216 0.692853
-2.909780 1.533450 -0.009210 1221 0.498665 -0.477842 0.729112
-2.911600 1.534410 -0.006690 1179 0.472477 -0.464029 0.765371
-2.914910 1.536150 -0.004170 1143 0.424852 -0.438994 0.801630
-2.919060 1.538340 -0.001640 1089 0.365141 -0.407483 0.838033
-2.922820 1.540320 0.000890 1027 0.311038 -0.378993 0.874436
-2.927420 1.542740 0.003440 945 0.244854 -0.344174 0.911126
-2.917800 1.540730 -0.118220 1093 0.383271 -0.373094 -0.839377
-2.913160 1.538280 -0.115500 1145 0.450031 -0.408346 -0.800241
-2.910510 1.536880 -0.112870 1189 0.488161 -0.428490 -0.762399
-2.908720 1.535930 -0.110270 1237 0.513917 -0.442158 -0.724989
-2.906460 1.534740 -0.107660 1265 0.546435 -0.459282 -0.687435
-2.904390 1.533640 -0.105060 1291 0.576218 -0.475108 -0.650025
-2.901420 1.532070 -0.102430 1311 0.618952 -0.497698 -0.612183
-2.899470 1.531040 -0.099840 1319 0.647010 -0.512519 -0.574917
-2.899150 1.530870 -0.097310 1339 0.651617 -0.514965 -0.538514
-2.897860 1.530190 -0.094750 1351 0.670176 -0.524749 -0.501679
-2.895910 1.529160 -0.092170 1357 0.698234 -0.539569 -0.464557
-2.894420 1.528370 -0.089610 1379 0.719674 -0.550936 -0.427723
-2.893700 1.527990 -0.087070 1385 0.730034 -0.556404 -0.391176
-2.893250 1.527750 -0.084540 1397 0.736508 -0.559857 -0.354773
-2.891620 1.526890 -0.081980 1397 0.759962 -0.572230 -0.317938
-2.889860 1.525960 -0.079420 1403 0.785286 -0.585613 -0.281104
-2.889390 1.525710 -0.076900 1429 0.792047 -0.589209 -0.244845
-2.889130 1.525570 -0.074380 1425 0.795786 -0.591223 -0.208586
-2.888330 1.525150 -0.071850 1427 0.807299 -0.597268 -0.172183
-2.888180 1.525070 -0.069340 1427 0.809457 -0.598419 -0.136068
-2.888620 1.525300 -0.066840 1445 0.803128 -0.595108 -0.100097
-2.888800 1.525390 -0.064340 1445 0.800538 -0.593813 -0.064125
-2.888840 1.525410 -0.061830 1449 0.799961 -0.593525 -0.028010
-2.887850 1.524890 -0.059300 1449 0.814205 -0.601009 0.008393
-2.887560 1.524740 -0.056790 1451 0.818380 -0.603166 0.044508
-2.887980 1.524960 -0.054290 1455 0.812335 -0.600000 0.080479
-2.888470 1.525220 -0.051790 1427 0.805285 -0.596259 0.116450
-2.889220 1.525610 -0.049290 1429 0.794493 -0.590649 0.152421
-2.889650 1.525830 -0.046790 1431 0.788304 -0.587482 0.188393
-2.889930 1.525980 -0.044290 1419 0.784277 -0.585324 0.224364
-2.890550 1.526310 -0.041790 1397 0.775358 -0.580577 0.260335
-2.890900 1.526490 -0.039280 1401 0.770322 -0.577987 0.296450
-2.891250 1.526680 -0.036770 1391 0.765286 -0.575253 0.332565
-2.892960 1.527580 -0.034280 1389 0.740679 -0.562303 0.368393
-2.894150 1.528210 -0.031780 1379 0.723558 -0.553237 0.404364
-2.895010 1.528660 -0.029280 1373 0.711184 -0.546762 0.440335
-2.896520 1.529460 -0.026780 1363 0.689458 -0.535253 0.476306
-2.897580 1.530010 -0.024270 1347 0.674207 -0.527339 0.512421
-2.898820 1.530670 -0.021770 1341 0.656365 -0.517842 0.548393
-2.900590 1.531600 -0.019260 1315 0.630897 -0.504461 0.584508
-2.902420 1.532570 -0.016750 1299 0.604564 -0.490504 0.620623
-2.904310 1.533560 -0.014240 1281 0.577371 -0.476259 0.656738
-2.906070 1.534490 -0.011730 1261 0.552047 -0.462879 0.692853
-2.907760 1.535390 -0.009210 1235 0.527732 -0.449928 0.729112
-2.909840 1.536480 -0.006690 1199 0.497801 -0.434246 0.765371
-2.913090 1.538200 -0.004170 1157 0.451040 -0.409497 0.801630
-2.916850 1.540180 -0.001640 1105 0.396938 -0.381008 0.838033
-2.920990 1.542370 0.000890 1031 0.337371 -0.349498 0.874436
-2.925980 1.545000 0.003440 947 0.265571 -0.311656 0.911126
-2.915620 1.542220 -0.118180 1109 0.414636 -0.351655 -0.838802
-2.911170 1.539860 -0.115470 1153 0.478666 -0.385612 -0.799809
-2.908720 1.538560 -0.112840 1211 0.513917 -0.404317 -0.761967
-2.906140 1.537200 -0.110220 1245 0.551039 -0.423886 -0.724269
-2.904400 1.536280 -0.107620 1273 0.576074 -0.437122 -0.686859
-2.903440 1.535770 -0.105060 1305 0.589889 -0.444460 -0.650025
-2.901430 1.534700 -0.102470 1315 0.618811 -0.459856 -0.612758
-2.899240 1.533540 -0.099870 1337 0.650320 -0.476547 -0.575348
-2.897170 1.532450 -0.097280 1341 0.680104 -0.492231 -0.538082
-2.895410 1.531520 -0.094710 1355 0.705427 -0.505612 -0.501104
-2.893470 1.530490 -0.092130 1357 0.733341 -0.520432 -0.463981
-2.893020 1.530250 -0.089600 1385 0.739818 -0.523886 -0.427579
-2.892690 1.530070 -0.087070 1393 0.744566 -0.526476 -0.391176
-2.891590 1.529490 -0.084530 1403 0.760391 -0.534821 -0.354629
-2.891060 1.529210 -0.082000 1407 0.768017 -0.538850 -0.318226
-2.889950 1.528620 -0.079460 1405 0.783989 -0.547339 -0.281679
-2.888580 1.527890 -0.076910 1421 0.803700 -0.557843 -0.244989
-2.887920 1.527540 -0.074380 1423 0.813199 -0.562879 -0.208586
-2.887250 1.527190 -0.071850 1429 0.822839 -0.567915 -0.172183
-2.886910 1.527010 -0.069340 1439 0.827731 -0.570505 -0.136068
-2.886370 1.526720 -0.066820 1449 0.835501 -0.574676 -0.099809
-2.886290 1.526680 -0.064310 1451 0.836650 -0.575253 -0.063694
-2.886530 1.526800 -0.061800 1433 0.833199 -0.573525 -0.027579
-2.886570 1.526820 -0.059300 1441 0.832623 -0.573239 0.008393
-2.886540 1.526810 -0.056790 1451 0.833055 -0.573381 0.044508
-2.886780 1.526930 -0.054290 1449 0.829601 -0.571656 0.080479
-2.887330 1.527220 -0.051790 1445 0.821687 -0.567483 0.116450
-2.887820 1.527480 -0.049290 1427 0.814637 -0.563742 0.152421
-2.887460 1.527290 -0.046770 1429 0.819817 -0.566476 0.188680
-2.887690 1.527410 -0.044270 1427 0.816506 -0.564748 0.224652
-2.888820 1.528000 -0.041780 1415 0.800249 -0.556260 0.260479
-2.889960 1.528600 -0.039280 1411 0.783845 -0.547627 0.296450
-2.890240 1.528750 -0.036770 1401 0.779817 -0.545469 0.332565
-2.890460 1.528870 -0.034270 1381 0.776651 -0.543742 0.368537
-2.891320 1.529320 -0.031770 1375 0.764277 -0.537267 0.404508
-2.892510 1.529950 -0.029270 1367 0.747156 -0.528202 0.440479
-2.894730 1.531120 -0.026770 1363 0.715211 -0.511368 0.476450
-2.897140 1.532400 -0.024280 1367 0.680536 -0.492950 0.512278
-2.898460 1.533090 -0.021770 1339 0.661545 -0.483022 0.548393
-2.899380 1.533580 -0.019260 1319 0.648306 -0.475973 0.584508
-2.899980 1.533890 -0.016750 1299 0.639672 -0.471511 0.620623
-2.901470 1.534680 -0.014240 1271 0.618235 -0.460144 0.656738
-2.904140 1.536100 -0.011730 1257 0.579817 -0.439712 0.692853
-2.906220 1.537190 -0.009210 1229 0.549889 -0.424030 0.729112
-2.907980 1.538120 -0.006690 1201 0.524565 -0.410648 0.765371
-2.911090 1.539770 -0.004170 1161 0.479818 -0.386907 0.801630
-2.915050 1.541860 -0.001640 1109 0.422838 -0.356835 0.838033
-2.919130 1.544020 0.000890 1043 0.364132 -0.325755 0.874436
-2.924310 1.546760 0.003430 975 0.289601 -0.286332 0.910983
-2.928200 1.548810 0.005980 841 0.233630 -0.256835 0.947673
-2.914500 1.544620 -0.118190 1111 0.430752 -0.317122 -0.838945
-2.910570 1.542540 -0.115490 1167 0.487300 -0.347052 -0.800097
-2.907020 1.540660 -0.112820 1215 0.538377 -0.374101 -0.761679
-2.904710 1.539430 -0.110210 1241 0.571615 -0.391799 -0.724125
-2.902710 1.538370 -0.107610 1263 0.600393 -0.407051 -0.686715
-2.900580 1.537240 -0.105010 1287 0.631041 -0.423310 -0.649305
-2.898970 1.536380 -0.102430 1315 0.654207 -0.435683 -0.612183
-2.898070 1.535910 -0.099870 1347 0.667154 -0.442447 -0.575348
-2.896190 1.534910 -0.097290 1351 0.694206 -0.456836 -0.538226
-2.894250 1.533880 -0.094710 1357 0.722120 -0.471655 -0.501104
-2.892820 1.533120 -0.092150 1361 0.742696 -0.482590 -0.464269
-2.892440 1.532920 -0.089620 1385 0.748161 -0.485468 -0.427866
-2.891070 1.532190 -0.087060 1397 0.767876 -0.495972 -0.391032
-2.889250 1.531230 -0.084500 1401 0.794061 -0.509785 -0.354197
-2.889110 1.531150 -0.081980 1411 0.796075 -0.510936 -0.317938
-2.888520 1.530840 -0.079450 1417 0.804565 -0.515396 -0.281535
-2.887800 1.530450 -0.076920 1425 0.814925 -0.521008 -0.245133
-2.886940 1.530000 -0.074390 1439 0.827299 -0.527483 -0.208730
-2.886670 1.529860 -0.071870 1443 0.831182 -0.529497 -0.172471
-2.886460 1.529740 -0.069360 1445 0.834204 -0.531224 -0.136356
-2.884830 1.528870 -0.066810 1441 0.857659 -0.543742 -0.099665
-2.884540 1.528720 -0.064300 1445 0.861830 -0.545900 -0.063550
-2.885040 1.528980 -0.061800 1439 0.854636 -0.542159 -0.027579
-2.885790 1.529380 -0.059310 1455 0.843844 -0.536404 0.008249
-2.886030 1.529510 -0.056800 1451 0.840393 -0.534533 0.044364
-2.885290 1.529110 -0.054280 1441 0.851041 -0.540289 0.080623
-2.886100 1.529540 -0.051790 1449 0.839384 -0.534102 0.116450
-2.886980 1.530010 -0.049290 1447 0.826722 -0.527339 0.152421
-2.886500 1.529750 -0.046780 1437 0.833631 -0.531080 0.188537
-2.886920 1.529970 -0.044270 1427 0.827587 -0.527914 0.224652
-2.888240 1.530670 -0.041790 1421 0.808592 -0.517842 0.260335
-2.888530 1.530830 -0.039280 1411 0.804421 -0.515540 0.296450
-2.888870 1.531010 -0.036770 1397 0.799529 -0.512950 0.332565
-2.889610 1.531400 -0.034270 1393 0.788881 -0.507339 0.368537
-2.890730 1.531990 -0.031770 1385 0.772768 -0.498849 0.404508
-2.892570 1.532970 -0.029280 1383 0.746291 -0.484750 0.440335
-2.894340 1.533900 -0.026780 1383 0.720823 -0.471367 0.476306
-2.895140 1.534320 -0.024270 1353 0.709314 -0.465324 0.512421
-2.895280 1.534400 -0.021760 1327 0.707300 -0.464174 0.548537
-2.896710 1.535160 -0.019250 1313 0.686724 -0.453239 0.584652
-2.899390 1.536570 -0.016750 1303 0.648162 -0.432951 0.620623
-2.901540 1.537710 -0.014240 1289 0.617226 -0.416548 0.656738
-2.903030 1.538500 -0.011730 1265 0.595789 -0.405181 0.692853
-2.905110 1.539600 -0.009210 1233 0.565862 -0.389353 0.729112
-2.907320 1.540770 -0.006690 1203 0.534061 -0.372518 0.765371
-2.909910 1.542150 -0.004170 1165 0.496796 -0.352662 0.801630
-2.913550 1.544070 -0.001640 1117 0.444423 -0.325037 0.838033
-2.918270 1.546580 0.000890 1063 0.376506 -0.288922 0.874436
-2.922220 1.548670 0.003430 973 0.319673 -0.258849 0.910983
-2.926230 1.550790 0.005980 847 0.261976 -0.228347 0.947673
-2.912240 1.546250 -0.118140 1117 0.463270 -0.293670 -0.838226
-2.908500 1.544260 -0.115460 1173 0.517084 -0.322302 -0.799665
-2.906050 1.542960 -0.112830 1213 0.552335 -0.341007 -0.761823
-2.903930 1.541830 -0.110220 1241 0.582839 -0.357268 -0.724269
-2.901220 1.540390 -0.107600 1267 0.621830 -0.377986 -0.686571
-2.899490 1.539470 -0.105010 1293 0.646722 -0.391224 -0.649305
-2.897550 1.538440 -0.102420 1309 0.674635 -0.406044 -0.612039
-2.895410 1.537300 -0.099820 1331 0.705427 -0.422447 -0.574629
-2.894000 1.536550 -0.097260 1345 0.725715 -0.433237 -0.537794
-2.892640 1.535830 -0.094690 1355 0.745283 -0.443597 -0.500816
-2.891540 1.535240 -0.092140 1377 0.761111 -0.452086 -0.464125
-2.890760 1.534830 -0.089600 1389 0.772336 -0.457987 -0.427579
-2.888750 1.533760 -0.087030 1391 0.801255 -0.473383 -0.390600
-2.887840 1.533270 -0.084490 1403 0.814349 -0.480432 -0.354053
-2.887700 1.533200 -0.081970 1415 0.816362 -0.481439 -0.317794
-2.886980 1.532820 -0.079440 1427 0.826722 -0.486907 -0.281392
-2.886900 1.532770 -0.076930 1437 0.827875 -0.487626 -0.245276
-2.885780 1.532180 -0.074390 1441 0.843988 -0.496116 -0.208730
-2.884610 1.531560 -0.071850 1453 0.860825 -0.505037 -0.172183
-2.884910 1.531720 -0.069350 1459 0.856506 -0.502734 -0.136212
-2.884570 1.531530 -0.066830 1453 0.861401 -0.505468 -0.099953
-2.884880 1.531700 -0.064330 1471 0.856938 -0.503022 -0.063981
-2.885310 1.531920 -0.061830 1461 0.850753 -0.499857 -0.028010
-2.885220 1.531880 -0.059320 1451 0.852046 -0.500432 0.008105
-2.884290 1.531380 -0.056790 1449 0.865429 -0.507626 0.044508
-2.883940 1.531190 -0.054280 1461 0.870465 -0.510360 0.080623
-2.885010 1.531760 -0.051790 1453 0.855069 -0.502159 0.116450
-2.884720 1.531610 -0.049280 1451 0.859240 -0.504317 0.152565
-2.883850 1.531140 -0.046750 1433 0.871758 -0.511080 0.188968
-2.884400 1.531430 -0.044250 1421 0.863847 -0.506907 0.224939
-2.885600 1.532070 -0.041760 1423 0.846578 -0.497698 0.260767
-2.886720 1.532660 -0.039270 1415 0.830465 -0.489209 0.296594
-2.887460 1.533060 -0.036770 1411 0.819817 -0.483455 0.332565
-2.888460 1.533580 -0.034270 1393 0.805429 -0.475973 0.368537
-2.889380 1.534070 -0.031770 1383 0.792191 -0.468921 0.404508
-2.890120 1.534460 -0.029270 1373 0.781543 -0.463311 0.440479
-2.891500 1.535200 -0.026770 1361 0.761687 -0.452663 0.476450
-2.892740 1.535860 -0.024260 1349 0.743845 -0.443167 0.512565
-2.893920 1.536480 -0.021760 1333 0.726868 -0.434246 0.548537
-2.895820 1.537490 -0.019250 1319 0.699530 -0.419713 0.584652
-2.897580 1.538420 -0.016750 1303 0.674207 -0.406332 0.620623
-2.899850 1.539630 -0.014240 1277 0.641545 -0.388921 0.656738
-2.902320 1.540940 -0.011730 1261 0.606005 -0.370072 0.692853
-2.903750 1.541700 -0.009210 1247 0.585429 -0.359137 0.729112
-2.906090 1.542940 -0.006690 1211 0.551759 -0.341295 0.765371
-2.909130 1.544550 -0.004170 1163 0.508017 -0.318131 0.801630
-2.912380 1.546270 -0.001640 1127 0.461256 -0.293382 0.838033
-2.916330 1.548370 0.000890 1067 0.404420 -0.263166 0.874436
-2.921180 1.550950 0.003430 987 0.334637 -0.226043 0.910983
-2.926290 1.553660 0.005980 855 0.261111 -0.187051 0.947673
-2.911880 1.548940 -0.118180 1121 0.468450 -0.254966 -0.838802
-2.907820 1.546780 -0.115480 1171 0.526867 -0.286044 -0.799953
-2.904470 1.545000 -0.112820 1211 0.575069 -0.311656 -0.761679
-2.901450 1.543390 -0.110170 1231 0.618523 -0.334820 -0.723550
-2.899580 1.542390 -0.107580 1263 0.645428 -0.349209 -0.686284
-2.898490 1.541810 -0.105020 1287 0.661112 -0.357554 -0.649449
-2.897200 1.541130 -0.102450 1315 0.679671 -0.367340 -0.612471
-2.895460 1.540200 -0.099860 1343 0.704710 -0.380720 -0.575204
-2.893450 1.539130 -0.097280 1349 0.733629 -0.396116 -0.538082
-2.891770 1.538230 -0.094700 1361 0.757804 -0.409066 -0.500960
-2.890220 1.537410 -0.092140 1375 0.780106 -0.420864 -0.464125
-2.888210 1.536340 -0.089560 1377 0.809025 -0.436260 -0.427003
-2.887180 1.535780 -0.087020 1401 0.823844 -0.444318 -0.390456
-2.886910 1.535640 -0.084500 1413 0.827731 -0.446332 -0.354197
-2.885480 1.534880 -0.081940 1403 0.848307 -0.457266 -0.317363
-2.884820 1.534530 -0.079410 1429 0.857803 -0.462302 -0.280960
-2.884290 1.534250 -0.076890 1417 0.865429 -0.466331 -0.244701
-2.883570 1.533860 -0.074360 1421 0.875789 -0.471944 -0.208298
-2.883420 1.533780 -0.071850 1447 0.877946 -0.473094 -0.172183
-2.883220 1.533670 -0.069330 1439 0.880825 -0.474678 -0.135924
-2.882290 1.533180 -0.066810 1461 0.894207 -0.481727 -0.099665
-2.882650 1.533370 -0.064310 1465 0.889027 -0.478993 -0.063694
-2.883020 1.533570 -0.061810 1459 0.883703 -0.476115 -0.027722
-2.882420 1.533240 -0.059290 1455 0.892334 -0.480865 0.008537
-2.882460 1.533260 -0.056780 1457 0.891758 -0.480576 0.044652
-2.883010 1.533560 -0.054280 1469 0.883847 -0.476259 0.080623
-2.883440 1.533780 -0.051780 1457 0.877658 -0.473094 0.116594
-2.883600 1.533870 -0.049280 1447 0.875356 -0.471799 0.152565
-2.884220 1.534190 -0.046780 1435 0.866437 -0.467194 0.188537
-2.885030 1.534620 -0.044280 1437 0.854780 -0.461007 0.224508
-2.886160 1.535230 -0.041790 1445 0.838523 -0.452230 0.260335
-2.886580 1.535450 -0.039280 1411 0.832479 -0.449066 0.296450
-2.886530 1.535420 -0.036770 1409 0.833199 -0.449498 0.332565
-2.886880 1.535610 -0.034270 1393 0.828163 -0.446764 0.368537
-2.887940 1.536170 -0.031770 1383 0.812911 -0.438706 0.404508
-2.889320 1.536900 -0.029270 1377 0.793056 -0.428201 0.440479
-2.890500 1.537530 -0.026770 1373 0.776075 -0.419138 0.476450
-2.892140 1.538400 -0.024270 1353 0.752480 -0.406619 0.512421
-2.893640 1.539200 -0.021760 1333 0.730895 -0.395109 0.548537
-2.894950 1.539890 -0.019260 1321 0.712048 -0.385180 0.584508
-2.896260 1.540590 -0.016750 1309 0.693198 -0.375108 0.620623
-2.898080 1.541560 -0.014240 1283 0.667009 -0.361151 0.656738
-2.900610 1.542900 -0.011730 1275 0.630609 -0.341872 0.692853
-2.902370 1.543840 -0.009210 1241 0.605285 -0.328345 0.729112
-2.904630 1.545040 -0.006690 1211 0.572767 -0.311080 0.765371
-2.907360 1.546490 -0.004170 1177 0.533485 -0.290217 0.801630
-2.910150 1.547970 -0.001640 1123 0.493341 -0.268921 0.838033
-2.915070 1.550590 0.000890 1067 0.422550 -0.231223 0.874436
-2.920570 1.553510 0.003430 993 0.343415 -0.189210 0.910983
-2.925160 1.555950 0.005980 861 0.277372 -0.154101 0.947673
-2.910910 1.551560 -0.118190 1129 0.482408 -0.217266 -0.838945
-2.906390 1.549150 -0.115470 1175 0.547443 -0.251943 -0.799809
-2.902530 1.547090 -0.112790 1209 0.602983 -0.281583 -0.761248
-2.900280 1.545890 -0.110180 1243 0.635356 -0.298850 -0.723694
-2.898600 1.544990 -0.107590 1267 0.659528 -0.311800 -0.686427
-2.897510 1.544410 -0.105030 1293 0.675212 -0.320145 -0.649593
-2.895580 1.543380 -0.102430 1313 0.702981 -0.334964 -0.612183
-2.893130 1.542070 -0.099830 1323 0.738233 -0.353813 -0.574773
-2.891970 1.541450 -0.097270 1349 0.754926 -0.362734 -0.537938
-2.891000 1.540940 -0.094720 1361 0.768881 -0.370072 -0.501248
-2.889650 1.540210 -0.092160 1375 0.788304 -0.380576 -0.464413
-2.888150 1.539420 -0.089600 1393 0.809889 -0.391943 -0.427579
-2.886980 1.538790 -0.087050 1403 0.826722 -0.401008 -0.390888
-2.886780 1.538680 -0.084530 1415 0.829601 -0.402591 -0.354629
-2.885680 1.538090 -0.081980 1419 0.845429 -0.411080 -0.317938
-2.884120 1.537260 -0.079430 1425 0.867875 -0.423021 -0.281248
-2.883140 1.536740 -0.076890 1425 0.881974 -0.430505 -0.244701
-2.881700 1.535970 -0.074350 1419 0.902694 -0.441584 -0.208154
-2.881230 1.535720 -0.071830 1441 0.909455 -0.445181 -0.171895
-2.882440 1.536360 -0.069350 1447 0.892046 -0.435972 -0.136212
-2.882490 1.536380 -0.066840 1459 0.891329 -0.435683 -0.100097
-2.882020 1.536140 -0.064320 1451 0.898090 -0.439138 -0.063838
-2.882320 1.536290 -0.061820 1461 0.893775 -0.436978 -0.027866
-2.882620 1.536450 -0.059320 1469 0.889456 -0.434677 0.008105
-2.882920 1.536610 -0.056810 1469 0.885140 -0.432375 0.044220
-2.882440 1.536350 -0.054300 1451 0.892046 -0.436116 0.080335
-2.882090 1.536170 -0.051780 1457 0.897082 -0.438706 0.116594
-2.882450 1.536360 -0.049280 1445 0.891902 -0.435972 0.152565
-2.882740 1.536510 -0.046780 1453 0.887730 -0.433814 0.188537
-2.883020 1.536660 -0.044270 1435 0.883703 -0.431656 0.224652
-2.883640 1.536990 -0.041770 1407 0.874780 -0.426906 0.260623
-2.884320 1.537350 -0.039270 1411 0.864996 -0.421726 0.296594
-2.885820 1.538150 -0.036780 1401 0.843415 -0.410217 0.332421
-2.886560 1.538550 -0.034280 1399 0.832767 -0.404461 0.368393
-2.886710 1.538620 -0.031770 1387 0.830609 -0.403454 0.404508
-2.887380 1.538980 -0.029260 1377 0.820970 -0.398274 0.440623
-2.888890 1.539780 -0.026770 1371 0.799241 -0.386763 0.476450
-2.890650 1.540720 -0.024270 1351 0.773917 -0.373238 0.512421
-2.891960 1.541420 -0.021760 1339 0.755070 -0.363166 0.548537
-2.894040 1.542530 -0.019260 1339 0.725139 -0.347196 0.584508
-2.895870 1.543500 -0.016750 1307 0.698810 -0.333239 0.620623
-2.897820 1.544540 -0.014240 1293 0.670752 -0.318273 0.656738
-2.899510 1.545440 -0.011730 1273 0.646437 -0.305325 0.692853
-2.901070 1.546270 -0.009210 1239 0.623988 -0.293382 0.729112
-2.903210 1.547410 -0.006690 1209 0.593199 -0.276979 0.765371
-2.906450 1.549130 -0.004170 1175 0.546579 -0.252231 0.801630
-2.909560 1.550790 -0.001640 1127 0.501832 -0.228347 0.838033
-2.913380 1.552820 0.000890 1069 0.446868 -0.199138 0.874436
-2.918490 1.555550 0.003430 995 0.373343 -0.159857 0.910983
-2.923520 1.558230 0.005980 861 0.300967 -0.121295 0.947673
-2.908590 1.553250 -0.118140 1121 0.515787 -0.192951 -0.838226
-2.904670 1.551160 -0.115450 1163 0.572191 -0.223023 -0.799521
-2.901900 1.549680 -0.112810 1203 0.612046 -0.244317 -0.761535
-2.900300 1.548820 -0.110230 1239 0.635068 -0.256691 -0.724413
-2.898360 1.547790 -0.107630 1273 0.662982 -0.271511 -0.687003
-2.895590 1.546310 -0.105000 1283 0.702837 -0.292807 -0.649161
-2.893280 1.545070 -0.102400 1305 0.736075 -0.310647 -0.611751
-2.891990 1.544380 -0.099830 1325 0.754638 -0.320577 -0.574773
-2.890430 1.543550 -0.097260 1345 0.777083 -0.332518 -0.537794
-2.888690 1.542610 -0.094680 1363 0.802119 -0.346043 -0.500672
-2.888170 1.542340 -0.092150 1381 0.809601 -0.349928 -0.464269
-2.886810 1.541610 -0.089590 1389 0.829168 -0.360432 -0.427435
-2.885520 1.540920 -0.087040 1397 0.847731 -0.370360 -0.390744
-2.885250 1.540770 -0.084520 1419 0.851614 -0.372518 -0.354485
-2.883750 1.539970 -0.081960 1421 0.873199 -0.384029 -0.317651
-2.882190 1.539140 -0.079410 1415 0.895644 -0.395972 -0.280960
-2.881990 1.539030 -0.076890 1423 0.898522 -0.397555 -0.244701
-2.882560 1.539330 -0.074400 1445 0.890320 -0.393238 -0.208874
-2.882350 1.539220 -0.071880 1445 0.893342 -0.394821 -0.172615
-2.881750 1.538900 -0.069360 1437 0.901973 -0.399425 -0.136356
-2.881160 1.538580 -0.066840 1447 0.910464 -0.404030 -0.100097
-2.880740 1.538360 -0.064320 1447 0.916508 -0.407195 -0.063838
-2.881170 1.538590 -0.061820 1461 0.910320 -0.403886 -0.027866
-2.881480 1.538750 -0.059320 1471 0.905860 -0.401583 0.008105
-2.880870 1.538420 -0.056800 1471 0.914635 -0.406332 0.044364
-2.880910 1.538440 -0.054290 1453 0.914063 -0.406044 0.080479
-2.881070 1.538530 -0.051780 1431 0.911761 -0.404749 0.116594
-2.881170 1.538580 -0.049280 1447 0.910320 -0.404030 0.152565
-2.882110 1.539080 -0.046780 1447 0.896793 -0.396835 0.188537
-2.883110 1.539620 -0.044290 1433 0.882406 -0.389065 0.224364
-2.883530 1.539840 -0.041790 1427 0.876365 -0.385900 0.260335
-2.883950 1.540060 -0.039280 1421 0.870320 -0.382734 0.296450
-2.884620 1.540420 -0.036780 1407 0.860681 -0.377554 0.332421
-2.884970 1.540600 -0.034270 1399 0.855645 -0.374966 0.368537
-2.885700 1.540990 -0.031770 1389 0.845141 -0.369353 0.404508
-2.886760 1.541560 -0.029270 1381 0.829889 -0.361151 0.440479
-2.888140 1.542290 -0.026770 1375 0.810033 -0.350649 0.476450
-2.889900 1.543230 -0.024270 1359 0.784709 -0.337122 0.512421
-2.890490 1.543550 -0.021760 1333 0.776219 -0.332518 0.548537
-2.891930 1.544320 -0.019250 1315 0.755499 -0.321440 0.584652
-2.894530 1.545700 -0.016750 1305 0.718089 -0.301584 0.620623
-2.896540 1.546780 -0.014240 1291 0.689170 -0.286044 0.656738
-2.899010 1.548100 -0.011730 1275 0.653631 -0.267051 0.692853
-2.901080 1.549200 -0.009210 1249 0.623847 -0.251223 0.729112
-2.903030 1.550240 -0.006690 1213 0.595789 -0.236259 0.765371
-2.905950 1.551800 -0.004170 1177 0.553773 -0.213813 0.801630
-2.909630 1.553760 -0.001640 1127 0.500823 -0.185611 0.838033
-2.913190 1.555660 0.000890 1079 0.449603 -0.158274 0.874436
-2.917070 1.557730 0.003430 983 0.393775 -0.128490 0.910983
-2.922820 1.560800 0.005980 869 0.311038 -0.084318 0.947673
-2.907510 1.555430 -0.118150 1111 0.531327 -0.161583 -0.838370
-2.904100 1.553600 -0.115480 1161 0.580393 -0.187915 -0.799953
-2.901400 1.552150 -0.112840 1209 0.619240 -0.208777 -0.761967
-2.899020 1.550880 -0.110220 1233 0.653486 -0.227052 -0.724269
-2.897490 1.550060 -0.107640 1269 0.675500 -0.238849 -0.687147
-2.895430 1.548960 -0.105040 1287 0.705139 -0.254677 -0.649737
-2.893300 1.547820 -0.102440 1299 0.735787 -0.271080 -0.612327
-2.892070 1.547160 -0.099870 1331 0.753485 -0.280576 -0.575348
-2.890850 1.546500 -0.097310 1349 0.771039 -0.290073 -0.538514
-2.889300 1.545670 -0.094740 1363 0.793340 -0.302015 -0.501535
-2.887360 1.544640 -0.092160 1371 0.821254 -0.316836 -0.464413
-2.885810 1.543810 -0.089600 1387 0.843559 -0.328778 -0.427579
-2.884320 1.543010 -0.087040 1393 0.864996 -0.340288 -0.390744
-2.882830 1.542210 -0.084480 1401 0.886437 -0.351799 -0.353910
-2.881590 1.541540 -0.081930 1409 0.904279 -0.361439 -0.317219
-2.881190 1.541330 -0.079410 1413 0.910032 -0.364461 -0.280960
-2.880800 1.541120 -0.076890 1427 0.915644 -0.367482 -0.244701
-2.880910 1.541180 -0.074390 1449 0.914063 -0.366619 -0.208730
-2.880900 1.541170 -0.071880 1441 0.914207 -0.366763 -0.172615
-2.880490 1.540950 -0.069360 1447 0.920104 -0.369930 -0.136356
-2.880410 1.540910 -0.066850 1449 0.921256 -0.370504 -0.100240
-2.879870 1.540620 -0.064320 1447 0.929026 -0.374677 -0.063838
-2.879340 1.540330 -0.061800 1445 0.936652 -0.378849 -0.027579
-2.879890 1.540630 -0.059310 1455 0.928738 -0.374533 0.008249
-2.880060 1.540720 -0.056800 1463 0.926292 -0.373238 0.044364
-2.879770 1.540560 -0.054290 1453 0.930464 -0.375540 0.080479
-2.880000 1.540680 -0.051790 1437 0.927153 -0.373813 0.116450
-2.879650 1.540490 -0.049270 1429 0.932189 -0.376547 0.152709
-2.880140 1.540760 -0.046770 1431 0.925140 -0.372662 0.188680
-2.881720 1.541600 -0.044290 1429 0.902406 -0.360576 0.224364
-2.882650 1.542100 -0.041790 1443 0.889027 -0.353383 0.260335
-2.883010 1.542290 -0.039290 1419 0.883847 -0.350649 0.296306
-2.884060 1.542850 -0.036790 1417 0.868739 -0.342590 0.332278
-2.884480 1.543070 -0.034280 1407 0.862695 -0.339426 0.368393
-2.884370 1.543010 -0.031770 1377 0.864276 -0.340288 0.404508
-2.885750 1.543750 -0.029270 1381 0.844420 -0.329640 0.440479
-2.887580 1.544730 -0.026770 1375 0.818091 -0.315541 0.476450
-2.888960 1.545460 -0.024270 1351 0.798236 -0.305037 0.512421
-2.890590 1.546330 -0.021770 1333 0.774781 -0.292519 0.548393
-2.892470 1.547340 -0.019260 1323 0.747732 -0.277986 0.584508
-2.893780 1.548040 -0.016750 1309 0.728882 -0.267914 0.620623
-2.895400 1.548910 -0.014240 1295 0.705571 -0.255396 0.656738
-2.897100 1.549810 -0.011730 1259 0.681112 -0.242446 0.692853
-2.899560 1.551130 -0.009210 1245 0.645716 -0.223453 0.729112
-2.902210 1.552550 -0.006690 1215 0.607587 -0.203023 0.765371
-2.905250 1.554170 -0.004170 1175 0.563845 -0.179713 0.801630
-2.908550 1.555940 -0.001640 1129 0.516363 -0.154245 0.838033
-2.912300 1.557940 0.000890 1065 0.462405 -0.125468 0.874436
-2.916760 1.560330 0.003430 985 0.398235 -0.091079 0.910983
-2.921800 1.563030 0.005980 853 0.325718 -0.052231 0.947673
-2.908280 1.558630 -0.118220 1113 0.520250 -0.115540 -0.839377
-2.904360 1.556530 -0.115530 1157 0.576651 -0.145756 -0.800672
-2.900560 1.554500 -0.112850 1197 0.631329 -0.174965 -0.762111
-2.896960 1.552560 -0.110190 1225 0.683126 -0.202879 -0.723838
-2.894780 1.551390 -0.107580 1253 0.714494 -0.219712 -0.686284
-2.894200 1.551080 -0.105030 1289 0.722837 -0.224174 -0.649593
-2.893110 1.550490 -0.102470 1305 0.738521 -0.232662 -0.612758
-2.891760 1.549770 -0.099900 1329 0.757945 -0.243022 -0.575780
-2.889180 1.548390 -0.097290 1347 0.795069 -0.262878 -0.538226
-2.886980 1.547210 -0.094700 1347 0.826722 -0.279857 -0.500960
-2.886600 1.547000 -0.092170 1371 0.832191 -0.282878 -0.464557
-2.885880 1.546620 -0.089640 1391 0.842551 -0.288346 -0.428154
-2.884450 1.545850 -0.087080 1387 0.863127 -0.299425 -0.391320
-2.882770 1.544940 -0.084510 1401 0.887298 -0.312519 -0.354341
-2.881470 1.544250 -0.081960 1399 0.906004 -0.322447 -0.317651
-2.881520 1.544270 -0.079450 1407 0.905284 -0.322158 -0.281535
-2.880420 1.543680 -0.076910 1429 0.921112 -0.330649 -0.244989
-2.879700 1.543290 -0.074380 1441 0.931472 -0.336259 -0.208586
-2.879550 1.543220 -0.071870 1425 0.933630 -0.337266 -0.172471
-2.878830 1.542830 -0.069340 1427 0.943990 -0.342879 -0.136068
-2.878290 1.542540 -0.066820 1459 0.951760 -0.347052 -0.099809
-2.878530 1.542660 -0.064320 1447 0.948306 -0.345324 -0.063838
-2.878960 1.542890 -0.061820 1455 0.942120 -0.342016 -0.027866
-2.878540 1.542670 -0.059300 1449 0.948162 -0.345180 0.008393
-2.878910 1.542870 -0.056800 1451 0.942837 -0.342302 0.044364
-2.879270 1.543060 -0.054300 1453 0.937657 -0.339570 0.080335
-2.879570 1.543210 -0.051800 1443 0.933342 -0.337410 0.116306
-2.880050 1.543470 -0.049300 1447 0.926436 -0.333669 0.152278
-2.880280 1.543590 -0.046790 1445 0.923126 -0.331944 0.188393
-2.880830 1.543890 -0.044290 1439 0.915212 -0.327627 0.224364
-2.881180 1.544080 -0.041790 1429 0.910176 -0.324892 0.260335
-2.881990 1.544510 -0.039290 1423 0.898522 -0.318706 0.296306
-2.882390 1.544720 -0.036780 1405 0.892766 -0.315683 0.332421
-2.882490 1.544770 -0.034270 1395 0.891329 -0.314965 0.368537
-2.883990 1.545580 -0.031780 1385 0.869744 -0.303310 0.404364
-2.885560 1.546420 -0.029280 1381 0.847154 -0.291224 0.440335
-2.886750 1.547050 -0.026780 1367 0.830033 -0.282159 0.476306
-2.888250 1.547860 -0.024280 1357 0.808448 -0.270504 0.512278
-2.888910 1.548210 -0.021760 1333 0.798953 -0.265468 0.548537
-2.890350 1.548980 -0.019260 1319 0.778233 -0.254389 0.584508
-2.892300 1.550020 -0.016750 1299 0.750178 -0.239425 0.620623
-2.894700 1.551310 -0.014240 1285 0.715643 -0.220865 0.656738
-2.897030 1.552560 -0.011730 1275 0.682117 -0.202879 0.692853
-2.899110 1.553670 -0.009210 1243 0.652190 -0.186906 0.729112
-2.901120 1.554750 -0.006690 1215 0.623271 -0.171368 0.765371
-2.903840 1.556200 -0.004170 1167 0.584132 -0.150504 0.801630
-2.907720 1.558280 -0.001640 1115 0.528305 -0.120576 0.838033
-2.911850 1.560500 0.000890 1051 0.468882 -0.088633 0.874436
-2.916500 1.562990 0.003440 965 0.401974 -0.052807 0.911126
-2.907470 1.561390 -0.118250 1095 0.531903 -0.075827 -0.839809
-2.903810 1.559420 -0.115560 1135 0.584565 -0.104173 -0.801104
-2.900400 1.557590 -0.112900 1195 0.633631 -0.130504 -0.762830
-2.897900 1.556240 -0.110270 1229 0.669599 -0.149929 -0.724989
-2.895900 1.555170 -0.107670 1261 0.698378 -0.165324 -0.687579
-2.893530 1.553890 -0.105060 1283 0.732480 -0.183742 -0.650025
-2.891720 1.552920 -0.102470 1299 0.758521 -0.197699 -0.612758
-2.890180 1.552090 -0.099890 1319 0.780679 -0.209640 -0.575636
-2.888440 1.551160 -0.097310 1329 0.805718 -0.223023 -0.538514
-2.887540 1.550670 -0.094770 1359 0.818664 -0.230072 -0.501967
-2.886310 1.550010 -0.092210 1373 0.836362 -0.239570 -0.465133
-2.884370 1.548970 -0.089630 1369 0.864276 -0.254533 -0.428010
-2.882240 1.547820 -0.087050 1381 0.894924 -0.271080 -0.390888
-2.881580 1.547470 -0.084520 1391 0.904419 -0.276116 -0.354485
-2.881060 1.547180 -0.081990 1403 0.911905 -0.280288 -0.318082
-2.879830 1.546520 -0.079440 1411 0.929603 -0.289785 -0.281392
-2.879560 1.546370 -0.076930 1419 0.933486 -0.291943 -0.245276
-2.879090 1.546120 -0.074400 1419 0.940247 -0.295540 -0.208874
-2.878500 1.545800 -0.071880 1427 0.948738 -0.300145 -0.172615
-2.878290 1.545690 -0.069360 1417 0.951760 -0.301728 -0.136356
-2.878010 1.545540 -0.066850 1447 0.955787 -0.303886 -0.100240
-2.878050 1.545560 -0.064340 1457 0.955211 -0.303598 -0.064125
-2.879070 1.546110 -0.061850 1463 0.940536 -0.295684 -0.028298
-2.879240 1.546200 -0.059350 1461 0.938090 -0.294389 0.007673
-2.878820 1.545970 -0.056830 1447 0.944134 -0.297699 0.043932
-2.877960 1.545510 -0.054300 1449 0.956508 -0.304316 0.080335
-2.878250 1.545660 -0.051800 1451 0.952336 -0.302159 0.116306
-2.878810 1.545960 -0.049300 1435 0.944278 -0.297843 0.152278
-2.878960 1.546040 -0.046790 1423 0.942120 -0.296690 0.188393
-2.879900 1.546550 -0.044300 1425 0.928594 -0.289353 0.224220
-2.880830 1.547040 -0.041800 1427 0.915212 -0.282303 0.260191
