59
-30.318007 -25.548801 -0.193334 1099 1.089823 -0.237142 -0.167884
-30.315096 -25.546293 -0.181141 1115 1.131703 -0.201054 0.007555
-30.315161 -25.546284 -0.168972 1097 1.130770 -0.200917 0.182648
-30.319473 -25.549852 -0.156816 1077 1.068719 -0.252264 0.357555
-30.321022 -25.535564 -0.205534 1131 1.046435 -0.046682 -0.343424
-30.317625 -25.532640 -0.193345 1183 1.095312 -0.004611 -0.168042
-30.315847 -25.531076 -0.181165 1185 1.120890 0.017893 0.007210
-30.316011 -25.531162 -0.168994 1173 1.118530 0.016658 0.182332
-30.320118 -25.534554 -0.156841 1147 1.059443 -0.032137 0.357195
-30.325823 -25.539295 -0.144687 1089 0.977358 -0.100362 0.532073
-30.328194 -25.525835 -0.217761 1131 0.943246 0.093309 -0.519352
-30.322498 -25.520975 -0.205554 1193 1.025193 0.163236 -0.343711
-30.321169 -25.519794 -0.193372 1217 1.044321 0.180224 -0.168431
-30.320786 -25.519405 -0.181204 1237 1.049838 0.185822 0.006648
-30.321058 -25.519581 -0.169033 1219 1.045913 0.183298 0.181771
-30.322191 -25.520472 -0.156867 1205 1.029611 0.170481 0.356821
-30.326616 -25.524134 -0.144710 1177 0.965942 0.117789 0.531742
-30.337475 -25.533213 -0.132576 1053 0.809704 -0.012844 0.706332
-30.334480 -25.515284 -0.217802 1153 0.852791 0.245129 -0.519942
-30.329794 -25.511280 -0.205599 1221 0.920220 0.302733 -0.344359
-30.327740 -25.509495 -0.193421 1251 0.949777 0.328421 -0.169136
-30.325792 -25.507788 -0.181242 1271 0.977798 0.352983 0.006102
-30.325111 -25.507160 -0.169067 1255 0.987595 0.362012 0.181282
-30.328144 -25.509647 -0.156909 1217 0.943959 0.326225 0.356217
-30.332676 -25.513397 -0.144763 1185 0.878753 0.272271 0.530979
-30.339560 -25.519129 -0.132613 1101 0.779708 0.189802 0.705799
-30.340866 -25.504524 -0.217844 1169 0.760909 0.399939 -0.520546
-30.336123 -25.500481 -0.205652 1229 0.829162 0.458120 -0.345121
-30.333160 -25.497923 -0.193459 1261 0.871782 0.494923 -0.169683
-30.332659 -25.497440 -0.181292 1283 0.879000 0.501866 0.005382
-30.333179 -25.497822 -0.169119 1259 0.871507 0.496377 0.180533
-30.333683 -25.498184 -0.156956 1213 0.864262 0.491163 0.355540
-30.338221 -25.501942 -0.144800 1187 0.798973 0.437098 0.530447
-30.346624 -25.508940 -0.132660 1111 0.678056 0.336407 0.705123
-30.350254 -25.495962 -0.217910 1155 0.625830 0.523135 -0.521496
-30.344610 -25.491167 -0.205703 1217 0.707036 0.592129 -0.345855
-30.341148 -25.488194 -0.193514 1259 0.756847 0.634914 -0.170474
-30.340534 -25.487617 -0.181348 1257 0.765684 0.643202 0.004576
-30.341116 -25.488041 -0.169175 1249 0.757313 0.637109 0.179728
-30.343184 -25.489729 -0.157012 1223 0.727564 0.612822 0.354735
-30.348619 -25.494234 -0.144861 1169 0.649349 0.547999 0.529569
-30.354994 -25.499529 -0.132714 1081 0.557632 0.471815 0.704346
-30.361841 -25.489569 -0.217982 1117 0.459108 0.615127 -0.522531
-30.357597 -25.485939 -0.205787 1169 0.520171 0.667352 -0.347064
-30.352390 -25.481514 -0.193588 1215 0.595093 0.731022 -0.171539
-30.350941 -25.480236 -0.181406 1241 0.615950 0.749410 0.003742
-30.352402 -25.481405 -0.169248 1221 0.594928 0.732587 0.178677
-30.354706 -25.483276 -0.157085 1195 0.561776 0.705664 0.353684
-30.358574 -25.486467 -0.144922 1149 0.506120 0.659751 0.528691
-30.365522 -25.492231 -0.132771 1043 0.406142 0.576815 0.703526
-30.368513 -25.479282 -0.205851 1121 0.363110 0.763132 -0.347985
-30.365286 -25.476519 -0.193660 1163 0.409545 0.802898 -0.172575
-30.364332 -25.475664 -0.181486 1191 0.423267 0.815193 0.002591
-30.366133 -25.477114 -0.169325 1173 0.397360 0.794335 0.177569
-30.369055 -25.479496 -0.157158 1141 0.355316 0.760058 0.352634
-30.372643 -25.482452 -0.144997 1069 0.303694 0.717520 0.527612
-30.380489 -25.473713 -0.181577 1099 0.190790 0.843268 0.001281
-30.380785 -25.473900 -0.169405 1085 0.186536 0.840578 0.176418
-30.381628 -25.474541 -0.157231 1053 0.174406 0.831357 0.351584
