767
-1.590950 -1.187233 -0.162658 1479 0.375146 0.859454 -0.097777
-1.590985 -1.187251 -0.162048 1477 0.374643 0.859195 -0.089000
-1.591315 -1.187498 -0.161466 1483 0.369894 0.855641 -0.080626
-1.591245 -1.187437 -0.160846 1481 0.370900 0.856518 -0.071705
-1.591814 -1.187856 -0.160284 1483 0.362714 0.850491 -0.063619
-1.592193 -1.188138 -0.159702 1485 0.357261 0.846432 -0.055245
-1.591771 -1.187820 -0.159055 1487 0.363333 0.851009 -0.045935
-1.591455 -1.187580 -0.158407 1497 0.367880 0.854461 -0.036612
-1.591146 -1.187347 -0.157768 1487 0.372326 0.857813 -0.027417
-1.590717 -1.187021 -0.157110 1475 0.378499 0.862504 -0.017950
-1.590752 -1.187053 -0.156500 1471 0.377995 0.862044 -0.009173
-1.591426 -1.187550 -0.155956 1483 0.368297 0.854894 -0.001346
-1.591180 -1.187368 -0.155317 1477 0.371837 0.857511 0.007849
-1.590744 -1.187035 -0.154659 1467 0.378110 0.862303 0.017316
-1.590906 -1.187153 -0.154070 1465 0.375779 0.860605 0.025791
-1.591355 -1.187478 -0.153486 1469 0.369319 0.855930 0.034194
-1.591271 -1.187417 -0.152868 1467 0.370526 0.856806 0.043086
-1.590961 -1.187184 -0.152229 1471 0.374988 0.860159 0.052280
-1.591411 -1.187510 -0.151657 1477 0.368513 0.855468 0.060511
-1.591495 -1.187578 -0.151056 1473 0.367304 0.854490 0.069158
-1.591234 -1.187381 -0.150417 1469 0.371060 0.857324 0.078352
-1.591396 -1.187499 -0.149816 1469 0.368729 0.855626 0.087000
-1.591782 -1.187775 -0.149235 1469 0.363175 0.851655 0.095359
-1.592351 -1.188194 -0.148672 1473 0.354988 0.845626 0.103460
-1.592266 -1.188133 -0.148052 1473 0.356211 0.846504 0.112381
-1.592358 -1.188193 -0.147453 1469 0.354887 0.845642 0.121000
-1.592688 -1.188440 -0.146860 1461 0.350139 0.842088 0.129532
-1.593011 -1.188680 -0.146278 1467 0.345491 0.838633 0.137906
-1.593109 -1.188748 -0.145679 1467 0.344081 0.837655 0.146525
-1.593488 -1.189031 -0.145097 1473 0.338628 0.833583 0.154899
-1.594352 -1.189665 -0.144552 1479 0.326196 0.824462 0.162741
-1.594963 -1.190126 -0.143989 1485 0.317405 0.817829 0.170842
-1.594478 -1.189757 -0.143331 1475 0.324383 0.823138 0.180309
-1.593691 -1.189167 -0.142656 1465 0.335707 0.831626 0.190021
-1.593550 -1.189062 -0.142027 1459 0.337736 0.833137 0.199072
-1.593360 -1.188908 -0.141397 1459 0.340470 0.835354 0.208136
-1.593444 -1.188976 -0.140796 1459 0.339261 0.834374 0.216784
-1.594182 -1.189524 -0.140243 1455 0.328642 0.826489 0.224741
-1.594512 -1.189757 -0.139652 1457 0.323894 0.823138 0.233244
-1.595474 -1.190476 -0.139118 1461 0.310052 0.812793 0.240928
-1.595797 -1.190716 -0.138536 1461 0.305406 0.809338 0.249302
-1.595249 -1.190297 -0.137878 1457 0.313289 0.815368 0.258769
-1.595804 -1.190716 -0.137306 1451 0.305304 0.809338 0.267000
-1.596478 -1.191213 -0.136743 1447 0.295606 0.802188 0.275101
-1.596689 -1.191367 -0.136152 1441 0.292570 0.799972 0.283604
-1.597082 -1.191650 -0.135559 1439 0.286915 0.795900 0.292137
-1.597461 -1.191933 -0.134977 1443 0.281463 0.791828 0.300511
-1.597433 -1.191915 -0.134369 1435 0.281866 0.792087 0.309259
-1.597643 -1.192069 -0.133768 1431 0.278843 0.789870 0.317906
-1.597966 -1.192308 -0.133175 1435 0.274197 0.786433 0.326439
-1.598170 -1.192455 -0.132574 1437 0.271260 0.784317 0.335086
-1.598092 -1.192387 -0.131956 1429 0.272384 0.785296 0.343978
-1.598296 -1.192534 -0.131353 1425 0.269447 0.783181 0.352654
-1.598731 -1.192859 -0.130771 1421 0.263188 0.778504 0.361029
-1.598829 -1.192927 -0.130171 1413 0.261778 0.777526 0.369662
-1.598920 -1.192988 -0.129560 1411 0.260470 0.776648 0.378453
-1.599251 -1.193235 -0.128969 1413 0.255706 0.773094 0.386957
-1.599686 -1.193561 -0.128387 1411 0.249448 0.768404 0.395331
-1.599826 -1.193657 -0.127786 1403 0.247434 0.767022 0.403978
-1.600100 -1.193861 -0.127186 1399 0.243491 0.764087 0.412611
-1.600718 -1.194316 -0.126613 1399 0.234599 0.757540 0.420856
-1.600978 -1.194505 -0.126022 1391 0.230858 0.754821 0.429359
-1.601006 -1.194530 -0.125412 1383 0.230455 0.754461 0.438136
-1.601392 -1.194806 -0.124819 1377 0.224901 0.750490 0.446669
-1.602185 -1.195397 -0.124265 1367 0.213491 0.741986 0.454640
-1.602501 -1.195629 -0.123665 1361 0.208944 0.738648 0.463273
-1.602705 -1.195776 -0.123064 1357 0.206009 0.736533 0.471921
-1.603147 -1.196109 -0.122480 1363 0.199649 0.731741 0.480323
-1.603526 -1.196391 -0.121889 1359 0.194196 0.727684 0.488827
-1.604144 -1.196846 -0.121317 1353 0.185304 0.721137 0.497057
-1.604763 -1.197300 -0.120743 1351 0.176397 0.714606 0.505316
-1.604790 -1.197325 -0.120132 1343 0.176010 0.714245 0.514108
-1.605113 -1.197551 -0.119531 1331 0.171361 0.710993 0.522755
-1.606188 -1.198356 -0.118995 1323 0.155893 0.699410 0.530467
-1.606982 -1.198947 -0.118433 1319 0.144470 0.690908 0.538554
-1.607895 -1.199616 -0.117878 1313 0.131333 0.681282 0.546539
-1.608386 -1.199985 -0.117286 1309 0.124268 0.675972 0.555057
-1.608646 -1.200174 -0.116684 1303 0.120527 0.673253 0.563719
-1.609377 -1.200715 -0.116121 1299 0.110009 0.665469 0.571820
-1.609812 -1.201041 -0.115530 1283 0.103750 0.660778 0.580323
-1.610198 -1.201316 -0.114937 1267 0.098196 0.656821 0.588856
-1.611104 -1.201993 -0.114383 1261 0.085160 0.647080 0.596827
-1.612193 -1.202798 -0.113828 1257 0.069491 0.635497 0.604813
-1.612909 -1.203338 -0.113254 1249 0.059190 0.627727 0.613072
-1.613639 -1.203879 -0.112680 1239 0.048685 0.619943 0.621331
-1.614482 -1.204505 -0.112118 1231 0.036555 0.610936 0.629417
-1.614932 -1.204831 -0.111524 1219 0.030082 0.606245 0.637964
-1.615894 -1.205550 -0.110969 1207 0.016240 0.595901 0.645949
-1.616681 -1.206134 -0.110397 1189 0.004916 0.587498 0.654180
-1.618900 -1.207773 -0.109297 1145 -0.027012 0.563915 0.670007
-1.619448 -1.208185 -0.108703 1117 -0.034897 0.557987 0.678554
-1.619707 -1.208374 -0.108103 1095 -0.038624 0.555267 0.687187
-1.616740 -1.205904 -0.211969 1113 0.004067 0.590806 -0.807288
-1.614267 -1.204058 -0.209781 1167 0.039650 0.617367 -0.775806
-1.612925 -1.203044 -0.208988 1185 0.058958 0.631957 -0.764396
-1.611463 -1.201952 -0.208185 1203 0.079995 0.647670 -0.752842
-1.608990 -1.200110 -0.206636 1223 0.115578 0.674174 -0.730554
-1.608695 -1.199877 -0.205969 1235 0.119822 0.677526 -0.720957
-1.607978 -1.199343 -0.205261 1241 0.130139 0.685210 -0.710770
-1.607205 -1.198767 -0.204546 1247 0.141260 0.693498 -0.700482
-1.606741 -1.198419 -0.203867 1257 0.147938 0.698505 -0.690713
-1.607078 -1.198659 -0.203285 1271 0.143089 0.695052 -0.682338
-1.605961 -1.197831 -0.202532 1285 0.159161 0.706964 -0.671504
-1.604373 -1.196638 -0.201719 1289 0.182009 0.724130 -0.659806
-1.604071 -1.196412 -0.201061 1287 0.186354 0.727382 -0.650338
-1.604071 -1.196409 -0.200441 1299 0.186354 0.727425 -0.641418
-1.603888 -1.196262 -0.199800 1313 0.188987 0.729540 -0.632195
-1.603529 -1.195993 -0.199133 1323 0.194153 0.733412 -0.622597
-1.603164 -1.195717 -0.198475 1335 0.199405 0.737382 -0.613130
-1.602096 -1.194925 -0.197729 1335 0.214772 0.748778 -0.602396
-1.600873 -1.194005 -0.196956 1339 0.232369 0.762015 -0.591274
-1.600149 -1.193464 -0.196258 1341 0.242786 0.769799 -0.581230
-1.600374 -1.193632 -0.195667 1351 0.239549 0.767382 -0.572727
-1.600550 -1.193750 -0.195068 1363 0.237016 0.765684 -0.564108
-1.600535 -1.193746 -0.194446 1375 0.237232 0.765742 -0.555158
-1.600345 -1.193592 -0.193807 1383 0.239966 0.767958 -0.545964
-1.600155 -1.193452 -0.193168 1391 0.242700 0.769972 -0.536770
-1.599797 -1.193183 -0.192501 1397 0.247851 0.773843 -0.527173
-1.599207 -1.192735 -0.191814 1399 0.256339 0.780289 -0.517288
-1.598961 -1.192553 -0.191175 1403 0.259880 0.782907 -0.508094
-1.598834 -1.192449 -0.190536 1401 0.261706 0.784404 -0.498900
-1.598293 -1.192051 -0.189857 1399 0.269492 0.790129 -0.489130
-1.597400 -1.191381 -0.189142 1397 0.282341 0.799771 -0.478842
-1.596979 -1.191062 -0.188474 1397 0.288397 0.804361 -0.469231
-1.596388 -1.190615 -0.187797 1407 0.296901 0.810791 -0.459489
-1.596318 -1.190554 -0.187168 1415 0.297908 0.811669 -0.450439
-1.596479 -1.190672 -0.186567 1423 0.295591 0.809971 -0.441792
-1.596290 -1.190532 -0.185928 1427 0.298311 0.811987 -0.432597
-1.596114 -1.190392 -0.185299 1429 0.300843 0.814000 -0.423547
-1.595453 -1.189901 -0.184602 1423 0.310354 0.821066 -0.413518
-1.594968 -1.189532 -0.183935 1425 0.317333 0.826374 -0.403921
-1.595600 -1.190001 -0.183391 1435 0.308239 0.819627 -0.396094
-1.595642 -1.190026 -0.182781 1435 0.307635 0.819266 -0.387317
-1.594869 -1.189449 -0.182075 1433 0.318757 0.827570 -0.377158
-1.594792 -1.189395 -0.181455 1433 0.319865 0.828347 -0.368238
-1.594784 -1.189384 -0.180835 1445 0.319980 0.828505 -0.359317
-1.594244 -1.188973 -0.180168 1443 0.327750 0.834419 -0.349720
-1.593766 -1.188611 -0.179500 1437 0.334628 0.839626 -0.340108
-1.593281 -1.188256 -0.178833 1435 0.341606 0.844734 -0.330511
-1.593154 -1.188152 -0.178203 1439 0.343434 0.846232 -0.321446
-1.593547 -1.188449 -0.177631 1449 0.337779 0.841957 -0.313216
-1.593470 -1.188381 -0.177002 1453 0.338887 0.842937 -0.304166
-1.593392 -1.188327 -0.176382 1453 0.340009 0.843714 -0.295245
-1.593617 -1.188481 -0.175791 1455 0.336772 0.841498 -0.286741
-1.593427 -1.188341 -0.175152 1457 0.339506 0.843511 -0.277547
-1.593181 -1.188159 -0.174513 1463 0.343045 0.846130 -0.268353
-1.593047 -1.188047 -0.173883 1469 0.344973 0.847741 -0.259288
-1.593026 -1.188036 -0.173263 1471 0.345275 0.847901 -0.250367
-1.593187 -1.188155 -0.172672 1475 0.342959 0.846187 -0.241864
-1.591290 -1.186729 -0.171242 1455 0.370254 0.866706 -0.221288
-1.591852 -1.187141 -0.170688 1459 0.362168 0.860779 -0.213317
-1.592365 -1.187517 -0.170128 1469 0.354786 0.855367 -0.205259
-1.592400 -1.187549 -0.169517 1475 0.354283 0.854907 -0.196468
-1.592498 -1.187617 -0.168916 1469 0.352873 0.853930 -0.187820
-1.592188 -1.187384 -0.168268 1465 0.357333 0.857281 -0.178497
-1.591767 -1.187065 -0.167610 1467 0.363391 0.861871 -0.169029
-1.591584 -1.186918 -0.166981 1471 0.366024 0.863986 -0.159979
-1.591148 -1.186599 -0.166322 1471 0.372297 0.868576 -0.150497
-1.591134 -1.186581 -0.165703 1467 0.372499 0.868835 -0.141590
-1.591050 -1.186520 -0.165083 1463 0.373707 0.869713 -0.132669
-1.590684 -1.186244 -0.164434 1465 0.378972 0.873684 -0.123331
-1.590845 -1.186362 -0.163833 1469 0.376657 0.871986 -0.114684
-1.591878 -1.187125 -0.163330 1479 0.361792 0.861008 -0.107446
-1.592088 -1.187279 -0.162729 1481 0.358772 0.858792 -0.098799
-1.591955 -1.187168 -0.162109 1479 0.360686 0.860389 -0.089878
-1.592404 -1.187508 -0.161537 1479 0.354225 0.855497 -0.081648
-1.592207 -1.187361 -0.160898 1479 0.357060 0.857612 -0.072454
-1.592481 -1.187551 -0.160316 1477 0.353117 0.854878 -0.064079
-1.592572 -1.187626 -0.159706 1479 0.351808 0.853799 -0.055302
-1.592277 -1.187393 -0.159067 1479 0.356052 0.857153 -0.046108
-1.592600 -1.187633 -0.158485 1491 0.351405 0.853698 -0.037734
-1.592347 -1.187443 -0.157846 1485 0.355045 0.856432 -0.028540
-1.591623 -1.186902 -0.157160 1475 0.365463 0.864216 -0.018669
-1.591489 -1.186791 -0.156542 1475 0.367391 0.865815 -0.009777
-1.591876 -1.187081 -0.155960 1475 0.361822 0.861641 -0.001403
-1.592086 -1.187235 -0.155369 1467 0.358801 0.859425 0.007100
-1.592241 -1.187346 -0.154768 1465 0.356570 0.857828 0.015748
-1.592226 -1.187328 -0.154157 1461 0.356786 0.858087 0.024539
-1.592444 -1.187489 -0.153557 1465 0.353650 0.855770 0.033172
-1.592184 -1.187292 -0.152918 1465 0.357391 0.858605 0.042367
-1.591629 -1.186880 -0.152260 1465 0.365376 0.864533 0.051834
-1.592022 -1.187162 -0.151678 1477 0.359722 0.860475 0.060208
-1.592703 -1.187667 -0.151125 1477 0.349923 0.853209 0.068165
-1.592267 -1.187348 -0.150478 1471 0.356196 0.857799 0.077474
-1.592134 -1.187237 -0.149849 1469 0.358110 0.859396 0.086525
-1.592576 -1.187570 -0.149276 1469 0.351750 0.854605 0.094769
-1.592843 -1.187767 -0.148685 1471 0.347908 0.851770 0.103273
-1.593461 -1.188222 -0.148132 1473 0.339016 0.845223 0.111230
-1.593264 -1.188075 -0.147503 1463 0.341851 0.847340 0.120280
-1.592842 -1.187756 -0.146845 1457 0.347923 0.851930 0.129748
-1.593573 -1.188296 -0.146301 1461 0.337405 0.844160 0.137575
-1.594310 -1.188844 -0.145748 1471 0.326800 0.836275 0.145532
-1.594577 -1.189041 -0.145157 1471 0.322959 0.833439 0.154036
-1.595251 -1.189539 -0.144603 1473 0.313261 0.826275 0.162007
-1.595708 -1.189872 -0.144022 1479 0.306685 0.821482 0.170367
-1.595152 -1.189459 -0.143364 1473 0.314685 0.827426 0.179834
-1.594077 -1.188647 -0.142658 1457 0.330153 0.839108 0.189993
-1.593712 -1.188371 -0.142011 1451 0.335405 0.843081 0.199302
-1.594442 -1.188911 -0.141456 1457 0.324901 0.835311 0.207288
-1.594878 -1.189237 -0.140884 1455 0.318628 0.830619 0.215518
-1.594976 -1.189305 -0.140274 1455 0.317218 0.829642 0.224295
-1.595186 -1.189459 -0.139684 1457 0.314196 0.827426 0.232784
-1.596036 -1.190092 -0.139139 1463 0.301967 0.818318 0.240626
-1.596535 -1.190454 -0.138567 1457 0.294787 0.813109 0.248856
-1.596338 -1.190307 -0.137937 1449 0.297620 0.815223 0.257921
-1.596246 -1.190239 -0.137308 1441 0.298944 0.816203 0.266971
-1.596176 -1.190178 -0.136688 1437 0.299951 0.817079 0.275892
-1.596380 -1.190325 -0.136099 1435 0.297016 0.814964 0.284367
-1.597286 -1.191001 -0.135553 1435 0.283981 0.805237 0.292223
-1.598079 -1.191592 -0.135000 1439 0.272571 0.796735 0.300180
-1.598114 -1.191610 -0.134390 1433 0.272066 0.796476 0.308957
-1.598269 -1.191721 -0.133789 1431 0.269837 0.794879 0.317604
-1.598823 -1.192139 -0.133217 1433 0.261866 0.788864 0.325834
-1.599146 -1.192365 -0.132625 1433 0.257218 0.785612 0.334352
-1.598949 -1.192218 -0.131996 1425 0.260053 0.787728 0.343403
-1.599265 -1.192451 -0.131405 1417 0.255506 0.784375 0.351906
-1.599652 -1.192741 -0.130823 1415 0.249936 0.780202 0.360280
-1.599855 -1.192887 -0.130222 1409 0.247017 0.778102 0.368928
-1.599890 -1.192905 -0.129612 1405 0.246513 0.777843 0.377705
-1.600101 -1.193059 -0.129011 1407 0.243477 0.775627 0.386352
-1.600599 -1.193435 -0.128427 1407 0.236311 0.770217 0.394755
-1.601217 -1.193889 -0.127855 1401 0.227419 0.763684 0.402985
-1.601835 -1.194344 -0.127292 1393 0.218527 0.757137 0.411086
-1.602039 -1.194491 -0.126692 1393 0.215592 0.755022 0.419719
-1.602179 -1.194601 -0.126081 1387 0.213577 0.753439 0.428510
-1.602685 -1.194970 -0.125507 1377 0.206297 0.748130 0.436770
-1.602944 -1.195160 -0.124906 1371 0.202570 0.745396 0.445417
-1.602923 -1.195135 -0.124286 1363 0.202872 0.745756 0.454338
-1.603063 -1.195245 -0.123686 1359 0.200858 0.744173 0.462971
-1.603330 -1.195442 -0.123085 1355 0.197016 0.741339 0.471618
-1.604412 -1.196240 -0.122549 1357 0.181449 0.729858 0.479331
-1.605262 -1.196874 -0.121996 1357 0.169217 0.720734 0.487287
-1.605578 -1.197106 -0.121395 1351 0.164672 0.717396 0.495935
-1.606020 -1.197425 -0.120811 1345 0.158312 0.712806 0.504338
-1.606462 -1.197758 -0.120220 1339 0.151952 0.708016 0.512841
-1.606673 -1.197912 -0.119619 1325 0.148916 0.705800 0.521489
-1.607284 -1.198359 -0.119047 1317 0.140125 0.699367 0.529719
-1.608134 -1.198993 -0.118482 1311 0.127894 0.690246 0.537849
-1.609096 -1.199712 -0.117937 1309 0.114052 0.679899 0.545690
-1.609243 -1.199816 -0.117326 1299 0.111937 0.678404 0.554482
-1.609215 -1.199784 -0.116707 1293 0.112340 0.678863 0.563388
-1.610234 -1.200546 -0.116152 1289 0.097678 0.667900 0.571374
-1.610852 -1.201000 -0.115579 1275 0.088786 0.661368 0.579618
-1.611168 -1.201233 -0.114977 1265 0.084239 0.658015 0.588280
-1.611786 -1.201688 -0.114404 1255 0.075347 0.651468 0.596525
-1.612804 -1.202450 -0.113849 1251 0.060699 0.640504 0.604511
-1.614181 -1.203463 -0.113323 1243 0.040886 0.625929 0.612079
-1.615199 -1.204226 -0.112768 1231 0.026240 0.614950 0.620064
-1.615817 -1.204680 -0.112186 1221 0.017348 0.608418 0.628439
-1.618423 -1.206609 -0.110483 1177 -0.020149 0.580662 0.652942
-1.620052 -1.207819 -0.109344 1135 -0.043588 0.563253 0.669331
-1.615334 -1.204107 -0.210500 1129 0.024296 0.616662 -0.786151
-1.613332 -1.202617 -0.208999 1169 0.053102 0.638101 -0.764554
-1.612390 -1.201911 -0.208256 1187 0.066656 0.648260 -0.753864
-1.609509 -1.199751 -0.206028 1223 0.108110 0.679339 -0.721806
-1.609151 -1.199482 -0.205370 1235 0.113261 0.683210 -0.712338
-1.608617 -1.199077 -0.204683 1237 0.120945 0.689037 -0.702454
-1.607675 -1.198371 -0.203937 1241 0.134499 0.699194 -0.691720
-1.607204 -1.198016 -0.203260 1259 0.141276 0.704302 -0.681979
-1.606782 -1.197697 -0.202591 1271 0.147348 0.708892 -0.672353
-1.606017 -1.197128 -0.201875 1281 0.158355 0.717079 -0.662051
-1.605714 -1.196902 -0.201217 1287 0.162715 0.720331 -0.652583
-1.605995 -1.197099 -0.200636 1299 0.158670 0.717498 -0.644223
-1.605700 -1.196880 -0.199978 1309 0.162915 0.720648 -0.634756
-1.604568 -1.196038 -0.199222 1319 0.179203 0.732763 -0.623878
-1.603866 -1.195504 -0.198517 1323 0.189304 0.740448 -0.613734
-1.602924 -1.194798 -0.197780 1325 0.202858 0.750605 -0.603130
-1.600914 -1.193301 -0.196310 1343 0.231779 0.772145 -0.581979
-1.601146 -1.193462 -0.195719 1353 0.228441 0.769828 -0.573475
-1.601652 -1.193845 -0.195156 1361 0.221160 0.764317 -0.565374
-1.601349 -1.193619 -0.194498 1367 0.225520 0.767569 -0.555907
-1.600872 -1.193257 -0.193830 1375 0.232383 0.772778 -0.546295
-1.601159 -1.193462 -0.193239 1385 0.228254 0.769828 -0.537792
-1.600963 -1.193315 -0.192600 1391 0.231074 0.771943 -0.528597
-1.600197 -1.192745 -0.191892 1397 0.242096 0.780145 -0.518410
-1.599951 -1.192548 -0.191244 1399 0.245635 0.782979 -0.509087
-1.599241 -1.192021 -0.190548 1397 0.255851 0.790562 -0.499072
-1.598651 -1.191573 -0.189861 1395 0.264339 0.797008 -0.489187
-1.598573 -1.191519 -0.189241 1393 0.265463 0.797785 -0.480267
-1.598510 -1.191465 -0.188612 1397 0.266368 0.798562 -0.471216
-1.597976 -1.191061 -0.187935 1397 0.274053 0.804375 -0.461475
-1.597139 -1.190434 -0.187229 1407 0.286095 0.813397 -0.451317
-1.596711 -1.190122 -0.186559 1413 0.292253 0.817886 -0.441677
-1.596528 -1.189975 -0.185920 1415 0.294886 0.820000 -0.432482
-1.596465 -1.189921 -0.185301 1417 0.295793 0.820777 -0.423576
-1.595916 -1.189517 -0.184623 1415 0.303692 0.826590 -0.413820
-1.595902 -1.189498 -0.184004 1425 0.303894 0.826865 -0.404914
-1.596176 -1.189702 -0.183412 1435 0.299951 0.823928 -0.396396
-1.595817 -1.189434 -0.182764 1431 0.305117 0.827784 -0.387072
-1.595164 -1.188936 -0.182077 1431 0.314514 0.834950 -0.377187
-1.595494 -1.189183 -0.181495 1435 0.309764 0.831396 -0.368813
-1.596189 -1.189702 -0.180952 1439 0.299764 0.823928 -0.361000
-1.595585 -1.189240 -0.180275 1441 0.308455 0.830577 -0.351259
-1.594460 -1.188405 -0.179531 1433 0.324642 0.842590 -0.340554
-1.594039 -1.188086 -0.178873 1431 0.330700 0.847180 -0.331087
-1.594025 -1.188068 -0.178262 1439 0.330901 0.847439 -0.322295
-1.594010 -1.188064 -0.177643 1447 0.331117 0.847497 -0.313389
-1.593821 -1.187910 -0.177004 1445 0.333836 0.849714 -0.304194
-1.594094 -1.188114 -0.176422 1443 0.329908 0.846777 -0.295820
-1.594193 -1.188182 -0.175812 1447 0.328484 0.845799 -0.287044
-1.593890 -1.187957 -0.175174 1449 0.332844 0.849036 -0.277864
-1.593637 -1.187766 -0.174524 1453 0.336484 0.851786 -0.268511
-1.593686 -1.187799 -0.173916 1457 0.335779 0.851310 -0.259763
-1.594023 -1.188039 -0.173334 1469 0.330930 0.847858 -0.251389
-1.594353 -1.188285 -0.172752 1473 0.326182 0.844317 -0.243015
-1.594163 -1.188146 -0.172123 1463 0.328916 0.846317 -0.233964
-1.593741 -1.187827 -0.171465 1457 0.334987 0.850907 -0.224497
-1.593664 -1.187759 -0.170845 1461 0.336095 0.851885 -0.215576
-1.593825 -1.187877 -0.170244 1469 0.333779 0.850187 -0.206928
-1.593748 -1.187823 -0.169624 1475 0.334887 0.850964 -0.198007
-1.593207 -1.187411 -0.168947 1461 0.342671 0.856894 -0.188266
-1.592841 -1.187135 -0.168298 1455 0.347937 0.860864 -0.178928
-1.592757 -1.187074 -0.167679 1465 0.349146 0.861742 -0.170022
-1.592799 -1.187099 -0.167068 1467 0.348542 0.861382 -0.161231
-1.592026 -1.186522 -0.166372 1463 0.359664 0.869684 -0.151216
-1.591302 -1.185982 -0.165685 1463 0.370081 0.877454 -0.141331
-1.591400 -1.186049 -0.165087 1465 0.368671 0.876490 -0.132727
-1.591793 -1.186332 -0.164514 1467 0.363017 0.872418 -0.124482
-1.592011 -1.186493 -0.163923 1469 0.359880 0.870101 -0.115979
-1.592580 -1.186912 -0.163360 1479 0.351693 0.864074 -0.107878
-1.592847 -1.187109 -0.162769 1481 0.347851 0.861238 -0.099374
-1.592832 -1.187091 -0.162159 1481 0.348067 0.861497 -0.090597
-1.592636 -1.186944 -0.161520 1473 0.350887 0.863612 -0.081403
-1.592741 -1.187019 -0.160919 1473 0.349376 0.862533 -0.072756
-1.592825 -1.187087 -0.160318 1469 0.348167 0.861554 -0.064108
-1.592923 -1.187155 -0.159708 1467 0.346757 0.860576 -0.055331
-1.593260 -1.187395 -0.159126 1475 0.341908 0.857123 -0.046957
-1.593126 -1.187298 -0.158499 1483 0.343836 0.858518 -0.037936
-1.592810 -1.187058 -0.157860 1483 0.348383 0.861972 -0.028741
-1.592388 -1.186739 -0.157202 1473 0.354455 0.866562 -0.019274
-1.592479 -1.186800 -0.156601 1473 0.353146 0.865684 -0.010626
-1.592697 -1.186961 -0.156009 1465 0.350009 0.863367 -0.002108
-1.593083 -1.187251 -0.155428 1459 0.344455 0.859195 0.006251
-1.593231 -1.187355 -0.154827 1463 0.342326 0.857698 0.014899
-1.592690 -1.186943 -0.154169 1455 0.350110 0.863626 0.024367
-1.592900 -1.187097 -0.153568 1459 0.347088 0.861411 0.033014
-1.592471 -1.186785 -0.152921 1455 0.353261 0.865900 0.042323
-1.591867 -1.186323 -0.152254 1457 0.361952 0.872547 0.051921
-1.592429 -1.186735 -0.151691 1473 0.353865 0.866619 0.060021
-1.592464 -1.186767 -0.151081 1475 0.353362 0.866159 0.068798
-1.592449 -1.186749 -0.150461 1467 0.353578 0.866418 0.077719
-1.592885 -1.187074 -0.149889 1463 0.347304 0.861742 0.085949
-1.593334 -1.187400 -0.149317 1469 0.340844 0.857051 0.094180
-1.593601 -1.187597 -0.148725 1467 0.337002 0.854216 0.102698
-1.593643 -1.187622 -0.148115 1469 0.336398 0.853858 0.111475
-1.593853 -1.187776 -0.147524 1467 0.333376 0.851641 0.119978
-1.593657 -1.187629 -0.146896 1459 0.336196 0.853756 0.129014
-1.593748 -1.187690 -0.146286 1461 0.334887 0.852878 0.137791
-1.594661 -1.188373 -0.145750 1473 0.321750 0.843052 0.145503
-1.595159 -1.188735 -0.145178 1471 0.314584 0.837842 0.153733
-1.595728 -1.189154 -0.144615 1475 0.306397 0.831813 0.161834
-1.595883 -1.189265 -0.144014 1477 0.304167 0.830216 0.170482
-1.595032 -1.188638 -0.143329 1469 0.316412 0.839239 0.180338
-1.594660 -1.188355 -0.142681 1459 0.321764 0.843311 0.189662
-1.594695 -1.188373 -0.142071 1453 0.321261 0.843052 0.198439
-1.595488 -1.188964 -0.141527 1459 0.309852 0.834547 0.206266
-1.596163 -1.189461 -0.140964 1459 0.300138 0.827397 0.214367
-1.596268 -1.189536 -0.140363 1455 0.298627 0.826318 0.223014
-1.596584 -1.189769 -0.139772 1455 0.294082 0.822964 0.231518
-1.596570 -1.189751 -0.139152 1457 0.294282 0.823223 0.240438
-1.596654 -1.189819 -0.138551 1445 0.293073 0.822246 0.249086
-1.596984 -1.190051 -0.137960 1439 0.288325 0.818908 0.257590
-1.596843 -1.189947 -0.137340 1435 0.290354 0.820403 0.266511
-1.596695 -1.189836 -0.136711 1433 0.292485 0.822000 0.275561
-1.597201 -1.190205 -0.136139 1431 0.285204 0.816692 0.283791
-1.598044 -1.190831 -0.135584 1431 0.273073 0.807685 0.291777
-1.598837 -1.191422 -0.135040 1437 0.261664 0.799181 0.299604
-1.598872 -1.191440 -0.134420 1433 0.261161 0.798922 0.308525
-1.599027 -1.191551 -0.133819 1425 0.258929 0.797325 0.317172
-1.599406 -1.191834 -0.133238 1427 0.253477 0.793253 0.325532
-1.599497 -1.191894 -0.132627 1425 0.252168 0.792388 0.334324
-1.599412 -1.191833 -0.132007 1413 0.253391 0.793267 0.343244
-1.599974 -1.192245 -0.131435 1409 0.245304 0.787339 0.351474
-1.600178 -1.192392 -0.130834 1405 0.242369 0.785224 0.360122
-1.600037 -1.192288 -0.130205 1403 0.244398 0.786720 0.369172
-1.600472 -1.192613 -0.129623 1403 0.238139 0.782044 0.377547
-1.600796 -1.192853 -0.129032 1401 0.233477 0.778591 0.386050
-1.601189 -1.193136 -0.128450 1401 0.227822 0.774519 0.394424
-1.601448 -1.193326 -0.127859 1399 0.224095 0.771785 0.402928
-1.601771 -1.193565 -0.127268 1387 0.219448 0.768346 0.411431
-1.602151 -1.193848 -0.126674 1385 0.213980 0.764274 0.419978
-1.602825 -1.194346 -0.126112 1379 0.204282 0.757109 0.428064
-1.603499 -1.194843 -0.125538 1377 0.194584 0.749957 0.436323
-1.603295 -1.194689 -0.124910 1365 0.197520 0.752173 0.445359
-1.603625 -1.194936 -0.124317 1363 0.192771 0.748619 0.453892
-1.604854 -1.195838 -0.123173 1351 0.175088 0.735641 0.470352
-1.605472 -1.196293 -0.122598 1349 0.166197 0.729094 0.478626
-1.606666 -1.197177 -0.122062 1353 0.149017 0.716374 0.486338
-1.607460 -1.197767 -0.121509 1349 0.137592 0.707885 0.494295
-1.607200 -1.197570 -0.120870 1339 0.141332 0.710721 0.503489
-1.606933 -1.197366 -0.120231 1327 0.145175 0.713655 0.512683
-1.607544 -1.197828 -0.119659 1315 0.136384 0.707007 0.520913
-1.608105 -1.198239 -0.119076 1313 0.128312 0.701095 0.529302
-1.608365 -1.198429 -0.118475 1307 0.124569 0.698361 0.537949
-1.609278 -1.199099 -0.117922 1303 0.111434 0.688721 0.545906
-1.609777 -1.199474 -0.117338 1297 0.104254 0.683325 0.554309
-1.610325 -1.199872 -0.116756 1285 0.096369 0.677598 0.562683
-1.610648 -1.200111 -0.116165 1273 0.091721 0.674159 0.571187
-1.611202 -1.200530 -0.115581 1267 0.083750 0.668130 0.579590
-1.612811 -1.201722 -0.115064 1259 0.060599 0.650979 0.587028
-1.613598 -1.202305 -0.114500 1249 0.049275 0.642591 0.595144
-1.614208 -1.202753 -0.113918 1243 0.040499 0.636145 0.603518
-1.614890 -1.203258 -0.113344 1231 0.030686 0.628878 0.611777
-1.615269 -1.203540 -0.112753 1219 0.025233 0.624821 0.620280
-1.618015 -1.205574 -0.111679 1191 -0.014279 0.595554 0.635733
-1.619097 -1.206372 -0.111133 1179 -0.029847 0.584072 0.643590
-1.620677 -1.207546 -0.109987 1143 -0.052581 0.567181 0.660079
-1.618017 -1.205370 -0.210792 1115 -0.014307 0.598491 -0.790353
-1.613148 -1.201741 -0.208315 1177 0.055750 0.650706 -0.754713
-1.612621 -1.201343 -0.207618 1191 0.063334 0.656432 -0.744684
-1.612199 -1.201025 -0.206951 1203 0.069406 0.661008 -0.735087
-1.609262 -1.198821 -0.204714 1225 0.111664 0.692721 -0.702900
-1.608258 -1.198079 -0.203970 1235 0.126110 0.703397 -0.692195
-1.608131 -1.197976 -0.203340 1251 0.127936 0.704879 -0.683130
-1.607948 -1.197843 -0.202690 1263 0.130571 0.706793 -0.673777
-1.607301 -1.197352 -0.201994 1277 0.139880 0.713856 -0.663763
-1.607055 -1.197169 -0.201345 1287 0.143420 0.716491 -0.654425
-1.606690 -1.196893 -0.200676 1293 0.148670 0.720461 -0.644799
-1.605580 -1.196058 -0.199922 1297 0.164643 0.732475 -0.633950
-1.604814 -1.195489 -0.199205 1299 0.175663 0.740662 -0.623633
-1.604034 -1.194905 -0.198499 1307 0.186888 0.749065 -0.613475
-1.603268 -1.194335 -0.197782 1317 0.197908 0.757267 -0.603158
-1.603443 -1.194453 -0.197181 1333 0.195390 0.755569 -0.594511
-1.603492 -1.194485 -0.196571 1339 0.194685 0.755109 -0.585734
-1.603295 -1.194338 -0.195932 1351 0.197520 0.757224 -0.576540
-1.602649 -1.193862 -0.195236 1355 0.206815 0.764073 -0.566525
-1.601813 -1.193235 -0.194521 1357 0.218844 0.773094 -0.556238
-1.601461 -1.192959 -0.193861 1365 0.223908 0.777066 -0.546741
-1.601328 -1.192862 -0.193222 1369 0.225822 0.778461 -0.537547
-1.600906 -1.192543 -0.192554 1383 0.231894 0.783051 -0.527936
-1.600842 -1.192489 -0.191934 1393 0.232815 0.783828 -0.519015
-1.600765 -1.192435 -0.191305 1391 0.233923 0.784605 -0.509964
-1.600231 -1.192030 -0.190628 1393 0.241606 0.790433 -0.500223
-1.599928 -1.191805 -0.189970 1393 0.245966 0.793670 -0.490756
-1.599921 -1.191794 -0.189350 1391 0.246067 0.793828 -0.481835
-1.599204 -1.191260 -0.188652 1395 0.256384 0.801512 -0.471792
-1.598080 -1.190411 -0.187908 1395 0.272555 0.813728 -0.461087
-1.597602 -1.190063 -0.187240 1401 0.279433 0.818735 -0.451475
-1.597532 -1.190002 -0.186611 1407 0.280440 0.819613 -0.442425
-1.597398 -1.189906 -0.185982 1413 0.282368 0.820994 -0.433374
-1.596977 -1.189587 -0.185323 1417 0.288426 0.825584 -0.423892
-1.596962 -1.189569 -0.184704 1421 0.288643 0.825842 -0.414986
-1.597068 -1.189644 -0.184093 1429 0.287118 0.824764 -0.406195
-1.596878 -1.189504 -0.183464 1431 0.289850 0.826777 -0.397144
-1.596224 -1.189006 -0.182768 1429 0.299262 0.833944 -0.387130
-1.596027 -1.188859 -0.182138 1431 0.302095 0.836058 -0.378065
-1.596722 -1.189378 -0.181595 1439 0.292095 0.828590 -0.370252
-1.597228 -1.189747 -0.181032 1445 0.284814 0.823282 -0.362151
-1.596919 -1.189514 -0.180383 1443 0.289262 0.826633 -0.352813
-1.595745 -1.188629 -0.179640 1433 0.306153 0.839367 -0.342123
-1.594621 -1.187795 -0.178905 1433 0.322326 0.851367 -0.331547
-1.594951 -1.188041 -0.178324 1439 0.317577 0.847829 -0.323187
-1.594993 -1.188066 -0.177713 1441 0.316973 0.847468 -0.314396
-1.594579 -1.187755 -0.177055 1439 0.322930 0.851943 -0.304928
-1.594852 -1.187959 -0.176464 1441 0.319002 0.849009 -0.296425
-1.594894 -1.187984 -0.175853 1443 0.318397 0.848648 -0.287633
-1.594473 -1.187665 -0.175195 1441 0.324455 0.853238 -0.278166
-1.593756 -1.187131 -0.174509 1441 0.334772 0.860921 -0.268295
-1.594093 -1.187371 -0.173927 1451 0.329923 0.857468 -0.259921
-1.595132 -1.188141 -0.173422 1465 0.314973 0.846389 -0.252655
-1.595631 -1.188517 -0.172859 1465 0.307793 0.840980 -0.244554
-1.595624 -1.188506 -0.172239 1463 0.307894 0.841137 -0.235633
-1.595420 -1.188352 -0.171600 1463 0.310829 0.843353 -0.226439
-1.595356 -1.188298 -0.170980 1465 0.311750 0.844130 -0.217518
-1.594928 -1.187972 -0.170324 1469 0.317908 0.848822 -0.208079
-1.594148 -1.187388 -0.169626 1463 0.329131 0.857225 -0.198036
-1.593255 -1.186718 -0.168920 1453 0.341980 0.866864 -0.187878
-1.593065 -1.186578 -0.168293 1457 0.344714 0.868878 -0.178856
-1.593164 -1.186646 -0.167682 1461 0.343290 0.867900 -0.170065
-1.593444 -1.186857 -0.167101 1457 0.339261 0.864864 -0.161705
-1.593367 -1.186789 -0.166481 1455 0.340369 0.865842 -0.152784
-1.593001 -1.186514 -0.165823 1465 0.345635 0.869799 -0.143317
-1.593212 -1.186667 -0.165231 1471 0.342599 0.867598 -0.134799
-1.593247 -1.186699 -0.164621 1465 0.342095 0.867137 -0.126022
-1.593289 -1.186725 -0.164011 1469 0.341491 0.866763 -0.117245
-1.593914 -1.187186 -0.163458 1473 0.332498 0.860130 -0.109288
-1.594539 -1.187648 -0.162905 1479 0.323505 0.853482 -0.101331
-1.594054 -1.187279 -0.162248 1477 0.330484 0.858792 -0.091878
-1.593562 -1.186917 -0.161579 1475 0.337563 0.864002 -0.082252
-1.593773 -1.187071 -0.160990 1467 0.334527 0.861785 -0.073777
-1.593295 -1.186710 -0.160331 1459 0.341405 0.866979 -0.064295
-1.593681 -1.186985 -0.159750 1463 0.335851 0.863022 -0.055936
-1.594482 -1.187583 -0.159216 1473 0.324326 0.854418 -0.048252
-1.594229 -1.187393 -0.158577 1475 0.327966 0.857153 -0.039058
-1.593624 -1.186945 -0.157909 1475 0.336671 0.863598 -0.029446
-1.593666 -1.186970 -0.157299 1473 0.336067 0.863238 -0.020669
-1.593821 -1.187081 -0.156698 1471 0.333836 0.861641 -0.012022
-1.593567 -1.186891 -0.156059 1459 0.337491 0.864375 -0.002828
-1.593602 -1.186909 -0.155451 1451 0.336988 0.864116 0.005921
-1.593876 -1.187113 -0.154859 1457 0.333045 0.861180 0.014438
-1.593911 -1.187131 -0.154249 1455 0.332541 0.860921 0.023216
-1.593482 -1.186805 -0.153600 1455 0.338714 0.865612 0.032554
-1.593286 -1.186658 -0.152961 1451 0.341534 0.867727 0.041748
-1.593208 -1.186604 -0.152342 1453 0.342657 0.868504 0.050654
-1.593538 -1.186837 -0.151760 1471 0.337908 0.865152 0.059029
-1.593749 -1.186991 -0.151169 1473 0.334872 0.862936 0.067532
-1.593376 -1.186722 -0.150520 1465 0.340239 0.866806 0.076870
-1.593762 -1.186998 -0.149938 1459 0.334685 0.862835 0.085244
-1.594563 -1.187595 -0.149395 1465 0.323160 0.854245 0.093057
-1.594710 -1.187699 -0.148794 1467 0.321045 0.852750 0.101705
-1.594513 -1.187552 -0.148165 1467 0.323879 0.854864 0.110755
-1.595012 -1.187914 -0.147592 1463 0.316700 0.849655 0.119000
-1.595469 -1.188247 -0.147020 1463 0.310124 0.844865 0.127230
-1.595328 -1.188143 -0.146391 1465 0.312153 0.846360 0.136280
-1.595946 -1.188598 -0.145839 1475 0.303262 0.839813 0.144223
-1.596444 -1.188973 -0.145265 1469 0.296095 0.834419 0.152482
-1.596711 -1.189170 -0.144674 1467 0.292253 0.831583 0.160985
-1.596578 -1.189059 -0.144047 1467 0.294167 0.833180 0.170007
-1.595854 -1.188518 -0.143369 1461 0.304584 0.840964 0.179762
-1.595594 -1.188321 -0.142730 1457 0.308325 0.843799 0.188957
-1.596155 -1.188733 -0.142168 1461 0.300253 0.837871 0.197043
-1.596837 -1.189238 -0.141605 1463 0.290440 0.830606 0.205144
-1.597391 -1.189656 -0.141042 1459 0.282469 0.824590 0.213244
-1.597307 -1.189581 -0.140423 1449 0.283679 0.825669 0.222151
-1.597342 -1.189613 -0.139812 1449 0.283174 0.825210 0.230942
-1.597201 -1.189495 -0.139183 1447 0.285204 0.826908 0.239993
-1.597124 -1.189441 -0.138563 1437 0.286312 0.827685 0.248913
-1.596857 -1.189237 -0.137924 1429 0.290154 0.830619 0.258108
-1.597067 -1.189391 -0.137323 1429 0.287131 0.828403 0.266755
-1.598268 -1.190282 -0.136808 1433 0.269850 0.815584 0.274165
-1.598303 -1.190300 -0.136198 1429 0.269348 0.815325 0.282942
-1.598338 -1.190332 -0.135587 1425 0.268844 0.814863 0.291733
-1.599069 -1.190873 -0.135034 1431 0.258326 0.807079 0.299690
-1.599518 -1.191198 -0.134453 1429 0.251866 0.802404 0.308050
-1.599553 -1.191216 -0.133842 1421 0.251362 0.802145 0.316841
-1.599757 -1.191363 -0.133241 1419 0.248427 0.800030 0.325489
-1.600255 -1.191739 -0.132658 1413 0.241261 0.794620 0.333877
-1.599995 -1.191542 -0.132030 1405 0.245002 0.797454 0.342913
-1.600206 -1.191695 -0.131428 1407 0.241966 0.795253 0.351575
-1.601048 -1.192322 -0.130874 1403 0.229851 0.786231 0.359547
-1.601378 -1.192555 -0.130283 1401 0.225103 0.782879 0.368050
-1.601174 -1.192401 -0.129654 1399 0.228038 0.785094 0.377100
-1.601202 -1.192425 -0.129043 1397 0.227635 0.784749 0.385892
-1.601708 -1.192794 -0.128462 1393 0.220354 0.779440 0.394251
-1.602143 -1.193120 -0.127880 1389 0.214095 0.774749 0.402626
-1.602593 -1.193445 -0.127296 1381 0.207621 0.770073 0.411028
-1.603436 -1.194072 -0.126743 1375 0.195491 0.761051 0.418985
-1.604342 -1.194749 -0.126199 1375 0.182455 0.751310 0.426813
-1.604847 -1.195117 -0.125616 1371 0.175190 0.746015 0.435201
-1.604938 -1.195178 -0.125005 1365 0.173879 0.745137 0.443992
-1.605374 -1.195504 -0.124424 1359 0.167607 0.740448 0.452352
-1.605816 -1.195822 -0.123832 1355 0.161246 0.735871 0.460870
-1.606083 -1.196019 -0.123241 1347 0.157404 0.733036 0.469374
-1.606575 -1.196388 -0.122658 1343 0.150325 0.727727 0.477762
-1.607312 -1.196935 -0.122095 1345 0.139722 0.719856 0.485863
-1.607811 -1.197297 -0.121513 1343 0.132542 0.714649 0.494237
-1.608014 -1.197443 -0.120901 1335 0.129621 0.712547 0.503043
-1.607866 -1.197332 -0.120283 1321 0.131749 0.714144 0.511935
-1.607838 -1.197314 -0.119663 1307 0.132152 0.714403 0.520856
-1.608807 -1.198027 -0.119108 1301 0.118211 0.704144 0.528841
-1.609594 -1.198610 -0.118543 1293 0.106887 0.695757 0.536971
-1.610620 -1.199365 -0.118000 1293 0.092124 0.684893 0.544784
-1.611301 -1.199870 -0.117426 1289 0.082326 0.677627 0.553043
-1.611729 -1.200189 -0.116834 1275 0.076167 0.673037 0.561561
-1.612052 -1.200428 -0.116232 1267 0.071520 0.669598 0.570223
-1.612551 -1.200790 -0.115650 1259 0.064340 0.664389 0.578597
-1.613632 -1.201602 -0.115104 1253 0.048787 0.652706 0.586453
-1.614714 -1.202401 -0.114549 1245 0.033217 0.641209 0.594438
-1.615332 -1.202855 -0.113977 1233 0.024326 0.634677 0.602669
-1.615704 -1.203131 -0.113374 1217 0.018972 0.630706 0.611345
-1.618163 -1.204956 -0.112293 1189 -0.016408 0.604446 0.626899
-1.618774 -1.205404 -0.111709 1171 -0.025200 0.598000 0.635302
-1.622848 -1.208428 -0.110101 1123 -0.083819 0.554490 0.658439
-1.623339 -1.208783 -0.109508 1105 -0.090884 0.549382 0.666971
-1.613759 -1.201390 -0.207718 1179 0.046958 0.655756 -0.746123
-1.613576 -1.201257 -0.207069 1193 0.049591 0.657670 -0.736784
-1.612930 -1.200766 -0.206371 1201 0.058886 0.664735 -0.726741
-1.611749 -1.199888 -0.205597 1205 0.075879 0.677368 -0.715605
-1.610632 -1.199060 -0.204841 1213 0.091952 0.689282 -0.704727
-1.610098 -1.198655 -0.204155 1225 0.099635 0.695109 -0.694856
-1.609620 -1.198294 -0.203478 1239 0.106513 0.700302 -0.685115
-1.609037 -1.197853 -0.202780 1253 0.114901 0.706649 -0.675072
-1.608327 -1.197326 -0.202074 1263 0.125117 0.714232 -0.664914
-1.607666 -1.196835 -0.201366 1275 0.134628 0.721295 -0.654727
-1.606718 -1.196122 -0.200641 1279 0.148269 0.731554 -0.644295
-1.605783 -1.195424 -0.199905 1279 0.161722 0.741598 -0.633705
-1.604786 -1.194675 -0.199161 1285 0.176066 0.752375 -0.623000
-1.604364 -1.194356 -0.198492 1299 0.182138 0.756965 -0.613374
-1.604701 -1.194610 -0.197910 1311 0.177289 0.753310 -0.605000
-1.604399 -1.194384 -0.197262 1327 0.181636 0.756562 -0.595677
-1.603921 -1.194022 -0.196584 1339 0.188512 0.761770 -0.585921
-1.604321 -1.194312 -0.196012 1351 0.182757 0.757598 -0.577691
-1.603787 -1.193908 -0.195326 1353 0.190442 0.763411 -0.567820
-1.602606 -1.193030 -0.194570 1351 0.207433 0.776044 -0.556943
-1.601777 -1.192410 -0.193855 1349 0.219362 0.784965 -0.546655
-1.601995 -1.192571 -0.193264 1359 0.216225 0.782648 -0.538151
-1.602044 -1.192603 -0.192644 1371 0.215520 0.782188 -0.529230
-1.601454 -1.192155 -0.191957 1381 0.224009 0.788634 -0.519346
-1.601320 -1.192059 -0.191328 1387 0.225937 0.790015 -0.510295
-1.601193 -1.191954 -0.190698 1391 0.227765 0.791526 -0.501230
-1.600835 -1.191686 -0.190040 1391 0.232916 0.795382 -0.491763
-1.600582 -1.191496 -0.189390 1387 0.236556 0.798116 -0.482410
-1.600399 -1.191363 -0.188751 1389 0.239189 0.800030 -0.473216
-1.599450 -1.190650 -0.188026 1393 0.252844 0.810289 -0.462784
-1.598389 -1.189851 -0.187292 1397 0.268109 0.821784 -0.452223
-1.598255 -1.189754 -0.186651 1403 0.270037 0.823180 -0.443000
-1.598185 -1.189694 -0.186033 1411 0.271046 0.824043 -0.434108
-1.597876 -1.189461 -0.185385 1415 0.275492 0.827397 -0.424785
-1.597742 -1.189364 -0.184755 1421 0.277420 0.828793 -0.415720
-1.597566 -1.189224 -0.184114 1423 0.279951 0.830806 -0.406497
-1.597320 -1.189041 -0.183466 1419 0.283492 0.833439 -0.397173
-1.597299 -1.189016 -0.182846 1427 0.283794 0.833800 -0.388252
-1.597285 -1.189012 -0.182235 1435 0.283994 0.833856 -0.379461
-1.597509 -1.189166 -0.181635 1441 0.280771 0.831642 -0.370828
-1.597551 -1.189205 -0.181024 1445 0.280168 0.831079 -0.362036
-1.596842 -1.188664 -0.180340 1441 0.290368 0.838865 -0.352195
-1.596005 -1.188038 -0.179632 1431 0.302413 0.847871 -0.342007
-1.595759 -1.187855 -0.178983 1431 0.305951 0.850504 -0.332669
-1.595801 -1.187880 -0.178373 1437 0.305347 0.850144 -0.323892
-1.595724 -1.187826 -0.177753 1437 0.306455 0.850921 -0.314972
-1.595766 -1.187851 -0.177143 1439 0.305852 0.850563 -0.306194
-1.595576 -1.187711 -0.176504 1445 0.308584 0.852576 -0.297000
-1.595210 -1.187435 -0.175857 1443 0.313851 0.856547 -0.287691
-1.594845 -1.187159 -0.175197 1437 0.319102 0.860520 -0.278195
-1.594718 -1.187055 -0.174568 1443 0.320930 0.862015 -0.269144
-1.594880 -1.187173 -0.173969 1455 0.318599 0.860317 -0.260525
-1.595336 -1.187506 -0.173406 1453 0.312038 0.855527 -0.252425
-1.595715 -1.187789 -0.172825 1457 0.306584 0.851454 -0.244065
-1.596115 -1.188079 -0.172252 1461 0.300829 0.847281 -0.235820
-1.595687 -1.187767 -0.171594 1459 0.306987 0.851770 -0.226353
-1.595441 -1.187570 -0.170955 1461 0.310527 0.854605 -0.217159
-1.595131 -1.187337 -0.170307 1457 0.314987 0.857957 -0.207835
-1.593888 -1.186410 -0.169563 1451 0.332872 0.871296 -0.197130
-1.593747 -1.186306 -0.168943 1449 0.334901 0.872792 -0.188209
-1.594260 -1.186682 -0.168371 1457 0.327520 0.867382 -0.179979
-1.594182 -1.186628 -0.167751 1463 0.328642 0.868159 -0.171058
-1.594048 -1.186517 -0.167122 1453 0.330570 0.869756 -0.162008
-1.594090 -1.186542 -0.166511 1453 0.329966 0.869396 -0.153216
-1.594245 -1.186652 -0.165910 1467 0.327736 0.867814 -0.144569
-1.594526 -1.186864 -0.165331 1473 0.323692 0.864763 -0.136238
-1.594792 -1.187060 -0.164739 1467 0.319865 0.861943 -0.127720
-1.594778 -1.187042 -0.164129 1467 0.320068 0.862202 -0.118943
-1.594876 -1.187110 -0.163519 1473 0.318656 0.861225 -0.110166
-1.595094 -1.187271 -0.162927 1475 0.315520 0.858907 -0.101648
-1.594897 -1.187124 -0.162298 1473 0.318354 0.861022 -0.092597
-1.594117 -1.186540 -0.161602 1471 0.329577 0.869425 -0.082583
-1.593744 -1.186257 -0.160953 1461 0.334944 0.873497 -0.073245
-1.593147 -1.185817 -0.160286 1455 0.343534 0.879828 -0.063648
-1.593477 -1.186050 -0.159706 1459 0.338786 0.876475 -0.055302
-1.594446 -1.186776 -0.159179 1467 0.324844 0.866029 -0.047720
-1.594657 -1.186930 -0.158590 1471 0.321808 0.863815 -0.039245
-1.594235 -1.186611 -0.157932 1473 0.327880 0.868403 -0.029777
-1.594390 -1.186722 -0.157331 1475 0.325649 0.866806 -0.021130
-1.594783 -1.187005 -0.156749 1477 0.319995 0.862734 -0.012756
-1.594003 -1.186421 -0.156063 1463 0.331218 0.871137 -0.002885
-1.594038 -1.186453 -0.155452 1453 0.330714 0.870677 0.005906
-1.594368 -1.186686 -0.154871 1455 0.325966 0.867324 0.014266
-1.594522 -1.186797 -0.154270 1457 0.323750 0.865727 0.022913
-1.594325 -1.186650 -0.153641 1455 0.326585 0.867842 0.031964
-1.593889 -1.186331 -0.152994 1451 0.332858 0.872432 0.041273
-1.593988 -1.186399 -0.152382 1455 0.331434 0.871454 0.050079
-1.594732 -1.186940 -0.151840 1471 0.320728 0.863670 0.057877
-1.595118 -1.187230 -0.151256 1477 0.315174 0.859497 0.066280
-1.594802 -1.186990 -0.150619 1469 0.319721 0.862950 0.075446
-1.594837 -1.187008 -0.150009 1461 0.319218 0.862691 0.084223
-1.594942 -1.187083 -0.149399 1461 0.317707 0.861612 0.093000
-1.595209 -1.187279 -0.148807 1463 0.313865 0.858792 0.101518
-1.595068 -1.187175 -0.148187 1461 0.315894 0.860288 0.110439
-1.595103 -1.187193 -0.147577 1457 0.315390 0.860029 0.119216
-1.595370 -1.187390 -0.146986 1455 0.311548 0.857195 0.127719
-1.595468 -1.187458 -0.146375 1459 0.310138 0.856216 0.136511
-1.596374 -1.188135 -0.145841 1465 0.297102 0.846475 0.144194
-1.596880 -1.188503 -0.145269 1463 0.289823 0.841180 0.152424
-1.596627 -1.188313 -0.144630 1459 0.293462 0.843914 0.161618
-1.596430 -1.188166 -0.144001 1453 0.296298 0.846029 0.170669
-1.596113 -1.187927 -0.143362 1449 0.300859 0.849468 0.179863
-1.596205 -1.187987 -0.142751 1449 0.299534 0.848606 0.188654
-1.597054 -1.188621 -0.142217 1461 0.287318 0.839482 0.196338
-1.597975 -1.189298 -0.141674 1465 0.274066 0.829741 0.204151
-1.598235 -1.189487 -0.141083 1459 0.270326 0.827023 0.212654
-1.598213 -1.189476 -0.140463 1447 0.270643 0.827180 0.221575
-1.598129 -1.189401 -0.139843 1445 0.271850 0.828259 0.230496
-1.597988 -1.189297 -0.139213 1437 0.273879 0.829757 0.239561
-1.597728 -1.189100 -0.138586 1429 0.277620 0.832590 0.248582
-1.597643 -1.189039 -0.137966 1423 0.278843 0.833468 0.257503
-1.597798 -1.189150 -0.137365 1423 0.276614 0.831872 0.266151
-1.598472 -1.189648 -0.136801 1433 0.266916 0.824705 0.274266
-1.599322 -1.190281 -0.136257 1433 0.254686 0.815597 0.282093
-1.599596 -1.190471 -0.135656 1427 0.250743 0.812863 0.290741
-1.600038 -1.190804 -0.135084 1427 0.244382 0.808073 0.298971
-1.600537 -1.191165 -0.134502 1429 0.237204 0.802879 0.307345
-1.600916 -1.191448 -0.133920 1421 0.231750 0.798807 0.315719
-1.601007 -1.191509 -0.133310 1413 0.230441 0.797929 0.324496
-1.600810 -1.191362 -0.132681 1411 0.233275 0.800044 0.333547
-1.600789 -1.191337 -0.132061 1405 0.233578 0.800404 0.342467
-1.600985 -1.191490 -0.131460 1407 0.230757 0.798201 0.351115
-1.601196 -1.191644 -0.130859 1405 0.227721 0.795987 0.359762
-1.601287 -1.191705 -0.130258 1399 0.226412 0.795109 0.368410
-1.601786 -1.192067 -0.129677 1391 0.219232 0.789900 0.376770
-1.602116 -1.192313 -0.129083 1385 0.214484 0.786361 0.385316
-1.602670 -1.192718 -0.128511 1383 0.206513 0.780533 0.393547
-1.603113 -1.193051 -0.127929 1381 0.200138 0.775742 0.401921
-1.603197 -1.193105 -0.127319 1373 0.198930 0.774965 0.410698
-1.603990 -1.193695 -0.126766 1369 0.187521 0.766476 0.418654
-1.604777 -1.194278 -0.126201 1369 0.176196 0.758087 0.426784
-1.605114 -1.194518 -0.125610 1367 0.171347 0.754634 0.435288
-1.605493 -1.194801 -0.125019 1365 0.165895 0.750562 0.443791
-1.605929 -1.195127 -0.124435 1355 0.159620 0.745871 0.452194
-1.606490 -1.195538 -0.123863 1349 0.151548 0.739957 0.460424
-1.606870 -1.195821 -0.123272 1343 0.146080 0.735885 0.468928
-1.607129 -1.196011 -0.122671 1337 0.142355 0.733153 0.477575
-1.607747 -1.196465 -0.122097 1331 0.133463 0.726619 0.485834
-1.607846 -1.196533 -0.121486 1325 0.132038 0.725642 0.494626
-1.607803 -1.196501 -0.120867 1319 0.132657 0.726101 0.503532
-1.608189 -1.196776 -0.120275 1307 0.127103 0.722144 0.512050
-1.608688 -1.197152 -0.119694 1299 0.119923 0.716734 0.520410
-1.609418 -1.197693 -0.119129 1293 0.109419 0.708951 0.528539
-1.610093 -1.198190 -0.118557 1285 0.099707 0.701800 0.536770
-1.610936 -1.198817 -0.117992 1279 0.087577 0.692778 0.544899
-1.612263 -1.199794 -0.117466 1279 0.068484 0.678719 0.552467
-1.611940 -1.199547 -0.116827 1273 0.073131 0.682273 0.561662
-1.612017 -1.199607 -0.116207 1267 0.072023 0.681411 0.570582
-1.612930 -1.200277 -0.115652 1259 0.058886 0.671771 0.578568
-1.615508 -1.202196 -0.114580 1241 0.021794 0.644159 0.593993
-1.615767 -1.202385 -0.113979 1231 0.018067 0.641440 0.602640
-1.618050 -1.204075 -0.112888 1197 -0.014782 0.617123 0.618338
-1.618774 -1.204608 -0.112314 1175 -0.025200 0.609455 0.626597
-1.619982 -1.205507 -0.111768 1153 -0.042581 0.596518 0.634453
-1.622784 -1.207583 -0.110706 1117 -0.082898 0.566649 0.649734
-1.623396 -1.208030 -0.110113 1103 -0.091704 0.560217 0.658266
-1.623950 -1.208449 -0.109529 1079 -0.099674 0.554188 0.666669
-1.616632 -1.202778 -0.208658 1149 0.005621 0.635785 -0.759648
-1.615698 -1.202080 -0.207912 1161 0.019060 0.645828 -0.748914
-1.613695 -1.200589 -0.206423 1183 0.047879 0.667282 -0.727489
-1.612283 -1.199532 -0.205629 1191 0.068196 0.682489 -0.716065
-1.611700 -1.199092 -0.204931 1205 0.076584 0.688820 -0.706022
-1.610990 -1.198565 -0.204216 1219 0.086800 0.696404 -0.695734
-1.610568 -1.198246 -0.203546 1231 0.092872 0.700994 -0.686094
-1.610034 -1.197841 -0.202860 1239 0.100556 0.706820 -0.676223
-1.609093 -1.197135 -0.202123 1253 0.114096 0.716980 -0.665619
-1.608439 -1.196651 -0.201427 1267 0.123506 0.723943 -0.655605
-1.607553 -1.195989 -0.200691 1263 0.136254 0.733468 -0.645015
-1.606612 -1.195283 -0.199966 1267 0.149794 0.743626 -0.634583
-1.605839 -1.194706 -0.199249 1275 0.160915 0.751929 -0.624266
-1.605242 -1.194265 -0.198562 1287 0.169505 0.758274 -0.614382
-1.605122 -1.194168 -0.197923 1307 0.171233 0.759670 -0.605187
-1.605227 -1.194243 -0.197313 1321 0.169721 0.758591 -0.596410
-1.605276 -1.194276 -0.196703 1341 0.169016 0.758116 -0.587633
-1.604911 -1.194000 -0.196035 1347 0.174269 0.762087 -0.578022
-1.603674 -1.193079 -0.195270 1341 0.192066 0.775339 -0.567015
-1.602501 -1.192208 -0.194515 1335 0.208944 0.787871 -0.556151
-1.602128 -1.191925 -0.193857 1343 0.214311 0.791942 -0.546684
-1.601826 -1.191699 -0.193199 1353 0.218657 0.795195 -0.537216
-1.601994 -1.191810 -0.192598 1367 0.216239 0.793598 -0.528569
-1.602099 -1.191886 -0.191997 1373 0.214729 0.792505 -0.519921
-1.601910 -1.191746 -0.191358 1383 0.217448 0.794519 -0.510727
-1.601853 -1.191699 -0.190729 1387 0.218268 0.795195 -0.501677
-1.601951 -1.191767 -0.190128 1385 0.216858 0.794217 -0.493029
-1.601466 -1.191412 -0.189451 1389 0.223837 0.799325 -0.483288
-1.600813 -1.190914 -0.188755 1389 0.233232 0.806489 -0.473274
-1.600096 -1.190380 -0.188057 1393 0.243549 0.814174 -0.463231
-1.599506 -1.189933 -0.187380 1393 0.252038 0.820606 -0.453490
-1.599611 -1.190008 -0.186769 1403 0.250526 0.819525 -0.444698
-1.599597 -1.190004 -0.186149 1411 0.250729 0.819584 -0.435777
-1.599112 -1.189635 -0.185482 1409 0.257706 0.824892 -0.426180
-1.598929 -1.189502 -0.184843 1417 0.260339 0.826806 -0.416986
-1.598739 -1.189348 -0.184204 1417 0.263073 0.829023 -0.407792
-1.598317 -1.189029 -0.183546 1419 0.269145 0.833613 -0.398324
-1.598303 -1.189025 -0.182926 1427 0.269348 0.833669 -0.389403
-1.598584 -1.189222 -0.182335 1433 0.265303 0.830836 -0.380900
-1.598858 -1.189426 -0.181753 1439 0.261362 0.827901 -0.372525
-1.598668 -1.189286 -0.181114 1445 0.264096 0.829915 -0.363331
-1.597958 -1.188745 -0.180418 1437 0.274312 0.837698 -0.353317
-1.597768 -1.188606 -0.179779 1429 0.277046 0.839698 -0.344122
-1.597515 -1.188416 -0.179140 1431 0.280686 0.842432 -0.334928
-1.596862 -1.187932 -0.178453 1439 0.290082 0.849396 -0.325043
-1.596840 -1.187907 -0.177833 1441 0.290397 0.849756 -0.316123
