768
1.403530 1.644160 -0.071400 1439 -0.950434 -0.270852 0.199778
1.403660 1.644310 -0.069750 1433 -0.948563 -0.268694 0.223519
1.404650 1.645470 -0.068140 1433 -0.934320 -0.252003 0.246684
1.405200 1.646110 -0.066510 1431 -0.926405 -0.242794 0.270138
1.405710 1.646710 -0.064870 1433 -0.919068 -0.234161 0.293735
1.406170 1.647250 -0.063230 1423 -0.912448 -0.226391 0.317332
1.406480 1.647620 -0.061580 1403 -0.907989 -0.221069 0.341073
1.406940 1.648150 -0.059940 1409 -0.901370 -0.213443 0.364670
1.407450 1.648740 -0.058300 1401 -0.894032 -0.204953 0.388267
1.407710 1.649050 -0.056650 1385 -0.890291 -0.200493 0.412008
1.408590 1.650090 -0.055020 1385 -0.877629 -0.185529 0.435461
1.410000 1.651730 -0.053410 1369 -0.857341 -0.161933 0.458627
1.410690 1.652530 -0.051770 1369 -0.847413 -0.150422 0.482224
1.411140 1.653070 -0.050120 1361 -0.840938 -0.142651 0.505965
1.411640 1.653650 -0.048470 1337 -0.833743 -0.134305 0.529706
1.412090 1.654180 -0.046820 1325 -0.827270 -0.126679 0.553447
1.412830 1.655040 -0.045180 1303 -0.816621 -0.114305 0.577044
1.413840 1.656230 -0.043540 1271 -0.802088 -0.097184 0.600641
1.414820 1.657370 -0.041900 1257 -0.787989 -0.080781 0.624238
1.415830 1.658560 -0.040260 1237 -0.773456 -0.063658 0.647835
1.417140 1.660090 -0.038620 1207 -0.754607 -0.041644 0.671433
1.419010 1.662280 -0.037000 1181 -0.727700 -0.010134 0.694742
1.421120 1.664740 -0.035370 1147 -0.697340 0.025262 0.718195
1.422510 1.666380 -0.033730 1097 -0.677340 0.048860 0.741792
1.428050 1.672860 -0.030490 959 -0.597628 0.142097 0.788411
1.423930 1.665560 -0.138010 1091 -0.656908 0.037061 -0.758639
1.421630 1.662870 -0.136110 1145 -0.690002 -0.001643 -0.731301
1.419650 1.660560 -0.134240 1183 -0.718492 -0.034881 -0.704395
1.417580 1.658140 -0.132370 1213 -0.748276 -0.069702 -0.677488
1.416330 1.656670 -0.130570 1251 -0.766262 -0.090853 -0.651589
1.415440 1.655630 -0.128820 1279 -0.779068 -0.105817 -0.626409
1.414370 1.654380 -0.127040 1301 -0.794464 -0.123803 -0.600798
1.413380 1.653230 -0.125280 1323 -0.808707 -0.140350 -0.575474
1.412590 1.652300 -0.123540 1335 -0.820074 -0.153730 -0.550438
1.411890 1.651480 -0.121810 1353 -0.830146 -0.165529 -0.525546
1.411290 1.650780 -0.120090 1365 -0.838779 -0.175601 -0.500798
1.410350 1.649680 -0.118340 1377 -0.852305 -0.191428 -0.475618
1.409320 1.648470 -0.116590 1389 -0.867125 -0.208838 -0.450438
1.408710 1.647770 -0.114870 1397 -0.875902 -0.218909 -0.425690
1.408060 1.647000 -0.113160 1409 -0.885255 -0.229990 -0.401085
1.407260 1.646070 -0.111430 1411 -0.896766 -0.243370 -0.376193
1.407120 1.645910 -0.109750 1425 -0.898780 -0.245672 -0.352021
1.406470 1.645140 -0.108040 1433 -0.908133 -0.256751 -0.327416
1.405860 1.644420 -0.106330 1431 -0.916910 -0.267111 -0.302812
1.405390 1.643880 -0.104630 1439 -0.923671 -0.274881 -0.278352
1.404820 1.643210 -0.102930 1439 -0.931874 -0.284521 -0.253891
1.404780 1.643160 -0.101270 1435 -0.932448 -0.285241 -0.230006
1.404500 1.642830 -0.099590 1445 -0.936477 -0.289989 -0.205834
1.404260 1.642550 -0.097910 1455 -0.939930 -0.294018 -0.181661
1.403880 1.642110 -0.096230 1459 -0.945398 -0.300349 -0.157488
1.403550 1.641730 -0.094550 1461 -0.950146 -0.305817 -0.133316
1.403500 1.641670 -0.092880 1461 -0.950866 -0.306680 -0.109287
1.403260 1.641390 -0.091210 1465 -0.954319 -0.310709 -0.085258
1.403260 1.641380 -0.089550 1465 -0.954319 -0.310853 -0.061373
1.403060 1.641160 -0.087880 1459 -0.957197 -0.314018 -0.037344
1.402780 1.640820 -0.086210 1457 -0.961225 -0.318910 -0.013316
1.402870 1.640930 -0.084560 1471 -0.959930 -0.317327 0.010425
1.402910 1.640980 -0.082900 1471 -0.959355 -0.316608 0.034310
1.403330 1.641470 -0.081270 1469 -0.953312 -0.309558 0.057763
1.403560 1.641730 -0.079630 1473 -0.950002 -0.305817 0.081361
1.403600 1.641780 -0.077970 1461 -0.949427 -0.305097 0.105246
1.403780 1.641990 -0.076330 1461 -0.946837 -0.302076 0.128843
1.403680 1.641870 -0.074660 1449 -0.948276 -0.303802 0.152871
1.404190 1.642460 -0.073030 1451 -0.940939 -0.295313 0.176325
1.404610 1.642950 -0.071400 1457 -0.934894 -0.288262 0.199778
1.404740 1.643110 -0.069740 1447 -0.933025 -0.285960 0.223663
1.405150 1.643590 -0.068110 1441 -0.927124 -0.279054 0.247116
1.405520 1.644020 -0.066460 1445 -0.921802 -0.272868 0.270857
1.405880 1.644440 -0.064820 1437 -0.916622 -0.266823 0.294454
1.406340 1.644980 -0.063180 1429 -0.910003 -0.259055 0.318051
1.406610 1.645300 -0.061540 1427 -0.906118 -0.254449 0.341648
1.407400 1.646220 -0.059910 1417 -0.894751 -0.241213 0.365102
1.408190 1.647140 -0.058280 1399 -0.883384 -0.227974 0.388555
1.408460 1.647450 -0.056630 1399 -0.879499 -0.223515 0.412296
1.409010 1.648100 -0.054990 1393 -0.871585 -0.214162 0.435893
1.409890 1.649120 -0.053360 1381 -0.858923 -0.199486 0.459346
1.410920 1.650330 -0.051730 1375 -0.844103 -0.182076 0.482799
1.411320 1.650800 -0.050080 1365 -0.838348 -0.175313 0.506540
1.411680 1.651220 -0.048430 1349 -0.833168 -0.169270 0.530281
1.412700 1.652410 -0.046800 1333 -0.818491 -0.152147 0.553735
1.413960 1.653880 -0.045170 1321 -0.800363 -0.130996 0.577188
1.414740 1.654790 -0.043530 1293 -0.789140 -0.117902 0.600785
1.415620 1.655820 -0.041890 1273 -0.776478 -0.103083 0.624382
1.416920 1.657340 -0.040250 1263 -0.757773 -0.081212 0.647979
1.417750 1.658310 -0.038600 1243 -0.745830 -0.067255 0.671720
1.418670 1.659390 -0.036960 1211 -0.732592 -0.051716 0.695317
1.420350 1.661350 -0.035320 1169 -0.708421 -0.023514 0.718915
1.422510 1.663870 -0.033700 1117 -0.677340 0.012744 0.742224
1.424430 1.666120 -0.032060 1065 -0.649715 0.045119 0.765821
1.425210 1.664610 -0.139710 1085 -0.638492 0.023392 -0.783100
1.423100 1.662140 -0.137820 1135 -0.668852 -0.012147 -0.755906
1.420850 1.659510 -0.135920 1171 -0.701225 -0.049989 -0.728568
1.419060 1.657420 -0.134070 1211 -0.726981 -0.080061 -0.701949
1.417660 1.655780 -0.132260 1245 -0.747125 -0.103659 -0.675906
1.416390 1.654300 -0.130470 1267 -0.765399 -0.124954 -0.650150
1.415080 1.652770 -0.128670 1293 -0.784248 -0.146967 -0.624251
1.413950 1.651460 -0.126900 1309 -0.800507 -0.165816 -0.598783
1.413300 1.650700 -0.125170 1327 -0.809858 -0.176752 -0.573891
1.412330 1.649550 -0.123410 1339 -0.823815 -0.193299 -0.548567
1.411340 1.648410 -0.121660 1351 -0.838060 -0.209702 -0.523388
1.411020 1.648030 -0.119970 1373 -0.842664 -0.215168 -0.499071
1.410270 1.647160 -0.118240 1387 -0.853456 -0.227686 -0.474179
1.409190 1.645890 -0.116480 1387 -0.868995 -0.245961 -0.448855
1.409440 1.646180 -0.114840 1413 -0.865398 -0.241787 -0.425258
1.408930 1.645580 -0.113130 1419 -0.872737 -0.250420 -0.400654
1.408080 1.644590 -0.111400 1423 -0.884967 -0.264665 -0.375762
1.407760 1.644220 -0.109710 1433 -0.889571 -0.269989 -0.351445
1.407140 1.643500 -0.108000 1443 -0.898492 -0.280349 -0.326841
1.406060 1.642230 -0.106260 1441 -0.914032 -0.298622 -0.301805
1.405540 1.641630 -0.104560 1447 -0.921514 -0.307255 -0.277344
1.405690 1.641800 -0.102910 1459 -0.919356 -0.304809 -0.253603
1.405170 1.641190 -0.101210 1449 -0.926838 -0.313586 -0.229143
1.404750 1.640700 -0.099520 1457 -0.932880 -0.320637 -0.204826
1.404320 1.640200 -0.097830 1465 -0.939067 -0.327831 -0.180510
1.403990 1.639810 -0.096150 1471 -0.943815 -0.333443 -0.156337
1.404130 1.639980 -0.094500 1467 -0.941801 -0.330997 -0.132596
1.404040 1.639870 -0.092840 1473 -0.943096 -0.332578 -0.108711
1.403890 1.639700 -0.091170 1473 -0.945254 -0.335024 -0.084683
1.404270 1.640140 -0.089540 1479 -0.939786 -0.328693 -0.061229
1.403840 1.639640 -0.087860 1469 -0.945975 -0.335889 -0.037057
1.403360 1.639070 -0.086170 1473 -0.952880 -0.344089 -0.012740
1.403730 1.639510 -0.084540 1475 -0.947556 -0.337759 0.010713
1.403870 1.639670 -0.082890 1467 -0.945542 -0.335457 0.034454
1.403730 1.639500 -0.081230 1475 -0.947556 -0.337903 0.058339
1.403670 1.639430 -0.079570 1475 -0.948421 -0.338909 0.082224
1.403810 1.639590 -0.077920 1463 -0.946405 -0.336608 0.105965
1.404360 1.640240 -0.076290 1471 -0.938491 -0.327256 0.129418
1.405070 1.641070 -0.074670 1473 -0.928277 -0.315313 0.152727
1.405250 1.641280 -0.073020 1471 -0.925687 -0.312291 0.176469
1.404910 1.640870 -0.071350 1463 -0.930579 -0.318191 0.200497
1.404700 1.640630 -0.069680 1463 -0.933599 -0.321644 0.224526
1.404880 1.640840 -0.068030 1457 -0.931009 -0.318622 0.248267
1.405440 1.641490 -0.066400 1441 -0.922953 -0.309270 0.271720
1.405850 1.641970 -0.064770 1445 -0.917052 -0.302363 0.295174
1.406260 1.642450 -0.063130 1435 -0.911153 -0.295457 0.318771
1.407060 1.643380 -0.061500 1425 -0.899643 -0.282075 0.342224
1.407800 1.644240 -0.059870 1429 -0.888996 -0.269701 0.365677
1.408210 1.644720 -0.058230 1423 -0.883096 -0.262796 0.389274
1.408670 1.645260 -0.056590 1407 -0.876478 -0.255026 0.412871
1.409410 1.646120 -0.054960 1403 -0.865830 -0.242652 0.436325
1.410290 1.647150 -0.053330 1397 -0.853168 -0.227830 0.459778
1.411180 1.648180 -0.051700 1379 -0.840362 -0.213011 0.483231
1.411910 1.649040 -0.050060 1375 -0.829858 -0.200637 0.506828
1.412700 1.649960 -0.048420 1359 -0.818491 -0.187399 0.530425
1.413480 1.650870 -0.046790 1349 -0.807268 -0.174306 0.553879
1.414120 1.651620 -0.045140 1331 -0.798061 -0.163514 0.577620
1.415240 1.652930 -0.043510 1317 -0.781944 -0.144665 0.601073
1.416500 1.654390 -0.041880 1305 -0.763816 -0.123659 0.624526
1.417660 1.655750 -0.040240 1293 -0.747125 -0.104089 0.648123
1.418400 1.656610 -0.038590 1255 -0.736477 -0.091716 0.671864
1.419320 1.657680 -0.036940 1225 -0.723240 -0.076320 0.695605
1.420430 1.658980 -0.035300 1195 -0.707270 -0.057615 0.719202
1.422300 1.661160 -0.033670 1159 -0.680363 -0.026248 0.742656
1.424790 1.664070 -0.032050 1119 -0.644535 0.015622 0.765965
1.429010 1.668990 -0.028770 995 -0.583815 0.086414 0.813159
1.425920 1.662860 -0.139650 1117 -0.628276 -0.001787 -0.782237
1.423470 1.660000 -0.137730 1167 -0.663527 -0.042939 -0.754611
1.421010 1.657140 -0.135810 1189 -0.698923 -0.084090 -0.726985
1.419180 1.655010 -0.133960 1221 -0.725254 -0.114738 -0.700366
1.418440 1.654150 -0.132220 1259 -0.735902 -0.127111 -0.675330
1.417510 1.653060 -0.130450 1285 -0.749283 -0.142796 -0.649862
1.416440 1.651800 -0.128680 1303 -0.764679 -0.160924 -0.624395
1.415170 1.650330 -0.126900 1325 -0.782953 -0.182076 -0.598783
1.414140 1.649130 -0.125130 1343 -0.797773 -0.199342 -0.573316
1.413390 1.648250 -0.123400 1359 -0.808563 -0.212004 -0.548424
1.412410 1.647110 -0.121640 1371 -0.822664 -0.228407 -0.523100
1.411850 1.646450 -0.119930 1383 -0.830722 -0.237902 -0.498496
1.410910 1.645360 -0.118180 1395 -0.844247 -0.253586 -0.473316
1.409640 1.643880 -0.116410 1391 -0.862521 -0.274881 -0.447848
1.409120 1.643280 -0.114710 1405 -0.870003 -0.283514 -0.423388
1.408800 1.642900 -0.113020 1421 -0.874607 -0.288982 -0.399071
1.407860 1.641800 -0.111280 1431 -0.888131 -0.304809 -0.374035
1.407490 1.641370 -0.109590 1431 -0.893456 -0.310996 -0.349719
1.407730 1.641650 -0.107950 1447 -0.890003 -0.306968 -0.326121
1.407400 1.641270 -0.106260 1445 -0.894751 -0.312435 -0.301805
1.406360 1.640060 -0.104520 1449 -0.909714 -0.329846 -0.276769
1.405750 1.639340 -0.102820 1461 -0.918491 -0.340204 -0.252308
1.405470 1.639010 -0.101140 1461 -0.922520 -0.344954 -0.228136
1.404910 1.638350 -0.099440 1461 -0.930579 -0.354450 -0.203675
1.404430 1.637800 -0.097750 1471 -0.937484 -0.362364 -0.179359
1.404330 1.637680 -0.096090 1477 -0.938923 -0.364089 -0.155474
1.404710 1.638130 -0.094460 1475 -0.933455 -0.357616 -0.132021
1.404620 1.638010 -0.092800 1473 -0.934750 -0.359341 -0.108136
1.404190 1.637510 -0.091110 1473 -0.940939 -0.366537 -0.083819
1.404660 1.638070 -0.089490 1481 -0.934175 -0.358479 -0.060510
1.404560 1.637950 -0.087820 1487 -0.935615 -0.360206 -0.036481
1.403850 1.637110 -0.086120 1473 -0.945831 -0.372291 -0.012021
1.404130 1.637440 -0.084490 1467 -0.941801 -0.367544 0.011433
1.404460 1.637830 -0.082850 1475 -0.937054 -0.361931 0.035030
1.403930 1.637210 -0.081160 1481 -0.944680 -0.370852 0.059346
1.403680 1.636920 -0.079500 1481 -0.948276 -0.375026 0.083231
1.404340 1.637680 -0.077880 1477 -0.938779 -0.364089 0.106540
1.404910 1.638340 -0.076250 1481 -0.930579 -0.354594 0.129994
1.405180 1.638660 -0.074610 1477 -0.926694 -0.349990 0.153591
1.405170 1.638650 -0.072960 1469 -0.926838 -0.350134 0.177332
1.405110 1.638580 -0.071300 1465 -0.927700 -0.351141 0.201217
1.405430 1.638950 -0.069660 1467 -0.923097 -0.345817 0.224814
1.405650 1.639210 -0.068010 1457 -0.919930 -0.342076 0.248555
1.405970 1.639580 -0.066370 1457 -0.915327 -0.336752 0.272152
1.406440 1.640120 -0.064730 1455 -0.908563 -0.328982 0.295749
1.406800 1.640550 -0.063090 1445 -0.903383 -0.322795 0.319346
1.407640 1.641520 -0.061470 1439 -0.891298 -0.308838 0.342656
1.408530 1.642560 -0.059850 1441 -0.878492 -0.293874 0.365965
1.408700 1.642760 -0.058200 1425 -0.876046 -0.290996 0.389706
1.408970 1.643070 -0.056550 1415 -0.872161 -0.286536 0.413447
1.410000 1.644270 -0.054930 1403 -0.857341 -0.269271 0.436756
1.410790 1.645190 -0.053300 1399 -0.845974 -0.256032 0.460210
1.411290 1.645770 -0.051660 1387 -0.838779 -0.247688 0.483807
1.412220 1.646850 -0.050030 1383 -0.825398 -0.232148 0.507260
1.413190 1.647990 -0.048400 1365 -0.811441 -0.215745 0.530713
1.414170 1.649130 -0.046770 1359 -0.797340 -0.199342 0.554166
1.415100 1.650210 -0.045130 1347 -0.783960 -0.183802 0.577763
1.415830 1.651070 -0.043490 1333 -0.773456 -0.171428 0.601361
1.417090 1.652530 -0.041860 1327 -0.755325 -0.150422 0.624814
1.418310 1.653940 -0.040220 1299 -0.737772 -0.130134 0.648411
1.419090 1.654860 -0.038570 1267 -0.726549 -0.116895 0.672152
1.420200 1.656150 -0.036930 1247 -0.710578 -0.098335 0.695749
1.420890 1.656950 -0.035280 1219 -0.700650 -0.086824 0.719490
1.422290 1.658580 -0.033640 1187 -0.680507 -0.063371 0.743087
1.424110 1.660710 -0.032000 1149 -0.654318 -0.032723 0.766684
1.425890 1.662780 -0.030360 1099 -0.628708 -0.002938 0.790281
1.428660 1.666010 -0.028740 1035 -0.588851 0.043536 0.813591
1.427620 1.662360 -0.143070 977 -0.603815 -0.008983 -0.831445
1.427550 1.662280 -0.141380 1067 -0.604823 -0.010134 -0.807129
1.425760 1.660200 -0.139520 1143 -0.630578 -0.040061 -0.780366
1.423640 1.657730 -0.137630 1179 -0.661082 -0.075601 -0.753172
1.421430 1.655150 -0.135740 1219 -0.692880 -0.112722 -0.725977
1.419790 1.653240 -0.133900 1247 -0.716477 -0.140206 -0.699503
1.418430 1.651660 -0.132100 1277 -0.736046 -0.162939 -0.673603
1.417210 1.650240 -0.130310 1301 -0.753600 -0.183371 -0.647848
1.416220 1.649090 -0.128550 1319 -0.767845 -0.199917 -0.622524
1.415580 1.648340 -0.126820 1329 -0.777052 -0.210709 -0.597632
1.414970 1.647640 -0.125100 1349 -0.785829 -0.220781 -0.572884
1.414320 1.646880 -0.123370 1367 -0.795183 -0.231715 -0.547992
1.413480 1.645900 -0.121630 1377 -0.807268 -0.245816 -0.522956
1.412490 1.644750 -0.119880 1385 -0.821513 -0.262363 -0.497776
1.411700 1.643820 -0.118150 1397 -0.832880 -0.275744 -0.472884
1.410560 1.642500 -0.116390 1399 -0.849283 -0.294737 -0.447560
1.409290 1.641020 -0.114620 1411 -0.867557 -0.316032 -0.422093
1.408730 1.640370 -0.112920 1423 -0.875614 -0.325385 -0.397632
1.408450 1.640040 -0.111230 1433 -0.879643 -0.330133 -0.373316
1.408080 1.639610 -0.109540 1443 -0.884967 -0.336319 -0.348999
1.407380 1.638790 -0.107830 1439 -0.895039 -0.348119 -0.324395
1.406950 1.638290 -0.106140 1451 -0.901226 -0.355312 -0.300078
1.406530 1.637800 -0.104450 1459 -0.907268 -0.362364 -0.275762
1.406340 1.637590 -0.102780 1467 -0.910003 -0.365384 -0.251733
1.405870 1.637030 -0.101080 1455 -0.916766 -0.373442 -0.227273
1.405540 1.636650 -0.099400 1461 -0.921514 -0.378911 -0.203100
1.405350 1.636430 -0.097730 1475 -0.924248 -0.382075 -0.179071
1.405680 1.636810 -0.096100 1487 -0.919500 -0.376609 -0.155618
1.405970 1.637150 -0.094460 1483 -0.915327 -0.371715 -0.132021
1.405730 1.636870 -0.092790 1485 -0.918779 -0.375744 -0.107992
1.405540 1.636640 -0.091120 1485 -0.921514 -0.379055 -0.083963
1.405110 1.636140 -0.089440 1475 -0.927700 -0.386248 -0.059791
1.405010 1.636030 -0.087780 1485 -0.929139 -0.387832 -0.035906
1.405110 1.636140 -0.086130 1487 -0.927700 -0.386248 -0.012165
1.404860 1.635850 -0.084460 1471 -0.931297 -0.390422 0.011864
1.405090 1.636120 -0.082820 1489 -0.927989 -0.386537 0.035461
1.404950 1.635950 -0.081150 1495 -0.930002 -0.388982 0.059490
1.404460 1.635380 -0.079470 1475 -0.937054 -0.397183 0.083663
1.404970 1.635980 -0.077850 1477 -0.929714 -0.388550 0.106972
1.405730 1.636860 -0.076230 1481 -0.918779 -0.375888 0.130281
1.405720 1.636850 -0.074580 1475 -0.918924 -0.376032 0.154022
1.405280 1.636340 -0.072900 1473 -0.925254 -0.383370 0.178195
1.405890 1.637040 -0.071270 1475 -0.916478 -0.373298 0.201648
1.406680 1.637970 -0.069660 1481 -0.905111 -0.359918 0.224814
1.406580 1.637840 -0.068000 1465 -0.906550 -0.361787 0.248699
1.406470 1.637710 -0.066340 1455 -0.908133 -0.363659 0.272584
1.407260 1.638640 -0.064720 1459 -0.896766 -0.350276 0.295893
1.407820 1.639290 -0.063090 1451 -0.888708 -0.340925 0.319346
1.407850 1.639320 -0.061430 1443 -0.888276 -0.340493 0.343231
1.408310 1.639860 -0.059790 1445 -0.881656 -0.332723 0.366828
1.409440 1.641170 -0.058180 1437 -0.865398 -0.313874 0.389994
1.410420 1.642310 -0.056560 1421 -0.851298 -0.297471 0.413303
1.410640 1.642560 -0.054910 1409 -0.848132 -0.293874 0.437044
1.411090 1.643090 -0.053270 1401 -0.841657 -0.286248 0.460641
1.412030 1.644170 -0.051640 1395 -0.828132 -0.270708 0.484094
1.412810 1.645090 -0.050010 1391 -0.816910 -0.257471 0.507548
1.413930 1.646390 -0.048380 1373 -0.800793 -0.238767 0.531001
1.415100 1.647760 -0.046760 1365 -0.783960 -0.219054 0.554310
1.415600 1.648340 -0.045110 1343 -0.776766 -0.210709 0.578051
1.416340 1.649190 -0.043470 1333 -0.766118 -0.198479 0.601648
1.417360 1.650380 -0.041830 1317 -0.751442 -0.181356 0.625246
1.418050 1.651180 -0.040180 1305 -0.741513 -0.169845 0.648986
1.418880 1.652150 -0.038530 1283 -0.729571 -0.155888 0.672728
1.420370 1.653880 -0.036900 1261 -0.708132 -0.130996 0.696181
1.421440 1.655120 -0.035260 1233 -0.692736 -0.113154 0.719778
1.423030 1.656980 -0.033620 1203 -0.669858 -0.086392 0.743375
1.424810 1.659050 -0.031990 1171 -0.644246 -0.056608 0.766828
1.426250 1.660720 -0.030340 1123 -0.623528 -0.032579 0.790569
1.428370 1.663180 -0.028710 1063 -0.593024 0.002816 0.814022
1.431050 1.666310 -0.027080 991 -0.554464 0.047852 0.837476
1.428060 1.660400 -0.141310 1095 -0.597484 -0.037183 -0.806122
1.425840 1.657820 -0.139400 1165 -0.629427 -0.074306 -0.778639
1.424240 1.655970 -0.137570 1209 -0.652449 -0.100925 -0.752308
1.422220 1.653610 -0.135690 1239 -0.681513 -0.134881 -0.725258
1.420530 1.651640 -0.133860 1261 -0.705831 -0.163226 -0.698927
1.419300 1.650220 -0.132070 1281 -0.723528 -0.183658 -0.673172
1.418370 1.649140 -0.130310 1305 -0.736909 -0.199198 -0.647848
1.417580 1.648220 -0.128570 1335 -0.748276 -0.212436 -0.622812
1.416650 1.647130 -0.126810 1343 -0.761656 -0.228119 -0.597488
1.416180 1.646590 -0.125100 1363 -0.768420 -0.235889 -0.572884
1.415200 1.645450 -0.123340 1375 -0.782521 -0.252291 -0.547560
1.413980 1.644030 -0.121570 1385 -0.800074 -0.272723 -0.522093
1.413320 1.643260 -0.119850 1397 -0.809572 -0.283802 -0.497344
1.412570 1.642390 -0.118120 1409 -0.820362 -0.296320 -0.472452
1.411300 1.640910 -0.116350 1413 -0.838637 -0.317615 -0.446985
1.410650 1.640150 -0.114630 1423 -0.847988 -0.328551 -0.422237
1.410270 1.639720 -0.112940 1437 -0.853456 -0.334738 -0.397920
1.409140 1.638400 -0.111190 1439 -0.869715 -0.353731 -0.372740
1.408570 1.637740 -0.109490 1447 -0.877916 -0.363226 -0.348280
1.408720 1.637910 -0.107840 1451 -0.875758 -0.360780 -0.324539
1.408580 1.637750 -0.106170 1457 -0.877773 -0.363082 -0.300510
1.407830 1.636880 -0.104450 1467 -0.888564 -0.375600 -0.275762
1.406980 1.635880 -0.102730 1469 -0.900793 -0.389989 -0.251013
1.406600 1.635440 -0.101050 1465 -0.906262 -0.396320 -0.226841
1.406360 1.635170 -0.099380 1469 -0.909714 -0.400205 -0.202812
1.406220 1.635000 -0.097710 1473 -0.911730 -0.402651 -0.178783
1.406130 1.634890 -0.096050 1483 -0.913025 -0.404234 -0.154898
1.406460 1.635280 -0.094420 1481 -0.908275 -0.398622 -0.131445
1.406700 1.635560 -0.092780 1491 -0.904823 -0.394593 -0.107848
1.406080 1.634840 -0.091080 1491 -0.913743 -0.404953 -0.083388
1.405550 1.634220 -0.089390 1487 -0.921369 -0.413874 -0.059071
1.406030 1.634770 -0.087770 1495 -0.914462 -0.405960 -0.035762
1.406260 1.635040 -0.086120 1491 -0.911153 -0.402075 -0.012021
1.405920 1.634650 -0.084450 1493 -0.916045 -0.407687 0.012008
1.405630 1.634310 -0.082780 1491 -0.920219 -0.412579 0.036037
1.405860 1.634580 -0.081140 1501 -0.916910 -0.408694 0.059634
1.405720 1.634410 -0.079470 1483 -0.918924 -0.411140 0.083663
1.405850 1.634560 -0.077830 1477 -0.917052 -0.408982 0.107260
1.406460 1.635270 -0.076210 1479 -0.908275 -0.398766 0.130569
1.406450 1.635260 -0.074550 1489 -0.908419 -0.398910 0.154454
1.406290 1.635080 -0.072890 1489 -0.910721 -0.401500 0.178339
1.407000 1.635900 -0.071270 1479 -0.900507 -0.389701 0.201648
1.407840 1.636880 -0.069660 1483 -0.888420 -0.375600 0.224814
1.407500 1.636480 -0.067980 1471 -0.893312 -0.381357 0.248987
1.407480 1.636460 -0.066330 1463 -0.893600 -0.381645 0.272727
1.407990 1.637050 -0.064700 1459 -0.886262 -0.373154 0.296181
1.408450 1.637580 -0.063060 1445 -0.879643 -0.365528 0.319778
1.408770 1.637950 -0.061420 1447 -0.875039 -0.360206 0.343375
1.408950 1.638160 -0.059770 1435 -0.872449 -0.357184 0.367116
1.409360 1.638630 -0.058130 1431 -0.866549 -0.350420 0.390713
1.410340 1.639780 -0.056510 1421 -0.852449 -0.333873 0.414022
1.411510 1.641130 -0.054900 1417 -0.835614 -0.314450 0.437188
1.411730 1.641380 -0.053250 1409 -0.832448 -0.310853 0.460929
1.412240 1.641980 -0.051600 1397 -0.825110 -0.302219 0.484670
1.413400 1.643330 -0.049990 1395 -0.808419 -0.282795 0.507835
1.414430 1.644530 -0.048360 1383 -0.793599 -0.265528 0.531289
1.415550 1.645830 -0.046730 1375 -0.777485 -0.246823 0.554742
1.416290 1.646680 -0.045090 1359 -0.766836 -0.234594 0.578339
1.416790 1.647260 -0.043440 1339 -0.759643 -0.226249 0.602080
1.417770 1.648400 -0.041800 1337 -0.745542 -0.209846 0.625677
1.418600 1.649360 -0.040160 1313 -0.733600 -0.196033 0.649274
1.419710 1.650650 -0.038520 1299 -0.717628 -0.177471 0.672871
1.421020 1.652180 -0.036890 1279 -0.698779 -0.155457 0.696325
1.421800 1.653080 -0.035240 1255 -0.687556 -0.142507 0.720066
1.422960 1.654430 -0.033590 1219 -0.670865 -0.123082 0.743807
1.424750 1.656500 -0.031960 1187 -0.645111 -0.093299 0.767260
1.426670 1.658730 -0.030330 1145 -0.617485 -0.061212 0.790713
1.428830 1.661240 -0.028690 1095 -0.586405 -0.025097 0.814310
1.431660 1.664530 -0.027070 1029 -0.545685 0.022242 0.837620
1.427630 1.657390 -0.141140 1127 -0.603672 -0.080493 -0.803675
1.425040 1.654380 -0.139200 1171 -0.640938 -0.123803 -0.775762
1.423340 1.652410 -0.137360 1213 -0.665399 -0.152147 -0.749287
1.422320 1.651220 -0.135590 1249 -0.680074 -0.169270 -0.723819
1.420950 1.649630 -0.133780 1277 -0.699786 -0.192148 -0.697776
1.419360 1.647780 -0.131960 1293 -0.722664 -0.218767 -0.671589
1.418280 1.646520 -0.130190 1315 -0.738204 -0.236895 -0.646121
1.417530 1.645660 -0.128450 1333 -0.748996 -0.249269 -0.621086
1.416840 1.644850 -0.126720 1345 -0.758924 -0.260924 -0.596193
1.416080 1.643980 -0.124980 1375 -0.769859 -0.273442 -0.571157
1.414860 1.642560 -0.123210 1375 -0.787413 -0.293874 -0.545690
1.414020 1.641580 -0.121470 1393 -0.799500 -0.307975 -0.520654
1.413270 1.640710 -0.119740 1395 -0.810290 -0.320493 -0.495762
1.412760 1.640110 -0.118030 1413 -0.817628 -0.329126 -0.471157
1.412340 1.639630 -0.116330 1427 -0.823671 -0.336033 -0.446697
1.411390 1.638530 -0.114600 1433 -0.837341 -0.351860 -0.421805
1.410640 1.637660 -0.112870 1443 -0.848132 -0.364377 -0.396913
1.409790 1.636670 -0.111150 1443 -0.860362 -0.378622 -0.372165
1.409280 1.636070 -0.109450 1445 -0.867701 -0.387255 -0.347704
1.409470 1.636300 -0.107800 1461 -0.864967 -0.383947 -0.323963
1.409290 1.636090 -0.106130 1465 -0.867557 -0.386967 -0.299934
1.408440 1.635100 -0.104410 1475 -0.879787 -0.401212 -0.275186
1.407680 1.634220 -0.102700 1469 -0.890721 -0.413874 -0.250582
1.407540 1.634050 -0.101030 1475 -0.892737 -0.416320 -0.226553
1.407210 1.633670 -0.099350 1481 -0.897485 -0.421788 -0.202380
1.407020 1.633450 -0.097680 1481 -0.900219 -0.424953 -0.178352
1.407070 1.633500 -0.096030 1487 -0.899498 -0.424234 -0.154611
1.406880 1.633290 -0.094360 1491 -0.902233 -0.427255 -0.130582
1.407310 1.633780 -0.092730 1495 -0.896046 -0.420205 -0.107129
1.407590 1.634110 -0.091100 1507 -0.892017 -0.415457 -0.083675
1.407590 1.634100 -0.089440 1503 -0.892017 -0.415601 -0.059791
1.407160 1.633600 -0.087760 1493 -0.898203 -0.422795 -0.035618
1.406680 1.633050 -0.086080 1495 -0.905111 -0.430709 -0.011445
1.406820 1.633210 -0.084430 1495 -0.903095 -0.428407 0.012296
1.406950 1.633360 -0.082780 1495 -0.901226 -0.426248 0.036037
1.406950 1.633360 -0.081130 1501 -0.901226 -0.426248 0.059778
1.406660 1.633020 -0.079460 1495 -0.905399 -0.431140 0.083807
1.406500 1.632840 -0.077800 1487 -0.907701 -0.433730 0.107692
1.406730 1.633110 -0.076160 1489 -0.904390 -0.429845 0.131289
1.407110 1.633540 -0.074520 1495 -0.898924 -0.423658 0.154886
1.407430 1.633910 -0.072880 1487 -0.894318 -0.418335 0.178483
1.407800 1.634340 -0.071250 1485 -0.888996 -0.412147 0.201936
1.408070 1.634650 -0.069610 1489 -0.885111 -0.407687 0.225533
1.408100 1.634690 -0.067950 1471 -0.884679 -0.407111 0.249418
1.408480 1.635130 -0.066320 1469 -0.879211 -0.400780 0.272871
1.408890 1.635600 -0.064680 1467 -0.873312 -0.394018 0.296468
1.409310 1.636090 -0.063040 1455 -0.867269 -0.386967 0.320066
1.409720 1.636560 -0.061410 1449 -0.861370 -0.380206 0.343519
1.409790 1.636650 -0.059750 1435 -0.860362 -0.378911 0.367404
1.410310 1.637240 -0.058120 1437 -0.852880 -0.370420 0.390857
1.411140 1.638220 -0.056490 1437 -0.840938 -0.356321 0.414310
1.412030 1.639240 -0.054870 1427 -0.828132 -0.341644 0.437620
1.412480 1.639770 -0.053230 1413 -0.821657 -0.334018 0.461217
1.412990 1.640350 -0.051590 1399 -0.814320 -0.325673 0.484814
1.413400 1.640830 -0.049940 1397 -0.808419 -0.318766 0.508555
1.414040 1.641580 -0.048300 1391 -0.799212 -0.307975 0.532152
1.415450 1.643210 -0.046690 1375 -0.778924 -0.284521 0.555317
1.416570 1.644510 -0.045060 1367 -0.762809 -0.265816 0.578771
1.417400 1.645470 -0.043420 1343 -0.750866 -0.252003 0.602368
1.418290 1.646500 -0.041780 1329 -0.738060 -0.237184 0.625965
1.419070 1.647410 -0.040140 1317 -0.726837 -0.224089 0.649562
1.420190 1.648700 -0.038500 1301 -0.710722 -0.205529 0.673159
1.421500 1.650220 -0.036870 1283 -0.691874 -0.183658 0.696612
1.422710 1.651620 -0.035230 1271 -0.674464 -0.163514 0.720210
1.424020 1.653140 -0.033590 1239 -0.655613 -0.141645 0.743807
1.425170 1.654490 -0.031940 1205 -0.639068 -0.122220 0.767548
1.426480 1.656000 -0.030300 1157 -0.620218 -0.100493 0.791145
1.428840 1.658730 -0.028670 1121 -0.586261 -0.061212 0.814598
1.431040 1.661290 -0.027030 1053 -0.554606 -0.024377 0.838195
1.429780 1.657420 -0.142920 1089 -0.572736 -0.080061 -0.829287
1.427750 1.655070 -0.141030 1145 -0.601945 -0.113875 -0.802093
1.426300 1.653380 -0.139210 1181 -0.622808 -0.138190 -0.775906
1.424600 1.651420 -0.137370 1225 -0.647269 -0.166392 -0.749431
1.422910 1.649460 -0.135530 1253 -0.671586 -0.194594 -0.722956
1.421780 1.648150 -0.133750 1279 -0.687844 -0.213443 -0.697345
1.420230 1.646350 -0.131930 1305 -0.710146 -0.239341 -0.671157
1.418860 1.644770 -0.130130 1323 -0.729859 -0.262075 -0.645258
1.418410 1.644240 -0.128420 1341 -0.736334 -0.269701 -0.620654
1.417570 1.643260 -0.126670 1357 -0.748420 -0.283802 -0.595474
1.416670 1.642220 -0.124930 1377 -0.761370 -0.298766 -0.570438
1.415490 1.640860 -0.123160 1383 -0.778347 -0.318335 -0.544970
1.414500 1.639710 -0.121410 1395 -0.792593 -0.334882 -0.519790
1.413800 1.638900 -0.119680 1409 -0.802664 -0.346535 -0.494898
1.412670 1.637590 -0.117930 1417 -0.818923 -0.365384 -0.469719
1.412730 1.637660 -0.116270 1429 -0.818060 -0.364377 -0.445834
1.412170 1.637000 -0.114560 1423 -0.826117 -0.373875 -0.421229
1.410850 1.635470 -0.112790 1429 -0.845110 -0.395888 -0.395762
1.410470 1.635030 -0.111110 1443 -0.850578 -0.402219 -0.371589
1.410430 1.634980 -0.109440 1451 -0.851154 -0.402939 -0.347560
1.409910 1.634380 -0.107740 1459 -0.858636 -0.411572 -0.323100
1.409680 1.634120 -0.106070 1465 -0.861945 -0.415313 -0.299071
1.409160 1.633510 -0.104370 1471 -0.869427 -0.424090 -0.274611
1.408500 1.632740 -0.102670 1477 -0.878924 -0.435169 -0.250150
1.408120 1.632300 -0.100980 1483 -0.884391 -0.441500 -0.225834
1.407690 1.631810 -0.099300 1491 -0.890577 -0.448551 -0.201661
1.407690 1.631810 -0.097640 1485 -0.890577 -0.448551 -0.177776
1.407790 1.631920 -0.096000 1491 -0.889140 -0.446968 -0.154179
1.407840 1.631970 -0.094350 1497 -0.888420 -0.446248 -0.130438
1.407690 1.631810 -0.092680 1501 -0.890577 -0.448551 -0.106409
1.407500 1.631580 -0.091010 1499 -0.893312 -0.451860 -0.082380
1.407790 1.631910 -0.089380 1503 -0.889140 -0.447112 -0.058927
1.407310 1.631360 -0.087690 1505 -0.896046 -0.455024 -0.034611
1.406590 1.630520 -0.086000 1499 -0.906406 -0.467112 -0.010294
1.406970 1.630960 -0.084370 1497 -0.900937 -0.460781 0.013159
1.407290 1.631340 -0.082730 1491 -0.896334 -0.455313 0.036756
1.407480 1.631550 -0.081090 1497 -0.893600 -0.452292 0.060353
1.407710 1.631820 -0.079450 1499 -0.890291 -0.448407 0.083951
1.407840 1.631970 -0.077800 1497 -0.888420 -0.446248 0.107692
1.407600 1.631690 -0.076140 1501 -0.891872 -0.450277 0.131576
1.407870 1.632010 -0.074500 1497 -0.887987 -0.445673 0.155174
1.408480 1.632710 -0.072880 1493 -0.879211 -0.435601 0.178483
1.408330 1.632540 -0.071210 1487 -0.881370 -0.438047 0.202512
1.408370 1.632580 -0.069560 1491 -0.880794 -0.437471 0.226253
1.408590 1.632840 -0.067920 1481 -0.877629 -0.433730 0.249850
1.409100 1.633430 -0.066290 1479 -0.870290 -0.425241 0.273303
1.409510 1.633900 -0.064650 1473 -0.864391 -0.418478 0.296900
1.409400 1.633770 -0.062990 1465 -0.865974 -0.420349 0.320785
1.409920 1.634370 -0.061360 1453 -0.858492 -0.411716 0.344238
1.410860 1.635460 -0.059750 1447 -0.844967 -0.396032 0.367404
1.411020 1.635650 -0.058100 1443 -0.842664 -0.393298 0.391145
1.410670 1.635240 -0.056430 1431 -0.847700 -0.399198 0.415174
1.411420 1.636110 -0.054800 1427 -0.836909 -0.386681 0.438627
1.412730 1.637630 -0.053190 1415 -0.818060 -0.364810 0.461792
1.413710 1.638760 -0.051570 1411 -0.803959 -0.348551 0.485102
1.414750 1.639960 -0.049950 1407 -0.788996 -0.331283 0.508411
1.415440 1.640760 -0.048310 1403 -0.779068 -0.319774 0.532008
1.415990 1.641400 -0.046670 1387 -0.771154 -0.310565 0.555605
1.417110 1.642700 -0.045040 1373 -0.755039 -0.291860 0.579058
1.417990 1.643710 -0.043400 1357 -0.742377 -0.277327 0.602656
1.418590 1.644400 -0.041760 1339 -0.733744 -0.267399 0.626253
1.419850 1.645870 -0.040130 1335 -0.715614 -0.246249 0.649706
1.421210 1.647440 -0.038500 1321 -0.696045 -0.223659 0.673159
1.422130 1.648510 -0.036850 1301 -0.682809 -0.208263 0.696900
1.422920 1.649420 -0.035210 1275 -0.671442 -0.195169 0.720497
1.424080 1.650760 -0.033560 1247 -0.654751 -0.175888 0.744238
1.425530 1.652450 -0.031920 1215 -0.633888 -0.151572 0.767835
1.427170 1.654340 -0.030290 1181 -0.610290 -0.124377 0.791289
1.429000 1.656460 -0.028650 1143 -0.583959 -0.093873 0.814886
1.431450 1.659300 -0.027020 1077 -0.548707 -0.053011 0.838339
1.434040 1.662310 -0.025380 1001 -0.511442 -0.009701 0.861936
1.433720 1.659560 -0.144880 1047 -0.516046 -0.049270 -0.857488
1.428560 1.653600 -0.141000 1157 -0.590290 -0.135026 -0.801661
1.426870 1.651640 -0.139150 1207 -0.614607 -0.163226 -0.775042
1.424980 1.649450 -0.137290 1241 -0.641801 -0.194738 -0.748280
1.423240 1.647430 -0.135450 1267 -0.666838 -0.223803 -0.721805
1.422160 1.646190 -0.133670 1293 -0.682376 -0.241643 -0.696193
1.421030 1.644880 -0.131890 1313 -0.698635 -0.260492 -0.670582
1.419570 1.643190 -0.130090 1329 -0.719643 -0.284809 -0.644683
1.418830 1.642330 -0.128350 1349 -0.730290 -0.297183 -0.619647
1.418510 1.641960 -0.126650 1371 -0.734895 -0.302507 -0.595186
1.417810 1.641150 -0.124920 1383 -0.744967 -0.314162 -0.570294
1.416870 1.640060 -0.123170 1397 -0.758492 -0.329846 -0.545114
1.415450 1.638420 -0.121390 1405 -0.778924 -0.353443 -0.519503
1.413980 1.636720 -0.119600 1413 -0.800074 -0.377904 -0.493747
1.412950 1.635520 -0.117850 1417 -0.814894 -0.395169 -0.468567
1.412570 1.635090 -0.116160 1425 -0.820362 -0.401356 -0.444251
1.412300 1.634770 -0.114480 1439 -0.824247 -0.405960 -0.420078
1.411880 1.634280 -0.112780 1439 -0.830290 -0.413011 -0.395618
1.411600 1.633960 -0.111100 1451 -0.834319 -0.417615 -0.371445
1.411030 1.633300 -0.109400 1463 -0.842520 -0.427112 -0.346985
1.410560 1.632760 -0.107700 1469 -0.849283 -0.434881 -0.322524
1.410380 1.632540 -0.106030 1481 -0.851873 -0.438047 -0.298496
1.410100 1.632220 -0.104360 1487 -0.855902 -0.442651 -0.274467
1.409290 1.631290 -0.102640 1481 -0.867557 -0.456033 -0.249719
1.408770 1.630680 -0.100950 1489 -0.875039 -0.464810 -0.225402
1.408870 1.630790 -0.099300 1497 -0.873600 -0.463227 -0.201661
1.409350 1.631350 -0.097680 1499 -0.866693 -0.455169 -0.178352
1.409300 1.631290 -0.096020 1499 -0.867413 -0.456033 -0.154467
1.409200 1.631180 -0.094360 1501 -0.868852 -0.457614 -0.130582
1.408730 1.630630 -0.092670 1499 -0.875614 -0.465529 -0.106265
1.407630 1.629360 -0.090950 1483 -0.891442 -0.483803 -0.081517
1.407620 1.629350 -0.089290 1489 -0.891586 -0.483947 -0.057632
1.408050 1.629850 -0.087670 1511 -0.885399 -0.476751 -0.034323
1.408190 1.630000 -0.086020 1505 -0.883384 -0.474594 -0.010582
1.407940 1.629720 -0.084360 1497 -0.886981 -0.478623 0.013303
1.408130 1.629930 -0.082710 1491 -0.884246 -0.475600 0.037044
1.408310 1.630150 -0.081070 1501 -0.881656 -0.472436 0.060641
1.407980 1.629750 -0.079400 1499 -0.886406 -0.478190 0.084670
1.408300 1.630130 -0.077760 1493 -0.881801 -0.472722 0.108267
1.408770 1.630680 -0.076140 1499 -0.875039 -0.464810 0.131576
1.409240 1.631210 -0.074510 1505 -0.868276 -0.457184 0.155030
1.409420 1.631420 -0.072860 1499 -0.865686 -0.454162 0.178771
1.409600 1.631630 -0.071220 1493 -0.863096 -0.451141 0.202368
1.409540 1.631560 -0.069560 1487 -0.863959 -0.452148 0.226253
1.409580 1.631600 -0.067910 1483 -0.863384 -0.451572 0.249994
1.409700 1.631750 -0.066260 1467 -0.861657 -0.449414 0.273735
1.410120 1.632230 -0.064630 1473 -0.855614 -0.442507 0.297188
1.410580 1.632760 -0.062990 1473 -0.848995 -0.434881 0.320785
1.410710 1.632910 -0.061350 1457 -0.847125 -0.432723 0.344382
1.411070 1.633330 -0.059710 1449 -0.841945 -0.426680 0.367979
1.411490 1.633810 -0.058070 1443 -0.835902 -0.419773 0.391576
1.411900 1.634280 -0.056430 1433 -0.830002 -0.413011 0.415174
1.412640 1.635140 -0.054800 1433 -0.819355 -0.400638 0.438627
1.413630 1.636280 -0.053180 1427 -0.805110 -0.384235 0.461936
1.414700 1.637530 -0.051560 1417 -0.789714 -0.366249 0.485245
1.415400 1.638330 -0.049930 1415 -0.779642 -0.354738 0.508699
1.416140 1.639190 -0.048290 1399 -0.768996 -0.342364 0.532296
1.417070 1.640270 -0.046660 1393 -0.755614 -0.326824 0.555749
1.417720 1.641010 -0.045020 1377 -0.746262 -0.316176 0.579346
1.418790 1.642250 -0.043390 1363 -0.730866 -0.298335 0.602799
1.419960 1.643600 -0.041760 1359 -0.714031 -0.278910 0.626253
1.420800 1.644570 -0.040120 1345 -0.701945 -0.264953 0.649850
1.421580 1.645480 -0.038480 1325 -0.690723 -0.251859 0.673447
1.422410 1.646440 -0.036830 1305 -0.678779 -0.238046 0.697188
1.423440 1.647620 -0.035190 1281 -0.663960 -0.221069 0.720785
1.424700 1.649080 -0.033550 1259 -0.645830 -0.200061 0.744382
1.425900 1.650470 -0.031910 1225 -0.628564 -0.180061 0.767979
1.427170 1.651940 -0.030260 1191 -0.610290 -0.158910 0.791720
1.429280 1.654380 -0.028630 1161 -0.579930 -0.123803 0.815174
1.431690 1.657170 -0.027000 1107 -0.545255 -0.083657 0.838627
1.433950 1.659780 -0.025360 1041 -0.512737 -0.046104 0.862224
1.434000 1.657330 -0.146470 985 -0.512017 -0.081356 -0.880366
1.433220 1.656420 -0.144700 1069 -0.523240 -0.094450 -0.854899
1.430330 1.653080 -0.142730 1125 -0.564822 -0.142507 -0.826553
1.428210 1.650630 -0.140840 1169 -0.595326 -0.177759 -0.799359
1.426790 1.649000 -0.139020 1217 -0.615758 -0.201212 -0.773172
1.425430 1.647430 -0.137210 1253 -0.635325 -0.223803 -0.747129
1.424020 1.645790 -0.135400 1281 -0.655613 -0.247400 -0.721085
1.422940 1.644550 -0.133630 1305 -0.671153 -0.265242 -0.695618
1.421860 1.643300 -0.131850 1315 -0.686694 -0.283226 -0.670006
1.421400 1.642770 -0.130140 1343 -0.693313 -0.290852 -0.645402
1.420420 1.641630 -0.128380 1361 -0.707412 -0.307255 -0.620078
1.419100 1.640100 -0.126590 1371 -0.726405 -0.329270 -0.594323
1.417630 1.638410 -0.124800 1389 -0.747557 -0.353587 -0.568567
1.416210 1.636770 -0.123010 1393 -0.767987 -0.377183 -0.542812
1.415270 1.635680 -0.121260 1399 -0.781514 -0.392868 -0.517632
1.414710 1.635030 -0.119550 1413 -0.789570 -0.402219 -0.493028
1.414430 1.634710 -0.117870 1431 -0.793599 -0.406824 -0.468855
1.413580 1.633730 -0.116140 1439 -0.805831 -0.420924 -0.443963
1.412540 1.632530 -0.114390 1441 -0.820795 -0.438191 -0.418783
1.411890 1.631770 -0.112680 1439 -0.830146 -0.449126 -0.394179
1.412510 1.632490 -0.111070 1459 -0.821225 -0.438766 -0.371014
1.412570 1.632550 -0.109420 1471 -0.820362 -0.437903 -0.347273
1.411340 1.631130 -0.107670 1473 -0.838060 -0.458335 -0.322093
1.410380 1.630030 -0.105940 1481 -0.851873 -0.474161 -0.297201
1.410680 1.630370 -0.104310 1487 -0.847556 -0.469270 -0.273747
1.410730 1.630430 -0.102650 1485 -0.846837 -0.468407 -0.249862
1.410450 1.630100 -0.100980 1495 -0.850866 -0.473155 -0.225834
1.409970 1.629550 -0.099290 1505 -0.857772 -0.481069 -0.201517
1.409400 1.628890 -0.097600 1503 -0.865974 -0.490564 -0.177201
1.409500 1.629000 -0.095950 1499 -0.864535 -0.488983 -0.153460
1.409110 1.628560 -0.094270 1491 -0.870147 -0.495314 -0.129287
1.409250 1.628720 -0.092620 1497 -0.868132 -0.493010 -0.105546
1.409540 1.629050 -0.090990 1499 -0.863959 -0.488262 -0.082093
1.409160 1.628610 -0.089310 1495 -0.869427 -0.494593 -0.057920
1.409200 1.628660 -0.087660 1515 -0.868852 -0.493875 -0.034179
1.409240 1.628710 -0.086010 1511 -0.868276 -0.493154 -0.010438
1.409050 1.628480 -0.084350 1511 -0.871010 -0.496465 0.013447
1.408660 1.628030 -0.082670 1509 -0.876621 -0.502940 0.037620
1.409080 1.628520 -0.081040 1523 -0.870578 -0.495888 0.061073
1.409410 1.628900 -0.079410 1519 -0.865830 -0.490420 0.084526
1.409450 1.628940 -0.077760 1511 -0.865254 -0.489846 0.108267
1.409490 1.628990 -0.076110 1513 -0.864679 -0.489125 0.132008
1.409670 1.629200 -0.074470 1515 -0.862089 -0.486105 0.155605
1.409850 1.629400 -0.072820 1499 -0.859499 -0.483226 0.179346
1.410220 1.629830 -0.071190 1495 -0.854175 -0.477040 0.202799
1.410840 1.630540 -0.069570 1501 -0.845254 -0.466824 0.226109
1.410820 1.630520 -0.067910 1487 -0.845542 -0.467112 0.249994
1.410620 1.630280 -0.066250 1475 -0.848420 -0.470565 0.273879
1.411130 1.630870 -0.064620 1481 -0.841082 -0.462076 0.297332
1.411830 1.631680 -0.062990 1475 -0.831011 -0.450421 0.320785
1.412530 1.632490 -0.061370 1475 -0.820939 -0.438766 0.344094
1.412650 1.632630 -0.059720 1465 -0.819211 -0.436752 0.367835
1.412450 1.632400 -0.058060 1465 -0.822090 -0.440061 0.391720
1.412580 1.632540 -0.056410 1451 -0.820218 -0.438047 0.415461
1.413370 1.633460 -0.054780 1445 -0.808851 -0.424809 0.438915
1.414440 1.634700 -0.053170 1437 -0.793455 -0.406969 0.462080
1.415090 1.635450 -0.051530 1433 -0.784104 -0.396176 0.485677
1.415550 1.635970 -0.049890 1415 -0.777485 -0.388694 0.509274
1.416480 1.637050 -0.048260 1409 -0.764104 -0.373154 0.532727
1.417660 1.638410 -0.046640 1395 -0.747125 -0.353587 0.556037
1.418250 1.639090 -0.045000 1385 -0.738636 -0.343803 0.579634
1.419000 1.639950 -0.043360 1375 -0.727844 -0.331428 0.603231
1.420400 1.641580 -0.041740 1369 -0.707700 -0.307975 0.626540
1.421670 1.643040 -0.040110 1357 -0.689428 -0.286968 0.649994
1.422700 1.644220 -0.038470 1337 -0.674606 -0.269989 0.673591
1.423570 1.645240 -0.036830 1315 -0.662088 -0.255314 0.697188
1.424310 1.646090 -0.035180 1287 -0.651442 -0.243082 0.720929
1.425480 1.647440 -0.033540 1263 -0.634607 -0.223659 0.744526
1.426690 1.648830 -0.031900 1237 -0.617197 -0.203657 0.768123
1.427900 1.650230 -0.030250 1213 -0.599787 -0.183514 0.791864
1.429740 1.652350 -0.028610 1171 -0.573313 -0.153012 0.815461
1.432150 1.655130 -0.026980 1127 -0.538636 -0.113010 0.838915
1.434120 1.657410 -0.025340 1073 -0.510289 -0.080205 0.862512
1.436240 1.657430 -0.146570 1011 -0.479787 -0.079917 -0.881805
1.433680 1.654470 -0.144620 1079 -0.516620 -0.122508 -0.853747
1.431370 1.651800 -0.142710 1151 -0.549858 -0.160924 -0.826265
1.429050 1.649120 -0.140800 1193 -0.583240 -0.199486 -0.798783
1.427250 1.647060 -0.138940 1231 -0.609139 -0.229125 -0.772021
1.425750 1.645320 -0.137120 1261 -0.630722 -0.254161 -0.745834
1.424670 1.644070 -0.135350 1283 -0.646262 -0.272147 -0.720366
1.423780 1.643050 -0.133590 1307 -0.659068 -0.286824 -0.695042
1.422130 1.641140 -0.131760 1321 -0.682809 -0.314306 -0.668711
1.421280 1.640170 -0.130020 1345 -0.695038 -0.328263 -0.643675
1.420680 1.639470 -0.128290 1363 -0.703671 -0.338335 -0.618783
1.419740 1.638380 -0.126540 1375 -0.717197 -0.354017 -0.593603
1.418890 1.637410 -0.124800 1387 -0.729427 -0.367974 -0.568567
1.417330 1.635600 -0.123000 1403 -0.751873 -0.394018 -0.542668
1.415960 1.634020 -0.121220 1407 -0.771586 -0.416752 -0.517057
1.416020 1.634090 -0.119560 1427 -0.770721 -0.415745 -0.493172
1.415460 1.633440 -0.117850 1439 -0.778780 -0.425097 -0.468567
1.414320 1.632130 -0.116100 1437 -0.795183 -0.443946 -0.443388
1.413710 1.631420 -0.114390 1449 -0.803959 -0.454162 -0.418783
1.413240 1.630880 -0.112690 1453 -0.810723 -0.461932 -0.394323
1.412820 1.630390 -0.111000 1461 -0.816765 -0.468981 -0.370006
1.412780 1.630350 -0.109340 1473 -0.817340 -0.469558 -0.346121
1.412450 1.629970 -0.107660 1477 -0.822090 -0.475026 -0.321949
1.411880 1.629310 -0.105960 1481 -0.830290 -0.484521 -0.297488
1.411220 1.628540 -0.104260 1479 -0.839787 -0.495600 -0.273028
1.410840 1.628110 -0.102570 1479 -0.845254 -0.501787 -0.248711
1.410750 1.628000 -0.100910 1493 -0.846549 -0.503370 -0.224826
1.410370 1.627560 -0.099230 1497 -0.852017 -0.509701 -0.200654
1.410420 1.627620 -0.097580 1503 -0.851298 -0.508838 -0.176913
1.410470 1.627680 -0.095930 1497 -0.850578 -0.507976 -0.153172
1.410470 1.627680 -0.094280 1505 -0.850578 -0.507976 -0.129431
1.410610 1.627840 -0.092630 1519 -0.848564 -0.505672 -0.105690
1.410510 1.627720 -0.090970 1519 -0.850003 -0.507399 -0.081805
1.410320 1.627500 -0.089310 1515 -0.852736 -0.510564 -0.057920
1.410370 1.627550 -0.087660 1513 -0.852017 -0.509845 -0.034179
1.410220 1.627390 -0.086000 1519 -0.854175 -0.512147 -0.010294
1.409630 1.626710 -0.084310 1517 -0.862665 -0.521931 0.014022
1.409440 1.626490 -0.082650 1507 -0.865398 -0.525097 0.037907
1.410100 1.627250 -0.081030 1515 -0.855902 -0.514163 0.061217
1.410390 1.627580 -0.079400 1521 -0.851729 -0.509413 0.084670
1.410560 1.627780 -0.077750 1517 -0.849283 -0.506537 0.108411
1.410510 1.627720 -0.076100 1511 -0.850003 -0.507399 0.132152
1.410500 1.627710 -0.074450 1511 -0.850146 -0.507543 0.155893
1.410780 1.628020 -0.072810 1507 -0.846118 -0.503082 0.179490
1.410910 1.628180 -0.071160 1503 -0.844247 -0.500780 0.203231
1.411240 1.628550 -0.069530 1507 -0.839499 -0.495456 0.226684
1.411600 1.628970 -0.067890 1499 -0.834319 -0.489413 0.250281
1.412070 1.629510 -0.066260 1483 -0.827556 -0.481643 0.273735
1.412390 1.629870 -0.064620 1475 -0.822952 -0.476463 0.297332
1.412710 1.630240 -0.062980 1477 -0.818349 -0.471141 0.320929
1.412740 1.630280 -0.061330 1471 -0.817916 -0.470565 0.344670
1.413100 1.630700 -0.059690 1467 -0.812736 -0.464522 0.368267
1.413370 1.631010 -0.058040 1457 -0.808851 -0.460060 0.392008
1.413740 1.631430 -0.056400 1447 -0.803527 -0.454018 0.415605
1.414580 1.632410 -0.054780 1443 -0.791442 -0.439917 0.438915
1.415660 1.633650 -0.053170 1449 -0.775902 -0.422076 0.462080
1.416450 1.634560 -0.051540 1443 -0.764535 -0.408982 0.485533
1.417010 1.635200 -0.049900 1425 -0.756478 -0.399773 0.509130
1.418040 1.636380 -0.048270 1413 -0.741657 -0.382796 0.532584
1.418830 1.637290 -0.046640 1405 -0.730290 -0.369701 0.556037
1.419240 1.637770 -0.044990 1397 -0.724391 -0.362794 0.579778
1.419780 1.638400 -0.043350 1377 -0.716621 -0.353731 0.603375
1.420760 1.639520 -0.041710 1367 -0.702520 -0.337614 0.626972
1.421790 1.640710 -0.040080 1355 -0.687700 -0.320493 0.650425
1.422910 1.642000 -0.038450 1341 -0.671586 -0.301932 0.673879
1.423790 1.643020 -0.036800 1315 -0.658924 -0.287255 0.697620
1.424960 1.644360 -0.035170 1291 -0.642089 -0.267976 0.721073
1.426320 1.645930 -0.033530 1271 -0.622521 -0.245384 0.744670
1.427630 1.647440 -0.031890 1251 -0.603672 -0.223659 0.768267
1.429230 1.649280 -0.030250 1229 -0.580650 -0.197184 0.791864
1.430720 1.651010 -0.028610 1189 -0.559212 -0.172291 0.815461
1.432700 1.653290 -0.026970 1149 -0.530721 -0.139485 0.839058
1.434250 1.655070 -0.025320 1091 -0.508420 -0.113875 0.862799
1.436330 1.657470 -0.023680 1025 -0.478492 -0.079342 0.886397
1.437670 1.659020 -0.022020 933 -0.459211 -0.057040 0.910281
1.434170 1.652610 -0.144550 1105 -0.509571 -0.149271 -0.852740
1.431900 1.649980 -0.142640 1167 -0.542232 -0.187112 -0.825258
1.429720 1.647480 -0.140750 1205 -0.573599 -0.223083 -0.798064
1.427730 1.645190 -0.138870 1239 -0.602233 -0.256032 -0.771014
1.426270 1.643500 -0.137060 1261 -0.623240 -0.280349 -0.744970
1.425380 1.642480 -0.135300 1291 -0.636046 -0.295025 -0.719647
1.424350 1.641290 -0.133530 1317 -0.650866 -0.312148 -0.694179
1.422990 1.639720 -0.131730 1331 -0.670435 -0.334738 -0.668280
1.421810 1.638360 -0.129960 1347 -0.687412 -0.354305 -0.642812
1.420630 1.637000 -0.128180 1359 -0.704391 -0.373875 -0.617201
1.419780 1.636020 -0.126440 1381 -0.716621 -0.387976 -0.592165
1.418600 1.634660 -0.124670 1395 -0.733600 -0.407543 -0.566697
1.417750 1.633690 -0.122930 1399 -0.745830 -0.421500 -0.541661
1.417190 1.633040 -0.121220 1407 -0.753888 -0.430853 -0.517057
1.416630 1.632390 -0.119510 1423 -0.761945 -0.440205 -0.492452
1.416170 1.631860 -0.117810 1439 -0.768564 -0.447831 -0.467992
1.415170 1.630710 -0.116070 1439 -0.782953 -0.464378 -0.442956
1.414510 1.629950 -0.114360 1451 -0.792448 -0.475312 -0.418352
1.413850 1.629190 -0.112650 1457 -0.801946 -0.486249 -0.393747
1.413380 1.628650 -0.110950 1463 -0.808707 -0.494019 -0.369287
1.413440 1.628710 -0.109300 1471 -0.807844 -0.493154 -0.345546
1.413300 1.628550 -0.107640 1479 -0.809858 -0.495456 -0.321661
1.412830 1.628010 -0.105940 1489 -0.816621 -0.503226 -0.297201
1.412540 1.627680 -0.104270 1485 -0.820795 -0.507976 -0.273172
1.412030 1.627080 -0.102570 1495 -0.828132 -0.516608 -0.248711
1.411550 1.626530 -0.100890 1493 -0.835038 -0.524521 -0.224539
1.411650 1.626650 -0.099240 1509 -0.833601 -0.522795 -0.200798
1.410980 1.625880 -0.097540 1501 -0.843240 -0.533874 -0.176337
1.410640 1.625490 -0.095860 1505 -0.848132 -0.539486 -0.152165
1.410890 1.625770 -0.094230 1523 -0.844535 -0.535457 -0.128711
1.410880 1.625760 -0.092570 1513 -0.844679 -0.535601 -0.104826
1.410930 1.625810 -0.090930 1519 -0.843959 -0.534881 -0.081229
1.410550 1.625380 -0.089250 1511 -0.849427 -0.541068 -0.057057
1.410540 1.625370 -0.087600 1513 -0.849571 -0.541212 -0.033316
1.410580 1.625420 -0.085950 1521 -0.848995 -0.540493 -0.009575
1.410340 1.625130 -0.084280 1521 -0.852449 -0.544665 0.014454
1.410860 1.625730 -0.082660 1525 -0.844967 -0.536032 0.037764
1.410760 1.625620 -0.081000 1515 -0.846405 -0.537615 0.061648
1.410460 1.625270 -0.079330 1511 -0.850722 -0.542651 0.085677
1.410940 1.625820 -0.077710 1511 -0.843815 -0.534737 0.108986
1.411160 1.626080 -0.076070 1509 -0.840650 -0.530996 0.132584
1.411350 1.626290 -0.074430 1507 -0.837916 -0.527975 0.156181
1.411440 1.626390 -0.072780 1505 -0.836621 -0.526536 0.179922
1.411660 1.626650 -0.071140 1509 -0.833456 -0.522795 0.203519
1.411840 1.626860 -0.069500 1499 -0.830866 -0.519773 0.227116
1.412210 1.627280 -0.067860 1501 -0.825542 -0.513730 0.250713
1.412870 1.628040 -0.066240 1499 -0.816045 -0.502796 0.274022
1.413000 1.628190 -0.064590 1491 -0.814175 -0.500636 0.297763
