386
-14.268387 -12.674067 -0.183463 853 0.914073 -0.431829 -0.329282
-14.265266 -12.671267 -0.177572 917 0.958971 -0.391542 -0.244519
-14.262849 -12.669094 -0.171686 921 0.993756 -0.360283 -0.159829
-14.261854 -12.668184 -0.165811 937 1.008068 -0.347192 -0.075296
-14.261739 -12.668049 -0.159952 931 1.009728 -0.345244 0.009006
-14.262819 -12.668979 -0.154106 909 0.994181 -0.358623 0.093121
-14.264518 -12.670452 -0.148265 873 0.969743 -0.379823 0.177164
-14.267620 -12.673181 -0.142429 815 0.925105 -0.419082 0.261135
-14.270689 -12.668227 -0.195188 855 0.880948 -0.347810 -0.497987
-14.267193 -12.665096 -0.189288 935 0.931253 -0.302761 -0.413095
-14.265162 -12.663256 -0.183410 981 0.960467 -0.276277 -0.328519
-14.263397 -12.661661 -0.177532 1009 0.985866 -0.253334 -0.243944
-14.261481 -12.659933 -0.171651 1019 1.013433 -0.228470 -0.159325
-14.261147 -12.659608 -0.165794 1027 1.018250 -0.223791 -0.075052
-14.261308 -12.659720 -0.159932 1017 1.015931 -0.225410 0.009294
-14.261305 -12.659684 -0.154083 1013 1.015972 -0.224889 0.093452
-14.263267 -12.661390 -0.148242 993 0.987746 -0.249437 0.177495
-14.265659 -12.663483 -0.142408 951 0.953318 -0.279543 0.261438
-14.270137 -12.667426 -0.136583 897 0.888893 -0.336283 0.345250
-14.275096 -12.671803 -0.130763 799 0.817539 -0.399267 0.428992
-14.275556 -12.664802 -0.206949 765 0.810925 -0.298521 -0.667210
-14.271605 -12.661276 -0.201040 913 0.867775 -0.247791 -0.582188
-14.266906 -12.657072 -0.195129 983 0.935383 -0.187304 -0.497138
-14.263828 -12.654313 -0.189226 1023 0.979664 -0.147607 -0.412203
-14.262245 -12.652875 -0.183355 1051 1.002442 -0.126914 -0.327728
-14.261421 -12.652121 -0.177490 1071 1.014298 -0.116060 -0.243339
-14.261029 -12.651737 -0.171632 1091 1.019938 -0.110544 -0.159052
-14.260036 -12.650828 -0.165769 1095 1.034222 -0.097467 -0.074692
-14.260034 -12.650792 -0.159919 1087 1.034263 -0.096945 0.009481
-14.261448 -12.652012 -0.154069 1095 1.013914 -0.114496 0.093653
-14.262971 -12.653337 -0.148231 1075 0.992000 -0.133556 0.177653
-14.264215 -12.654414 -0.142385 1041 0.974093 -0.149061 0.261768
-14.266226 -12.656170 -0.136543 997 0.945167 -0.174323 0.345826
-14.269775 -12.659287 -0.130712 949 0.894094 -0.219180 0.429725
-14.274244 -12.663220 -0.124887 863 0.829793 -0.275770 0.513538
-14.276346 -12.657749 -0.212800 761 0.799550 -0.197047 -0.751397
-14.275578 -12.657038 -0.206926 921 0.810609 -0.186810 -0.666879
-14.270716 -12.652686 -0.201003 999 0.880564 -0.124197 -0.581656
-14.266993 -12.649357 -0.195106 1059 0.934134 -0.076294 -0.496807
-14.264688 -12.647283 -0.189218 1081 0.967300 -0.046449 -0.412088
-14.262665 -12.645461 -0.183341 1103 0.996404 -0.020240 -0.327526
-14.261012 -12.643968 -0.177471 1121 1.020185 0.001249 -0.243066
-14.259855 -12.642910 -0.171607 1131 1.036829 0.016466 -0.158692
-14.260015 -12.643022 -0.165756 1133 1.034538 0.014861 -0.074505
-14.261043 -12.643910 -0.159910 1131 1.019745 0.002072 0.009610
-14.261642 -12.644402 -0.154067 1125 1.011114 -0.004995 0.093682
-14.262284 -12.644952 -0.148214 1111 1.001879 -0.012912 0.177898
-14.263480 -12.645981 -0.142375 1083 0.984672 -0.027718 0.261912
-14.265548 -12.647779 -0.136535 1063 0.954923 -0.053598 0.345941
-14.268820 -12.650647 -0.130706 1019 0.907843 -0.094860 0.429812
-14.273458 -12.654737 -0.124879 965 0.841113 -0.153713 0.513653
-14.279026 -12.659636 -0.119056 875 0.760991 -0.224189 0.597438
-14.279458 -12.652566 -0.212812 917 0.754775 -0.122468 -0.751570
-14.273830 -12.647539 -0.206874 1001 0.835748 -0.050140 -0.666131
-14.269554 -12.643729 -0.200969 1057 0.897277 0.004679 -0.581167
-14.266490 -12.640985 -0.195077 1101 0.941366 0.044171 -0.496390
-14.264356 -12.639052 -0.189199 1131 0.972075 0.071972 -0.411814
-14.262108 -12.637036 -0.183322 1147 1.004418 0.100980 -0.327253
-14.261276 -12.636273 -0.177457 1167 1.016384 0.111957 -0.242865
-14.260671 -12.635709 -0.171602 1165 1.025097 0.120081 -0.158620
-14.259849 -12.634940 -0.165737 1167 1.036925 0.131141 -0.074232
-14.260497 -12.635481 -0.159892 1161 1.027594 0.123360 0.009869
-14.261742 -12.636560 -0.154054 1159 1.009687 0.107827 0.093869
-14.263541 -12.638119 -0.148214 1155 0.983794 0.085405 0.177898
-14.265012 -12.639393 -0.142375 1125 0.962635 0.067073 0.261912
-14.266640 -12.640810 -0.136537 1121 0.939211 0.046682 0.345912
-14.269637 -12.643434 -0.130710 1081 0.896083 0.008933 0.429754
-14.272794 -12.646204 -0.124872 1039 0.850664 -0.030929 0.513754
-14.276726 -12.649658 -0.119048 959 0.794088 -0.080630 0.597553
-14.282408 -12.654657 -0.113225 847 0.712333 -0.152560 0.681337
-14.286769 -12.650972 -0.218738 853 0.649583 -0.099539 -0.836836
-14.279430 -12.644442 -0.212781 973 0.755173 -0.005571 -0.751124
-14.273405 -12.639073 -0.206846 1031 0.841868 0.071670 -0.665728
-14.270334 -12.636337 -0.200954 1093 0.886053 0.111038 -0.580951
-14.267767 -12.634031 -0.195070 1115 0.922992 0.144218 -0.496289
-14.265299 -12.631808 -0.189184 1151 0.958504 0.176203 -0.411598
-14.264587 -12.631153 -0.183328 1173 0.968741 0.185630 -0.327340
-14.263813 -12.630432 -0.177472 1183 0.979883 0.196004 -0.243080
-14.262380 -12.629141 -0.171600 1189 1.000507 0.214584 -0.158591
-14.261833 -12.628620 -0.165744 1175 1.008370 0.222076 -0.074332
-14.262255 -12.628964 -0.159902 1187 1.002305 0.217122 0.009725
-14.262253 -12.628928 -0.154052 1169 1.002332 0.217644 0.093898
-14.263385 -12.629908 -0.148204 1153 0.986044 0.203551 0.178042
-14.265729 -12.631952 -0.142381 1161 0.952316 0.174131 0.261826
-14.267868 -12.633807 -0.136539 1151 0.921538 0.147442 0.345884
-14.270254 -12.635893 -0.130706 1113 0.887205 0.117432 0.429812
-14.273305 -12.638572 -0.124877 1071 0.843309 0.078887 0.513682
-14.277292 -12.642069 -0.119045 1017 0.785937 0.028569 0.597596
-14.282592 -12.646729 -0.113223 927 0.709685 -0.038490 0.681366
-14.292826 -12.649134 -0.224658 777 0.562435 -0.073083 -0.922016
-14.286027 -12.643097 -0.218707 931 0.660258 0.013777 -0.836390
-14.281099 -12.638697 -0.212785 1017 0.731159 0.077090 -0.751181
-14.276172 -12.634308 -0.206865 1073 0.802061 0.140238 -0.666001
-14.272053 -12.630641 -0.200958 1115 0.861326 0.192999 -0.581008
-14.269259 -12.628137 -0.195064 1149 0.901517 0.229033 -0.496203
-14.267507 -12.626556 -0.189195 1175 0.926738 0.251770 -0.411757
-14.265916 -12.625126 -0.183324 1191 0.949626 0.272353 -0.327282
-14.264809 -12.624116 -0.177461 1197 0.965558 0.286884 -0.242922
-14.263546 -12.622967 -0.171598 1207 0.983725 0.303419 -0.158563
-14.262714 -12.622204 -0.165742 1193 0.995691 0.314397 -0.074303
-14.263094 -12.622506 -0.159900 1203 0.990230 0.310047 0.009754
-14.263680 -12.622998 -0.154058 1203 0.981791 0.302967 0.093812
-14.265103 -12.624227 -0.148219 1179 0.961317 0.285293 0.177826
-14.267283 -12.626122 -0.142387 1185 0.929949 0.258013 0.261740
-14.268692 -12.627349 -0.136548 1167 0.909682 0.240367 0.345754
-14.270043 -12.628518 -0.130700 1137 0.890238 0.223544 0.429898
-14.273535 -12.631578 -0.124870 1099 0.840002 0.179510 0.513783
-14.278558 -12.635992 -0.119052 1047 0.767728 0.116005 0.597495
-14.283693 -12.640505 -0.113231 977 0.693836 0.051073 0.681250
-14.288554 -12.644770 -0.107404 843 0.623895 -0.010291 0.765092
-14.294650 -12.643417 -0.224662 815 0.536185 0.009166 -0.922073
-14.287420 -12.636991 -0.218704 949 0.640211 0.101638 -0.836347
-14.281833 -12.632018 -0.212766 1031 0.720607 0.173185 -0.750908
-14.277281 -12.627964 -0.206853 1081 0.786102 0.231516 -0.665829
-14.273934 -12.624981 -0.200952 1121 0.834252 0.274439 -0.580922
-14.271367 -12.622674 -0.195077 1155 0.871192 0.307632 -0.496390
-14.269053 -12.620605 -0.189191 1177 0.904481 0.337395 -0.411699
-14.268018 -12.619654 -0.183338 1191 0.919383 0.351089 -0.327483
-14.267299 -12.618991 -0.177471 1215 0.929730 0.360626 -0.243066
-14.265753 -12.617601 -0.171609 1223 0.951973 0.380619 -0.158721
-14.265199 -12.617071 -0.165754 1219 0.959945 0.388248 -0.074476
-14.265571 -12.617381 -0.159912 1209 0.954594 0.383789 0.009581
-14.266555 -12.618213 -0.154065 1209 0.940433 0.371823 0.093711
-14.268232 -12.619679 -0.148237 1211 0.916296 0.350719 0.177567
-14.269102 -12.620411 -0.142391 1197 0.903781 0.340194 0.261682
-14.270184 -12.621342 -0.136554 1175 0.888221 0.326802 0.345668
-14.273348 -12.624104 -0.130727 1155 0.842691 0.287063 0.429510
-14.277166 -12.627460 -0.124894 1123 0.787749 0.238775 0.513438
-14.279894 -12.629845 -0.119058 1085 0.748504 0.204457 0.597409
-14.283831 -12.633291 -0.113237 1019 0.691860 0.154866 0.681164
-14.290321 -12.639009 -0.107419 901 0.598468 0.072589 0.764876
-14.296408 -12.636786 -0.224653 863 0.510895 0.104575 -0.921944
-14.289390 -12.630558 -0.218692 975 0.611875 0.194193 -0.836174
-14.283910 -12.625677 -0.212764 1057 0.690721 0.264422 -0.750879
-14.279968 -12.622159 -0.206857 1115 0.747434 0.315042 -0.665886
-14.275905 -12.618546 -0.200961 1137 0.805903 0.367034 -0.581052
-14.273769 -12.616628 -0.195083 1161 0.836626 0.394629 -0.496476
-14.272074 -12.615091 -0.189214 1189 0.861024 0.416735 -0.412030
-14.270257 -12.613461 -0.183343 1213 0.887164 0.440200 -0.327555
-14.269051 -12.612367 -0.177480 1227 0.904522 0.455939 -0.243196
-14.268000 -12.611401 -0.171617 1219 0.919644 0.469839 -0.158836
-14.268544 -12.611851 -0.165775 1235 0.911809 0.463362 -0.074778
-14.269469 -12.612640 -0.159938 1247 0.898498 0.452000 0.009207
-14.269347 -12.612499 -0.154090 1213 0.900255 0.454031 0.093351
-14.270054 -12.613098 -0.148246 1209 0.890087 0.445414 0.177437
-14.270810 -12.613732 -0.142402 1185 0.879205 0.436289 0.261524
-14.272551 -12.615247 -0.136562 1181 0.854163 0.414498 0.345553
-14.275773 -12.618068 -0.130742 1161 0.807796 0.373909 0.429294
-14.278116 -12.620096 -0.124900 1127 0.774082 0.344722 0.513351
-14.281885 -12.623405 -0.119077 1091 0.719853 0.297107 0.597135
-14.287190 -12.628057 -0.113258 1049 0.643517 0.230185 0.680862
-14.292433 -12.632662 -0.107427 949 0.568088 0.163922 0.764761
-14.298586 -12.630771 -0.224658 905 0.479554 0.191133 -0.922016
-14.292065 -12.624980 -0.218706 995 0.573385 0.274452 -0.836375
-14.287412 -12.620839 -0.212783 1075 0.640334 0.334033 -0.751152
-14.283024 -12.616933 -0.206878 1121 0.703469 0.390238 -0.666188
-14.279301 -12.613617 -0.200981 1143 0.757039 0.437949 -0.581340
-14.276393 -12.611014 -0.195087 1165 0.798877 0.475396 -0.496534
-14.274959 -12.609723 -0.189226 1201 0.819515 0.493976 -0.412203
-14.273589 -12.608481 -0.183362 1223 0.839220 0.511842 -0.327829
-14.272815 -12.607775 -0.177497 1231 0.850362 0.522010 -0.243440
-14.272700 -12.607641 -0.171649 1235 0.852009 0.523931 -0.159296
-14.272961 -12.607838 -0.165807 1247 0.848262 0.521104 -0.075239
-14.273341 -12.608142 -0.159965 1241 0.842787 0.516727 0.008819
-14.273005 -12.607816 -0.154107 1237 0.847631 0.521420 0.093107
-14.273549 -12.608267 -0.148263 1223 0.839796 0.514929 0.177193
-14.274844 -12.609380 -0.142427 1193 0.821162 0.498916 0.261164
-14.276380 -12.610705 -0.136588 1181 0.799069 0.479842 0.345178
-14.279161 -12.613130 -0.130762 1163 0.759042 0.444961 0.429006
-14.282150 -12.615746 -0.124935 1137 0.716038 0.407322 0.512848
-14.285154 -12.618361 -0.119098 1101 0.672814 0.369683 0.596833
-14.289750 -12.622394 -0.113271 1035 0.606688 0.311666 0.680675
-14.295432 -12.627378 -0.107448 943 0.524933 0.239942 0.764459
-14.298923 -12.630438 -0.101608 793 0.474710 0.195922 0.848488
-14.301805 -12.625691 -0.224668 915 0.433243 0.264216 -0.922160
-14.294737 -12.619415 -0.218719 1003 0.534936 0.354520 -0.836563
-14.290185 -12.615375 -0.212795 1067 0.600431 0.412660 -0.751325
-14.286950 -12.612490 -0.206905 1121 0.646975 0.454169 -0.666577
-14.283441 -12.609358 -0.201005 1157 0.697472 0.499231 -0.581685
-14.280704 -12.606909 -0.195121 1183 0.736854 0.534469 -0.497023
-14.279653 -12.605957 -0.189256 1211 0.751976 0.548164 -0.412634
-14.277900 -12.604377 -0.183387 1215 0.777197 0.570901 -0.328188
-14.277012 -12.603557 -0.177532 1241 0.789972 0.582702 -0.243944
-14.277018 -12.603530 -0.171682 1257 0.789889 0.583086 -0.159771
-14.276237 -12.602817 -0.165826 1239 0.801128 0.593350 -0.075512
-14.276345 -12.602880 -0.159976 1231 0.799563 0.592444 0.008660
-14.276770 -12.603225 -0.154134 1237 0.793457 0.587477 0.092718
-14.277150 -12.603526 -0.148292 1219 0.787982 0.583141 0.176776
-14.278183 -12.604408 -0.142446 1203 0.773121 0.570448 0.260891
-14.280080 -12.606050 -0.136615 1197 0.745828 0.546833 0.344790
-14.281659 -12.607418 -0.130777 1169 0.723105 0.527142 0.428790
-14.284334 -12.609751 -0.124940 1143 0.684615 0.493578 0.512776
-14.288266 -12.613193 -0.119117 1101 0.628039 0.444055 0.596560
-14.292744 -12.617119 -0.113292 1049 0.563615 0.387562 0.680373
-14.298156 -12.621864 -0.107471 971 0.485743 0.319282 0.764128
-14.303404 -12.626461 -0.101640 829 0.410231 0.253142 0.848027
-14.306157 -12.621657 -0.224702 935 0.370616 0.322260 -0.922649
-14.300229 -12.616403 -0.218767 1017 0.455911 0.397867 -0.837253
-14.294587 -12.611389 -0.212829 1073 0.537090 0.470004 -0.751814
-14.290248 -12.607532 -0.206924 1113 0.599525 0.525509 -0.666850
-14.287724 -12.605282 -0.201038 1155 0.635847 0.557879 -0.582160
-14.285150 -12.602983 -0.195154 1179 0.672882 0.590949 -0.497498
-14.282843 -12.600907 -0.189277 1209 0.706076 0.620821 -0.412936
-14.281416 -12.599623 -0.183414 1217 0.726604 0.639305 -0.328577
-14.280854 -12.599100 -0.177558 1225 0.734686 0.646824 -0.244318
-14.281185 -12.599355 -0.171707 1251 0.729924 0.643161 -0.160131
-14.280361 -12.598598 -0.165851 1243 0.741780 0.654056 -0.075872
-14.279799 -12.598077 -0.159994 1229 0.749862 0.661548 0.008401
-14.280556 -12.598710 -0.154161 1235 0.738981 0.652437 0.092330
-14.281418 -12.599450 -0.148315 1221 0.726576 0.641789 0.176445
-14.282784 -12.600620 -0.142476 1203 0.706913 0.624952 0.260459
-14.284199 -12.601840 -0.136640 1181 0.686563 0.607401 0.344430
-14.285876 -12.603292 -0.130800 1155 0.662426 0.586503 0.428459
-14.288879 -12.605907 -0.124973 1127 0.619216 0.548877 0.512301
-14.292320 -12.608917 -0.119142 1099 0.569707 0.505571 0.596200
-14.296855 -12.612887 -0.113317 1029 0.504459 0.448446 0.680013
-14.302608 -12.617929 -0.107503 949 0.421689 0.375899 0.763668
-14.311481 -12.618817 -0.224746 929 0.294006 0.363124 -0.923282
-14.304797 -12.612892 -0.218795 1013 0.390183 0.448378 -0.837656
-14.298813 -12.607595 -0.212860 1063 0.476288 0.524589 -0.752260
-14.295522 -12.604653 -0.206970 1109 0.523643 0.566922 -0.667512
-14.292501 -12.601967 -0.201076 1153 0.567100 0.605576 -0.582706
-14.289480 -12.599265 -0.195184 1181 0.610571 0.644451 -0.497929
-14.287394 -12.597409 -0.189306 1183 0.640595 0.671153 -0.413354
-14.286238 -12.596351 -0.183442 1207 0.657226 0.686385 -0.328980
-14.284641 -12.594913 -0.177583 1215 0.680196 0.707077 -0.244677
-14.284038 -12.594348 -0.171726 1229 0.688882 0.715201 -0.160404
-14.284693 -12.594896 -0.165882 1235 0.679455 0.707311 -0.076318
-14.285010 -12.595151 -0.160041 1233 0.674886 0.703647 0.007725
-14.285164 -12.595256 -0.154189 1225 0.672677 0.702138 0.091927
-14.285098 -12.595170 -0.148340 1207 0.673623 0.703373 0.176085
-14.286351 -12.596243 -0.142503 1187 0.655593 0.687935 0.260071
-14.288979 -12.598527 -0.136678 1193 0.617789 0.655071 0.343884
-14.291150 -12.600414 -0.130836 1171 0.586544 0.627916 0.427941
-14.293275 -12.602256 -0.125003 1129 0.555972 0.601419 0.511869
-14.295627 -12.604292 -0.119171 1085 0.522133 0.572122 0.595783
-14.300272 -12.608360 -0.113344 1021 0.455294 0.513584 0.679625
-14.307004 -12.614262 -0.107524 937 0.358431 0.428673 0.763366
-14.316734 -12.615847 -0.224794 895 0.218426 0.405867 -0.923973
-14.309660 -12.609578 -0.218833 1003 0.320215 0.496062 -0.838203
-14.304385 -12.604902 -0.212915 1067 0.396111 0.563340 -0.753052
-14.301271 -12.602122 -0.207013 1097 0.440913 0.603340 -0.668131
-14.298251 -12.599436 -0.201120 1145 0.484370 0.641994 -0.583340
-14.295060 -12.596593 -0.195228 1175 0.530284 0.682899 -0.498562
-14.292322 -12.594145 -0.189344 1183 0.569680 0.718124 -0.413901
-14.291002 -12.592954 -0.183483 1205 0.588671 0.735262 -0.329570
-14.290390 -12.592381 -0.177625 1221 0.597480 0.743509 -0.245282
-14.289673 -12.591717 -0.171769 1219 0.607799 0.753060 -0.161023
-14.288786 -12.590914 -0.165916 1227 0.620561 0.764614 -0.076807
-14.288832 -12.590927 -0.160064 1213 0.619902 0.764421 0.007394
-14.289157 -12.591172 -0.154212 1201 0.615223 0.760895 0.091596
-14.289962 -12.591857 -0.148378 1189 0.603642 0.751043 0.175538
-14.291264 -12.592977 -0.142541 1165 0.584911 0.734933 0.259524
-14.292793 -12.594296 -0.136703 1153 0.562901 0.715942 0.343524
-14.295362 -12.596522 -0.130868 1133 0.525934 0.683915 0.427481
-14.298798 -12.599526 -0.125038 1125 0.476508 0.640691 0.511366
-14.302304 -12.602587 -0.119209 1083 0.426052 0.596657 0.595236
-14.305746 -12.605582 -0.113378 1015 0.376530 0.553557 0.679135
-14.311060 -12.610229 -0.107557 909 0.300071 0.486703 0.762891
-14.321626 -12.612067 -0.224836 833 0.148046 0.460247 -0.924577
-14.315316 -12.606487 -0.218891 983 0.238830 0.540534 -0.839037
-14.310048 -12.601818 -0.212961 1037 0.314630 0.607717 -0.753714
-14.306369 -12.598547 -0.207054 1085 0.367569 0.654783 -0.668721
-14.302852 -12.595421 -0.201152 1127 0.418176 0.699764 -0.583800
-14.299618 -12.592538 -0.195262 1149 0.464707 0.741245 -0.499052
-14.297361 -12.590527 -0.189386 1159 0.497173 0.770185 -0.414505
-14.295716 -12.589037 -0.183515 1183 0.520843 0.791618 -0.330030
-14.294772 -12.588178 -0.177659 1193 0.534428 0.803982 -0.245771
-14.293998 -12.587472 -0.171794 1191 0.545570 0.814136 -0.161383
-14.293996 -12.587436 -0.165944 1211 0.545598 0.814657 -0.077210
-14.293277 -12.586773 -0.160089 1185 0.555944 0.824194 0.007035
-14.292928 -12.586433 -0.154241 1177 0.560966 0.829079 0.091179
-14.294187 -12.587511 -0.148404 1177 0.542853 0.813573 0.175164
-14.295766 -12.588879 -0.142564 1167 0.520130 0.793896 0.259193
-14.297288 -12.590190 -0.136726 1153 0.498230 0.775028 0.343193
-14.299913 -12.592474 -0.130901 1129 0.460453 0.742164 0.427006
-14.303419 -12.595519 -0.125070 1107 0.410011 0.698350 0.510905
-14.307294 -12.598904 -0.119249 1055 0.354259 0.649651 0.594661
-14.312160 -12.603162 -0.113420 979 0.284250 0.588383 0.678531
-14.318734 -12.608922 -0.107602 869 0.189651 0.505502 0.762243
-14.322483 -12.604873 -0.218959 919 0.135710 0.563766 -0.840016
-14.316393 -12.599483 -0.213014 1005 0.223338 0.641322 -0.754476
-14.311613 -12.595244 -0.207101 1053 0.292112 0.702302 -0.669397
-14.308593 -12.592558 -0.201209 1105 0.335570 0.740957 -0.584620
-14.305736 -12.590019 -0.195316 1133 0.376681 0.777485 -0.499829
-14.302927 -12.587514 -0.189432 1137 0.417092 0.813532 -0.415167
-14.301556 -12.586273 -0.183570 1167 0.436824 0.831384 -0.330821
-14.300017 -12.584891 -0.177698 1177 0.458957 0.851268 -0.246332
-14.298243 -12.583302 -0.171829 1173 0.484494 0.874142 -0.161886
-14.298021 -12.583076 -0.165981 1175 0.487677 0.877394 -0.077742
-14.298402 -12.583380 -0.160127 1179 0.482202 0.873017 0.006488
-14.298938 -12.583822 -0.154285 1173 0.474491 0.866650 0.090545
-14.300637 -12.585282 -0.148456 1171 0.450038 0.845642 0.174416
-14.302499 -12.586888 -0.142614 1155 0.423253 0.822534 0.258473
-14.303745 -12.587954 -0.136777 1125 0.405318 0.807206 0.342459
-14.306364 -12.590231 -0.130943 1107 0.367638 0.774438 0.426402
-14.310082 -12.593473 -0.125121 1081 0.314136 0.727784 0.510171
-14.314135 -12.597007 -0.119287 1013 0.255832 0.676944 0.594114
-14.318455 -12.600778 -0.113464 939 0.193671 0.622688 0.677898
-14.323980 -12.605621 -0.107631 813 0.114166 0.552994 0.761826
-14.324466 -12.598827 -0.213094 955 0.107182 0.650749 -0.755627
-14.318810 -12.593815 -0.207168 1023 0.188553 0.722871 -0.670361
-14.314032 -12.589589 -0.201255 1071 0.257314 0.783673 -0.585282
-14.311123 -12.587001 -0.195361 1107 0.299166 0.820915 -0.500476
-14.308974 -12.585082 -0.189485 1133 0.330081 0.848523 -0.415929
-14.306945 -12.583255 -0.183607 1153 0.359281 0.874814 -0.331354
-14.306496 -12.582831 -0.177749 1167 0.365744 0.880907 -0.247066
-14.305559 -12.581977 -0.171893 1167 0.379219 0.893202 -0.162807
-14.304947 -12.581419 -0.166038 1177 0.388029 0.901229 -0.078563
-14.305320 -12.581715 -0.160186 1169 0.382664 0.896975 0.005639
-14.304758 -12.581192 -0.154329 1149 0.390746 0.904495 0.089912
-14.304976 -12.581347 -0.148477 1141 0.387603 0.902258 0.174114
-14.306725 -12.582855 -0.142648 1139 0.362451 0.880564 0.257984
-14.309133 -12.584935 -0.136814 1115 0.327803 0.850636 0.341927
-14.312142 -12.587558 -0.130987 1079 0.284497 0.812901 0.425768
-14.315250 -12.590265 -0.125148 1041 0.239777 0.773944 0.509783
-14.319968 -12.594375 -0.119333 979 0.171895 0.714817 0.593452
-14.326267 -12.599890 -0.113515 893 0.081261 0.635463 0.677164
-14.330223 -12.596276 -0.213148 869 0.024343 0.687455 -0.756404
-14.326373 -12.592861 -0.207240 967 0.079738 0.736593 -0.671397
-14.321049 -12.588150 -0.201311 1025 0.156348 0.804380 -0.586088
-14.318354 -12.585745 -0.195426 1073 0.195126 0.838986 -0.501411
-14.316530 -12.584122 -0.189548 1115 0.221362 0.862341 -0.416836
-14.314784 -12.582549 -0.183677 1121 0.246487 0.884969 -0.332361
-14.312416 -12.580441 -0.177801 1127 0.280559 0.915294 -0.247814
-14.311805 -12.579869 -0.171945 1149 0.289354 0.923527 -0.163555
-14.311626 -12.579685 -0.166086 1147 0.291920 0.926176 -0.079253
-14.311453 -12.579508 -0.160238 1147 0.294418 0.928728 0.004891
-14.312208 -12.580142 -0.154392 1125 0.283550 0.919603 0.089006
-14.313369 -12.581121 -0.148546 1131 0.266850 0.905510 0.173121
-14.314451 -12.582051 -0.142700 1111 0.251276 0.892131 0.257236
-14.316249 -12.583594 -0.136859 1085 0.225410 0.869929 0.341279
-14.318926 -12.585915 -0.131034 1033 0.186893 0.836544 0.425092
-14.322374 -12.588918 -0.125205 989 0.137274 0.793334 0.508963
-14.327908 -12.593754 -0.119382 921 0.057660 0.723750 0.592747
-14.332569 -12.597823 -0.113555 795 -0.009413 0.665198 0.676589
-14.335736 -12.593631 -0.207332 887 -0.054984 0.725520 -0.672721
-14.330030 -12.588580 -0.201406 961 0.027115 0.798191 -0.587455
-14.326293 -12.585265 -0.195506 1027 0.080891 0.845889 -0.502563
-14.323145 -12.582479 -0.189605 1069 0.126187 0.885984 -0.417656
-14.320945 -12.580511 -0.183729 1087 0.157843 0.914292 -0.333109
-14.319407 -12.579130 -0.177856 1099 0.179963 0.934162 -0.248606
-14.318680 -12.578459 -0.172000 1107 0.190433 0.943822 -0.164347
-14.318508 -12.578281 -0.166143 1121 0.192903 0.946374 -0.080073
-14.318393 -12.578147 -0.160293 1117 0.194563 0.948309 0.004099
-14.320148 -12.579662 -0.154453 1117 0.169301 0.926505 0.088128
-14.321017 -12.580396 -0.148609 1109 0.156801 0.915953 0.172215
-14.321328 -12.580642 -0.142757 1069 0.152327 0.912412 0.256416
-14.324500 -12.583399 -0.136928 1045 0.106688 0.872742 0.340286
-14.328176 -12.586599 -0.131097 995 0.053804 0.826692 0.424186
-14.332455 -12.590315 -0.125272 943 -0.007767 0.773231 0.507999
-14.337492 -12.594714 -0.119443 843 -0.080246 0.709932 0.591869
-14.337708 -12.588026 -0.201476 887 -0.083361 0.806164 -0.588462
-14.333694 -12.584477 -0.195569 965 -0.025605 0.857223 -0.503469
-14.331057 -12.582128 -0.189685 1015 0.012350 0.891034 -0.418807
-14.328687 -12.580019 -0.183797 1033 0.046449 0.921373 -0.334088
-14.326595 -12.578143 -0.177921 1037 0.076541 0.948364 -0.249541
-14.325217 -12.576907 -0.172048 1069 0.096369 0.966148 -0.165037
-14.325160 -12.576831 -0.166198 1079 0.097192 0.967245 -0.080865
-14.325370 -12.576977 -0.160348 1071 0.094174 0.965146 0.003308
-14.326848 -12.578246 -0.154498 1069 0.072905 0.946882 0.087481
-14.327987 -12.579219 -0.148662 1061 0.056521 0.932886 0.171452
-14.329352 -12.580387 -0.142814 1013 0.036871 0.916076 0.255596
-14.332695 -12.583285 -0.136985 991 -0.011225 0.874375 0.339466
-14.336146 -12.586290 -0.131156 931 -0.060884 0.831137 0.423337
-14.339537 -12.589236 -0.125316 839 -0.109666 0.788750 0.507366
-14.342846 -12.584823 -0.195663 835 -0.157281 0.852256 -0.504822
-14.341957 -12.584018 -0.189788 923 -0.144492 0.863837 -0.420289
-14.338595 -12.581035 -0.183898 975 -0.096122 0.906759 -0.335541
-14.336453 -12.579123 -0.178010 1001 -0.065303 0.934272 -0.250822
-14.335020 -12.577831 -0.172140 1021 -0.044679 0.952851 -0.166361
-14.333856 -12.576780 -0.166276 1019 -0.027924 0.967973 -0.081987
-14.333847 -12.576752 -0.160415 1017 -0.027801 0.968384 0.002344
-14.335487 -12.578154 -0.154577 1003 -0.051402 0.948213 0.086344
-14.336740 -12.579226 -0.148729 983 -0.069419 0.932790 0.170488
-14.339375 -12.581502 -0.142894 947 -0.107333 0.900035 0.254445
-14.343809 -12.585372 -0.137069 893 -0.171140 0.844352 0.338258
-14.346444 -12.587649 -0.131223 791 -0.209054 0.811584 0.422373
-14.349541 -12.583108 -0.184001 803 -0.253609 0.876928 -0.337023
-14.347887 -12.581627 -0.178121 863 -0.229815 0.898238 -0.252419
-14.346391 -12.580286 -0.172241 891 -0.208285 0.917531 -0.167814
-14.346217 -12.580109 -0.166381 907 -0.205788 0.920083 -0.083498
-14.345387 -12.579347 -0.160516 897 -0.193850 0.931047 0.000891
-14.346368 -12.580178 -0.154661 889 -0.207956 0.919081 0.085135
-14.349712 -12.583090 -0.148832 867 -0.256079 0.877188 0.169006
-14.351518 -12.584641 -0.142991 791 -0.282054 0.854863 0.253049
