768
-3.398450 1.728300 -0.072120 1155 0.001952 -0.988171 -0.202670
-3.397390 1.727760 -0.069170 1163 0.017204 -0.995941 -0.160224
-3.396390 1.727250 -0.066230 1173 0.031591 -1.003279 -0.117922
-3.395320 1.726710 -0.063280 1175 0.046987 -1.011049 -0.075476
-3.394450 1.726260 -0.060340 1177 0.059505 -1.017524 -0.033173
-3.395080 1.726580 -0.057430 1185 0.050438 -1.012919 0.008697
-3.395440 1.726770 -0.054510 1183 0.045258 -1.010185 0.050711
-3.395740 1.726910 -0.051590 1179 0.040943 -1.008171 0.092726
-3.395850 1.726970 -0.048660 1161 0.039361 -1.007308 0.134884
-3.396860 1.727480 -0.045750 1159 0.024830 -0.999969 0.176755
-3.398780 1.728460 -0.042850 1139 -0.002799 -0.985869 0.218481
-3.400180 1.729170 -0.039940 1115 -0.022943 -0.975653 0.260352
-3.401640 1.729910 -0.037020 1073 -0.043948 -0.965005 0.302366
-3.404220 1.731220 -0.034120 1031 -0.081073 -0.946156 0.344093
-3.407250 1.732760 -0.031220 973 -0.124667 -0.923999 0.385819
-3.404490 1.734840 -0.089890 999 -0.084956 -0.894070 -0.458353
-3.401020 1.733070 -0.086870 1061 -0.035029 -0.919538 -0.414900
-3.398470 1.731770 -0.083870 1111 0.001664 -0.938242 -0.371735
-3.396430 1.730730 -0.080890 1145 0.031015 -0.953206 -0.328857
-3.394990 1.730000 -0.077930 1167 0.051735 -0.963710 -0.286267
-3.393540 1.729260 -0.074980 1191 0.072599 -0.974358 -0.243821
-3.392160 1.728550 -0.072020 1203 0.092455 -0.984574 -0.201231
-3.391550 1.728240 -0.069080 1211 0.101230 -0.989034 -0.158929
-3.390810 1.727860 -0.066150 1235 0.111878 -0.994502 -0.116771
-3.390140 1.727520 -0.063210 1241 0.121518 -0.999394 -0.074468
-3.389720 1.727300 -0.060280 1231 0.127563 -1.002559 -0.032310
-3.389640 1.727260 -0.057360 1233 0.128712 -1.003135 0.009704
-3.390130 1.727510 -0.054450 1237 0.121662 -0.999538 0.051575
-3.390360 1.727630 -0.051530 1233 0.118352 -0.997811 0.093589
-3.390850 1.727880 -0.048610 1225 0.111302 -0.994214 0.135604
-3.391930 1.728430 -0.045700 1217 0.095762 -0.986300 0.177474
-3.392680 1.728810 -0.042790 1189 0.084973 -0.980833 0.219345
-3.393430 1.729190 -0.039880 1167 0.074181 -0.975365 0.261215
-3.395220 1.730100 -0.036970 1147 0.048425 -0.962271 0.303086
-3.397590 1.731310 -0.034070 1123 0.014326 -0.944861 0.344812
-3.399830 1.732450 -0.031160 1091 -0.017907 -0.928459 0.386683
-3.402340 1.733730 -0.028250 1037 -0.054020 -0.910042 0.428553
-3.405300 1.735240 -0.025340 971 -0.096609 -0.888315 0.470424
-3.400630 1.736290 -0.092760 1047 -0.029416 -0.873207 -0.499648
-3.397490 1.734690 -0.089740 1099 0.015763 -0.896229 -0.456195
-3.395460 1.733650 -0.086760 1149 0.044974 -0.911193 -0.413317
-3.393760 1.732780 -0.083790 1187 0.069433 -0.923711 -0.370583
-3.391210 1.731480 -0.080800 1197 0.106122 -0.942415 -0.327562
-3.389110 1.730400 -0.077830 1223 0.136338 -0.957956 -0.284828
-3.387850 1.729760 -0.074880 1229 0.154468 -0.967163 -0.242382
-3.387450 1.729550 -0.071950 1253 0.160224 -0.970185 -0.200224
-3.387040 1.729350 -0.069020 1263 0.166125 -0.973063 -0.158066
-3.386300 1.728970 -0.066090 1271 0.176769 -0.978530 -0.115907
-3.385240 1.728420 -0.063150 1261 0.192021 -0.986444 -0.073605
-3.385470 1.728540 -0.060230 1263 0.188714 -0.984719 -0.031591
-3.385710 1.728660 -0.057320 1269 0.185260 -0.982991 0.010280
-3.385360 1.728480 -0.054390 1263 0.190296 -0.985581 0.052438
-3.385650 1.728630 -0.051480 1267 0.186124 -0.983423 0.094309
-3.386080 1.728850 -0.048560 1263 0.179936 -0.980257 0.136323
-3.386830 1.729230 -0.045650 1251 0.169143 -0.974789 0.178193
-3.387450 1.729540 -0.042740 1237 0.160224 -0.970329 0.220064
-3.388390 1.730020 -0.039830 1221 0.146698 -0.963422 0.261934
-3.390120 1.730900 -0.036930 1203 0.121806 -0.950760 0.303661
-3.391510 1.731610 -0.034020 1179 0.101806 -0.940546 0.345532
-3.393160 1.732460 -0.031110 1159 0.078064 -0.928315 0.387402
-3.396060 1.733940 -0.028210 1125 0.036339 -0.907020 0.429129
-3.398690 1.735280 -0.025300 1073 -0.001503 -0.887739 0.470999
-3.401060 1.736480 -0.022390 1001 -0.035605 -0.870473 0.512870
-3.402110 1.740330 -0.098710 985 -0.050713 -0.815078 -0.585260
-3.398380 1.738420 -0.095670 1065 0.002957 -0.842559 -0.541519
-3.394410 1.736380 -0.092630 1115 0.060081 -0.871912 -0.497778
-3.391200 1.734740 -0.089610 1157 0.106266 -0.895509 -0.454325
-3.389570 1.733910 -0.086640 1199 0.129720 -0.907452 -0.411591
-3.388190 1.733200 -0.083690 1223 0.149576 -0.917668 -0.369145
-3.386680 1.732430 -0.080730 1237 0.171305 -0.928747 -0.326555
-3.384980 1.731560 -0.077770 1261 0.195764 -0.941265 -0.283965
-3.383590 1.730840 -0.074820 1261 0.215764 -0.951625 -0.241519
-3.382660 1.730370 -0.071880 1283 0.229146 -0.958386 -0.199217
-3.381930 1.729990 -0.068940 1299 0.239647 -0.963854 -0.156914
-3.381260 1.729650 -0.066010 1291 0.249290 -0.968746 -0.114756
-3.381570 1.729800 -0.063100 1303 0.244827 -0.966588 -0.072886
-3.381800 1.729920 -0.060190 1305 0.241520 -0.964861 -0.031015
-3.381650 1.729840 -0.057270 1301 0.243678 -0.966012 0.010999
-3.380840 1.729430 -0.054340 1293 0.255331 -0.971913 0.053157
-3.380550 1.729280 -0.051420 1287 0.259506 -0.974070 0.095172
-3.381890 1.729960 -0.048520 1287 0.240223 -0.964287 0.136899
-3.383030 1.730540 -0.045620 1283 0.223822 -0.955940 0.178625
-3.383580 1.730830 -0.042710 1273 0.215908 -0.951769 0.220496
-3.384400 1.731240 -0.039800 1269 0.204110 -0.945868 0.262366
-3.386120 1.732120 -0.036900 1255 0.179359 -0.933206 0.304093
-3.388040 1.733100 -0.034000 1231 0.151734 -0.919105 0.345819
-3.389760 1.733980 -0.031090 1219 0.126986 -0.906445 0.387690
-3.391150 1.734690 -0.028180 1169 0.106986 -0.896229 0.429560
-3.393580 1.735930 -0.025280 1133 0.072023 -0.878387 0.471287
-3.396280 1.737310 -0.022370 1093 0.033173 -0.858530 0.513157
-3.399100 1.738750 -0.019450 1029 -0.007403 -0.837811 0.555172
-3.399500 1.742340 -0.101610 1001 -0.013156 -0.786157 -0.626986
-3.394940 1.740000 -0.098540 1079 0.052456 -0.819825 -0.582814
-3.391610 1.738300 -0.095510 1145 0.100369 -0.844287 -0.539217
-3.388550 1.736730 -0.092500 1173 0.144396 -0.866876 -0.495907
-3.386520 1.735680 -0.089520 1217 0.173606 -0.881984 -0.453030
-3.384110 1.734450 -0.086540 1229 0.208282 -0.899682 -0.410152
-3.382150 1.733440 -0.083570 1257 0.236484 -0.914213 -0.367418
-3.381540 1.733130 -0.080640 1277 0.245259 -0.918675 -0.325260
-3.380300 1.732490 -0.077690 1289 0.263101 -0.927884 -0.282814
-3.379050 1.731850 -0.074740 1301 0.281087 -0.937091 -0.240368
-3.378700 1.731670 -0.071820 1319 0.286123 -0.939681 -0.198353
-3.378100 1.731360 -0.068890 1323 0.294757 -0.944143 -0.156195
-3.377560 1.731080 -0.065970 1337 0.302527 -0.948170 -0.114181
-3.377140 1.730870 -0.063050 1327 0.308569 -0.951192 -0.072166
-3.377520 1.731060 -0.060140 1335 0.303100 -0.948458 -0.030296
-3.376970 1.730770 -0.057210 1333 0.311014 -0.952631 0.011863
-3.376550 1.730560 -0.054290 1331 0.317059 -0.955654 0.053877
-3.377180 1.730880 -0.051390 1329 0.307992 -0.951048 0.095604
-3.377730 1.731160 -0.048480 1319 0.300082 -0.947019 0.137474
-3.378740 1.731680 -0.045580 1313 0.285547 -0.939537 0.179201
-3.379300 1.731960 -0.042670 1303 0.277488 -0.935508 0.221071
-3.379260 1.731940 -0.039760 1293 0.278065 -0.935796 0.262942
-3.380270 1.732460 -0.036850 1277 0.263533 -0.928315 0.304812
-3.381330 1.733000 -0.033950 1257 0.248281 -0.920544 0.346539
-3.383310 1.734020 -0.031050 1243 0.219791 -0.905869 0.388265
-3.385230 1.735000 -0.028140 1221 0.192165 -0.891768 0.430136
-3.387140 1.735970 -0.025240 1183 0.164684 -0.877811 0.471863
-3.390220 1.737550 -0.022340 1143 0.120369 -0.855077 0.513589
-3.393040 1.739000 -0.019430 1105 0.079793 -0.834215 0.555460
-3.396640 1.740840 -0.016520 1039 0.027993 -0.807740 0.597330
-3.396970 1.744530 -0.104510 1015 0.023245 -0.754646 -0.668713
-3.392150 1.742060 -0.101430 1089 0.092599 -0.790186 -0.624396
-3.387790 1.739820 -0.098370 1141 0.155332 -0.822415 -0.580368
-3.385250 1.738510 -0.095380 1193 0.191877 -0.841264 -0.537346
-3.383420 1.737570 -0.092400 1227 0.218210 -0.854789 -0.494468
-3.381010 1.736330 -0.089420 1245 0.252885 -0.872631 -0.451591
-3.379760 1.735690 -0.086470 1273 0.270871 -0.881840 -0.409145
-3.378450 1.735020 -0.083510 1291 0.289721 -0.891480 -0.366555
-3.376490 1.734010 -0.080550 1305 0.317920 -0.906013 -0.323965
-3.375880 1.733690 -0.077620 1323 0.326699 -0.910617 -0.281807
-3.375620 1.733560 -0.074700 1337 0.330441 -0.912488 -0.239792
-3.374420 1.732940 -0.071760 1341 0.347707 -0.921409 -0.197490
-3.373230 1.732330 -0.068820 1343 0.364828 -0.930186 -0.155188
-3.372960 1.732190 -0.065910 1347 0.368712 -0.932199 -0.113317
-3.372930 1.732170 -0.062990 1351 0.369144 -0.932488 -0.071303
-3.373050 1.732230 -0.060080 1349 0.367418 -0.931625 -0.029432
-3.373350 1.732380 -0.057180 1347 0.363103 -0.929465 0.012294
-3.373390 1.732400 -0.054260 1353 0.362527 -0.929179 0.054309
-3.373420 1.732420 -0.051350 1349 0.362094 -0.928891 0.096179
-3.373710 1.732570 -0.048450 1345 0.357923 -0.926731 0.137906
-3.374530 1.732980 -0.045540 1339 0.346122 -0.920833 0.179776
-3.374430 1.732930 -0.042630 1323 0.347563 -0.921553 0.221647
-3.375630 1.733550 -0.039730 1323 0.330297 -0.912632 0.263373
-3.377290 1.734400 -0.036840 1315 0.306411 -0.900401 0.304956
-3.378750 1.735150 -0.033940 1301 0.285402 -0.889610 0.346683
-3.380400 1.735990 -0.031030 1283 0.261664 -0.877523 0.388553
-3.381600 1.736610 -0.028130 1267 0.244398 -0.868602 0.430280
-3.382860 1.737250 -0.025220 1229 0.226268 -0.859394 0.472150
-3.385020 1.738360 -0.022310 1197 0.195188 -0.843422 0.514021
-3.387580 1.739680 -0.019400 1175 0.158355 -0.824429 0.555891
-3.390920 1.741390 -0.016500 1119 0.110297 -0.799826 0.597618
-3.395040 1.743500 -0.013590 1053 0.051015 -0.769466 0.639488
-3.396410 1.747360 -0.107460 991 0.031303 -0.713926 -0.711159
-3.391860 1.745020 -0.104390 1077 0.096771 -0.747595 -0.666986
-3.388150 1.743110 -0.101350 1139 0.150152 -0.775078 -0.623245
-3.385020 1.741490 -0.098330 1185 0.195188 -0.798387 -0.579792
-3.381310 1.739580 -0.095300 1217 0.248569 -0.825868 -0.536195
-3.378770 1.738280 -0.092310 1249 0.285114 -0.844573 -0.493173
-3.377600 1.737670 -0.089360 1273 0.301951 -0.853352 -0.450727
-3.376160 1.736930 -0.086410 1303 0.322671 -0.863998 -0.408281
-3.374650 1.736150 -0.083450 1325 0.344397 -0.875221 -0.365691
-3.373670 1.735640 -0.080510 1329 0.358496 -0.882559 -0.323389
-3.372280 1.734930 -0.077570 1335 0.378499 -0.892775 -0.281087
-3.371760 1.734660 -0.074640 1357 0.385981 -0.896660 -0.238929
-3.371280 1.734410 -0.071720 1359 0.392886 -0.900257 -0.196914
-3.370290 1.733900 -0.068790 1371 0.407130 -0.907596 -0.154756
-3.369620 1.733550 -0.065860 1365 0.416769 -0.912632 -0.112598
-3.369660 1.733580 -0.062960 1367 0.416197 -0.912200 -0.070871
-3.369840 1.733660 -0.060050 1369 0.413606 -0.911049 -0.029001
-3.370270 1.733890 -0.057150 1371 0.407418 -0.907738 0.012726
-3.370310 1.733900 -0.054240 1373 0.406842 -0.907596 0.054596
-3.370340 1.733920 -0.051330 1361 0.406409 -0.907308 0.096467
-3.370970 1.734240 -0.048420 1359 0.397346 -0.902703 0.138337
-3.370670 1.734090 -0.045510 1357 0.401662 -0.904862 0.180208
-3.371090 1.734300 -0.042600 1349 0.395620 -0.901840 0.222078
-3.372490 1.735020 -0.039710 1341 0.375477 -0.891480 0.263661
-3.373300 1.735430 -0.036810 1321 0.363820 -0.885581 0.305388
-3.374890 1.736250 -0.033910 1317 0.340942 -0.873782 0.347114
-3.376480 1.737070 -0.031010 1299 0.318064 -0.861984 0.388841
-3.378190 1.737950 -0.028110 1291 0.293461 -0.849322 0.430568
-3.378670 1.738190 -0.025190 1261 0.286555 -0.845868 0.472582
-3.380840 1.739310 -0.022290 1231 0.255331 -0.829753 0.514309
-3.383460 1.740650 -0.019390 1201 0.217633 -0.810472 0.556035
-3.385490 1.741700 -0.016480 1155 0.188426 -0.795364 0.597906
-3.388960 1.743480 -0.013570 1101 0.138499 -0.769754 0.639776
-3.393000 1.745560 -0.010650 1027 0.080369 -0.739825 0.681791
-3.391120 1.748030 -0.107340 1061 0.107419 -0.704287 -0.709432
-3.387290 1.746050 -0.104290 1133 0.162526 -0.732775 -0.665548
-3.383910 1.744300 -0.101260 1179 0.211160 -0.757955 -0.621950
-3.380530 1.742560 -0.098240 1219 0.259790 -0.782991 -0.578497
-3.378250 1.741390 -0.095250 1261 0.292600 -0.799826 -0.535476
-3.375700 1.740070 -0.092260 1277 0.329289 -0.818819 -0.492454
-3.374470 1.739430 -0.089310 1309 0.346987 -0.828028 -0.450008
-3.373280 1.738820 -0.086370 1323 0.364108 -0.836805 -0.407706
-3.371850 1.738080 -0.083420 1335 0.384684 -0.847451 -0.365260
-3.371050 1.737670 -0.080480 1345 0.396197 -0.853352 -0.322958
-3.369670 1.736960 -0.077540 1359 0.416052 -0.863566 -0.280656
-3.367910 1.736040 -0.074590 1363 0.441376 -0.876804 -0.238209
-3.367430 1.735800 -0.071670 1373 0.448282 -0.880257 -0.196195
-3.367280 1.735720 -0.068760 1383 0.450440 -0.881408 -0.154325
-3.367070 1.735610 -0.065840 1369 0.453462 -0.882991 -0.112310
-3.366590 1.735360 -0.062920 1379 0.460367 -0.886588 -0.070296
-3.365850 1.734980 -0.060000 1379 0.471016 -0.892056 -0.028281
-3.365830 1.734970 -0.057090 1387 0.471304 -0.892200 0.013589
-3.366070 1.735090 -0.054190 1383 0.467849 -0.890473 0.055316
-3.365710 1.734900 -0.051280 1373 0.473029 -0.893207 0.097186
-3.366000 1.735050 -0.048370 1377 0.468858 -0.891049 0.139057
-3.367540 1.735840 -0.045490 1367 0.446700 -0.879682 0.180496
-3.368410 1.736290 -0.042590 1365 0.434179 -0.873207 0.222222
-3.368970 1.736580 -0.039680 1359 0.426124 -0.869034 0.264093
-3.370100 1.737160 -0.036790 1347 0.409864 -0.860689 0.305676
-3.371290 1.737770 -0.033890 1331 0.392742 -0.851912 0.347402
-3.371970 1.738120 -0.030980 1305 0.382959 -0.846877 0.389273
-3.373290 1.738800 -0.028080 1295 0.363964 -0.837091 0.430999
-3.374870 1.739620 -0.025180 1279 0.341230 -0.825294 0.472726
-3.376920 1.740670 -0.022280 1261 0.311735 -0.810186 0.514452
-3.379210 1.741850 -0.019370 1229 0.278785 -0.793207 0.556323
-3.381500 1.743030 -0.016460 1189 0.245835 -0.776229 0.598194
-3.384510 1.744580 -0.013550 1157 0.202525 -0.753926 0.640064
-3.388490 1.746630 -0.010640 1097 0.145260 -0.724431 0.681934
-3.393250 1.749090 -0.007730 1023 0.076771 -0.689035 0.723805
-3.391170 1.751280 -0.110320 1037 0.106698 -0.657524 -0.752310
-3.386230 1.748720 -0.107230 1117 0.177778 -0.694357 -0.707850
-3.381750 1.746400 -0.104160 1173 0.242237 -0.727739 -0.663677
-3.378630 1.744790 -0.101140 1223 0.287131 -0.750905 -0.620224
-3.376610 1.743750 -0.098160 1247 0.316195 -0.765869 -0.577346
-3.373940 1.742370 -0.095170 1275 0.354612 -0.785725 -0.534325
-3.371660 1.741190 -0.092190 1299 0.387418 -0.802704 -0.491447
-3.370550 1.740610 -0.089240 1329 0.403391 -0.811049 -0.449001
-3.369370 1.740010 -0.086300 1339 0.420368 -0.819681 -0.406699
-3.367870 1.739230 -0.083350 1349 0.441949 -0.830904 -0.364253
-3.366560 1.738550 -0.080410 1365 0.460800 -0.840690 -0.321950
-3.365900 1.738210 -0.077480 1379 0.470295 -0.845582 -0.279792
-3.365100 1.737790 -0.074550 1381 0.481808 -0.851624 -0.237634
-3.364370 1.737420 -0.071630 1387 0.492309 -0.856948 -0.195619
-3.363640 1.737040 -0.068710 1391 0.502813 -0.862415 -0.153605
-3.363170 1.736790 -0.065790 1393 0.509578 -0.866013 -0.111591
-3.363210 1.736810 -0.062880 1399 0.509001 -0.865725 -0.069720
-3.362990 1.736700 -0.059970 1403 0.512168 -0.867307 -0.027850
-3.362640 1.736510 -0.057060 1407 0.517204 -0.870041 0.014021
-3.363260 1.736840 -0.054170 1403 0.508281 -0.865293 0.055604
-3.363690 1.737060 -0.051270 1397 0.502096 -0.862128 0.097330
-3.363860 1.737140 -0.048360 1389 0.499650 -0.860976 0.139201
-3.364610 1.737530 -0.045460 1385 0.488858 -0.855365 0.180927
-3.365030 1.737750 -0.042560 1371 0.482813 -0.852199 0.222654
-3.365450 1.737960 -0.039660 1367 0.476772 -0.849178 0.264381
-3.366380 1.738440 -0.036760 1369 0.463390 -0.842271 0.306107
-3.367970 1.739260 -0.033870 1353 0.440512 -0.830474 0.347690
-3.369430 1.740010 -0.030970 1337 0.419504 -0.819681 0.389416
-3.371080 1.740860 -0.028070 1321 0.395765 -0.807452 0.431143
-3.372720 1.741710 -0.025170 1313 0.372166 -0.795222 0.472870
-3.373910 1.742320 -0.022260 1283 0.355045 -0.786445 0.514740
-3.376020 1.743410 -0.019360 1259 0.324685 -0.770761 0.556467
-3.377980 1.744420 -0.016450 1231 0.296483 -0.756228 0.598337
-3.380140 1.745540 -0.013540 1181 0.265403 -0.740113 0.640208
-3.383800 1.747420 -0.010630 1137 0.212741 -0.713064 0.682078
-3.388040 1.749610 -0.007720 1073 0.151734 -0.681553 0.723949
-3.393120 1.752240 -0.004800 989 0.078640 -0.643711 0.765963
-3.391050 1.754670 -0.113290 1001 0.108424 -0.608746 -0.795044
-3.386380 1.752250 -0.110210 1087 0.175620 -0.643567 -0.750727
-3.381640 1.749790 -0.107130 1153 0.243822 -0.678963 -0.706411
-3.377940 1.747870 -0.104090 1201 0.297059 -0.706589 -0.662670
-3.375990 1.746870 -0.101110 1245 0.325117 -0.720976 -0.619792
-3.373250 1.745450 -0.098110 1283 0.364540 -0.741408 -0.576627
-3.370850 1.744200 -0.095120 1295 0.399072 -0.759394 -0.533605
-3.369480 1.743490 -0.092170 1323 0.418787 -0.769610 -0.491159
-3.367850 1.742650 -0.089210 1337 0.442237 -0.781696 -0.448569
-3.366680 1.742040 -0.086270 1365 0.459074 -0.790473 -0.406267
-3.365490 1.741430 -0.083330 1375 0.476196 -0.799249 -0.363965
-3.364060 1.740680 -0.080380 1377 0.496772 -0.810042 -0.321519
-3.362810 1.740030 -0.077440 1385 0.514758 -0.819393 -0.279217
-3.362020 1.739620 -0.074520 1383 0.526123 -0.825294 -0.237202
-3.361290 1.739240 -0.071590 1407 0.536627 -0.830760 -0.195044
-3.360360 1.738760 -0.068670 1405 0.550009 -0.837667 -0.153030
-3.360080 1.738610 -0.065760 1415 0.554037 -0.839825 -0.111159
-3.360060 1.738600 -0.062850 1407 0.554325 -0.839969 -0.069289
-3.359900 1.738520 -0.059940 1401 0.556627 -0.841120 -0.027418
-3.360070 1.738610 -0.057040 1411 0.554181 -0.839825 0.014309
-3.359720 1.738420 -0.054130 1401 0.559217 -0.842559 0.056179
-3.360410 1.738780 -0.051240 1405 0.549289 -0.837379 0.097762
-3.361880 1.739540 -0.048350 1409 0.528137 -0.826445 0.139345
-3.362040 1.739620 -0.045450 1403 0.525835 -0.825294 0.181071
-3.362660 1.739940 -0.042550 1391 0.516916 -0.820688 0.222798
-3.363470 1.740360 -0.039650 1371 0.505259 -0.814645 0.264524
-3.364280 1.740780 -0.036750 1373 0.493605 -0.808603 0.306251
-3.364950 1.741120 -0.033850 1361 0.483966 -0.803711 0.347978
-3.365690 1.741510 -0.030950 1347 0.473317 -0.798099 0.389704
-3.366550 1.741950 -0.028050 1319 0.460944 -0.791768 0.431431
-3.368270 1.742840 -0.025150 1315 0.436196 -0.778962 0.473158
-3.370040 1.743750 -0.022250 1301 0.410728 -0.765869 0.514884
-3.372000 1.744770 -0.019350 1281 0.382526 -0.751192 0.556611
-3.373850 1.745720 -0.016440 1245 0.355906 -0.737523 0.598481
-3.376590 1.747140 -0.013530 1205 0.316483 -0.717091 0.640352
-3.380440 1.749130 -0.010630 1173 0.261087 -0.688459 0.682078
-3.383770 1.750850 -0.007710 1117 0.213174 -0.663711 0.724093
-3.387740 1.752910 -0.004790 1033 0.156053 -0.634070 0.766107
-3.386280 1.755580 -0.113180 1065 0.177058 -0.595654 -0.793461
-3.382000 1.753360 -0.110110 1133 0.238642 -0.627595 -0.749289
-3.378630 1.751610 -0.107070 1197 0.287131 -0.652775 -0.705548
-3.374670 1.749550 -0.104030 1229 0.344108 -0.682416 -0.661807
-3.372010 1.748170 -0.101030 1271 0.382382 -0.702271 -0.618641
-3.370650 1.747460 -0.098070 1305 0.401950 -0.712487 -0.576051
-3.368430 1.746310 -0.095090 1325 0.433894 -0.729034 -0.533173
-3.365830 1.744960 -0.092110 1337 0.471304 -0.748459 -0.490296
-3.364010 1.744020 -0.089140 1347 0.497489 -0.761984 -0.447562
-3.363280 1.743640 -0.086220 1373 0.507993 -0.767452 -0.405548
-3.362110 1.743030 -0.083280 1379 0.524830 -0.776229 -0.363245
-3.360990 1.742450 -0.080340 1385 0.540943 -0.784574 -0.320943
-3.359940 1.741900 -0.077410 1401 0.556050 -0.792488 -0.278785
-3.358430 1.741120 -0.074470 1403 0.577779 -0.803711 -0.236483
-3.357770 1.740770 -0.071550 1415 0.587275 -0.808747 -0.194468
-3.357680 1.740730 -0.068640 1411 0.588568 -0.809321 -0.152598
-3.357920 1.740850 -0.065740 1425 0.585117 -0.807596 -0.110871
-3.357910 1.740840 -0.062840 1433 0.585261 -0.807740 -0.069145
-3.357620 1.740690 -0.059930 1419 0.589432 -0.809898 -0.027274
-3.357470 1.740610 -0.057020 1413 0.591590 -0.811049 0.014596
-3.357180 1.740460 -0.054110 1413 0.595762 -0.813206 0.056467
-3.357280 1.740520 -0.051210 1407 0.594324 -0.812344 0.098193
-3.358030 1.740900 -0.048320 1423 0.583532 -0.806875 0.139776
-3.358970 1.741390 -0.045420 1423 0.570009 -0.799826 0.181503
-3.359650 1.741740 -0.042530 1405 0.560225 -0.794790 0.223086
-3.360070 1.741960 -0.039630 1395 0.554181 -0.791623 0.264812
-3.361270 1.742580 -0.036730 1391 0.536915 -0.782702 0.306539
-3.362080 1.742990 -0.033840 1375 0.525258 -0.776804 0.348122
-3.362880 1.743410 -0.030940 1365 0.513749 -0.770761 0.389848
-3.363490 1.743720 -0.028030 1339 0.504971 -0.766300 0.431719
-3.364810 1.744410 -0.025130 1331 0.485979 -0.756372 0.473445
-3.367370 1.745730 -0.022240 1323 0.449146 -0.737379 0.515028
-3.368940 1.746550 -0.019340 1287 0.426553 -0.725582 0.556755
-3.370520 1.747360 -0.016430 1261 0.403819 -0.713926 0.598625
-3.373460 1.748890 -0.013530 1243 0.361518 -0.691911 0.640352
-3.376980 1.750710 -0.010620 1203 0.310870 -0.665725 0.682222
-3.380110 1.752330 -0.007710 1153 0.265835 -0.642416 0.724093
-3.383700 1.754190 -0.004790 1093 0.214182 -0.615653 0.766107
-3.388180 1.756520 -0.001860 1005 0.149720 -0.582127 0.808265
-3.388220 1.759930 -0.116220 1013 0.149144 -0.533063 -0.837202
-3.382250 1.756830 -0.113090 1101 0.235043 -0.577668 -0.792166
-3.377320 1.754270 -0.110000 1165 0.305979 -0.614502 -0.747706
-3.373760 1.752410 -0.106960 1209 0.357203 -0.641264 -0.703965
-3.372210 1.751610 -0.103990 1253 0.379504 -0.652775 -0.661231
-3.369610 1.750260 -0.101000 1285 0.416913 -0.672200 -0.618209
-3.366360 1.748570 -0.097990 1303 0.463678 -0.696517 -0.574900
-3.364540 1.747620 -0.095020 1329 0.489863 -0.710185 -0.532166
-3.362650 1.746640 -0.092060 1347 0.517060 -0.724286 -0.489576
-3.361080 1.745820 -0.089100 1357 0.539649 -0.736084 -0.446986
-3.360430 1.745490 -0.086180 1381 0.549001 -0.740833 -0.404972
-3.359450 1.744970 -0.083240 1389 0.563100 -0.748315 -0.362670
-3.358530 1.744490 -0.080310 1409 0.576338 -0.755221 -0.320512
-3.357540 1.743980 -0.077390 1411 0.590585 -0.762559 -0.278497
-3.357140 1.743770 -0.074470 1425 0.596338 -0.765581 -0.236483
-3.356470 1.743420 -0.071550 1421 0.605978 -0.770617 -0.194468
-3.355550 1.742940 -0.068630 1435 0.619216 -0.777524 -0.152454
-3.354810 1.742560 -0.065710 1427 0.629864 -0.782991 -0.110440
-3.354990 1.742650 -0.062810 1429 0.627274 -0.781696 -0.068713
-3.355150 1.742730 -0.059910 1441 0.624972 -0.780545 -0.026986
-3.354740 1.742520 -0.057000 1433 0.630873 -0.783567 0.014884
-3.355300 1.742810 -0.054100 1429 0.622815 -0.779394 0.056611
-3.355070 1.742690 -0.051200 1427 0.626122 -0.781121 0.098337
-3.355300 1.742810 -0.048300 1415 0.622815 -0.779394 0.140064
-3.356250 1.743300 -0.045410 1427 0.609144 -0.772344 0.181647
-3.356340 1.743340 -0.042500 1401 0.607851 -0.771768 0.223517
-3.356700 1.743530 -0.039600 1403 0.602671 -0.769034 0.265244
-3.358160 1.744280 -0.036720 1403 0.581662 -0.758243 0.306683
-3.359160 1.744800 -0.033820 1383 0.567275 -0.750761 0.348409
-3.360150 1.745320 -0.030920 1371 0.553028 -0.743279 0.390136
-3.361670 1.746110 -0.028030 1363 0.531159 -0.731912 0.431719
-3.362930 1.746760 -0.025130 1351 0.513029 -0.722559 0.473445
-3.364250 1.747440 -0.022230 1325 0.494038 -0.712776 0.515172
-3.366080 1.748390 -0.019330 1307 0.467705 -0.699107 0.556899
-3.367980 1.749380 -0.016420 1289 0.440368 -0.684862 0.598769
-3.370010 1.750430 -0.013520 1261 0.411161 -0.669754 0.640496
-3.373730 1.752360 -0.010610 1227 0.357635 -0.641984 0.682366
-3.376860 1.753990 -0.007700 1181 0.312599 -0.618530 0.724237
-3.380180 1.755710 -0.004790 1129 0.264830 -0.593782 0.766107
-3.384280 1.757840 -0.001860 1041 0.205836 -0.563134 0.808265
-3.384040 1.761130 -0.116130 1049 0.209287 -0.515797 -0.835907
-3.378540 1.758260 -0.113010 1131 0.288425 -0.557092 -0.791015
-3.375100 1.756480 -0.109970 1185 0.337923 -0.582704 -0.747274
-3.372190 1.754960 -0.106960 1239 0.379792 -0.604575 -0.703965
-3.369470 1.753540 -0.103950 1271 0.418931 -0.625005 -0.660655
-3.366870 1.752190 -0.100960 1299 0.456340 -0.644430 -0.617634
-3.365370 1.751410 -0.098000 1329 0.477921 -0.655653 -0.575044
-3.363550 1.750460 -0.095030 1353 0.504110 -0.669322 -0.532310
-3.360700 1.748970 -0.092040 1363 0.545117 -0.690760 -0.489289
-3.358610 1.747890 -0.089070 1381 0.575189 -0.706300 -0.446555
-3.357500 1.747310 -0.086140 1383 0.591158 -0.714645 -0.404396
-3.356520 1.746790 -0.083210 1403 0.605261 -0.722127 -0.362238
-3.355530 1.746280 -0.080280 1411 0.619504 -0.729466 -0.320080
-3.354750 1.745870 -0.077350 1429 0.630729 -0.735365 -0.277922
-3.354340 1.745650 -0.074440 1433 0.636626 -0.738530 -0.236051
-3.354000 1.745480 -0.071530 1441 0.641518 -0.740978 -0.194181
-3.353140 1.745030 -0.068610 1435 0.653891 -0.747451 -0.152166
-3.353050 1.744980 -0.065700 1445 0.655188 -0.748171 -0.110296
-3.353100 1.745000 -0.062800 1435 0.654468 -0.747883 -0.068569
-3.352620 1.744750 -0.059890 1435 0.661377 -0.751480 -0.026699
-3.352530 1.744710 -0.056980 1445 0.662670 -0.752056 0.015172
-3.352500 1.744690 -0.054080 1443 0.663102 -0.752344 0.056899
-3.352280 1.744570 -0.051180 1437 0.666268 -0.754070 0.098625
-3.352640 1.744760 -0.048280 1431 0.661088 -0.751336 0.140352
-3.353710 1.745320 -0.045390 1429 0.645692 -0.743279 0.181934
-3.354520 1.745740 -0.042500 1417 0.634036 -0.737235 0.223517
-3.354810 1.745890 -0.039600 1413 0.629864 -0.735077 0.265244
-3.355420 1.746200 -0.036700 1403 0.621086 -0.730617 0.306970
-3.356620 1.746820 -0.033810 1385 0.603820 -0.721696 0.348553
-3.358000 1.747550 -0.030920 1387 0.583964 -0.711192 0.390136
-3.358550 1.747830 -0.028010 1361 0.576050 -0.707163 0.432006
-3.359410 1.748270 -0.025110 1345 0.563676 -0.700832 0.473733
-3.361250 1.749230 -0.022220 1331 0.537203 -0.687019 0.515316
-3.363280 1.750290 -0.019320 1329 0.507993 -0.671768 0.557042
-3.365170 1.751270 -0.016420 1309 0.480799 -0.657667 0.598769
-3.367270 1.752360 -0.013510 1273 0.450584 -0.641984 0.640640
-3.369880 1.753720 -0.010610 1241 0.413030 -0.622415 0.682366
-3.372940 1.755310 -0.007700 1201 0.369000 -0.599537 0.724237
-3.376660 1.757240 -0.004780 1157 0.315474 -0.571767 0.766251
-3.380760 1.759380 -0.001860 1095 0.256483 -0.540977 0.808265
-3.385760 1.761980 0.001070 997 0.184539 -0.503566 0.850424
-3.384810 1.764870 -0.119130 979 0.198210 -0.461983 -0.879073
-3.380470 1.762610 -0.116050 1081 0.260655 -0.494502 -0.834756
-3.376000 1.760270 -0.112970 1151 0.324973 -0.528171 -0.790440
-3.371860 1.758110 -0.109910 1205 0.384540 -0.559249 -0.746411
-3.368420 1.756320 -0.106880 1249 0.434038 -0.585005 -0.702814
-3.366150 1.755140 -0.103890 1291 0.466700 -0.601985 -0.659792
-3.364140 1.754090 -0.100920 1319 0.495619 -0.617092 -0.617058
-3.362060 1.753000 -0.097940 1335 0.525547 -0.632775 -0.574181
-3.360060 1.751950 -0.094970 1343 0.554325 -0.647883 -0.531447
-3.358760 1.751270 -0.092020 1369 0.573028 -0.657667 -0.489001
-3.357060 1.750390 -0.089070 1397 0.597491 -0.670328 -0.446555
-3.355370 1.749500 -0.086120 1401 0.621806 -0.683134 -0.404109
-3.354060 1.748820 -0.083180 1405 0.640656 -0.692920 -0.361807
-3.353530 1.748540 -0.080260 1421 0.648282 -0.696947 -0.319792
-3.352670 1.748100 -0.077340 1431 0.660656 -0.703278 -0.277778
-3.351880 1.747680 -0.074410 1431 0.672021 -0.709323 -0.235619
-3.351350 1.747400 -0.071500 1433 0.679647 -0.713350 -0.193749
-3.351070 1.747260 -0.068590 1447 0.683678 -0.715366 -0.151878
-3.350270 1.746840 -0.065670 1447 0.695187 -0.721408 -0.109864
-3.350180 1.746790 -0.062770 1443 0.696484 -0.722127 -0.068137
-3.350870 1.747150 -0.059880 1439 0.686556 -0.716949 -0.026555
-3.350590 1.747000 -0.056970 1443 0.690584 -0.719106 0.015316
-3.350170 1.746780 -0.054070 1449 0.696628 -0.722271 0.057042
-3.350400 1.746900 -0.051170 1439 0.693318 -0.720546 0.098769
-3.350900 1.747160 -0.048270 1439 0.686124 -0.716805 0.140496
-3.351050 1.747240 -0.045370 1425 0.683966 -0.715654 0.182222
-3.351150 1.747290 -0.042470 1417 0.682526 -0.714933 0.223949
-3.351700 1.747570 -0.039580 1417 0.674611 -0.710904 0.265532
-3.353420 1.748470 -0.036690 1411 0.649864 -0.697956 0.307114
-3.354870 1.749220 -0.033800 1409 0.629000 -0.687164 0.348697
-3.355160 1.749370 -0.030900 1395 0.624828 -0.685006 0.390424
-3.356020 1.749820 -0.028000 1377 0.612454 -0.678531 0.432150
-3.357660 1.750680 -0.025110 1359 0.588856 -0.666157 0.473733
-3.359760 1.751770 -0.022220 1345 0.558640 -0.650473 0.515316
-3.361730 1.752790 -0.019320 1337 0.530294 -0.635797 0.557042
-3.363820 1.753880 -0.016420 1315 0.500223 -0.620113 0.598769
-3.365710 1.754870 -0.013510 1289 0.473029 -0.605868 0.640640
-3.367610 1.755860 -0.010600 1255 0.445692 -0.591625 0.682510
-3.370350 1.757290 -0.007690 1221 0.406269 -0.571048 0.724380
-3.373210 1.758780 -0.004780 1169 0.365117 -0.549610 0.766251
-3.377310 1.760910 -0.001860 1109 0.306123 -0.518962 0.808265
-3.382830 1.763790 0.001060 1045 0.226700 -0.477523 0.850280
-3.383330 1.767390 -0.119130 1017 0.219503 -0.425725 -0.879073
-3.378220 1.764720 -0.116020 1117 0.293028 -0.464143 -0.834325
-3.373540 1.762280 -0.112940 1175 0.360369 -0.499250 -0.790008
-3.369790 1.760320 -0.109890 1225 0.414323 -0.527452 -0.746123
-3.366690 1.758690 -0.106870 1269 0.458930 -0.550905 -0.702670
-3.364030 1.757300 -0.103870 1301 0.497204 -0.570904 -0.659504
-3.361500 1.755980 -0.100880 1327 0.533605 -0.589897 -0.616483
-3.359880 1.755130 -0.097920 1341 0.556915 -0.602127 -0.573893
-3.358520 1.754420 -0.094970 1363 0.576482 -0.612343 -0.531447
-3.356890 1.753570 -0.092010 1387 0.599937 -0.624574 -0.488857
-3.354680 1.752410 -0.089040 1393 0.631734 -0.641264 -0.446123
-3.352530 1.751290 -0.086080 1407 0.662670 -0.657380 -0.403533
-3.351290 1.750640 -0.083140 1413 0.680512 -0.666732 -0.361231
-3.350950 1.750460 -0.080230 1431 0.685404 -0.669322 -0.319360
-3.350420 1.750180 -0.077310 1443 0.693030 -0.673351 -0.277346
-3.349630 1.749770 -0.074390 1435 0.704395 -0.679249 -0.235332
-3.349490 1.749690 -0.071490 1441 0.706412 -0.680400 -0.193605
-3.349280 1.749580 -0.068580 1457 0.709431 -0.681983 -0.151735
-3.348150 1.748990 -0.065660 1461 0.725691 -0.690472 -0.109720
-3.347550 1.748680 -0.062750 1443 0.734326 -0.694934 -0.067850
-3.348300 1.749070 -0.059860 1455 0.723534 -0.689321 -0.026267
-3.348790 1.749330 -0.056970 1457 0.716484 -0.685580 0.015316
-3.348510 1.749180 -0.054060 1459 0.720511 -0.687740 0.057186
-3.348420 1.749130 -0.051160 1449 0.721808 -0.688459 0.098913
-3.348450 1.749140 -0.048260 1455 0.721376 -0.688314 0.140640
-3.348750 1.749300 -0.045360 1443 0.717057 -0.686013 0.182366
-3.349620 1.749750 -0.042470 1437 0.704539 -0.679538 0.223949
-3.350100 1.750000 -0.039570 1417 0.697633 -0.675941 0.265675
-3.350650 1.750290 -0.036680 1411 0.689719 -0.671768 0.307258
-3.351520 1.750740 -0.033780 1411 0.677201 -0.665293 0.348985
-3.352260 1.751120 -0.030890 1389 0.666553 -0.659826 0.390568
-3.353710 1.751880 -0.028000 1381 0.645692 -0.648890 0.432150
-3.355150 1.752630 -0.025100 1369 0.624972 -0.638099 0.473877
-3.356670 1.753420 -0.022200 1363 0.603103 -0.626732 0.515604
-3.358240 1.754250 -0.019310 1341 0.580513 -0.614789 0.557186
-3.360340 1.755340 -0.016410 1325 0.550294 -0.599106 0.598913
-3.362940 1.756700 -0.013510 1297 0.512885 -0.579537 0.640640
-3.365880 1.758230 -0.010600 1265 0.470583 -0.557524 0.682510
-3.368350 1.759520 -0.007690 1235 0.435044 -0.538961 0.724380
-3.370570 1.760680 -0.004780 1179 0.403102 -0.522272 0.766251
-3.374070 1.762510 -0.001860 1135 0.352743 -0.495942 0.808265
-3.378500 1.764820 0.001060 1067 0.289001 -0.462704 0.850280
-3.379650 1.768870 -0.119050 1047 0.272452 -0.404430 -0.877922
-3.373770 1.765790 -0.115920 1117 0.357058 -0.448747 -0.832886
-3.369890 1.763750 -0.112860 1189 0.412886 -0.478100 -0.788857
-3.367040 1.762260 -0.109840 1239 0.453894 -0.499538 -0.745404
-3.363740 1.760530 -0.106820 1277 0.501375 -0.524430 -0.701950
-3.361080 1.759140 -0.103820 1305 0.539649 -0.544430 -0.658785
-3.358820 1.757950 -0.100840 1321 0.572167 -0.561553 -0.615907
-3.356800 1.756900 -0.097870 1347 0.601230 -0.576661 -0.573173
-3.355250 1.756080 -0.094910 1367 0.623535 -0.588458 -0.530584
-3.354280 1.755570 -0.091980 1391 0.637490 -0.595796 -0.488425
-3.352840 1.754820 -0.089030 1403 0.658210 -0.606588 -0.445979
-3.351400 1.754070 -0.086090 1405 0.678930 -0.617379 -0.403677
-3.349710 1.753180 -0.083140 1413 0.703246 -0.630185 -0.361231
-3.348080 1.752330 -0.080200 1413 0.726700 -0.642416 -0.318929
-3.347220 1.751880 -0.077270 1433 0.739074 -0.648890 -0.276771
-3.346630 1.751560 -0.074360 1435 0.747561 -0.653495 -0.234900
-3.347330 1.751930 -0.071470 1449 0.737489 -0.648171 -0.193317
-3.346920 1.751710 -0.068560 1455 0.743389 -0.651336 -0.151447
-3.345800 1.751130 -0.065640 1459 0.759506 -0.659682 -0.109432
-3.345780 1.751120 -0.062740 1459 0.759794 -0.659826 -0.067706
-3.345170 1.750790 -0.059830 1455 0.768569 -0.664574 -0.025835
-3.345210 1.750810 -0.056930 1453 0.767993 -0.664286 0.015891
-3.345960 1.751210 -0.054040 1453 0.757204 -0.658531 0.057474
-3.346190 1.751330 -0.051140 1465 0.753893 -0.656804 0.099201
-3.347010 1.751750 -0.048260 1471 0.742096 -0.650761 0.140640
-3.347040 1.751770 -0.045360 1449 0.741664 -0.650473 0.182366
-3.347400 1.751950 -0.042460 1445 0.736484 -0.647883 0.224093
-3.348330 1.752440 -0.039570 1435 0.723101 -0.640833 0.265675
-3.348810 1.752690 -0.036670 1421 0.716196 -0.637236 0.307402
-3.349940 1.753280 -0.033780 1419 0.699935 -0.628746 0.348985
-3.350680 1.753670 -0.030890 1403 0.689287 -0.623135 0.390568
-3.351930 1.754320 -0.027990 1399 0.671304 -0.613782 0.432294
-3.353710 1.755250 -0.025100 1379 0.645692 -0.600401 0.473877
-3.355410 1.756140 -0.022210 1371 0.621230 -0.587595 0.515460
-3.356660 1.756790 -0.019310 1341 0.603247 -0.578242 0.557186
-3.357840 1.757410 -0.016400 1337 0.586266 -0.569321 0.599057
-3.359940 1.758510 -0.013500 1297 0.556050 -0.553495 0.640783
-3.362660 1.759930 -0.010600 1283 0.516916 -0.533063 0.682510
-3.365400 1.761360 -0.007690 1251 0.477489 -0.512487 0.724380
-3.368520 1.763000 -0.004780 1211 0.432598 -0.488890 0.766251
-3.371640 1.764630 -0.001860 1163 0.387706 -0.465438 0.808265
-3.375680 1.766740 0.001060 1085 0.329577 -0.435078 0.850280
-3.381320 1.769690 0.004000 999 0.248425 -0.392631 0.892582
-3.376490 1.770670 -0.118990 1067 0.317920 -0.378530 -0.877058
-3.371240 1.767910 -0.115880 1141 0.393463 -0.418243 -0.832310
-3.367690 1.766050 -0.112830 1195 0.444539 -0.445006 -0.788425
-3.364200 1.764220 -0.109800 1241 0.494755 -0.471336 -0.744828
-3.361280 1.762690 -0.106790 1279 0.536771 -0.493352 -0.701519
-3.359150 1.761570 -0.103800 1303 0.567419 -0.509466 -0.658497
-3.357400 1.760650 -0.100840 1333 0.592599 -0.522703 -0.615907
-3.354490 1.759120 -0.097840 1353 0.634468 -0.544718 -0.572742
-3.352610 1.758130 -0.094880 1361 0.661517 -0.558963 -0.530152
-3.351560 1.757580 -0.091940 1379 0.676625 -0.566875 -0.487850
-3.350010 1.756770 -0.088990 1395 0.698930 -0.578530 -0.445404
-3.348700 1.756080 -0.086050 1411 0.717777 -0.588458 -0.403101
-3.347790 1.755600 -0.083130 1423 0.730871 -0.595366 -0.361087
-3.347450 1.755420 -0.080210 1453 0.735763 -0.597956 -0.319073
-3.346790 1.755070 -0.077300 1445 0.745259 -0.602991 -0.277202
-3.345740 1.754520 -0.074370 1451 0.760367 -0.610904 -0.235044
-3.344750 1.754000 -0.071450 1459 0.774613 -0.618387 -0.193030
-3.344210 1.753720 -0.068540 1463 0.782383 -0.622415 -0.151159
-3.344260 1.753740 -0.065640 1475 0.781663 -0.622128 -0.109432
-3.344370 1.753800 -0.062740 1485 0.780082 -0.621264 -0.067706
-3.343500 1.753340 -0.059820 1475 0.792599 -0.627883 -0.025691
-3.343540 1.753360 -0.056920 1465 0.792023 -0.627595 0.016035
-3.344300 1.753760 -0.054040 1473 0.781087 -0.621840 0.057474
-3.344140 1.753670 -0.051130 1463 0.783389 -0.623135 0.099345
-3.343520 1.753350 -0.048230 1449 0.792311 -0.627739 0.141071
-3.343880 1.753540 -0.045330 1439 0.787131 -0.625005 0.182798
-3.345020 1.754130 -0.042450 1445 0.770727 -0.616516 0.224237
-3.345950 1.754620 -0.039560 1435 0.757348 -0.609466 0.265819
-3.346890 1.755110 -0.036670 1435 0.743821 -0.602415 0.307402
-3.347230 1.755290 -0.033770 1435 0.738930 -0.599825 0.349129
-3.348160 1.755780 -0.030880 1409 0.725547 -0.592775 0.390711
-3.349350 1.756400 -0.027980 1395 0.708426 -0.583854 0.432438
-3.350210 1.756850 -0.025090 1385 0.696052 -0.577379 0.474021
-3.352960 1.758290 -0.022200 1379 0.656481 -0.556659 0.515604
-3.355190 1.759460 -0.019300 1365 0.624396 -0.539826 0.557330
-3.355390 1.759560 -0.016400 1323 0.621518 -0.538387 0.599057
-3.357410 1.760620 -0.013500 1311 0.592455 -0.523135 0.640783
-3.360740 1.762360 -0.010600 1289 0.544541 -0.498099 0.682510
-3.362810 1.763450 -0.007690 1257 0.514758 -0.482415 0.724380
-3.365810 1.765020 -0.004780 1217 0.471592 -0.459825 0.766251
-3.370230 1.767340 -0.001860 1167 0.407994 -0.426445 0.808265
-3.374060 1.769350 0.001060 1105 0.352887 -0.397523 0.850280
-3.378470 1.771660 0.003990 1013 0.289433 -0.364286 0.892438
-3.375440 1.773440 -0.119000 1085 0.333031 -0.338674 -0.877202
-3.370260 1.770720 -0.115890 1151 0.407562 -0.377811 -0.832454
-3.365740 1.768340 -0.112810 1211 0.472597 -0.412056 -0.788137
-3.362060 1.766410 -0.109770 1253 0.525547 -0.439826 -0.744396
-3.359660 1.765150 -0.106780 1291 0.560081 -0.457956 -0.701375
-3.357590 1.764060 -0.103800 1317 0.589865 -0.473638 -0.658497
-3.355260 1.762830 -0.100810 1339 0.623391 -0.491336 -0.615476
-3.353320 1.761810 -0.097850 1363 0.651305 -0.506013 -0.572886
-3.351180 1.760680 -0.094880 1371 0.682093 -0.522272 -0.530152
-3.349170 1.759630 -0.091910 1381 0.711016 -0.537380 -0.487418
-3.348320 1.759180 -0.088980 1407 0.723245 -0.543855 -0.445260
-3.346960 1.758460 -0.086040 1419 0.742813 -0.554213 -0.402958
-3.345910 1.757910 -0.083110 1435 0.757921 -0.562128 -0.360799
-3.344540 1.757190 -0.080180 1435 0.777632 -0.572488 -0.318641
-3.343620 1.756710 -0.077250 1441 0.790870 -0.579393 -0.276483
-3.343340 1.756560 -0.074350 1459 0.794901 -0.581553 -0.234756
-3.342160 1.755940 -0.071420 1457 0.811879 -0.590474 -0.192598
-3.342600 1.756170 -0.068530 1471 0.805546 -0.587163 -0.151015
-3.343560 1.756670 -0.065650 1489 0.791735 -0.579969 -0.109576
-3.342750 1.756250 -0.062730 1483 0.803388 -0.586012 -0.067562
-3.342210 1.755960 -0.059820 1473 0.811158 -0.590185 -0.025691
-3.341930 1.755810 -0.056920 1481 0.815189 -0.592343 0.016035
-3.341250 1.755450 -0.054010 1477 0.824973 -0.597523 0.057906
-3.341740 1.755710 -0.051120 1475 0.817923 -0.593782 0.099488
-3.343270 1.756510 -0.048240 1475 0.795906 -0.582271 0.140927
-3.343950 1.756870 -0.045350 1457 0.786123 -0.577091 0.182510
-3.343980 1.756880 -0.042450 1457 0.785690 -0.576947 0.224237
-3.344270 1.757030 -0.039550 1447 0.781519 -0.574789 0.265963
-3.344560 1.757180 -0.036660 1443 0.777348 -0.572632 0.307546
-3.345480 1.757670 -0.033770 1427 0.764109 -0.565580 0.349129
-3.347000 1.758470 -0.030880 1421 0.742240 -0.554069 0.390711
-3.347860 1.758920 -0.027980 1401 0.729863 -0.547596 0.432438
-3.348660 1.759330 -0.025080 1385 0.718353 -0.541696 0.474165
-3.350370 1.760230 -0.022190 1379 0.693750 -0.528747 0.515747
-3.352270 1.761230 -0.019300 1357 0.666413 -0.514358 0.557330
-3.353510 1.761880 -0.016390 1343 0.648571 -0.505005 0.599201
-3.355340 1.762840 -0.013490 1319 0.622238 -0.491192 0.640927
-3.358330 1.764410 -0.010590 1293 0.579216 -0.468602 0.682654
-3.361650 1.766150 -0.007690 1267 0.531447 -0.443567 0.724380
-3.364700 1.767760 -0.004780 1237 0.487561 -0.420401 0.766251
-3.367630 1.769290 -0.001860 1181 0.445404 -0.398387 0.808265
-3.371840 1.771510 0.001060 1121 0.384828 -0.366444 0.850280
-3.377040 1.774230 0.003990 1031 0.310009 -0.327308 0.892438
-3.372570 1.775130 -0.118940 1091 0.374324 -0.314357 -0.876339
-3.367390 1.772400 -0.115840 1163 0.448858 -0.353638 -0.831735
-3.363390 1.770290 -0.112780 1217 0.506411 -0.383998 -0.787706
-3.360810 1.768930 -0.109770 1261 0.543533 -0.403567 -0.744396
-3.358100 1.767500 -0.106770 1297 0.582527 -0.424141 -0.701231
-3.355570 1.766170 -0.103780 1323 0.618928 -0.443278 -0.658209
-3.354150 1.765420 -0.100820 1353 0.639360 -0.454071 -0.615619
-3.351880 1.764230 -0.097840 1363 0.672021 -0.471192 -0.572742
-3.349360 1.762900 -0.094860 1377 0.708282 -0.490329 -0.529864
-3.347790 1.762070 -0.091910 1397 0.730871 -0.502272 -0.487418
-3.346040 1.761150 -0.088960 1409 0.756051 -0.515509 -0.444972
-3.344610 1.760390 -0.086020 1419 0.776627 -0.526444 -0.402670
-3.344150 1.760150 -0.083100 1431 0.783244 -0.529898 -0.360655
-3.343820 1.759980 -0.080190 1457 0.787992 -0.532344 -0.318785
-3.342700 1.759390 -0.077260 1463 0.804109 -0.540833 -0.276627
-3.341850 1.758930 -0.074340 1461 0.816338 -0.547452 -0.234612
-3.342090 1.759060 -0.071450 1469 0.812887 -0.545581 -0.193030
-3.341940 1.758980 -0.068540 1483 0.815045 -0.546732 -0.151159
-3.340950 1.758460 -0.065620 1483 0.829288 -0.554213 -0.109145
-3.340220 1.758070 -0.062710 1489 0.839793 -0.559826 -0.067274
-3.340070 1.757990 -0.059810 1485 0.841950 -0.560977 -0.025548
-3.340240 1.758080 -0.056910 1501 0.839504 -0.559682 0.016179
-3.340670 1.758310 -0.054020 1483 0.833316 -0.556373 0.057762
-3.341160 1.758560 -0.051130 1483 0.826266 -0.552776 0.099345
-3.340220 1.758070 -0.048220 1471 0.839793 -0.559826 0.141215
-3.340440 1.758190 -0.045320 1469 0.836626 -0.558098 0.182942
-3.342230 1.759120 -0.042450 1471 0.810870 -0.544718 0.224237
-3.342970 1.759510 -0.039550 1451 0.800225 -0.539106 0.265963
-3.342860 1.759460 -0.036650 1427 0.801807 -0.539826 0.307690
-3.343790 1.759940 -0.033760 1427 0.788424 -0.532919 0.349273
-3.344980 1.760570 -0.030870 1411 0.771303 -0.523854 0.390855
-3.345910 1.761060 -0.027980 1403 0.757921 -0.516804 0.432438
-3.347230 1.761750 -0.025080 1387 0.738930 -0.506876 0.474165
-3.349060 1.762710 -0.022190 1375 0.712597 -0.493063 0.515747
-3.350500 1.763470 -0.019290 1361 0.691877 -0.482127 0.557474
-3.351820 1.764160 -0.016390 1339 0.672886 -0.472199 0.599201
-3.354810 1.765730 -0.013500 1329 0.629864 -0.449609 0.640783
-3.357290 1.767040 -0.010590 1305 0.594180 -0.430761 0.682654
-3.359360 1.768130 -0.007690 1273 0.564397 -0.415078 0.724380
-3.361770 1.769400 -0.004770 1229 0.529721 -0.396804 0.766395
-3.365090 1.771140 -0.001860 1185 0.481952 -0.371768 0.808265
-3.369360 1.773390 0.001060 1131 0.420512 -0.339393 0.850280
-3.373450 1.775540 0.003990 1043 0.361662 -0.308459 0.892438
-3.371040 1.777720 -0.118940 1097 0.396337 -0.277092 -0.876339
-3.366190 1.775160 -0.115840 1169 0.466124 -0.313927 -0.831735
-3.362250 1.773090 -0.112790 1223 0.522812 -0.343710 -0.787850
-3.358960 1.771350 -0.109760 1263 0.570153 -0.368746 -0.744253
-3.355730 1.769640 -0.106740 1293 0.616626 -0.393351 -0.700799
-3.353460 1.768450 -0.103750 1327 0.649288 -0.410473 -0.657778
-3.351260 1.767290 -0.100780 1339 0.680944 -0.427164 -0.615044
-3.349770 1.766500 -0.097820 1365 0.702381 -0.438531 -0.572454
-3.348090 1.765610 -0.094860 1389 0.726556 -0.451337 -0.529864
-3.345750 1.764380 -0.091890 1391 0.760222 -0.469035 -0.487130
-3.344710 1.763830 -0.088960 1407 0.775186 -0.476949 -0.444972
-3.343870 1.763380 -0.086030 1423 0.787275 -0.483422 -0.402814
-3.342950 1.762900 -0.083110 1439 0.800510 -0.490329 -0.360799
-3.341840 1.762310 -0.080180 1445 0.816482 -0.498818 -0.318641
-3.340670 1.761690 -0.077250 1457 0.833316 -0.507739 -0.276483
-3.340330 1.761510 -0.074340 1469 0.838211 -0.510329 -0.234612
-3.340250 1.761470 -0.071440 1465 0.839360 -0.510905 -0.192886
-3.339460 1.761050 -0.068520 1473 0.850729 -0.516948 -0.150871
-3.339310 1.760970 -0.065620 1479 0.852887 -0.518099 -0.109145
-3.339480 1.761050 -0.062720 1495 0.850441 -0.516948 -0.067418
-3.338150 1.760360 -0.059800 1481 0.869576 -0.526876 -0.025404
-3.337880 1.760210 -0.056900 1495 0.873463 -0.529034 0.016323
-3.338950 1.760770 -0.054020 1485 0.858067 -0.520977 0.057762
-3.339700 1.761170 -0.051130 1495 0.847274 -0.515221 0.099345
-3.339930 1.761290 -0.048230 1485 0.843964 -0.513495 0.141071
-3.340280 1.761470 -0.045340 1479 0.838928 -0.510905 0.182654
-3.340510 1.761590 -0.042440 1479 0.835621 -0.509178 0.224381
-3.341700 1.762220 -0.039560 1457 0.818496 -0.500113 0.265819
-3.342060 1.762410 -0.036660 1449 0.813316 -0.497379 0.307546
-3.342140 1.762450 -0.033760 1445 0.812167 -0.496804 0.349273
-3.343530 1.763180 -0.030870 1433 0.792167 -0.486300 0.390855
-3.344580 1.763730 -0.027980 1407 0.777059 -0.478386 0.432438
-3.345510 1.764220 -0.025080 1387 0.763677 -0.471336 0.474165
-3.346700 1.764850 -0.022180 1369 0.746555 -0.462271 0.515891
-3.348850 1.765980 -0.019290 1375 0.715619 -0.446013 0.557474
-3.350680 1.766940 -0.016390 1345 0.689287 -0.432200 0.599201
-3.353020 1.768180 -0.013500 1323 0.655620 -0.414358 0.640783
-3.355620 1.769550 -0.010590 1303 0.618211 -0.394646 0.682654
-3.357710 1.770650 -0.007680 1279 0.588139 -0.378818 0.724524
-3.359990 1.771850 -0.004770 1229 0.555333 -0.361552 0.766395
-3.363610 1.773760 -0.001860 1197 0.503245 -0.334071 0.808265
-3.367370 1.775740 0.001060 1135 0.449146 -0.305581 0.850280
-3.372040 1.778210 0.003990 1067 0.381950 -0.270041 0.892438
-3.369400 1.780200 -0.118930 1103 0.419936 -0.241408 -0.876195
-3.364690 1.777710 -0.115840 1177 0.487705 -0.277236 -0.831735
-3.360620 1.775560 -0.112780 1219 0.546267 -0.308171 -0.787706
-3.357320 1.773810 -0.109750 1257 0.593748 -0.333350 -0.744109
-3.354740 1.772450 -0.106750 1289 0.630873 -0.352920 -0.700943
-3.351900 1.770940 -0.103750 1317 0.671733 -0.374646 -0.657778
-3.349630 1.769740 -0.100770 1341 0.704395 -0.391912 -0.614900
-3.348400 1.769090 -0.097820 1359 0.722093 -0.401264 -0.572454
-3.346720 1.768200 -0.094860 1379 0.746267 -0.414070 -0.529864
-3.344450 1.767000 -0.091890 1387 0.778929 -0.431337 -0.487130
-3.343090 1.766280 -0.088950 1401 0.798496 -0.441695 -0.444828
-3.342430 1.765930 -0.086030 1429 0.807992 -0.446731 -0.402814
-3.340930 1.765140 -0.083090 1429 0.829577 -0.458098 -0.360512
-3.340600 1.764960 -0.080180 1445 0.834324 -0.460688 -0.318641
-3.340730 1.765030 -0.077280 1469 0.832455 -0.459681 -0.276914
-3.339550 1.764400 -0.074350 1471 0.849432 -0.468746 -0.234756
-3.338690 1.763950 -0.071430 1479 0.861806 -0.475221 -0.192742
-3.337900 1.763530 -0.068520 1481 0.873175 -0.481264 -0.150871
-3.337810 1.763480 -0.065620 1481 0.874468 -0.481985 -0.109145
-3.337470 1.763300 -0.062710 1489 0.879360 -0.484575 -0.067274
-3.336790 1.762940 -0.059800 1497 0.889144 -0.489753 -0.025404
-3.337030 1.763060 -0.056910 1501 0.885692 -0.488027 0.016179
-3.337650 1.763390 -0.054020 1495 0.876770 -0.483280 0.057762
-3.337620 1.763380 -0.051120 1477 0.877202 -0.483422 0.099488
-3.338050 1.763600 -0.048230 1479 0.871017 -0.480257 0.141071
-3.338530 1.763850 -0.045330 1467 0.864108 -0.476660 0.182798
-3.338500 1.763830 -0.042430 1459 0.864540 -0.476949 0.224524
-3.339300 1.764260 -0.039540 1459 0.853031 -0.470760 0.266107
-3.339980 1.764610 -0.036650 1433 0.843247 -0.465724 0.307690
-3.340970 1.765140 -0.033760 1433 0.829000 -0.458098 0.349273
-3.342220 1.765800 -0.030870 1407 0.811014 -0.448603 0.390855
-3.343020 1.766220 -0.027980 1411 0.799505 -0.442560 0.432438
-3.344400 1.766950 -0.025080 1399 0.779649 -0.432056 0.474165
-3.346170 1.767880 -0.022190 1389 0.754181 -0.418675 0.515747
-3.348070 1.768880 -0.019300 1371 0.726844 -0.404286 0.557330
-3.350610 1.770220 -0.016400 1353 0.690296 -0.385005 0.599057
-3.352240 1.771080 -0.013500 1329 0.666841 -0.372631 0.640783
-3.353740 1.771870 -0.010590 1301 0.645260 -0.361264 0.682654
-3.356010 1.773070 -0.007680 1281 0.612599 -0.343999 0.724524
-3.358350 1.774310 -0.004770 1239 0.578928 -0.326157 0.766395
-3.361660 1.776050 -0.001860 1195 0.531303 -0.301121 0.808265
-3.366270 1.778490 0.001060 1139 0.464971 -0.266013 0.850280
-3.371190 1.781090 0.003990 1063 0.394180 -0.228602 0.892438
-3.368980 1.783330 -0.118960 1107 0.425980 -0.196373 -0.876627
-3.363690 1.780530 -0.115850 1173 0.502096 -0.236660 -0.831878
-3.359490 1.778310 -0.112790 1219 0.562527 -0.268603 -0.787850
-3.356130 1.776530 -0.109760 1251 0.610873 -0.294214 -0.744253
-3.353170 1.774950 -0.106750 1291 0.653462 -0.316947 -0.700943
-3.350320 1.773450 -0.103740 1315 0.694467 -0.338530 -0.657634
-3.348000 1.772220 -0.100760 1341 0.727849 -0.356228 -0.614756
-3.346960 1.771670 -0.097820 1365 0.742813 -0.364142 -0.572454
-3.345280 1.770770 -0.094860 1383 0.766987 -0.377092 -0.529864
