70
-29.436491 -25.820679 -0.193435 1043 0.963280 -0.078517 -0.339812
-29.435072 -25.819374 -0.181404 1073 0.983698 -0.059745 -0.166704
-29.437271 -25.821251 -0.169391 1063 0.952055 -0.086750 0.006144
-29.442007 -25.809675 -0.205492 1111 0.883912 0.079807 -0.513294
-29.438766 -25.806768 -0.193451 1153 0.930539 0.121631 -0.340043
-29.437681 -25.805763 -0.181429 1177 0.946155 0.136094 -0.167064
-29.439449 -25.807245 -0.169418 1165 0.920714 0.114770 0.005756
-29.442406 -25.809778 -0.157400 1141 0.878176 0.078325 0.178677
-29.446102 -25.812954 -0.145387 1063 0.824990 0.032631 0.351526
-29.450096 -25.800911 -0.217571 1103 0.767523 0.205911 -0.687093
-29.444445 -25.795895 -0.205516 1161 0.848839 0.278089 -0.513640
-29.441820 -25.793533 -0.193481 1211 0.886602 0.312064 -0.340474
-29.440002 -25.791880 -0.181453 1205 0.912756 0.335858 -0.167410
-29.439688 -25.791546 -0.169435 1203 0.917284 0.340661 0.005511
-29.442276 -25.793749 -0.157419 1199 0.880042 0.308963 0.178404
-29.446732 -25.797594 -0.145412 1143 0.815934 0.253636 0.351166
-29.452066 -25.802210 -0.133411 1047 0.739173 0.187222 0.523842
-29.463442 -25.796457 -0.229683 1035 0.575498 0.269993 -0.861366
-29.454702 -25.788736 -0.217605 1141 0.701246 0.381086 -0.687582
-29.449717 -25.784313 -0.205555 1187 0.772984 0.444728 -0.514201
-29.446148 -25.781130 -0.193517 1231 0.824331 0.490532 -0.340992
-29.444792 -25.779871 -0.181486 1245 0.843844 0.508645 -0.167884
-29.445454 -25.780397 -0.169471 1239 0.834321 0.501070 0.004993
-29.447653 -25.782259 -0.157468 1217 0.802678 0.474285 0.177698
-29.451401 -25.785484 -0.145456 1155 0.748751 0.427877 0.350533
-29.457449 -25.790712 -0.133459 1099 0.661726 0.352654 0.523152
-29.469023 -25.785419 -0.229717 1067 0.495197 0.428810 -0.861856
-29.460775 -25.778139 -0.217647 1153 0.613864 0.533564 -0.688186
-29.457157 -25.774918 -0.205600 1221 0.665925 0.579916 -0.514848
-29.453861 -25.771971 -0.193571 1269 0.713348 0.622317 -0.341769
-29.451284 -25.769657 -0.181535 1259 0.750425 0.655607 -0.168589
-29.451136 -25.769457 -0.169517 1243 0.752566 0.658488 0.004332
-29.453163 -25.771179 -0.157505 1227 0.723393 0.633706 0.177166
-29.457850 -25.775213 -0.145506 1187 0.655963 0.575662 0.349814
-29.463245 -25.779871 -0.133505 1107 0.578325 0.508645 0.522490
-29.476917 -25.776745 -0.229767 1047 0.381607 0.553625 -0.862575
-29.467127 -25.768124 -0.217687 1151 0.522476 0.677671 -0.688762
-29.462574 -25.764084 -0.205644 1217 0.587985 0.735797 -0.515481
-29.459887 -25.761679 -0.193611 1245 0.626653 0.770404 -0.342345
-29.458900 -25.760754 -0.181587 1249 0.640842 0.783714 -0.169337
-29.458958 -25.760744 -0.169567 1249 0.640018 0.783852 0.003612
-29.461334 -25.762751 -0.157562 1219 0.605823 0.754981 0.176346
-29.465132 -25.766008 -0.145549 1175 0.551183 0.708107 0.349195
-29.471783 -25.771772 -0.133550 1105 0.455486 0.625171 0.521842
-29.488573 -25.770737 -0.229849 1023 0.213897 0.640073 -0.863755
-29.478243 -25.761639 -0.217762 1131 0.362533 0.770981 -0.689841
-29.472961 -25.756971 -0.205703 1179 0.438526 0.838136 -0.516330
-29.469944 -25.754269 -0.193672 1231 0.481942 0.877024 -0.343222
-29.467911 -25.752430 -0.181644 1239 0.511197 0.903480 -0.170158
-29.468302 -25.752707 -0.169622 1223 0.505571 0.899500 0.002821
-29.471443 -25.755394 -0.157623 1203 0.460371 0.860832 0.175468
-29.474483 -25.757994 -0.145614 1163 0.416625 0.823426 0.348260
-29.481260 -25.763853 -0.133613 1081 0.319117 0.739118 0.520936
-29.491495 -25.757027 -0.217842 1075 0.171853 0.837340 -0.690992
-29.486708 -25.752787 -0.205791 1141 0.240738 0.898347 -0.517596
-29.482813 -25.749321 -0.193744 1179 0.296778 0.948213 -0.344258
-29.480621 -25.747343 -0.181719 1209 0.328311 0.976672 -0.171237
-29.481121 -25.747711 -0.169695 1179 0.321121 0.971376 0.001770
-29.484163 -25.750313 -0.157688 1155 0.277348 0.933942 0.174533
-29.489338 -25.754768 -0.145687 1109 0.202892 0.869833 0.347209
-29.493402 -25.758263 -0.133682 995 0.144410 0.819556 0.519943
-29.501385 -25.749094 -0.205887 1053 0.029557 0.951479 -0.518978
-29.497599 -25.745720 -0.193838 1115 0.084033 1.000027 -0.345611
-29.495134 -25.743519 -0.181804 1131 0.119491 1.031697 -0.172460
-29.494858 -25.743206 -0.169775 1121 0.123470 1.036198 0.000619
-29.498335 -25.746178 -0.157764 1087 0.073440 0.993441 0.173439
-29.503136 -25.750309 -0.145765 1025 0.004364 0.933997 0.346087
-29.512365 -25.742407 -0.193922 985 -0.128437 1.047697 -0.346819
-29.510830 -25.741003 -0.181890 1015 -0.106345 1.067896 -0.173697
-29.511869 -25.741858 -0.169874 1017 -0.121302 1.055601 -0.000805
