771
-2.452750 1.310750 -0.074030 1499 0.914114 -0.404598 -0.150385
-2.453130 1.310950 -0.071910 1511 0.908646 -0.401720 -0.119881
-2.453620 1.311210 -0.069780 1509 0.901596 -0.397979 -0.089234
-2.452770 1.310760 -0.067620 1513 0.913826 -0.404454 -0.058155
-2.452690 1.310710 -0.065480 1525 0.914979 -0.405174 -0.027363
-2.452400 1.310560 -0.063340 1517 0.919150 -0.407332 0.003428
-2.452190 1.310440 -0.061200 1525 0.922172 -0.409059 0.034219
-2.452620 1.310670 -0.059070 1533 0.915984 -0.405749 0.064867
-2.452600 1.310660 -0.056940 1535 0.916272 -0.405893 0.095514
-2.452830 1.310780 -0.054810 1527 0.912961 -0.404166 0.126162
-2.453510 1.311140 -0.052690 1519 0.903178 -0.398988 0.156665
-2.454060 1.311430 -0.050560 1515 0.895263 -0.394814 0.187313
-2.454350 1.311590 -0.048430 1499 0.891092 -0.392512 0.217960
-2.455290 1.312090 -0.046310 1505 0.877566 -0.385317 0.248464
-2.454930 1.311900 -0.044160 1483 0.882746 -0.388051 0.279399
-2.454450 1.311640 -0.042020 1471 0.889655 -0.391792 0.310190
-2.456020 1.312480 -0.039910 1463 0.867061 -0.379706 0.340550
-2.457720 1.313390 -0.037790 1461 0.842602 -0.366612 0.371054
-2.458270 1.313680 -0.035660 1463 0.834688 -0.362439 0.401701
-2.458350 1.313720 -0.033520 1441 0.833539 -0.361865 0.432493
-2.459210 1.314180 -0.031390 1441 0.821165 -0.355245 0.463140
-2.460460 1.314850 -0.029270 1437 0.803179 -0.345606 0.493644
-2.461570 1.315440 -0.027140 1409 0.787207 -0.337115 0.524291
-2.462560 1.315970 -0.025000 1405 0.772963 -0.329491 0.555083
-2.463410 1.316430 -0.022870 1389 0.760734 -0.322872 0.585730
-2.464520 1.317020 -0.020730 1375 0.744761 -0.314381 0.616521
-2.467120 1.318410 -0.018610 1365 0.707352 -0.294382 0.647025
-2.469450 1.319650 -0.016480 1343 0.673826 -0.276540 0.677673
-2.471330 1.320660 -0.014340 1331 0.646776 -0.262008 0.708464
-2.473210 1.321660 -0.012190 1307 0.619724 -0.247619 0.739399
-2.475220 1.322730 -0.010050 1269 0.590805 -0.232225 0.770191
-2.477610 1.324010 -0.007900 1231 0.556414 -0.213807 0.801126
-2.479750 1.325150 -0.005750 1201 0.525625 -0.197404 0.832061
-2.482710 1.326740 -0.003590 1159 0.483036 -0.174526 0.863140
-2.485880 1.328430 -0.001440 1079 0.437424 -0.150209 0.894075
-2.490520 1.330910 0.000730 1007 0.370660 -0.114527 0.925298
-2.485480 1.330760 -0.124900 1099 0.443177 -0.116684 -0.882327
-2.480540 1.328110 -0.122490 1161 0.514257 -0.154814 -0.847651
-2.476750 1.326080 -0.120140 1199 0.568791 -0.184023 -0.813838
-2.474520 1.324880 -0.117870 1235 0.600877 -0.201289 -0.781176
-2.472790 1.323960 -0.115630 1273 0.625768 -0.214527 -0.748946
-2.470880 1.322930 -0.113390 1299 0.653250 -0.229347 -0.716716
-2.468440 1.321620 -0.111120 1321 0.688357 -0.248195 -0.684054
-2.466780 1.320730 -0.108890 1339 0.712244 -0.261001 -0.651968
-2.465370 1.319980 -0.106680 1363 0.732532 -0.271792 -0.620169
-2.463380 1.318910 -0.104450 1379 0.761162 -0.287188 -0.588083
-2.461710 1.318010 -0.102230 1395 0.785193 -0.300138 -0.556140
-2.461130 1.317710 -0.100060 1407 0.793539 -0.304454 -0.524917
-2.460360 1.317290 -0.097880 1425 0.804616 -0.310498 -0.493550
-2.458890 1.316500 -0.095680 1433 0.825769 -0.321865 -0.461896
-2.457400 1.315710 -0.093480 1435 0.847206 -0.333232 -0.430241
-2.456370 1.315150 -0.091300 1449 0.862026 -0.341288 -0.398874
-2.455720 1.314800 -0.089140 1451 0.871380 -0.346324 -0.367795
-2.455780 1.314830 -0.087000 1473 0.870516 -0.345894 -0.337004
-2.455580 1.314730 -0.084850 1479 0.873394 -0.347331 -0.306068
-2.454350 1.314070 -0.082670 1485 0.891092 -0.356829 -0.274702
-2.453240 1.313480 -0.080490 1485 0.907064 -0.365317 -0.243335
-2.452910 1.313300 -0.078340 1503 0.911812 -0.367907 -0.212399
-2.452320 1.312980 -0.076190 1503 0.920299 -0.372511 -0.181464
-2.452370 1.313010 -0.074050 1515 0.919582 -0.372081 -0.150673
-2.452880 1.313280 -0.071930 1519 0.912244 -0.368195 -0.120169
-2.452470 1.313060 -0.069780 1515 0.918141 -0.371360 -0.089234
-2.451100 1.312320 -0.067600 1509 0.937853 -0.382008 -0.057867
-2.450690 1.312100 -0.065460 1515 0.943753 -0.385173 -0.027076
-2.451570 1.312570 -0.063350 1525 0.931091 -0.378411 0.003284
-2.451880 1.312740 -0.061220 1521 0.926632 -0.375966 0.033931
-2.451790 1.312690 -0.059080 1521 0.927925 -0.376684 0.064723
-2.452220 1.312920 -0.056950 1521 0.921740 -0.373376 0.095370
-2.452570 1.313110 -0.054820 1515 0.916704 -0.370641 0.126018
-2.452230 1.312920 -0.052680 1507 0.921596 -0.373376 0.156809
-2.452840 1.313250 -0.050560 1507 0.912817 -0.368628 0.187313
-2.453390 1.313540 -0.048430 1509 0.904907 -0.364455 0.217960
-2.453680 1.313700 -0.046300 1499 0.900732 -0.362153 0.248608
-2.454350 1.314060 -0.044170 1493 0.891092 -0.356973 0.279255
-2.454770 1.314280 -0.042040 1473 0.885047 -0.353806 0.309903
-2.455830 1.314850 -0.039920 1469 0.869796 -0.345606 0.340406
-2.456950 1.315440 -0.037800 1463 0.853683 -0.337115 0.370910
-2.457110 1.315530 -0.035660 1463 0.851381 -0.335822 0.401701
-2.457580 1.315780 -0.033530 1455 0.844616 -0.332223 0.432349
-2.458960 1.316520 -0.031400 1441 0.824760 -0.321577 0.462996
-2.459370 1.316740 -0.029270 1427 0.818863 -0.318411 0.493644
-2.460030 1.317090 -0.027130 1409 0.809364 -0.313375 0.524435
-2.461140 1.317690 -0.025000 1407 0.793395 -0.304742 0.555083
-2.463350 1.318870 -0.022880 1397 0.761595 -0.287764 0.585586
-2.464520 1.319490 -0.020740 1375 0.744761 -0.278843 0.616378
-2.465830 1.320190 -0.018610 1369 0.725911 -0.268771 0.647025
-2.467710 1.321200 -0.016470 1335 0.698861 -0.254238 0.677816
-2.469210 1.322000 -0.014330 1313 0.677280 -0.242727 0.708608
-2.471670 1.323320 -0.012190 1293 0.641885 -0.223734 0.739399
-2.474190 1.324660 -0.010050 1273 0.605624 -0.204455 0.770191
-2.476320 1.325810 -0.007900 1233 0.574976 -0.187908 0.801126
-2.479160 1.327330 -0.005750 1195 0.534113 -0.166037 0.832061
-2.482260 1.328990 -0.003600 1147 0.489509 -0.142152 0.862996
-2.485160 1.330540 -0.001440 1083 0.447781 -0.119851 0.894075
-2.489930 1.333090 0.000730 991 0.379151 -0.083160 0.925298
-2.484470 1.332640 -0.124900 1087 0.457712 -0.089633 -0.882327
-2.480300 1.330400 -0.122520 1143 0.517711 -0.121864 -0.848083
-2.477240 1.328760 -0.120210 1195 0.561738 -0.145461 -0.814845
-2.474670 1.327380 -0.117930 1237 0.598719 -0.165318 -0.782040
-2.472170 1.326040 -0.115650 1271 0.634687 -0.184598 -0.749234
-2.469800 1.324770 -0.113380 1293 0.668790 -0.202872 -0.716572
-2.467760 1.323670 -0.111140 1319 0.698141 -0.218698 -0.684342
-2.465640 1.322530 -0.108890 1339 0.728645 -0.235101 -0.651968
-2.463590 1.321430 -0.106650 1355 0.758144 -0.250930 -0.619738
-2.462050 1.320600 -0.104430 1375 0.780301 -0.262871 -0.587795
-2.460780 1.319920 -0.102230 1391 0.798575 -0.272657 -0.556140
-2.459430 1.319190 -0.100030 1407 0.817999 -0.283159 -0.524486
-2.458460 1.318680 -0.097850 1417 0.831954 -0.290497 -0.493119
-2.458080 1.318470 -0.095690 1427 0.837422 -0.293519 -0.462040
-2.457310 1.318050 -0.093520 1439 0.848503 -0.299562 -0.430817
-2.455880 1.317290 -0.091320 1445 0.869079 -0.310498 -0.399162
-2.455240 1.316940 -0.089150 1457 0.878286 -0.315534 -0.367939
-2.454850 1.316730 -0.087000 1471 0.883898 -0.318555 -0.337004
-2.454520 1.316560 -0.084850 1475 0.888646 -0.321001 -0.306068
-2.453860 1.316200 -0.082680 1483 0.898142 -0.326181 -0.274845
-2.452630 1.315540 -0.080500 1493 0.915840 -0.335678 -0.243479
-2.452760 1.315610 -0.078370 1505 0.913970 -0.334669 -0.212831
-2.452810 1.315640 -0.076230 1519 0.913249 -0.334239 -0.182040
-2.451760 1.315070 -0.074060 1521 0.928357 -0.342439 -0.150817
-2.451110 1.314720 -0.071910 1505 0.937712 -0.347475 -0.119881
-2.450770 1.314540 -0.069760 1501 0.942604 -0.350065 -0.088946
-2.450880 1.314590 -0.067630 1517 0.941019 -0.349347 -0.058299
-2.450670 1.314480 -0.065480 1511 0.944042 -0.350930 -0.027363
-2.450320 1.314290 -0.063340 1511 0.949077 -0.353662 0.003428
-2.449920 1.314080 -0.061190 1499 0.954834 -0.356684 0.034363
-2.449760 1.313990 -0.059050 1505 0.957136 -0.357980 0.065155
-2.450510 1.314390 -0.056940 1509 0.946343 -0.352225 0.095514
-2.451130 1.314720 -0.054810 1517 0.937424 -0.347475 0.126162
-2.452130 1.315260 -0.052700 1513 0.923033 -0.339705 0.156521
-2.452940 1.315700 -0.050580 1501 0.911380 -0.333374 0.187025
-2.452520 1.315470 -0.048430 1493 0.917424 -0.336685 0.217960
-2.453070 1.315760 -0.046310 1489 0.909510 -0.332512 0.248464
-2.454330 1.316430 -0.044190 1497 0.891380 -0.322872 0.278967
-2.454360 1.316450 -0.042050 1477 0.890948 -0.322584 0.309759
-2.454450 1.316500 -0.039910 1471 0.889655 -0.321865 0.340550
-2.455310 1.316960 -0.037790 1457 0.877277 -0.315246 0.371054
-2.456110 1.317390 -0.035660 1447 0.865768 -0.309059 0.401701
-2.457420 1.318090 -0.033540 1451 0.846918 -0.298987 0.432205
-2.458280 1.318550 -0.031410 1433 0.834544 -0.292368 0.462852
-2.458820 1.318840 -0.029270 1417 0.826774 -0.288195 0.493644
-2.460130 1.319540 -0.027140 1415 0.807927 -0.278123 0.524291
-2.461500 1.320280 -0.025010 1407 0.788215 -0.267476 0.554939
-2.462480 1.320800 -0.022880 1383 0.774113 -0.259995 0.585586
-2.463400 1.321290 -0.020740 1361 0.760878 -0.252943 0.616378
-2.465210 1.322260 -0.018610 1355 0.734834 -0.238986 0.647025
-2.467290 1.323380 -0.016470 1335 0.704906 -0.222872 0.677816
-2.469620 1.324630 -0.014340 1323 0.671380 -0.204886 0.708464
-2.471950 1.325880 -0.012200 1301 0.637854 -0.186900 0.739255
-2.473890 1.326920 -0.010050 1265 0.609940 -0.171936 0.770191
-2.476220 1.328170 -0.007900 1233 0.576417 -0.153952 0.801126
-2.478610 1.329440 -0.005750 1187 0.542027 -0.135677 0.832061
-2.481760 1.331140 -0.003600 1139 0.496703 -0.111216 0.862996
-2.485830 1.333320 -0.001440 1079 0.438141 -0.079850 0.894075
-2.490150 1.335630 0.000730 985 0.375984 -0.046612 0.925298
-2.484940 1.335470 -0.124970 1077 0.450947 -0.048915 -0.883335
-2.480260 1.332950 -0.122570 1131 0.518288 -0.085174 -0.848802
-2.477000 1.331200 -0.120250 1173 0.565193 -0.110353 -0.815421
-2.473860 1.329510 -0.117940 1219 0.610372 -0.134670 -0.782184
-2.471180 1.328070 -0.115650 1261 0.648934 -0.155389 -0.749234
-2.469380 1.327100 -0.113410 1297 0.674834 -0.169346 -0.717004
-2.467470 1.326070 -0.111170 1315 0.702316 -0.184167 -0.684774
-2.465290 1.324900 -0.108920 1333 0.733681 -0.201001 -0.652399
-2.463500 1.323930 -0.106690 1355 0.759437 -0.214958 -0.620313
-2.461440 1.322830 -0.104450 1367 0.789076 -0.230786 -0.588083
-2.459910 1.322000 -0.102240 1381 0.811093 -0.242727 -0.556284
-2.459200 1.321620 -0.100070 1399 0.821309 -0.248195 -0.525061
-2.457850 1.320900 -0.097870 1413 0.840733 -0.258556 -0.493407
-2.457080 1.320480 -0.095690 1417 0.851813 -0.264598 -0.462040
-2.456560 1.320200 -0.093530 1433 0.859295 -0.268627 -0.430961
-2.455470 1.319620 -0.091340 1447 0.874976 -0.276972 -0.399450
-2.454690 1.319190 -0.089170 1459 0.886200 -0.283159 -0.368227
-2.454240 1.318950 -0.087020 1471 0.892673 -0.286612 -0.337292
-2.453070 1.318320 -0.084830 1465 0.909510 -0.295677 -0.305781
-2.452360 1.317940 -0.082670 1479 0.919726 -0.301145 -0.274702
-2.451900 1.317690 -0.080520 1485 0.926344 -0.304742 -0.243766
-2.452020 1.317750 -0.078380 1491 0.924618 -0.303879 -0.212975
-2.451680 1.317570 -0.076230 1507 0.929510 -0.306469 -0.182040
-2.450700 1.317040 -0.074060 1495 0.943609 -0.314095 -0.150817
-2.450690 1.317040 -0.071920 1511 0.943753 -0.314095 -0.120025
-2.450610 1.316990 -0.069790 1515 0.944906 -0.314814 -0.089378
-2.450270 1.316810 -0.067640 1517 0.949798 -0.317404 -0.058443
-2.449800 1.316550 -0.065490 1523 0.956559 -0.321145 -0.027507
-2.449650 1.316470 -0.063350 1499 0.958717 -0.322296 0.003284
-2.449760 1.316530 -0.061220 1513 0.957136 -0.321433 0.033931
-2.449870 1.316590 -0.059080 1517 0.955551 -0.320570 0.064723
-2.450360 1.316850 -0.056960 1497 0.948501 -0.316829 0.095226
-2.450710 1.317040 -0.054830 1503 0.943465 -0.314095 0.125874
-2.450880 1.317130 -0.052690 1489 0.941019 -0.312800 0.156665
-2.451360 1.317390 -0.050570 1505 0.934114 -0.309059 0.187169
-2.451270 1.317340 -0.048430 1487 0.935407 -0.309778 0.217960
-2.451760 1.317600 -0.046300 1487 0.928357 -0.306037 0.248608
-2.453070 1.318300 -0.044190 1479 0.909510 -0.295965 0.278967
-2.453880 1.318740 -0.042060 1473 0.897853 -0.289634 0.309615
-2.453840 1.318710 -0.039920 1467 0.898430 -0.290066 0.340406
-2.454130 1.318870 -0.037790 1465 0.894258 -0.287764 0.371054
-2.455180 1.319430 -0.035660 1443 0.879151 -0.279706 0.401701
-2.456300 1.320030 -0.033540 1449 0.863034 -0.271073 0.432205
-2.457100 1.320460 -0.031410 1425 0.851525 -0.264886 0.462852
-2.458270 1.321090 -0.029280 1419 0.834688 -0.255821 0.493500
-2.458750 1.321350 -0.027140 1407 0.827782 -0.252080 0.524291
-2.460250 1.322150 -0.025010 1399 0.806201 -0.240569 0.554939
-2.461610 1.322880 -0.022880 1393 0.786630 -0.230065 0.585586
-2.462400 1.323310 -0.020740 1365 0.775265 -0.223878 0.616378
-2.464470 1.324420 -0.018610 1351 0.745482 -0.207908 0.647025
-2.465650 1.325050 -0.016470 1327 0.728501 -0.198843 0.677816
-2.467780 1.326200 -0.014330 1313 0.697853 -0.182296 0.708608
-2.470750 1.327790 -0.012200 1289 0.655119 -0.159418 0.739255
-2.472430 1.328700 -0.010050 1253 0.630948 -0.146326 0.770191
-2.474830 1.329980 -0.007900 1221 0.596417 -0.127907 0.801126
-2.478250 1.331820 -0.005750 1177 0.547207 -0.101433 0.832061
-2.481080 1.333340 -0.003600 1129 0.506487 -0.079561 0.862996
-2.484630 1.335250 -0.001440 1065 0.455407 -0.052080 0.894075
-2.490300 1.338290 0.000730 975 0.373827 -0.008340 0.925298
-2.484120 1.337610 -0.124990 1059 0.462748 -0.018123 -0.883622
-2.479440 1.335090 -0.122590 1115 0.530085 -0.054382 -0.849090
-2.475540 1.332990 -0.120230 1159 0.586201 -0.084597 -0.815133
-2.473370 1.331820 -0.117970 1219 0.617422 -0.101433 -0.782615
-2.470810 1.330440 -0.115690 1251 0.654258 -0.121288 -0.749810
-2.468190 1.329030 -0.113410 1281 0.691956 -0.141576 -0.717004
-2.466200 1.327960 -0.111160 1301 0.720587 -0.156972 -0.684630
-2.464800 1.327200 -0.108950 1333 0.740734 -0.167907 -0.652831
-2.463130 1.326300 -0.106720 1349 0.764761 -0.180857 -0.620745
-2.461470 1.325400 -0.104500 1359 0.788647 -0.193807 -0.588802
-2.459740 1.324470 -0.102280 1383 0.813539 -0.207187 -0.556860
-2.457680 1.323360 -0.100050 1387 0.843178 -0.223160 -0.524774
-2.456340 1.322640 -0.097850 1405 0.862458 -0.233520 -0.493119
-2.455310 1.322080 -0.095660 1405 0.877277 -0.241576 -0.461608
-2.455240 1.322050 -0.093520 1437 0.878286 -0.242009 -0.430817
-2.455110 1.321980 -0.091370 1443 0.880156 -0.243015 -0.399881
-2.454140 1.321450 -0.089190 1461 0.894114 -0.250641 -0.368515
-2.452920 1.320790 -0.087010 1453 0.911668 -0.260137 -0.337148
-2.451750 1.320160 -0.084820 1457 0.928501 -0.269202 -0.305637
-2.451480 1.320020 -0.082680 1473 0.932388 -0.271217 -0.274845
-2.451870 1.320220 -0.080550 1473 0.926776 -0.268339 -0.244198
-2.451080 1.319800 -0.078380 1485 0.938141 -0.274382 -0.212975
-2.450360 1.319410 -0.076220 1495 0.948501 -0.279994 -0.181896
-2.450030 1.319230 -0.074070 1513 0.953249 -0.282584 -0.150961
-2.449560 1.318980 -0.071920 1505 0.960014 -0.286181 -0.120025
-2.449290 1.318830 -0.069780 1493 0.963897 -0.288339 -0.089234
-2.448820 1.318580 -0.067630 1497 0.970659 -0.291936 -0.058299
-2.448870 1.318600 -0.065490 1509 0.969942 -0.291648 -0.027507
-2.448840 1.318590 -0.063360 1493 0.970374 -0.291792 0.003140
-2.449330 1.318850 -0.061230 1497 0.963321 -0.288051 0.033788
-2.450090 1.319260 -0.059110 1519 0.952388 -0.282152 0.064291
-2.449930 1.319170 -0.056970 1501 0.954690 -0.283447 0.095083
-2.449450 1.318910 -0.054820 1489 0.961595 -0.287188 0.126018
-2.449880 1.319140 -0.052700 1487 0.955410 -0.283879 0.156521
-2.450750 1.319610 -0.050580 1495 0.942889 -0.277116 0.187025
-2.451050 1.319770 -0.048450 1483 0.938573 -0.274814 0.217673
-2.451270 1.319890 -0.046310 1489 0.935407 -0.273087 0.248464
-2.452520 1.320560 -0.044200 1483 0.917424 -0.263447 0.278824
-2.453390 1.321030 -0.042070 1477 0.904907 -0.256684 0.309471
-2.453680 1.321180 -0.039940 1471 0.900732 -0.254526 0.340119
-2.454480 1.321610 -0.037810 1453 0.889222 -0.248340 0.370766
-2.455270 1.322040 -0.035680 1451 0.877854 -0.242153 0.401414
-2.455230 1.322020 -0.033540 1441 0.878430 -0.242439 0.432205
-2.455960 1.322410 -0.031410 1427 0.867926 -0.236829 0.462852
-2.457200 1.323080 -0.029280 1419 0.850084 -0.227189 0.493500
-2.458510 1.323780 -0.027150 1407 0.831237 -0.217117 0.524147
-2.460010 1.324590 -0.025020 1391 0.809652 -0.205462 0.554795
-2.461060 1.325150 -0.022890 1385 0.794545 -0.197404 0.585442
-2.462490 1.325920 -0.020750 1357 0.773968 -0.186325 0.616234
-2.464370 1.326940 -0.018620 1345 0.746919 -0.171649 0.646881
-2.465730 1.327670 -0.016480 1329 0.727352 -0.161145 0.677673
-2.467290 1.328510 -0.014340 1307 0.704906 -0.149058 0.708464
-2.470060 1.330000 -0.012200 1283 0.665047 -0.127619 0.739255
-2.472460 1.331290 -0.010050 1267 0.630516 -0.109058 0.770191
-2.474720 1.332500 -0.007910 1219 0.597998 -0.091649 0.800982
-2.476910 1.333680 -0.005750 1179 0.566486 -0.074670 0.832061
-2.480000 1.335350 -0.003600 1119 0.522027 -0.050641 0.862996
-2.484320 1.337670 -0.001440 1053 0.459870 -0.017260 0.894075
-2.490500 1.341000 0.000730 949 0.370948 0.030653 0.925298
-2.484330 1.340150 -0.125050 1027 0.459726 0.018423 -0.884486
-2.479340 1.337450 -0.122630 1105 0.531523 -0.020425 -0.849666
-2.474850 1.335030 -0.120250 1155 0.596129 -0.055246 -0.815421
-2.472480 1.333750 -0.117970 1201 0.630228 -0.073663 -0.782615
-2.470770 1.332830 -0.115730 1243 0.654835 -0.086901 -0.750385
-2.468720 1.331720 -0.113480 1275 0.684330 -0.102872 -0.718011
-2.466740 1.330650 -0.111230 1305 0.712820 -0.118268 -0.685637
-2.464820 1.329620 -0.108990 1327 0.740446 -0.133087 -0.653407
-2.462450 1.328340 -0.106740 1347 0.774545 -0.151504 -0.621032
-2.460590 1.327330 -0.104510 1365 0.801309 -0.166037 -0.588946
-2.459240 1.326610 -0.102300 1383 0.820733 -0.176397 -0.557148
-2.457390 1.325600 -0.100080 1387 0.847350 -0.190929 -0.525205
-2.456750 1.325260 -0.097900 1399 0.856561 -0.195821 -0.493838
-2.455720 1.324700 -0.095720 1419 0.871380 -0.203879 -0.462471
-2.454300 1.323940 -0.093520 1437 0.891812 -0.214813 -0.430817
-2.454050 1.323800 -0.091370 1447 0.895408 -0.216829 -0.399881
-2.453590 1.323550 -0.089210 1441 0.902028 -0.220426 -0.368802
-2.452560 1.322990 -0.087030 1455 0.916848 -0.228484 -0.337435
-2.451980 1.322680 -0.084870 1471 0.925191 -0.232944 -0.306356
-2.451260 1.322290 -0.082700 1461 0.935551 -0.238556 -0.275133
-2.451180 1.322250 -0.080560 1473 0.936704 -0.239130 -0.244342
-2.450730 1.322000 -0.078400 1491 0.943177 -0.242727 -0.213263
-2.449420 1.321300 -0.076220 1487 0.962028 -0.252799 -0.181896
-2.449220 1.321190 -0.074080 1487 0.964906 -0.254382 -0.151104
-2.448950 1.321040 -0.071930 1489 0.968789 -0.256540 -0.120169
-2.448810 1.320960 -0.069790 1497 0.970803 -0.257691 -0.089378
-2.449170 1.321160 -0.067670 1501 0.965623 -0.254815 -0.058874
-2.449020 1.321080 -0.065520 1497 0.967784 -0.255966 -0.027939
-2.449130 1.321130 -0.063390 1507 0.966199 -0.255245 0.002708
-2.448850 1.320980 -0.061240 1505 0.970230 -0.257405 0.033644
-2.448570 1.320830 -0.059100 1489 0.974257 -0.259562 0.064435
-2.448420 1.320750 -0.056960 1495 0.976415 -0.260713 0.095226
-2.449110 1.321120 -0.054840 1501 0.966487 -0.255389 0.125730
-2.450230 1.321730 -0.052720 1513 0.950374 -0.246612 0.156234
-2.450010 1.321610 -0.050580 1493 0.953537 -0.248340 0.187025
-2.450360 1.321790 -0.048450 1483 0.948501 -0.245750 0.217673
-2.450720 1.321990 -0.046320 1489 0.943321 -0.242871 0.248320
-2.451010 1.322140 -0.044190 1473 0.939150 -0.240714 0.278967
-2.452010 1.322680 -0.042060 1471 0.924762 -0.232944 0.309615
-2.452680 1.323040 -0.039940 1461 0.915119 -0.227764 0.340119
-2.453340 1.323400 -0.037810 1467 0.905624 -0.222583 0.370766
-2.453950 1.323720 -0.035670 1449 0.896848 -0.217980 0.401557
-2.454620 1.324080 -0.033540 1435 0.887209 -0.212800 0.432205
-2.455790 1.324720 -0.031420 1419 0.870372 -0.203591 0.462709
-2.456840 1.325280 -0.029290 1423 0.855264 -0.195534 0.493356
-2.458080 1.325950 -0.027160 1417 0.837422 -0.185893 0.524003
-2.459200 1.326550 -0.025020 1401 0.821309 -0.177260 0.554795
-2.460120 1.327050 -0.022890 1371 0.808071 -0.170066 0.585442
-2.461680 1.327890 -0.020750 1363 0.785625 -0.157979 0.616234
-2.463370 1.328800 -0.018620 1349 0.761307 -0.144886 0.646881
-2.464980 1.329670 -0.016480 1319 0.738144 -0.132369 0.677673
-2.466670 1.330580 -0.014340 1295 0.713825 -0.119274 0.708464
-2.468930 1.331800 -0.012200 1285 0.681308 -0.101721 0.739255
-2.471120 1.332980 -0.010050 1249 0.649795 -0.084742 0.770191
-2.473640 1.334340 -0.007910 1213 0.613539 -0.065174 0.800982
-2.476090 1.335660 -0.005750 1157 0.578287 -0.046181 0.832061
-2.479700 1.337610 -0.003600 1103 0.526342 -0.018123 0.862996
-2.483950 1.339900 -0.001440 1021 0.465194 0.014827 0.894075
-2.484260 1.342570 -0.125100 999 0.460731 0.053243 -0.885205
-2.479790 1.340150 -0.122700 1085 0.525049 0.018423 -0.850673
-2.475880 1.338040 -0.120350 1143 0.581309 -0.011936 -0.816860
-2.472370 1.336140 -0.118010 1191 0.631813 -0.039274 -0.783191
-2.469750 1.334720 -0.115730 1237 0.669510 -0.059706 -0.750385
-2.468020 1.333790 -0.113490 1259 0.694402 -0.073088 -0.718155
-2.466360 1.332890 -0.111260 1297 0.718285 -0.086037 -0.686068
-2.464510 1.331890 -0.109020 1323 0.744905 -0.100426 -0.653838
-2.462200 1.330640 -0.106770 1333 0.778143 -0.118412 -0.621464
-2.460600 1.329770 -0.104550 1355 0.801165 -0.130930 -0.589522
-2.459330 1.329080 -0.102350 1373 0.819436 -0.140857 -0.557867
-2.457650 1.328180 -0.100130 1383 0.843611 -0.153807 -0.525925
-2.456690 1.327660 -0.097940 1397 0.857422 -0.161289 -0.494414
-2.455670 1.327100 -0.095760 1419 0.872097 -0.169346 -0.463047
-2.454320 1.326370 -0.093560 1423 0.891524 -0.179850 -0.431392
-2.453350 1.325850 -0.091380 1429 0.905479 -0.187332 -0.400025
-2.452960 1.325640 -0.089220 1447 0.911092 -0.190354 -0.368946
-2.452320 1.325290 -0.087060 1463 0.920299 -0.195390 -0.337867
-2.451350 1.324770 -0.084880 1463 0.934258 -0.202872 -0.306500
-2.450890 1.324520 -0.082720 1461 0.940875 -0.206469 -0.275421
-2.450690 1.324410 -0.080580 1475 0.943753 -0.208052 -0.244630
-2.450550 1.324330 -0.078430 1481 0.945767 -0.209203 -0.213694
-2.450470 1.324290 -0.076290 1497 0.946920 -0.209777 -0.182903
-2.449940 1.324000 -0.074130 1493 0.954546 -0.213951 -0.151824
-2.448900 1.323440 -0.071960 1495 0.969509 -0.222009 -0.120601
-2.448310 1.323110 -0.069810 1497 0.978000 -0.226757 -0.089666
-2.448680 1.323310 -0.067680 1503 0.972676 -0.223878 -0.059018
-2.448720 1.323340 -0.065540 1493 0.972099 -0.223446 -0.028227
-2.448440 1.323190 -0.063400 1485 0.976127 -0.225606 0.002565
-2.448420 1.323170 -0.061260 1489 0.976415 -0.225894 0.033356
-2.448780 1.323370 -0.059130 1495 0.971235 -0.223016 0.064003
-2.448370 1.323140 -0.056980 1491 0.977135 -0.226324 0.094939
-2.448470 1.323200 -0.054850 1489 0.975695 -0.225462 0.125586
-2.449610 1.323810 -0.052730 1487 0.959293 -0.216685 0.156090
-2.450090 1.324070 -0.050600 1493 0.952388 -0.212944 0.186737
-2.449990 1.324020 -0.048460 1477 0.953825 -0.213663 0.217529
-2.450350 1.324210 -0.046330 1471 0.948645 -0.210928 0.248176
-2.450640 1.324360 -0.044200 1477 0.944474 -0.208771 0.278824
-2.451190 1.324660 -0.042070 1469 0.936560 -0.204455 0.309471
-2.451980 1.325090 -0.039940 1457 0.925191 -0.198266 0.340119
-2.453230 1.325760 -0.037820 1455 0.907208 -0.188627 0.370622
-2.453640 1.325980 -0.035680 1447 0.901308 -0.185462 0.401414
-2.453990 1.326170 -0.033550 1425 0.896272 -0.182728 0.432061
-2.455230 1.326840 -0.031420 1419 0.878430 -0.173087 0.462709
-2.456600 1.327580 -0.029300 1417 0.858719 -0.162440 0.493212
-2.458040 1.328360 -0.027170 1405 0.837998 -0.151217 0.523860
-2.459020 1.328890 -0.025030 1393 0.823899 -0.143591 0.554651
-2.460130 1.329490 -0.022900 1371 0.807927 -0.134959 0.585298
-2.461690 1.330330 -0.020760 1355 0.785481 -0.122871 0.616090
-2.463700 1.331410 -0.018630 1341 0.756559 -0.107331 0.646737
-2.465260 1.332250 -0.016490 1319 0.734113 -0.095246 0.677529
-2.466810 1.333090 -0.014350 1301 0.711812 -0.083160 0.708320
-2.468810 1.334170 -0.012200 1271 0.683033 -0.067620 0.739255
-2.471010 1.335360 -0.010060 1237 0.651380 -0.050497 0.770047
-2.474100 1.337030 -0.007910 1197 0.606918 -0.026468 0.800982
-2.477390 1.338810 -0.005760 1149 0.559580 -0.000858 0.831917
-2.480930 1.340720 -0.003600 1079 0.508645 0.026626 0.862996
-2.485170 1.343010 -0.001440 993 0.447640 0.059574 0.894075
-2.484690 1.345170 -0.125170 961 0.454546 0.090654 -0.886212
-2.480080 1.342670 -0.122770 1047 0.520878 0.054682 -0.851680
-2.476560 1.340770 -0.120430 1123 0.571522 0.027344 -0.818011
-2.472730 1.338690 -0.118080 1169 0.626633 -0.002583 -0.784198
-2.469980 1.337200 -0.115790 1213 0.666200 -0.024022 -0.751248
-2.467430 1.335820 -0.113510 1245 0.702889 -0.043879 -0.718443
-2.465450 1.334740 -0.111260 1283 0.731379 -0.059418 -0.686068
-2.463910 1.333910 -0.109040 1307 0.753537 -0.071361 -0.654126
-2.461930 1.332840 -0.106800 1327 0.782027 -0.086757 -0.621896
-2.460590 1.332110 -0.104590 1353 0.801309 -0.097259 -0.590097
-2.458730 1.331100 -0.102360 1367 0.828071 -0.111793 -0.558011
-2.456940 1.330130 -0.100140 1381 0.853827 -0.125750 -0.526068
-2.456230 1.329750 -0.097960 1389 0.864043 -0.131218 -0.494702
-2.455330 1.329260 -0.095780 1403 0.876993 -0.138267 -0.463335
-2.454170 1.328630 -0.093590 1409 0.893682 -0.147332 -0.431824
-2.453090 1.328040 -0.091410 1429 0.909222 -0.155821 -0.400457
-2.452050 1.327480 -0.089220 1433 0.924186 -0.163879 -0.368946
-2.451720 1.327300 -0.087070 1451 0.928934 -0.166469 -0.338011
-2.451270 1.327060 -0.084910 1461 0.935407 -0.169922 -0.306932
-2.450750 1.326770 -0.082750 1471 0.942889 -0.174095 -0.275853
-2.450610 1.326700 -0.080610 1465 0.944906 -0.175102 -0.245061
-2.449700 1.326210 -0.078440 1471 0.957997 -0.182152 -0.213838
-2.449180 1.325920 -0.076280 1483 0.965482 -0.186325 -0.182759
-2.448520 1.325560 -0.074120 1477 0.974978 -0.191505 -0.151680
-2.448760 1.325690 -0.071990 1481 0.971523 -0.189634 -0.121032
-2.448880 1.325750 -0.069850 1485 0.969798 -0.188771 -0.090241
-2.447700 1.325120 -0.067680 1479 0.986775 -0.197836 -0.059018
-2.447230 1.324860 -0.065530 1483 0.993537 -0.201577 -0.028083
-2.447660 1.325090 -0.063400 1479 0.987351 -0.198266 0.002565
-2.448150 1.325360 -0.061280 1487 0.980302 -0.194383 0.033068
-2.448580 1.325590 -0.059150 1499 0.974113 -0.191073 0.063716
-2.448290 1.325430 -0.057000 1485 0.978285 -0.193375 0.094651
-2.448790 1.325700 -0.054880 1483 0.971091 -0.189490 0.125155
-2.449330 1.326000 -0.052750 1485 0.963321 -0.185174 0.155802
-2.448530 1.325560 -0.050590 1483 0.974834 -0.191505 0.186881
-2.448370 1.325470 -0.048450 1463 0.977135 -0.192800 0.217673
-2.449180 1.325910 -0.046330 1471 0.965482 -0.186469 0.248176
-2.449850 1.326270 -0.044200 1461 0.955839 -0.181289 0.278824
-2.450780 1.326770 -0.042080 1463 0.942460 -0.174095 0.309327
-2.451640 1.327240 -0.039950 1459 0.930086 -0.167332 0.339975
-2.452440 1.327670 -0.037820 1457 0.918574 -0.161145 0.370622
-2.453630 1.328320 -0.035700 1437 0.901452 -0.151792 0.401126
-2.454360 1.328710 -0.033570 1433 0.890948 -0.146181 0.431773
-2.454830 1.328960 -0.031430 1417 0.884186 -0.142585 0.462565
-2.455950 1.329570 -0.029300 1405 0.868070 -0.133806 0.493212
-2.457580 1.330450 -0.027170 1395 0.844616 -0.121144 0.523860
-2.459190 1.331320 -0.025040 1387 0.821453 -0.108626 0.554507
-2.459920 1.331720 -0.022900 1365 0.810949 -0.102872 0.585298
-2.461030 1.332320 -0.020760 1347 0.794977 -0.094239 0.616090
-2.462970 1.333360 -0.018630 1335 0.767063 -0.079275 0.646737
-2.464530 1.334210 -0.016490 1309 0.744617 -0.067044 0.677529
-2.466600 1.335330 -0.014350 1285 0.714834 -0.050929 0.708320
-2.469050 1.336660 -0.012210 1253 0.679582 -0.031792 0.739111
-2.470860 1.337640 -0.010060 1217 0.653538 -0.017691 0.770047
-2.473570 1.339100 -0.007910 1171 0.614544 0.003316 0.800982
-2.476970 1.340940 -0.005760 1129 0.565625 0.029790 0.831917
-2.480720 1.342970 -0.003600 1051 0.511667 0.058999 0.862996
-2.485920 1.345790 -0.001440 963 0.436848 0.099575 0.894075
-2.481340 1.346180 -0.122890 1023 0.502748 0.105185 -0.853407
-2.476930 1.343780 -0.120500 1105 0.566201 0.070654 -0.819018
-2.473090 1.341700 -0.118150 1159 0.621453 0.040725 -0.785205
-2.470150 1.340100 -0.115850 1207 0.663754 0.017705 -0.752112
-2.468050 1.338960 -0.113590 1241 0.693970 0.001302 -0.719594
-2.466000 1.337850 -0.111340 1265 0.723465 -0.014670 -0.687220
-2.463710 1.336600 -0.109080 1297 0.756415 -0.032656 -0.654702
-2.461140 1.335210 -0.106820 1313 0.793395 -0.052656 -0.622184
-2.459480 1.334300 -0.104590 1333 0.817278 -0.065749 -0.590097
-2.458400 1.333720 -0.102400 1357 0.832818 -0.074095 -0.558586
-2.456920 1.332910 -0.100190 1379 0.854115 -0.085750 -0.526788
-2.455640 1.332220 -0.097990 1385 0.872530 -0.095678 -0.495133
-2.454940 1.331840 -0.095810 1395 0.882602 -0.101144 -0.463766
-2.453910 1.331280 -0.093630 1413 0.897421 -0.109203 -0.432399
-2.452940 1.330760 -0.091440 1425 0.911380 -0.116684 -0.400889
-2.452360 1.330440 -0.089280 1427 0.919726 -0.121288 -0.369810
-2.451010 1.329700 -0.087090 1435 0.939150 -0.131936 -0.338299
-2.450300 1.329320 -0.084920 1447 0.949366 -0.137405 -0.307076
-2.450350 1.329350 -0.082780 1451 0.948645 -0.136972 -0.276284
-2.450220 1.329270 -0.080630 1469 0.950515 -0.138123 -0.245349
-2.449880 1.329090 -0.078480 1477 0.955410 -0.140713 -0.214414
-2.448910 1.328560 -0.076310 1471 0.969365 -0.148339 -0.183191
-2.448120 1.328130 -0.074140 1479 0.980731 -0.154526 -0.151968
-2.448300 1.328230 -0.072010 1473 0.978144 -0.153087 -0.121320
-2.448280 1.328220 -0.069870 1477 0.978429 -0.153231 -0.090529
-2.447940 1.328030 -0.067720 1481 0.983321 -0.155965 -0.059594
-2.447670 1.327880 -0.065570 1485 0.987207 -0.158123 -0.028658
-2.447330 1.327700 -0.063420 1493 0.992099 -0.160713 0.002277
-2.447240 1.327650 -0.061280 1499 0.993392 -0.161433 0.033068
-2.447610 1.327850 -0.059150 1485 0.988072 -0.158555 0.063716
-2.447710 1.327900 -0.057020 1475 0.986631 -0.157835 0.094363
-2.447550 1.327820 -0.054870 1477 0.988933 -0.158987 0.125298
-2.447970 1.328040 -0.052740 1475 0.982892 -0.155821 0.155946
-2.448920 1.328550 -0.050620 1475 0.969221 -0.148483 0.186449
-2.449200 1.328710 -0.048490 1467 0.965194 -0.146181 0.217097
-2.449240 1.328730 -0.046350 1465 0.964618 -0.145893 0.247888
-2.449780 1.329020 -0.044220 1455 0.956848 -0.141720 0.278536
-2.450640 1.329490 -0.042100 1455 0.944474 -0.134959 0.309039
-2.451130 1.329750 -0.039960 1441 0.937424 -0.131218 0.339831
-2.451470 1.329930 -0.037830 1427 0.932532 -0.128628 0.370478
-2.452580 1.330540 -0.035700 1433 0.916560 -0.119851 0.401126
-2.453710 1.331150 -0.033570 1429 0.900299 -0.111072 0.431773
-2.454370 1.331510 -0.031440 1411 0.890804 -0.105894 0.462421
-2.454840 1.331760 -0.029300 1391 0.884042 -0.102295 0.493212
-2.455950 1.332360 -0.027170 1389 0.868070 -0.093662 0.523860
-2.457710 1.333310 -0.025040 1381 0.842746 -0.079994 0.554507
-2.459200 1.334120 -0.022910 1353 0.821309 -0.068339 0.585155
-2.460750 1.334970 -0.020770 1347 0.799004 -0.056109 0.615946
-2.462640 1.335990 -0.018640 1319 0.771811 -0.041433 0.646593
-2.464890 1.337210 -0.016500 1299 0.739437 -0.023878 0.677385
-2.467030 1.338370 -0.014360 1281 0.708645 -0.007189 0.708176
-2.469350 1.339630 -0.012220 1243 0.675263 0.010942 0.738968
-2.471220 1.340640 -0.010070 1207 0.648358 0.025473 0.769903
-2.473540 1.341900 -0.007910 1167 0.614976 0.043603 0.800982
-2.477340 1.343960 -0.005760 1107 0.560301 0.073244 0.831917
-2.481460 1.346190 -0.003600 1023 0.501019 0.105330 0.862996
-2.482860 1.349490 -0.123020 993 0.480875 0.152813 -0.855277
-2.477940 1.346820 -0.120600 1077 0.551666 0.114395 -0.820457
-2.473530 1.344420 -0.118220 1135 0.615120 0.079862 -0.786212
-2.470200 1.342610 -0.115900 1181 0.663033 0.053819 -0.752831
-2.467970 1.341390 -0.113640 1223 0.695122 0.036265 -0.720313
-2.465220 1.339900 -0.111350 1247 0.734689 0.014827 -0.687363
-2.462670 1.338510 -0.109080 1279 0.771378 -0.005173 -0.654702
-2.460750 1.337470 -0.106840 1305 0.799004 -0.020137 -0.622471
-2.459540 1.336810 -0.104640 1323 0.816417 -0.029634 -0.590817
-2.458700 1.336350 -0.102450 1347 0.828503 -0.036253 -0.559306
-2.457680 1.335800 -0.100260 1371 0.843178 -0.044166 -0.527795
-2.456020 1.334890 -0.098040 1379 0.867061 -0.057260 -0.495853
-2.454600 1.334120 -0.095840 1397 0.887493 -0.068339 -0.464198
-2.453580 1.333560 -0.093650 1405 0.902173 -0.076397 -0.432687
-2.451840 1.332620 -0.091440 1409 0.927208 -0.089922 -0.400889
-2.451070 1.332200 -0.089270 1417 0.938285 -0.095964 -0.369666
-2.450620 1.331950 -0.087110 1425 0.944762 -0.099563 -0.338586
-2.450040 1.331630 -0.084940 1429 0.953105 -0.104167 -0.307363
-2.449450 1.331320 -0.082780 1443 0.961595 -0.108626 -0.276284
-2.448740 1.330930 -0.080620 1457 0.971811 -0.114239 -0.245205
-2.448270 1.330670 -0.078460 1455 0.978573 -0.117979 -0.214126
-2.448010 1.330530 -0.076310 1457 0.982315 -0.119993 -0.183191
-2.447930 1.330480 -0.074170 1461 0.983465 -0.120714 -0.152399
-2.447660 1.330340 -0.072020 1469 0.987351 -0.122727 -0.121464
-2.447380 1.330190 -0.069870 1465 0.991379 -0.124887 -0.090529
-2.447880 1.330450 -0.067740 1481 0.984185 -0.121144 -0.059881
-2.447800 1.330410 -0.065600 1475 0.985338 -0.121720 -0.029090
-2.447840 1.330430 -0.063460 1483 0.984761 -0.121432 0.001701
-2.447820 1.330420 -0.061320 1479 0.985050 -0.121576 0.032493
-2.447280 1.330120 -0.059170 1479 0.992820 -0.125894 0.063428
-2.447190 1.330080 -0.057030 1469 0.994113 -0.126468 0.094219
-2.447680 1.330340 -0.054900 1471 0.987063 -0.122727 0.124867
-2.448040 1.330540 -0.052770 1453 0.981883 -0.119851 0.155514
-2.448080 1.330560 -0.050630 1465 0.981307 -0.119563 0.186306
-2.448040 1.330540 -0.048490 1457 0.981883 -0.119851 0.217097
-2.448590 1.330830 -0.046360 1445 0.973969 -0.115678 0.247744
-2.449460 1.331300 -0.044230 1457 0.961451 -0.108914 0.278392
-2.450320 1.331770 -0.042110 1445 0.949077 -0.102153 0.308896
-2.450860 1.332060 -0.039970 1441 0.941307 -0.097980 0.339687
-2.451530 1.332430 -0.037840 1441 0.931668 -0.092656 0.370334
-2.452520 1.332960 -0.035710 1427 0.917424 -0.085030 0.400982
-2.453180 1.333330 -0.033580 1419 0.907925 -0.079706 0.431629
-2.454040 1.333790 -0.031450 1403 0.895552 -0.073088 0.462277
-2.455410 1.334540 -0.029320 1391 0.875840 -0.062296 0.492924
-2.456520 1.335140 -0.027190 1371 0.859868 -0.053663 0.523572
-2.457890 1.335880 -0.025050 1369 0.840156 -0.043015 0.554363
-2.459130 1.336560 -0.022920 1339 0.822314 -0.033231 0.585011
-2.460560 1.337330 -0.020780 1335 0.801738 -0.022152 0.615802
-2.462370 1.338310 -0.018640 1321 0.775697 -0.008051 0.646593
-2.464180 1.339300 -0.016500 1291 0.749653 0.006194 0.677385
-2.466110 1.340350 -0.014360 1259 0.721883 0.021302 0.708176
-2.468700 1.341750 -0.012220 1223 0.684618 0.041445 0.738968
-2.471210 1.343120 -0.010070 1187 0.648502 0.061157 0.769903
-2.473720 1.344480 -0.007920 1141 0.612386 0.080726 0.800838
-2.477970 1.346790 -0.005770 1081 0.551237 0.113962 0.831773
-2.482530 1.349270 -0.003610 997 0.485623 0.149646 0.862852
-2.477870 1.349240 -0.120650 1043 0.552675 0.149214 -0.821176
-2.473390 1.346800 -0.118270 1105 0.617134 0.114106 -0.786932
-2.469560 1.344710 -0.115920 1163 0.672244 0.084035 -0.753119
-2.467200 1.343420 -0.113650 1203 0.706199 0.065474 -0.720457
-2.465100 1.342280 -0.111390 1237 0.736415 0.049071 -0.687939
-2.462980 1.341130 -0.109140 1265 0.766919 0.032524 -0.655565
-2.461070 1.340080 -0.106900 1285 0.794400 0.017417 -0.623335
-2.459020 1.338970 -0.104660 1307 0.823899 0.001444 -0.591104
-2.458000 1.338410 -0.102470 1339 0.838575 -0.006612 -0.559594
-2.456790 1.337750 -0.100260 1357 0.855984 -0.016110 -0.527795
-2.455060 1.336810 -0.098050 1361 0.880876 -0.029634 -0.495997
-2.454040 1.336250 -0.095860 1377 0.895552 -0.037692 -0.464486
-2.452880 1.335620 -0.093660 1397 0.912244 -0.046756 -0.432831
-2.451340 1.334780 -0.091460 1407 0.934402 -0.058843 -0.401176
-2.450370 1.334250 -0.089280 1413 0.948357 -0.066469 -0.369810
-2.450110 1.334110 -0.087130 1413 0.952100 -0.068483 -0.338874
-2.449970 1.334030 -0.084980 1425 0.954113 -0.069634 -0.307939
-2.449200 1.333610 -0.082810 1435 0.965194 -0.075676 -0.276716
-2.449250 1.333640 -0.080670 1461 0.964473 -0.075246 -0.245925
-2.448800 1.333390 -0.078510 1457 0.970947 -0.078843 -0.214845
-2.447690 1.332790 -0.076330 1451 0.986919 -0.087476 -0.183479
-2.447230 1.332540 -0.074180 1459 0.993537 -0.091072 -0.152543
-2.447670 1.332770 -0.072050 1467 0.987207 -0.087764 -0.121896
-2.447260 1.332550 -0.069900 1461 0.993108 -0.090928 -0.090961
-2.446990 1.332400 -0.067750 1467 0.996991 -0.093088 -0.060025
-2.446970 1.332390 -0.065610 1465 0.997279 -0.093232 -0.029234
-2.446310 1.332030 -0.063450 1471 1.006775 -0.098410 0.001845
-2.446410 1.332080 -0.061310 1461 1.005337 -0.097692 0.032637
-2.446330 1.332040 -0.059170 1451 1.006487 -0.098268 0.063428
-2.446620 1.332200 -0.057040 1465 1.002315 -0.095964 0.094075
-2.447430 1.332640 -0.054920 1459 0.990662 -0.089633 0.124579
-2.447860 1.332870 -0.052790 1457 0.984473 -0.086325 0.155226
-2.447310 1.332570 -0.050630 1449 0.992387 -0.090642 0.186306
-2.447660 1.332760 -0.048500 1439 0.987351 -0.087908 0.216953
-2.449300 1.333650 -0.046390 1455 0.963753 -0.075102 0.247313
-2.449460 1.333740 -0.044250 1441 0.961451 -0.073807 0.278104
-2.449490 1.333750 -0.042110 1433 0.961019 -0.073663 0.308896
-2.450030 1.334050 -0.039980 1437 0.953249 -0.069346 0.339543
-2.451220 1.334690 -0.037850 1423 0.936127 -0.060138 0.370191
-2.452720 1.335510 -0.035730 1423 0.914546 -0.048339 0.400694
-2.452930 1.335620 -0.033590 1413 0.911524 -0.046756 0.431485
-2.453730 1.336060 -0.031460 1399 0.900011 -0.040425 0.462133
-2.454970 1.336730 -0.029330 1391 0.882173 -0.030785 0.492780
-2.456530 1.337580 -0.027200 1367 0.859724 -0.018555 0.523428
-2.457900 1.338320 -0.025060 1355 0.840012 -0.007907 0.554219
-2.459260 1.339060 -0.022930 1335 0.820445 0.002739 0.584867
-2.461650 1.340370 -0.020800 1321 0.786057 0.021590 0.615514
-2.463330 1.341280 -0.018660 1303 0.761883 0.034682 0.646306
-2.465020 1.342200 -0.016510 1283 0.737568 0.047920 0.677241
-2.467080 1.343320 -0.014370 1245 0.707925 0.064035 0.708032
-2.469150 1.344440 -0.012220 1211 0.678141 0.080150 0.738968
-2.471340 1.345640 -0.010080 1167 0.646632 0.097415 0.769759
-2.474490 1.347350 -0.007920 1107 0.601309 0.122021 0.800838
-2.479190 1.349910 -0.005770 1041 0.533680 0.158855 0.831773
-2.484840 1.352990 -0.003610 943 0.452388 0.203172 0.862852
-2.479890 1.352870 -0.120800 985 0.523608 0.201445 -0.823335
-2.475280 1.350360 -0.118410 1067 0.589940 0.165330 -0.788946
-2.471260 1.348160 -0.116050 1131 0.647782 0.133676 -0.754989
-2.468070 1.346420 -0.113740 1181 0.693681 0.108640 -0.721752
-2.465380 1.344950 -0.111450 1211 0.732388 0.087488 -0.688802
-2.463340 1.343840 -0.109200 1247 0.761739 0.071517 -0.656428
-2.461750 1.342970 -0.106980 1279 0.784617 0.058999 -0.624486
-2.460600 1.342340 -0.104770 1311 0.801165 0.049934 -0.592687
-2.458810 1.341360 -0.102540 1329 0.826918 0.035833 -0.560601
-2.456760 1.340250 -0.100310 1341 0.856417 0.019862 -0.528515
-2.455480 1.339550 -0.098100 1363 0.874832 0.009791 -0.496716
-2.453880 1.338670 -0.095890 1371 0.897853 -0.002871 -0.464917
-2.452530 1.337930 -0.093690 1379 0.917280 -0.013520 -0.433263
-2.451630 1.337440 -0.091510 1393 0.930227 -0.020569 -0.401896
-2.451370 1.337300 -0.089350 1409 0.933970 -0.022585 -0.370817
-2.450860 1.337020 -0.087190 1423 0.941307 -0.026612 -0.339738
-2.449890 1.336490 -0.085010 1423 0.955266 -0.034238 -0.308371
-2.449110 1.336060 -0.082840 1431 0.966487 -0.040425 -0.277148
-2.448910 1.335950 -0.080690 1435 0.969365 -0.042008 -0.246212
-2.448830 1.335910 -0.078540 1443 0.970518 -0.042584 -0.215277
-2.448310 1.335620 -0.076380 1451 0.978000 -0.046756 -0.184198
-2.447910 1.335410 -0.074230 1447 0.983753 -0.049778 -0.153263
-2.447320 1.335080 -0.072070 1443 0.992243 -0.054526 -0.122184
-2.446670 1.334720 -0.069910 1447 1.001595 -0.059706 -0.091104
-2.446450 1.334610 -0.067760 1451 1.004761 -0.061289 -0.060169
-2.446940 1.334870 -0.065630 1453 0.997711 -0.057548 -0.029522
-2.447120 1.334970 -0.063500 1463 0.995121 -0.056109 0.001126
-2.446770 1.334780 -0.061350 1459 1.000157 -0.058843 0.032061
-2.446690 1.334730 -0.059210 1449 1.001307 -0.059562 0.062852
-2.447180 1.335000 -0.057080 1455 0.994257 -0.055677 0.093500
-2.447600 1.335230 -0.054940 1459 0.988216 -0.052368 0.124291
-2.447380 1.335110 -0.052800 1453 0.991379 -0.054095 0.155083
-2.447410 1.335120 -0.050660 1449 0.990947 -0.053951 0.185874
-2.448160 1.335530 -0.048530 1447 0.980158 -0.048051 0.216521
-2.448580 1.335760 -0.046400 1437 0.974113 -0.044742 0.247169
-2.449370 1.336190 -0.044270 1439 0.962748 -0.038555 0.277816
-2.450560 1.336840 -0.042150 1441 0.945623 -0.029202 0.308320
-2.450910 1.337030 -0.040010 1429 0.940587 -0.026468 0.339111
-2.451770 1.337500 -0.037880 1427 0.928213 -0.019706 0.369759
-2.452240 1.337750 -0.035740 1415 0.921452 -0.016110 0.400550
-2.452850 1.338080 -0.033600 1401 0.912673 -0.011360 0.431342
-2.454280 1.338860 -0.031480 1393 0.892101 -0.000137 0.461845
-2.454810 1.339150 -0.029340 1381 0.884475 0.004034 0.492637
-2.455860 1.339720 -0.027200 1359 0.869367 0.012237 0.523428
-2.458120 1.340960 -0.025080 1349 0.836846 0.030078 0.553932
-2.459420 1.341660 -0.022940 1321 0.818143 0.040150 0.584723
-2.460720 1.342370 -0.020800 1305 0.799436 0.050366 0.615514
-2.462340 1.343250 -0.018660 1283 0.776126 0.063028 0.646306
-2.464860 1.344630 -0.016520 1255 0.739869 0.082884 0.677097
-2.467440 1.346030 -0.014380 1235 0.702748 0.103028 0.707888
-2.469750 1.347300 -0.012230 1185 0.669510 0.121302 0.738824
-2.472970 1.349050 -0.010090 1137 0.623178 0.146482 0.769615
-2.477030 1.351260 -0.007940 1095 0.564760 0.178279 0.800550
-2.481070 1.353470 -0.005780 1013 0.506631 0.210078 0.831629
-2.481900 1.356330 -0.120950 951 0.494689 0.251230 -0.825493
-2.475770 1.352980 -0.118480 1039 0.582891 0.203028 -0.789953
-2.472190 1.351020 -0.116140 1105 0.634403 0.174826 -0.756284
-2.468420 1.348960 -0.113800 1159 0.688645 0.145187 -0.722615
-2.466070 1.347670 -0.111530 1205 0.722460 0.126624 -0.689953
-2.464150 1.346620 -0.109280 1235 0.750085 0.111516 -0.657579
-2.462300 1.345610 -0.107040 1261 0.776703 0.096985 -0.625349
-2.460320 1.344530 -0.104800 1291 0.805193 0.081445 -0.593119
-2.458270 1.343410 -0.102560 1305 0.834688 0.065330 -0.560889
-2.456810 1.342610 -0.100350 1327 0.855696 0.053819 -0.529090
-2.455460 1.341870 -0.098140 1345 0.875120 0.043171 -0.497292
-2.453730 1.340920 -0.095920 1361 0.900011 0.029502 -0.465349
-2.452190 1.340080 -0.093720 1371 0.922172 0.017417 -0.433694
-2.451750 1.339830 -0.091550 1389 0.928501 0.013820 -0.402471
-2.451610 1.339760 -0.089400 1399 0.930515 0.012811 -0.371536
-2.450580 1.339190 -0.087220 1415 0.945338 0.004611 -0.340169
-2.449550 1.338630 -0.085030 1413 0.960158 -0.003448 -0.308658
-2.448960 1.338310 -0.082870 1431 0.968645 -0.008051 -0.277579
-2.448060 1.337810 -0.080690 1427 0.981595 -0.015245 -0.246212
-2.447790 1.337670 -0.078540 1439 0.985482 -0.017260 -0.215277
-2.447780 1.337660 -0.076400 1445 0.985626 -0.017405 -0.184486
-2.447900 1.337720 -0.074260 1457 0.983897 -0.016540 -0.153694
-2.447690 1.337610 -0.072110 1451 0.986919 -0.018123 -0.122759
-2.446900 1.337180 -0.069940 1451 0.998288 -0.024310 -0.091536
-2.446110 1.336750 -0.067780 1439 1.009653 -0.030497 -0.060457
-2.446480 1.336950 -0.065650 1445 1.004329 -0.027621 -0.029810
-2.447230 1.337350 -0.063530 1445 0.993537 -0.021864 0.000694
-2.446380 1.336890 -0.061360 1453 1.005770 -0.028483 0.031917
-2.445970 1.336660 -0.059210 1449 1.011667 -0.031792 0.062852
-2.446710 1.337070 -0.057090 1447 1.001018 -0.025893 0.093356
-2.446750 1.337090 -0.054950 1449 1.000445 -0.025605 0.124147
-2.447110 1.337280 -0.052810 1449 0.995265 -0.022871 0.154939
-2.447270 1.337370 -0.050670 1439 0.992964 -0.021576 0.185730
-2.447630 1.337570 -0.048540 1437 0.987784 -0.018700 0.216378
-2.448750 1.338180 -0.046420 1437 0.971667 -0.009923 0.246881
-2.449160 1.338400 -0.044280 1423 0.965767 -0.006756 0.277673
-2.449900 1.338810 -0.042150 1421 0.955122 -0.000858 0.308320
-2.450700 1.339240 -0.040020 1413 0.943609 0.005329 0.338968
-2.451050 1.339430 -0.037880 1415 0.938573 0.008063 0.369759
-2.451910 1.339900 -0.035750 1401 0.926200 0.014827 0.400406
-2.452630 1.340290 -0.033610 1393 0.915840 0.020437 0.431198
-2.453870 1.340970 -0.031480 1373 0.897998 0.030223 0.461845
-2.455630 1.341930 -0.029360 1369 0.872674 0.044035 0.492349
-2.457060 1.342710 -0.027220 1355 0.852098 0.055258 0.523140
-2.458360 1.343420 -0.025090 1337 0.833395 0.065474 0.553788
-2.459210 1.343890 -0.022940 1313 0.821165 0.072236 0.584723
-2.461030 1.344880 -0.020810 1293 0.794977 0.086481 0.615370
-2.462840 1.345870 -0.018670 1267 0.768933 0.100726 0.646162
-2.465410 1.347270 -0.016530 1243 0.731955 0.120870 0.676953
-2.468180 1.348780 -0.014390 1215 0.692100 0.142597 0.707744
-2.470500 1.350050 -0.012240 1173 0.658718 0.160869 0.738680
-2.473910 1.351910 -0.010090 1121 0.609652 0.187632 0.769615
-2.478150 1.354230 -0.007940 1059 0.548647 0.221014 0.800550
-2.482590 1.356660 -0.005780 969 0.484762 0.255978 0.831629
-2.477520 1.356620 -0.118610 991 0.557711 0.255401 -0.791824
-2.473500 1.354420 -0.116250 1073 0.615552 0.223746 -0.757867
-2.469920 1.352460 -0.113920 1123 0.667064 0.195546 -0.724342
-2.467440 1.351100 -0.111640 1181 0.702748 0.175977 -0.691536
-2.464630 1.349560 -0.109350 1211 0.743180 0.153819 -0.658587
-2.462080 1.348160 -0.107080 1239 0.779869 0.133676 -0.625925
-2.460100 1.347070 -0.104840 1263 0.808359 0.117991 -0.593694
-2.458240 1.346050 -0.102610 1291 0.835120 0.103316 -0.561608
-2.456840 1.345280 -0.100400 1311 0.855264 0.092237 -0.529810
-2.455880 1.344760 -0.098200 1333 0.869079 0.084754 -0.498155
-2.454920 1.344230 -0.096010 1347 0.882890 0.077129 -0.466644
-2.453700 1.343560 -0.093820 1371 0.900443 0.067488 -0.435133
-2.452160 1.342720 -0.091610 1375 0.922604 0.055402 -0.403335
-2.451330 1.342260 -0.089430 1387 0.934546 0.048783 -0.371968
-2.450680 1.341910 -0.087260 1395 0.943897 0.043747 -0.340745
-2.449710 1.341370 -0.085080 1389 0.957856 0.035977 -0.309378
-2.448810 1.340880 -0.082900 1405 0.970803 0.028928 -0.278011
-2.447900 1.340380 -0.080730 1409 0.983897 0.021732 -0.246788
-2.447900 1.340380 -0.078580 1431 0.983897 0.021732 -0.215853
-2.448140 1.340510 -0.076440 1441 0.980446 0.023603 -0.185061
-2.447290 1.340040 -0.074270 1443 0.992675 0.016840 -0.153838
-2.447020 1.339900 -0.072120 1445 0.996559 0.014827 -0.122903
-2.446690 1.339710 -0.069970 1439 1.001307 0.012092 -0.091968
-2.445900 1.339280 -0.067810 1433 1.012675 0.005906 -0.060889
-2.445620 1.339130 -0.065660 1435 1.016703 0.003748 -0.029953
-2.445660 1.339150 -0.063510 1439 1.016126 0.004034 0.000982
-2.445580 1.339110 -0.061370 1439 1.017279 0.003460 0.031773
-2.445940 1.339300 -0.059240 1437 1.012099 0.006194 0.062421
-2.446690 1.339710 -0.057110 1441 1.001307 0.012092 0.093068
-2.446790 1.339760 -0.054970 1447 0.999869 0.012811 0.123860
-2.446890 1.339820 -0.052830 1433 0.998428 0.013676 0.154651
-2.447500 1.340150 -0.050700 1433 0.989653 0.018423 0.185298
-2.447980 1.340410 -0.048570 1431 0.982748 0.022164 0.215946
-2.447950 1.340400 -0.046430 1425 0.983180 0.022020 0.246737
-2.448690 1.340800 -0.044290 1423 0.972532 0.027777 0.277529
-2.449870 1.341450 -0.042170 1417 0.955551 0.037128 0.308032
-2.450600 1.341850 -0.040040 1413 0.945050 0.042884 0.338680
-2.451270 1.342210 -0.037900 1407 0.935407 0.048065 0.369471
-2.452450 1.342860 -0.035770 1393 0.918430 0.057416 0.400119
-2.453370 1.343360 -0.033640 1379 0.905191 0.064610 0.430766
-2.453910 1.343650 -0.031500 1357 0.897421 0.068783 0.461557
-2.455400 1.344470 -0.029370 1349 0.875984 0.080582 0.492205
-2.456770 1.345220 -0.027230 1343 0.856273 0.091373 0.522996
-2.458010 1.345900 -0.025100 1313 0.838431 0.101158 0.553644
-2.459950 1.346960 -0.022960 1305 0.810517 0.116408 0.584435
-2.461310 1.347700 -0.020820 1279 0.790949 0.127057 0.615227
-2.463250 1.348760 -0.018680 1251 0.763036 0.142308 0.646018
-2.465700 1.350100 -0.016540 1219 0.727784 0.161589 0.676809
-2.468730 1.351760 -0.014400 1189 0.684186 0.185474 0.707601
-2.471680 1.353380 -0.012250 1149 0.641741 0.208783 0.738536
