124
-23.477571 -20.415108 -0.175403 1011 0.929798 -0.296751 -0.405806
-23.473036 -20.411119 -0.165828 1047 0.995060 -0.239365 -0.268037
-23.471769 -20.409962 -0.156266 1069 1.013282 -0.222707 -0.130454
-23.473747 -20.411633 -0.146724 1047 0.984823 -0.246748 0.006841
-23.474518 -20.412256 -0.137170 1017 0.973736 -0.255722 0.144309
-23.483137 -20.407446 -0.194547 973 0.849717 -0.186509 -0.681260
-23.476299 -20.401459 -0.184956 1059 0.948103 -0.100362 -0.543260
-23.471813 -20.397518 -0.175372 1117 1.012651 -0.043663 -0.405360
-23.471817 -20.397465 -0.165822 1135 1.012596 -0.042895 -0.267950
-23.472197 -20.397755 -0.156281 1147 1.007135 -0.047066 -0.130670
-23.472301 -20.397787 -0.146729 1147 1.005626 -0.047533 0.006769
-23.474285 -20.399467 -0.137189 1119 0.977084 -0.071711 0.144035
-23.477589 -20.402290 -0.127650 1077 0.929551 -0.112328 0.281287
-23.482109 -20.406172 -0.118113 987 0.864509 -0.168176 0.418510
-23.490316 -20.400898 -0.204152 955 0.746418 -0.092294 -0.819461
-23.481697 -20.393358 -0.194543 1069 0.870437 0.016192 -0.681202
-23.476999 -20.389236 -0.184960 1135 0.938031 0.075498 -0.543317
-23.475895 -20.388224 -0.175408 1169 0.953921 0.090071 -0.405878
-23.473021 -20.385681 -0.165845 1197 0.995279 0.126653 -0.268281
-23.469994 -20.383005 -0.156281 1185 1.038833 0.165157 -0.130670
-23.470924 -20.383762 -0.146737 1183 1.025440 0.154262 0.006654
-23.473572 -20.386013 -0.137202 1167 0.987348 0.121878 0.143848
-23.476538 -20.388536 -0.127664 1135 0.944673 0.085570 0.281086
-23.482111 -20.393328 -0.118133 1091 0.864482 0.016631 0.418222
-23.489889 -20.400040 -0.108607 961 0.752566 -0.079944 0.555287
-23.489826 -20.387630 -0.204144 1051 0.753471 0.098606 -0.819346
-23.483856 -20.382401 -0.194560 1121 0.839371 0.173857 -0.681447
-23.480158 -20.379143 -0.184981 1181 0.892584 0.220731 -0.543619
-23.476845 -20.376217 -0.175410 1207 0.940254 0.262830 -0.405907
-23.474743 -20.374342 -0.165852 1221 0.970497 0.289807 -0.268382
-23.474514 -20.374107 -0.156314 1225 0.973791 0.293183 -0.131145
-23.475176 -20.374630 -0.146771 1215 0.964268 0.285663 0.006165
-23.477156 -20.376303 -0.137229 1211 0.935781 0.261595 0.143460
-23.479568 -20.378344 -0.127696 1181 0.901064 0.232230 0.280625
-23.483381 -20.381607 -0.118163 1139 0.846204 0.185274 0.417791
-23.490606 -20.387823 -0.108630 1047 0.742247 0.095834 0.554956
-23.494122 -20.378531 -0.204167 1069 0.691668 0.229540 -0.819677
-23.487774 -20.372974 -0.194575 1139 0.783001 0.309484 -0.681662
-23.484400 -20.370001 -0.185016 1197 0.831549 0.352269 -0.544123
-23.481857 -20.367744 -0.175450 1229 0.868132 0.384736 -0.406483
-23.479698 -20.365828 -0.165893 1243 0.899198 0.412317 -0.268972
-23.478642 -20.364857 -0.156339 1241 0.914402 0.426286 -0.131504
-23.478758 -20.364916 -0.146798 1227 0.912728 0.425435 0.005776
-23.479183 -20.365236 -0.137257 1207 0.906608 0.420824 0.143057
-23.483044 -20.368530 -0.127725 1203 0.851062 0.373429 0.280208
-23.488567 -20.373274 -0.118192 1163 0.771584 0.305176 0.417373
-23.493793 -20.377758 -0.108661 1083 0.696388 0.240655 0.554510
-23.503300 -20.385954 -0.099135 947 0.559608 0.122729 0.691575
-23.497925 -20.369007 -0.204194 1087 0.636945 0.366568 -0.820065
-23.491520 -20.363396 -0.194602 1165 0.729101 0.447308 -0.682051
-23.488588 -20.360811 -0.185039 1209 0.771282 0.484494 -0.544454
-23.485998 -20.358521 -0.175475 1237 0.808551 0.517454 -0.406842
-23.484333 -20.357029 -0.165925 1255 0.832510 0.538915 -0.269432
-23.484221 -20.356878 -0.156375 1251 0.834129 0.541083 -0.132022
-23.483992 -20.356632 -0.146836 1245 0.837422 0.544623 0.005230
-23.485472 -20.357876 -0.137298 1219 0.816126 0.526730 0.142467
-23.488895 -20.360790 -0.127768 1207 0.766864 0.484796 0.279589
-23.492701 -20.364042 -0.118226 1171 0.712113 0.438004 0.416884
-23.498594 -20.369104 -0.108703 1093 0.627312 0.365168 0.553906
-23.504614 -20.374271 -0.099166 957 0.540699 0.290823 0.691129
-23.503166 -20.360962 -0.204230 1095 0.561529 0.482326 -0.820583
-23.498358 -20.356750 -0.194650 1155 0.630715 0.542922 -0.682742
-23.495247 -20.354008 -0.185088 1197 0.675476 0.582386 -0.545159
-23.492376 -20.351471 -0.175525 1243 0.716779 0.618887 -0.407562
-23.491322 -20.350515 -0.165971 1271 0.731955 0.632636 -0.270094
-23.490776 -20.349989 -0.156424 1273 0.739804 0.640211 -0.132727
-23.489662 -20.348978 -0.146871 1251 0.755831 0.654756 0.004726
-23.491377 -20.350409 -0.137330 1215 0.731159 0.634173 0.142007
-23.494398 -20.352989 -0.127803 1205 0.687688 0.597041 0.279086
-23.498205 -20.356230 -0.118272 1165 0.632910 0.550414 0.416222
-23.504822 -20.361923 -0.108743 1103 0.537708 0.468494 0.553330
-23.510626 -20.366896 -0.099210 963 0.454196 0.396948 0.690496
-23.513687 -20.357744 -0.204305 1069 0.410149 0.528624 -0.821662
-23.506048 -20.351091 -0.194699 1135 0.520061 0.624348 -0.683447
-23.502844 -20.348269 -0.185128 1193 0.566167 0.664965 -0.545735
-23.500971 -20.346592 -0.175570 1221 0.593117 0.689088 -0.408209
-23.498310 -20.344244 -0.166016 1233 0.631401 0.722871 -0.270742
-23.496807 -20.342897 -0.156465 1245 0.653027 0.742247 -0.133317
-23.497089 -20.343088 -0.146922 1233 0.648965 0.739502 0.003992
-23.499569 -20.345196 -0.137389 1217 0.613288 0.709177 0.141158
-23.502155 -20.347374 -0.127843 1189 0.576074 0.677836 0.278510
-23.505131 -20.349909 -0.118316 1155 0.533262 0.641363 0.415589
-23.511089 -20.355021 -0.108783 1069 0.447527 0.567814 0.552755
-23.516111 -20.359316 -0.099242 941 0.375267 0.506010 0.690035
-23.522118 -20.352486 -0.204354 1049 0.288847 0.604286 -0.822368
-23.515533 -20.346741 -0.194762 1125 0.383583 0.686947 -0.684353
-23.511227 -20.342960 -0.185187 1175 0.445551 0.741341 -0.546583
-23.509388 -20.341331 -0.175628 1203 0.472007 0.764778 -0.409044
-23.507725 -20.339840 -0.166068 1223 0.495938 0.786239 -0.271490
-23.505127 -20.337540 -0.156512 1219 0.533317 0.819337 -0.133994
-23.505400 -20.337725 -0.146972 1207 0.529392 0.816675 0.003273
-23.507437 -20.339441 -0.137429 1207 0.500082 0.791975 0.140582
-23.509701 -20.341351 -0.127896 1157 0.467506 0.764504 0.277748
-23.513563 -20.344646 -0.118365 1115 0.411932 0.717081 0.414884
-23.519636 -20.349855 -0.108828 1019 0.324551 0.642132 0.552107
-23.532976 -20.349541 -0.204427 961 0.132609 0.646660 -0.823418
-23.525787 -20.343281 -0.194827 1079 0.236045 0.736731 -0.685289
-23.521082 -20.339167 -0.185245 1127 0.303749 0.795927 -0.547418
-23.518534 -20.336914 -0.175691 1167 0.340414 0.828338 -0.409950
-23.515938 -20.334618 -0.166125 1181 0.377765 0.861381 -0.272310
-23.515709 -20.334370 -0.156577 1197 0.381058 0.864948 -0.134929
-23.516701 -20.335182 -0.147031 1193 0.366787 0.853257 0.002424
-23.517183 -20.335554 -0.137488 1169 0.359844 0.847906 0.139733
-23.518681 -20.336788 -0.127940 1145 0.338301 0.830149 0.277114
-23.523596 -20.340998 -0.118411 1087 0.267578 0.769581 0.414222
-23.531273 -20.347582 -0.108888 979 0.157116 0.674845 0.551244
-23.537292 -20.341162 -0.194905 983 0.070503 0.767221 -0.686411
-23.530825 -20.335514 -0.185313 1065 0.163565 0.848482 -0.548396
-23.527884 -20.332922 -0.175740 1123 0.205884 0.885778 -0.410655
-23.526983 -20.332106 -0.166184 1147 0.218837 0.897524 -0.273159
-23.525446 -20.330723 -0.156634 1151 0.240957 0.917421 -0.135749
-23.524597 -20.329945 -0.147078 1131 0.253170 0.928618 0.001748
-23.527857 -20.332710 -0.137540 1127 0.206268 0.888824 0.138985
-23.531954 -20.336206 -0.128007 1097 0.147319 0.838520 0.276150
-23.537584 -20.341024 -0.118474 1005 0.066304 0.769197 0.413316
-23.544107 -20.334677 -0.185391 963 -0.027554 0.860530 -0.549519
-23.540901 -20.331869 -0.175820 1043 0.018579 0.900927 -0.411806
-23.538563 -20.329792 -0.166263 1073 0.052226 0.930814 -0.274296
-23.538456 -20.329651 -0.156705 1085 0.053763 0.932844 -0.136771
-23.538841 -20.329941 -0.147162 1073 0.048219 0.928673 0.000539
-23.541161 -20.331892 -0.137618 1041 0.014847 0.900598 0.137863
-23.543362 -20.333740 -0.128066 981 -0.016823 0.874005 0.275301
-23.555080 -20.331738 -0.166352 929 -0.185438 0.902821 -0.275576
-23.554016 -20.330774 -0.156789 947 -0.170125 0.916680 -0.137979
