767
-2.744316 -2.201740 -0.118157 1139 0.440128 0.216597 0.790565
-2.746106 -2.203178 -0.117138 1111 0.414375 0.195908 0.805227
-2.747967 -2.204658 -0.116118 1087 0.387597 0.174612 0.819903
-2.749928 -2.206236 -0.115098 1049 0.359381 0.151909 0.834580
-2.752303 -2.208135 -0.114085 1001 0.325210 0.124585 0.849155
-2.754100 -2.209566 -0.113055 947 0.299351 0.103992 0.863975
-2.744496 -2.201156 -0.239403 1101 0.437538 0.225002 -0.953981
-2.742498 -2.199544 -0.238163 1129 0.466288 0.248195 -0.936140
-2.741284 -2.198574 -0.236990 1155 0.483756 0.262151 -0.919262
-2.740207 -2.197695 -0.235825 1177 0.499252 0.274799 -0.902499
-2.739165 -2.196864 -0.234662 1197 0.514243 0.286758 -0.885766
-2.737902 -2.195846 -0.233487 1209 0.532418 0.301402 -0.868859
-2.736189 -2.194457 -0.232277 1217 0.557066 0.321388 -0.851449
-2.734869 -2.193396 -0.231093 1223 0.576057 0.336654 -0.834413
-2.734062 -2.192740 -0.229958 1237 0.587669 0.346095 -0.818082
-2.733712 -2.192461 -0.228850 1261 0.592705 0.350108 -0.802140
-2.733476 -2.192266 -0.227751 1279 0.596101 0.352914 -0.786327
-2.732670 -2.191611 -0.226614 1287 0.607696 0.362338 -0.769967
-2.731749 -2.190871 -0.225470 1293 0.620948 0.372986 -0.753507
-2.730835 -2.190125 -0.224326 1309 0.634101 0.383720 -0.737046
-2.729451 -2.189015 -0.223143 1315 0.654015 0.399692 -0.720025
-2.728644 -2.188359 -0.222006 1319 0.665627 0.409130 -0.703665
-2.728687 -2.188395 -0.220936 1335 0.665006 0.408612 -0.688269
-2.728287 -2.188067 -0.219828 1343 0.670762 0.413332 -0.672327
-2.727416 -2.187363 -0.218693 1343 0.683294 0.423462 -0.655996
-2.726902 -2.186937 -0.217576 1351 0.690690 0.429589 -0.639924
-2.726773 -2.186833 -0.216496 1363 0.692546 0.431088 -0.624384
-2.726016 -2.186227 -0.215361 1369 0.703438 0.439805 -0.608053
-2.725038 -2.185431 -0.214226 1379 0.717510 0.451259 -0.591722
-2.725259 -2.185599 -0.213164 1385 0.714330 0.448841 -0.576442
-2.725301 -2.185635 -0.212084 1391 0.713726 0.448323 -0.560902
-2.724609 -2.185077 -0.210969 1395 0.723684 0.456354 -0.544859
-2.724138 -2.184693 -0.209860 1405 0.730460 0.461877 -0.528902
-2.723274 -2.183996 -0.208725 1401 0.742892 0.471908 -0.512571
-2.722467 -2.183340 -0.207600 1405 0.754504 0.481345 -0.496384
-2.722110 -2.183040 -0.206501 1413 0.759639 0.485664 -0.480571
-2.721461 -2.182525 -0.205386 1417 0.768977 0.493074 -0.464528
-2.721060 -2.182197 -0.204278 1419 0.774747 0.497791 -0.448586
-2.721331 -2.182400 -0.203227 1421 0.770850 0.494871 -0.433463
-2.721323 -2.182386 -0.202145 1431 0.770963 0.495074 -0.417895
-2.720902 -2.182052 -0.201048 1435 0.777022 0.499880 -0.402111
-2.720323 -2.181578 -0.199940 1437 0.785351 0.506700 -0.386168
-2.719331 -2.180783 -0.198796 1435 0.799625 0.518137 -0.369708
-2.718810 -2.180350 -0.197699 1437 0.807121 0.524366 -0.353924
-2.718973 -2.180477 -0.196629 1449 0.804778 0.522541 -0.338528
-2.718894 -2.180407 -0.195559 1461 0.805913 0.523547 -0.323132
-2.718595 -2.180164 -0.194460 1463 0.810215 0.527042 -0.307320
-2.718466 -2.180059 -0.193381 1459 0.812071 0.528555 -0.291794
-2.718515 -2.180088 -0.192311 1459 0.811368 0.528137 -0.276399
-2.718036 -2.179698 -0.191214 1457 0.818259 0.533749 -0.260614
-2.718079 -2.179733 -0.190142 1465 0.817639 0.533245 -0.245190
-2.718406 -2.179992 -0.189091 1469 0.812935 0.529519 -0.230068
-2.718449 -2.180013 -0.188021 1469 0.812314 0.529217 -0.214672
-2.718148 -2.179770 -0.186923 1475 0.816647 0.532713 -0.198873
-2.718070 -2.179700 -0.185853 1473 0.817769 0.533721 -0.183478
-2.718504 -2.180050 -0.184802 1481 0.811525 0.528686 -0.168355
-2.718618 -2.180127 -0.183741 1479 0.809886 0.527577 -0.153089
-2.717790 -2.179465 -0.182614 1463 0.821800 0.537100 -0.136873
-2.718174 -2.179765 -0.181563 1473 0.816273 0.532785 -0.121751
-2.718959 -2.180387 -0.180539 1485 0.804977 0.523835 -0.107017
-2.718088 -2.179683 -0.179413 1463 0.817512 0.533965 -0.090816
-2.717374 -2.179104 -0.178307 1461 0.827782 0.542294 -0.074902
-2.717759 -2.179405 -0.177254 1471 0.822246 0.537965 -0.059751
-2.718200 -2.179761 -0.176213 1477 0.815899 0.532843 -0.044773
-2.718122 -2.179692 -0.175133 1475 0.817021 0.533835 -0.029233
-2.718392 -2.179895 -0.174071 1473 0.813138 0.530915 -0.013953
-2.718998 -2.180384 -0.173039 1487 0.804417 0.523879 0.000896
-2.718805 -2.180217 -0.171950 1485 0.807193 0.526281 0.016565
-2.718611 -2.180064 -0.170870 1473 0.809985 0.528483 0.032105
-2.718361 -2.179855 -0.169781 1459 0.813584 0.531488 0.047774
-2.718461 -2.179933 -0.168721 1459 0.812143 0.530366 0.063026
-2.718332 -2.179815 -0.167641 1447 0.813999 0.532064 0.078565
-2.718195 -2.179703 -0.166564 1437 0.815971 0.533677 0.094062
-2.718160 -2.179676 -0.165482 1439 0.816476 0.534064 0.109630
-2.718095 -2.179607 -0.164414 1435 0.817409 0.535059 0.124997
-2.718066 -2.179587 -0.163332 1425 0.817827 0.535347 0.140565
-2.718907 -2.180250 -0.162308 1435 0.805724 0.525807 0.155299
-2.719570 -2.180781 -0.161265 1435 0.796188 0.518168 0.170306
-2.720004 -2.181117 -0.160214 1439 0.789941 0.513331 0.185429
-2.719983 -2.181103 -0.159144 1435 0.790243 0.513533 0.200824
-2.719504 -2.180713 -0.158045 1435 0.797135 0.519145 0.216637
-2.719881 -2.181007 -0.156994 1433 0.791711 0.514916 0.231760
-2.720766 -2.181713 -0.155959 1435 0.778977 0.504754 0.246652
-2.720915 -2.181825 -0.154898 1431 0.776833 0.503146 0.261918
-2.720772 -2.181707 -0.153819 1431 0.778891 0.504844 0.277443
-2.721385 -2.182189 -0.152775 1425 0.770071 0.497907 0.292465
-2.721983 -2.182671 -0.151732 1413 0.761468 0.490971 0.307472
-2.722589 -2.183146 -0.150679 1423 0.752747 0.484137 0.322623
-2.723644 -2.183992 -0.149655 1431 0.737568 0.471966 0.337357
-2.723059 -2.183510 -0.148556 1411 0.745986 0.478899 0.353170
-2.722852 -2.183343 -0.147479 1399 0.748964 0.481304 0.368666
-2.723921 -2.184188 -0.146452 1397 0.733581 0.469146 0.383443
-2.724576 -2.184713 -0.145400 1399 0.724158 0.461592 0.398580
-2.725468 -2.185425 -0.144364 1399 0.711324 0.451345 0.413486
-2.726530 -2.186263 -0.143340 1399 0.696042 0.439287 0.428220
-2.726729 -2.186424 -0.142277 1389 0.693181 0.436972 0.443515
-2.726365 -2.186118 -0.141181 1385 0.698416 0.441376 0.459285
-2.726621 -2.186321 -0.140118 1379 0.694735 0.438453 0.474580
-2.727505 -2.187026 -0.139084 1377 0.682014 0.428310 0.489457
-2.728732 -2.188011 -0.138056 1379 0.664358 0.414138 0.504249
-2.729794 -2.188849 -0.137023 1369 0.649078 0.402080 0.519112
-2.730386 -2.189324 -0.135968 1357 0.640560 0.395247 0.534292
-2.730656 -2.189527 -0.134907 1341 0.636677 0.392324 0.549558
-2.731712 -2.190372 -0.133872 1337 0.621480 0.380166 0.564450
-2.733166 -2.191539 -0.132853 1345 0.600561 0.363374 0.579112
-2.733365 -2.191685 -0.131783 1339 0.597697 0.361274 0.594508
-2.733343 -2.191658 -0.130703 1327 0.598016 0.361662 0.610047
-2.734056 -2.192224 -0.129649 1321 0.587755 0.353518 0.625213
-2.735168 -2.193111 -0.128613 1311 0.571755 0.340757 0.640119
-2.736224 -2.193956 -0.127577 1297 0.556562 0.328599 0.655026
-2.736537 -2.194201 -0.126517 1279 0.552057 0.325073 0.670278
-2.736843 -2.194439 -0.125445 1255 0.547653 0.321649 0.685702
-2.737727 -2.195144 -0.124400 1237 0.534936 0.311505 0.700738
-2.739239 -2.196352 -0.123372 1225 0.513180 0.294123 0.715529
-2.740073 -2.197009 -0.122317 1219 0.501180 0.284668 0.730709
-2.740957 -2.197714 -0.121274 1201 0.488460 0.274524 0.745716
-2.742348 -2.198832 -0.120236 1171 0.468446 0.258439 0.760652
-2.743524 -2.199767 -0.119198 1157 0.451524 0.244985 0.775587
-2.744629 -2.200647 -0.118153 1133 0.435627 0.232323 0.790623
-2.746255 -2.201939 -0.117125 1103 0.412231 0.213733 0.805414
-2.748402 -2.203656 -0.116114 1075 0.381336 0.189030 0.819961
-2.750484 -2.205325 -0.115092 1039 0.351381 0.165017 0.834666
-2.752844 -2.207210 -0.114090 997 0.317423 0.137892 0.849083
-2.745015 -2.200167 -0.239398 1103 0.430073 0.239232 -0.953910
-2.742939 -2.198506 -0.238160 1119 0.459942 0.263128 -0.936097
-2.741683 -2.197495 -0.236975 1153 0.478014 0.277677 -0.919046
-2.740941 -2.196887 -0.235840 1177 0.488689 0.286425 -0.902715
-2.739677 -2.195869 -0.234656 1193 0.506878 0.301073 -0.885679
-2.738072 -2.194585 -0.233454 1209 0.529972 0.319546 -0.868384
-2.736573 -2.193377 -0.232262 1215 0.551539 0.336928 -0.851233
-2.735260 -2.192310 -0.231080 1227 0.570431 0.352280 -0.834226
-2.734454 -2.191668 -0.229945 1243 0.582030 0.361518 -0.817895
-2.734161 -2.191417 -0.228837 1263 0.586246 0.365130 -0.801953
-2.733868 -2.191180 -0.227738 1279 0.590462 0.368540 -0.786140
-2.732954 -2.190448 -0.226592 1281 0.603611 0.379072 -0.769651
-2.732083 -2.189743 -0.225447 1285 0.616142 0.389216 -0.753176
-2.731106 -2.188948 -0.224303 1299 0.630200 0.400656 -0.736715
-2.730071 -2.188125 -0.223147 1307 0.645092 0.412498 -0.720082
-2.729557 -2.187700 -0.222031 1321 0.652488 0.418612 -0.704025
-2.729092 -2.187323 -0.220923 1335 0.659181 0.424035 -0.688082
-2.728221 -2.186618 -0.219788 1337 0.671713 0.434179 -0.671751
-2.728214 -2.186605 -0.218707 1343 0.671812 0.434368 -0.656197
-2.728834 -2.187094 -0.217675 1359 0.662893 0.427332 -0.641348
-2.727970 -2.186396 -0.216538 1371 0.675325 0.437376 -0.624989
-2.726351 -2.185098 -0.215348 1369 0.698618 0.456052 -0.607866
-2.725544 -2.184443 -0.214211 1367 0.710230 0.465475 -0.591507
-2.725543 -2.184436 -0.213141 1383 0.710244 0.465575 -0.576111
-2.725643 -2.184514 -0.212071 1393 0.708806 0.464453 -0.560715
-2.725064 -2.184039 -0.210953 1395 0.717136 0.471287 -0.544629
-2.723844 -2.183063 -0.209801 1399 0.734689 0.485331 -0.528053
-2.723095 -2.182463 -0.208674 1395 0.745468 0.493966 -0.511838
-2.723080 -2.182443 -0.207594 1401 0.745684 0.494254 -0.496298
-2.722901 -2.182290 -0.206505 1409 0.748257 0.496453 -0.480629
-2.722486 -2.181948 -0.205409 1421 0.754229 0.501375 -0.464859
-2.721445 -2.181118 -0.204264 1413 0.769207 0.513317 -0.448384
-2.721152 -2.180867 -0.203175 1415 0.773423 0.516929 -0.432715
-2.720901 -2.180672 -0.202086 1415 0.777035 0.519735 -0.417046
-2.720608 -2.180421 -0.200987 1419 0.781251 0.523344 -0.401233
-2.720422 -2.180275 -0.199910 1429 0.783927 0.525447 -0.385737
-2.719844 -2.179801 -0.198792 1425 0.792243 0.532267 -0.369650
-2.719373 -2.179418 -0.197695 1425 0.799021 0.537776 -0.353866
-2.718965 -2.179083 -0.196597 1439 0.804891 0.542596 -0.338068
-2.719115 -2.179195 -0.195527 1443 0.802733 0.540987 -0.322672
-2.719450 -2.179461 -0.194474 1451 0.797913 0.537159 -0.307521
-2.719021 -2.179120 -0.193377 1457 0.804085 0.542064 -0.291737
-2.718899 -2.179009 -0.192297 1449 0.805841 0.543663 -0.276197
-2.718935 -2.179037 -0.191227 1449 0.805323 0.543258 -0.260802
-2.719041 -2.179121 -0.190167 1453 0.803797 0.542051 -0.245550
-2.719604 -2.179555 -0.189124 1461 0.795697 0.535807 -0.230543
-2.719924 -2.179807 -0.188071 1479 0.791093 0.532181 -0.215391
-2.719624 -2.179563 -0.186984 1483 0.795409 0.535691 -0.199751
-2.719553 -2.179501 -0.185904 1473 0.796431 0.536582 -0.184212
-2.719816 -2.179711 -0.184842 1483 0.792647 0.533560 -0.168931
-2.719858 -2.179732 -0.183772 1485 0.792044 0.533258 -0.153535
-2.719437 -2.179398 -0.182675 1471 0.798102 0.538064 -0.137751
-2.719543 -2.179468 -0.181614 1479 0.796575 0.537059 -0.122485
-2.719065 -2.179092 -0.180516 1479 0.803453 0.542469 -0.106687
-2.717909 -2.178150 -0.179373 1467 0.820084 0.556023 -0.090240
-2.717537 -2.177850 -0.178284 1457 0.825439 0.560339 -0.074571
-2.717637 -2.177928 -0.177214 1469 0.823999 0.559217 -0.059176
-2.718078 -2.178271 -0.176171 1469 0.817656 0.554280 -0.044169
-2.718406 -2.178529 -0.175110 1471 0.812935 0.550569 -0.028902
-2.718327 -2.178460 -0.174040 1455 0.814071 0.551563 -0.013507
-2.718355 -2.178482 -0.172970 1459 0.813669 0.551244 0.001889
-2.719203 -2.179152 -0.171946 1463 0.801467 0.541605 0.016623
-2.719859 -2.179676 -0.170903 1473 0.792030 0.534064 0.031630
-2.720073 -2.179837 -0.169840 1475 0.788949 0.531749 0.046925
-2.719537 -2.179405 -0.168744 1467 0.796661 0.537965 0.062695
-2.718259 -2.178372 -0.167601 1439 0.815049 0.552829 0.079141
-2.718409 -2.178485 -0.166541 1433 0.812891 0.551203 0.094393
-2.718843 -2.178834 -0.165488 1443 0.806647 0.546181 0.109544
-2.719050 -2.178989 -0.164427 1443 0.803670 0.543951 0.124810
-2.719434 -2.179289 -0.163374 1431 0.798143 0.539632 0.139961
-2.719634 -2.179450 -0.162314 1431 0.795265 0.537317 0.155213
-2.719733 -2.179528 -0.161242 1443 0.793841 0.536195 0.170637
-2.720046 -2.179773 -0.160191 1443 0.789337 0.532668 0.185760
-2.720595 -2.180206 -0.159148 1443 0.781440 0.526439 0.200767
-2.720973 -2.180500 -0.158087 1435 0.775999 0.522209 0.216033
-2.721522 -2.180933 -0.157044 1437 0.768099 0.515979 0.231040
-2.721735 -2.181094 -0.155982 1435 0.765036 0.513663 0.246321
-2.721306 -2.180753 -0.154885 1425 0.771207 0.518569 0.262105
-2.721170 -2.180642 -0.153815 1429 0.773166 0.520168 0.277501
-2.721719 -2.181075 -0.152762 1429 0.765265 0.513934 0.292652
-2.722489 -2.181683 -0.151728 1427 0.754185 0.505187 0.307529
-2.722980 -2.182074 -0.150675 1431 0.747122 0.499561 0.322680
-2.723187 -2.182228 -0.149615 1417 0.744144 0.497345 0.337932
-2.723614 -2.182571 -0.148552 1415 0.738000 0.492412 0.353227
-2.724391 -2.183186 -0.147519 1409 0.726820 0.483561 0.368090
-2.724833 -2.183528 -0.146466 1415 0.720460 0.478642 0.383242
-2.724968 -2.183641 -0.145396 1415 0.718518 0.477016 0.398637
-2.725745 -2.184255 -0.144351 1403 0.707338 0.468182 0.413673
-2.726465 -2.184828 -0.143307 1393 0.696978 0.459935 0.428695
-2.727577 -2.185715 -0.142281 1393 0.680978 0.447174 0.443457
-2.728005 -2.186044 -0.141230 1391 0.674821 0.442440 0.458580
-2.727812 -2.185891 -0.140141 1383 0.677596 0.444642 0.474249
-2.728646 -2.186547 -0.139105 1381 0.665596 0.435201 0.489155
-2.730050 -2.187665 -0.138089 1383 0.645394 0.419116 0.503774
-2.730414 -2.187958 -0.137026 1373 0.640159 0.414900 0.519069
-2.730213 -2.187784 -0.135937 1361 0.643051 0.417404 0.534738
-2.730819 -2.188274 -0.134894 1341 0.634331 0.410354 0.549745
-2.732331 -2.189467 -0.133877 1341 0.612575 0.393188 0.564378
-2.733158 -2.190131 -0.132832 1343 0.600674 0.383634 0.579414
-2.733186 -2.190153 -0.131752 1333 0.600273 0.383319 0.594954
-2.733849 -2.190670 -0.130698 1319 0.590733 0.375878 0.610119
-2.734904 -2.191515 -0.129664 1315 0.575553 0.363720 0.624997
-2.735674 -2.192123 -0.128619 1307 0.564476 0.354973 0.640033
-2.736558 -2.192828 -0.127573 1301 0.551755 0.344829 0.655083
-2.737499 -2.193575 -0.126530 1291 0.538215 0.334081 0.670090
-2.738041 -2.194002 -0.125466 1267 0.530418 0.327937 0.685400
-2.738183 -2.194107 -0.124396 1235 0.528373 0.326424 0.700796
-2.739181 -2.194910 -0.123351 1223 0.514013 0.314870 0.715832
-2.740521 -2.195978 -0.122313 1219 0.494734 0.299505 0.730767
-2.741170 -2.196496 -0.121260 1201 0.485396 0.292051 0.745918
-2.742468 -2.197522 -0.120223 1179 0.466717 0.277289 0.760839
-2.744315 -2.199002 -0.119204 1163 0.440145 0.255993 0.775501
-2.745883 -2.200252 -0.118176 1141 0.417582 0.238007 0.790292
-2.747003 -2.201146 -0.117129 1115 0.401466 0.225146 0.805357
-2.748230 -2.202116 -0.116093 1079 0.383813 0.211187 0.820263
-2.745777 -2.199318 -0.239403 1103 0.419109 0.251448 -0.953981
-2.744236 -2.198082 -0.238202 1125 0.441280 0.269231 -0.936701
-2.743251 -2.197294 -0.237046 1151 0.455452 0.280569 -0.920068
-2.741988 -2.196275 -0.235863 1179 0.473626 0.295231 -0.903046
-2.740667 -2.195215 -0.234681 1201 0.492631 0.310483 -0.886039
-2.738898 -2.193784 -0.233469 1215 0.518085 0.331073 -0.868600
-2.737285 -2.192493 -0.232268 1225 0.541296 0.349649 -0.851320
-2.736315 -2.191704 -0.231114 1233 0.555251 0.361000 -0.834715
-2.735394 -2.190965 -0.229968 1249 0.568503 0.371635 -0.818226
-2.734302 -2.190086 -0.228804 1263 0.584215 0.384283 -0.801478
-2.733609 -2.189528 -0.227677 1279 0.594187 0.392310 -0.785262
-2.732974 -2.189012 -0.226552 1287 0.603323 0.399734 -0.769075
-2.732445 -2.188586 -0.225434 1291 0.610935 0.405864 -0.752989
-2.731810 -2.188071 -0.224307 1301 0.620070 0.413274 -0.736773
-2.730783 -2.187240 -0.223153 1309 0.634849 0.425232 -0.720168
-2.729855 -2.186494 -0.222006 1321 0.648200 0.435963 -0.703665
-2.729112 -2.185887 -0.220881 1333 0.658893 0.444697 -0.687478
-2.728648 -2.185510 -0.219763 1343 0.665569 0.450124 -0.671391
-2.729268 -2.185999 -0.218731 1351 0.656646 0.443088 -0.656543
-2.729874 -2.186489 -0.217698 1365 0.647929 0.436035 -0.641679
-2.728732 -2.185561 -0.216544 1369 0.664358 0.449390 -0.625075
-2.726777 -2.183991 -0.215334 1367 0.692488 0.471980 -0.607665
-2.725286 -2.182790 -0.214152 1369 0.713942 0.489259 -0.590658
-2.724871 -2.182449 -0.213053 1377 0.719914 0.494165 -0.574845
-2.724864 -2.182450 -0.211974 1385 0.720014 0.494151 -0.559319
-2.724849 -2.182429 -0.210894 1385 0.720230 0.494453 -0.543780
-2.724442 -2.182094 -0.209795 1383 0.726086 0.499273 -0.527967
-2.723863 -2.181620 -0.208680 1383 0.734418 0.506096 -0.511924
-2.723791 -2.181558 -0.207600 1391 0.735454 0.506988 -0.496384
-2.723491 -2.181314 -0.206511 1395 0.739770 0.510497 -0.480715
-2.722628 -2.180617 -0.205376 1399 0.752185 0.520524 -0.464384
-2.721985 -2.180094 -0.204258 1405 0.761437 0.528051 -0.448298
-2.721856 -2.179990 -0.203179 1413 0.763293 0.529547 -0.432773
-2.721678 -2.179837 -0.202092 1425 0.765855 0.531749 -0.417133
-2.721484 -2.179684 -0.201003 1429 0.768648 0.533951 -0.401463
-2.721355 -2.179579 -0.199923 1429 0.770504 0.535461 -0.385924
-2.721120 -2.179384 -0.198834 1421 0.773883 0.538267 -0.370255
-2.720705 -2.179043 -0.197735 1425 0.779855 0.543172 -0.354442
-2.720462 -2.178841 -0.196648 1427 0.783351 0.546078 -0.338802
-2.719991 -2.178458 -0.195549 1429 0.790129 0.551591 -0.322989
-2.719862 -2.178354 -0.194460 1447 0.791985 0.553087 -0.307320
-2.719384 -2.177963 -0.193364 1455 0.798863 0.558712 -0.291550
-2.719254 -2.177859 -0.192284 1443 0.800733 0.560208 -0.276010
-2.719589 -2.178111 -0.191231 1451 0.795913 0.556582 -0.260859
-2.719753 -2.178237 -0.190171 1457 0.793553 0.554771 -0.245607
-2.720016 -2.178447 -0.189110 1455 0.789769 0.551749 -0.230341
-2.720058 -2.178469 -0.188040 1467 0.789165 0.551433 -0.214945
-2.719637 -2.178134 -0.186942 1465 0.795224 0.556253 -0.199147
-2.719458 -2.177981 -0.185862 1469 0.797797 0.558455 -0.183607
-2.719722 -2.178191 -0.184802 1469 0.793999 0.555433 -0.168355
-2.719586 -2.178080 -0.183722 1469 0.795958 0.557028 -0.152816
-2.719179 -2.177746 -0.182623 1475 0.801814 0.561834 -0.137003
-2.718407 -2.177125 -0.181508 1469 0.812922 0.570771 -0.120960
-2.717765 -2.176602 -0.180401 1457 0.822156 0.578297 -0.105032
-2.717808 -2.176623 -0.179331 1451 0.821539 0.577992 -0.089636
-2.718185 -2.176931 -0.178280 1457 0.816115 0.573563 -0.074514
-2.718398 -2.177092 -0.177228 1455 0.813049 0.571244 -0.059377
-2.718840 -2.177435 -0.176177 1461 0.806692 0.566311 -0.044255
-2.718875 -2.177464 -0.175107 1455 0.806188 0.565893 -0.028859
-2.718860 -2.177443 -0.174037 1451 0.806404 0.566194 -0.013463
-2.718610 -2.177234 -0.172947 1439 0.809999 0.569203 0.002220
-2.719394 -2.177856 -0.171923 1445 0.798719 0.560253 0.016954
-2.720799 -2.178988 -0.170926 1463 0.778504 0.543965 0.031299
-2.720841 -2.179009 -0.169856 1469 0.777900 0.543663 0.046695
-2.719778 -2.178158 -0.168721 1455 0.793193 0.555906 0.063026
-2.719249 -2.177719 -0.167624 1443 0.800805 0.562222 0.078810
-2.719113 -2.177608 -0.166544 1443 0.802760 0.563820 0.094349
-2.719548 -2.177957 -0.165492 1451 0.796503 0.558798 0.109486
-2.719754 -2.178111 -0.164431 1449 0.793539 0.556582 0.124752
-2.719790 -2.178140 -0.163361 1449 0.793021 0.556167 0.140148
-2.720167 -2.178433 -0.162310 1445 0.787598 0.551951 0.155270
-2.720716 -2.178867 -0.161267 1453 0.779697 0.545704 0.170278
-2.720701 -2.178846 -0.160197 1447 0.779913 0.546009 0.185673
-2.720679 -2.178819 -0.159117 1439 0.780229 0.546397 0.201213
-2.721278 -2.179301 -0.158074 1435 0.771612 0.539461 0.216220
-2.722119 -2.179965 -0.157050 1437 0.759509 0.529907 0.230954
-2.722375 -2.180168 -0.155987 1441 0.755828 0.526987 0.246249
-2.721605 -2.179547 -0.154871 1431 0.766905 0.535920 0.262306
-2.721533 -2.179485 -0.153801 1429 0.767941 0.536812 0.277702
-2.722017 -2.179870 -0.152749 1429 0.760977 0.531276 0.292839
-2.722224 -2.180024 -0.151688 1429 0.758000 0.529059 0.308105
-2.723229 -2.180820 -0.150664 1423 0.743540 0.517605 0.322839
-2.723892 -2.181351 -0.149621 1411 0.734000 0.509965 0.337846
-2.723977 -2.181414 -0.148549 1403 0.732775 0.509060 0.353270
-2.724647 -2.181938 -0.147505 1407 0.723136 0.501520 0.368292
-2.725424 -2.182553 -0.146462 1415 0.711956 0.492669 0.383299
-2.726136 -2.183119 -0.145419 1415 0.701712 0.484525 0.398306
-2.726107 -2.183099 -0.144349 1403 0.702131 0.484813 0.413702
-2.725971 -2.182973 -0.143269 1391 0.704086 0.486628 0.429242
-2.726741 -2.183595 -0.142224 1389 0.693006 0.477678 0.444278
-2.727633 -2.184294 -0.141190 1387 0.680172 0.467619 0.459155
-2.727832 -2.184455 -0.140118 1385 0.677308 0.465304 0.474580
-2.728152 -2.184707 -0.139058 1381 0.672704 0.461678 0.489832
-2.729321 -2.185636 -0.138031 1369 0.655884 0.448309 0.504608
-2.730719 -2.186746 -0.137013 1369 0.635768 0.432340 0.519256
-2.731610 -2.187459 -0.135970 1357 0.622948 0.422080 0.534263
-2.731867 -2.187661 -0.134907 1349 0.619250 0.419174 0.549558
-2.732579 -2.188227 -0.133864 1345 0.609007 0.411030 0.564565
-2.733413 -2.188884 -0.132819 1345 0.597007 0.401576 0.579601
-2.733498 -2.188947 -0.131739 1331 0.595782 0.400670 0.595141
-2.734147 -2.189464 -0.130696 1317 0.586445 0.393229 0.610148
-2.735095 -2.190219 -0.129651 1305 0.572805 0.382369 0.625184
-2.736093 -2.191008 -0.128605 1303 0.558445 0.371014 0.640235
-2.736977 -2.191713 -0.127560 1301 0.545725 0.360870 0.655270
-2.738039 -2.192551 -0.126524 1295 0.530445 0.348815 0.670177
-2.738816 -2.193166 -0.125472 1275 0.519265 0.339964 0.685314
-2.739237 -2.193501 -0.124409 1255 0.513207 0.335144 0.700609
-2.739779 -2.193928 -0.123356 1237 0.505410 0.329001 0.715760
-2.740834 -2.194773 -0.122311 1223 0.490230 0.316843 0.730796
-2.741596 -2.195374 -0.121256 1205 0.479266 0.308195 0.745975
-2.742602 -2.196170 -0.120211 1187 0.464789 0.296740 0.761011
-2.744227 -2.197475 -0.119183 1163 0.441411 0.277965 0.775803
-2.745853 -2.198767 -0.118153 1147 0.418015 0.259375 0.790623
-2.747993 -2.200478 -0.117142 1123 0.387223 0.234755 0.805170
-2.749162 -2.201406 -0.116107 1089 0.370403 0.221403 0.820062
-2.750103 -2.202154 -0.115052 1047 0.356863 0.210642 0.835242
-2.746125 -2.198189 -0.239390 1117 0.414100 0.267691 -0.953794
-2.744513 -2.196898 -0.238179 1131 0.437294 0.286267 -0.936370
-2.743428 -2.196026 -0.237013 1155 0.452906 0.298812 -0.919593
-2.742044 -2.194916 -0.235821 1173 0.472820 0.314785 -0.902442
-2.740966 -2.194037 -0.234658 1189 0.488329 0.327433 -0.885708
-2.739817 -2.193116 -0.233492 1209 0.504864 0.340685 -0.868931
-2.738554 -2.192097 -0.232310 1229 0.523035 0.355347 -0.851924
-2.737334 -2.191121 -0.231146 1239 0.540589 0.369388 -0.835176
-2.735785 -2.189879 -0.229945 1249 0.562877 0.387260 -0.817895
-2.734871 -2.189132 -0.228798 1263 0.576030 0.398008 -0.801392
-2.734579 -2.188895 -0.227700 1283 0.580229 0.401418 -0.785593
-2.734000 -2.188435 -0.226574 1295 0.588561 0.408035 -0.769392
-2.733422 -2.187961 -0.225457 1299 0.596877 0.414855 -0.753320
-2.732494 -2.187214 -0.224312 1305 0.610228 0.425606 -0.736845
-2.731695 -2.186566 -0.223176 1311 0.621727 0.434927 -0.720499
-2.731508 -2.186420 -0.222086 1329 0.624417 0.437030 -0.704816
-2.730645 -2.185722 -0.220942 1339 0.636835 0.447071 -0.688356
-2.729610 -2.184885 -0.219798 1347 0.651727 0.459115 -0.671895
-2.729602 -2.184871 -0.218716 1357 0.651840 0.459318 -0.656327
-2.729766 -2.184998 -0.217646 1369 0.649483 0.457489 -0.640931
-2.728546 -2.184021 -0.216492 1367 0.667037 0.471547 -0.624327
-2.726655 -2.182499 -0.215283 1367 0.694244 0.493448 -0.606931
-2.725285 -2.181390 -0.214110 1369 0.713956 0.509403 -0.590053
-2.724984 -2.181146 -0.213011 1373 0.718288 0.512916 -0.574240
-2.725312 -2.181405 -0.211960 1377 0.713568 0.509187 -0.559118
-2.725419 -2.181489 -0.210900 1383 0.712028 0.507979 -0.543866
-2.724947 -2.181106 -0.209792 1387 0.718820 0.513488 -0.527924
-2.724540 -2.180771 -0.208683 1395 0.724676 0.518308 -0.511967
-2.724468 -2.180709 -0.207604 1401 0.725712 0.519204 -0.496442
-2.724575 -2.180794 -0.206534 1405 0.724172 0.517979 -0.481046
-2.724104 -2.180410 -0.205435 1413 0.730950 0.523505 -0.465233
-2.723525 -2.179936 -0.204319 1425 0.739279 0.530325 -0.449176
-2.723396 -2.179832 -0.203240 1431 0.741135 0.531821 -0.433651
-2.723217 -2.179679 -0.202151 1441 0.743712 0.534023 -0.417981
-2.722625 -2.179205 -0.201045 1443 0.752230 0.540843 -0.402068
-2.722325 -2.178961 -0.199946 1431 0.756545 0.544353 -0.386255
-2.722032 -2.178710 -0.198857 1425 0.760761 0.547965 -0.370586
-2.721674 -2.178425 -0.197758 1433 0.765914 0.552064 -0.354773
-2.720861 -2.177762 -0.196633 1433 0.777612 0.561604 -0.338586
-2.719762 -2.176876 -0.195500 1427 0.793423 0.574352 -0.322284
-2.719625 -2.176764 -0.194411 1435 0.795395 0.575964 -0.306614
-2.720410 -2.177387 -0.193387 1457 0.784099 0.567001 -0.291881
-2.721258 -2.178057 -0.192372 1463 0.771900 0.557361 -0.277276
-2.721814 -2.178498 -0.191329 1481 0.763900 0.551014 -0.262269
-2.721221 -2.178024 -0.190222 1473 0.772432 0.557834 -0.246341
-2.720579 -2.177500 -0.189105 1461 0.781670 0.565374 -0.230269
-2.720621 -2.177536 -0.188035 1465 0.781063 0.564857 -0.214873
-2.719750 -2.176831 -0.186919 1461 0.793598 0.575000 -0.198816
-2.718987 -2.176218 -0.185793 1465 0.804575 0.583820 -0.182614
-2.719536 -2.176651 -0.184762 1473 0.796675 0.577590 -0.167780
-2.719820 -2.176868 -0.183699 1471 0.792589 0.574469 -0.152485
-2.719513 -2.176617 -0.182610 1469 0.797008 0.578081 -0.136816
-2.719377 -2.176507 -0.181532 1465 0.798963 0.579662 -0.121305
-2.719526 -2.176619 -0.180470 1465 0.796819 0.578050 -0.106025
-2.719568 -2.176640 -0.179400 1467 0.796215 0.577748 -0.090629
-2.719439 -2.176536 -0.178320 1453 0.798071 0.579244 -0.075089
-2.719539 -2.176613 -0.177250 1449 0.796634 0.578136 -0.059694
-2.719631 -2.176684 -0.176190 1457 0.795309 0.577117 -0.044442
-2.720066 -2.177019 -0.175137 1455 0.789049 0.572297 -0.029291
-2.719930 -2.176908 -0.174059 1461 0.791008 0.573892 -0.013780
-2.719401 -2.176483 -0.172961 1447 0.798620 0.580009 0.002019
-2.719836 -2.176818 -0.171910 1451 0.792359 0.575189 0.017141
-2.720563 -2.177398 -0.170876 1477 0.781900 0.566843 0.032019
-2.720541 -2.177371 -0.169806 1463 0.782215 0.567230 0.047414
-2.720241 -2.177127 -0.168717 1451 0.786531 0.570743 0.063083
-2.720269 -2.177149 -0.167647 1463 0.786130 0.570424 0.078479
-2.720596 -2.177408 -0.166596 1471 0.781423 0.566699 0.093601
-2.721145 -2.177841 -0.165543 1475 0.773526 0.560469 0.108752
-2.720952 -2.177674 -0.164464 1457 0.776301 0.562870 0.124278
-2.720417 -2.177242 -0.163367 1449 0.783999 0.569086 0.140062
-2.720623 -2.177396 -0.162304 1443 0.781035 0.566870 0.155357
-2.721393 -2.178018 -0.161271 1447 0.769955 0.557920 0.170220
-2.722405 -2.178821 -0.160246 1451 0.755396 0.546366 0.184968
-2.722783 -2.179115 -0.159194 1453 0.749955 0.542136 0.200105
-2.722939 -2.179234 -0.158133 1447 0.747712 0.540425 0.215371
-2.723024 -2.179297 -0.157063 1443 0.746490 0.539519 0.230767
-2.722660 -2.179005 -0.155974 1435 0.751725 0.543721 0.246436
-2.722296 -2.178698 -0.154877 1435 0.756964 0.548136 0.262220
-2.722730 -2.179048 -0.153824 1425 0.750720 0.543100 0.277371
-2.723272 -2.179474 -0.152781 1417 0.742919 0.536970 0.292378
-2.723820 -2.179908 -0.151728 1421 0.735036 0.530727 0.307529
-2.724305 -2.180292 -0.150687 1419 0.728058 0.525204 0.322508
-2.724404 -2.180355 -0.149615 1413 0.726631 0.524294 0.337932
-2.724711 -2.180607 -0.148554 1407 0.722216 0.520668 0.353198
-2.725495 -2.181229 -0.147519 1407 0.710933 0.511718 0.368090
-2.725758 -2.181425 -0.146449 1407 0.707150 0.508898 0.383486
-2.726014 -2.181628 -0.145386 1405 0.703469 0.505979 0.398781
-2.726670 -2.182152 -0.144343 1403 0.694028 0.498439 0.413788
-2.726819 -2.182264 -0.143282 1391 0.691884 0.496827 0.429055
-2.727076 -2.182467 -0.142210 1391 0.688186 0.493907 0.444479
-2.727967 -2.183166 -0.141177 1387 0.675366 0.483849 0.459342
-2.728344 -2.183459 -0.140114 1385 0.669942 0.479633 0.474637
-2.728315 -2.183439 -0.139044 1375 0.670358 0.479921 0.490033
-2.729549 -2.184417 -0.138018 1365 0.652605 0.465849 0.504796
-2.730832 -2.185443 -0.136992 1359 0.634142 0.451088 0.519558
-2.731723 -2.186142 -0.135956 1351 0.621322 0.441030 0.534465
-2.732550 -2.186805 -0.134913 1343 0.609425 0.431490 0.549472
-2.733156 -2.187280 -0.133860 1345 0.600705 0.424656 0.564623
-2.734325 -2.188209 -0.132834 1345 0.583885 0.411287 0.579385
-2.734981 -2.188734 -0.131779 1335 0.574445 0.403734 0.594565
-2.735523 -2.189160 -0.130717 1323 0.566647 0.397603 0.609846
-2.736064 -2.189586 -0.129664 1319 0.558863 0.391476 0.624997
-2.736891 -2.190250 -0.128619 1311 0.546963 0.381923 0.640033
-2.737661 -2.190857 -0.127566 1303 0.535886 0.373189 0.655184
-2.738374 -2.191423 -0.126523 1293 0.525625 0.365045 0.670191
-2.739379 -2.192219 -0.125477 1271 0.511166 0.353590 0.685242
-2.739864 -2.192604 -0.124415 1255 0.504185 0.348050 0.700522
-2.740462 -2.193072 -0.123360 1239 0.495581 0.341316 0.715702
-2.741468 -2.193868 -0.122315 1229 0.481108 0.329865 0.730738
-2.742979 -2.195076 -0.121287 1209 0.459366 0.312483 0.745529
-2.744313 -2.196137 -0.120251 1191 0.440172 0.297217 0.760436
-2.745603 -2.197171 -0.119214 1163 0.421610 0.282339 0.775357
-2.747172 -2.198421 -0.118186 1147 0.399034 0.264353 0.790148
-2.748227 -2.199252 -0.117140 1117 0.383857 0.252398 0.805198
-2.749339 -2.200139 -0.116093 1085 0.367854 0.239633 0.820263
-2.750851 -2.201347 -0.115056 1039 0.346101 0.222251 0.835184
-2.753276 -2.203280 -0.114052 1001 0.311207 0.194440 0.849630
-2.755708 -2.205221 -0.113040 963 0.276216 0.166512 0.864191
-2.746311 -2.197013 -0.239356 1121 0.411425 0.284613 -0.953305
-2.744934 -2.195911 -0.238163 1139 0.431236 0.300469 -0.936140
-2.743842 -2.195032 -0.237000 1163 0.446951 0.313117 -0.919406
-2.742236 -2.193748 -0.235798 1181 0.470059 0.331591 -0.902111
-2.741144 -2.192868 -0.234623 1193 0.485770 0.344252 -0.885204
-2.739710 -2.191710 -0.233441 1211 0.506401 0.360914 -0.868197
-2.738161 -2.190468 -0.232239 1223 0.528689 0.378784 -0.850902
-2.737412 -2.189868 -0.231104 1239 0.539468 0.387418 -0.834571
-2.736663 -2.189254 -0.229968 1249 0.550243 0.396252 -0.818226
-2.735799 -2.188556 -0.228821 1271 0.562675 0.406296 -0.801722
-2.735334 -2.188180 -0.227715 1287 0.569368 0.411706 -0.785809
-2.734649 -2.187629 -0.226578 1295 0.579223 0.419634 -0.769449
-2.733721 -2.186883 -0.225434 1299 0.592575 0.430368 -0.752989
-2.733257 -2.186506 -0.224326 1307 0.599250 0.435791 -0.737046
-2.732736 -2.186088 -0.223208 1319 0.606746 0.441805 -0.720960
-2.732157 -2.185614 -0.222092 1329 0.615079 0.448625 -0.704902
-2.731401 -2.185007 -0.220955 1343 0.625957 0.457359 -0.688543
-2.730708 -2.184449 -0.219828 1355 0.635929 0.465390 -0.672327
-2.730016 -2.183891 -0.218703 1359 0.645885 0.473417 -0.656140
-2.729438 -2.183417 -0.217585 1363 0.654200 0.480237 -0.640053
-2.729259 -2.183264 -0.216496 1365 0.656776 0.482439 -0.624384
-2.728381 -2.182566 -0.215361 1369 0.669411 0.492484 -0.608053
-2.726833 -2.181324 -0.214180 1379 0.691681 0.510353 -0.591060
-2.726361 -2.180941 -0.213072 1379 0.698474 0.515862 -0.575118
-2.726703 -2.181200 -0.212019 1389 0.693555 0.512137 -0.559967
-2.726510 -2.181046 -0.210930 1399 0.696330 0.514353 -0.544298
-2.725996 -2.180621 -0.209824 1403 0.703726 0.520469 -0.528384
-2.725517 -2.180245 -0.208716 1403 0.710618 0.525879 -0.512442
-2.724939 -2.179771 -0.207600 1407 0.718933 0.532699 -0.496384
-2.724703 -2.179576 -0.206511 1407 0.722329 0.535505 -0.480715
-2.724510 -2.179423 -0.205422 1425 0.725108 0.537704 -0.465046
-2.724331 -2.179270 -0.204333 1435 0.727684 0.539907 -0.449377
-2.724031 -2.179026 -0.203244 1435 0.732000 0.543419 -0.433708
-2.723517 -2.178601 -0.202137 1441 0.739396 0.549533 -0.417780
-2.723038 -2.178224 -0.201029 1439 0.746288 0.554956 -0.401838
-2.722510 -2.177785 -0.199923 1427 0.753883 0.561275 -0.385924
-2.722153 -2.177499 -0.198824 1437 0.759022 0.565388 -0.370111
-2.721739 -2.177158 -0.197726 1439 0.764977 0.570294 -0.354312
-2.720918 -2.176502 -0.196600 1431 0.776792 0.579735 -0.338111
-2.720225 -2.175944 -0.195485 1433 0.786761 0.587762 -0.322068
-2.720553 -2.176203 -0.194434 1437 0.782044 0.584036 -0.306945
-2.721801 -2.177195 -0.193436 1455 0.764085 0.569762 -0.292586
-2.722071 -2.177398 -0.192385 1471 0.760202 0.566843 -0.277463
-2.721543 -2.176973 -0.191277 1475 0.767797 0.572956 -0.261521
-2.720551 -2.176178 -0.190142 1469 0.782071 0.584397 -0.245190
-2.720365 -2.176018 -0.189065 1471 0.784747 0.586698 -0.229694
-2.720521 -2.176137 -0.188004 1467 0.782503 0.584987 -0.214428
-2.720278 -2.175935 -0.186915 1463 0.785999 0.587892 -0.198758
-2.720313 -2.175963 -0.185845 1473 0.785495 0.587491 -0.183363
-2.720641 -2.176223 -0.184792 1475 0.780778 0.583748 -0.168212
-2.721083 -2.176565 -0.183741 1487 0.774418 0.578829 -0.153089
-2.721011 -2.176502 -0.182671 1485 0.775454 0.579735 -0.137694
-2.720761 -2.176294 -0.181582 1485 0.779049 0.582726 -0.122025
-2.720575 -2.176148 -0.180493 1477 0.781725 0.584829 -0.106355
-2.720553 -2.176121 -0.179423 1473 0.782044 0.585216 -0.090960
-2.720709 -2.176239 -0.178362 1471 0.779797 0.583518 -0.075694
-2.720972 -2.176450 -0.177302 1465 0.776013 0.580482 -0.060442
-2.721521 -2.176883 -0.176259 1473 0.768116 0.574253 -0.045435
-2.721628 -2.176953 -0.175198 1483 0.766576 0.573244 -0.030169
-2.720572 -2.176109 -0.174063 1473 0.781769 0.585388 -0.013837
-2.719644 -2.175363 -0.172938 1457 0.795121 0.596122 0.002349
-2.719686 -2.175385 -0.171877 1463 0.794517 0.595806 0.017616
-2.720284 -2.175867 -0.170834 1477 0.785913 0.588870 0.032623
-2.721062 -2.176481 -0.169800 1469 0.774720 0.580036 0.047501
-2.721510 -2.176831 -0.168759 1459 0.768274 0.575000 0.062479
-2.721767 -2.177034 -0.167696 1469 0.764576 0.572081 0.077774
-2.721809 -2.177056 -0.166626 1473 0.763972 0.571762 0.093170
-2.721616 -2.176903 -0.165547 1469 0.766747 0.573964 0.108695
-2.721594 -2.176875 -0.164467 1461 0.767063 0.574366 0.124234
-2.721572 -2.176848 -0.163397 1455 0.767382 0.574757 0.139630
-2.721721 -2.176974 -0.162327 1449 0.765238 0.572942 0.155026
-2.722327 -2.177449 -0.161294 1441 0.756518 0.566109 0.169889
-2.723339 -2.178253 -0.160269 1445 0.741955 0.554541 0.184637
-2.724231 -2.178965 -0.159234 1459 0.729122 0.544294 0.199529
-2.724266 -2.178980 -0.158164 1461 0.728617 0.544078 0.214925
-2.724016 -2.178771 -0.157086 1453 0.732216 0.547087 0.230436
-2.723580 -2.178422 -0.155987 1439 0.738490 0.552109 0.246249
-2.723508 -2.178360 -0.154908 1435 0.739526 0.553001 0.261774
-2.723593 -2.178424 -0.153847 1433 0.738302 0.552081 0.277040
-2.723457 -2.178313 -0.152768 1415 0.740257 0.553677 0.292565
-2.723999 -2.178739 -0.151715 1415 0.732460 0.547546 0.307716
-2.724840 -2.179402 -0.150681 1417 0.720360 0.538006 0.322594
-2.725096 -2.179605 -0.149619 1417 0.716676 0.535087 0.337875
-2.725131 -2.179620 -0.148549 1413 0.716172 0.534871 0.353270
-2.725052 -2.179551 -0.147469 1405 0.717307 0.535865 0.368810
-2.725023 -2.179530 -0.146399 1399 0.717726 0.536167 0.384206
-2.725344 -2.179782 -0.145339 1397 0.713108 0.532541 0.399457
-2.726342 -2.180572 -0.144312 1395 0.698748 0.521173 0.414234
-2.727347 -2.181368 -0.143279 1393 0.684289 0.509718 0.429098
-2.727432 -2.181431 -0.142207 1391 0.683064 0.508813 0.444522
-2.727289 -2.181313 -0.141129 1381 0.685122 0.510511 0.460033
-2.728815 -2.182521 -0.140120 1381 0.663164 0.493129 0.474551
-2.729813 -2.183324 -0.139084 1375 0.648804 0.481575 0.489457
-2.729848 -2.183339 -0.138014 1361 0.648303 0.481359 0.504853
-2.730497 -2.183856 -0.136961 1353 0.638965 0.473921 0.520004
-2.731845 -2.184931 -0.135945 1345 0.619569 0.458453 0.534623
-2.733021 -2.185867 -0.134907 1345 0.602647 0.444985 0.549558
-2.733848 -2.186517 -0.133864 1343 0.590746 0.435634 0.564565
-2.734967 -2.187410 -0.132838 1343 0.574647 0.422783 0.579328
-2.735109 -2.187515 -0.131768 1337 0.572603 0.421274 0.594724
-2.735651 -2.187942 -0.130703 1331 0.564805 0.415130 0.610047
-2.736770 -2.188836 -0.129668 1329 0.548706 0.402265 0.624940
-2.737419 -2.189353 -0.128615 1321 0.539368 0.394828 0.640090
-2.738196 -2.189967 -0.127572 1309 0.528188 0.385995 0.655098
-2.739258 -2.190806 -0.126536 1293 0.512905 0.373923 0.670004
-2.739850 -2.191281 -0.125472 1277 0.504387 0.367086 0.685314
-2.740106 -2.191470 -0.124402 1253 0.500703 0.364369 0.700709
-2.741104 -2.192273 -0.123366 1243 0.486346 0.352815 0.715616
-2.742502 -2.193383 -0.122328 1227 0.466230 0.336843 0.730551
-2.744020 -2.194584 -0.121300 1213 0.444388 0.319563 0.745342
-2.745475 -2.195750 -0.120272 1189 0.423452 0.302785 0.760134
-2.746644 -2.196679 -0.119227 1169 0.406632 0.289416 0.775170
-2.747535 -2.197377 -0.118182 1147 0.393813 0.279375 0.790206
-2.748584 -2.198215 -0.117136 1117 0.378718 0.267317 0.805256
-2.750552 -2.199786 -0.116116 1087 0.350403 0.244714 0.819932
-2.752413 -2.201266 -0.115086 1047 0.323625 0.223417 0.834752
-2.753811 -2.202376 -0.114048 1007 0.303512 0.207448 0.849688
-2.755843 -2.203996 -0.113028 963 0.274274 0.184138 0.864364
-2.747480 -2.196605 -0.239398 1129 0.394605 0.290483 -0.953910
-2.745640 -2.195132 -0.238179 1149 0.421078 0.311677 -0.936370
-2.743984 -2.193799 -0.236968 1167 0.444906 0.330856 -0.918945
-2.742492 -2.192599 -0.235764 1183 0.466374 0.348122 -0.901622
-2.741408 -2.191727 -0.234601 1199 0.481969 0.360671 -0.884888
-2.740708 -2.191162 -0.233464 1213 0.492041 0.368798 -0.868528
-2.739609 -2.190290 -0.232310 1227 0.507856 0.381346 -0.851924
-2.738353 -2.189278 -0.231127 1241 0.525927 0.395909 -0.834902
-2.737426 -2.188532 -0.229981 1255 0.539265 0.406639 -0.818413
-2.736683 -2.187925 -0.228846 1267 0.549958 0.415373 -0.802082
-2.736219 -2.187548 -0.227728 1283 0.556634 0.420800 -0.785996
-2.735869 -2.187270 -0.226630 1291 0.561670 0.424800 -0.770197
-2.734770 -2.186384 -0.225466 1301 0.577481 0.437548 -0.753449
-2.733685 -2.185512 -0.224310 1307 0.593093 0.450093 -0.736816
-2.732928 -2.184905 -0.223176 1311 0.603985 0.458827 -0.720499
-2.733092 -2.185031 -0.222115 1329 0.601624 0.457016 -0.705233
-2.732856 -2.184836 -0.221016 1345 0.605021 0.459822 -0.689420
-2.731586 -2.183810 -0.219853 1347 0.623295 0.474583 -0.672686
-2.730893 -2.183252 -0.218726 1351 0.633267 0.482611 -0.656471
-2.730778 -2.183148 -0.217637 1361 0.634921 0.484110 -0.640802
-2.729851 -2.182402 -0.216502 1359 0.648258 0.494844 -0.624471
-2.728930 -2.181662 -0.215357 1363 0.661510 0.505489 -0.607996
-2.728116 -2.181013 -0.214221 1381 0.673222 0.514826 -0.591650
-2.727310 -2.180358 -0.213095 1385 0.684820 0.524253 -0.575449
-2.727751 -2.180700 -0.212052 1397 0.678474 0.519331 -0.560442
-2.727851 -2.180778 -0.210982 1405 0.677037 0.518209 -0.545046
-2.726987 -2.180080 -0.209847 1405 0.689469 0.528253 -0.528715
-2.726295 -2.179522 -0.208720 1403 0.699424 0.536281 -0.512499
-2.725538 -2.178916 -0.207604 1405 0.710316 0.545001 -0.496442
-2.725009 -2.178490 -0.206488 1413 0.717928 0.551131 -0.480384
-2.724595 -2.178149 -0.205390 1429 0.723883 0.556037 -0.464586
-2.724409 -2.178003 -0.204300 1431 0.726559 0.558136 -0.448902
-2.723831 -2.177529 -0.203194 1427 0.734878 0.564956 -0.432989
-2.723866 -2.177557 -0.202124 1439 0.734374 0.564555 -0.417593
-2.723687 -2.177404 -0.201035 1439 0.736950 0.566757 -0.401924
-2.722588 -2.176518 -0.199891 1433 0.752761 0.579505 -0.385463
-2.722581 -2.176505 -0.198821 1431 0.752864 0.579690 -0.370068
-2.722559 -2.176491 -0.197741 1433 0.753180 0.579892 -0.354528
-2.722087 -2.176108 -0.196642 1437 0.759972 0.585405 -0.338715
-2.721958 -2.175990 -0.195563 1447 0.761828 0.587100 -0.323190
-2.722065 -2.176074 -0.194493 1453 0.760288 0.585892 -0.307794
-2.721765 -2.175831 -0.193404 1453 0.764603 0.589388 -0.292125
-2.721629 -2.175719 -0.192326 1451 0.766562 0.591000 -0.276614
-2.721272 -2.175420 -0.191227 1449 0.771697 0.595302 -0.260802
-2.720857 -2.175092 -0.190129 1457 0.777670 0.600022 -0.245003
-2.721128 -2.175295 -0.189078 1469 0.773769 0.597100 -0.229881
-2.721741 -2.175777 -0.188035 1477 0.764950 0.590167 -0.214873
-2.721947 -2.175946 -0.186974 1481 0.761986 0.587734 -0.199607
-2.721304 -2.175422 -0.185868 1469 0.771238 0.595275 -0.183694
-2.721290 -2.175402 -0.184798 1463 0.771437 0.595563 -0.168298
-2.721617 -2.175661 -0.183745 1479 0.766734 0.591834 -0.153147
-2.721374 -2.175459 -0.182658 1485 0.770229 0.594743 -0.137507
-2.721467 -2.175529 -0.181586 1493 0.768891 0.593734 -0.122082
-2.721330 -2.175418 -0.180506 1483 0.770864 0.595333 -0.106543
-2.721658 -2.175677 -0.179455 1475 0.766144 0.591604 -0.091420
-2.721579 -2.175608 -0.178376 1473 0.767279 0.592599 -0.075895
-2.721343 -2.175413 -0.177287 1469 0.770675 0.595405 -0.060226
-2.721892 -2.175847 -0.176255 1485 0.762775 0.589158 -0.045377
-2.721014 -2.175135 -0.175129 1469 0.775409 0.599405 -0.029176
-2.720707 -2.174885 -0.174040 1467 0.779828 0.603000 -0.013507
-2.721205 -2.175283 -0.172997 1481 0.772661 0.597275 0.001501
-2.721248 -2.175304 -0.171927 1467 0.772044 0.596973 0.016896
-2.721333 -2.175368 -0.170857 1463 0.770819 0.596050 0.032292
-2.721368 -2.175396 -0.169787 1473 0.770315 0.595649 0.047688
-2.721475 -2.175466 -0.168726 1463 0.768778 0.594640 0.062954
-2.721681 -2.175635 -0.167666 1461 0.765811 0.592208 0.078206
-2.721887 -2.175789 -0.166604 1461 0.762847 0.589992 0.093486
-2.722543 -2.176313 -0.165560 1465 0.753410 0.582455 0.108508
-2.722699 -2.176432 -0.164500 1465 0.751166 0.580743 0.123760
-2.722278 -2.176084 -0.163403 1461 0.757221 0.585748 0.139544
-2.722370 -2.176154 -0.162331 1457 0.755900 0.584743 0.154968
-2.723090 -2.176727 -0.161297 1451 0.745540 0.576496 0.169846
-2.723475 -2.177027 -0.160246 1449 0.740000 0.572181 0.184968
-2.723852 -2.177321 -0.159194 1441 0.734576 0.567951 0.200105
-2.724166 -2.177566 -0.158133 1431 0.730058 0.564424 0.215371
-2.724094 -2.177504 -0.157063 1429 0.731094 0.565316 0.230767
-2.723658 -2.177155 -0.155964 1433 0.737365 0.570338 0.246580
-2.723701 -2.177177 -0.154894 1433 0.736748 0.570023 0.261975
-2.724306 -2.177652 -0.153851 1437 0.728041 0.563189 0.276983
-2.724398 -2.177722 -0.152781 1421 0.726720 0.562181 0.292378
-2.724997 -2.178205 -0.151738 1413 0.718100 0.555231 0.307385
-2.725432 -2.178540 -0.150685 1419 0.711842 0.550411 0.322537
-2.725060 -2.178241 -0.149598 1415 0.717194 0.554713 0.338177
-2.725438 -2.178535 -0.148535 1411 0.711753 0.550483 0.353472
-2.726044 -2.179010 -0.147492 1403 0.703036 0.543649 0.368479
-2.726364 -2.179261 -0.146431 1403 0.698433 0.540037 0.383745
-2.726620 -2.179464 -0.145369 1395 0.694748 0.537114 0.399026
-2.726827 -2.179619 -0.144309 1393 0.691771 0.534884 0.414278
-2.728003 -2.180554 -0.143282 1399 0.674848 0.521433 0.429055
-2.729180 -2.181490 -0.142256 1391 0.657912 0.507965 0.443817
-2.730121 -2.182238 -0.141221 1383 0.644375 0.497201 0.458709
-2.731005 -2.182943 -0.140187 1379 0.631655 0.487057 0.473587
-2.731040 -2.182957 -0.139117 1375 0.631151 0.486858 0.488983
-2.731011 -2.182937 -0.138037 1367 0.631569 0.487146 0.504522
-2.731153 -2.183043 -0.136965 1359 0.629525 0.485619 0.519947
-2.731809 -2.183567 -0.135922 1355 0.620087 0.478079 0.534954
-2.733163 -2.184635 -0.134896 1347 0.600602 0.462714 0.549716
-2.734504 -2.185703 -0.133868 1343 0.581309 0.447345 0.564508
-2.735109 -2.186178 -0.132815 1333 0.572603 0.440512 0.579659
-2.735822 -2.186744 -0.131772 1331 0.562345 0.432368 0.594666
-2.736414 -2.187219 -0.130719 1327 0.553828 0.425534 0.609817
-2.737141 -2.187785 -0.129664 1317 0.543368 0.417390 0.624997
-2.738246 -2.188665 -0.128628 1315 0.527468 0.404728 0.639903
-2.739365 -2.189559 -0.127593 1307 0.511365 0.391864 0.654796
-2.739907 -2.189985 -0.126540 1291 0.503568 0.385734 0.669947
-2.740277 -2.190272 -0.125468 1265 0.498243 0.381604 0.685371
-2.740762 -2.190656 -0.124405 1247 0.491266 0.376080 0.700666
-2.741760 -2.191446 -0.123370 1233 0.476906 0.364712 0.715558
-2.743443 -2.192793 -0.122342 1227 0.452690 0.345333 0.730350
-2.745076 -2.194092 -0.121323 1213 0.429195 0.326640 0.745011
-2.746195 -2.194972 -0.120276 1185 0.413092 0.313978 0.760076
-2.746673 -2.195349 -0.119214 1169 0.406214 0.308555 0.775357
-2.748356 -2.196697 -0.118186 1149 0.381998 0.289159 0.790148
-2.750331 -2.198260 -0.117175 1121 0.353583 0.266669 0.804695
-2.751443 -2.199147 -0.116129 1083 0.337584 0.253907 0.819745
-2.752905 -2.200306 -0.115092 1049 0.316548 0.237232 0.834666
-2.754524 -2.201605 -0.114062 1009 0.293251 0.218539 0.849486
-2.756670 -2.203308 -0.113041 961 0.262374 0.194035 0.864177
-2.748321 -2.195903 -0.239413 1135 0.382502 0.300582 -0.954125
-2.746209 -2.194207 -0.238173 1153 0.412893 0.324987 -0.936283
-2.744539 -2.192874 -0.236962 1169 0.436920 0.344167 -0.918859
-2.743569 -2.192086 -0.235808 1187 0.450879 0.355504 -0.902255
-2.742356 -2.191116 -0.234623 1197 0.468330 0.369460 -0.885204
-2.741549 -2.190460 -0.233489 1211 0.479942 0.378900 -0.868888
-2.740571 -2.189679 -0.232333 1229 0.494014 0.390139 -0.852255
-2.739544 -2.188848 -0.231169 1245 0.508792 0.402094 -0.835507
-2.738495 -2.188011 -0.230013 1257 0.523883 0.414138 -0.818873
-2.737923 -2.187544 -0.228898 1269 0.532116 0.420855 -0.802830
-2.736831 -2.186665 -0.227732 1279 0.547828 0.433503 -0.786053
-2.735682 -2.185744 -0.226569 1285 0.564359 0.446755 -0.769320
-2.735332 -2.185465 -0.225461 1299 0.569395 0.450769 -0.753377
-2.734633 -2.184900 -0.224335 1303 0.579453 0.458899 -0.737176
-2.733477 -2.183972 -0.223170 1305 0.596084 0.472254 -0.720413
-2.733013 -2.183596 -0.222064 1317 0.602763 0.477664 -0.704499
-2.732499 -2.183171 -0.220946 1331 0.610159 0.483777 -0.688413
-2.731977 -2.182752 -0.219838 1337 0.617669 0.489808 -0.672471
-2.732133 -2.182871 -0.218768 1349 0.615425 0.488093 -0.657075
-2.731669 -2.182495 -0.217659 1361 0.622101 0.493502 -0.641118
-2.730577 -2.181616 -0.216506 1367 0.637813 0.506151 -0.624528
-2.729357 -2.180639 -0.215342 1375 0.655366 0.520209 -0.607780
-2.729014 -2.180353 -0.214243 1383 0.660303 0.524325 -0.591967
-2.729178 -2.180480 -0.213183 1387 0.657943 0.522497 -0.576715
-2.728928 -2.180285 -0.212084 1393 0.661538 0.525303 -0.560902
-2.729098 -2.180404 -0.211024 1405 0.659092 0.523591 -0.545650
-2.728513 -2.179937 -0.209906 1403 0.667510 0.530312 -0.529564
-2.727242 -2.178911 -0.208745 1399 0.685798 0.545073 -0.512859
-2.726372 -2.178221 -0.207619 1405 0.698316 0.555001 -0.496658
-2.725672 -2.177656 -0.206492 1415 0.708388 0.563131 -0.480442
-2.724516 -2.176728 -0.205348 1421 0.725022 0.576482 -0.463981
-2.724159 -2.176428 -0.204251 1423 0.730158 0.580798 -0.448197
-2.724786 -2.176924 -0.203217 1433 0.721136 0.573663 -0.433320
-2.725050 -2.177135 -0.202155 1441 0.717338 0.570627 -0.418039
-2.724471 -2.176660 -0.201048 1443 0.725667 0.577460 -0.402111
-2.723650 -2.176005 -0.199923 1445 0.737482 0.586887 -0.385924
-2.723414 -2.175810 -0.198834 1443 0.740878 0.589690 -0.370255
-2.723343 -2.175747 -0.197754 1437 0.741900 0.590599 -0.354715
-2.723556 -2.175909 -0.196694 1441 0.738833 0.588266 -0.339463
-2.723719 -2.176035 -0.195632 1461 0.736490 0.586455 -0.324183
-2.723356 -2.175742 -0.194535 1461 0.741712 0.590671 -0.308399
-2.722777 -2.175268 -0.193427 1459 0.750044 0.597491 -0.292456
-2.722812 -2.175297 -0.192357 1457 0.749540 0.597072 -0.277061
-2.722448 -2.175004 -0.191260 1457 0.754775 0.601288 -0.261276
-2.722326 -2.174893 -0.190180 1469 0.756531 0.602887 -0.245737
-2.722711 -2.175194 -0.189127 1481 0.750991 0.598554 -0.230586
-2.722290 -2.174859 -0.188040 1479 0.757049 0.603374 -0.214945
-2.721312 -2.174064 -0.186905 1473 0.771121 0.614815 -0.198614
-2.721004 -2.173813 -0.185816 1471 0.775553 0.618424 -0.182946
-2.721960 -2.174575 -0.184802 1479 0.761797 0.607460 -0.168355
-2.722116 -2.174694 -0.183732 1493 0.759554 0.605748 -0.152960
-2.721352 -2.174080 -0.182616 1485 0.770545 0.614585 -0.136902
-2.721337 -2.174060 -0.181546 1495 0.770761 0.614870 -0.121507
-2.721722 -2.174361 -0.180493 1489 0.765224 0.610540 -0.106355
-2.722107 -2.174661 -0.179442 1475 0.759684 0.606225 -0.091233
-2.722142 -2.174690 -0.178370 1465 0.759180 0.605806 -0.075809
-2.722234 -2.174760 -0.177310 1465 0.757855 0.604798 -0.060557
-2.722562 -2.175019 -0.176259 1463 0.753135 0.601072 -0.045435
-2.722255 -2.174768 -0.175169 1469 0.757554 0.604684 -0.029751
