768
1.238890 1.419900 -0.110020 1507 -0.375569 -0.837577 -0.389447
1.238510 1.419470 -0.108540 1507 -0.381038 -0.843763 -0.368152
1.238190 1.419090 -0.107060 1509 -0.385641 -0.849230 -0.346857
1.237910 1.418770 -0.105590 1527 -0.389670 -0.853835 -0.325706
1.237480 1.418280 -0.104110 1529 -0.395857 -0.860885 -0.304411
1.236520 1.417180 -0.102580 1513 -0.409670 -0.876713 -0.282396
1.236190 1.416800 -0.101110 1525 -0.414420 -0.882180 -0.261245
1.236480 1.417130 -0.099690 1535 -0.410246 -0.877432 -0.240814
1.236190 1.416810 -0.098220 1533 -0.414420 -0.882036 -0.219663
1.235860 1.416420 -0.096750 1551 -0.419167 -0.887648 -0.198511
1.235720 1.416260 -0.095290 1557 -0.421181 -0.889950 -0.177504
1.235480 1.415990 -0.093830 1557 -0.424635 -0.893835 -0.156497
1.235240 1.415710 -0.092370 1553 -0.428088 -0.897864 -0.135490
1.235240 1.415710 -0.090930 1565 -0.428088 -0.897864 -0.114770
1.235090 1.415530 -0.089470 1567 -0.430246 -0.900454 -0.093763
1.235280 1.415750 -0.088040 1571 -0.427512 -0.897287 -0.073188
1.235320 1.415800 -0.086600 1577 -0.426937 -0.896569 -0.052468
1.235130 1.415580 -0.085150 1569 -0.429671 -0.899733 -0.031605
1.235030 1.415460 -0.083700 1577 -0.431109 -0.901461 -0.010742
1.234830 1.415230 -0.082240 1575 -0.433987 -0.904769 0.010266
1.234780 1.415170 -0.080800 1571 -0.434707 -0.905634 0.030985
1.234860 1.415270 -0.079360 1569 -0.433556 -0.904195 0.051704
1.234950 1.415370 -0.077930 1569 -0.432261 -0.902756 0.072280
1.234940 1.415360 -0.076480 1565 -0.432404 -0.902900 0.093143
1.235410 1.415900 -0.075070 1559 -0.425642 -0.895130 0.113431
1.235740 1.416270 -0.073650 1569 -0.420895 -0.889806 0.133863
1.235970 1.416540 -0.072220 1569 -0.417584 -0.885921 0.154438
1.236150 1.416740 -0.070790 1569 -0.414994 -0.883044 0.175014
1.236040 1.416620 -0.069340 1557 -0.416577 -0.884770 0.195877
1.235830 1.416380 -0.067880 1549 -0.419600 -0.888222 0.216884
1.235820 1.416360 -0.066440 1541 -0.419742 -0.888511 0.237604
1.236910 1.417610 -0.065060 1551 -0.404059 -0.870525 0.257460
1.238280 1.419190 -0.063680 1551 -0.384346 -0.847791 0.277316
1.238370 1.419280 -0.062240 1547 -0.383053 -0.846496 0.298035
1.237530 1.418320 -0.060760 1533 -0.395139 -0.860310 0.319330
1.237370 1.418140 -0.059310 1529 -0.397440 -0.862899 0.340194
1.238030 1.418890 -0.057890 1519 -0.387945 -0.852108 0.360625
1.239210 1.420240 -0.056500 1515 -0.370966 -0.832683 0.380625
1.239380 1.420440 -0.055060 1509 -0.368520 -0.829806 0.401345
1.238780 1.419750 -0.053590 1499 -0.377152 -0.839734 0.422496
1.239430 1.420500 -0.052180 1501 -0.367801 -0.828942 0.442784
1.240760 1.422010 -0.050780 1497 -0.348664 -0.807217 0.462927
1.241790 1.423200 -0.049380 1501 -0.333843 -0.790093 0.483071
1.242300 1.423780 -0.047950 1477 -0.326505 -0.781749 0.503647
1.242560 1.424070 -0.046510 1469 -0.322764 -0.777576 0.524366
1.242970 1.424550 -0.045080 1465 -0.316865 -0.770668 0.544942
1.243180 1.424790 -0.043630 1455 -0.313843 -0.767216 0.565805
1.243930 1.425640 -0.042210 1441 -0.303052 -0.754986 0.586237
1.245000 1.426870 -0.040790 1435 -0.287656 -0.737288 0.606668
1.245940 1.427940 -0.039370 1425 -0.274132 -0.721892 0.627100
1.246870 1.429010 -0.037950 1407 -0.260749 -0.706496 0.647532
1.247900 1.430180 -0.036520 1391 -0.245930 -0.689663 0.668107
1.248740 1.431140 -0.035090 1381 -0.233844 -0.675850 0.688683
1.249660 1.432200 -0.033660 1365 -0.220606 -0.660598 0.709258
1.250980 1.433710 -0.032240 1347 -0.201613 -0.638871 0.729690
1.252000 1.434880 -0.030800 1337 -0.186937 -0.622036 0.750409
1.253410 1.436500 -0.029380 1317 -0.166649 -0.598727 0.770841
1.254970 1.438280 -0.027950 1299 -0.144204 -0.573115 0.791417
1.256030 1.439500 -0.026510 1269 -0.128952 -0.555562 0.812136
1.256770 1.440340 -0.025060 1231 -0.118304 -0.543474 0.832999
1.258650 1.442500 -0.023630 1193 -0.091254 -0.512396 0.853575
1.260920 1.445100 -0.022200 1151 -0.058591 -0.474986 0.874150
1.263050 1.447540 -0.020770 1091 -0.027945 -0.439877 0.894726
1.266090 1.451010 -0.019340 1023 0.015797 -0.389950 0.915302
1.261850 1.444090 -0.142960 1097 -0.045210 -0.489518 -0.863403
1.259040 1.440880 -0.141170 1159 -0.085642 -0.535706 -0.837648
1.256810 1.438330 -0.139440 1199 -0.117729 -0.572395 -0.812756
1.255010 1.436270 -0.137780 1239 -0.143627 -0.602036 -0.788871
1.253980 1.435080 -0.136190 1277 -0.158447 -0.619158 -0.765993
1.252850 1.433790 -0.134610 1297 -0.174706 -0.637720 -0.743260
1.251810 1.432610 -0.133030 1325 -0.189671 -0.654697 -0.720526
1.251010 1.431690 -0.131480 1347 -0.201182 -0.667936 -0.698224
1.250120 1.430670 -0.129930 1363 -0.213987 -0.682611 -0.675922
1.248750 1.429100 -0.128320 1379 -0.233700 -0.705201 -0.652756
1.247420 1.427580 -0.126730 1389 -0.252837 -0.727072 -0.629878
1.246770 1.426840 -0.125200 1401 -0.262188 -0.737720 -0.607864
1.245770 1.425700 -0.123650 1415 -0.276578 -0.754123 -0.585562
1.244880 1.424670 -0.122100 1427 -0.289384 -0.768943 -0.563260
1.244360 1.424080 -0.120600 1445 -0.296865 -0.777432 -0.541677
1.243550 1.423160 -0.119060 1455 -0.308520 -0.790670 -0.519519
1.242850 1.422350 -0.117540 1465 -0.318592 -0.802323 -0.497648
1.242240 1.421650 -0.116030 1465 -0.327369 -0.812395 -0.475922
1.241480 1.420780 -0.114510 1477 -0.338304 -0.824915 -0.454051
1.241010 1.420250 -0.113020 1489 -0.345067 -0.832539 -0.432612
1.240630 1.419820 -0.111530 1501 -0.350534 -0.838727 -0.411173
1.240210 1.419330 -0.110050 1503 -0.356576 -0.845777 -0.389878
1.240120 1.419230 -0.108590 1505 -0.357871 -0.847216 -0.368871
1.239930 1.419010 -0.107120 1511 -0.360606 -0.850381 -0.347720
1.239750 1.418800 -0.105660 1531 -0.363196 -0.853403 -0.326713
1.238940 1.417870 -0.104140 1525 -0.374851 -0.866784 -0.304842
1.238230 1.417060 -0.102640 1535 -0.385067 -0.878439 -0.283260
1.238130 1.416950 -0.101180 1527 -0.386506 -0.880022 -0.262253
1.238330 1.417170 -0.099750 1545 -0.383628 -0.876855 -0.241677
1.237850 1.416620 -0.098270 1553 -0.390535 -0.884770 -0.220382
1.237660 1.416410 -0.096810 1555 -0.393267 -0.887792 -0.199375
1.237510 1.416240 -0.095350 1557 -0.395427 -0.890238 -0.178368
1.236700 1.415310 -0.093850 1549 -0.407080 -0.903618 -0.156785
1.236500 1.415080 -0.092390 1547 -0.409958 -0.906929 -0.135778
1.236600 1.415190 -0.090950 1557 -0.408519 -0.905346 -0.115058
1.236360 1.414920 -0.089490 1555 -0.411974 -0.909231 -0.094051
1.236400 1.414970 -0.088050 1561 -0.411397 -0.908510 -0.073332
1.236450 1.415020 -0.086610 1567 -0.410679 -0.907792 -0.052612
1.236440 1.415010 -0.085170 1563 -0.410823 -0.907936 -0.031893
1.236580 1.415170 -0.083730 1565 -0.408807 -0.905634 -0.011173
1.236810 1.415430 -0.082310 1561 -0.405499 -0.901893 0.009258
1.236660 1.415260 -0.080850 1575 -0.407656 -0.904339 0.030266
1.236030 1.414540 -0.079370 1563 -0.416721 -0.914697 0.051560
1.236360 1.414920 -0.077950 1569 -0.411974 -0.909231 0.071992
1.236740 1.415340 -0.076530 1559 -0.406505 -0.903188 0.092424
1.236630 1.415220 -0.075080 1557 -0.408089 -0.904913 0.113287
1.236710 1.415320 -0.073650 1543 -0.406938 -0.903474 0.133863
1.237140 1.415800 -0.072230 1561 -0.400749 -0.896569 0.154294
1.237080 1.415730 -0.070780 1557 -0.401614 -0.897576 0.175158
1.237160 1.415820 -0.069340 1555 -0.400463 -0.896281 0.195877
1.237440 1.416140 -0.067920 1553 -0.396434 -0.891677 0.216309
1.237850 1.416620 -0.066500 1541 -0.390535 -0.884770 0.236740
1.238470 1.417320 -0.065080 1545 -0.381614 -0.874698 0.257172
1.238880 1.417790 -0.063660 1545 -0.375713 -0.867935 0.277604
1.238910 1.417830 -0.062220 1535 -0.375283 -0.867360 0.298323
1.239040 1.417970 -0.060780 1531 -0.373412 -0.865346 0.319043
1.239410 1.418390 -0.059350 1535 -0.368087 -0.859302 0.339618
1.239920 1.418970 -0.057930 1521 -0.360750 -0.850957 0.360050
1.240530 1.419670 -0.056520 1525 -0.351973 -0.840885 0.380337
1.240750 1.419920 -0.055080 1519 -0.348808 -0.837288 0.401057
1.241250 1.420500 -0.053660 1503 -0.341613 -0.828942 0.421489
1.241810 1.421140 -0.052230 1497 -0.333556 -0.819735 0.442064
1.242270 1.421660 -0.050800 1493 -0.326937 -0.812253 0.462640
1.242970 1.422460 -0.049380 1481 -0.316865 -0.800742 0.483071
1.243520 1.423090 -0.047960 1477 -0.308951 -0.791677 0.503503
1.243590 1.423170 -0.046510 1465 -0.307944 -0.790526 0.524366
1.244190 1.423860 -0.045080 1463 -0.299311 -0.780598 0.544942
1.244650 1.424380 -0.043650 1449 -0.292692 -0.773116 0.565517
1.245440 1.425290 -0.042230 1437 -0.281325 -0.760022 0.585949
1.245890 1.425800 -0.040790 1427 -0.274850 -0.752684 0.606668
1.246490 1.426490 -0.039360 1415 -0.266217 -0.742756 0.627244
1.248050 1.428270 -0.037950 1411 -0.243772 -0.717144 0.647532
1.249080 1.429440 -0.036530 1395 -0.228952 -0.700309 0.667963
1.249820 1.430290 -0.035090 1371 -0.218304 -0.688079 0.688683
1.251330 1.432010 -0.033680 1367 -0.196577 -0.663330 0.708971
1.252740 1.433630 -0.032260 1349 -0.176289 -0.640022 0.729402
1.253860 1.434910 -0.030820 1327 -0.160174 -0.621604 0.750122
1.255460 1.436740 -0.029400 1317 -0.137152 -0.595273 0.770553
1.256390 1.437800 -0.027960 1293 -0.123772 -0.580021 0.791273
1.257130 1.438650 -0.026510 1257 -0.113124 -0.567791 0.812136
1.258190 1.439860 -0.025070 1217 -0.097872 -0.550382 0.832855
1.259990 1.441920 -0.023640 1179 -0.071973 -0.520741 0.853431
1.262550 1.444840 -0.022210 1139 -0.035138 -0.478727 0.874007
1.265150 1.447820 -0.020790 1075 0.002271 -0.435850 0.894438
1.263730 1.444090 -0.143050 1083 -0.018159 -0.489518 -0.864699
1.261110 1.441100 -0.141280 1145 -0.055859 -0.532540 -0.839231
1.258490 1.438110 -0.139510 1191 -0.093556 -0.575561 -0.813763
1.256740 1.436110 -0.137850 1225 -0.118736 -0.604338 -0.789878
1.255610 1.434820 -0.136260 1259 -0.134995 -0.622899 -0.767001
1.254390 1.433420 -0.134660 1283 -0.152548 -0.643044 -0.743979
1.253730 1.432670 -0.133120 1309 -0.162044 -0.653835 -0.721821
1.252690 1.431480 -0.131550 1337 -0.177010 -0.670956 -0.699231
1.250990 1.429530 -0.129910 1341 -0.201469 -0.699014 -0.675634
1.249900 1.428290 -0.128330 1367 -0.217153 -0.716856 -0.652900
1.248860 1.427110 -0.126770 1383 -0.232117 -0.733835 -0.630454
1.248100 1.426240 -0.125230 1399 -0.243051 -0.746353 -0.608296
1.247120 1.425110 -0.123670 1411 -0.257152 -0.762612 -0.585850
1.245830 1.423640 -0.122090 1425 -0.275713 -0.783763 -0.563116
1.245460 1.423220 -0.120600 1439 -0.281037 -0.789805 -0.541677
1.245180 1.422900 -0.119120 1447 -0.285066 -0.794411 -0.520382
1.244180 1.421760 -0.117570 1455 -0.299455 -0.810814 -0.498080
1.243380 1.420840 -0.116040 1463 -0.310966 -0.824050 -0.476065
1.242960 1.420360 -0.114550 1473 -0.317009 -0.830957 -0.454627
1.242490 1.419820 -0.113060 1489 -0.323771 -0.838727 -0.433188
1.242060 1.419340 -0.111570 1495 -0.329959 -0.845633 -0.411749
1.241780 1.419020 -0.110090 1503 -0.333987 -0.850237 -0.390454
1.241460 1.418640 -0.108610 1505 -0.338592 -0.855705 -0.369159
1.240790 1.417880 -0.107110 1513 -0.348232 -0.866640 -0.347576
1.240270 1.417290 -0.105620 1529 -0.355714 -0.875130 -0.326137
1.239600 1.416520 -0.104110 1529 -0.365355 -0.886209 -0.304411
1.239550 1.416470 -0.102660 1535 -0.366074 -0.886927 -0.283547
1.239560 1.416470 -0.101210 1537 -0.365930 -0.886927 -0.262684
1.238890 1.415700 -0.099710 1537 -0.375569 -0.898008 -0.241101
1.238510 1.415270 -0.098240 1539 -0.381038 -0.904195 -0.219950
1.238460 1.415220 -0.096790 1551 -0.381758 -0.904913 -0.199087
1.238270 1.415000 -0.095330 1543 -0.384490 -0.908080 -0.178080
1.237840 1.414510 -0.093850 1541 -0.390677 -0.915129 -0.156785
1.237740 1.414390 -0.092400 1551 -0.392116 -0.916857 -0.135922
1.237790 1.414450 -0.090960 1555 -0.391398 -0.915992 -0.115202
1.237840 1.414500 -0.089520 1563 -0.390677 -0.915273 -0.094483
1.237830 1.414490 -0.088080 1563 -0.390821 -0.915418 -0.073763
1.237830 1.414490 -0.086640 1561 -0.390821 -0.915418 -0.053044
1.237820 1.414480 -0.085190 1561 -0.390965 -0.915562 -0.032181
1.237810 1.414470 -0.083750 1559 -0.391109 -0.915706 -0.011461
1.237620 1.414250 -0.082290 1553 -0.393843 -0.918870 0.009546
1.237370 1.413970 -0.080830 1555 -0.397440 -0.922899 0.030553
1.237660 1.414290 -0.079410 1561 -0.393267 -0.918296 0.050985
1.237980 1.414660 -0.077990 1555 -0.388663 -0.912972 0.071417
1.238120 1.414810 -0.076550 1563 -0.386650 -0.910814 0.092136
1.238200 1.414910 -0.075110 1559 -0.385499 -0.909375 0.112855
1.238290 1.415010 -0.073680 1551 -0.384204 -0.907936 0.133431
1.238380 1.415110 -0.072240 1565 -0.382909 -0.906497 0.154150
1.238510 1.415260 -0.070800 1557 -0.381038 -0.904339 0.174870
1.238550 1.415300 -0.069360 1555 -0.380463 -0.903763 0.195589
1.238860 1.415660 -0.067940 1549 -0.376002 -0.898582 0.216021
1.239380 1.416250 -0.066520 1545 -0.368520 -0.890094 0.236453
1.239320 1.416180 -0.065070 1539 -0.369382 -0.891101 0.257316
1.239640 1.416550 -0.063650 1539 -0.364779 -0.885776 0.277748
1.240680 1.417740 -0.062250 1537 -0.349815 -0.868655 0.297891
1.240900 1.417990 -0.060820 1529 -0.346649 -0.865058 0.318467
1.240840 1.417920 -0.059370 1521 -0.347513 -0.866065 0.339330
1.241110 1.418230 -0.057940 1519 -0.343628 -0.861604 0.359906
1.241620 1.418810 -0.056520 1521 -0.336290 -0.853259 0.380337
1.241700 1.418900 -0.055080 1501 -0.335138 -0.851964 0.401057
1.242350 1.419640 -0.053660 1501 -0.325786 -0.841317 0.421489
1.242910 1.420280 -0.052230 1495 -0.317728 -0.832108 0.442064
1.243080 1.420470 -0.050790 1489 -0.315282 -0.829374 0.462783
1.243590 1.421050 -0.049370 1467 -0.307944 -0.821030 0.483215
1.244280 1.421840 -0.047950 1471 -0.298016 -0.809663 0.503647
1.244640 1.422250 -0.046510 1463 -0.292836 -0.803762 0.524366
1.245000 1.422660 -0.045070 1459 -0.287656 -0.797863 0.545086
1.246080 1.423900 -0.043660 1449 -0.272116 -0.780022 0.565373
1.247020 1.424970 -0.042240 1431 -0.258592 -0.764626 0.585805
1.247140 1.425110 -0.040800 1421 -0.256864 -0.762612 0.606524
1.247590 1.425620 -0.039360 1403 -0.250391 -0.755274 0.627244
1.248860 1.427070 -0.037940 1405 -0.232117 -0.734410 0.647676
1.250570 1.429020 -0.036540 1397 -0.207512 -0.706352 0.667819
1.251980 1.430630 -0.035120 1377 -0.187225 -0.683188 0.688251
1.253110 1.431920 -0.033700 1361 -0.170965 -0.664625 0.708683
1.254710 1.433750 -0.032280 1351 -0.147945 -0.638295 0.729114
1.255540 1.434700 -0.030840 1321 -0.136002 -0.624626 0.749834
1.256470 1.435760 -0.029400 1303 -0.122621 -0.609374 0.770553
1.257690 1.437150 -0.027960 1281 -0.105067 -0.589374 0.791273
1.258860 1.438490 -0.026530 1249 -0.088232 -0.570093 0.811848
1.260360 1.440200 -0.025090 1213 -0.066649 -0.545490 0.832568
1.261870 1.441920 -0.023650 1169 -0.044922 -0.520741 0.853287
1.263810 1.444130 -0.022220 1119 -0.017008 -0.488943 0.873863
1.266660 1.447390 -0.020790 1055 0.023998 -0.442037 0.894438
1.265670 1.444040 -0.143140 1077 0.009753 -0.490238 -0.865994
1.263190 1.441210 -0.141390 1131 -0.025929 -0.530956 -0.840814
1.261010 1.438720 -0.139670 1179 -0.057296 -0.566784 -0.816065
1.259060 1.436500 -0.137980 1213 -0.085354 -0.598727 -0.791749
1.257160 1.434340 -0.136300 1247 -0.112693 -0.629806 -0.767576
1.255640 1.432610 -0.134670 1271 -0.134562 -0.654697 -0.744123
1.255030 1.431910 -0.133140 1297 -0.143339 -0.664769 -0.722109
1.253950 1.430680 -0.131560 1331 -0.158879 -0.682467 -0.699375
1.252810 1.429380 -0.129980 1345 -0.175282 -0.701172 -0.676641
1.252020 1.428470 -0.128440 1365 -0.186649 -0.714266 -0.654483
1.250690 1.426950 -0.126840 1379 -0.205786 -0.736137 -0.631461
1.249410 1.425490 -0.125250 1397 -0.224203 -0.757144 -0.608583
1.248600 1.424580 -0.123710 1415 -0.235858 -0.770238 -0.586425
1.247610 1.423440 -0.122160 1419 -0.250103 -0.786641 -0.564123
1.247040 1.422790 -0.120650 1427 -0.258303 -0.795992 -0.542396
1.246680 1.422380 -0.119160 1443 -0.263483 -0.801893 -0.520957
1.245680 1.421240 -0.117610 1453 -0.277873 -0.818295 -0.498655
1.244820 1.420260 -0.116070 1471 -0.290246 -0.832396 -0.476497
1.244110 1.419450 -0.114560 1475 -0.300462 -0.844050 -0.454770
1.243730 1.419020 -0.113070 1483 -0.305930 -0.850237 -0.433332
1.243360 1.418590 -0.111590 1485 -0.311253 -0.856425 -0.412037
1.243030 1.418220 -0.110110 1487 -0.316002 -0.861748 -0.390742
1.243040 1.418230 -0.108660 1499 -0.315858 -0.861604 -0.369878
1.242610 1.417740 -0.107170 1511 -0.322045 -0.868655 -0.348440
1.241710 1.416710 -0.105640 1517 -0.334995 -0.883475 -0.326425
1.241560 1.416540 -0.104180 1527 -0.337153 -0.885921 -0.305418
1.241520 1.416490 -0.102730 1529 -0.337728 -0.886641 -0.284555
1.240760 1.415620 -0.101220 1537 -0.348664 -0.899159 -0.262828
1.240380 1.415180 -0.099750 1525 -0.354131 -0.905490 -0.241677
1.240430 1.415240 -0.098300 1537 -0.353412 -0.904625 -0.220814
1.240280 1.415080 -0.096850 1541 -0.355570 -0.906929 -0.199950
1.240330 1.415130 -0.095400 1543 -0.354851 -0.906208 -0.179087
1.240090 1.414860 -0.093940 1551 -0.358304 -0.910093 -0.158080
1.239220 1.413870 -0.092430 1553 -0.370822 -0.924339 -0.136353
1.239080 1.413700 -0.090980 1549 -0.372837 -0.926784 -0.115490
1.239360 1.414020 -0.089550 1547 -0.368808 -0.922181 -0.094914
1.239120 1.413750 -0.088090 1541 -0.372261 -0.926064 -0.073907
1.238780 1.413360 -0.086620 1539 -0.377152 -0.931676 -0.052756
1.239110 1.413740 -0.085200 1557 -0.372405 -0.926208 -0.032324
1.239680 1.414390 -0.083800 1571 -0.364202 -0.916857 -0.012181
1.239530 1.414220 -0.082350 1563 -0.366362 -0.919303 0.008683
1.239340 1.414000 -0.080890 1553 -0.369096 -0.922467 0.029690
1.239520 1.414200 -0.079460 1553 -0.366506 -0.919591 0.050265
1.239610 1.414300 -0.078020 1553 -0.365211 -0.918152 0.070985
1.239600 1.414290 -0.076580 1557 -0.365355 -0.918296 0.091704
1.239060 1.413680 -0.075100 1551 -0.373123 -0.927073 0.112999
1.239050 1.413660 -0.073660 1551 -0.373267 -0.927359 0.133719
1.239620 1.414310 -0.072250 1555 -0.365067 -0.918008 0.154007
1.240230 1.415010 -0.070840 1549 -0.356290 -0.907936 0.174294
1.240320 1.415110 -0.069400 1553 -0.354995 -0.906497 0.195014
1.240440 1.415250 -0.067960 1555 -0.353268 -0.904483 0.215733
1.241060 1.415950 -0.066550 1547 -0.344347 -0.894411 0.236021
1.240990 1.415880 -0.065100 1527 -0.345354 -0.895418 0.256884
1.240640 1.415480 -0.063640 1521 -0.350390 -0.901173 0.277891
1.240770 1.415630 -0.062200 1525 -0.348520 -0.899015 0.298611
1.241480 1.416430 -0.060790 1525 -0.338304 -0.887504 0.318899
1.241940 1.416960 -0.059370 1521 -0.331685 -0.879878 0.339330
1.242120 1.417160 -0.057940 1507 -0.329095 -0.877000 0.359906
1.242960 1.418120 -0.056530 1503 -0.317009 -0.863187 0.380194
1.243330 1.418540 -0.055100 1503 -0.311685 -0.857144 0.400769
1.243210 1.418400 -0.053650 1499 -0.313412 -0.859158 0.421632
1.243870 1.419150 -0.052230 1485 -0.303915 -0.848367 0.442064
1.244560 1.419940 -0.050810 1481 -0.293987 -0.837000 0.462496
1.245120 1.420580 -0.049380 1479 -0.285929 -0.827791 0.483071
1.245970 1.421540 -0.047970 1475 -0.273699 -0.813978 0.503359
1.246370 1.422000 -0.046530 1465 -0.267945 -0.807359 0.524078
1.246930 1.422640 -0.045100 1451 -0.259887 -0.798152 0.544654
1.248200 1.424090 -0.043700 1449 -0.241612 -0.777287 0.564798
1.248950 1.424930 -0.042270 1433 -0.230822 -0.765202 0.585373
1.249640 1.425720 -0.040840 1423 -0.220894 -0.753835 0.605949
1.250380 1.426570 -0.039410 1409 -0.210246 -0.741604 0.626525
1.251470 1.427810 -0.037990 1401 -0.194563 -0.723763 0.646956
1.252590 1.429090 -0.036570 1387 -0.178449 -0.705345 0.667388
1.253860 1.430540 -0.035150 1377 -0.160174 -0.684483 0.687819
1.255320 1.432200 -0.033730 1359 -0.139168 -0.660598 0.708251
1.256010 1.432990 -0.032280 1335 -0.129238 -0.649231 0.729114
1.256800 1.433890 -0.030840 1307 -0.117871 -0.636281 0.749834
1.257970 1.435220 -0.029410 1287 -0.101038 -0.617144 0.770409
1.259190 1.436610 -0.027970 1263 -0.083484 -0.597144 0.791129
1.260510 1.438110 -0.026540 1237 -0.064491 -0.575561 0.811704
1.262020 1.439830 -0.025100 1203 -0.042764 -0.550814 0.832424
1.263910 1.441990 -0.023670 1147 -0.015569 -0.519734 0.852999
1.266280 1.444690 -0.022240 1097 0.018531 -0.480885 0.873575
1.269280 1.448110 -0.020820 1033 0.061696 -0.431677 0.894007
1.267960 1.444450 -0.143280 1053 0.042703 -0.484338 -0.868008
1.265390 1.441530 -0.141510 1111 0.005725 -0.526353 -0.842540
1.263340 1.439190 -0.139810 1161 -0.023772 -0.560021 -0.818080
1.261200 1.436760 -0.138100 1201 -0.054564 -0.594986 -0.793475
1.259250 1.434530 -0.136410 1233 -0.082620 -0.627072 -0.769159
1.257780 1.432860 -0.134790 1259 -0.103772 -0.651101 -0.745850
1.257030 1.432010 -0.133240 1291 -0.114563 -0.663330 -0.723547
1.255700 1.430490 -0.131630 1317 -0.133700 -0.685201 -0.700382
1.254570 1.429200 -0.130050 1335 -0.149958 -0.703762 -0.677648
1.253480 1.427960 -0.128470 1351 -0.165643 -0.721604 -0.654914
1.251960 1.426220 -0.126860 1363 -0.187512 -0.746640 -0.631749
1.251160 1.425310 -0.125320 1385 -0.199023 -0.759734 -0.609591
1.250310 1.424340 -0.123770 1401 -0.211254 -0.773691 -0.587288
1.249500 1.423430 -0.122240 1407 -0.222908 -0.786785 -0.565274
1.248650 1.422460 -0.120700 1421 -0.235139 -0.800742 -0.543116
1.248180 1.421920 -0.119200 1437 -0.241901 -0.808512 -0.521533
1.247670 1.421340 -0.117690 1455 -0.249238 -0.816856 -0.499806
1.246470 1.419980 -0.116130 1463 -0.266506 -0.836424 -0.477360
1.246140 1.419600 -0.114640 1475 -0.271253 -0.841892 -0.455922
1.245870 1.419290 -0.113170 1479 -0.275138 -0.846353 -0.434770
1.245250 1.418590 -0.111660 1489 -0.284059 -0.856425 -0.413044
1.244640 1.417880 -0.110150 1491 -0.292836 -0.866640 -0.391317
1.244010 1.417170 -0.108650 1495 -0.301901 -0.876855 -0.369734
1.243980 1.417130 -0.107190 1513 -0.302332 -0.877432 -0.348727
1.244080 1.417240 -0.105750 1517 -0.300895 -0.875849 -0.328008
1.243650 1.416760 -0.104270 1523 -0.307081 -0.882756 -0.306713
1.243070 1.416100 -0.102770 1519 -0.315426 -0.892252 -0.285130
1.242360 1.415280 -0.101270 1525 -0.325642 -0.904051 -0.263547
1.241680 1.414520 -0.099760 1521 -0.335426 -0.914985 -0.241821
1.241200 1.413970 -0.098280 1533 -0.342333 -0.922899 -0.220526
1.241210 1.413980 -0.096840 1535 -0.342189 -0.922755 -0.199806
1.241640 1.414470 -0.095420 1543 -0.336002 -0.915706 -0.179375
1.241600 1.414420 -0.093970 1549 -0.336577 -0.916424 -0.158511
1.241060 1.413810 -0.092490 1547 -0.344347 -0.925201 -0.137217
1.240920 1.413640 -0.091030 1555 -0.346362 -0.927647 -0.116209
1.240530 1.413200 -0.089560 1545 -0.351973 -0.933978 -0.095058
1.240190 1.412820 -0.088090 1553 -0.356865 -0.939446 -0.073907
1.240280 1.412920 -0.086660 1547 -0.355570 -0.938007 -0.053332
1.239990 1.412590 -0.085190 1551 -0.359743 -0.942755 -0.032181
1.240130 1.412740 -0.083760 1551 -0.357729 -0.940597 -0.011605
1.240890 1.413610 -0.082370 1555 -0.346793 -0.928079 0.008395
1.240840 1.413550 -0.080920 1549 -0.347513 -0.928942 0.029258
1.240730 1.413430 -0.079470 1555 -0.349095 -0.930669 0.050122
1.241060 1.413800 -0.078040 1561 -0.344347 -0.925345 0.070697
1.241200 1.413960 -0.076610 1565 -0.342333 -0.923044 0.091273
1.241090 1.413840 -0.075160 1559 -0.343915 -0.924769 0.112136
1.241030 1.413770 -0.073710 1551 -0.344779 -0.925778 0.132999
1.241210 1.413970 -0.072280 1545 -0.342189 -0.922899 0.153575
1.241690 1.414510 -0.070860 1553 -0.335282 -0.915129 0.174007
1.241680 1.414500 -0.069420 1545 -0.335426 -0.915273 0.194726
1.241470 1.414260 -0.067960 1535 -0.338448 -0.918726 0.215733
1.242080 1.414960 -0.066550 1527 -0.329671 -0.908654 0.236021
1.242160 1.415050 -0.065110 1521 -0.328520 -0.907359 0.256740
1.241810 1.414650 -0.063650 1515 -0.333556 -0.913116 0.277748
1.242040 1.414900 -0.062210 1517 -0.330246 -0.909519 0.298467
1.242930 1.415920 -0.060810 1519 -0.317440 -0.894842 0.318611
1.244120 1.417280 -0.059430 1517 -0.300318 -0.875274 0.338467
1.244780 1.418030 -0.058010 1511 -0.290823 -0.864482 0.358899
1.244560 1.417780 -0.056550 1497 -0.293987 -0.868079 0.379906
1.244840 1.418090 -0.055120 1501 -0.289958 -0.863619 0.400481
1.245100 1.418390 -0.053680 1501 -0.286217 -0.859302 0.421201
1.245320 1.418640 -0.052240 1489 -0.283053 -0.855705 0.441920
1.246320 1.419770 -0.050840 1487 -0.268663 -0.839446 0.462064
1.246970 1.420520 -0.049410 1475 -0.259310 -0.828656 0.482640
1.247520 1.421140 -0.047990 1475 -0.251398 -0.819735 0.503071
1.248220 1.421940 -0.046560 1463 -0.241326 -0.808224 0.523647
1.248630 1.422410 -0.045130 1451 -0.235425 -0.801460 0.544222
1.249080 1.422920 -0.043690 1443 -0.228952 -0.794123 0.564942
1.249730 1.423660 -0.042260 1431 -0.219599 -0.783474 0.585517
1.250720 1.424780 -0.040840 1423 -0.205354 -0.767360 0.605949
1.251650 1.425850 -0.039420 1401 -0.191973 -0.751964 0.626381
1.252300 1.426580 -0.037980 1381 -0.182620 -0.741461 0.647100
1.253760 1.428250 -0.036570 1379 -0.161613 -0.717432 0.667388
1.255520 1.430240 -0.035160 1369 -0.136290 -0.688798 0.687676
1.256600 1.431470 -0.033730 1355 -0.120750 -0.671100 0.708251
1.257630 1.432650 -0.032300 1337 -0.105930 -0.654123 0.728827
1.258370 1.433490 -0.030850 1311 -0.095282 -0.642035 0.749690
1.259250 1.434490 -0.029410 1285 -0.082620 -0.627648 0.770409
1.260470 1.435880 -0.027980 1255 -0.065066 -0.607648 0.790985
1.262320 1.437980 -0.026550 1229 -0.038447 -0.577431 0.811560
1.264020 1.439920 -0.025120 1191 -0.013988 -0.549519 0.832136
1.265720 1.441850 -0.023680 1131 0.010473 -0.521749 0.852855
1.268530 1.445050 -0.022260 1077 0.050905 -0.475705 0.873287
1.267130 1.441440 -0.141590 1081 0.030761 -0.527648 -0.843691
1.265090 1.439120 -0.139890 1127 0.001408 -0.561028 -0.819231
1.262710 1.436400 -0.138150 1173 -0.032837 -0.600165 -0.794195
1.260810 1.434240 -0.136470 1219 -0.060174 -0.631245 -0.770022
1.258940 1.432130 -0.134800 1251 -0.087081 -0.661605 -0.745993
1.257710 1.430730 -0.133200 1279 -0.104779 -0.681749 -0.722972
1.257250 1.430200 -0.131690 1311 -0.111398 -0.689374 -0.701245
1.256360 1.429190 -0.130130 1333 -0.124202 -0.703906 -0.678799
1.254930 1.427560 -0.128520 1345 -0.144778 -0.727360 -0.655634
1.253600 1.426040 -0.126920 1367 -0.163915 -0.749230 -0.632612
1.251930 1.424150 -0.125290 1373 -0.187944 -0.776425 -0.609159
1.251130 1.423240 -0.123750 1391 -0.199455 -0.789519 -0.587001
1.250610 1.422650 -0.122250 1405 -0.206937 -0.798008 -0.565418
1.250000 1.421950 -0.120730 1419 -0.215714 -0.808079 -0.543547
1.249820 1.421740 -0.119260 1433 -0.218304 -0.811100 -0.522396
1.249300 1.421160 -0.117750 1445 -0.225786 -0.819446 -0.500670
1.248300 1.420020 -0.116200 1455 -0.240175 -0.835849 -0.478368
1.247590 1.419210 -0.114680 1463 -0.250391 -0.847504 -0.456497
1.247550 1.419160 -0.113230 1475 -0.250966 -0.848223 -0.435634
1.247080 1.418630 -0.111730 1485 -0.257729 -0.855849 -0.414051
1.245840 1.417210 -0.110170 1481 -0.275571 -0.876281 -0.391605
1.244930 1.416180 -0.108640 1485 -0.288663 -0.891101 -0.369591
1.245130 1.416410 -0.107210 1503 -0.285787 -0.887792 -0.349015
1.245230 1.416520 -0.105770 1511 -0.284348 -0.886209 -0.328296
1.244760 1.415980 -0.104280 1519 -0.291109 -0.893979 -0.306857
1.244320 1.415490 -0.102790 1521 -0.297440 -0.901028 -0.285418
1.243840 1.414950 -0.101300 1515 -0.304347 -0.908798 -0.263979
1.243700 1.414790 -0.099850 1521 -0.306361 -0.911100 -0.243116
1.243420 1.414460 -0.098380 1533 -0.310390 -0.915850 -0.221965
1.243080 1.414070 -0.096900 1533 -0.315282 -0.921460 -0.200670
1.243180 1.414190 -0.095460 1541 -0.313843 -0.919733 -0.179950
1.242790 1.413750 -0.093990 1535 -0.319455 -0.926064 -0.158799
1.242120 1.412980 -0.092490 1535 -0.329095 -0.937145 -0.137217
1.241920 1.412760 -0.091030 1539 -0.331973 -0.940309 -0.116209
1.241920 1.412750 -0.089590 1547 -0.331973 -0.940453 -0.095490
1.241770 1.412580 -0.088130 1551 -0.334131 -0.942899 -0.074483
1.242150 1.413020 -0.086720 1557 -0.328664 -0.936568 -0.054195
1.241960 1.412800 -0.085260 1555 -0.331397 -0.939735 -0.033188
1.241860 1.412680 -0.083810 1549 -0.332836 -0.941460 -0.012324
1.242720 1.413660 -0.082420 1559 -0.320462 -0.927359 0.007676
1.242710 1.413650 -0.080970 1553 -0.320606 -0.927503 0.028539
1.242370 1.413260 -0.079510 1549 -0.325498 -0.933115 0.049546
1.241880 1.412700 -0.078030 1551 -0.332548 -0.941172 0.070841
1.241920 1.412740 -0.076590 1551 -0.331973 -0.940597 0.091560
1.242290 1.413170 -0.075170 1549 -0.326649 -0.934410 0.111992
1.242040 1.412880 -0.073710 1555 -0.330246 -0.938584 0.132999
1.242510 1.413420 -0.072290 1547 -0.323484 -0.930814 0.153431
1.242790 1.413740 -0.070870 1539 -0.319455 -0.926208 0.173863
1.242830 1.413780 -0.069420 1541 -0.318879 -0.925634 0.194726
1.242960 1.413920 -0.067990 1533 -0.317009 -0.923618 0.215302
1.242800 1.413740 -0.066530 1523 -0.319311 -0.926208 0.236309
1.243070 1.414050 -0.065100 1517 -0.315426 -0.921749 0.256884
1.243540 1.414580 -0.063680 1513 -0.308663 -0.914123 0.277316
1.244440 1.415610 -0.062280 1519 -0.295714 -0.899303 0.297460
1.244670 1.415860 -0.060850 1511 -0.292404 -0.895704 0.318035
1.244700 1.415900 -0.059400 1501 -0.291974 -0.895130 0.338899
1.245500 1.416810 -0.058000 1511 -0.280463 -0.882036 0.359043
1.245960 1.417340 -0.056570 1505 -0.273843 -0.874410 0.379618
1.246330 1.417750 -0.055140 1501 -0.268519 -0.868511 0.400194
1.246880 1.418380 -0.053720 1495 -0.260605 -0.859446 0.420625
1.247100 1.418630 -0.052280 1481 -0.257441 -0.855849 0.441345
1.247570 1.419160 -0.050850 1473 -0.250677 -0.848223 0.461920
1.248460 1.420180 -0.049430 1469 -0.237871 -0.833547 0.482352
1.248820 1.420590 -0.048000 1465 -0.232693 -0.827647 0.502927
1.249280 1.421110 -0.046560 1455 -0.226074 -0.820165 0.523647
1.249980 1.421900 -0.045140 1445 -0.216002 -0.808798 0.544078
1.250680 1.422690 -0.043710 1437 -0.205930 -0.797431 0.564654
1.251620 1.423760 -0.042290 1427 -0.192404 -0.782035 0.585086
1.252600 1.424880 -0.040870 1415 -0.178305 -0.765921 0.605517
1.253060 1.425400 -0.039430 1397 -0.171685 -0.758439 0.626237
1.254040 1.426510 -0.038000 1381 -0.157584 -0.742468 0.646812
1.255410 1.428070 -0.036590 1375 -0.137873 -0.720022 0.667100
1.256540 1.429350 -0.035160 1363 -0.121614 -0.701604 0.687676
1.257660 1.430630 -0.033730 1337 -0.105498 -0.683188 0.708251
1.258700 1.431810 -0.032300 1319 -0.090534 -0.666208 0.728827
1.259780 1.433030 -0.030860 1305 -0.074994 -0.648655 0.749546
1.260800 1.434200 -0.029430 1277 -0.060318 -0.631820 0.770122
1.262030 1.435590 -0.027990 1245 -0.042620 -0.611820 0.790841
1.263730 1.437520 -0.026560 1213 -0.018159 -0.584050 0.811417
1.266300 1.440450 -0.025140 1173 0.018818 -0.541893 0.831848
1.268920 1.443420 -0.023720 1115 0.056515 -0.499158 0.852280
1.270760 1.445520 -0.022280 1055 0.082992 -0.468942 0.872999
1.269240 1.441720 -0.141710 1043 0.061121 -0.523619 -0.845418
1.266670 1.438800 -0.139940 1095 0.024142 -0.565633 -0.819950
1.263990 1.435760 -0.138180 1149 -0.014418 -0.609374 -0.794627
1.262180 1.433710 -0.136510 1205 -0.040463 -0.638871 -0.770598
1.260710 1.432030 -0.134880 1241 -0.061613 -0.663044 -0.747145
1.259630 1.430800 -0.133300 1269 -0.077153 -0.680742 -0.724411
1.258490 1.429510 -0.131710 1293 -0.093556 -0.699302 -0.701533
1.257250 1.428110 -0.130110 1313 -0.111398 -0.719446 -0.678511
1.256210 1.426920 -0.128540 1339 -0.126362 -0.736568 -0.655921
1.255410 1.426010 -0.127000 1359 -0.137873 -0.749662 -0.633763
1.254320 1.424770 -0.125430 1371 -0.153555 -0.767504 -0.611173
1.253170 1.423470 -0.123850 1385 -0.170102 -0.786208 -0.588440
1.252180 1.422340 -0.122300 1395 -0.184347 -0.802467 -0.566137
1.251470 1.421540 -0.120770 1413 -0.194563 -0.813978 -0.544123
1.250760 1.420730 -0.119250 1423 -0.204779 -0.825633 -0.522253
1.249900 1.419760 -0.117710 1441 -0.217153 -0.839590 -0.500094
1.249190 1.418950 -0.116190 1449 -0.227369 -0.851245 -0.478224
1.248910 1.418630 -0.114710 1467 -0.231398 -0.855849 -0.456929
1.248530 1.418200 -0.113220 1477 -0.236865 -0.862036 -0.435490
1.248010 1.417610 -0.111720 1479 -0.244346 -0.870525 -0.413907
1.247160 1.416640 -0.110200 1483 -0.256578 -0.884481 -0.392037
1.246440 1.415820 -0.108680 1485 -0.266936 -0.896281 -0.370166
1.246210 1.415560 -0.107210 1493 -0.270247 -0.900022 -0.349015
1.246020 1.415340 -0.105750 1509 -0.272981 -0.903188 -0.328008
1.245640 1.414910 -0.104260 1507 -0.278447 -0.909375 -0.306569
1.245160 1.414370 -0.102780 1511 -0.285354 -0.917145 -0.285274
1.244970 1.414150 -0.101310 1503 -0.288089 -0.920309 -0.264123
1.245120 1.414320 -0.099880 1519 -0.285929 -0.917863 -0.243547
1.244780 1.413940 -0.098400 1521 -0.290823 -0.923332 -0.222252
1.244250 1.413330 -0.096910 1527 -0.298447 -0.932109 -0.200814
1.244060 1.413120 -0.095450 1529 -0.301181 -0.935129 -0.179806
1.244060 1.413110 -0.094010 1527 -0.301181 -0.935273 -0.159087
1.243530 1.412520 -0.092520 1529 -0.308807 -0.943762 -0.137648
1.243340 1.412290 -0.091060 1535 -0.311541 -0.947072 -0.116641
1.243530 1.412510 -0.089630 1541 -0.308807 -0.943906 -0.096065
1.243280 1.412230 -0.088170 1537 -0.312404 -0.947935 -0.075058
1.243330 1.412280 -0.086730 1543 -0.311685 -0.947216 -0.054339
1.243510 1.412490 -0.085290 1547 -0.309095 -0.944194 -0.033619
1.243950 1.412980 -0.083880 1549 -0.302764 -0.937145 -0.013332
1.244080 1.413140 -0.082440 1557 -0.300895 -0.934841 0.007388
1.243600 1.412580 -0.080960 1551 -0.307800 -0.942899 0.028683
1.243060 1.411970 -0.079490 1543 -0.315570 -0.951676 0.049834
1.242760 1.411630 -0.078020 1535 -0.319887 -0.956568 0.070985
1.243040 1.411950 -0.076600 1543 -0.315858 -0.951964 0.091417
1.243320 1.412270 -0.075170 1539 -0.311829 -0.947361 0.111992
1.243500 1.412470 -0.073740 1541 -0.309239 -0.944482 0.132568
1.243920 1.412950 -0.072320 1547 -0.303196 -0.937575 0.152999
1.244200 1.413270 -0.070890 1541 -0.299167 -0.932971 0.173575
1.244720 1.413860 -0.069470 1535 -0.291685 -0.924483 0.194006
1.245190 1.414390 -0.068050 1547 -0.284922 -0.916857 0.214438
1.245080 1.414260 -0.066600 1535 -0.286505 -0.918726 0.235301
1.245350 1.414570 -0.065170 1539 -0.282620 -0.914267 0.255877
1.245580 1.414830 -0.063740 1529 -0.279312 -0.910526 0.276453
1.245470 1.414700 -0.062280 1519 -0.280893 -0.912395 0.297460
1.245990 1.415290 -0.060860 1501 -0.273411 -0.903907 0.317891
1.246790 1.416200 -0.059450 1503 -0.261900 -0.890812 0.338179
1.247250 1.416720 -0.058030 1505 -0.255283 -0.883331 0.358611
1.247480 1.416980 -0.056590 1499 -0.251972 -0.879590 0.379330
1.247360 1.416850 -0.055140 1483 -0.253700 -0.881461 0.400194
1.247820 1.417370 -0.053710 1489 -0.247081 -0.873979 0.420769
1.248520 1.418170 -0.052290 1485 -0.237009 -0.862468 0.441201
1.248700 1.418360 -0.050850 1471 -0.234419 -0.859734 0.461920
1.249590 1.419370 -0.049440 1465 -0.221613 -0.845201 0.482208
1.250630 1.420560 -0.048030 1469 -0.206649 -0.828079 0.502496
1.251370 1.421400 -0.046600 1457 -0.196002 -0.815994 0.523071
1.251740 1.421810 -0.045160 1443 -0.190678 -0.810093 0.543791
1.252240 1.422380 -0.043730 1433 -0.183485 -0.801893 0.564366
1.253130 1.423400 -0.042310 1417 -0.170679 -0.787215 0.584798
1.253740 1.424080 -0.040870 1407 -0.161902 -0.777432 0.605517
1.254620 1.425090 -0.039450 1393 -0.149240 -0.762900 0.625949
1.256240 1.426920 -0.038040 1383 -0.125930 -0.736568 0.646237
1.257370 1.428200 -0.036610 1371 -0.109671 -0.718151 0.666812
1.258010 1.428930 -0.035170 1347 -0.100462 -0.707647 0.687532
1.258900 1.429940 -0.033740 1321 -0.087656 -0.693115 0.708107
1.260180 1.431380 -0.032310 1307 -0.069239 -0.672395 0.728683
1.261250 1.432600 -0.030870 1289 -0.053843 -0.654841 0.749402
1.262520 1.434050 -0.029440 1269 -0.035571 -0.633979 0.769978
1.264130 1.435870 -0.028010 1237 -0.012405 -0.607791 0.790553
1.265980 1.437970 -0.026580 1191 0.014214 -0.577575 0.811129
1.268070 1.440340 -0.025160 1139 0.044286 -0.543474 0.831560
1.270450 1.443040 -0.023730 1083 0.078531 -0.504626 0.852136
1.268930 1.439130 -0.140070 1075 0.056660 -0.560886 -0.821821
1.266400 1.436260 -0.138320 1125 0.020257 -0.602180 -0.796641
1.264340 1.433930 -0.136620 1165 -0.009382 -0.635705 -0.772181
1.262340 1.431660 -0.134940 1215 -0.038161 -0.668366 -0.748008
1.260920 1.430050 -0.133320 1251 -0.058591 -0.691532 -0.724699
1.259780 1.428750 -0.131730 1277 -0.074994 -0.710237 -0.701821
1.258780 1.427620 -0.130160 1299 -0.089383 -0.726496 -0.679231
1.258320 1.427100 -0.128650 1317 -0.096002 -0.733979 -0.657504
1.257670 1.426360 -0.127120 1341 -0.105354 -0.744626 -0.635490
1.256330 1.424840 -0.125520 1363 -0.124635 -0.766497 -0.612468
1.255190 1.423550 -0.123940 1381 -0.141037 -0.785057 -0.589734
1.253950 1.422140 -0.122360 1387 -0.158879 -0.805345 -0.567001
1.253050 1.421120 -0.120820 1403 -0.171829 -0.820021 -0.544842
1.252480 1.420480 -0.119310 1423 -0.180030 -0.829230 -0.523116
1.251860 1.419770 -0.117790 1431 -0.188951 -0.839446 -0.501245
1.251050 1.418860 -0.116260 1443 -0.200606 -0.852540 -0.479231
1.250530 1.418270 -0.114760 1457 -0.208088 -0.861029 -0.457648
1.250060 1.417730 -0.113260 1455 -0.214851 -0.868799 -0.436065
1.249830 1.417470 -0.111790 1475 -0.218160 -0.872540 -0.414914
1.249210 1.416770 -0.110280 1479 -0.227081 -0.882612 -0.393188
1.248540 1.416010 -0.108770 1477 -0.236720 -0.893547 -0.371461
1.248600 1.416070 -0.107320 1497 -0.235858 -0.892684 -0.350598
1.248310 1.415750 -0.105850 1503 -0.240031 -0.897287 -0.329447
1.247690 1.415050 -0.104350 1503 -0.248952 -0.907359 -0.307864
1.247120 1.414390 -0.102850 1505 -0.257152 -0.916857 -0.286281
1.246690 1.413910 -0.101360 1511 -0.263339 -0.923762 -0.264842
1.246350 1.413520 -0.099890 1513 -0.268231 -0.929375 -0.243691
1.245960 1.413080 -0.098410 1523 -0.273843 -0.935705 -0.222396
1.245490 1.412540 -0.096930 1519 -0.280607 -0.943475 -0.201101
1.245530 1.412600 -0.095480 1517 -0.280030 -0.942611 -0.180238
1.245730 1.412820 -0.094050 1509 -0.277152 -0.939446 -0.159663
1.245490 1.412540 -0.092590 1517 -0.280607 -0.943475 -0.138655
1.245150 1.412160 -0.091110 1529 -0.285499 -0.948942 -0.117360
1.245100 1.412100 -0.089660 1539 -0.286217 -0.949806 -0.096497
1.244850 1.411820 -0.088200 1527 -0.289814 -0.953834 -0.075490
1.244750 1.411700 -0.086750 1531 -0.291253 -0.955561 -0.054627
1.244940 1.411920 -0.085320 1541 -0.288519 -0.952396 -0.034051
1.245370 1.412410 -0.083900 1555 -0.282332 -0.945345 -0.013619
1.245360 1.412390 -0.082450 1539 -0.282476 -0.945633 0.007244
1.245210 1.412220 -0.081000 1539 -0.284634 -0.948079 0.028107
1.244920 1.411890 -0.079530 1533 -0.288807 -0.952827 0.049258
1.244860 1.411820 -0.078090 1531 -0.289670 -0.953834 0.069978
1.245140 1.412140 -0.076660 1537 -0.285643 -0.949230 0.090553
1.245230 1.412240 -0.075220 1539 -0.284348 -0.947791 0.111273
1.245030 1.412010 -0.073760 1537 -0.287224 -0.951101 0.132280
1.244960 1.411940 -0.072310 1531 -0.288233 -0.952108 0.153143
1.245480 1.412530 -0.070900 1529 -0.280751 -0.943620 0.173431
1.245960 1.413060 -0.069480 1523 -0.273843 -0.935994 0.193863
1.246180 1.413320 -0.068050 1529 -0.270677 -0.932253 0.214438
1.245930 1.413030 -0.066590 1525 -0.274276 -0.936424 0.235445
1.246350 1.413510 -0.065160 1525 -0.268231 -0.929519 0.256021
1.247100 1.414360 -0.063760 1525 -0.257441 -0.917287 0.276165
1.247140 1.414400 -0.062310 1521 -0.256864 -0.916713 0.297028
1.247410 1.414710 -0.060880 1511 -0.252979 -0.912251 0.317604
1.248360 1.415790 -0.059480 1503 -0.239311 -0.896713 0.337748
1.249210 1.416750 -0.058070 1497 -0.227081 -0.882900 0.358035
1.249480 1.417050 -0.056630 1499 -0.223196 -0.878583 0.378755
1.249170 1.416700 -0.055170 1489 -0.227657 -0.883619 0.399762
1.249400 1.416960 -0.053730 1477 -0.224347 -0.879878 0.420481
1.250050 1.417700 -0.052310 1479 -0.214995 -0.869230 0.440913
1.250320 1.418000 -0.050870 1471 -0.211110 -0.864914 0.461632
1.250630 1.418360 -0.049430 1457 -0.206649 -0.859734 0.482352
1.251390 1.419210 -0.048010 1463 -0.195714 -0.847504 0.502784
1.252610 1.420600 -0.046610 1453 -0.178160 -0.827503 0.522927
1.253510 1.421620 -0.045190 1439 -0.165210 -0.812827 0.543359
1.254020 1.422190 -0.043750 1425 -0.157873 -0.804627 0.564078
1.255150 1.423470 -0.042340 1415 -0.141614 -0.786208 0.584366
1.255990 1.424430 -0.040910 1401 -0.129526 -0.772396 0.604942
1.256300 1.424780 -0.039460 1383 -0.125067 -0.767360 0.625805
1.257730 1.426390 -0.038050 1375 -0.104491 -0.744194 0.646093
1.259150 1.428000 -0.036630 1365 -0.084059 -0.721029 0.666524
1.259740 1.428670 -0.035190 1337 -0.075570 -0.711388 0.687244
1.260340 1.429350 -0.033750 1315 -0.066937 -0.701604 0.707963
1.261610 1.430800 -0.032320 1297 -0.048663 -0.680742 0.728539
1.263320 1.432730 -0.030900 1275 -0.024060 -0.652972 0.748971
1.264880 1.434500 -0.029470 1251 -0.001614 -0.627504 0.769546
1.266210 1.436000 -0.028030 1213 0.017523 -0.605921 0.790266
1.267950 1.437980 -0.026600 1173 0.042560 -0.577431 0.810841
1.270050 1.440360 -0.025170 1125 0.072776 -0.543188 0.831417
1.272290 1.442890 -0.023740 1051 0.105005 -0.506784 0.851992
1.270800 1.439030 -0.140160 1043 0.083567 -0.562323 -0.823116
1.268220 1.436110 -0.138400 1099 0.046444 -0.604338 -0.797792
1.266360 1.434000 -0.136720 1149 0.019682 -0.634698 -0.773619
1.264020 1.431350 -0.135000 1199 -0.013988 -0.672828 -0.748871
1.262730 1.429900 -0.133390 1241 -0.032548 -0.693690 -0.725706
1.262170 1.429260 -0.131860 1269 -0.040607 -0.702899 -0.703691
1.261370 1.428360 -0.130310 1289 -0.052118 -0.715849 -0.681389
1.260430 1.427290 -0.128750 1313 -0.065642 -0.731245 -0.658943
1.259240 1.425940 -0.127160 1331 -0.082764 -0.750669 -0.636065
1.258090 1.424650 -0.125590 1353 -0.099311 -0.769231 -0.613475
1.257340 1.423790 -0.124050 1375 -0.110103 -0.781605 -0.591317
1.256480 1.422820 -0.122500 1391 -0.122477 -0.795562 -0.569015
1.255290 1.421470 -0.120930 1403 -0.139598 -0.814985 -0.546425
1.254280 1.420330 -0.119380 1409 -0.154132 -0.831388 -0.524123
1.253330 1.419260 -0.117830 1423 -0.167800 -0.846784 -0.501821
1.252720 1.418560 -0.116310 1433 -0.176577 -0.856856 -0.479950
1.252240 1.418020 -0.114820 1437 -0.183485 -0.864626 -0.458512
1.251730 1.417440 -0.113310 1445 -0.190822 -0.872971 -0.436785
1.251060 1.416680 -0.111800 1463 -0.200462 -0.883907 -0.415058
1.250490 1.416030 -0.110300 1473 -0.208664 -0.893258 -0.393475
1.250160 1.415660 -0.108820 1479 -0.213412 -0.898582 -0.372181
1.249490 1.414900 -0.107310 1487 -0.223052 -0.909519 -0.350454
1.249010 1.414360 -0.105820 1491 -0.229959 -0.917287 -0.329015
1.249350 1.414740 -0.104390 1499 -0.225067 -0.911821 -0.308440
1.249260 1.414640 -0.102930 1501 -0.226362 -0.913260 -0.287432
1.248630 1.413930 -0.101430 1509 -0.235425 -0.923474 -0.265850
1.248690 1.413990 -0.099990 1515 -0.234563 -0.922611 -0.245130
1.248400 1.413670 -0.098520 1525 -0.238736 -0.927217 -0.223979
1.247680 1.412850 -0.097010 1521 -0.249096 -0.939014 -0.202252
1.247490 1.412630 -0.095550 1519 -0.251828 -0.942181 -0.181245
1.247100 1.412190 -0.094070 1523 -0.257441 -0.948511 -0.159950
1.246760 1.411800 -0.092600 1531 -0.262332 -0.954122 -0.138799
1.246950 1.412020 -0.091170 1521 -0.259598 -0.950957 -0.118224
1.247140 1.412240 -0.089730 1531 -0.256864 -0.947791 -0.097504
1.246510 1.411530 -0.088240 1519 -0.265929 -0.958007 -0.076065
1.246310 1.411300 -0.086780 1529 -0.268808 -0.961317 -0.055058
1.246840 1.411900 -0.085370 1533 -0.261182 -0.952683 -0.034770
1.246930 1.412000 -0.083930 1535 -0.259887 -0.951246 -0.014051
1.246440 1.411440 -0.082450 1531 -0.266936 -0.959302 0.007244
1.246340 1.411330 -0.081000 1523 -0.268375 -0.960885 0.028107
1.246430 1.411430 -0.079560 1531 -0.267080 -0.959446 0.048827
1.246760 1.411810 -0.078140 1527 -0.262332 -0.953978 0.069258
1.247520 1.412670 -0.076740 1535 -0.251398 -0.941604 0.089402
1.247520 1.412660 -0.075290 1533 -0.251398 -0.941748 0.110265
1.246970 1.412040 -0.073810 1529 -0.259310 -0.950669 0.131560
1.247210 1.412310 -0.072380 1533 -0.255857 -0.946784 0.152136
1.247290 1.412400 -0.070940 1525 -0.254707 -0.945489 0.172855
1.247080 1.412160 -0.069480 1515 -0.257729 -0.948942 0.193863
1.247410 1.412530 -0.068060 1519 -0.252979 -0.943620 0.214294
1.247730 1.412900 -0.066630 1521 -0.248376 -0.938295 0.234870
1.247960 1.413150 -0.065190 1515 -0.245067 -0.934699 0.255589
1.248380 1.413630 -0.063770 1517 -0.239024 -0.927791 0.276021
1.249040 1.414380 -0.062350 1511 -0.229527 -0.917001 0.296453
1.249560 1.414960 -0.060930 1511 -0.222045 -0.908654 0.316884
1.249830 1.415270 -0.059500 1499 -0.218160 -0.904195 0.337460
1.250390 1.415910 -0.058070 1493 -0.210102 -0.894986 0.358035
1.250520 1.416040 -0.056630 1483 -0.208232 -0.893116 0.378755
1.250640 1.416190 -0.055190 1477 -0.206505 -0.890957 0.399474
1.250570 1.416110 -0.053740 1467 -0.207512 -0.892107 0.420337
1.250990 1.416580 -0.052300 1463 -0.201469 -0.885346 0.441057
1.252370 1.418140 -0.050910 1469 -0.181613 -0.862899 0.461057
1.253020 1.418880 -0.049490 1459 -0.172260 -0.852252 0.481489
1.253630 1.419560 -0.048060 1445 -0.163483 -0.842468 0.502064
1.254760 1.420850 -0.046650 1439 -0.147224 -0.823906 0.522352
1.255270 1.421420 -0.045210 1431 -0.139887 -0.815705 0.543071
1.256020 1.422270 -0.043780 1421 -0.129096 -0.803474 0.563647
1.256870 1.423230 -0.042360 1405 -0.116865 -0.789661 0.584078
1.257520 1.423960 -0.040920 1389 -0.107513 -0.779159 0.604798
1.257920 1.424420 -0.039480 1371 -0.101757 -0.772540 0.625517
1.259340 1.426030 -0.038070 1355 -0.081325 -0.749374 0.645805
1.261100 1.428020 -0.036660 1347 -0.056001 -0.720741 0.666093
1.261800 1.428800 -0.035220 1335 -0.045929 -0.709518 0.686812
1.262640 1.429750 -0.033780 1319 -0.033843 -0.695849 0.707532
1.263570 1.430810 -0.032340 1291 -0.020463 -0.680598 0.728251
1.264760 1.432150 -0.030910 1267 -0.003340 -0.661317 0.748827
1.266660 1.434300 -0.029490 1225 0.023998 -0.630382 0.769258
1.268410 1.436290 -0.028060 1193 0.049178 -0.601748 0.789834
1.269830 1.437890 -0.026620 1151 0.069610 -0.578726 0.810553
1.272060 1.440420 -0.025190 1089 0.101697 -0.542323 0.831129
1.275180 1.443940 -0.023780 1015 0.146588 -0.491676 0.851417
1.271840 1.438160 -0.138680 1085 0.098530 -0.574843 -0.801821
1.269160 1.435130 -0.136910 1131 0.059970 -0.618439 -0.776353
1.266770 1.432420 -0.135180 1177 0.025581 -0.657432 -0.751461
1.265050 1.430480 -0.133530 1219 0.000834 -0.685345 -0.727720
1.263620 1.428860 -0.131910 1255 -0.019742 -0.708655 -0.704411
1.262430 1.427520 -0.130320 1281 -0.036866 -0.727935 -0.681533
1.261480 1.426450 -0.128760 1305 -0.050534 -0.743331 -0.659087
1.260780 1.425650 -0.127220 1323 -0.060606 -0.754842 -0.636929
1.260020 1.424790 -0.125680 1345 -0.071541 -0.767216 -0.614770
1.259070 1.423710 -0.124120 1367 -0.085210 -0.782756 -0.592324
1.258020 1.422530 -0.122560 1383 -0.100318 -0.799733 -0.569878
1.256920 1.421290 -0.120990 1397 -0.116146 -0.817575 -0.547288
1.255920 1.420160 -0.119430 1409 -0.130533 -0.833834 -0.524842
1.255600 1.419790 -0.117950 1419 -0.135139 -0.839158 -0.503547
1.254780 1.418870 -0.116410 1425 -0.146936 -0.852396 -0.481389
1.253160 1.417030 -0.114810 1435 -0.170246 -0.878871 -0.458368
1.252290 1.416060 -0.113270 1437 -0.182764 -0.892828 -0.436209
1.252400 1.416170 -0.111830 1457 -0.181181 -0.891245 -0.415490
1.252260 1.416020 -0.110360 1463 -0.183196 -0.893402 -0.394339
1.251640 1.415320 -0.108860 1465 -0.192117 -0.903474 -0.372756
1.251360 1.414990 -0.107380 1485 -0.196145 -0.908224 -0.351461
1.251270 1.414900 -0.105920 1487 -0.197440 -0.909519 -0.330454
1.250980 1.414570 -0.104450 1483 -0.201613 -0.914267 -0.309303
1.250360 1.413860 -0.102940 1497 -0.210534 -0.924483 -0.287576
1.250270 1.413760 -0.101480 1505 -0.211829 -0.925922 -0.266569
1.250320 1.413820 -0.100040 1515 -0.211110 -0.925057 -0.245850
1.249590 1.413000 -0.098530 1513 -0.221613 -0.936856 -0.224123
1.249260 1.412620 -0.097060 1511 -0.226362 -0.942325 -0.202972
1.249060 1.412400 -0.095590 1511 -0.229239 -0.945489 -0.181821
1.248630 1.411910 -0.094110 1523 -0.235425 -0.952539 -0.160526
1.247900 1.411080 -0.092610 1523 -0.245930 -0.964482 -0.138943
1.247760 1.410920 -0.091150 1521 -0.247943 -0.966784 -0.117936
1.247900 1.411080 -0.089720 1521 -0.245930 -0.964482 -0.097360
1.247760 1.410920 -0.088260 1515 -0.247943 -0.966784 -0.076353
1.247800 1.410970 -0.086820 1523 -0.247369 -0.966065 -0.055634
1.247550 1.410690 -0.085350 1521 -0.250966 -0.970094 -0.034483
1.247790 1.410950 -0.083920 1525 -0.247513 -0.966353 -0.013907
1.247830 1.411000 -0.082480 1531 -0.246936 -0.965633 0.006812
1.247390 1.410500 -0.081010 1519 -0.253267 -0.972827 0.027963
1.247720 1.410880 -0.079580 1527 -0.248520 -0.967360 0.048539
1.248340 1.411570 -0.078170 1533 -0.239599 -0.957432 0.068827
1.248770 1.412060 -0.076750 1525 -0.233412 -0.950381 0.089258
1.248660 1.411940 -0.075300 1533 -0.234995 -0.952108 0.110122
1.248650 1.411930 -0.073850 1527 -0.235139 -0.952252 0.130985
1.248780 1.412070 -0.072410 1533 -0.233268 -0.950237 0.151704
1.248290 1.411510 -0.070940 1517 -0.240319 -0.958295 0.172855
