767
-5.794549 -4.826833 -0.213525 1427 0.635202 0.007698 -0.787592
-5.791899 -4.824623 -0.211120 1469 0.673328 0.039492 -0.752987
-5.789872 -4.822921 -0.208730 1501 0.702494 0.063985 -0.718599
-5.788073 -4.821412 -0.206350 1527 0.728381 0.085693 -0.684354
-5.786275 -4.819904 -0.203981 1555 0.754254 0.107395 -0.650268
-5.784534 -4.818438 -0.201600 1579 0.779303 0.128485 -0.616009
-5.783180 -4.817291 -0.199247 1595 0.798781 0.144993 -0.582153
-5.780872 -4.815359 -0.196861 1607 0.831995 0.172787 -0.547822
-5.778838 -4.813663 -0.194482 1615 0.861257 0.197191 -0.513592
-5.778500 -4.813365 -0.192153 1623 0.866122 0.201479 -0.480081
-5.777597 -4.812600 -0.189819 1633 0.879116 0.212484 -0.446498
-5.776407 -4.811599 -0.187475 1649 0.896241 0.226892 -0.412771
-5.775776 -4.811057 -0.185138 1667 0.905318 0.234686 -0.379146
-5.775038 -4.810439 -0.182813 1673 0.915939 0.243578 -0.345692
-5.774413 -4.809904 -0.180477 1677 0.924927 0.251276 -0.312081
-5.774118 -4.809646 -0.178157 1699 0.929174 0.254988 -0.278700
-5.773609 -4.809208 -0.175840 1701 0.936494 0.261293 -0.245361
-5.772920 -4.808625 -0.173515 1697 0.946409 0.269677 -0.211908
-5.772625 -4.808367 -0.171195 1699 0.950656 0.273396 -0.178527
-5.772553 -4.808298 -0.168886 1705 0.951692 0.274384 -0.145304
-5.772266 -4.808048 -0.166568 1701 0.955822 0.277986 -0.111951
-5.772314 -4.808069 -0.164258 1703 0.955129 0.277677 -0.078714
-5.772184 -4.807958 -0.161949 1707 0.957002 0.279276 -0.045491
-5.772105 -4.807881 -0.159639 1705 0.958134 0.280387 -0.012253
-5.772268 -4.807999 -0.157338 1709 0.955794 0.278686 0.020855
-5.772583 -4.808249 -0.155036 1715 0.951259 0.275090 0.053977
-5.772681 -4.808319 -0.152727 1707 0.949846 0.274082 0.087200
-5.772608 -4.808249 -0.150417 1701 0.950903 0.275090 0.120437
-5.772751 -4.808361 -0.148115 1699 0.948844 0.273478 0.153560
-5.772857 -4.808437 -0.145805 1689 0.947314 0.272387 0.186797
-5.772949 -4.808500 -0.143504 1685 0.945990 0.271482 0.219905
-5.773550 -4.808987 -0.141212 1687 0.937345 0.264470 0.252883
-5.774593 -4.809848 -0.138925 1687 0.922340 0.252086 0.285790
-5.775144 -4.810286 -0.136623 1677 0.914409 0.245780 0.318912
-5.775457 -4.810536 -0.134321 1665 0.909908 0.242185 0.352034
-5.776330 -4.811259 -0.132036 1659 0.897346 0.231784 0.384912
-5.777439 -4.812169 -0.129751 1655 0.881387 0.218686 0.417790
-5.778368 -4.812934 -0.127454 1643 0.868022 0.207681 0.450840
-5.779578 -4.813928 -0.125167 1633 0.850609 0.193376 0.483747
-5.780909 -4.815026 -0.122890 1623 0.831460 0.177582 0.516509
-5.782232 -4.816117 -0.120603 1621 0.812428 0.161885 0.549416
-5.783778 -4.817395 -0.118314 1595 0.790178 0.143490 0.582351
-5.785552 -4.818854 -0.116035 1573 0.764655 0.122503 0.615142
-5.786481 -4.819619 -0.113740 1555 0.751290 0.111491 0.648164
-5.787526 -4.820480 -0.111455 1535 0.736250 0.099107 0.681041
-5.789580 -4.822169 -0.109174 1501 0.706700 0.074805 0.713862
-5.792307 -4.824428 -0.106908 1471 0.667462 0.042298 0.746466
-5.794747 -4.826449 -0.104625 1427 0.632355 0.013221 0.779315
-5.797418 -4.828667 -0.102359 1377 0.593920 -0.018696 0.811919
-5.801096 -4.831724 -0.100099 1309 0.541001 -0.062682 0.844437
-5.805513 -4.835386 -0.097846 1211 0.477448 -0.115367 0.876854
-5.802061 -4.830068 -0.218391 1341 0.527114 -0.038854 -0.857606
-5.798515 -4.827115 -0.215942 1393 0.578139 0.003636 -0.822369
-5.794919 -4.824112 -0.213500 1441 0.629878 0.046847 -0.787232
-5.792448 -4.822034 -0.211095 1477 0.665431 0.076747 -0.752628
-5.790471 -4.820380 -0.208705 1511 0.693877 0.100541 -0.718239
-5.788672 -4.818871 -0.206334 1543 0.719763 0.122256 -0.684124
-5.786982 -4.817454 -0.203966 1573 0.744079 0.142646 -0.650052
-5.784846 -4.815660 -0.201576 1589 0.774816 0.168457 -0.615663
-5.783041 -4.814146 -0.199207 1605 0.800785 0.190241 -0.581577
-5.781522 -4.812867 -0.196834 1611 0.822644 0.208642 -0.547433
-5.780160 -4.811727 -0.194482 1613 0.842238 0.225047 -0.513592
-5.779371 -4.811060 -0.192148 1633 0.853593 0.234645 -0.480009
-5.778461 -4.810289 -0.189811 1649 0.866684 0.245739 -0.446383
-5.777443 -4.809427 -0.187467 1661 0.881332 0.258144 -0.412656
-5.776933 -4.808990 -0.185140 1677 0.888667 0.264428 -0.379174
-5.776080 -4.808273 -0.182805 1669 0.900941 0.274747 -0.345577
-5.775169 -4.807502 -0.180471 1683 0.914052 0.285842 -0.311995
-5.774825 -4.807210 -0.178151 1697 0.918999 0.290040 -0.278613
-5.774759 -4.807134 -0.175842 1695 0.919953 0.291131 -0.245390
-5.774357 -4.806786 -0.173515 1697 0.925736 0.296140 -0.211908
-5.773669 -4.806202 -0.171188 1699 0.935637 0.304545 -0.178426
-5.773037 -4.805675 -0.168863 1711 0.944728 0.312126 -0.144973
-5.772800 -4.805459 -0.166553 1711 0.948138 0.315234 -0.111736
-5.772906 -4.805535 -0.164243 1707 0.946614 0.314143 -0.078498
-5.772655 -4.805320 -0.161933 1715 0.950223 0.317237 -0.045261
-5.772868 -4.805487 -0.159633 1715 0.947156 0.314829 -0.012167
-5.773182 -4.805737 -0.157331 1707 0.942642 0.311234 0.020955
-5.773009 -4.805570 -0.155012 1707 0.945132 0.313635 0.054322
-5.773101 -4.805647 -0.152711 1709 0.943808 0.312531 0.087430
-5.773594 -4.806043 -0.150419 1711 0.936714 0.306829 0.120408
-5.773915 -4.806301 -0.148116 1711 0.932097 0.303117 0.153545
-5.773835 -4.806224 -0.145809 1705 0.933242 0.304229 0.186739
-5.774164 -4.806474 -0.143506 1689 0.928508 0.300627 0.219876
-5.774478 -4.806724 -0.141204 1685 0.923994 0.297032 0.252998
-5.774963 -4.807127 -0.138912 1685 0.917016 0.291234 0.285977
-5.775449 -4.807517 -0.136609 1675 0.910025 0.285622 0.319113
-5.776042 -4.807996 -0.134315 1673 0.901490 0.278734 0.352121
-5.777438 -4.809143 -0.132038 1671 0.881401 0.262226 0.384883
-5.778303 -4.809858 -0.129743 1671 0.868955 0.251942 0.417905
-5.779010 -4.810435 -0.127450 1657 0.858787 0.243640 0.450898
-5.780069 -4.811296 -0.125163 1649 0.843549 0.231249 0.483804
-5.780541 -4.811686 -0.122861 1635 0.836757 0.225637 0.516926
-5.782036 -4.812916 -0.120582 1609 0.815247 0.207942 0.549718
-5.784261 -4.814757 -0.118310 1597 0.783227 0.181452 0.582408
-5.786036 -4.816216 -0.116031 1585 0.757691 0.160457 0.615200
-5.787811 -4.817690 -0.113752 1571 0.732154 0.139250 0.647991
-5.789242 -4.818871 -0.111463 1545 0.711565 0.122256 0.680926
-5.791074 -4.820386 -0.109184 1517 0.685205 0.100458 0.713718
-5.793128 -4.822075 -0.106902 1479 0.655648 0.076157 0.746552
-5.795175 -4.823770 -0.104621 1445 0.626194 0.051766 0.779372
-5.798238 -4.826313 -0.102353 1399 0.582126 0.015176 0.812006
-5.801695 -4.829169 -0.100095 1323 0.532384 -0.025914 0.844495
-5.805260 -4.832129 -0.097825 1239 0.481084 -0.068507 0.877157
-5.802444 -4.827319 -0.218358 1359 0.521605 0.000700 -0.857131
-5.798619 -4.824121 -0.215900 1417 0.576644 0.046716 -0.821764
-5.795195 -4.821258 -0.213468 1453 0.625905 0.087910 -0.786771
-5.792939 -4.819375 -0.211070 1485 0.658365 0.115004 -0.752268
-5.791140 -4.817866 -0.208690 1517 0.684251 0.136718 -0.718023
-5.789005 -4.816073 -0.206302 1547 0.714974 0.162516 -0.683664
-5.787085 -4.814475 -0.203922 1579 0.742597 0.185507 -0.649419
-5.785738 -4.813334 -0.201560 1605 0.761979 0.201925 -0.615433
-5.784262 -4.812098 -0.199199 1619 0.783214 0.219709 -0.581462
-5.782750 -4.810826 -0.196836 1627 0.804970 0.238014 -0.547462
-5.780837 -4.809220 -0.194467 1633 0.832496 0.261122 -0.513376
-5.779812 -4.808366 -0.192123 1641 0.847247 0.273410 -0.479649
-5.779460 -4.808053 -0.189805 1661 0.852310 0.277910 -0.446297
-5.778893 -4.807574 -0.187478 1671 0.860468 0.284806 -0.412815
-5.777990 -4.806809 -0.185132 1691 0.873463 0.295811 -0.379059
-5.777022 -4.805996 -0.182798 1689 0.887391 0.307508 -0.345476
-5.776227 -4.805322 -0.180463 1685 0.898828 0.317203 -0.311879
-5.775538 -4.804739 -0.178136 1701 0.908742 0.325594 -0.278397
-5.775136 -4.804391 -0.175819 1709 0.914526 0.330603 -0.245059
-5.774676 -4.804002 -0.173492 1697 0.921147 0.336201 -0.211577
-5.773938 -4.803370 -0.171165 1697 0.931760 0.345292 -0.178095
-5.773077 -4.802647 -0.168830 1697 0.944151 0.355693 -0.144498
-5.773348 -4.802855 -0.166538 1711 0.940254 0.352702 -0.111520
-5.774006 -4.803397 -0.164245 1713 0.930786 0.344901 -0.078527
-5.773876 -4.803272 -0.161935 1723 0.932652 0.346705 -0.045289
-5.774090 -4.803439 -0.159635 1731 0.929579 0.344297 -0.012196
-5.774252 -4.803557 -0.157323 1729 0.927246 0.342602 0.021070
-5.773722 -4.803113 -0.155006 1721 0.934868 0.348990 0.054408
-5.773485 -4.802896 -0.152688 1703 0.938278 0.352112 0.087761
-5.774085 -4.803383 -0.150405 1701 0.929647 0.345107 0.120610
-5.774521 -4.803738 -0.148103 1709 0.923376 0.339995 0.153732
-5.774226 -4.803481 -0.145784 1703 0.927616 0.343693 0.187099
-5.774483 -4.803689 -0.143484 1697 0.923918 0.340702 0.220193
-5.775133 -4.804210 -0.141199 1697 0.914567 0.333203 0.253070
-5.775626 -4.804606 -0.138896 1701 0.907473 0.327508 0.286207
-5.776506 -4.805336 -0.136611 1685 0.894814 0.317004 0.319085
-5.777664 -4.806282 -0.134324 1683 0.878149 0.303392 0.351991
-5.778315 -4.806817 -0.132032 1679 0.868784 0.295694 0.384969
-5.778185 -4.806692 -0.129722 1653 0.870657 0.297491 0.418207
-5.778671 -4.807080 -0.127420 1649 0.863665 0.291914 0.451329
-5.780446 -4.808554 -0.125150 1661 0.838122 0.270699 0.483991
-5.781490 -4.809402 -0.122854 1643 0.823103 0.258501 0.517027
-5.782870 -4.810548 -0.120576 1619 0.803248 0.242014 0.549804
-5.784645 -4.812007 -0.118297 1607 0.777704 0.221019 0.582595
-5.786363 -4.813425 -0.116018 1591 0.752984 0.200615 0.615387
-5.788366 -4.815079 -0.113746 1573 0.724168 0.176814 0.648077
-5.789912 -4.816358 -0.111457 1557 0.701918 0.158413 0.681013
-5.792195 -4.818241 -0.109186 1533 0.669075 0.131319 0.713689
-5.794299 -4.819978 -0.106904 1495 0.638797 0.106324 0.746523
-5.796066 -4.821445 -0.104625 1471 0.613377 0.085220 0.779315
-5.798629 -4.823556 -0.102350 1427 0.576500 0.054847 0.812049
-5.801577 -4.826003 -0.100074 1359 0.534078 0.019636 0.844797
-5.805092 -4.828914 -0.097814 1289 0.483506 -0.022250 0.877315
-5.809896 -4.832895 -0.095569 1173 0.414382 -0.079525 0.909617
-5.801806 -4.823968 -0.218299 1369 0.530785 0.048919 -0.856282
-5.798663 -4.821334 -0.215865 1433 0.576006 0.086819 -0.821261
-5.796019 -4.819131 -0.213451 1467 0.614050 0.118516 -0.786527
-5.793820 -4.817289 -0.211063 1501 0.645692 0.145020 -0.752167
-5.791964 -4.815739 -0.208682 1537 0.672395 0.167318 -0.717908
-5.790109 -4.814176 -0.206302 1555 0.699084 0.189809 -0.683664
-5.788811 -4.813084 -0.203941 1587 0.717760 0.205520 -0.649692
-5.787170 -4.811715 -0.201579 1617 0.741375 0.225218 -0.615707
-5.785480 -4.810297 -0.199209 1625 0.765691 0.245623 -0.581606
-5.783567 -4.808692 -0.196828 1633 0.793217 0.268717 -0.547347
-5.782156 -4.807504 -0.194476 1643 0.813519 0.285807 -0.513505
-5.780909 -4.806462 -0.192123 1655 0.831460 0.300805 -0.479649
-5.779941 -4.805649 -0.189779 1669 0.845388 0.312503 -0.445922
-5.779209 -4.805023 -0.187454 1671 0.855919 0.321505 -0.412469
-5.778585 -4.804488 -0.185127 1683 0.864900 0.329203 -0.378987
-5.778061 -4.804050 -0.182800 1697 0.872440 0.335508 -0.345505
-5.777272 -4.803383 -0.180463 1697 0.883789 0.345107 -0.311879
-5.776362 -4.802611 -0.178129 1707 0.896886 0.356215 -0.278297
-5.775895 -4.802216 -0.175811 1711 0.903603 0.361895 -0.244944
-5.775887 -4.802195 -0.173501 1705 0.903720 0.362197 -0.211707
-5.775879 -4.802174 -0.171192 1715 0.903836 0.362499 -0.178484
-5.774968 -4.801402 -0.168857 1719 0.916941 0.373607 -0.144886
-5.774223 -4.800777 -0.166530 1709 0.927664 0.382602 -0.111405
-5.774543 -4.801034 -0.164230 1713 0.923061 0.378904 -0.078311
-5.774478 -4.800958 -0.161920 1719 0.923994 0.379995 -0.045074
-5.774742 -4.801173 -0.159618 1729 0.920193 0.376900 -0.011951
-5.775342 -4.801660 -0.157325 1733 0.911562 0.369895 0.021042
-5.775162 -4.801500 -0.155015 1723 0.914148 0.372201 0.054279
-5.774975 -4.801333 -0.152707 1709 0.916845 0.374602 0.087488
-5.775023 -4.801354 -0.150396 1709 0.916152 0.374300 0.120739
-5.775281 -4.801562 -0.148095 1719 0.912440 0.371309 0.153847
-5.775881 -4.802049 -0.145801 1715 0.903809 0.364297 0.186855
-5.776202 -4.802306 -0.143501 1707 0.899185 0.360599 0.219948
-5.776351 -4.802410 -0.141199 1705 0.897044 0.359103 0.253070
-5.776501 -4.802528 -0.138898 1691 0.894883 0.357408 0.286178
-5.777215 -4.803112 -0.136604 1689 0.884612 0.349004 0.319185
-5.778317 -4.804015 -0.134319 1697 0.868756 0.336009 0.352063
-5.778917 -4.804502 -0.132026 1677 0.860125 0.329004 0.385056
-5.779904 -4.805308 -0.129739 1667 0.845923 0.317409 0.417962
-5.781170 -4.806357 -0.127452 1663 0.827707 0.302315 0.450869
-5.782107 -4.807115 -0.125167 1665 0.814225 0.291406 0.483747
-5.782873 -4.807747 -0.122863 1653 0.803200 0.282315 0.516898
-5.783637 -4.808366 -0.120569 1633 0.792208 0.273410 0.549905
-5.784681 -4.809227 -0.118284 1609 0.777190 0.261019 0.582783
-5.786342 -4.810590 -0.116004 1595 0.753286 0.241410 0.615588
-5.788961 -4.812758 -0.113740 1583 0.715606 0.210213 0.648164
-5.791295 -4.814689 -0.111467 1569 0.682021 0.182426 0.680869
-5.792782 -4.815912 -0.109180 1547 0.660629 0.164835 0.713775
-5.794507 -4.817337 -0.106901 1513 0.635806 0.144327 0.746567
-5.796676 -4.819123 -0.104617 1489 0.604595 0.118633 0.779430
-5.799116 -4.821145 -0.102344 1441 0.569488 0.089536 0.812135
-5.802452 -4.823911 -0.100076 1385 0.521488 0.049735 0.844768
-5.806253 -4.827058 -0.097816 1319 0.466800 0.004460 0.877286
-5.810218 -4.830338 -0.095563 1209 0.409751 -0.042737 0.909703
-5.802437 -4.821610 -0.218282 1385 0.521708 0.082846 -0.856038
-5.799114 -4.818845 -0.215841 1439 0.569515 0.122633 -0.820915
-5.796756 -4.816864 -0.213443 1475 0.603449 0.151133 -0.786412
-5.794550 -4.815029 -0.211046 1505 0.635188 0.177534 -0.751922
-5.792530 -4.813334 -0.208658 1543 0.664251 0.201925 -0.717563
-5.790953 -4.812013 -0.206296 1567 0.686941 0.220930 -0.683577
-5.789434 -4.810734 -0.203924 1585 0.708800 0.239338 -0.649448
-5.787514 -4.809136 -0.201545 1597 0.736422 0.262329 -0.615218
-5.785709 -4.807621 -0.199174 1615 0.762397 0.284126 -0.581102
-5.784240 -4.806391 -0.196813 1629 0.783536 0.301828 -0.547131
-5.783337 -4.805626 -0.194478 1643 0.796524 0.312833 -0.513534
-5.782433 -4.804862 -0.192132 1659 0.809532 0.323824 -0.479779
-5.780957 -4.803625 -0.189781 1665 0.830767 0.341621 -0.445951
-5.780276 -4.803048 -0.187454 1671 0.840571 0.349923 -0.412469
-5.779594 -4.802472 -0.185119 1681 0.850383 0.358211 -0.378872
-5.778691 -4.801707 -0.182783 1695 0.863377 0.369223 -0.345261
-5.778059 -4.801165 -0.180457 1697 0.872468 0.377017 -0.311793
-5.777715 -4.800873 -0.178138 1705 0.877415 0.381223 -0.278426
-5.777363 -4.800574 -0.175821 1711 0.882485 0.385525 -0.245088
-5.777125 -4.800359 -0.173501 1711 0.885909 0.388619 -0.211707
-5.776831 -4.800102 -0.171184 1717 0.890135 0.392310 -0.178369
-5.776321 -4.799664 -0.168867 1719 0.897476 0.398615 -0.145031
-5.776142 -4.799504 -0.166557 1723 0.900049 0.400921 -0.111793
-5.775789 -4.799205 -0.164239 1727 0.905133 0.405222 -0.078441
-5.775660 -4.799080 -0.161920 1727 0.906985 0.407020 -0.045074
-5.775924 -4.799296 -0.159629 1729 0.903184 0.403912 -0.012110
-5.776130 -4.799456 -0.157327 1731 0.900221 0.401607 0.021013
-5.776122 -4.799435 -0.155017 1717 0.900337 0.401909 0.054250
-5.775655 -4.799039 -0.152700 1701 0.907061 0.407610 0.087588
-5.775475 -4.798865 -0.150380 1709 0.909648 0.410114 0.120970
-5.776011 -4.799303 -0.148088 1729 0.901936 0.403809 0.153948
-5.776840 -4.799984 -0.145803 1723 0.890005 0.394012 0.186826
-5.777104 -4.800185 -0.143503 1709 0.886210 0.391116 0.219919
-5.776967 -4.800067 -0.141193 1699 0.888180 0.392818 0.253157
-5.777460 -4.800464 -0.138891 1687 0.881085 0.387103 0.286279
-5.777774 -4.800714 -0.136598 1683 0.876571 0.383507 0.319272
-5.778374 -4.801200 -0.134296 1685 0.867933 0.376516 0.352394
-5.779647 -4.802242 -0.132018 1675 0.849621 0.361525 0.385171
-5.780749 -4.803146 -0.129733 1681 0.833765 0.348517 0.418049
-5.781965 -4.804147 -0.127447 1671 0.816270 0.334115 0.450941
-5.782788 -4.804821 -0.125162 1657 0.804428 0.324414 0.483818
-5.783438 -4.805342 -0.122857 1649 0.795069 0.316915 0.516984
-5.784990 -4.806627 -0.120580 1645 0.772744 0.298431 0.549747
-5.786429 -4.807816 -0.118301 1629 0.752037 0.281320 0.582538
-5.787695 -4.808851 -0.116014 1603 0.733822 0.266432 0.615444
-5.789755 -4.810546 -0.113733 1595 0.704182 0.242041 0.648265
-5.791860 -4.812284 -0.111461 1575 0.673891 0.217033 0.680955
-5.793584 -4.813708 -0.109182 1555 0.649089 0.196546 0.713747
-5.795244 -4.815070 -0.106893 1525 0.625199 0.176944 0.746682
-5.797184 -4.816675 -0.104612 1485 0.597288 0.153850 0.779502
-5.799402 -4.818510 -0.102331 1447 0.565371 0.127449 0.812322
-5.802580 -4.821136 -0.100063 1405 0.519650 0.089666 0.844955
-5.806832 -4.824652 -0.097820 1343 0.458470 0.039073 0.877229
-5.810905 -4.828022 -0.095558 1243 0.399864 -0.009413 0.909775
-5.803853 -4.819793 -0.218282 1397 0.501331 0.108986 -0.856038
-5.800307 -4.816840 -0.215843 1437 0.552356 0.151476 -0.820944
-5.796933 -4.814025 -0.213401 1475 0.600897 0.191984 -0.785807
-5.794627 -4.812094 -0.211004 1505 0.634077 0.219764 -0.751318
-5.793050 -4.810773 -0.208642 1533 0.656773 0.238775 -0.717333
-5.791632 -4.809592 -0.206270 1557 0.677171 0.255770 -0.683203
-5.789998 -4.808216 -0.203908 1579 0.700683 0.275564 -0.649217
-5.788472 -4.806944 -0.201537 1595 0.722638 0.293869 -0.615102
-5.787010 -4.805720 -0.199186 1619 0.743674 0.311481 -0.581275
-5.785484 -4.804435 -0.196824 1639 0.765636 0.329971 -0.547289
-5.783793 -4.803017 -0.194454 1645 0.789965 0.350369 -0.513189
-5.782374 -4.801836 -0.192100 1653 0.810383 0.367364 -0.479318
-5.781528 -4.801113 -0.189765 1665 0.822554 0.377765 -0.445721
-5.780904 -4.800591 -0.187429 1673 0.831535 0.385278 -0.412110
-5.780280 -4.800056 -0.185102 1687 0.840510 0.392976 -0.378628
-5.779477 -4.799376 -0.182777 1699 0.852063 0.402759 -0.345174
-5.779017 -4.798986 -0.180450 1701 0.858684 0.408372 -0.311692
-5.778788 -4.798778 -0.178130 1709 0.861978 0.411363 -0.278311
-5.778600 -4.798611 -0.175823 1717 0.864681 0.413764 -0.245117
-5.777812 -4.797945 -0.173486 1713 0.876022 0.423349 -0.211491
-5.777122 -4.797360 -0.171159 1725 0.885950 0.431767 -0.178009
-5.777337 -4.797527 -0.168859 1729 0.882855 0.429366 -0.144915
-5.776920 -4.797180 -0.166541 1731 0.888859 0.434354 -0.111563
-5.776460 -4.796777 -0.164224 1735 0.895473 0.440158 -0.078225
-5.776618 -4.796902 -0.161922 1743 0.893202 0.438354 -0.045102
-5.776710 -4.796964 -0.159612 1739 0.891878 0.437462 -0.011865
-5.776872 -4.797082 -0.157312 1731 0.889545 0.435767 0.021228
-5.776742 -4.796971 -0.155002 1733 0.891418 0.437366 0.054466
-5.776555 -4.796805 -0.152694 1727 0.894107 0.439754 0.087675
-5.777156 -4.797291 -0.150400 1729 0.885463 0.432762 0.120682
-5.777470 -4.797542 -0.148097 1719 0.880941 0.429147 0.153819
-5.777411 -4.797472 -0.145789 1705 0.881792 0.430155 0.187027
-5.778276 -4.798188 -0.143504 1711 0.869346 0.419850 0.219905
-5.779113 -4.798862 -0.141219 1715 0.857305 0.410155 0.252782
-5.779319 -4.799022 -0.138917 1707 0.854341 0.407850 0.285905
-5.780085 -4.799654 -0.136625 1703 0.843316 0.398759 0.318883
-5.780513 -4.800002 -0.134323 1697 0.837161 0.393751 0.352006
-5.781228 -4.800571 -0.132028 1695 0.826870 0.385566 0.385027
-5.782330 -4.801475 -0.129741 1683 0.811014 0.372557 0.417934
-5.782536 -4.801634 -0.127441 1675 0.808050 0.370273 0.451027
-5.783466 -4.802399 -0.125156 1667 0.794671 0.359261 0.483905
-5.785133 -4.803768 -0.122877 1659 0.770685 0.339563 0.516696
-5.786571 -4.804956 -0.120599 1649 0.749993 0.322472 0.549473
-5.786878 -4.805200 -0.118287 1633 0.745574 0.318959 0.582739
-5.787865 -4.806005 -0.116002 1615 0.731372 0.307378 0.615617
-5.790262 -4.807986 -0.113729 1597 0.696882 0.278878 0.648322
-5.792488 -4.809827 -0.111455 1579 0.664855 0.252388 0.681041
-5.794427 -4.811419 -0.109176 1559 0.636958 0.229479 0.713833
-5.796144 -4.812836 -0.106897 1531 0.612252 0.209088 0.746624
-5.798363 -4.814670 -0.104614 1497 0.580321 0.182701 0.779473
-5.800875 -4.816734 -0.102340 1459 0.544178 0.153006 0.812193
-5.803036 -4.818527 -0.100059 1415 0.513084 0.127202 0.845013
-5.806444 -4.821334 -0.097801 1349 0.464048 0.086819 0.877502
-5.810294 -4.824530 -0.095538 1271 0.408653 0.040830 0.910063
-5.815048 -4.828463 -0.093282 1139 0.340249 -0.015760 0.942524
-5.804451 -4.817239 -0.218267 1403 0.492727 0.145741 -0.855822
-5.800735 -4.814146 -0.215808 1449 0.546195 0.190241 -0.820441
-5.797869 -4.811756 -0.213394 1485 0.587429 0.224628 -0.785707
-5.796178 -4.810338 -0.211023 1515 0.611765 0.245033 -0.751592
-5.794380 -4.808829 -0.208642 1541 0.637631 0.266748 -0.717333
-5.792402 -4.807176 -0.206264 1573 0.666097 0.290528 -0.683117
-5.790768 -4.805813 -0.203893 1599 0.689603 0.310143 -0.649002
-5.789185 -4.804486 -0.201522 1605 0.712381 0.329237 -0.614886
-5.787945 -4.803451 -0.199169 1625 0.730226 0.344125 -0.581030
-5.786863 -4.802540 -0.196824 1643 0.745794 0.357237 -0.547289
-5.785180 -4.801129 -0.194463 1655 0.770006 0.377538 -0.513318
-5.783596 -4.799802 -0.192102 1659 0.792798 0.396632 -0.479347
-5.782514 -4.798892 -0.189758 1663 0.808366 0.409723 -0.445620
-5.781660 -4.798176 -0.187423 1675 0.820654 0.420028 -0.412023
-5.781094 -4.797697 -0.185096 1687 0.828798 0.426917 -0.378541
-5.780799 -4.797440 -0.182779 1705 0.833045 0.430615 -0.345203
-5.780461 -4.797141 -0.180459 1699 0.837909 0.434917 -0.311822
-5.779379 -4.796230 -0.178115 1711 0.853477 0.448028 -0.278095
-5.778870 -4.795793 -0.175798 1721 0.860797 0.454313 -0.244757
-5.778682 -4.795625 -0.173480 1731 0.863501 0.456728 -0.211405
-5.777993 -4.795042 -0.171153 1727 0.873415 0.465119 -0.177922
-5.777692 -4.794792 -0.168846 1729 0.877751 0.468714 -0.144728
-5.777462 -4.794583 -0.166526 1737 0.881058 0.471726 -0.111347
-5.777339 -4.794465 -0.164216 1737 0.882828 0.473420 -0.078110
-5.777495 -4.794590 -0.161916 1745 0.880584 0.471623 -0.045016
-5.777809 -4.794841 -0.159614 1739 0.876063 0.468014 -0.011894
-5.778023 -4.795008 -0.157314 1737 0.872989 0.465606 0.021200
-5.778230 -4.795167 -0.155012 1727 0.870005 0.463321 0.054322
-5.778392 -4.795285 -0.152711 1731 0.867679 0.461620 0.087430
-5.778141 -4.795070 -0.150392 1731 0.871288 0.464714 0.120797
-5.777961 -4.794911 -0.148084 1707 0.873881 0.467005 0.154006
-5.778683 -4.795487 -0.145799 1705 0.863487 0.458717 0.186883
-5.779384 -4.796057 -0.143506 1701 0.853401 0.450512 0.219876
-5.780042 -4.796599 -0.141212 1703 0.843933 0.442718 0.252883
-5.780248 -4.796759 -0.138912 1701 0.840969 0.440412 0.285977
-5.780340 -4.796821 -0.136611 1691 0.839645 0.439520 0.319085
-5.780997 -4.797349 -0.134317 1681 0.830198 0.431925 0.352092
-5.782042 -4.798212 -0.132032 1681 0.815158 0.419507 0.384969
-5.782814 -4.798836 -0.129737 1679 0.804050 0.410526 0.417991
-5.783178 -4.799136 -0.127435 1659 0.798815 0.406210 0.451113
-5.784795 -4.800456 -0.125156 1669 0.775550 0.387219 0.483905
-5.786061 -4.801506 -0.122880 1663 0.757334 0.372111 0.516653
-5.787048 -4.802311 -0.120584 1647 0.743132 0.360530 0.549689
-5.788207 -4.803256 -0.118299 1631 0.726453 0.346932 0.582567
-5.789652 -4.804437 -0.116010 1617 0.705664 0.329937 0.615502
-5.791763 -4.806181 -0.113738 1601 0.675291 0.304846 0.648193
-5.793481 -4.807599 -0.111459 1571 0.650571 0.284442 0.680984
-5.795534 -4.809287 -0.109178 1551 0.621027 0.260154 0.713804
-5.797080 -4.810566 -0.106899 1531 0.598784 0.241753 0.746595
-5.798855 -4.812026 -0.104610 1499 0.573247 0.220745 0.779531
-5.801917 -4.814555 -0.102342 1469 0.529186 0.184354 0.812164
-5.804823 -4.816945 -0.100076 1419 0.487376 0.149967 0.844768
-5.807830 -4.819432 -0.097810 1355 0.444110 0.114187 0.877372
-5.811515 -4.822483 -0.095540 1277 0.391089 0.070284 0.910034
-5.804290 -4.814002 -0.218217 1411 0.495046 0.192313 -0.855102
-5.801532 -4.811701 -0.215793 1453 0.534730 0.225424 -0.820225
-5.799447 -4.809957 -0.213403 1499 0.564726 0.250514 -0.785836
-5.796804 -4.807754 -0.210998 1525 0.602757 0.282212 -0.751232
-5.794770 -4.806058 -0.208610 1549 0.632025 0.306617 -0.716872
-5.793530 -4.805008 -0.206256 1577 0.649864 0.321724 -0.683002
-5.791781 -4.803549 -0.203885 1603 0.675030 0.342719 -0.648887
-5.790098 -4.802138 -0.201515 1617 0.699242 0.363021 -0.614786
-5.788457 -4.800770 -0.199155 1629 0.722858 0.382705 -0.580829
-5.786817 -4.799401 -0.196782 1641 0.746453 0.402403 -0.546685
-5.786357 -4.799011 -0.194455 1663 0.753073 0.408008 -0.513203
-5.785389 -4.798199 -0.192121 1663 0.767001 0.419692 -0.479620
-5.783706 -4.796788 -0.189760 1669 0.791214 0.439994 -0.445649
-5.782688 -4.795926 -0.187415 1681 0.805862 0.452398 -0.411908
-5.782107 -4.795433 -0.185089 1695 0.814225 0.459493 -0.378441
-5.781540 -4.794953 -0.182762 1705 0.822383 0.466402 -0.344958
-5.781360 -4.794793 -0.180454 1715 0.824969 0.468700 -0.311750
-5.781352 -4.794773 -0.178144 1725 0.825086 0.468988 -0.278512
-5.780713 -4.794238 -0.175817 1725 0.834280 0.476686 -0.245030
-5.780261 -4.793841 -0.173499 1739 0.840784 0.482401 -0.211678
-5.779515 -4.793216 -0.171163 1733 0.851521 0.491389 -0.178066
-5.779048 -4.792820 -0.168846 1731 0.858238 0.497091 -0.144728
-5.779435 -4.793126 -0.166555 1741 0.852667 0.492686 -0.111764
-5.779583 -4.793244 -0.164243 1749 0.850540 0.490991 -0.078498
-5.778952 -4.792702 -0.161928 1753 0.859617 0.498785 -0.045189
-5.778887 -4.792640 -0.159618 1745 0.860557 0.499677 -0.011951
-5.778929 -4.792668 -0.157306 1739 0.859947 0.499279 0.021315
-5.778569 -4.792348 -0.154989 1735 0.865127 0.503883 0.054653
-5.778503 -4.792285 -0.152690 1731 0.866080 0.504789 0.087732
-5.779219 -4.792869 -0.150396 1733 0.855775 0.496384 0.120739
-5.779533 -4.793119 -0.148094 1727 0.851261 0.492789 0.153862
-5.779403 -4.792994 -0.145784 1719 0.853127 0.494586 0.187099
-5.780232 -4.793675 -0.143501 1713 0.841202 0.484789 0.219948
-5.780546 -4.793926 -0.141199 1707 0.836681 0.481180 0.253070
-5.780753 -4.794085 -0.138896 1707 0.833703 0.478889 0.286207
-5.781303 -4.794523 -0.136604 1699 0.825793 0.472590 0.319185
-5.782290 -4.795329 -0.134319 1691 0.811591 0.460988 0.352063
-5.783513 -4.796337 -0.132032 1689 0.793992 0.446484 0.384969
-5.784450 -4.797094 -0.129747 1687 0.780510 0.435596 0.417847
-5.784986 -4.797532 -0.127454 1685 0.772799 0.429291 0.450840
-5.785414 -4.797880 -0.125152 1675 0.766638 0.424282 0.483962
-5.786795 -4.799012 -0.122865 1667 0.746768 0.407994 0.516869
-5.787897 -4.799915 -0.120578 1651 0.730912 0.395006 0.549775
-5.788834 -4.800673 -0.118293 1631 0.717431 0.384097 0.582653
-5.791002 -4.802458 -0.116022 1621 0.686241 0.358417 0.615329
-5.793177 -4.804251 -0.113750 1603 0.654941 0.332613 0.648020
-5.794493 -4.805335 -0.111463 1579 0.636005 0.317018 0.680926
-5.796053 -4.806613 -0.109174 1549 0.613563 0.298630 0.713862
-5.798157 -4.808351 -0.106902 1531 0.583285 0.273622 0.746552
-5.800325 -4.810136 -0.104619 1505 0.552095 0.247942 0.779401
-5.802887 -4.812249 -0.102346 1469 0.515231 0.217534 0.812106
-5.805672 -4.814549 -0.100070 1431 0.475156 0.184443 0.844854
-5.807948 -4.816425 -0.097799 1369 0.442409 0.157452 0.877531
-5.811533 -4.819378 -0.095529 1297 0.390828 0.114962 0.910193
-5.816502 -4.823492 -0.093282 1183 0.319330 0.055766 0.942524
-5.805964 -4.812436 -0.218236 1419 0.470957 0.214844 -0.855376
-5.803264 -4.810176 -0.215820 1457 0.509804 0.247365 -0.820613
-5.800842 -4.808161 -0.213415 1489 0.544658 0.276360 -0.786009
-5.798421 -4.806146 -0.211017 1515 0.579491 0.305347 -0.751505
-5.796501 -4.804548 -0.208627 1541 0.607113 0.328345 -0.717117
-5.794810 -4.803130 -0.206256 1571 0.631449 0.348743 -0.683002
-5.793341 -4.801900 -0.203895 1599 0.652581 0.366444 -0.649031
-5.792324 -4.801052 -0.201551 1619 0.667215 0.378643 -0.615304
-5.790797 -4.799767 -0.199190 1645 0.689184 0.397133 -0.581333
-5.789049 -4.798307 -0.196819 1651 0.714336 0.418142 -0.547218
-5.787802 -4.797265 -0.194465 1655 0.732278 0.433133 -0.513347
-5.786620 -4.796271 -0.192123 1673 0.749286 0.447438 -0.479649
-5.785480 -4.795319 -0.189779 1673 0.765691 0.461132 -0.445922
-5.784355 -4.794366 -0.187435 1681 0.781876 0.474847 -0.412196
-5.783552 -4.793700 -0.185100 1693 0.793430 0.484425 -0.378599
-5.783658 -4.793777 -0.182798 1705 0.791906 0.483321 -0.345476
-5.783707 -4.793797 -0.180488 1729 0.791200 0.483033 -0.312239
-5.783019 -4.793213 -0.178163 1723 0.801100 0.491437 -0.278786
-5.782559 -4.792824 -0.175834 1723 0.807721 0.497036 -0.245275
-5.782264 -4.792567 -0.173517 1741 0.811961 0.500734 -0.211937
-5.781411 -4.791851 -0.171192 1731 0.824235 0.511032 -0.178484
-5.780608 -4.791171 -0.168855 1741 0.835789 0.520816 -0.144858
-5.780479 -4.791059 -0.166545 1739 0.837649 0.522428 -0.111620
-5.780813 -4.791316 -0.164255 1747 0.832839 0.518730 -0.078671
-5.780519 -4.791059 -0.161935 1755 0.837072 0.522428 -0.045289
-5.780268 -4.790844 -0.159627 1745 0.840681 0.525523 -0.012081
-5.780309 -4.790872 -0.157318 1735 0.840091 0.525118 0.021142
-5.779907 -4.790524 -0.155000 1723 0.845875 0.530126 0.054495
-5.780113 -4.790684 -0.152698 1733 0.842911 0.527821 0.087617
-5.780542 -4.791032 -0.150405 1733 0.836743 0.522819 0.120610
-5.780419 -4.790914 -0.148097 1737 0.838513 0.524514 0.153819
-5.780848 -4.791261 -0.145795 1729 0.832338 0.519519 0.186941
-5.781727 -4.791977 -0.143510 1717 0.819693 0.509221 0.219819
-5.782163 -4.792317 -0.141218 1709 0.813416 0.504329 0.252797
-5.782484 -4.792575 -0.138915 1715 0.808798 0.500617 0.285934
-5.782848 -4.792874 -0.136613 1713 0.803563 0.496315 0.319056
-5.783398 -4.793312 -0.134321 1703 0.795646 0.490010 0.352034
-5.784278 -4.794027 -0.132036 1701 0.782987 0.479726 0.384912
-5.785494 -4.795028 -0.129749 1693 0.765492 0.465318 0.417818
-5.786374 -4.795743 -0.127464 1681 0.752826 0.455033 0.450696
-5.787081 -4.796320 -0.125160 1671 0.742658 0.446731 0.483847
-5.787961 -4.797035 -0.122877 1657 0.729993 0.436440 0.516696
-5.789291 -4.798120 -0.120588 1647 0.710858 0.420831 0.549631
-5.791073 -4.799586 -0.118318 1635 0.685218 0.399740 0.582293
-5.792504 -4.800767 -0.116031 1627 0.664629 0.382746 0.615200
-5.794279 -4.802227 -0.113752 1609 0.639085 0.361738 0.647991
-5.796003 -4.803637 -0.111472 1585 0.614283 0.341450 0.680797
-5.797326 -4.804728 -0.109184 1555 0.595244 0.325752 0.713718
-5.798922 -4.806041 -0.106895 1533 0.572280 0.306864 0.746653
-5.801040 -4.807778 -0.104614 1509 0.541804 0.281869 0.779473
-5.803602 -4.809890 -0.102350 1481 0.504940 0.251482 0.812049
-5.806215 -4.812052 -0.100076 1437 0.467348 0.220374 0.844768
-5.809571 -4.814809 -0.097808 1379 0.419061 0.180704 0.877401
-5.813322 -4.817908 -0.095546 1303 0.365086 0.136115 0.909948
-5.817224 -4.821140 -0.093286 1199 0.308942 0.089611 0.942466
-5.807712 -4.811122 -0.218253 1423 0.445805 0.233753 -0.855620
-5.804053 -4.808085 -0.215803 1455 0.498456 0.277451 -0.820369
-5.801631 -4.806070 -0.213407 1485 0.533303 0.306445 -0.785894
-5.799941 -4.804652 -0.211025 1519 0.557618 0.326843 -0.751620
-5.798414 -4.803380 -0.208663 1551 0.579587 0.345148 -0.717635
-5.796552 -4.801824 -0.206285 1575 0.606379 0.367535 -0.683419
-5.794746 -4.800323 -0.203904 1601 0.632368 0.389133 -0.649160
-5.792777 -4.798676 -0.201536 1611 0.660697 0.412831 -0.615088
-5.790971 -4.797161 -0.199155 1633 0.686687 0.434628 -0.580829
-5.789888 -4.796265 -0.196811 1643 0.702268 0.447520 -0.547102
-5.788764 -4.795313 -0.194467 1657 0.718439 0.461222 -0.513376
-5.787738 -4.794458 -0.192123 1675 0.733204 0.473523 -0.479649
-5.786491 -4.793416 -0.189779 1673 0.751145 0.488515 -0.445922
-5.785409 -4.792505 -0.187435 1681 0.766713 0.501626 -0.412196
-5.785122 -4.792255 -0.185117 1695 0.770843 0.505221 -0.378843
-5.784891 -4.792047 -0.182798 1699 0.774164 0.508212 -0.345476
-5.784210 -4.791470 -0.180473 1713 0.783961 0.516514 -0.312023
-5.783687 -4.791032 -0.178146 1719 0.791488 0.522819 -0.278541
-5.782776 -4.790261 -0.175809 1723 0.804599 0.533914 -0.244915
-5.782316 -4.789872 -0.173492 1737 0.811213 0.539505 -0.211577
-5.782021 -4.789615 -0.171174 1737 0.815460 0.543203 -0.178225
-5.781448 -4.789128 -0.168857 1743 0.823707 0.550215 -0.144886
-5.781268 -4.788968 -0.166538 1739 0.826294 0.552514 -0.111520
-5.781696 -4.789316 -0.164247 1747 0.820139 0.547505 -0.078556
-5.782032 -4.789573 -0.161954 1747 0.815302 0.543807 -0.045563
-5.781960 -4.789504 -0.159644 1751 0.816338 0.544802 -0.012325
-5.781771 -4.789337 -0.157325 1735 0.819055 0.547203 0.021042
-5.781763 -4.789316 -0.155025 1727 0.819172 0.547505 0.054135
-5.781970 -4.789476 -0.152725 1737 0.816194 0.545207 0.087229
-5.781840 -4.789365 -0.150415 1733 0.818067 0.546805 0.120466
-5.781710 -4.789240 -0.148107 1729 0.819934 0.548603 0.153674
-5.782482 -4.789865 -0.145812 1725 0.808826 0.539608 0.186696
-5.783476 -4.790678 -0.143527 1727 0.794527 0.527910 0.219574
-5.784019 -4.791123 -0.141233 1727 0.786713 0.521509 0.252581
-5.784326 -4.791367 -0.138933 1725 0.782294 0.517996 0.285675
-5.784425 -4.791436 -0.136630 1709 0.780874 0.517001 0.318811
-5.784230 -4.791262 -0.134323 1689 0.783673 0.519506 0.352006
-5.784781 -4.791700 -0.132020 1679 0.775749 0.513207 0.385142
-5.786448 -4.793069 -0.129751 1677 0.751763 0.493509 0.417790
-5.787836 -4.794208 -0.127473 1679 0.731791 0.477118 0.450567
-5.788651 -4.794876 -0.125179 1673 0.720065 0.467506 0.483574
-5.789423 -4.795500 -0.122884 1657 0.708957 0.458532 0.516595
-5.790417 -4.796314 -0.120599 1645 0.694652 0.446820 0.549473
-5.791519 -4.797217 -0.118303 1625 0.678797 0.433826 0.582509
-5.793178 -4.798579 -0.116023 1617 0.654927 0.414224 0.615315
-5.795068 -4.800136 -0.113754 1601 0.627737 0.391823 0.647962
-5.797186 -4.801873 -0.111482 1597 0.597261 0.366828 0.680653
-5.798896 -4.803283 -0.109193 1563 0.572657 0.346541 0.713588
-5.800621 -4.804693 -0.106914 1535 0.547834 0.326253 0.746380
-5.803011 -4.806667 -0.104640 1515 0.513447 0.297855 0.779099
-5.805516 -4.808723 -0.102367 1489 0.477407 0.268271 0.811804
-5.807512 -4.810370 -0.100076 1435 0.448687 0.244573 0.844768
-5.810246 -4.812621 -0.097810 1375 0.409346 0.212182 0.877372
-5.814269 -4.815942 -0.095548 1301 0.351460 0.164402 0.909919
-5.818750 -4.819639 -0.093294 1213 0.286987 0.111203 0.942351
-5.809603 -4.809878 -0.218280 1433 0.418594 0.251653 -0.856009
-5.806502 -4.807300 -0.215856 1469 0.463218 0.288744 -0.821131
-5.803351 -4.804673 -0.213424 1495 0.508555 0.326541 -0.786138
-5.800865 -4.802609 -0.211017 1523 0.544322 0.356242 -0.751505
-5.799117 -4.801150 -0.208646 1551 0.569474 0.377237 -0.717390
-5.797261 -4.799600 -0.206268 1581 0.596177 0.399535 -0.683174
-5.795449 -4.798092 -0.203897 1595 0.622255 0.421236 -0.649059
-5.793593 -4.796543 -0.201516 1617 0.648958 0.443520 -0.614800
-5.792174 -4.795361 -0.199165 1629 0.669376 0.460529 -0.580973
-5.791163 -4.794506 -0.196821 1637 0.683922 0.472830 -0.547246
-5.790590 -4.794020 -0.194494 1645 0.692169 0.479822 -0.513764
-5.790130 -4.793631 -0.192167 1681 0.698783 0.485420 -0.480282
-5.788719 -4.792442 -0.189815 1689 0.719084 0.502531 -0.446441
-5.787350 -4.791310 -0.187461 1683 0.738782 0.518819 -0.412570
-5.786397 -4.790497 -0.185117 1687 0.752497 0.530517 -0.378843
-5.785708 -4.789927 -0.182790 1697 0.762411 0.538716 -0.345361
-5.785128 -4.789434 -0.180463 1701 0.770754 0.545810 -0.311879
-5.784561 -4.788954 -0.178148 1717 0.778912 0.552719 -0.278570
-5.784044 -4.788509 -0.175821 1719 0.786356 0.559121 -0.245088
-5.783692 -4.788211 -0.173501 1729 0.791419 0.563409 -0.211707
-5.783010 -4.787634 -0.171176 1733 0.801230 0.571711 -0.178253
-5.782544 -4.787238 -0.168859 1727 0.807934 0.577405 -0.144915
-5.782701 -4.787349 -0.166557 1739 0.805676 0.575807 -0.111793
-5.782971 -4.787557 -0.164256 1747 0.801793 0.572815 -0.078685
-5.782899 -4.787488 -0.161947 1753 0.802829 0.573810 -0.045462
-5.782890 -4.787467 -0.159637 1751 0.802960 0.574112 -0.012225
-5.782975 -4.787537 -0.157337 1747 0.801731 0.573103 0.020869
-5.783074 -4.787607 -0.155036 1741 0.800311 0.572095 0.053977
-5.783116 -4.787621 -0.152725 1735 0.799707 0.571896 0.087229
-5.782879 -4.787419 -0.150417 1731 0.803117 0.574805 0.120437
-5.783085 -4.787579 -0.148115 1729 0.800153 0.572500 0.153560
-5.784137 -4.788434 -0.145830 1727 0.785018 0.560198 0.186437
-5.785238 -4.789337 -0.143554 1735 0.769176 0.547203 0.219185
-5.785560 -4.789594 -0.141252 1723 0.764538 0.543505 0.252308
-5.785487 -4.789511 -0.138942 1709 0.765588 0.544699 0.285545
-5.785464 -4.789490 -0.136632 1693 0.765924 0.545001 0.318783
-5.786121 -4.790018 -0.134340 1685 0.756470 0.537406 0.351761
-5.787173 -4.790873 -0.132053 1689 0.741334 0.525104 0.384667
-5.788167 -4.791685 -0.129768 1689 0.727029 0.513420 0.417545
-5.789319 -4.792637 -0.127481 1687 0.710453 0.499725 0.450452
-5.790370 -4.793492 -0.125196 1677 0.695332 0.487424 0.483329
-5.791078 -4.794069 -0.122901 1657 0.685143 0.479122 0.516351
-5.792065 -4.794876 -0.120607 1645 0.670941 0.467506 0.549358
-5.793052 -4.795681 -0.118322 1631 0.656739 0.455925 0.582236
-5.793931 -4.796397 -0.116027 1613 0.644094 0.445620 0.615257
-5.796336 -4.798370 -0.113754 1609 0.609487 0.417236 0.647962
-5.798726 -4.800343 -0.111490 1597 0.575100 0.388845 0.680538
-5.800279 -4.801615 -0.109201 1567 0.552754 0.370540 0.713473
-5.802067 -4.803074 -0.106922 1541 0.527032 0.349553 0.746265
-5.803834 -4.804526 -0.104633 1521 0.501605 0.328661 0.779200
-5.805946 -4.806270 -0.102361 1483 0.471218 0.303563 0.811890
-5.808114 -4.808056 -0.100078 1437 0.440021 0.277869 0.844739
-5.811464 -4.810807 -0.097810 1383 0.391823 0.238281 0.877372
-5.815379 -4.814038 -0.095550 1319 0.335488 0.191798 0.909890
-5.819910 -4.817783 -0.093305 1227 0.270295 0.137912 0.942193
-5.811198 -4.808164 -0.218299 1439 0.395644 0.276312 -0.856282
-5.807259 -4.804898 -0.215841 1465 0.452323 0.323309 -0.820915
-5.804050 -4.802229 -0.213409 1489 0.498497 0.361710 -0.785923
-5.801571 -4.800159 -0.211002 1513 0.534167 0.391494 -0.751290
-5.799701 -4.798609 -0.208621 1553 0.561069 0.413799 -0.717030
-5.798018 -4.797198 -0.206251 1577 0.585288 0.434100 -0.682930
-5.796098 -4.795600 -0.203882 1593 0.612911 0.457091 -0.648843
-5.794114 -4.793953 -0.201503 1603 0.641459 0.480789 -0.614613
-5.792931 -4.792960 -0.199149 1619 0.658481 0.495074 -0.580743
-5.791970 -4.792153 -0.196805 1635 0.672313 0.506689 -0.547016
-5.791232 -4.791535 -0.194469 1655 0.682927 0.515581 -0.513405
-5.790607 -4.791000 -0.192142 1679 0.691922 0.523279 -0.479922
-5.789189 -4.789819 -0.189790 1671 0.712326 0.540274 -0.446081
-5.788393 -4.789145 -0.187454 1677 0.723777 0.549968 -0.412469
-5.787540 -4.788429 -0.185119 1687 0.736051 0.560273 -0.378872
-5.786343 -4.787421 -0.182775 1685 0.753272 0.574771 -0.345146
-5.786170 -4.787269 -0.180467 1695 0.755763 0.576959 -0.311937
-5.786269 -4.787338 -0.178155 1707 0.754336 0.575971 -0.278671
-5.785974 -4.787081 -0.175847 1723 0.758583 0.579669 -0.245462
-5.785064 -4.786324 -0.173513 1725 0.771674 0.590558 -0.211879
-5.784432 -4.785781 -0.171186 1725 0.780771 0.598372 -0.178397
-5.784024 -4.785441 -0.168868 1721 0.786644 0.603264 -0.145045
-5.783679 -4.785135 -0.166551 1739 0.791605 0.607669 -0.111707
-5.783943 -4.785351 -0.164249 1753 0.787804 0.604561 -0.078584
-5.783992 -4.785372 -0.161949 1739 0.787104 0.604259 -0.045491
-5.783575 -4.785024 -0.159631 1735 0.793100 0.609261 -0.012138
-5.783904 -4.785275 -0.157329 1747 0.788366 0.605652 0.020984
-5.784447 -4.785719 -0.155036 1747 0.780552 0.599264 0.053977
-5.784209 -4.785503 -0.152727 1727 0.783982 0.602372 0.087200
-5.783742 -4.785108 -0.150409 1725 0.790699 0.608053 0.120552
-5.783777 -4.785128 -0.148099 1715 0.790191 0.607765 0.153790
-5.784606 -4.785810 -0.145816 1713 0.778267 0.597954 0.186639
-5.785436 -4.786477 -0.143531 1717 0.766322 0.588355 0.219516
-5.785643 -4.786636 -0.141229 1703 0.763344 0.586071 0.252639
-5.786179 -4.787074 -0.138936 1701 0.755633 0.579765 0.285631
-5.787573 -4.788207 -0.136659 1707 0.735578 0.563464 0.318394
-5.788847 -4.789249 -0.134372 1705 0.717245 0.548473 0.351301
-5.789390 -4.789694 -0.132079 1693 0.709431 0.542071 0.384293
-5.789984 -4.790174 -0.129787 1679 0.700882 0.535162 0.417272
-5.791091 -4.791070 -0.127500 1679 0.684958 0.522271 0.450178
-5.791857 -4.791702 -0.125205 1671 0.673939 0.513180 0.483200
-5.792285 -4.792035 -0.122903 1643 0.667778 0.508384 0.516322
-5.792936 -4.792571 -0.120611 1647 0.658413 0.500672 0.549301
-5.794324 -4.793696 -0.118322 1631 0.638440 0.484487 0.582236
-5.795990 -4.795065 -0.116042 1615 0.614468 0.464789 0.615041
-5.797880 -4.796621 -0.113773 1603 0.587271 0.442402 0.647689
-5.799819 -4.798213 -0.111492 1591 0.559375 0.419493 0.680509
-5.801550 -4.799630 -0.109212 1555 0.534469 0.399102 0.713315
-5.803318 -4.801082 -0.106923 1543 0.509029 0.378211 0.746250
-5.804978 -4.802444 -0.104644 1509 0.485146 0.358616 0.779042
-5.806924 -4.804042 -0.102363 1469 0.457146 0.335625 0.811862
-5.809314 -4.806015 -0.100080 1435 0.422759 0.307234 0.844711
-5.812850 -4.808919 -0.097822 1375 0.371878 0.265451 0.877200
-5.817038 -4.812373 -0.095569 1311 0.311618 0.215750 0.909617
-5.821175 -4.815791 -0.093305 1221 0.252092 0.166571 0.942193
-5.811829 -4.805460 -0.218274 1433 0.386567 0.315220 -0.855923
-5.808964 -4.803070 -0.215850 1477 0.427795 0.349607 -0.821045
-5.806529 -4.801054 -0.213455 1509 0.462827 0.378616 -0.786584
-5.804108 -4.799039 -0.211048 1525 0.497660 0.407610 -0.751951
-5.802360 -4.797580 -0.208677 1553 0.522812 0.428605 -0.717836
-5.800096 -4.795704 -0.206279 1577 0.555388 0.455596 -0.683333
-5.797904 -4.793869 -0.203891 1599 0.586928 0.481997 -0.648973
-5.796549 -4.792737 -0.201539 1621 0.606427 0.498285 -0.615131
-5.795130 -4.791555 -0.199176 1625 0.626845 0.515293 -0.581131
-5.793891 -4.790520 -0.196834 1643 0.644670 0.530181 -0.547433
-5.793095 -4.789845 -0.194488 1665 0.656121 0.539896 -0.513678
-5.792292 -4.789179 -0.192163 1677 0.667675 0.549481 -0.480225
-5.790995 -4.788087 -0.189809 1673 0.686337 0.565193 -0.446354
-5.789798 -4.787094 -0.187465 1679 0.703565 0.579477 -0.412628
-5.788945 -4.786378 -0.185130 1691 0.715832 0.589782 -0.379030
-5.788765 -4.786219 -0.182811 1701 0.718426 0.592067 -0.345664
-5.788871 -4.786295 -0.180511 1703 0.716902 0.590976 -0.312570
-5.788641 -4.786087 -0.178192 1717 0.720209 0.593968 -0.279203
-5.788281 -4.785781 -0.175874 1727 0.725389 0.598372 -0.245851
-5.787207 -4.784877 -0.173540 1735 0.740840 0.611381 -0.212268
-5.786633 -4.784391 -0.171213 1735 0.749101 0.618372 -0.178786
-5.786560 -4.784322 -0.168905 1745 0.750151 0.619367 -0.145577
-5.785872 -4.783738 -0.166578 1747 0.760051 0.627765 -0.112095
-5.786028 -4.783863 -0.164277 1741 0.757807 0.625967 -0.078987
-5.786184 -4.783974 -0.161975 1757 0.755564 0.624369 -0.045865
-5.785152 -4.783113 -0.159641 1739 0.770411 0.636759 -0.012282
-5.785144 -4.783092 -0.157331 1739 0.770528 0.637061 0.020955
-5.785465 -4.783349 -0.155031 1733 0.765910 0.633363 0.054049
-5.785614 -4.783453 -0.152728 1725 0.763763 0.631868 0.087185
-5.785828 -4.783619 -0.150428 1733 0.760682 0.629480 0.120279
-5.785978 -4.783738 -0.148128 1727 0.758528 0.627765 0.153372
-5.786463 -4.784127 -0.145835 1713 0.751550 0.622166 0.186365
-5.786899 -4.784468 -0.143533 1703 0.745272 0.617261 0.219487
-5.787441 -4.784913 -0.141239 1713 0.737478 0.610859 0.252495
-5.788271 -4.785580 -0.138955 1709 0.725533 0.601261 0.285358
-5.788979 -4.786157 -0.136661 1699 0.715345 0.592959 0.318365
-5.789808 -4.786838 -0.134376 1693 0.703421 0.583162 0.351243
-5.790179 -4.787129 -0.132074 1681 0.698083 0.578976 0.384365
-5.790615 -4.787470 -0.129772 1679 0.691805 0.574071 0.417488
-5.791487 -4.788178 -0.127487 1671 0.679256 0.563882 0.450365
-5.792367 -4.788894 -0.125192 1665 0.666598 0.553577 0.483387
-5.793640 -4.789936 -0.122915 1659 0.648279 0.538586 0.516149
-5.794913 -4.790979 -0.120628 1647 0.629967 0.523581 0.549056
-5.796123 -4.791973 -0.118343 1629 0.612554 0.509276 0.581934
-5.797968 -4.793487 -0.116062 1615 0.586009 0.487492 0.614754
-5.799908 -4.795078 -0.113792 1607 0.558092 0.464604 0.647416
-5.801962 -4.796767 -0.111511 1597 0.528541 0.440296 0.680236
-5.804144 -4.798552 -0.109239 1565 0.497146 0.414615 0.712926
-5.805582 -4.799726 -0.106950 1543 0.476453 0.397723 0.745862
-5.806569 -4.800532 -0.104656 1511 0.462251 0.386128 0.778869
-5.808802 -4.802367 -0.102373 1477 0.430121 0.359720 0.811718
-5.811808 -4.804840 -0.100107 1437 0.386869 0.324140 0.844322
-5.815551 -4.807932 -0.097846 1375 0.333018 0.279653 0.876854
-5.818972 -4.810739 -0.095577 1313 0.283790 0.239262 0.909502
-5.823045 -4.814095 -0.093326 1219 0.225191 0.190975 0.941890
-5.813050 -4.803413 -0.218276 1445 0.369003 0.344674 -0.855951
-5.810286 -4.801119 -0.215852 1475 0.408770 0.377682 -0.821074
-5.808315 -4.799472 -0.213472 1517 0.437133 0.401380 -0.786829
-5.806510 -4.797972 -0.211093 1549 0.463102 0.422958 -0.752599
-5.804246 -4.796095 -0.208696 1557 0.495677 0.449970 -0.718109
-5.802277 -4.794448 -0.206315 1589 0.524006 0.473667 -0.683851
-5.800421 -4.792899 -0.203935 1601 0.550709 0.495952 -0.649606
-5.798608 -4.791391 -0.201566 1617 0.576801 0.517653 -0.615520
-5.797018 -4.790071 -0.199205 1623 0.599676 0.536644 -0.581548
-5.795778 -4.789035 -0.196851 1641 0.617521 0.551553 -0.547678
-5.794754 -4.788180 -0.194507 1657 0.632252 0.563855 -0.513951
-5.793621 -4.787221 -0.192163 1669 0.648553 0.577652 -0.480225
-5.792654 -4.786422 -0.189819 1675 0.662467 0.589151 -0.446498
-5.792144 -4.785985 -0.187501 1681 0.669809 0.595436 -0.413146
-5.791685 -4.785595 -0.185174 1703 0.676409 0.601048 -0.379664
-5.790824 -4.784873 -0.182838 1715 0.688800 0.611436 -0.346052
-5.790651 -4.784720 -0.180530 1713 0.691290 0.613638 -0.312843
-5.790020 -4.784178 -0.178203 1717 0.700367 0.621439 -0.279361
-5.788938 -4.783282 -0.175859 1721 0.715935 0.634331 -0.245635
-5.788135 -4.782601 -0.173534 1725 0.727489 0.644128 -0.212182
-5.788405 -4.782809 -0.171232 1741 0.723606 0.641137 -0.179059
-5.788276 -4.782698 -0.168922 1755 0.725458 0.642728 -0.145822
-5.787086 -4.781697 -0.166580 1745 0.742583 0.657136 -0.112124
-5.786956 -4.781587 -0.164270 1737 0.744456 0.658715 -0.078887
-5.787163 -4.781746 -0.161970 1745 0.741478 0.656430 -0.045793
-5.787269 -4.781823 -0.159667 1747 0.739948 0.655318 -0.012656
-5.787311 -4.781837 -0.157358 1735 0.739345 0.655119 0.020567
-5.787410 -4.781906 -0.155057 1731 0.737924 0.654125 0.053675
-5.787731 -4.782163 -0.152755 1743 0.733300 0.650426 0.086797
-5.787945 -4.782331 -0.150455 1745 0.730226 0.648011 0.119890
-5.788037 -4.782393 -0.148155 1739 0.728902 0.647119 0.152984
-5.788179 -4.782504 -0.145854 1719 0.726858 0.645521 0.186092
-5.788844 -4.783039 -0.143560 1719 0.717287 0.637823 0.219099
-5.789393 -4.783476 -0.141267 1715 0.709390 0.631538 0.252092
-5.789772 -4.783775 -0.138965 1701 0.703935 0.627236 0.285214
-5.790366 -4.784255 -0.136672 1703 0.695386 0.620327 0.318207
-5.790793 -4.784603 -0.134370 1689 0.689246 0.615319 0.351329
-5.791788 -4.785415 -0.132083 1677 0.674927 0.603635 0.384236
-5.792667 -4.786131 -0.129798 1685 0.662282 0.593336 0.417114
-5.792923 -4.786325 -0.127498 1677 0.658598 0.590544 0.450207
-5.793589 -4.786860 -0.125194 1661 0.649013 0.582846 0.483358
-5.795027 -4.788034 -0.122917 1659 0.628327 0.565954 0.516121
-5.795956 -4.788799 -0.120632 1641 0.614955 0.554949 0.548998
-5.797565 -4.790112 -0.118352 1635 0.591806 0.536054 0.581804
-5.799627 -4.791807 -0.116081 1621 0.562140 0.511663 0.614480
-5.801237 -4.793120 -0.113792 1603 0.538970 0.492775 0.647416
-5.803190 -4.794726 -0.111522 1583 0.510868 0.469667 0.680078
-5.805530 -4.796650 -0.109249 1557 0.477201 0.441983 0.712783
-5.807419 -4.798193 -0.106969 1535 0.450025 0.419781 0.745588
-5.809022 -4.799513 -0.104680 1507 0.426958 0.400790 0.778524
-5.811247 -4.801341 -0.102397 1473 0.394945 0.374485 0.811372
-5.813867 -4.803494 -0.100124 1431 0.357244 0.343508 0.844077
-5.816837 -4.805933 -0.097858 1373 0.314514 0.308414 0.876682
-5.820072 -4.808587 -0.095590 1303 0.267962 0.270226 0.909315
-5.824101 -4.811915 -0.093328 1201 0.209994 0.222343 0.941862
-5.815306 -4.802396 -0.218311 1447 0.336537 0.359309 -0.856455
-5.812319 -4.799915 -0.215888 1475 0.379521 0.395006 -0.821591
-5.809898 -4.797915 -0.213481 1513 0.414354 0.423781 -0.786958
-5.807813 -4.796170 -0.211093 1537 0.444350 0.448886 -0.752599
-5.805435 -4.794197 -0.208696 1553 0.478566 0.477276 -0.718109
-5.803121 -4.792272 -0.206308 1577 0.511862 0.504974 -0.683750
-5.801710 -4.791097 -0.203946 1597 0.532164 0.521879 -0.649764
