508
-12.581265 -10.784312 -0.170971 771 0.757176 -0.416845 -0.286002
-12.579370 -10.782670 -0.165852 833 0.784455 -0.393216 -0.212347
-12.577476 -10.781014 -0.160742 871 0.811707 -0.369394 -0.138822
-12.576738 -10.780362 -0.155647 891 0.822314 -0.360009 -0.065513
-12.576175 -10.779847 -0.150551 891 0.830424 -0.352599 0.007811
-12.576660 -10.780244 -0.145477 889 0.823439 -0.358307 0.080818
-12.578198 -10.781541 -0.140398 875 0.801306 -0.376969 0.153897
-12.580188 -10.783217 -0.135326 837 0.772682 -0.401092 0.226876
-12.582107 -10.784840 -0.130255 775 0.745073 -0.424433 0.299840
-12.582687 -10.778786 -0.181143 791 0.736717 -0.337326 -0.432362
-12.579353 -10.775901 -0.176012 877 0.784689 -0.295817 -0.358534
-12.576898 -10.773776 -0.170897 929 0.820023 -0.265245 -0.284937
-12.575009 -10.772126 -0.165789 959 0.847192 -0.241506 -0.211441
-12.573611 -10.770906 -0.160686 985 0.867308 -0.223956 -0.138016
-12.573492 -10.770778 -0.155598 997 0.869024 -0.222103 -0.064808
-12.573145 -10.770459 -0.150509 999 0.874018 -0.217520 0.008415
-12.572639 -10.769999 -0.145422 993 0.881291 -0.210892 0.081610
-12.573505 -10.770720 -0.140347 985 0.868832 -0.221266 0.154631
-12.575885 -10.772729 -0.135283 959 0.834595 -0.250178 0.227495
-12.577477 -10.774066 -0.130215 921 0.811680 -0.269416 0.300415
-12.580504 -10.776642 -0.125147 867 0.768126 -0.306479 0.373336
-12.584768 -10.780270 -0.120102 777 0.706776 -0.358678 0.445926
-12.582650 -10.772120 -0.186203 863 0.737252 -0.241424 -0.505167
-12.577488 -10.767672 -0.181053 929 0.811529 -0.177411 -0.431067
-12.575428 -10.765886 -0.175945 985 0.841168 -0.151723 -0.357570
-12.573921 -10.764562 -0.170835 1015 0.862849 -0.132664 -0.284045
-12.572409 -10.763246 -0.165733 1033 0.884612 -0.113727 -0.210635
-12.571628 -10.762550 -0.160648 1045 0.895850 -0.103724 -0.137470
-12.571006 -10.761993 -0.155552 1045 0.904797 -0.095710 -0.064146
-12.570219 -10.761292 -0.150467 1057 0.916117 -0.085625 0.009020
-12.570813 -10.761780 -0.145393 1051 0.907569 -0.092637 0.082027
-12.572185 -10.762931 -0.140326 1029 0.887837 -0.109199 0.154933
-12.572952 -10.763557 -0.135241 1029 0.876790 -0.118214 0.228099
-12.574092 -10.764515 -0.130175 1001 0.860393 -0.131991 0.300991
-12.576974 -10.766951 -0.125118 967 0.818925 -0.167037 0.373753
-12.580727 -10.770143 -0.120056 913 0.764929 -0.212964 0.446588
-12.584710 -10.773527 -0.115004 841 0.707613 -0.261664 0.519279
-12.584561 -10.767105 -0.191294 877 0.709753 -0.169260 -0.578419
-12.580451 -10.763571 -0.186157 953 0.768895 -0.118407 -0.504506
-12.577396 -10.760926 -0.181025 1007 0.812846 -0.080356 -0.430664
-12.574437 -10.758372 -0.175913 1039 0.855425 -0.043608 -0.357110
-12.572543 -10.756731 -0.170803 1063 0.882677 -0.019993 -0.283585
-12.571086 -10.755456 -0.165701 1077 0.903644 -0.001647 -0.210175
-12.570473 -10.754906 -0.160616 1103 0.912467 0.006271 -0.137009
-12.569901 -10.754398 -0.155529 1099 0.920687 0.013571 -0.063815
-12.569172 -10.753738 -0.150442 1089 0.931184 0.023067 0.009379
-12.570376 -10.754744 -0.145376 1097 0.913853 0.008604 0.082272
-12.571755 -10.755902 -0.140308 1093 0.894011 -0.008068 0.155192
-12.572796 -10.756764 -0.135233 1079 0.879041 -0.020473 0.228214
-12.574281 -10.758011 -0.130163 1063 0.857676 -0.038408 0.301164
-12.575603 -10.759115 -0.125095 1041 0.838657 -0.054298 0.374085
-12.578068 -10.761206 -0.120031 1003 0.803186 -0.084376 0.446948
-12.581726 -10.764306 -0.114981 949 0.750549 -0.128986 0.519610
-12.586091 -10.768016 -0.109926 871 0.687743 -0.182364 0.592343
-12.587963 -10.763385 -0.196404 871 0.660807 -0.115731 -0.651944
-12.582406 -10.758612 -0.191246 963 0.740765 -0.047053 -0.577729
-12.578625 -10.755352 -0.186108 1025 0.795172 -0.000151 -0.503800
-12.576004 -10.753082 -0.180994 1061 0.832880 0.032507 -0.430218
-12.574052 -10.751400 -0.175884 1081 0.860969 0.056713 -0.356692
-12.572436 -10.749985 -0.170784 1105 0.884214 0.077076 -0.283311
-12.571601 -10.749250 -0.165689 1127 0.896234 0.087642 -0.210002
-12.570251 -10.748065 -0.160597 1123 0.915651 0.104698 -0.136736
-12.569688 -10.747564 -0.155510 1117 0.923761 0.111902 -0.063541
-12.570232 -10.748003 -0.150436 1139 0.915925 0.105590 0.009466
-12.569669 -10.747489 -0.145351 1133 0.924035 0.112986 0.082631
-12.570147 -10.747878 -0.140278 1117 0.917160 0.107388 0.155624
-12.571856 -10.749313 -0.135218 1115 0.892571 0.086736 0.228430
-12.572788 -10.750085 -0.130142 1091 0.879151 0.075635 0.301466
-12.574318 -10.751374 -0.125074 1067 0.857141 0.057083 0.374387
-12.576861 -10.753513 -0.120020 1047 0.820544 0.026305 0.447106
-12.580017 -10.756186 -0.114962 1011 0.775138 -0.012144 0.519883
-12.583713 -10.759321 -0.109900 949 0.721966 -0.057262 0.592718
-12.589753 -10.764462 -0.104864 863 0.635051 -0.131237 0.665178
-12.589183 -10.758053 -0.201487 853 0.643257 -0.039011 -0.725081
-12.587131 -10.756273 -0.196367 959 0.672786 -0.013406 -0.651412
-12.583342 -10.753007 -0.191231 1037 0.727304 0.033591 -0.577513
-12.579784 -10.749948 -0.186100 1083 0.778486 0.077611 -0.503685
-12.576106 -10.746786 -0.180971 1101 0.831412 0.123099 -0.429887
-12.574103 -10.745040 -0.175863 1123 0.860228 0.148224 -0.356390
-12.573093 -10.744152 -0.170769 1147 0.874759 0.160999 -0.283095
-12.571701 -10.742938 -0.165678 1147 0.894794 0.178467 -0.209844
-12.570246 -10.741664 -0.160585 1145 0.915733 0.196800 -0.136563
-12.569336 -10.740871 -0.155491 1153 0.928824 0.208203 -0.063268
-12.569945 -10.741360 -0.150427 1161 0.920056 0.201177 0.009595
-12.570374 -10.741703 -0.145346 1155 0.913894 0.196237 0.082703
-12.570362 -10.741664 -0.140276 1163 0.914059 0.196800 0.155653
-12.571964 -10.743011 -0.135206 1153 0.891006 0.177411 0.228602
-12.573666 -10.744438 -0.130146 1129 0.866526 0.156883 0.301408
-12.574873 -10.745443 -0.125080 1105 0.849154 0.142420 0.374300
-12.577906 -10.748013 -0.120022 1089 0.805519 0.105453 0.447077
-12.580946 -10.750587 -0.114965 1049 0.761773 0.068404 0.519840
-12.583649 -10.752865 -0.109900 1003 0.722885 0.035636 0.592718
-12.588127 -10.756671 -0.104853 947 0.658447 -0.019128 0.665336
-12.594441 -10.762046 -0.099806 841 0.567594 -0.096465 0.737955
-12.591296 -10.753343 -0.201494 917 0.612849 0.028761 -0.725182
-12.586501 -10.749219 -0.196341 997 0.681843 0.088095 -0.651038
-12.582605 -10.745876 -0.191204 1059 0.737897 0.136190 -0.577124
-12.579489 -10.743186 -0.186071 1095 0.782740 0.174900 -0.503268
-12.577153 -10.741163 -0.180965 1113 0.816345 0.204004 -0.429801
-12.575144 -10.739424 -0.175858 1143 0.845257 0.229033 -0.356319
-12.573019 -10.737590 -0.170759 1159 0.875830 0.255420 -0.282952
-12.571628 -10.736378 -0.165657 1169 0.895850 0.272861 -0.209541
-12.571503 -10.736242 -0.160578 1173 0.897648 0.274809 -0.136462
-12.571111 -10.735879 -0.155500 1173 0.903287 0.280037 -0.063397
-12.570943 -10.735703 -0.150421 1163 0.905702 0.282562 0.009682
-12.571472 -10.736142 -0.145350 1177 0.898087 0.276250 0.082646
-12.572801 -10.737239 -0.140282 1183 0.878972 0.260470 0.155566
-12.573833 -10.738108 -0.135216 1171 0.864111 0.247969 0.228459
-12.574759 -10.738872 -0.130150 1157 0.850801 0.236978 0.301351
-12.576310 -10.740167 -0.125080 1129 0.828475 0.218343 0.374300
-12.578623 -10.742113 -0.120018 1117 0.795200 0.190337 0.447135
-12.580829 -10.743969 -0.114954 1083 0.763461 0.163634 0.519998
-12.583525 -10.746254 -0.109900 1053 0.724669 0.130756 0.592718
-12.587564 -10.749681 -0.104847 985 0.666543 0.081440 0.665423
-12.593330 -10.754570 -0.099792 907 0.583580 0.011101 0.738156
-12.596433 -10.750833 -0.206625 875 0.538943 0.064877 -0.799009
-12.591867 -10.746916 -0.201471 967 0.604630 0.121233 -0.724851
-12.586859 -10.742614 -0.196312 1019 0.676697 0.183133 -0.650621
-12.583301 -10.739554 -0.191181 1069 0.727894 0.227153 -0.576793
-12.579794 -10.736530 -0.186052 1113 0.778349 0.270665 -0.502995
-12.577288 -10.734370 -0.180946 1135 0.814410 0.301745 -0.429527
-12.576509 -10.733677 -0.175861 1155 0.825608 0.311721 -0.356362
-12.575275 -10.732600 -0.170759 1177 0.843364 0.327213 -0.282952
-12.573035 -10.730670 -0.165661 1183 0.875597 0.354986 -0.209599
-12.572025 -10.729781 -0.160566 1191 0.890128 0.367775 -0.136290
-12.571856 -10.729607 -0.155489 1189 0.892571 0.370286 -0.063239
-12.572006 -10.729706 -0.150417 1185 0.890402 0.368859 0.009739
-12.573771 -10.731195 -0.145357 1209 0.865003 0.347426 0.082545
-12.574036 -10.731394 -0.140285 1191 0.861202 0.344571 0.155523
-12.574694 -10.731929 -0.135212 1201 0.851734 0.336873 0.228516
-12.575620 -10.732694 -0.130146 1183 0.838410 0.325868 0.301408
-12.576775 -10.733652 -0.125080 1143 0.821793 0.312078 0.374300
-12.579254 -10.735743 -0.120026 1135 0.786116 0.281999 0.447020
-12.581675 -10.737791 -0.114962 1113 0.751290 0.252525 0.519883
-12.584773 -10.740409 -0.109903 1077 0.706707 0.214858 0.592674
-12.587707 -10.742881 -0.104847 1027 0.664498 0.179291 0.665423
-12.592018 -10.746540 -0.099792 959 0.602461 0.126640 0.738156
-12.599448 -10.752849 -0.094749 841 0.495554 0.035869 0.810718
-12.598389 -10.745722 -0.206625 911 0.510799 0.138413 -0.799009
-12.592875 -10.740990 -0.201458 989 0.590139 0.206501 -0.724664
-12.588368 -10.737131 -0.196314 1051 0.654975 0.262020 -0.650649
-12.585077 -10.734300 -0.191183 1093 0.702330 0.302761 -0.576822
-12.582851 -10.732368 -0.186075 1129 0.734357 0.330548 -0.503326
-12.580799 -10.730601 -0.180967 1151 0.763886 0.355974 -0.429829
-12.579004 -10.729043 -0.175867 1177 0.789711 0.378396 -0.356448
-12.576945 -10.727257 -0.170759 1197 0.819337 0.404097 -0.282952
-12.575100 -10.725663 -0.165670 1207 0.845889 0.427027 -0.209728
-12.575040 -10.725576 -0.160591 1209 0.846753 0.428275 -0.136649
-12.575194 -10.725685 -0.155510 1215 0.844530 0.426711 -0.063541
-12.574903 -10.725419 -0.150433 1221 0.848729 0.430539 0.009509
-12.575169 -10.725616 -0.145361 1201 0.844901 0.427699 0.082487
-12.576323 -10.726574 -0.140293 1203 0.828297 0.413922 0.155408
-12.576255 -10.726495 -0.135223 1193 0.829271 0.415061 0.228358
-12.576345 -10.726541 -0.130144 1177 0.827968 0.414402 0.301437
-12.578495 -10.728355 -0.125092 1181 0.797038 0.388290 0.374128
-12.580426 -10.729976 -0.120031 1163 0.769252 0.364976 0.446948
-12.583137 -10.732261 -0.114965 1137 0.730254 0.332098 0.519840
-12.585896 -10.734595 -0.109909 1101 0.690556 0.298507 0.592588
-12.588936 -10.737156 -0.104851 1057 0.646811 0.261664 0.665365
-12.593523 -10.741037 -0.099794 1001 0.580808 0.205815 0.738128
-12.599010 -10.745699 -0.094753 909 0.501852 0.138742 0.810660
-12.599566 -10.739822 -0.206612 943 0.493852 0.223297 -0.798822
-12.594009 -10.735062 -0.201452 1015 0.573810 0.291797 -0.724577
-12.589942 -10.731567 -0.196306 1071 0.632334 0.342074 -0.650534
-12.586659 -10.728746 -0.191185 1123 0.679565 0.382664 -0.576851
-12.583987 -10.726440 -0.186071 1143 0.718014 0.415843 -0.503268
-12.582257 -10.724943 -0.180962 1163 0.742905 0.437387 -0.429757
-12.580967 -10.723814 -0.175869 1189 0.761471 0.453633 -0.356477
-12.579517 -10.722560 -0.170776 1211 0.782329 0.471678 -0.283196
-12.578508 -10.721672 -0.165693 1231 0.796846 0.484453 -0.210059
-12.577383 -10.720686 -0.160599 1225 0.813038 0.498641 -0.136764
-12.576595 -10.719985 -0.155514 1217 0.824373 0.508727 -0.063599
-12.576867 -10.720189 -0.150442 1223 0.820462 0.505790 0.009379
-12.577346 -10.720580 -0.145370 1229 0.813573 0.500164 0.082358
-12.577558 -10.720729 -0.140299 1211 0.810527 0.498024 0.155322
-12.578432 -10.721458 -0.135233 1201 0.797944 0.487527 0.228214
-12.578804 -10.721745 -0.130161 1187 0.792593 0.483410 0.301192
-12.579902 -10.722662 -0.125095 1175 0.776799 0.470209 0.374085
-12.583050 -10.725313 -0.120037 1159 0.731503 0.432063 0.446862
-12.585594 -10.727453 -0.114983 1125 0.694892 0.401270 0.519581
-12.587189 -10.728790 -0.109913 1107 0.671949 0.382032 0.592531
-12.590445 -10.731545 -0.104855 1061 0.625103 0.342390 0.665307
-12.595773 -10.736057 -0.099813 1017 0.548438 0.277471 0.737854
-12.600747 -10.740270 -0.094765 931 0.476865 0.216861 0.810487
-12.606285 -10.744967 -0.089705 799 0.397181 0.149267 0.883293
-12.600524 -10.733862 -0.206596 961 0.480076 0.309059 -0.798592
-12.596571 -10.730464 -0.201460 1033 0.536953 0.357950 -0.724693
-12.593063 -10.727453 -0.196329 1087 0.587422 0.401270 -0.650865
-12.589889 -10.724720 -0.191198 1127 0.633103 0.440598 -0.577038
-12.587216 -10.722415 -0.186083 1157 0.671551 0.473763 -0.503441
-12.584811 -10.720352 -0.180977 1181 0.706158 0.503444 -0.429973
-12.582643 -10.718474 -0.175871 1201 0.737362 0.530463 -0.356505
-12.581517 -10.717490 -0.170786 1217 0.753554 0.544623 -0.283340
-12.580955 -10.716990 -0.165701 1233 0.761650 0.551814 -0.210175
-12.580058 -10.716199 -0.160616 1237 0.774548 0.563203 -0.137009
-12.579438 -10.715643 -0.155529 1231 0.783467 0.571203 -0.063815
-12.579363 -10.715555 -0.150459 1243 0.784552 0.572465 0.009135
-12.579791 -10.715899 -0.145388 1233 0.778390 0.567512 0.082099
-12.580392 -10.716379 -0.140314 1221 0.769746 0.560610 0.155106
-12.581101 -10.716964 -0.135250 1219 0.759536 0.552198 0.227969
-12.581819 -10.717542 -0.130175 1199 0.749218 0.543883 0.300991
-12.583081 -10.718588 -0.125109 1181 0.731050 0.528830 0.373883
-12.585230 -10.720403 -0.120056 1163 0.700134 0.502717 0.446588
-12.587040 -10.721921 -0.114996 1133 0.674090 0.480871 0.519394
-12.589806 -10.724247 -0.109930 1117 0.634296 0.447404 0.592286
-12.593675 -10.727521 -0.104877 1087 0.578626 0.400296 0.664991
-12.597053 -10.730365 -0.099817 1021 0.530023 0.359377 0.737797
-12.601654 -10.734261 -0.094772 947 0.463815 0.303323 0.810387
-12.608082 -10.739717 -0.089725 829 0.371329 0.224820 0.883005
-12.604469 -10.730579 -0.206635 971 0.423308 0.356290 -0.799153
-12.599509 -10.726325 -0.201473 1039 0.494676 0.417504 -0.724880
-12.595671 -10.723038 -0.196335 1097 0.549906 0.464803 -0.650952
-12.591660 -10.719599 -0.191198 1125 0.607621 0.514284 -0.577038
-12.588924 -10.717247 -0.186085 1139 0.646975 0.548123 -0.503470
-12.586864 -10.715461 -0.180986 1175 0.676615 0.573824 -0.430103
-12.584912 -10.713778 -0.175877 1197 0.704704 0.598043 -0.356592
-12.584355 -10.713269 -0.170801 1223 0.712717 0.605357 -0.283556
-12.583618 -10.712616 -0.165714 1237 0.723324 0.614756 -0.210362
-12.582666 -10.711784 -0.160631 1239 0.737019 0.626722 -0.137225
-12.581706 -10.710943 -0.155546 1245 0.750837 0.638825 -0.064059
-12.580971 -10.710292 -0.150461 1243 0.761416 0.648197 0.009106
-12.582009 -10.711152 -0.145395 1223 0.746473 0.635819 0.081998
-12.583338 -10.712261 -0.140337 1225 0.727358 0.619861 0.154775
-12.583551 -10.712411 -0.135265 1207 0.724285 0.617707 0.227754
-12.584310 -10.713030 -0.130192 1207 0.713376 0.608801 0.300746
-12.585243 -10.713800 -0.125126 1187 0.699942 0.597714 0.373638
-12.587670 -10.715842 -0.120071 1175 0.665020 0.568335 0.446372
-12.590430 -10.718163 -0.115017 1161 0.625308 0.534950 0.519092
-12.593199 -10.720503 -0.109951 1131 0.585474 0.501276 0.591984
-12.596347 -10.723154 -0.104902 1093 0.540178 0.463129 0.664631
-12.600055 -10.726289 -0.099842 1037 0.486827 0.418025 0.737437
-12.605031 -10.730501 -0.094793 963 0.415226 0.357415 0.810084
-12.610415 -10.735052 -0.089741 855 0.337752 0.291934 0.882775
-12.606956 -10.726173 -0.206640 973 0.387535 0.419685 -0.799225
-12.602844 -10.722651 -0.201494 1043 0.446690 0.470374 -0.725182
-12.597835 -10.718363 -0.196342 1091 0.518771 0.532068 -0.651052
-12.594256 -10.715298 -0.191214 1121 0.570256 0.576170 -0.577268
-12.592255 -10.713568 -0.186115 1159 0.599058 0.601062 -0.503901
-12.589632 -10.711309 -0.181000 1183 0.636794 0.633555 -0.430304
-12.587788 -10.709717 -0.175901 1211 0.663332 0.656471 -0.356937
-12.587282 -10.709258 -0.170813 1223 0.670605 0.663071 -0.283728
-12.586601 -10.708659 -0.165737 1235 0.680402 0.671689 -0.210693
-12.586650 -10.708678 -0.160658 1251 0.679702 0.671414 -0.137613
-12.586475 -10.708495 -0.155579 1263 0.682213 0.674049 -0.064534
-12.585630 -10.707752 -0.150494 1233 0.694371 0.684738 0.008631
-12.585389 -10.707520 -0.145414 1219 0.697843 0.688086 0.081725
-12.585711 -10.707773 -0.140343 1221 0.693218 0.684436 0.154689
-12.586643 -10.708545 -0.135277 1209 0.679798 0.673335 0.227581
-12.587461 -10.709205 -0.130213 1199 0.668025 0.663840 0.300444
-12.588781 -10.710307 -0.125145 1191 0.649034 0.647977 0.373365
-12.590828 -10.712025 -0.120094 1181 0.619586 0.623264 0.446041
-12.592976 -10.713826 -0.115032 1151 0.588685 0.597343 0.518876
-12.595742 -10.716152 -0.109976 1127 0.548877 0.563875 0.591624
-12.598667 -10.718616 -0.104908 1091 0.506792 0.528432 0.664545
-12.602212 -10.721605 -0.099859 1027 0.455788 0.485413 0.737192
-12.607252 -10.725867 -0.094809 971 0.383267 0.424090 0.809854
-12.613407 -10.731076 -0.089754 869 0.294706 0.349141 0.882588
-12.610297 -10.722381 -0.206661 995 0.339453 0.474257 -0.799527
-12.605998 -10.718707 -0.201515 1053 0.401312 0.527114 -0.725484
-12.602484 -10.715689 -0.196386 1095 0.451877 0.570544 -0.651685
-12.598756 -10.712493 -0.191257 1121 0.505516 0.616526 -0.577887
-12.596026 -10.710147 -0.186144 1159 0.544788 0.650282 -0.504318
-12.593067 -10.707606 -0.181021 1177 0.587367 0.686838 -0.430606
-12.591676 -10.706393 -0.175928 1195 0.607388 0.704292 -0.357326
-12.590213 -10.705127 -0.170837 1195 0.628437 0.722515 -0.284074
-12.589102 -10.704154 -0.165743 1227 0.644423 0.736511 -0.210779
-12.588968 -10.704027 -0.160664 1251 0.646344 0.738336 -0.137700
-12.588572 -10.703658 -0.155586 1241 0.652053 0.743646 -0.064635
-12.588784 -10.703808 -0.150515 1241 0.648993 0.741492 0.008329
-12.588881 -10.703874 -0.145445 1225 0.647607 0.740545 0.081279
-12.589481 -10.704353 -0.140371 1217 0.638962 0.733643 0.154286
-12.590135 -10.704883 -0.135307 1199 0.629562 0.726027 0.227149
-12.590793 -10.705419 -0.130234 1189 0.620094 0.718316 0.300142
-12.591993 -10.706417 -0.125168 1189 0.602818 0.703949 0.373034
-12.593866 -10.707983 -0.120106 1173 0.575868 0.681417 0.445869
-12.595915 -10.709702 -0.115046 1157 0.546394 0.656691 0.518674
-12.598228 -10.711648 -0.109991 1119 0.513104 0.628684 0.591408
-12.601822 -10.714672 -0.104931 1091 0.461400 0.585172 0.664214
-12.605825 -10.718047 -0.099878 1035 0.403795 0.536610 0.736919
-12.611139 -10.722545 -0.094828 965 0.327337 0.471897 0.809581
-12.618135 -10.728464 -0.089787 847 0.226673 0.386725 0.882113
-12.614139 -10.718874 -0.206690 977 0.284181 0.524713 -0.799944
-12.609790 -10.715152 -0.201546 1027 0.346753 0.578270 -0.725930
-12.606111 -10.712004 -0.196417 1095 0.399692 0.623566 -0.652131
-12.602539 -10.708945 -0.191286 1111 0.451081 0.667572 -0.578304
-12.599703 -10.706510 -0.186163 1153 0.491890 0.702618 -0.504592
-12.597469 -10.704584 -0.181057 1187 0.524027 0.730322 -0.431124
-12.596568 -10.703787 -0.175972 1195 0.536994 0.741794 -0.357959
-12.595113 -10.702526 -0.170870 1203 0.557934 0.759934 -0.284549
-12.592937 -10.700656 -0.165773 1209 0.589234 0.786843 -0.211211
-12.592481 -10.700245 -0.160696 1213 0.595806 0.792757 -0.138160
-12.592628 -10.700345 -0.155615 1215 0.593693 0.791316 -0.065052
-12.592792 -10.700460 -0.150543 1225 0.591333 0.789656 0.007926
-12.592327 -10.700042 -0.145466 1229 0.598016 0.795680 0.080977
-12.592095 -10.699818 -0.140388 1223 0.601350 0.798905 0.154041
-12.592631 -10.700250 -0.135315 1203 0.593638 0.792689 0.227034
-12.594068 -10.701437 -0.130257 1185 0.572973 0.775605 0.299811
-12.596005 -10.703062 -0.125195 1181 0.545090 0.752223 0.372646
-12.597657 -10.704443 -0.120136 1167 0.521324 0.732353 0.445437
-12.599253 -10.705767 -0.115067 1133 0.498367 0.713307 0.518372
-12.602732 -10.708708 -0.110016 1115 0.448309 0.670989 0.591048
-12.606174 -10.711600 -0.104967 1079 0.398773 0.629370 0.663696
-12.609941 -10.714777 -0.099905 1035 0.344585 0.583662 0.736531
-12.614700 -10.718796 -0.094858 949 0.276099 0.525838 0.809149
-12.621308 -10.724383 -0.089809 837 0.181020 0.445441 0.881797
-12.619128 -10.716612 -0.206741 977 0.212388 0.557261 -0.800678
-12.614500 -10.712646 -0.201588 1033 0.278981 0.614331 -0.726534
-12.610159 -10.708932 -0.196444 1077 0.341443 0.667764 -0.652520
-12.606582 -10.705882 -0.191313 1111 0.392914 0.711647 -0.578692
-12.603463 -10.703204 -0.186192 1127 0.437785 0.750178 -0.505009
-12.601115 -10.701181 -0.181086 1163 0.471568 0.779282 -0.431542
-12.599717 -10.699976 -0.175993 1189 0.491684 0.796627 -0.358261
-12.597873 -10.698383 -0.170893 1191 0.518223 0.819542 -0.284880
-12.597252 -10.697826 -0.165808 1213 0.527156 0.827556 -0.211714
-12.597407 -10.697934 -0.160736 1235 0.524919 0.826005 -0.138736
-12.596678 -10.697289 -0.155651 1219 0.535416 0.835281 -0.065570
-12.596330 -10.696967 -0.150572 1211 0.540425 0.839920 0.007509
-12.596369 -10.696978 -0.145493 1213 0.539862 0.839769 0.080588
-12.596243 -10.696842 -0.140423 1197 0.541673 0.841717 0.153538
-12.596622 -10.697137 -0.135351 1197 0.536212 0.837477 0.226516
-12.598166 -10.698427 -0.130283 1179 0.513996 0.818911 0.299437
-12.600098 -10.700047 -0.125221 1167 0.486209 0.795611 0.372272
-12.601921 -10.701564 -0.120161 1149 0.459973 0.773780 0.445077
-12.604186 -10.703463 -0.115108 1125 0.427383 0.746459 0.517782
-12.606334 -10.705264 -0.110046 1099 0.396482 0.720539 0.590617
-12.609769 -10.708149 -0.104986 1067 0.347055 0.679030 0.663423
-12.614377 -10.712037 -0.099939 1005 0.280751 0.623085 0.736041
-12.620093 -10.716865 -0.094887 941 0.198501 0.553625 0.808732
-12.626083 -10.721930 -0.089842 819 0.112314 0.480748 0.881322
-12.625580 -10.715571 -0.206814 959 0.119559 0.572232 -0.801729
-12.619218 -10.710151 -0.201630 1019 0.211098 0.650227 -0.727139
-12.614367 -10.706014 -0.196478 1051 0.280902 0.709753 -0.653009
-12.610961 -10.703101 -0.191347 1091 0.329903 0.751660 -0.579182
-12.609345 -10.701700 -0.186247 1129 0.353148 0.771818 -0.505801
-12.606386 -10.699160 -0.181133 1147 0.395727 0.808373 -0.432218
-12.603477 -10.696670 -0.176022 1165 0.437592 0.844201 -0.358678
-12.601633 -10.695076 -0.170921 1185 0.464117 0.867130 -0.285282
-12.600839 -10.694382 -0.165836 1197 0.475547 0.877120 -0.212117
-12.600945 -10.694442 -0.160755 1205 0.474010 0.876255 -0.139009
-12.600381 -10.693940 -0.155680 1205 0.482134 0.883473 -0.065987
-12.599693 -10.693336 -0.150593 1209 0.492027 0.892173 0.007207
-12.599461 -10.693111 -0.145514 1207 0.495375 0.895397 0.080286
-12.599954 -10.693502 -0.140442 1195 0.488281 0.889771 0.153264
-12.602505 -10.695634 -0.135397 1193 0.451575 0.859103 0.225854
-12.603602 -10.696550 -0.130331 1171 0.435781 0.845916 0.298746
-12.604305 -10.697115 -0.125257 1179 0.425668 0.837793 0.371754
-12.606352 -10.698832 -0.120195 1147 0.396221 0.813093 0.444588
-12.608564 -10.700681 -0.115133 1129 0.364386 0.786486 0.517423
-12.611275 -10.702952 -0.110077 1101 0.325388 0.753801 0.590171
-12.614810 -10.705935 -0.105017 1059 0.274521 0.710892 0.662977
-12.619534 -10.709920 -0.099970 989 0.206556 0.653548 0.735595
-12.625084 -10.714602 -0.094917 899 0.126695 0.586174 0.808300
-12.630896 -10.713705 -0.206861 937 0.043073 0.599086 -0.802405
-12.624649 -10.708380 -0.201689 997 0.132952 0.675709 -0.727988
-12.619237 -10.703774 -0.196529 1039 0.210824 0.741972 -0.653743
-12.615170 -10.700294 -0.191393 1075 0.269348 0.792057 -0.579844
-12.611987 -10.697568 -0.186260 1101 0.315138 0.831275 -0.505987
-12.609360 -10.695318 -0.181156 1133 0.352942 0.863645 -0.432549
-12.607630 -10.693823 -0.176056 1159 0.377833 0.885161 -0.359167
-12.606901 -10.693176 -0.170959 1179 0.388317 0.894464 -0.285829
-12.606329 -10.692669 -0.165884 1191 0.396550 0.901764 -0.212808
-12.605097 -10.691594 -0.160791 1195 0.414279 0.917229 -0.139527
-12.604361 -10.690955 -0.155704 1193 0.424872 0.926423 -0.066333
-12.604572 -10.691102 -0.150633 1197 0.421826 0.924309 0.006631
-12.604498 -10.691017 -0.145554 1189 0.422896 0.925531 0.079710
-12.604538 -10.691030 -0.140484 1181 0.422320 0.925352 0.152660
-12.604917 -10.691322 -0.135412 1165 0.416872 0.921140 0.225639
-12.606510 -10.692647 -0.130342 1161 0.393943 0.902080 0.298588
-12.608284 -10.694129 -0.125282 1153 0.368420 0.880756 0.371394
-12.610560 -10.696026 -0.120230 1133 0.335666 0.853463 0.444085
-12.613207 -10.698249 -0.115164 1101 0.297588 0.821477 0.516977
-12.616031 -10.700616 -0.110109 1077 0.256957 0.787419 0.589710
-12.618747 -10.702893 -0.105043 1027 0.217877 0.754651 0.662602
-12.622952 -10.706435 -0.099989 965 0.157363 0.703688 0.735322
-12.629235 -10.711740 -0.094954 867 0.066963 0.627367 0.807768
-12.636217 -10.711720 -0.206921 873 -0.033495 0.627641 -0.803268
-12.629972 -10.706394 -0.201736 957 0.056356 0.704278 -0.728664
-12.623789 -10.701130 -0.196562 1007 0.145329 0.780023 -0.654218
-12.619872 -10.697782 -0.191425 1053 0.201685 0.828201 -0.580304
-12.617302 -10.695589 -0.186310 1085 0.238666 0.859748 -0.506707
-12.614902 -10.693518 -0.181204 1111 0.273204 0.889552 -0.433239
-12.613282 -10.692125 -0.176104 1153 0.296504 0.909586 -0.359858
-12.611215 -10.690346 -0.170996 1159 0.326253 0.935191 -0.286362
-12.609580 -10.688940 -0.165905 1163 0.349772 0.955417 -0.213110
-12.609074 -10.688481 -0.160818 1173 0.357058 0.962017 -0.139915
-12.609228 -10.688588 -0.155746 1181 0.354835 0.960480 -0.066937
-12.609613 -10.688889 -0.150675 1183 0.349292 0.956158 0.006027
-12.609265 -10.688567 -0.145596 1183 0.354300 0.960782 0.079106
-12.609248 -10.688523 -0.140516 1175 0.354547 0.961414 0.152200
-12.610129 -10.689245 -0.135452 1155 0.341868 0.951026 0.225063
-12.612234 -10.691005 -0.130390 1155 0.311584 0.925709 0.297897
-12.614448 -10.692855 -0.125326 1143 0.279735 0.899089 0.370761
-12.615646 -10.693853 -0.120260 1111 0.262487 0.884722 0.443653
-12.618254 -10.696041 -0.115206 1081 0.224971 0.853244 0.516372
-12.621963 -10.699162 -0.110153 1049 0.171606 0.808345 0.589077
-12.624895 -10.701618 -0.105087 999 0.129412 0.772998 0.661969
-12.629230 -10.705257 -0.100033 915 0.067045 0.720635 0.734689
-12.635398 -10.710465 -0.094988 815 -0.021708 0.645699 0.807279
-12.636934 -10.705542 -0.201818 891 -0.043814 0.716546 -0.729844
-12.630962 -10.700453 -0.196642 971 0.042113 0.789766 -0.655369
-12.626275 -10.696460 -0.191490 1029 0.109556 0.847220 -0.581239
-12.622928 -10.693589 -0.186369 1063 0.157720 0.888523 -0.507556
-12.620242 -10.691298 -0.181253 1095 0.196361 0.921496 -0.433944
-12.617835 -10.689235 -0.176138 1113 0.230995 0.951177 -0.360347
-12.616264 -10.687877 -0.171047 1137 0.253595 0.970717 -0.287095
-12.614695 -10.686520 -0.165945 1141 0.276181 0.990243 -0.213685
-12.613965 -10.685874 -0.160860 1155 0.286679 0.999533 -0.140520
-12.614402 -10.686223 -0.155788 1161 0.280394 0.994511 -0.067541
-12.614729 -10.686468 -0.150717 1163 0.275687 0.990984 0.005423
-12.614150 -10.685953 -0.145630 1161 0.284017 0.998394 0.078617
-12.614356 -10.686110 -0.140558 1165 0.281053 0.996144 0.151595
-12.615741 -10.687261 -0.135490 1145 0.261128 0.979581 0.224516
-12.617846 -10.689006 -0.130428 1129 0.230844 0.954470 0.297351
-12.619836 -10.690667 -0.125366 1123 0.202206 0.930567 0.370185
-12.621264 -10.691861 -0.120298 1091 0.181651 0.913387 0.443106
-12.623591 -10.693807 -0.115236 1075 0.148169 0.885394 0.515941
-12.625804 -10.695655 -0.110172 1027 0.116335 0.858801 0.588804
-12.629579 -10.698824 -0.105122 967 0.062023 0.813203 0.661466
-12.634912 -10.703313 -0.100071 883 -0.014710 0.748614 0.734142
-12.642725 -10.703673 -0.201876 817 -0.127134 0.743427 -0.730678
-12.637925 -10.699585 -0.196714 911 -0.058071 0.802253 -0.656405
-12.632124 -10.694648 -0.191547 973 0.025399 0.873291 -0.582060
-12.629431 -10.692350 -0.186432 1029 0.064150 0.906347 -0.508462
-12.626866 -10.690148 -0.181316 1073 0.101048 0.938031 -0.434851
-12.624850 -10.688417 -0.176208 1107 0.130056 0.962937 -0.361354
-12.622998 -10.686831 -0.171110 1127 0.156704 0.985756 -0.288002
-12.621377 -10.685425 -0.166008 1127 0.180032 1.005996 -0.214592
-12.620310 -10.684497 -0.160915 1131 0.195387 1.019348 -0.141311
-12.619740 -10.683989 -0.155828 1141 0.203592 1.026661 -0.068117
-12.619283 -10.683578 -0.150751 1139 0.210165 1.032575 0.004933
-12.620157 -10.684294 -0.145676 1133 0.197582 1.022270 0.077955
-12.621932 -10.685776 -0.140615 1127 0.172046 1.000946 0.150775
-12.622813 -10.686485 -0.135551 1133 0.159367 0.990737 0.223638
-12.623688 -10.687201 -0.130476 1111 0.146784 0.980446 0.296660
-12.625793 -10.688959 -0.125414 1097 0.116485 0.955143 0.369495
-12.627220 -10.690151 -0.120346 1061 0.095957 0.937990 0.442415
-12.629218 -10.691807 -0.115284 1015 0.067210 0.914169 0.515250
-12.633718 -10.695592 -0.110229 975 0.002470 0.859707 0.587984
-12.637930 -10.699142 -0.105175 917 -0.058140 0.808620 0.660703
-12.642711 -10.703153 -0.100117 795 -0.126928 0.750919 0.733480
-12.645437 -10.699317 -0.196800 821 -0.166159 0.806109 -0.657642
-12.641306 -10.695789 -0.191654 925 -0.106715 0.856866 -0.583599
-12.636892 -10.692034 -0.186510 991 -0.043210 0.910903 -0.509585
-12.634200 -10.689736 -0.181385 1011 -0.004473 0.943959 -0.435844
-12.631521 -10.687437 -0.176271 1061 0.034072 0.977043 -0.362261
-12.629115 -10.685373 -0.171165 1091 0.068692 1.006737 -0.288793
-12.627265 -10.683789 -0.166056 1103 0.095313 1.029529 -0.215283
-12.625693 -10.682431 -0.160965 1099 0.117926 1.049069 -0.142031
-12.626302 -10.682918 -0.155891 1103 0.109172 1.042071 -0.069023
-12.627011 -10.683502 -0.150818 1117 0.098963 1.033659 0.003969
-12.626994 -10.683458 -0.145737 1125 0.099210 1.034291 0.077077
-12.627876 -10.684180 -0.140661 1107 0.086517 1.023903 0.150113
-12.628476 -10.684660 -0.135590 1091 0.077886 1.017001 0.223077
-12.630078 -10.685991 -0.130529 1087 0.054833 0.997845 0.295897
-12.632348 -10.687881 -0.125467 1063 0.022175 0.970648 0.368732
-12.634064 -10.689308 -0.120398 1011 -0.002511 0.950120 0.441667
-12.637169 -10.691918 -0.115339 977 -0.047190 0.912563 0.514459
-12.641726 -10.695745 -0.110283 917 -0.112753 0.857497 0.587207
-12.646831 -10.700040 -0.105234 821 -0.186207 0.795707 0.659854
-12.648128 -10.695313 -0.191723 827 -0.204868 0.863713 -0.584592
-12.644441 -10.692173 -0.186584 921 -0.151819 0.908900 -0.510649
-12.640518 -10.688831 -0.181448 979 -0.095381 0.956981 -0.436750
-12.639178 -10.687683 -0.176355 1035 -0.076102 0.973503 -0.363470
-12.636774 -10.685619 -0.171238 1055 -0.041509 1.003197 -0.289844
-12.634979 -10.684074 -0.166140 1063 -0.015684 1.025426 -0.216491
-12.634293 -10.683471 -0.161043 1061 -0.005804 1.034112 -0.143153
-12.633383 -10.682678 -0.155949 1075 0.007286 1.045515 -0.069858
-12.632928 -10.682269 -0.150871 1077 0.013832 1.051402 0.003207
-12.633370 -10.682610 -0.145788 1077 0.007465 1.046503 0.076343
-12.634361 -10.683423 -0.140722 1071 -0.006792 1.034798 0.149235
-12.635458 -10.684325 -0.135647 1049 -0.022573 1.021817 0.222257
-12.636836 -10.685470 -0.130579 1019 -0.042401 1.005351 0.295178
-12.638718 -10.687041 -0.125507 1015 -0.069474 0.982737 0.368156
-12.640938 -10.688884 -0.120445 983 -0.101419 0.956227 0.440991
-12.644487 -10.691866 -0.115395 927 -0.152492 0.913318 0.513653
-12.649491 -10.696065 -0.110336 835 -0.224491 0.852900 0.586444
-12.651320 -10.691628 -0.186653 805 -0.250809 0.916735 -0.511642
-12.650575 -10.690982 -0.181559 893 -0.240079 0.926038 -0.438347
-12.647445 -10.688303 -0.176435 947 -0.195044 0.964583 -0.364620
-12.643751 -10.685156 -0.171309 987 -0.141899 1.009866 -0.290865
-12.641792 -10.683480 -0.166199 1017 -0.113714 1.033975 -0.217340
-12.640947 -10.682737 -0.161104 1031 -0.101556 1.044665 -0.144031
-12.640650 -10.682466 -0.156015 1041 -0.097275 1.048575 -0.070808
-12.640475 -10.682296 -0.150936 1047 -0.094764 1.051018 0.002272
-12.640466 -10.682259 -0.145847 1053 -0.094626 1.051553 0.075495
-12.640843 -10.682552 -0.140774 1035 -0.100060 1.047327 0.148487
-12.641329 -10.682936 -0.135693 1001 -0.107045 1.041810 0.221595
-12.642987 -10.684308 -0.130623 983 -0.130907 1.022064 0.294545
-12.645200 -10.686156 -0.125559 961 -0.162742 0.995471 0.367408
-12.648879 -10.689236 -0.120508 891 -0.215681 0.951163 0.440084
-12.653825 -10.693393 -0.115461 813 -0.286843 0.891349 0.512703
-12.656632 -10.689437 -0.176535 833 -0.327241 0.948268 -0.366059
-12.653162 -10.686490 -0.171404 907 -0.277307 0.990669 -0.292232
-12.650700 -10.684385 -0.166288 943 -0.241877 1.020953 -0.218621
-12.649798 -10.683589 -0.161194 969 -0.228909 1.032411 -0.145326
-12.649508 -10.683323 -0.156105 983 -0.224738 1.036239 -0.072103
-12.648937 -10.682815 -0.151009 975 -0.216518 1.043553 0.001221
-12.649093 -10.682922 -0.145927 969 -0.218755 1.042002 0.074344
-12.650032 -10.683686 -0.140852 959 -0.232271 1.031011 0.147365
-12.651130 -10.684587 -0.135777 937 -0.248065 1.018058 0.220387
-12.652795 -10.685967 -0.130707 897 -0.272024 0.998188 0.293336
-12.656020 -10.688665 -0.125648 835 -0.318431 0.959369 0.366128
-12.662498 -10.687972 -0.166410 767 -0.411644 0.969345 -0.220376
-12.662207 -10.687707 -0.161312 823 -0.407445 0.973159 -0.147023
-12.660579 -10.686308 -0.156210 849 -0.384022 0.993290 -0.073613
-12.660454 -10.686173 -0.151121 853 -0.382224 0.995224 -0.000390
-12.661220 -10.686798 -0.146036 847 -0.393243 0.986236 0.072775
-12.661549 -10.687044 -0.140955 823 -0.397977 0.982696 0.145883
