769
0.394950 0.569320 -0.072660 1501 -0.945169 -0.335530 0.109998
0.395150 0.569610 -0.072160 1507 -0.942292 -0.331358 0.117192
0.395220 0.569710 -0.071640 1511 -0.941284 -0.329919 0.124674
0.395170 0.569630 -0.071090 1511 -0.942004 -0.331070 0.132588
0.395040 0.569440 -0.070530 1499 -0.943874 -0.333804 0.140645
0.395110 0.569540 -0.070010 1505 -0.942867 -0.332365 0.148127
0.395350 0.569890 -0.069510 1509 -0.939414 -0.327329 0.155322
0.395580 0.570230 -0.069020 1507 -0.936105 -0.322437 0.162372
0.395660 0.570330 -0.068490 1505 -0.934953 -0.320998 0.169998
0.395850 0.570610 -0.067990 1509 -0.932220 -0.316970 0.177192
0.396050 0.570890 -0.067490 1509 -0.929342 -0.312941 0.184386
0.395950 0.570760 -0.066930 1503 -0.930781 -0.314811 0.192444
0.396110 0.570980 -0.066420 1509 -0.928479 -0.311646 0.199782
0.396300 0.571260 -0.065920 1509 -0.925745 -0.307617 0.206976
0.396120 0.571000 -0.065350 1507 -0.928335 -0.311358 0.215178
0.395780 0.570510 -0.064760 1493 -0.933227 -0.318408 0.223667
0.396020 0.570850 -0.064260 1497 -0.929774 -0.313516 0.230861
0.396040 0.570890 -0.063730 1505 -0.929486 -0.312941 0.238487
0.396150 0.571040 -0.063210 1495 -0.927903 -0.310783 0.245969
0.396390 0.571390 -0.062710 1493 -0.924450 -0.305747 0.253163
0.396370 0.571360 -0.062170 1491 -0.924738 -0.306178 0.260933
0.396650 0.571760 -0.061670 1495 -0.920709 -0.300423 0.268127
0.396800 0.571980 -0.061160 1497 -0.918550 -0.297257 0.275465
0.397160 0.572490 -0.060670 1495 -0.913371 -0.289920 0.282516
0.397600 0.573130 -0.060200 1485 -0.907040 -0.280710 0.289278
0.397670 0.573230 -0.059680 1483 -0.906033 -0.279271 0.296760
0.397650 0.573200 -0.059130 1489 -0.906320 -0.279704 0.304674
0.397630 0.573180 -0.058590 1485 -0.906608 -0.279991 0.312444
0.397370 0.572800 -0.058020 1479 -0.910349 -0.285459 0.320645
0.397520 0.573020 -0.057500 1475 -0.908191 -0.282294 0.328127
0.397800 0.573410 -0.057000 1477 -0.904162 -0.276682 0.335322
0.397780 0.573380 -0.056460 1471 -0.904450 -0.277114 0.343091
0.397850 0.573480 -0.055930 1473 -0.903443 -0.275674 0.350717
0.398030 0.573760 -0.055420 1469 -0.900853 -0.271646 0.358055
0.398100 0.573850 -0.054890 1469 -0.899846 -0.270351 0.365681
0.398290 0.574120 -0.054380 1465 -0.897112 -0.266466 0.373019
0.398690 0.574690 -0.053890 1465 -0.891357 -0.258265 0.380070
0.398660 0.574660 -0.053350 1467 -0.891788 -0.258696 0.387839
0.398570 0.574520 -0.052800 1457 -0.893083 -0.260711 0.395753
0.398920 0.575030 -0.052310 1451 -0.888047 -0.253372 0.402804
0.399150 0.575360 -0.051800 1451 -0.884737 -0.248624 0.410142
0.399130 0.575330 -0.051260 1449 -0.885026 -0.249056 0.417911
0.399530 0.575910 -0.050770 1443 -0.879270 -0.240711 0.424962
0.399840 0.576360 -0.050270 1437 -0.874810 -0.234236 0.432156
0.399990 0.576570 -0.049740 1437 -0.872651 -0.231215 0.439782
0.400760 0.577670 -0.049300 1439 -0.861572 -0.215387 0.446113
0.401190 0.578300 -0.048810 1433 -0.855385 -0.206322 0.453163
0.401050 0.578100 -0.048250 1431 -0.857400 -0.209199 0.461221
0.401070 0.578130 -0.047710 1423 -0.857112 -0.208768 0.468991
0.401170 0.578270 -0.047180 1419 -0.855673 -0.206754 0.476616
0.401770 0.579140 -0.046710 1417 -0.847040 -0.194236 0.483379
0.402420 0.580070 -0.046240 1423 -0.837687 -0.180854 0.490142
0.402480 0.580150 -0.045700 1421 -0.836824 -0.179703 0.497911
0.402580 0.580300 -0.045170 1417 -0.835385 -0.177546 0.505537
0.402810 0.580630 -0.044650 1417 -0.832076 -0.172797 0.513019
0.402910 0.580780 -0.044120 1411 -0.830637 -0.170638 0.520645
0.403180 0.581170 -0.043610 1405 -0.826752 -0.165027 0.527983
0.403610 0.581780 -0.043110 1407 -0.820565 -0.156250 0.535178
0.404050 0.582410 -0.042610 1401 -0.814234 -0.147186 0.542372
0.404280 0.582740 -0.042090 1397 -0.810925 -0.142437 0.549854
0.404550 0.583130 -0.041570 1389 -0.807040 -0.136826 0.557336
0.405060 0.583870 -0.041080 1383 -0.799702 -0.126178 0.564386
0.405160 0.584010 -0.040540 1377 -0.798263 -0.124164 0.572156
0.405180 0.584040 -0.040000 1369 -0.797975 -0.123732 0.579926
0.405110 0.583940 -0.039440 1355 -0.798982 -0.125171 0.587983
0.405630 0.584690 -0.038950 1349 -0.791500 -0.114380 0.595034
0.406060 0.585310 -0.038440 1341 -0.785313 -0.105459 0.602372
0.406080 0.585340 -0.037900 1333 -0.785025 -0.105027 0.610142
0.406430 0.585830 -0.037380 1333 -0.779989 -0.097977 0.617624
0.407060 0.586750 -0.036890 1341 -0.770925 -0.084740 0.624674
0.407330 0.587140 -0.036360 1335 -0.767040 -0.079128 0.632300
0.407350 0.587160 -0.035820 1317 -0.766752 -0.078840 0.640070
0.407650 0.587600 -0.035290 1303 -0.762436 -0.072509 0.647696
0.407960 0.588040 -0.034770 1291 -0.757975 -0.066178 0.655178
0.408180 0.588360 -0.034240 1289 -0.754810 -0.061574 0.662804
0.408620 0.588990 -0.033730 1287 -0.748479 -0.052510 0.670142
0.409460 0.590200 -0.033240 1277 -0.736392 -0.035099 0.677192
0.410010 0.591000 -0.032740 1269 -0.728479 -0.023588 0.684386
0.410190 0.591250 -0.032200 1257 -0.725889 -0.019991 0.692156
0.410750 0.592050 -0.031690 1243 -0.717831 -0.008480 0.699494
0.411140 0.592610 -0.031160 1227 -0.712220 -0.000423 0.707120
0.411610 0.593290 -0.030640 1209 -0.705457 0.009361 0.714602
0.412160 0.594090 -0.030130 1191 -0.697543 0.020872 0.721940
0.412720 0.594890 -0.029620 1173 -0.689486 0.032383 0.729278
0.413560 0.596100 -0.029120 1163 -0.677400 0.049793 0.736473
0.414070 0.596840 -0.028600 1143 -0.670061 0.060441 0.743955
0.414700 0.597750 -0.028080 1115 -0.660997 0.073534 0.751437
0.415710 0.599200 -0.027590 1091 -0.646464 0.094397 0.758487
0.416520 0.600360 -0.027080 1069 -0.634810 0.111088 0.765825
0.417440 0.601690 -0.026580 1047 -0.621572 0.130225 0.773019
0.411380 0.591950 -0.129710 1129 -0.708767 -0.009919 -0.710866
0.410620 0.590850 -0.128900 1151 -0.719702 -0.025747 -0.699211
0.410060 0.590050 -0.128150 1169 -0.727759 -0.037258 -0.688420
0.409420 0.589130 -0.127390 1185 -0.736968 -0.050495 -0.677484
0.408610 0.587970 -0.126570 1203 -0.748623 -0.067185 -0.665686
0.407930 0.586980 -0.125790 1219 -0.758407 -0.081430 -0.654463
0.407410 0.586240 -0.125070 1235 -0.765889 -0.092078 -0.644103
0.406970 0.585610 -0.124370 1251 -0.772220 -0.101143 -0.634031
0.406490 0.584920 -0.123670 1265 -0.779126 -0.111070 -0.623959
0.406130 0.584410 -0.123000 1279 -0.784306 -0.118408 -0.614319
0.405900 0.584070 -0.122360 1289 -0.787615 -0.123300 -0.605110
0.405580 0.583620 -0.121710 1295 -0.792220 -0.129775 -0.595758
0.405150 0.582990 -0.121020 1303 -0.798407 -0.138840 -0.585829
0.404580 0.582180 -0.120290 1307 -0.806608 -0.150494 -0.575326
0.404100 0.581490 -0.119590 1317 -0.813515 -0.160423 -0.565254
0.403740 0.580970 -0.118930 1327 -0.818695 -0.167905 -0.555758
0.403830 0.581110 -0.118400 1337 -0.817400 -0.165890 -0.548132
0.403510 0.580650 -0.117750 1347 -0.822004 -0.172510 -0.538779
0.403240 0.580250 -0.117110 1353 -0.825889 -0.178264 -0.529571
0.403040 0.579970 -0.116500 1355 -0.828767 -0.182293 -0.520794
0.402600 0.579340 -0.115810 1367 -0.835098 -0.191358 -0.510866
0.402400 0.579050 -0.115200 1371 -0.837975 -0.195531 -0.502089
0.401920 0.578350 -0.114510 1381 -0.844882 -0.205603 -0.492160
0.401310 0.577480 -0.113780 1379 -0.853659 -0.218120 -0.481657
0.401280 0.577440 -0.113220 1379 -0.854090 -0.218696 -0.473599
0.401120 0.577210 -0.112630 1389 -0.856392 -0.222005 -0.465110
0.400970 0.576990 -0.112030 1401 -0.858550 -0.225171 -0.456477
0.400890 0.576880 -0.111460 1403 -0.859702 -0.226754 -0.448276
0.400740 0.576660 -0.110860 1409 -0.861860 -0.229920 -0.439642
0.400580 0.576430 -0.110270 1411 -0.864162 -0.233228 -0.431153
0.400260 0.575970 -0.109630 1417 -0.868766 -0.239847 -0.421945
0.399810 0.575320 -0.108960 1417 -0.875241 -0.249200 -0.412304
0.399280 0.574560 -0.108260 1423 -0.882867 -0.260135 -0.402232
0.399200 0.574450 -0.107700 1431 -0.884018 -0.261718 -0.394175
0.399340 0.574640 -0.107180 1433 -0.882004 -0.258984 -0.386693
0.399340 0.574650 -0.106630 1435 -0.882004 -0.258840 -0.378779
0.398930 0.574060 -0.105980 1435 -0.887903 -0.267329 -0.369427
0.398490 0.573420 -0.105310 1439 -0.894234 -0.276538 -0.359786
0.398650 0.573660 -0.104810 1443 -0.891932 -0.273084 -0.352592
0.398870 0.573970 -0.104320 1451 -0.888767 -0.268624 -0.345542
0.398950 0.574090 -0.103790 1461 -0.887615 -0.266898 -0.337916
0.398540 0.573510 -0.103140 1455 -0.893515 -0.275243 -0.328563
0.397480 0.571970 -0.102320 1449 -0.908766 -0.297401 -0.316765
0.397560 0.572090 -0.101800 1457 -0.907615 -0.295674 -0.309283
0.397570 0.572100 -0.101250 1463 -0.907471 -0.295531 -0.301369
0.397280 0.571690 -0.100630 1461 -0.911644 -0.301430 -0.292448
0.397200 0.571580 -0.100070 1455 -0.912795 -0.303013 -0.284391
0.397040 0.571340 -0.099480 1469 -0.915097 -0.306466 -0.275902
0.396880 0.571110 -0.098900 1473 -0.917400 -0.309775 -0.267556
0.396790 0.570990 -0.098340 1477 -0.918695 -0.311502 -0.259499
0.396880 0.571110 -0.097810 1479 -0.917400 -0.309775 -0.251873
0.396670 0.570820 -0.097220 1479 -0.920421 -0.313948 -0.243384
0.396380 0.570410 -0.096610 1475 -0.924594 -0.319847 -0.234607
0.396180 0.570110 -0.096020 1477 -0.927471 -0.324163 -0.226117
0.395970 0.569810 -0.095420 1475 -0.930493 -0.328481 -0.217484
0.395970 0.569810 -0.094880 1487 -0.930493 -0.328481 -0.209714
0.396300 0.570290 -0.094420 1491 -0.925745 -0.321573 -0.203096
0.396550 0.570650 -0.093940 1493 -0.922148 -0.316394 -0.196189
0.396550 0.570640 -0.093390 1493 -0.922148 -0.316538 -0.188276
0.396550 0.570640 -0.092850 1507 -0.922148 -0.316538 -0.180506
0.396010 0.569870 -0.092190 1497 -0.929917 -0.327617 -0.171009
0.395520 0.569160 -0.091530 1489 -0.936968 -0.337833 -0.161513
0.395600 0.569270 -0.091010 1493 -0.935817 -0.336250 -0.154031
0.395680 0.569390 -0.090490 1495 -0.934666 -0.334524 -0.146549
0.395560 0.569210 -0.089920 1495 -0.936392 -0.337114 -0.138348
0.395300 0.568850 -0.089320 1497 -0.940133 -0.342294 -0.129714
0.395260 0.568790 -0.088770 1499 -0.940709 -0.343156 -0.121801
0.395590 0.569260 -0.088310 1505 -0.935961 -0.336394 -0.115182
0.395540 0.569190 -0.087760 1503 -0.936680 -0.337401 -0.107268
0.395250 0.568780 -0.087150 1507 -0.940853 -0.343300 -0.098491
0.395370 0.568950 -0.086640 1511 -0.939126 -0.340855 -0.091153
0.395620 0.569300 -0.086150 1509 -0.935529 -0.335819 -0.084103
0.395530 0.569180 -0.085600 1505 -0.936824 -0.337545 -0.076189
0.395360 0.568940 -0.085020 1511 -0.939270 -0.340999 -0.067844
0.395270 0.568810 -0.084460 1515 -0.940565 -0.342869 -0.059786
0.395020 0.568450 -0.083870 1511 -0.944162 -0.348049 -0.051297
0.394850 0.568200 -0.083300 1513 -0.946608 -0.351646 -0.043096
0.394930 0.568320 -0.082780 1507 -0.945457 -0.349920 -0.035614
0.395330 0.568900 -0.082320 1509 -0.939702 -0.341574 -0.028995
0.395330 0.568890 -0.081780 1509 -0.939702 -0.341718 -0.021225
0.395120 0.568590 -0.081200 1513 -0.942723 -0.346035 -0.012880
0.394900 0.568280 -0.080620 1519 -0.945889 -0.350495 -0.004535
0.394520 0.567730 -0.080010 1513 -0.951356 -0.358408 0.004242
0.394810 0.568140 -0.079530 1519 -0.947184 -0.352510 0.011149
0.395050 0.568490 -0.079040 1521 -0.943731 -0.347473 0.018199
0.394960 0.568360 -0.078480 1519 -0.945026 -0.349344 0.026257
0.394910 0.568290 -0.077940 1509 -0.945745 -0.350351 0.034027
0.395070 0.568520 -0.077430 1515 -0.943443 -0.347041 0.041365
0.395390 0.568980 -0.076960 1521 -0.938838 -0.340423 0.048127
0.395470 0.569090 -0.076430 1511 -0.937687 -0.338840 0.055753
0.395590 0.569260 -0.075920 1503 -0.935961 -0.336394 0.063091
0.395450 0.569070 -0.075360 1511 -0.937975 -0.339128 0.071149
0.394990 0.568400 -0.074730 1513 -0.944594 -0.348768 0.080214
0.395100 0.568570 -0.074220 1519 -0.943011 -0.346322 0.087552
0.395470 0.569090 -0.073750 1519 -0.937687 -0.338840 0.094314
0.395540 0.569200 -0.073220 1509 -0.936680 -0.337258 0.101940
0.395330 0.568890 -0.072650 1507 -0.939702 -0.341718 0.110142
0.395190 0.568700 -0.072090 1507 -0.941716 -0.344451 0.118199
0.395300 0.568860 -0.071570 1511 -0.940133 -0.342150 0.125681
0.395590 0.569260 -0.071080 1513 -0.935961 -0.336394 0.132732
0.395580 0.569250 -0.070550 1509 -0.936105 -0.336538 0.140357
0.395560 0.569230 -0.070010 1509 -0.936392 -0.336825 0.148127
0.395640 0.569340 -0.069480 1511 -0.935241 -0.335243 0.155753
0.395670 0.569380 -0.068950 1513 -0.934810 -0.334668 0.163379
0.395700 0.569420 -0.068420 1509 -0.934378 -0.334092 0.171005
0.396180 0.570120 -0.067970 1515 -0.927471 -0.324020 0.177480
0.396210 0.570160 -0.067440 1511 -0.927040 -0.323445 0.185106
0.395790 0.569550 -0.066830 1501 -0.933083 -0.332222 0.193883
0.395940 0.569770 -0.066320 1503 -0.930925 -0.329056 0.201221
0.396300 0.570290 -0.065840 1505 -0.925745 -0.321573 0.208127
0.396490 0.570570 -0.065330 1509 -0.923011 -0.317545 0.215465
0.396610 0.570730 -0.064820 1507 -0.921285 -0.315243 0.222804
0.396720 0.570880 -0.064300 1507 -0.919702 -0.313085 0.230286
0.396410 0.570450 -0.063710 1503 -0.924162 -0.319272 0.238775
0.396400 0.570430 -0.063170 1501 -0.924306 -0.319560 0.246545
0.396470 0.570530 -0.062650 1495 -0.923299 -0.318121 0.254027
0.396790 0.570990 -0.062160 1495 -0.918695 -0.311502 0.261077
0.396850 0.571080 -0.061630 1491 -0.917831 -0.310207 0.268703
0.396930 0.571190 -0.061110 1493 -0.916680 -0.308624 0.276185
0.397320 0.571760 -0.060630 1495 -0.911069 -0.300423 0.283091
0.397310 0.571740 -0.060090 1495 -0.911213 -0.300711 0.290861
0.397460 0.571950 -0.059580 1495 -0.909054 -0.297689 0.298199
0.397820 0.572470 -0.059090 1493 -0.903874 -0.290207 0.305250
0.397720 0.572320 -0.058540 1493 -0.905313 -0.292365 0.313163
0.397620 0.572180 -0.057990 1487 -0.906752 -0.294380 0.321077
0.397850 0.572520 -0.057480 1477 -0.903443 -0.289487 0.328415
0.397920 0.572610 -0.056950 1481 -0.902435 -0.288192 0.336041
0.398030 0.572770 -0.056430 1481 -0.900853 -0.285890 0.343523
0.398090 0.572860 -0.055900 1473 -0.899989 -0.284595 0.351149
0.398330 0.573200 -0.055400 1475 -0.896536 -0.279704 0.358343
0.398720 0.573770 -0.054910 1473 -0.890925 -0.271502 0.365393
0.398380 0.573270 -0.054330 1467 -0.895817 -0.278696 0.373739
0.398270 0.573120 -0.053780 1469 -0.897399 -0.280855 0.381652
0.398630 0.573630 -0.053290 1465 -0.892220 -0.273517 0.388703
0.399150 0.574380 -0.052820 1461 -0.884737 -0.262725 0.395465
0.399630 0.575070 -0.052340 1459 -0.877831 -0.252797 0.402372
0.399570 0.574980 -0.051790 1461 -0.878695 -0.254092 0.410286
0.399720 0.575200 -0.051270 1453 -0.876536 -0.250926 0.417768
0.399940 0.575520 -0.050760 1443 -0.873371 -0.246322 0.425106
0.399850 0.575380 -0.050210 1439 -0.874666 -0.248336 0.433019
0.400110 0.575770 -0.049700 1447 -0.870925 -0.242725 0.440358
0.400760 0.576700 -0.049240 1449 -0.861572 -0.229344 0.446976
0.400700 0.576610 -0.048690 1437 -0.862435 -0.230638 0.454890
0.400550 0.576400 -0.048140 1431 -0.864594 -0.233661 0.462804
0.401120 0.577210 -0.047660 1419 -0.856392 -0.222005 0.469710
0.401590 0.577890 -0.047180 1423 -0.849630 -0.212222 0.476616
0.401610 0.577920 -0.046640 1423 -0.849342 -0.211789 0.484386
0.401840 0.578250 -0.046120 1429 -0.846033 -0.207042 0.491868
0.402270 0.578870 -0.045630 1427 -0.839846 -0.198121 0.498919
0.402420 0.579080 -0.045100 1419 -0.837687 -0.195099 0.506545
0.402400 0.579050 -0.044560 1415 -0.837975 -0.195531 0.514314
0.402670 0.579440 -0.044050 1417 -0.834090 -0.189919 0.521652
0.403150 0.580120 -0.043550 1415 -0.827184 -0.180135 0.528847
0.403870 0.581170 -0.043090 1413 -0.816824 -0.165027 0.535465
0.404510 0.582090 -0.042610 1409 -0.807616 -0.151789 0.542372
0.404360 0.581880 -0.042050 1401 -0.809774 -0.154812 0.550429
0.404380 0.581900 -0.041510 1391 -0.809486 -0.154524 0.558199
0.404570 0.582170 -0.040980 1389 -0.806752 -0.150639 0.565825
0.404880 0.582610 -0.040470 1379 -0.802292 -0.144308 0.573163
0.405390 0.583360 -0.039970 1373 -0.794954 -0.133516 0.580357
0.405830 0.583980 -0.039470 1371 -0.788623 -0.124595 0.587552
0.406260 0.584600 -0.038960 1367 -0.782435 -0.115675 0.594890
0.406480 0.584920 -0.038440 1359 -0.779270 -0.111070 0.602372
0.406710 0.585250 -0.037910 1349 -0.775961 -0.106322 0.609998
0.407350 0.586170 -0.037420 1353 -0.766752 -0.093084 0.617048
0.407620 0.586550 -0.036900 1353 -0.762867 -0.087617 0.624530
0.407510 0.586390 -0.036340 1339 -0.764450 -0.089919 0.632588
0.407650 0.586600 -0.035800 1329 -0.762436 -0.086898 0.640357
0.407630 0.586560 -0.035250 1311 -0.762723 -0.087473 0.648271
0.407760 0.586750 -0.034710 1297 -0.760853 -0.084740 0.656041
0.408070 0.587200 -0.034190 1295 -0.756392 -0.078265 0.663523
0.408540 0.587880 -0.033680 1289 -0.749630 -0.068480 0.670861
0.409050 0.588610 -0.033170 1279 -0.742292 -0.057977 0.678199
0.409860 0.589770 -0.032690 1267 -0.730637 -0.041286 0.685106
0.410710 0.590990 -0.032200 1259 -0.718407 -0.023732 0.692156
0.410760 0.591070 -0.031650 1245 -0.717688 -0.022581 0.700070
0.410780 0.591090 -0.031100 1227 -0.717399 -0.022293 0.707983
0.411410 0.592000 -0.030600 1211 -0.708335 -0.009200 0.715178
0.412180 0.593100 -0.030100 1199 -0.697256 0.006628 0.722372
0.413110 0.594430 -0.029610 1193 -0.683875 0.025765 0.729422
0.414040 0.595770 -0.029120 1183 -0.670493 0.045045 0.736473
0.414260 0.596090 -0.028580 1155 -0.667328 0.049649 0.744242
0.414650 0.596650 -0.028050 1127 -0.661716 0.057707 0.751868
0.415530 0.597920 -0.027550 1105 -0.649054 0.075980 0.759063
0.416380 0.599130 -0.027040 1089 -0.636824 0.093390 0.766401
0.417340 0.600520 -0.026540 1069 -0.623011 0.113390 0.773595
0.412600 0.592730 -0.130520 1119 -0.691212 0.001304 -0.722520
0.411460 0.591100 -0.129590 1147 -0.707615 -0.022150 -0.709139
0.410460 0.589650 -0.128700 1173 -0.722004 -0.043013 -0.696333
0.409940 0.588910 -0.127980 1185 -0.729486 -0.053660 -0.685973
0.409460 0.588220 -0.127260 1197 -0.736392 -0.063588 -0.675614
0.408610 0.587000 -0.126430 1213 -0.748623 -0.081142 -0.663671
0.407920 0.586020 -0.125660 1227 -0.758551 -0.095243 -0.652592
0.407320 0.585160 -0.124910 1243 -0.767184 -0.107617 -0.641801
0.406760 0.584350 -0.124170 1255 -0.775241 -0.119272 -0.631153
0.406820 0.584430 -0.123630 1271 -0.774378 -0.118121 -0.623384
0.406710 0.584280 -0.123030 1285 -0.775961 -0.120279 -0.614750
0.405980 0.583230 -0.122250 1293 -0.786464 -0.135387 -0.603527
0.405540 0.582600 -0.121560 1299 -0.792795 -0.144452 -0.593599
0.405180 0.582090 -0.120890 1311 -0.797975 -0.151789 -0.583959
0.404660 0.581340 -0.120180 1317 -0.805457 -0.162581 -0.573743
0.404180 0.580650 -0.119480 1325 -0.812364 -0.172510 -0.563671
0.404060 0.580490 -0.118890 1339 -0.814090 -0.174811 -0.555182
0.403780 0.580080 -0.118250 1349 -0.818119 -0.180711 -0.545973
0.403470 0.579630 -0.117600 1351 -0.822579 -0.187185 -0.536621
0.403480 0.579650 -0.117050 1357 -0.822436 -0.186898 -0.528707
0.403320 0.579420 -0.116450 1365 -0.824737 -0.190207 -0.520074
0.402880 0.578790 -0.115770 1369 -0.831068 -0.199272 -0.510290
0.402560 0.578330 -0.115120 1377 -0.835673 -0.205891 -0.500937
0.402570 0.578350 -0.114570 1389 -0.835529 -0.205603 -0.493024
0.402000 0.577530 -0.113850 1393 -0.843730 -0.217401 -0.482664
0.401270 0.576480 -0.113100 1389 -0.854234 -0.232510 -0.471873
0.400910 0.575960 -0.112440 1395 -0.859414 -0.239991 -0.462376
0.401200 0.576380 -0.111970 1405 -0.855241 -0.233948 -0.455614
0.401460 0.576750 -0.111490 1413 -0.851500 -0.228625 -0.448707
0.401130 0.576280 -0.110850 1415 -0.856249 -0.235387 -0.439499
0.400650 0.575590 -0.110170 1415 -0.863155 -0.245315 -0.429714
0.400160 0.574890 -0.109480 1417 -0.870205 -0.255387 -0.419786
0.399880 0.574480 -0.108860 1425 -0.874234 -0.261286 -0.410866
0.399430 0.573840 -0.108190 1427 -0.880709 -0.270494 -0.401225
0.399150 0.573430 -0.107560 1431 -0.884737 -0.276394 -0.392161
0.399030 0.573270 -0.106980 1433 -0.886464 -0.278696 -0.383815
0.398790 0.572920 -0.106370 1437 -0.889917 -0.283732 -0.375038
0.398670 0.572750 -0.105790 1439 -0.891644 -0.286179 -0.366693
0.398590 0.572640 -0.105220 1443 -0.892795 -0.287761 -0.358491
0.398760 0.572880 -0.104720 1449 -0.890349 -0.284307 -0.351297
0.399060 0.573310 -0.104250 1461 -0.886032 -0.278120 -0.344535
0.399020 0.573250 -0.103700 1463 -0.886608 -0.278984 -0.336621
0.398570 0.572610 -0.103030 1459 -0.893083 -0.288192 -0.326981
0.397830 0.571550 -0.102300 1457 -0.903730 -0.303444 -0.316477
0.397710 0.571370 -0.101720 1459 -0.905457 -0.306034 -0.308132
0.397550 0.571150 -0.101140 1465 -0.907759 -0.309200 -0.299786
0.397600 0.571210 -0.100600 1473 -0.907040 -0.308336 -0.292017
0.397720 0.571390 -0.100090 1471 -0.905313 -0.305747 -0.284678
0.397430 0.570980 -0.099470 1469 -0.909486 -0.311646 -0.275758
0.397100 0.570500 -0.098850 1475 -0.914234 -0.318552 -0.266837
0.397110 0.570510 -0.098310 1477 -0.914090 -0.318408 -0.259067
0.397310 0.570810 -0.097810 1485 -0.911213 -0.314092 -0.251873
0.396820 0.570100 -0.097150 1485 -0.918263 -0.324308 -0.242376
0.396120 0.569090 -0.096440 1477 -0.928335 -0.338840 -0.232161
0.396160 0.569150 -0.095910 1475 -0.927759 -0.337977 -0.224535
0.396370 0.569450 -0.095410 1485 -0.924738 -0.333660 -0.217340
0.396530 0.569690 -0.094910 1491 -0.922435 -0.330207 -0.210146
0.396370 0.569460 -0.094330 1495 -0.924738 -0.333517 -0.201801
0.396120 0.569090 -0.093730 1499 -0.928335 -0.338840 -0.193168
0.396200 0.569220 -0.093210 1497 -0.927184 -0.336969 -0.185686
0.396490 0.569630 -0.092740 1507 -0.923011 -0.331070 -0.178923
0.396570 0.569750 -0.092210 1503 -0.921860 -0.329344 -0.171297
0.396080 0.569030 -0.091560 1495 -0.928911 -0.339704 -0.161945
0.395910 0.568800 -0.090980 1501 -0.931356 -0.343013 -0.153599
0.396160 0.569150 -0.090500 1503 -0.927759 -0.337977 -0.146693
0.395910 0.568790 -0.089900 1503 -0.931356 -0.343156 -0.138060
0.395570 0.568310 -0.089280 1505 -0.936248 -0.350063 -0.129139
0.395410 0.568070 -0.088710 1501 -0.938551 -0.353516 -0.120938
0.395320 0.567950 -0.088150 1497 -0.939846 -0.355243 -0.112880
0.395520 0.568240 -0.087660 1505 -0.936968 -0.351070 -0.105830
0.395730 0.568530 -0.087160 1507 -0.933946 -0.346897 -0.098635
0.395760 0.568580 -0.086630 1507 -0.933515 -0.346179 -0.091009
0.395470 0.568170 -0.086030 1507 -0.937687 -0.352077 -0.082376
0.395600 0.568340 -0.085520 1513 -0.935817 -0.349631 -0.075038
0.395510 0.568220 -0.084960 1515 -0.937112 -0.351358 -0.066981
0.394970 0.567440 -0.084310 1517 -0.944882 -0.362581 -0.057628
0.395120 0.567660 -0.083800 1519 -0.942723 -0.359416 -0.050290
0.395280 0.567900 -0.083300 1515 -0.940421 -0.355962 -0.043096
0.395410 0.568070 -0.082790 1507 -0.938551 -0.353516 -0.035758
0.395440 0.568120 -0.082250 1509 -0.938119 -0.352797 -0.027988
0.395480 0.568170 -0.081720 1511 -0.937543 -0.352077 -0.020362
0.395970 0.568880 -0.081290 1521 -0.930493 -0.341861 -0.014175
0.395670 0.568460 -0.080690 1525 -0.934810 -0.347905 -0.005542
0.394920 0.567370 -0.080000 1517 -0.945601 -0.363588 0.004386
0.395120 0.567660 -0.079500 1523 -0.942723 -0.359416 0.011581
0.395530 0.568250 -0.079050 1527 -0.936824 -0.350926 0.018055
0.395310 0.567940 -0.078470 1521 -0.939989 -0.355387 0.026401
0.395270 0.567870 -0.077920 1509 -0.940565 -0.356394 0.034314
0.395590 0.568340 -0.077450 1515 -0.935961 -0.349631 0.041077
0.395870 0.568740 -0.076960 1521 -0.931932 -0.343876 0.048127
0.395700 0.568490 -0.076390 1519 -0.934378 -0.347473 0.056329
0.395320 0.567940 -0.075780 1505 -0.939846 -0.355387 0.065106
0.395440 0.568110 -0.075270 1507 -0.938119 -0.352941 0.072444
0.395550 0.568280 -0.074750 1521 -0.936536 -0.350495 0.079926
0.395460 0.568140 -0.074200 1517 -0.937831 -0.352510 0.087840
0.395450 0.568130 -0.073660 1513 -0.937975 -0.352653 0.095609
0.395440 0.568120 -0.073130 1511 -0.938119 -0.352797 0.103235
0.395890 0.568760 -0.072670 1517 -0.931644 -0.343589 0.109854
0.396290 0.569340 -0.072210 1521 -0.925889 -0.335243 0.116473
0.396410 0.569510 -0.071690 1523 -0.924162 -0.332797 0.123955
0.396230 0.569250 -0.071120 1521 -0.926752 -0.336538 0.132156
0.395930 0.568820 -0.070530 1519 -0.931069 -0.342725 0.140645
0.396000 0.568920 -0.070010 1521 -0.930061 -0.341286 0.148127
0.395990 0.568910 -0.069470 1521 -0.930205 -0.341430 0.155897
0.395850 0.568720 -0.068910 1515 -0.932220 -0.344164 0.163955
0.395840 0.568700 -0.068370 1509 -0.932364 -0.344451 0.171724
0.396290 0.569340 -0.067910 1517 -0.925889 -0.335243 0.178343
0.396360 0.569440 -0.067390 1511 -0.924881 -0.333804 0.185825
0.396100 0.569070 -0.066810 1503 -0.928622 -0.339128 0.194170
0.396130 0.569110 -0.066280 1511 -0.928191 -0.338553 0.201796
0.396200 0.569210 -0.065750 1509 -0.927184 -0.337114 0.209422
0.396310 0.569370 -0.065230 1507 -0.925601 -0.334812 0.216904
0.396750 0.570010 -0.064770 1511 -0.919270 -0.325603 0.223523
0.396910 0.570230 -0.064260 1515 -0.916968 -0.322437 0.230861
0.396770 0.570020 -0.063700 1505 -0.918982 -0.325459 0.238919
0.396880 0.570190 -0.063180 1509 -0.917400 -0.323013 0.246401
0.396910 0.570230 -0.062650 1501 -0.916968 -0.322437 0.254027
0.397100 0.570500 -0.062140 1497 -0.914234 -0.318552 0.261365
0.397170 0.570600 -0.061610 1499 -0.913227 -0.317114 0.268991
0.397240 0.570700 -0.061090 1497 -0.912220 -0.315675 0.276473
0.397340 0.570850 -0.060570 1497 -0.910781 -0.313516 0.283955
0.397330 0.570840 -0.060030 1493 -0.910925 -0.313660 0.291724
0.397650 0.571290 -0.059540 1493 -0.906320 -0.307185 0.298775
0.397760 0.571450 -0.059020 1495 -0.904738 -0.304883 0.306257
0.397450 0.571000 -0.058440 1491 -0.909198 -0.311358 0.314602
0.397940 0.571700 -0.057970 1485 -0.902148 -0.301286 0.321365
0.398420 0.572390 -0.057500 1479 -0.895241 -0.291358 0.328127
0.398400 0.572360 -0.056960 1483 -0.895529 -0.291790 0.335897
0.398090 0.571930 -0.056380 1473 -0.899989 -0.297977 0.344242
0.397950 0.571720 -0.055820 1477 -0.902004 -0.300998 0.352300
0.398520 0.572540 -0.055360 1479 -0.893803 -0.289200 0.358919
0.398620 0.572680 -0.054840 1477 -0.892363 -0.287185 0.366401
0.398560 0.572600 -0.054290 1473 -0.893227 -0.288336 0.374314
0.399040 0.573290 -0.053820 1473 -0.886320 -0.278409 0.381077
0.399320 0.573690 -0.053320 1467 -0.882292 -0.272653 0.388271
0.399670 0.574190 -0.052830 1469 -0.877256 -0.265458 0.395322
0.400320 0.575120 -0.052370 1473 -0.867903 -0.252078 0.401940
0.400680 0.575630 -0.051880 1467 -0.862723 -0.244739 0.408991
0.400530 0.575430 -0.051320 1457 -0.864881 -0.247617 0.417048
0.400340 0.575160 -0.050760 1449 -0.867616 -0.251502 0.425106
0.400160 0.574900 -0.050190 1449 -0.870205 -0.255243 0.433307
0.400100 0.574800 -0.049650 1451 -0.871069 -0.256682 0.441077
0.400540 0.575430 -0.049160 1453 -0.864738 -0.247617 0.448127
0.400890 0.575940 -0.048660 1443 -0.859702 -0.240279 0.455322
0.400830 0.575850 -0.048120 1431 -0.860565 -0.241574 0.463091
0.400810 0.575830 -0.047570 1427 -0.860853 -0.241862 0.471005
0.401120 0.576270 -0.047070 1425 -0.856392 -0.235531 0.478199
0.401640 0.577020 -0.046590 1427 -0.848910 -0.224740 0.485106
0.401870 0.577350 -0.046080 1427 -0.845601 -0.219991 0.492444
0.402350 0.578030 -0.045590 1427 -0.838694 -0.210207 0.499494
0.402820 0.578720 -0.045100 1421 -0.831932 -0.200279 0.506545
0.402720 0.578560 -0.044540 1425 -0.833371 -0.202581 0.514602
0.402660 0.578480 -0.044000 1421 -0.834234 -0.203732 0.522372
0.403170 0.579220 -0.043510 1417 -0.826896 -0.193085 0.529422
0.403900 0.580260 -0.043040 1417 -0.816392 -0.178121 0.536185
0.404210 0.580700 -0.042530 1403 -0.811932 -0.171790 0.543523
0.404390 0.580970 -0.042010 1395 -0.809342 -0.167905 0.551005
0.404460 0.581060 -0.041470 1393 -0.808335 -0.166610 0.558775
0.404680 0.581380 -0.040950 1387 -0.805169 -0.162005 0.566257
0.405280 0.582240 -0.040460 1389 -0.796536 -0.149632 0.573307
0.405800 0.582990 -0.039970 1389 -0.789054 -0.138840 0.580357
0.406110 0.583430 -0.039450 1383 -0.784594 -0.132509 0.587839
0.406370 0.583810 -0.038930 1369 -0.780853 -0.127042 0.595322
0.406640 0.584190 -0.038410 1367 -0.776968 -0.121574 0.602804
0.406870 0.584520 -0.037880 1359 -0.773658 -0.116826 0.610429
0.407010 0.584720 -0.037350 1355 -0.771644 -0.113948 0.618055
0.407270 0.585100 -0.036830 1351 -0.767903 -0.108480 0.625537
0.407500 0.585420 -0.036300 1343 -0.764594 -0.103876 0.633163
0.407720 0.585740 -0.035770 1335 -0.761428 -0.099272 0.640789
0.407900 0.586000 -0.035240 1323 -0.758838 -0.095530 0.648415
0.408340 0.586620 -0.034730 1309 -0.752507 -0.086610 0.655753
0.408980 0.587540 -0.034230 1307 -0.743299 -0.073373 0.662947
0.409120 0.587750 -0.033690 1293 -0.741285 -0.070351 0.670717
0.409470 0.588240 -0.033170 1279 -0.736249 -0.063300 0.678199
0.410060 0.589100 -0.032670 1269 -0.727759 -0.050926 0.685394
0.410490 0.589720 -0.032150 1263 -0.721572 -0.042005 0.692876
0.410420 0.589620 -0.031590 1251 -0.722579 -0.043444 0.700933
0.410810 0.590180 -0.031070 1229 -0.716968 -0.035387 0.708415
0.411540 0.591210 -0.030570 1219 -0.706464 -0.020567 0.715609
0.412460 0.592540 -0.030090 1215 -0.693227 -0.001430 0.722516
0.413360 0.593820 -0.029590 1203 -0.680277 0.016987 0.729710
0.413990 0.594730 -0.029080 1189 -0.671213 0.030081 0.737048
0.414300 0.595170 -0.028550 1163 -0.666752 0.036412 0.744674
0.414770 0.595840 -0.028020 1139 -0.659989 0.046052 0.752300
0.415650 0.597120 -0.027520 1123 -0.647327 0.064469 0.759494
0.416370 0.598150 -0.027010 1111 -0.636968 0.079290 0.766832
0.416890 0.598890 -0.026490 1085 -0.629486 0.089937 0.774314
0.417900 0.600340 -0.025990 1063 -0.614954 0.110800 0.781509
0.413360 0.592850 -0.131190 1105 -0.680277 0.003031 -0.732161
0.411940 0.590820 -0.130170 1127 -0.700709 -0.026178 -0.717484
0.411430 0.590080 -0.129440 1155 -0.708047 -0.036825 -0.706981
0.410570 0.588860 -0.128600 1177 -0.720421 -0.054380 -0.694894
0.409890 0.587890 -0.127820 1197 -0.730205 -0.068336 -0.683671
0.409130 0.586790 -0.127020 1207 -0.741140 -0.084163 -0.672161
0.408360 0.585690 -0.126210 1217 -0.752220 -0.099991 -0.660506
0.407960 0.585120 -0.125530 1237 -0.757975 -0.108192 -0.650722
0.407480 0.584430 -0.124820 1257 -0.764882 -0.118121 -0.640506
0.407210 0.584040 -0.124170 1269 -0.768767 -0.123732 -0.631153
0.406940 0.583650 -0.123530 1281 -0.772651 -0.129344 -0.621945
0.406450 0.582960 -0.122820 1291 -0.779702 -0.139272 -0.611729
0.405890 0.582160 -0.122090 1295 -0.787759 -0.150783 -0.601225
0.405490 0.581580 -0.121410 1305 -0.793514 -0.159128 -0.591441
0.405220 0.581190 -0.120770 1309 -0.797400 -0.164740 -0.582232
0.404820 0.580620 -0.120100 1323 -0.803155 -0.172941 -0.572592
0.404500 0.580160 -0.119440 1335 -0.807759 -0.179559 -0.563096
0.404220 0.579760 -0.118810 1349 -0.811788 -0.185315 -0.554031
0.403940 0.579360 -0.118170 1359 -0.815817 -0.191070 -0.544822
0.403750 0.579090 -0.117560 1365 -0.818551 -0.194955 -0.536045
0.403430 0.578630 -0.116910 1367 -0.823155 -0.201574 -0.526693
0.403280 0.578410 -0.116310 1375 -0.825313 -0.204739 -0.518060
0.402990 0.578010 -0.115670 1387 -0.829486 -0.210494 -0.508851
0.403000 0.578020 -0.115120 1389 -0.829342 -0.210351 -0.500937
0.402970 0.577970 -0.114560 1391 -0.829774 -0.211070 -0.492880
0.402240 0.576930 -0.113800 1393 -0.840277 -0.226035 -0.481945
0.401590 0.575990 -0.113060 1393 -0.849630 -0.239559 -0.471297
0.401020 0.575170 -0.112350 1395 -0.857831 -0.251358 -0.461081
0.400990 0.575130 -0.111790 1403 -0.858263 -0.251934 -0.453024
0.401320 0.575610 -0.111330 1413 -0.853514 -0.245027 -0.446405
0.401120 0.575330 -0.110730 1419 -0.856392 -0.249056 -0.437772
0.400560 0.574510 -0.110020 1417 -0.864450 -0.260855 -0.427556
0.400190 0.573990 -0.109370 1421 -0.869774 -0.268337 -0.418204
0.399740 0.573350 -0.108700 1423 -0.876248 -0.277545 -0.408563
0.399250 0.572650 -0.108020 1429 -0.883299 -0.287617 -0.398779
0.399090 0.572420 -0.107430 1439 -0.885601 -0.290926 -0.390290
0.398940 0.572200 -0.106840 1441 -0.887759 -0.294092 -0.381801
0.399020 0.572320 -0.106320 1443 -0.886608 -0.292365 -0.374319
0.399270 0.572680 -0.105840 1447 -0.883011 -0.287185 -0.367412
0.398990 0.572280 -0.105210 1443 -0.887040 -0.292941 -0.358348
0.398500 0.571570 -0.104540 1441 -0.894090 -0.303157 -0.348707
0.398670 0.571820 -0.104040 1457 -0.891644 -0.299559 -0.341513
0.398510 0.571590 -0.103450 1463 -0.893946 -0.302869 -0.333024
0.398260 0.571230 -0.102840 1461 -0.897543 -0.308049 -0.324247
0.398350 0.571360 -0.102320 1459 -0.896248 -0.306178 -0.316765
0.398270 0.571250 -0.101750 1463 -0.897399 -0.307761 -0.308563
0.397900 0.570720 -0.101120 1467 -0.902723 -0.315387 -0.299499
0.397860 0.570660 -0.100560 1475 -0.903299 -0.316250 -0.291441
0.397490 0.570130 -0.099920 1469 -0.908623 -0.323876 -0.282232
0.397210 0.569720 -0.099310 1463 -0.912651 -0.329776 -0.273456
0.397050 0.569490 -0.098730 1473 -0.914954 -0.333084 -0.265110
0.396760 0.569080 -0.098110 1469 -0.919126 -0.338984 -0.256189
0.397010 0.569440 -0.097630 1479 -0.915529 -0.333804 -0.249283
0.396720 0.569020 -0.097020 1481 -0.919702 -0.339848 -0.240506
0.396310 0.568430 -0.096380 1477 -0.925601 -0.348336 -0.231297
0.396430 0.568610 -0.095870 1479 -0.923875 -0.345746 -0.223959
0.396640 0.568910 -0.095380 1491 -0.920853 -0.341430 -0.216909
0.396600 0.568850 -0.094820 1499 -0.921428 -0.342294 -0.208851
0.396390 0.568560 -0.094230 1499 -0.924450 -0.346466 -0.200362
0.396310 0.568440 -0.093670 1503 -0.925601 -0.348192 -0.192304
0.396310 0.568430 -0.093130 1501 -0.925601 -0.348336 -0.184535
0.396560 0.568790 -0.092650 1499 -0.922004 -0.343156 -0.177628
0.396560 0.568790 -0.092110 1501 -0.922004 -0.343156 -0.169858
0.396640 0.568910 -0.091590 1503 -0.920853 -0.341430 -0.162376
0.396550 0.568790 -0.091030 1507 -0.922148 -0.343156 -0.154319
0.396220 0.568310 -0.090410 1503 -0.926896 -0.350063 -0.145398
0.396510 0.568720 -0.089940 1509 -0.922723 -0.344164 -0.138635
0.396840 0.569190 -0.089470 1517 -0.917975 -0.337401 -0.131873
0.396550 0.568780 -0.088870 1519 -0.922148 -0.343300 -0.123240
0.396130 0.568180 -0.088230 1513 -0.928191 -0.351933 -0.114031
0.395670 0.567520 -0.087590 1511 -0.934810 -0.361430 -0.104822
0.395540 0.567340 -0.087030 1511 -0.936680 -0.364020 -0.096765
0.395710 0.567570 -0.086520 1509 -0.934234 -0.360711 -0.089427
0.395780 0.567680 -0.086000 1511 -0.933227 -0.359128 -0.081945
0.395740 0.567620 -0.085450 1519 -0.933802 -0.359991 -0.074031
0.395480 0.567250 -0.084860 1515 -0.937543 -0.365315 -0.065542
0.395480 0.567250 -0.084320 1517 -0.937543 -0.365315 -0.057772
0.395520 0.567300 -0.083790 1517 -0.936968 -0.364595 -0.050146
0.395470 0.567240 -0.083250 1513 -0.937687 -0.365459 -0.042376
0.395510 0.567290 -0.082720 1511 -0.937112 -0.364739 -0.034750
0.395750 0.567640 -0.082230 1517 -0.933659 -0.359703 -0.027700
0.396040 0.568050 -0.081750 1513 -0.929486 -0.353804 -0.020794
0.396400 0.568570 -0.081290 1525 -0.924306 -0.346322 -0.014175
0.396020 0.568030 -0.080670 1523 -0.929774 -0.354092 -0.005254
0.395480 0.567250 -0.080020 1519 -0.937543 -0.365315 0.004098
0.395720 0.567600 -0.079540 1519 -0.934090 -0.360279 0.011005
0.395760 0.567650 -0.079010 1525 -0.933515 -0.359559 0.018631
0.395420 0.567160 -0.078400 1525 -0.938407 -0.366610 0.027408
0.395490 0.567270 -0.077880 1525 -0.937400 -0.365027 0.034890
0.395570 0.567370 -0.077360 1521 -0.936248 -0.363588 0.042372
0.395690 0.567550 -0.076840 1521 -0.934522 -0.360998 0.049854
0.395930 0.567900 -0.076350 1525 -0.931069 -0.355962 0.056904
0.395750 0.567640 -0.075780 1517 -0.933659 -0.359703 0.065106
0.395460 0.567220 -0.075190 1511 -0.937831 -0.365747 0.073595
0.395440 0.567200 -0.074650 1521 -0.938119 -0.366034 0.081365
0.395650 0.567490 -0.074150 1517 -0.935097 -0.361862 0.088559
0.395840 0.567770 -0.073660 1519 -0.932364 -0.357833 0.095609
0.396080 0.568110 -0.073160 1521 -0.928911 -0.352941 0.102804
0.396450 0.568640 -0.072690 1527 -0.923586 -0.345315 0.109566
0.396400 0.568560 -0.072150 1529 -0.924306 -0.346466 0.117336
0.396180 0.568250 -0.071570 1519 -0.927471 -0.350926 0.125681
0.396290 0.568420 -0.071060 1527 -0.925889 -0.348480 0.133019
0.396320 0.568460 -0.070520 1525 -0.925457 -0.347905 0.140789
0.396480 0.568680 -0.070020 1527 -0.923155 -0.344740 0.147983
0.396430 0.568610 -0.069470 1519 -0.923875 -0.345746 0.155897
0.396160 0.568230 -0.068890 1511 -0.927759 -0.351215 0.164242
0.396070 0.568100 -0.068340 1509 -0.929054 -0.353085 0.172156
0.395970 0.567960 -0.067780 1513 -0.930493 -0.355099 0.180214
0.396090 0.568120 -0.067270 1509 -0.928766 -0.352797 0.187552
0.396320 0.568460 -0.066770 1507 -0.925457 -0.347905 0.194746
0.396690 0.568980 -0.066300 1517 -0.920133 -0.340423 0.201509
0.396800 0.569140 -0.065780 1519 -0.918550 -0.338120 0.208991
0.396750 0.569070 -0.065230 1515 -0.919270 -0.339128 0.216904
0.396860 0.569220 -0.064710 1505 -0.917687 -0.336969 0.224386
0.397050 0.569500 -0.064210 1507 -0.914954 -0.332940 0.231581
0.396910 0.569300 -0.063650 1509 -0.916968 -0.335819 0.239638
0.396860 0.569230 -0.063110 1511 -0.917687 -0.336825 0.247408
0.397180 0.569680 -0.062620 1503 -0.913083 -0.330351 0.254458
0.397330 0.569900 -0.062110 1499 -0.910925 -0.327186 0.261796
0.397400 0.570000 -0.061580 1501 -0.909918 -0.325747 0.269422
0.397550 0.570220 -0.061070 1503 -0.907759 -0.322581 0.276760
0.397910 0.570730 -0.060590 1505 -0.902579 -0.315243 0.283667
0.398060 0.570950 -0.060070 1507 -0.900421 -0.312078 0.291149
0.398130 0.571040 -0.059540 1503 -0.899414 -0.310783 0.298775
0.398110 0.571020 -0.059010 1493 -0.899702 -0.311070 0.306401
0.397890 0.570700 -0.058440 1495 -0.902867 -0.315675 0.314602
0.398120 0.571040 -0.057930 1493 -0.899558 -0.310783 0.321940
0.398480 0.571550 -0.057450 1489 -0.894378 -0.303444 0.328847
0.398590 0.571710 -0.056930 1481 -0.892795 -0.301142 0.336329
0.398570 0.571680 -0.056390 1481 -0.893083 -0.301574 0.344099
0.398770 0.571960 -0.055870 1485 -0.890205 -0.297546 0.351581
0.398960 0.572230 -0.055360 1485 -0.887472 -0.293661 0.358919
0.398890 0.572140 -0.054820 1479 -0.888479 -0.294956 0.366688
0.398920 0.572180 -0.054280 1477 -0.888047 -0.294380 0.374458
0.399110 0.572450 -0.053770 1465 -0.885313 -0.290495 0.381796
0.399260 0.572660 -0.053250 1457 -0.883155 -0.287473 0.389278
0.399660 0.573230 -0.052770 1473 -0.877400 -0.279271 0.396185
0.400260 0.574100 -0.052310 1473 -0.868766 -0.266754 0.402804
0.400490 0.574430 -0.051800 1469 -0.865457 -0.262006 0.410142
0.400390 0.574290 -0.051250 1467 -0.866896 -0.264020 0.418055
0.400290 0.574140 -0.050690 1465 -0.868335 -0.266178 0.426113
0.400270 0.574110 -0.050150 1459 -0.868623 -0.266610 0.433883
0.400620 0.574620 -0.049660 1467 -0.863586 -0.259272 0.440933
0.400980 0.575130 -0.049160 1459 -0.858407 -0.251934 0.448127
0.401380 0.575700 -0.048670 1449 -0.852651 -0.243732 0.455178
0.401440 0.575780 -0.048140 1441 -0.851788 -0.242581 0.462804
0.401420 0.575760 -0.047590 1439 -0.852076 -0.242869 0.470717
0.401560 0.575970 -0.047070 1433 -0.850061 -0.239847 0.478199
0.401620 0.576050 -0.046540 1427 -0.849198 -0.238696 0.485825
0.401850 0.576380 -0.046020 1425 -0.845889 -0.233948 0.493307
0.402630 0.577490 -0.045570 1435 -0.834666 -0.217977 0.499782
0.403140 0.578230 -0.045080 1431 -0.827327 -0.207329 0.506832
0.403000 0.578020 -0.044530 1427 -0.829342 -0.210351 0.514746
0.402760 0.577680 -0.043960 1425 -0.832795 -0.215243 0.522947
0.403160 0.578250 -0.043460 1423 -0.827040 -0.207042 0.530142
0.403800 0.579170 -0.042990 1413 -0.817831 -0.193804 0.536904
0.403780 0.579140 -0.042440 1397 -0.818119 -0.194236 0.544818
0.403760 0.579110 -0.041900 1391 -0.818407 -0.194667 0.552588
0.404110 0.579610 -0.041390 1389 -0.813371 -0.187473 0.559926
0.404710 0.580470 -0.040910 1393 -0.804738 -0.175099 0.566832
0.405600 0.581750 -0.040450 1397 -0.791932 -0.156682 0.573451
0.406040 0.582370 -0.039950 1387 -0.785601 -0.147761 0.580645
0.406270 0.582700 -0.039420 1377 -0.782292 -0.143013 0.588271
0.406620 0.583200 -0.038910 1367 -0.777256 -0.135819 0.595609
0.406840 0.583520 -0.038390 1369 -0.774090 -0.131214 0.603091
0.407030 0.583790 -0.037860 1361 -0.771357 -0.127329 0.610717
0.407290 0.584160 -0.037330 1359 -0.767615 -0.122006 0.618343
0.407430 0.584370 -0.036800 1353 -0.765601 -0.118984 0.625969
0.407780 0.584870 -0.036280 1349 -0.760565 -0.111790 0.633451
0.408090 0.585310 -0.035760 1337 -0.756105 -0.105459 0.640933
0.408270 0.585570 -0.035230 1327 -0.753515 -0.101718 0.648559
0.408330 0.585650 -0.034690 1311 -0.752651 -0.100566 0.656329
0.408510 0.585910 -0.034150 1307 -0.750061 -0.096825 0.664099
0.409110 0.586770 -0.033650 1293 -0.741428 -0.084452 0.671293
0.409750 0.587690 -0.033160 1285 -0.732219 -0.071214 0.678343
0.410100 0.588190 -0.032630 1279 -0.727184 -0.064020 0.685969
0.410490 0.588750 -0.032110 1265 -0.721572 -0.055962 0.693451
0.410670 0.589010 -0.031580 1253 -0.718982 -0.052221 0.701077
0.410810 0.589210 -0.031040 1243 -0.716968 -0.049344 0.708847
0.411280 0.589880 -0.030520 1229 -0.710205 -0.039704 0.716329
0.411580 0.590320 -0.029990 1219 -0.705889 -0.033373 0.723955
0.412270 0.591290 -0.029490 1209 -0.695961 -0.019416 0.731149
0.413490 0.593040 -0.029020 1191 -0.678407 0.005764 0.737911
0.414210 0.594070 -0.028510 1173 -0.668047 0.020585 0.745250
0.414510 0.594510 -0.027980 1157 -0.663730 0.026916 0.752876
0.414900 0.595070 -0.027450 1141 -0.658119 0.034973 0.760501
0.415790 0.596340 -0.026950 1125 -0.645313 0.053246 0.767696
0.416760 0.597730 -0.026450 1105 -0.631356 0.073246 0.774890
0.417740 0.599130 -0.025950 1083 -0.617256 0.093390 0.782084
0.418830 0.600690 -0.025460 1047 -0.601572 0.115836 0.789135
0.413960 0.592670 -0.131790 1105 -0.671644 0.000441 -0.740794
0.412570 0.590690 -0.130780 1129 -0.691644 -0.028048 -0.726261
0.411600 0.589310 -0.129910 1153 -0.705601 -0.047905 -0.713743
0.410880 0.588280 -0.129110 1171 -0.715961 -0.062725 -0.702232
0.410360 0.587530 -0.128380 1191 -0.723443 -0.073516 -0.691729
0.410040 0.587080 -0.127720 1213 -0.728047 -0.079991 -0.682232
0.409320 0.586040 -0.126930 1227 -0.738407 -0.094955 -0.670866
0.408380 0.584710 -0.126080 1233 -0.751932 -0.114092 -0.658635
0.408110 0.584320 -0.125430 1249 -0.755817 -0.119703 -0.649283
0.407790 0.583870 -0.124770 1261 -0.760421 -0.126178 -0.639786
0.407360 0.583240 -0.124070 1277 -0.766608 -0.135243 -0.629714
0.407160 0.582960 -0.123450 1293 -0.769486 -0.139272 -0.620794
0.407260 0.583100 -0.122920 1303 -0.768047 -0.137257 -0.613168
0.406610 0.582170 -0.122170 1303 -0.777399 -0.150639 -0.602376
0.405600 0.580720 -0.121300 1311 -0.791932 -0.171502 -0.589858
0.405190 0.580150 -0.120620 1323 -0.797831 -0.179703 -0.580074
0.404920 0.579750 -0.119990 1329 -0.801716 -0.185459 -0.571009
0.404890 0.579710 -0.119420 1345 -0.802148 -0.186034 -0.562808
0.404650 0.579370 -0.118790 1361 -0.805601 -0.190926 -0.553743
0.404250 0.578800 -0.118120 1369 -0.811356 -0.199128 -0.544103
0.403850 0.578220 -0.117450 1369 -0.817112 -0.207473 -0.534463
0.403240 0.577350 -0.116720 1377 -0.825889 -0.219991 -0.523959
0.403210 0.577310 -0.116150 1381 -0.826320 -0.220566 -0.515758
0.403460 0.577680 -0.115670 1389 -0.822723 -0.215243 -0.508851
0.403230 0.577340 -0.115050 1397 -0.826032 -0.220135 -0.499930
0.402660 0.576530 -0.114340 1401 -0.834234 -0.231790 -0.489714
0.402010 0.575600 -0.113600 1397 -0.843587 -0.245171 -0.479067
0.401720 0.575190 -0.112970 1395 -0.847759 -0.251070 -0.470002
0.401280 0.574560 -0.112290 1401 -0.854090 -0.260135 -0.460218
0.400830 0.573910 -0.111620 1407 -0.860565 -0.269488 -0.450578
0.401170 0.574400 -0.111160 1421 -0.855673 -0.262437 -0.443959
0.401020 0.574180 -0.110570 1423 -0.857831 -0.265603 -0.435470
0.400280 0.573120 -0.109820 1421 -0.868479 -0.280855 -0.424678
0.400410 0.573310 -0.109300 1419 -0.866608 -0.278120 -0.417197
0.400750 0.573790 -0.108850 1431 -0.861716 -0.271214 -0.410722
0.400260 0.573090 -0.108160 1435 -0.868766 -0.281286 -0.400794
0.399690 0.572280 -0.107460 1437 -0.876968 -0.292941 -0.390722
0.399570 0.572110 -0.106880 1445 -0.878695 -0.295387 -0.382376
0.399570 0.572110 -0.106340 1447 -0.878695 -0.295387 -0.374607
0.399540 0.572060 -0.105780 1451 -0.879126 -0.296106 -0.366549
0.399420 0.571890 -0.105200 1457 -0.880853 -0.298552 -0.358204
0.398720 0.570890 -0.104470 1443 -0.890925 -0.312941 -0.347700
0.398140 0.570070 -0.103780 1451 -0.899270 -0.324739 -0.337772
0.397820 0.569600 -0.103150 1467 -0.903874 -0.331502 -0.328707
0.397780 0.569550 -0.102600 1465 -0.904450 -0.332222 -0.320794
0.397990 0.569850 -0.102110 1465 -0.901429 -0.327904 -0.313743
0.398160 0.570100 -0.101610 1475 -0.898982 -0.324308 -0.306549
0.398000 0.569860 -0.101020 1473 -0.901284 -0.327761 -0.298060
0.397670 0.569400 -0.100400 1479 -0.906033 -0.334379 -0.289139
0.397430 0.569040 -0.099790 1483 -0.909486 -0.339560 -0.280362
0.397510 0.569160 -0.099270 1473 -0.908335 -0.337833 -0.272880
0.397680 0.569410 -0.098770 1471 -0.905889 -0.334235 -0.265686
0.397310 0.568870 -0.098130 1473 -0.911213 -0.342005 -0.256477
0.397310 0.568880 -0.097590 1479 -0.911213 -0.341861 -0.248707
0.397470 0.569110 -0.097090 1489 -0.908910 -0.338553 -0.241513
0.396930 0.568340 -0.096420 1485 -0.916680 -0.349631 -0.231873
0.396810 0.568170 -0.095850 1481 -0.918407 -0.352077 -0.223671
0.397060 0.568530 -0.095370 1489 -0.914810 -0.346897 -0.216765
0.397150 0.568650 -0.094840 1497 -0.913514 -0.345171 -0.209139
0.396980 0.568410 -0.094260 1499 -0.915961 -0.348625 -0.200794
0.396560 0.567810 -0.093620 1497 -0.922004 -0.357257 -0.191585
0.396480 0.567690 -0.093060 1497 -0.923155 -0.358984 -0.183527
0.396400 0.567570 -0.092500 1497 -0.924306 -0.360711 -0.175470
0.396360 0.567520 -0.091960 1497 -0.924881 -0.361430 -0.167700
0.396480 0.567690 -0.091440 1503 -0.923155 -0.358984 -0.160218
0.396480 0.567690 -0.090900 1503 -0.923155 -0.358984 -0.152448
0.396350 0.567510 -0.090340 1503 -0.925026 -0.361574 -0.144391
0.396140 0.567210 -0.089750 1509 -0.928047 -0.365890 -0.135901
0.396310 0.567450 -0.089250 1517 -0.925601 -0.362437 -0.128707
0.396510 0.567740 -0.088750 1521 -0.922723 -0.358264 -0.121513
0.396300 0.567440 -0.088170 1525 -0.925745 -0.362581 -0.113168
0.396050 0.567080 -0.087570 1509 -0.929342 -0.367761 -0.104535
0.395760 0.566660 -0.086970 1509 -0.933515 -0.373804 -0.095902
0.395630 0.566480 -0.086410 1511 -0.935385 -0.376394 -0.087844
0.395670 0.566530 -0.085880 1515 -0.934810 -0.375675 -0.080218
0.396030 0.567060 -0.085420 1515 -0.929630 -0.368049 -0.073599
0.396360 0.567530 -0.084950 1519 -0.924881 -0.361286 -0.066837
0.396070 0.567110 -0.084350 1517 -0.929054 -0.367329 -0.058204
0.395820 0.566750 -0.083760 1521 -0.932651 -0.372509 -0.049714
0.395600 0.566440 -0.083180 1517 -0.935817 -0.376970 -0.041369
0.395760 0.566670 -0.082670 1525 -0.933515 -0.373660 -0.034031
0.396210 0.567320 -0.082230 1525 -0.927040 -0.364308 -0.027700
0.396340 0.567490 -0.081720 1523 -0.925169 -0.361862 -0.020362
0.396450 0.567660 -0.081200 1525 -0.923586 -0.359416 -0.012880
0.396320 0.567470 -0.080640 1527 -0.925457 -0.362149 -0.004822
0.396150 0.567230 -0.080070 1525 -0.927903 -0.365603 0.003379
0.396270 0.567390 -0.079550 1525 -0.926176 -0.363300 0.010861
0.396340 0.567500 -0.079030 1527 -0.925169 -0.361718 0.018343
0.396420 0.567610 -0.078510 1529 -0.924018 -0.360135 0.025825
0.396080 0.567130 -0.077900 1527 -0.928911 -0.367041 0.034602
0.395660 0.566520 -0.077290 1527 -0.934953 -0.375819 0.043379
0.395690 0.566570 -0.076760 1519 -0.934522 -0.375099 0.051005
0.395980 0.566980 -0.076270 1527 -0.930349 -0.369200 0.058055
0.396130 0.567200 -0.075770 1529 -0.928191 -0.366034 0.065250
0.396000 0.567010 -0.075210 1523 -0.930061 -0.368768 0.073307
0.395910 0.566880 -0.074650 1525 -0.931356 -0.370639 0.081365
0.395770 0.566690 -0.074090 1517 -0.933371 -0.373372 0.089422
0.395560 0.566380 -0.073520 1511 -0.936392 -0.377833 0.097624
0.395920 0.566900 -0.073050 1521 -0.931212 -0.370351 0.104386
0.396210 0.567300 -0.072560 1525 -0.927040 -0.364595 0.111437
0.395950 0.566930 -0.071980 1523 -0.930781 -0.369919 0.119782
0.396270 0.567400 -0.071500 1527 -0.926176 -0.363157 0.126688
0.396540 0.567790 -0.071020 1533 -0.922292 -0.357546 0.133595
0.396500 0.567720 -0.070470 1531 -0.922867 -0.358552 0.141509
0.396530 0.567770 -0.069940 1531 -0.922435 -0.357833 0.149134
0.396930 0.568340 -0.069480 1525 -0.916680 -0.349631 0.155753
0.396880 0.568270 -0.068930 1523 -0.917400 -0.350638 0.163667
0.396450 0.567660 -0.068320 1513 -0.923586 -0.359416 0.172444
0.396480 0.567700 -0.067790 1513 -0.923155 -0.358840 0.180070
0.396590 0.567860 -0.067270 1515 -0.921572 -0.356538 0.187552
0.396660 0.567960 -0.066750 1515 -0.920565 -0.355099 0.195034
0.396900 0.568300 -0.066250 1511 -0.917112 -0.350207 0.202228
0.397060 0.568520 -0.065740 1519 -0.914810 -0.347041 0.209566
0.397090 0.568560 -0.065210 1517 -0.914378 -0.346466 0.217192
0.397150 0.568660 -0.064690 1513 -0.913514 -0.345027 0.224674
