370
-14.661441 -12.985384 -0.181359 753 0.828722 -0.527649 -0.339030
-14.657391 -12.981761 -0.175303 841 0.886999 -0.475520 -0.251894
-14.656558 -12.980998 -0.169278 859 0.898979 -0.464542 -0.165203
-14.656116 -12.980568 -0.163260 869 0.905346 -0.458354 -0.078613
-14.656773 -12.981113 -0.157258 865 0.895891 -0.466203 0.007747
-14.657802 -12.981998 -0.151251 821 0.881085 -0.478937 0.094178
-14.660257 -12.984142 -0.145257 749 0.845751 -0.509784 0.180423
-14.662707 -12.978727 -0.193381 791 0.810500 -0.431870 -0.512009
-14.657563 -12.974132 -0.187310 887 0.884516 -0.365744 -0.424656
-14.655204 -12.972014 -0.181275 945 0.918464 -0.335282 -0.337822
-14.653064 -12.970098 -0.175246 977 0.949256 -0.307701 -0.251073
-14.651528 -12.968697 -0.169215 977 0.971348 -0.287543 -0.164296
-14.651078 -12.968273 -0.163208 997 0.977825 -0.281451 -0.077865
-14.651126 -12.968286 -0.157198 989 0.977139 -0.281629 0.008610
-14.653141 -12.970035 -0.151206 979 0.948144 -0.306795 0.094826
-14.655376 -12.971989 -0.145213 941 0.915980 -0.334911 0.181056
-14.657454 -12.973787 -0.139222 897 0.886094 -0.360791 0.267258
-14.662422 -12.978152 -0.133242 799 0.814603 -0.423596 0.353301
-14.663482 -12.971605 -0.199383 871 0.799357 -0.329395 -0.598368
-14.658103 -12.966820 -0.193316 955 0.876749 -0.260538 -0.511073
-14.654153 -12.963294 -0.187258 1011 0.933585 -0.209808 -0.423908
-14.651694 -12.961091 -0.181223 1047 0.968961 -0.178111 -0.337073
-14.650698 -12.960182 -0.175198 1057 0.983300 -0.165034 -0.250383
-14.649978 -12.959504 -0.169194 1065 0.993660 -0.155277 -0.163994
-14.649316 -12.958897 -0.163176 1073 1.003183 -0.146537 -0.077404
-14.649640 -12.959142 -0.157176 1067 0.998518 -0.150063 0.008927
-14.650895 -12.960224 -0.151177 1053 0.980460 -0.165637 0.095243
-14.652412 -12.961537 -0.145178 1033 0.958628 -0.184533 0.181560
-14.654369 -12.963243 -0.139187 985 0.930471 -0.209067 0.267761
-14.657207 -12.965711 -0.133202 931 0.889648 -0.244580 0.353876
-14.662297 -12.970182 -0.127232 849 0.816400 -0.308922 0.439775
-14.664687 -12.964727 -0.205395 883 0.782013 -0.230432 -0.684872
-14.659218 -12.959851 -0.199318 979 0.860708 -0.160272 -0.597433
-14.655381 -12.956439 -0.193261 1027 0.915912 -0.111175 -0.510282
-14.652972 -12.954270 -0.187224 1077 0.950573 -0.079971 -0.423419
-14.652039 -12.953409 -0.181210 1097 0.964007 -0.067581 -0.336886
-14.650219 -12.951770 -0.175181 1099 0.990188 -0.043993 -0.250138
-14.648895 -12.950579 -0.169169 1101 1.009234 -0.026854 -0.163634
-14.649057 -12.950690 -0.163157 1121 1.006902 -0.028459 -0.077131
-14.649438 -12.950990 -0.157155 1115 1.001427 -0.032768 0.009229
-14.650140 -12.951578 -0.151162 1105 0.991327 -0.041234 0.095459
-14.651770 -12.952991 -0.145173 1089 0.967877 -0.061557 0.181632
-14.653841 -12.954782 -0.139180 1057 0.938073 -0.087326 0.267862
-14.656893 -12.957460 -0.133193 1023 0.894162 -0.125871 0.354006
-14.660563 -12.960666 -0.127211 967 0.841347 -0.171991 0.440078
-14.664536 -12.964145 -0.121228 877 0.784181 -0.222048 0.526164
-14.669501 -12.961185 -0.211436 859 0.712745 -0.179469 -0.771793
-14.662655 -12.955099 -0.205346 965 0.811254 -0.091896 -0.684167
-14.658058 -12.951002 -0.199282 1031 0.877394 -0.032946 -0.596915
-14.654931 -12.948209 -0.193232 1079 0.922388 0.007245 -0.509865
-14.652678 -12.946196 -0.187205 1109 0.954813 0.036212 -0.423145
-14.650325 -12.944084 -0.181178 1127 0.988665 0.066593 -0.336426
-14.649770 -12.943555 -0.175162 1141 0.996651 0.074208 -0.249865
-14.649817 -12.943565 -0.169161 1157 0.995965 0.074057 -0.163520
-14.649317 -12.943092 -0.163155 1143 1.003169 0.080863 -0.077102
-14.649862 -12.943542 -0.157151 1159 0.995320 0.074400 0.009286
-14.650613 -12.944180 -0.151158 1147 0.984521 0.065220 0.095516
-14.651541 -12.944966 -0.145161 1117 0.971170 0.053900 0.181804
-14.653393 -12.946568 -0.139170 1087 0.944522 0.030861 0.268006
-14.656883 -12.949626 -0.133191 1075 0.894300 -0.013146 0.354034
-14.660375 -12.952682 -0.127211 1025 0.844064 -0.057111 0.440078
-14.664036 -12.955881 -0.121230 959 0.791385 -0.103148 0.526135
-14.670106 -12.961211 -0.115254 839 0.704045 -0.179840 0.612121
-14.675822 -12.958809 -0.217509 813 0.621796 -0.145274 -0.859174
-14.667219 -12.951183 -0.211388 947 0.745581 -0.035554 -0.771102
-14.662887 -12.947332 -0.205325 1027 0.807920 0.019856 -0.683865
-14.659050 -12.943906 -0.199267 1077 0.863123 0.069159 -0.596699
-14.655546 -12.940782 -0.193226 1121 0.913538 0.114112 -0.509778
-14.653621 -12.939050 -0.187199 1139 0.941242 0.139031 -0.423059
-14.652459 -12.938006 -0.181185 1157 0.957956 0.154042 -0.336527
-14.651137 -12.936802 -0.175162 1163 0.976974 0.171373 -0.249865
-14.649878 -12.935660 -0.169150 1165 0.995101 0.187798 -0.163361
-14.649925 -12.935673 -0.163149 1169 0.994415 0.187620 -0.077016
-14.651179 -12.936739 -0.157153 1183 0.976370 0.172279 0.009258
-14.650511 -12.936126 -0.151146 1167 0.985989 0.181102 0.095689
-14.650778 -12.936329 -0.145146 1151 0.982147 0.178179 0.182020
-14.653666 -12.938844 -0.139168 1127 0.940597 0.141995 0.268035
-14.656071 -12.940938 -0.133185 1115 0.905991 0.111861 0.354121
-14.659185 -12.943651 -0.127196 1067 0.861175 0.072822 0.440294
-14.664489 -12.948305 -0.121226 1029 0.784867 0.005859 0.526193
-14.669238 -12.952469 -0.115248 947 0.716532 -0.054051 0.612207
-14.678651 -12.960745 -0.109293 789 0.581096 -0.173130 0.697891
-14.676046 -12.951036 -0.217486 893 0.618571 -0.033440 -0.858843
-14.669753 -12.945443 -0.211394 1001 0.709122 0.047039 -0.771188
-14.665525 -12.941685 -0.205338 1065 0.769951 0.101117 -0.684052
-14.660801 -12.937492 -0.199265 1105 0.837930 0.161439 -0.596671
-14.657248 -12.934318 -0.193226 1129 0.889058 0.207119 -0.509778
-14.655265 -12.932543 -0.187197 1161 0.917586 0.232655 -0.423030
-14.653564 -12.931008 -0.181178 1175 0.942052 0.254734 -0.336426
-14.651971 -12.929563 -0.175158 1191 0.964981 0.275536 -0.249807
-14.651962 -12.929534 -0.169158 1197 0.965105 0.275948 -0.163476
-14.651846 -12.929399 -0.163157 1185 0.966779 0.277897 -0.077131
-14.651568 -12.929115 -0.157149 1187 0.970772 0.281972 0.009315
-14.652269 -12.929705 -0.151156 1197 0.960686 0.273492 0.095545
-14.652812 -12.930151 -0.145163 1175 0.952878 0.267070 0.181776
-14.654330 -12.931466 -0.139174 1149 0.931033 0.248147 0.267948
-14.656899 -12.933694 -0.133189 1127 0.894066 0.216093 0.354063
-14.659951 -12.936357 -0.127202 1111 0.850156 0.177781 0.440207
-14.663229 -12.939219 -0.121222 1069 0.802994 0.136588 0.526250
-14.668702 -12.944013 -0.115250 1007 0.724244 0.067622 0.612178
-14.675758 -12.950207 -0.109280 903 0.622715 -0.021502 0.698078
-14.683979 -12.950245 -0.223578 799 0.504432 -0.022051 -0.946498
-14.675817 -12.943012 -0.217455 947 0.621878 0.082016 -0.858397
-14.670161 -12.937994 -0.211379 1023 0.703249 0.154221 -0.770973
-14.666056 -12.934343 -0.205313 1091 0.762322 0.206748 -0.683692
-14.662432 -12.931112 -0.199265 1129 0.814465 0.253238 -0.596671
-14.658873 -12.927945 -0.193224 1155 0.865676 0.298809 -0.509750
-14.657606 -12.926796 -0.187203 1187 0.883898 0.315344 -0.423117
-14.655849 -12.925219 -0.181183 1195 0.909174 0.338040 -0.336498
-14.654086 -12.923635 -0.175164 1209 0.934546 0.360832 -0.249894
-14.653701 -12.923259 -0.169165 1215 0.940090 0.366238 -0.163577
-14.653308 -12.922880 -0.163157 1211 0.945743 0.371686 -0.077131
-14.653575 -12.923080 -0.157156 1193 0.941901 0.368804 0.009214
-14.654333 -12.923726 -0.151162 1193 0.930992 0.359515 0.095459
-14.656076 -12.925221 -0.145182 1183 0.905908 0.337999 0.181502
-14.658810 -12.927611 -0.139197 1185 0.866581 0.303611 0.267617
-14.660065 -12.928679 -0.133210 1149 0.848523 0.288243 0.353761
-14.661907 -12.930273 -0.127219 1125 0.822012 0.265314 0.439962
-14.665294 -12.933227 -0.121239 1083 0.773286 0.222817 0.526006
-14.670540 -12.937824 -0.115258 1033 0.697801 0.156663 0.612063
-14.677389 -12.943829 -0.109299 953 0.599250 0.070270 0.697804
-14.692562 -12.957191 -0.103369 781 0.380935 -0.122002 0.783128
-14.684309 -12.942562 -0.223555 855 0.499684 0.088493 -0.946167
-14.678122 -12.937075 -0.217461 985 0.588712 0.167449 -0.858484
-14.672851 -12.932395 -0.211382 1045 0.664553 0.234782 -0.771016
-14.667864 -12.927970 -0.205321 1101 0.736305 0.298452 -0.683807
-14.664630 -12.925084 -0.199271 1149 0.782836 0.339975 -0.596757
-14.662043 -12.922782 -0.193236 1157 0.820064 0.373099 -0.509922
-14.660343 -12.921246 -0.187216 1181 0.844516 0.395205 -0.423304
-14.658751 -12.919817 -0.181204 1207 0.867432 0.415761 -0.336800
-14.657598 -12.918767 -0.175192 1227 0.884022 0.430869 -0.250296
-14.657256 -12.918435 -0.169184 1243 0.888934 0.435644 -0.163850
-14.656373 -12.917625 -0.163180 1225 0.901641 0.447294 -0.077462
-14.655987 -12.917250 -0.157172 1211 0.907198 0.452700 0.008984
-14.657505 -12.918564 -0.151183 1211 0.885353 0.433791 0.095157
-14.658488 -12.919391 -0.145197 1201 0.871206 0.421895 0.181286
-14.659189 -12.919979 -0.139193 1175 0.861120 0.413428 0.267675
-14.661098 -12.921638 -0.133212 1151 0.833662 0.389566 0.353732
-14.664383 -12.924491 -0.127232 1137 0.786390 0.348510 0.439775
-14.668813 -12.928367 -0.121256 1119 0.722652 0.292744 0.525761
-14.673398 -12.932379 -0.115281 1079 0.656677 0.235016 0.611732
-14.677663 -12.936107 -0.109295 983 0.595312 0.181377 0.697862
-14.684669 -12.942251 -0.103325 835 0.494511 0.092966 0.783761
-14.686791 -12.936774 -0.223561 885 0.463966 0.171771 -0.946253
-14.680101 -12.930842 -0.217459 991 0.560225 0.257122 -0.858455
-14.674447 -12.925840 -0.211382 1061 0.641583 0.329093 -0.771016
-14.670332 -12.922181 -0.205327 1111 0.700793 0.381744 -0.683894
-14.666878 -12.919105 -0.199276 1143 0.750494 0.426011 -0.596829
-14.664406 -12.916903 -0.193251 1179 0.786061 0.457695 -0.510138
-14.663367 -12.915951 -0.187237 1205 0.801004 0.471390 -0.423606
-14.661993 -12.914711 -0.181216 1213 0.820777 0.489228 -0.336973
-14.660272 -12.913168 -0.175206 1219 0.845545 0.511430 -0.250498
-14.659617 -12.912554 -0.169190 1245 0.854959 0.520267 -0.163937
-14.659502 -12.912418 -0.163189 1237 0.856619 0.522216 -0.077591
-14.659869 -12.912721 -0.157198 1233 0.851336 0.517866 0.008610
-14.659867 -12.912683 -0.151198 1219 0.851364 0.518415 0.094941
-14.661119 -12.913750 -0.145211 1205 0.833347 0.503060 0.181085
-14.663519 -12.915836 -0.139227 1191 0.798822 0.473036 0.267186
-14.665378 -12.917446 -0.133236 1179 0.772078 0.449874 0.353387
-14.668101 -12.919815 -0.127261 1159 0.732888 0.415788 0.439358
-14.671054 -12.922380 -0.121274 1131 0.690405 0.378876 0.525502
-14.674666 -12.925529 -0.115292 1075 0.638427 0.333580 0.611574
-14.679918 -12.930120 -0.109313 983 0.562860 0.267509 0.697603
-14.687685 -12.936934 -0.103346 865 0.451109 0.169466 0.783459
-14.690027 -12.931662 -0.223582 925 0.417407 0.245334 -0.946555
-14.683436 -12.925827 -0.217480 1009 0.512240 0.329285 -0.858757
-14.677454 -12.920529 -0.211394 1073 0.598317 0.405511 -0.771188
-14.672694 -12.916300 -0.205332 1113 0.666804 0.466367 -0.683965
-14.669723 -12.913660 -0.199290 1149 0.709561 0.504350 -0.597030
-14.668074 -12.912175 -0.193268 1191 0.733286 0.525715 -0.510383
-14.666317 -12.910597 -0.187249 1211 0.758562 0.548424 -0.423779
-14.664611 -12.909070 -0.181229 1223 0.783111 0.570393 -0.337160
-14.664446 -12.908884 -0.175231 1229 0.785485 0.573069 -0.250858
-14.663676 -12.908171 -0.169224 1259 0.796558 0.583333 -0.164426
-14.662892 -12.907459 -0.163208 1245 0.807838 0.593570 -0.077865
-14.663765 -12.908190 -0.157225 1233 0.795282 0.583059 0.008222
-14.664521 -12.908834 -0.151230 1227 0.784401 0.573783 0.094480
-14.664732 -12.908980 -0.145228 1221 0.781368 0.571683 0.180840
-14.666201 -12.910245 -0.139241 1193 0.760236 0.553488 0.266984
-14.669323 -12.912966 -0.133263 1191 0.715311 0.514339 0.352998
-14.671721 -12.915037 -0.127278 1161 0.680800 0.484535 0.439114
-14.673736 -12.916787 -0.121287 1129 0.651819 0.459355 0.525315
-14.677901 -12.920414 -0.115313 1075 0.591882 0.407171 0.611272
-14.683749 -12.925539 -0.109339 1003 0.507739 0.333429 0.697229
-14.691802 -12.932593 -0.103383 895 0.391871 0.231928 0.782927
-14.695158 -12.928043 -0.223622 919 0.343583 0.297395 -0.947131
-14.688240 -12.921929 -0.217522 1003 0.443122 0.385367 -0.859361
-14.682918 -12.917215 -0.211443 1073 0.519704 0.453194 -0.771894
-14.678634 -12.913415 -0.205378 1119 0.581343 0.507876 -0.684627
-14.675117 -12.910291 -0.199337 1145 0.631950 0.552829 -0.597707
-14.672096 -12.907601 -0.193295 1177 0.675407 0.591525 -0.510771
-14.669957 -12.905686 -0.187268 1213 0.706186 0.619079 -0.424052
-14.668249 -12.904158 -0.181258 1225 0.730762 0.641075 -0.337577
-14.667481 -12.903447 -0.175242 1243 0.741808 0.651298 -0.251016
-14.666984 -12.902974 -0.169245 1233 0.748971 0.658104 -0.164728
-14.666859 -12.902845 -0.163237 1239 0.750768 0.659956 -0.078282
-14.666857 -12.902808 -0.157237 1235 0.750796 0.660492 0.008049
-14.668048 -12.903827 -0.151249 1235 0.733657 0.645836 0.094207
-14.669522 -12.905083 -0.145260 1221 0.712443 0.627765 0.180380
-14.670223 -12.905672 -0.139267 1197 0.702357 0.619285 0.266610
-14.672081 -12.907281 -0.133286 1173 0.675627 0.596136 0.352668
-14.674976 -12.909790 -0.127299 1165 0.633967 0.560033 0.438812
-14.677325 -12.911827 -0.121315 1119 0.600170 0.530723 0.524912
-14.681372 -12.915351 -0.115332 1069 0.541948 0.480021 0.610999
-14.687013 -12.920285 -0.109360 1003 0.460782 0.409023 0.696927
-14.693366 -12.925838 -0.103394 897 0.369367 0.329121 0.782768
-14.699727 -12.923942 -0.223654 935 0.277842 0.356413 -0.947591
-14.693747 -12.918658 -0.217560 1021 0.363892 0.432433 -0.859908
-14.687373 -12.913014 -0.211476 1063 0.455596 0.513639 -0.772368
-14.682380 -12.908595 -0.205407 1113 0.527444 0.577227 -0.685045
-14.678805 -12.905428 -0.199357 1143 0.578873 0.622797 -0.597994
-14.676121 -12.903029 -0.193322 1177 0.617501 0.657308 -0.511160
-14.674029 -12.901162 -0.187304 1189 0.647593 0.684176 -0.424570
-14.673480 -12.900656 -0.181298 1225 0.655497 0.691462 -0.338153
-14.672320 -12.899597 -0.175284 1233 0.672183 0.706693 -0.251620
-14.671161 -12.898555 -0.169272 1217 0.688868 0.721691 -0.165117
-14.671926 -12.899194 -0.163277 1241 0.677863 0.712498 -0.078858
-14.671803 -12.899051 -0.157279 1221 0.679620 0.714556 0.007445
-14.671964 -12.899161 -0.151276 1209 0.677315 0.712964 0.093819
-14.673601 -12.900566 -0.145287 1213 0.653754 0.692752 0.179991
-14.674955 -12.901731 -0.139300 1195 0.634269 0.675997 0.266135
-14.676594 -12.903136 -0.133311 1167 0.610695 0.655771 0.352308
-14.679049 -12.905267 -0.127326 1143 0.575374 0.625116 0.438423
-14.682775 -12.908514 -0.121354 1105 0.521763 0.578393 0.524351
-14.687368 -12.912522 -0.115378 1065 0.455664 0.520720 0.610337
-14.693288 -12.917688 -0.109404 999 0.370492 0.446388 0.696294
-14.700087 -12.923629 -0.103434 879 0.272669 0.360914 0.782193
-14.703877 -12.919326 -0.223681 907 0.218124 0.422828 -0.947980
-14.697186 -12.913408 -0.217581 1005 0.314397 0.507972 -0.860210
-14.691751 -12.908610 -0.211503 1051 0.392612 0.577007 -0.772757
-14.687632 -12.904959 -0.205447 1111 0.451877 0.629549 -0.685620
-14.683566 -12.901348 -0.199391 1133 0.510374 0.681500 -0.598484
-14.680866 -12.898948 -0.193356 1163 0.549220 0.716038 -0.511649
-14.680047 -12.898199 -0.187350 1179 0.561007 0.726810 -0.425232
-14.677908 -12.896286 -0.181323 1197 0.591786 0.754336 -0.338512
-14.676357 -12.894882 -0.175313 1219 0.614098 0.774535 -0.252037
-14.676908 -12.895337 -0.169308 1229 0.606180 0.767989 -0.165635
-14.676844 -12.895254 -0.163310 1229 0.607099 0.769183 -0.079332
-14.676558 -12.894978 -0.157311 1219 0.611216 0.773162 0.006984
-14.676995 -12.895319 -0.151309 1197 0.604918 0.768250 0.093344
-14.678241 -12.896393 -0.145321 1197 0.586997 0.752799 0.179502
-14.680157 -12.898046 -0.139340 1179 0.559429 0.729019 0.265560
-14.681901 -12.899540 -0.133351 1149 0.534332 0.707517 0.351732
-14.683971 -12.901332 -0.127358 1139 0.504542 0.681733 0.437963
-14.687095 -12.904038 -0.121380 1091 0.459602 0.642790 0.523977
-14.691148 -12.907567 -0.115397 1049 0.401284 0.592019 0.610063
-14.696840 -12.912538 -0.109425 977 0.319378 0.520500 0.695991
-14.706105 -12.920652 -0.103470 843 0.186069 0.403740 0.781675
-14.712049 -12.918680 -0.223763 863 0.100554 0.432117 -0.949160
-14.704420 -12.911946 -0.217658 997 0.210316 0.529008 -0.861318
-14.698594 -12.906803 -0.211571 1033 0.294143 0.603010 -0.773735
-14.693260 -12.902089 -0.205492 1081 0.370890 0.670838 -0.686268
-14.689797 -12.899019 -0.199452 1117 0.420714 0.715009 -0.599361
-14.686665 -12.896233 -0.193409 1155 0.465791 0.755104 -0.512411
-14.683816 -12.893700 -0.187376 1163 0.506778 0.791550 -0.425606
-14.682323 -12.892355 -0.181355 1187 0.528253 0.810898 -0.338973
-14.681433 -12.891550 -0.175341 1209 0.541070 0.822479 -0.252440
-14.680933 -12.891077 -0.169344 1209 0.548260 0.829285 -0.166152
-14.680717 -12.890858 -0.163334 1201 0.551361 0.832441 -0.079678
-14.680922 -12.891010 -0.157343 1189 0.548424 0.830246 0.006524
-14.681849 -12.891795 -0.151349 1197 0.535087 0.818952 0.092768
-14.682323 -12.892173 -0.145346 1173 0.528253 0.813519 0.179142
-14.684514 -12.894072 -0.139363 1155 0.496734 0.786198 0.265229
-14.687140 -12.896340 -0.133389 1141 0.458944 0.753554 0.351186
-14.689596 -12.898471 -0.127404 1123 0.423610 0.722899 0.437301
-14.693321 -12.901704 -0.121422 1083 0.370012 0.676382 0.523373
-14.697536 -12.905379 -0.115439 1021 0.309361 0.623497 0.609459
-14.703074 -12.910211 -0.109467 933 0.229678 0.553982 0.695387
-14.715923 -12.921453 -0.103531 771 0.044802 0.392214 0.780797
-14.712046 -12.911012 -0.217730 927 0.100595 0.542455 -0.862354
-14.704303 -12.904181 -0.211615 1013 0.212004 0.640746 -0.774368
-14.699572 -12.899994 -0.205552 1067 0.280078 0.700985 -0.687131
-14.695557 -12.896448 -0.199496 1115 0.337848 0.752003 -0.599994
-14.692927 -12.894103 -0.193461 1147 0.375679 0.785745 -0.513160
-14.690497 -12.891943 -0.187436 1153 0.410643 0.816826 -0.426469
-14.688356 -12.890027 -0.181408 1167 0.441448 0.844393 -0.339735
-14.686970 -12.888786 -0.175385 1173 0.461400 0.862245 -0.253073
-14.686919 -12.888701 -0.169386 1191 0.462127 0.863466 -0.166757
-14.686518 -12.888327 -0.163378 1201 0.467904 0.868859 -0.080311
-14.685977 -12.887812 -0.157372 1191 0.475685 0.876269 0.006106
-14.686896 -12.888589 -0.151387 1183 0.462457 0.865086 0.092221
-14.687931 -12.889466 -0.145390 1165 0.447568 0.852461 0.178509
-14.689507 -12.890823 -0.139401 1151 0.424900 0.832935 0.264682
-14.692849 -12.893719 -0.133421 1133 0.376804 0.791275 0.350725
-14.695751 -12.896235 -0.127446 1099 0.335048 0.755063 0.436696
-14.698311 -12.898456 -0.121451 1063 0.298219 0.723118 0.522955
-14.702478 -12.902082 -0.115477 1003 0.238254 0.670934 0.608912
-14.707467 -12.906428 -0.109498 895 0.166474 0.608403 0.694941
-14.727694 -12.916928 -0.217907 857 -0.124554 0.457325 -0.864901
-14.712459 -12.903534 -0.211695 963 0.094654 0.650049 -0.775519
-14.706904 -12.898628 -0.205618 1041 0.174570 0.720635 -0.688081
-14.701897 -12.894211 -0.199547 1075 0.246624 0.784195 -0.600728
-14.698437 -12.891144 -0.193507 1115 0.296407 0.828324 -0.513822
-14.696616 -12.889516 -0.187478 1139 0.322603 0.851748 -0.427074
-14.695292 -12.888325 -0.181466 1151 0.341649 0.868887 -0.340570
-14.693537 -12.886749 -0.175446 1161 0.366911 0.891555 -0.253951
-14.692710 -12.885994 -0.169430 1173 0.378808 0.902423 -0.167390
-14.692211 -12.885520 -0.163424 1169 0.385984 0.909243 -0.080973
-14.692465 -12.885723 -0.157422 1161 0.382334 0.906320 0.005387
-14.692406 -12.885630 -0.151423 1151 0.383185 0.907665 0.091703
-14.693269 -12.886365 -0.145428 1131 0.370767 0.897085 0.177963
-14.695518 -12.888306 -0.139445 1119 0.338410 0.869161 0.264049
-14.698805 -12.891145 -0.133465 1101 0.291111 0.828311 0.350092
-14.702415 -12.894293 -0.127486 1069 0.239160 0.783015 0.436121
-14.704601 -12.896170 -0.121493 1025 0.207709 0.756010 0.522351
-14.709761 -12.900669 -0.115523 937 0.133473 0.691270 0.608250
-14.719580 -12.909247 -0.109566 821 -0.007808 0.567841 0.693963
-14.723989 -12.905693 -0.211819 883 -0.071244 0.618983 -0.777304
-14.713705 -12.896653 -0.205678 969 0.076719 0.749053 -0.688944
-14.709798 -12.893197 -0.199620 1041 0.132938 0.798781 -0.601778
-14.707054 -12.890756 -0.193587 1083 0.172416 0.833909 -0.514973
-14.704183 -12.888214 -0.187542 1107 0.213733 0.870478 -0.427994
-14.702149 -12.886391 -0.181525 1139 0.242988 0.896715 -0.341419
-14.699889 -12.884384 -0.175498 1141 0.275509 0.925586 -0.254699
-14.699553 -12.884058 -0.169489 1145 0.280353 0.930278 -0.168239
-14.700155 -12.884549 -0.163487 1157 0.271681 0.923212 -0.081879
-14.700252 -12.884610 -0.157486 1149 0.270295 0.922333 0.004466
-14.700300 -12.884624 -0.151486 1147 0.269595 0.922141 0.090797
-14.700951 -12.885163 -0.145482 1129 0.260236 0.914375 0.177186
-14.703029 -12.886947 -0.139500 1107 0.230336 0.888715 0.263257
-14.705492 -12.889071 -0.133517 1067 0.194893 0.858142 0.349344
-14.709273 -12.892360 -0.127535 1037 0.140485 0.810829 0.435416
-14.713767 -12.896268 -0.121558 979 0.075827 0.754597 0.521416
-14.719744 -12.901479 -0.115584 893 -0.010168 0.679620 0.607373
-14.724956 -12.898241 -0.205794 877 -0.085158 0.726206 -0.690613
-14.717747 -12.891894 -0.199696 971 0.018566 0.817525 -0.602872
-14.715279 -12.889698 -0.193659 1029 0.054078 0.849127 -0.516009
-14.712628 -12.887347 -0.187624 1077 0.092211 0.882951 -0.429174
-14.709707 -12.884756 -0.181582 1109 0.134242 0.920234 -0.342239
-14.706838 -12.882216 -0.175549 1097 0.175531 0.956775 -0.255433
-14.706345 -12.881749 -0.169543 1115 0.182625 0.963499 -0.169016
-14.707004 -12.882298 -0.163538 1107 0.173143 0.955595 -0.082613
-14.708364 -12.883454 -0.157551 1119 0.153576 0.938964 0.003531
-14.709293 -12.884242 -0.151555 1111 0.140197 0.927630 0.089804
-14.710163 -12.884971 -0.145560 1097 0.127683 0.917147 0.176063
-14.711582 -12.886187 -0.139561 1059 0.107264 0.899651 0.262380
-14.713986 -12.888251 -0.133578 1033 0.072671 0.869943 0.348466
-14.717492 -12.891294 -0.127589 983 0.022230 0.826170 0.434639
-14.721942 -12.895162 -0.121613 899 -0.041797 0.770514 0.520624
-14.730354 -12.894827 -0.199833 887 -0.162838 0.775330 -0.604843
-14.724237 -12.889451 -0.193749 961 -0.074826 0.852681 -0.517304
-14.720990 -12.886564 -0.187697 1019 -0.028103 0.894217 -0.430224
-14.719391 -12.885143 -0.181675 1043 -0.005091 0.914663 -0.343577
-14.717407 -12.883368 -0.175648 1075 0.023451 0.940213 -0.256858
-14.716133 -12.882227 -0.169625 1081 0.041783 0.956625 -0.170196
-14.715798 -12.881902 -0.163617 1089 0.046600 0.961304 -0.083750
-14.716122 -12.882159 -0.157616 1075 0.041948 0.957599 0.002596
-14.717213 -12.883079 -0.151619 1077 0.026250 0.944371 0.088883
-14.718638 -12.884287 -0.145621 1047 0.005736 0.926985 0.175186
-14.720773 -12.886127 -0.139630 1005 -0.024974 0.900502 0.261387
-14.723953 -12.888876 -0.133641 969 -0.070737 0.860955 0.347560
-14.728013 -12.892399 -0.127667 895 -0.129151 0.810266 0.433517
-14.740063 -12.895345 -0.193905 845 -0.302527 0.767879 -0.519548
-14.731924 -12.888190 -0.187804 925 -0.185424 0.870821 -0.431764
-14.729004 -12.885600 -0.181759 975 -0.143408 0.908090 -0.344786
-14.726579 -12.883445 -0.175725 993 -0.108513 0.939102 -0.257965
-14.724751 -12.881824 -0.169695 1011 -0.082222 0.962429 -0.171203
-14.724032 -12.881163 -0.163680 1015 -0.071875 0.971938 -0.084656
-14.724747 -12.881751 -0.157685 997 -0.082153 0.963472 0.001603
-14.725774 -12.882622 -0.151679 995 -0.096932 0.950944 0.088020
-14.727143 -12.883788 -0.145682 961 -0.116636 0.934162 0.174308
-14.729832 -12.886106 -0.139697 921 -0.155319 0.900817 0.260423
-14.735148 -12.890732 -0.133725 851 -0.231818 0.834252 0.346351
-14.742279 -12.889420 -0.181891 805 -0.334417 0.853134 -0.346685
-14.738811 -12.886356 -0.175841 863 -0.284511 0.897209 -0.259635
-14.737310 -12.885018 -0.169810 899 -0.262926 0.916460 -0.172858
-14.735874 -12.883729 -0.163788 891 -0.242261 0.935013 -0.086210
-14.737079 -12.884748 -0.157782 893 -0.259592 0.920344 0.000207
-14.738717 -12.886153 -0.151782 859 -0.283166 0.900131 0.086538
-14.740803 -12.887943 -0.145791 799 -0.313176 0.874375 0.172740
