137
-23.076115 -19.336826 -0.156456 949 0.872139 -0.314809 -0.260013
-23.074314 -19.335264 -0.147206 973 0.898046 -0.292332 -0.126919
-23.074650 -19.335501 -0.137965 955 0.893215 -0.295735 0.006045
-23.080334 -19.328455 -0.174975 973 0.811433 -0.194357 -0.526473
-23.074900 -19.323853 -0.165696 1057 0.889620 -0.128135 -0.392962
-23.071297 -19.320795 -0.156435 1097 0.941462 -0.084143 -0.259711
-23.069788 -19.319477 -0.147185 1105 0.963170 -0.065179 -0.126617
-23.071112 -19.320545 -0.137957 1081 0.944124 -0.080548 0.006160
-23.072126 -19.321348 -0.128712 1065 0.929524 -0.092102 0.139181
-23.074871 -19.323595 -0.119486 1027 0.890032 -0.124430 0.271930
-23.084110 -19.331291 -0.110274 923 0.757094 -0.235166 0.404476
-23.082708 -19.318256 -0.184237 1005 0.777265 -0.047615 -0.659740
-23.075750 -19.312380 -0.174946 1097 0.877380 0.036939 -0.526056
-23.070978 -19.308344 -0.165682 1131 0.946045 0.095011 -0.392761
-23.070580 -19.307962 -0.156435 1145 0.951781 0.100499 -0.259711
-23.070183 -19.307592 -0.147196 1161 0.957489 0.105824 -0.126775
-23.070019 -19.307400 -0.137959 1155 0.959849 0.108595 0.006131
-23.072029 -19.309040 -0.128727 1123 0.930923 0.084994 0.138965
-23.075724 -19.312084 -0.119505 1103 0.877765 0.041193 0.271656
-23.080030 -19.315645 -0.110281 1053 0.815796 -0.010044 0.404376
-23.089338 -19.323393 -0.101069 931 0.681870 -0.121521 0.536922
-23.090910 -19.313166 -0.193543 961 0.659257 0.025633 -0.793639
-23.083054 -19.306541 -0.184237 1081 0.772298 0.120945 -0.659740
-23.077885 -19.302181 -0.174967 1143 0.846671 0.183682 -0.526358
-23.074530 -19.299322 -0.165705 1181 0.894944 0.224820 -0.393092
-23.072786 -19.297815 -0.156456 1191 0.920028 0.246501 -0.260013
-23.072609 -19.297625 -0.147217 1203 0.922580 0.249245 -0.127078
-23.071877 -19.296968 -0.137980 1193 0.933119 0.258686 0.005829
-23.072941 -19.297804 -0.128744 1183 0.917805 0.246665 0.138721
-23.075844 -19.300188 -0.119519 1161 0.876036 0.212361 0.271455
-23.078753 -19.302576 -0.110293 1125 0.834184 0.178001 0.404203
-23.085981 -19.308580 -0.101082 1047 0.730172 0.091608 0.536735
-23.089998 -19.300411 -0.193531 1035 0.672375 0.209150 -0.793466
-23.084061 -19.295408 -0.184244 1131 0.757807 0.281135 -0.659840
-23.079744 -19.291748 -0.174979 1187 0.819913 0.333800 -0.526531
-23.076767 -19.289221 -0.165726 1205 0.862753 0.370163 -0.393394
-23.074638 -19.287392 -0.156477 1237 0.893380 0.396482 -0.260315
-23.072824 -19.285831 -0.147229 1241 0.919479 0.418931 -0.127250
-23.074232 -19.286959 -0.138001 1225 0.899226 0.402711 0.005527
-23.076071 -19.288458 -0.128771 1211 0.872770 0.381140 0.138332
-23.078714 -19.290607 -0.119545 1207 0.834733 0.350211 0.271081
-23.082235 -19.293516 -0.110325 1163 0.784071 0.308359 0.403742
-23.086931 -19.297392 -0.101099 1101 0.716504 0.252593 0.536491
-23.093544 -19.302866 -0.091883 981 0.621357 0.173829 0.669095
-23.103434 -19.299467 -0.202870 937 0.479060 0.222734 -0.927840
-23.094168 -19.291681 -0.193562 1067 0.612382 0.334760 -0.793912
-23.088057 -19.286530 -0.184277 1151 0.700313 0.408886 -0.660315
-23.084919 -19.283865 -0.175015 1195 0.745458 0.447225 -0.527049
-23.082434 -19.281744 -0.165758 1257 0.781217 0.477743 -0.393855
-23.079966 -19.279636 -0.156512 1259 0.816729 0.508068 -0.260819
-23.078665 -19.278507 -0.147271 1247 0.835446 0.524315 -0.127855
-23.078945 -19.278687 -0.138039 1247 0.831412 0.521735 0.004980
-23.079718 -19.279293 -0.128804 1231 0.820297 0.513008 0.137858
-23.081402 -19.280653 -0.119574 1195 0.796064 0.493441 0.270663
-23.085995 -19.284447 -0.110360 1187 0.729979 0.438855 0.403239
-23.091036 -19.288601 -0.101141 1137 0.657445 0.379082 0.535886
-23.096863 -19.293423 -0.091917 1031 0.573604 0.309704 0.668606
-23.106853 -19.290337 -0.202893 961 0.429853 0.354108 -0.928171
-23.098999 -19.283739 -0.193589 1077 0.542867 0.449037 -0.794301
-23.093950 -19.279472 -0.184317 1159 0.615511 0.510428 -0.660891
-23.089844 -19.275993 -0.175049 1193 0.674598 0.560486 -0.527538
-23.086990 -19.273567 -0.165797 1225 0.715654 0.595395 -0.394416
-23.085974 -19.272673 -0.156552 1269 0.730281 0.608266 -0.261394
-23.084290 -19.271221 -0.147311 1265 0.754514 0.629151 -0.128430
-23.083376 -19.270409 -0.138066 1257 0.767660 0.640842 0.004591
-23.084265 -19.271109 -0.128842 1239 0.754871 0.630770 0.137311
-23.087860 -19.274057 -0.119622 1221 0.703139 0.588342 0.269973
-23.091557 -19.277102 -0.110390 1193 0.649953 0.544541 0.402807
-23.095425 -19.280279 -0.101170 1141 0.594297 0.498820 0.535469
-23.102646 -19.286263 -0.091948 1041 0.490394 0.412728 0.668160
-23.114317 -19.284367 -0.202946 969 0.322465 0.440008 -0.928934
-23.105787 -19.277189 -0.193634 1087 0.445194 0.543279 -0.794948
-23.100967 -19.273125 -0.184361 1161 0.514545 0.601762 -0.661524
-23.095510 -19.268534 -0.175082 1207 0.593062 0.667819 -0.528013
-23.091858 -19.265438 -0.165823 1235 0.645617 0.712360 -0.394790
-23.089832 -19.263693 -0.156584 1259 0.674762 0.737472 -0.261855
-23.089390 -19.263285 -0.147347 1257 0.681129 0.743345 -0.128948
-23.090040 -19.263784 -0.138113 1257 0.671771 0.736154 0.003915
-23.091955 -19.265339 -0.128882 1241 0.644217 0.713787 0.136735
-23.094074 -19.267054 -0.119662 1229 0.613727 0.689115 0.269397
-23.096197 -19.268774 -0.110428 1187 0.583182 0.664361 0.402260
-23.101294 -19.272982 -0.101210 1129 0.509852 0.603820 0.534894
-23.108816 -19.279215 -0.091997 1035 0.401614 0.514133 0.667455
-23.121613 -19.278460 -0.202998 947 0.217493 0.525001 -0.929682
-23.111912 -19.270321 -0.193672 1073 0.357072 0.642104 -0.795495
-23.105219 -19.264692 -0.184391 1131 0.453373 0.723091 -0.661955
-23.101971 -19.261936 -0.175129 1181 0.500110 0.762747 -0.528689
-23.099539 -19.259867 -0.165873 1205 0.535100 0.792524 -0.395509
-23.097925 -19.258467 -0.156632 1229 0.558318 0.812668 -0.262545
-23.096685 -19.257389 -0.147389 1243 0.576156 0.828174 -0.129552
-23.096609 -19.257278 -0.138159 1243 0.577254 0.829765 0.003253
-23.098858 -19.259104 -0.128928 1219 0.544898 0.803501 0.136073
-23.101885 -19.261587 -0.119709 1205 0.501345 0.767770 0.268721
-23.105246 -19.264345 -0.110482 1161 0.452988 0.728086 0.401483
-23.109222 -19.267612 -0.101260 1099 0.395768 0.681074 0.534174
-23.117252 -19.274254 -0.092043 1005 0.280229 0.585515 0.666793
-23.122175 -19.267376 -0.193745 1039 0.209397 0.684477 -0.796545
-23.115265 -19.261568 -0.184454 1123 0.308826 0.768044 -0.662862
-23.110548 -19.257586 -0.175190 1161 0.376695 0.825347 -0.529567
-23.106276 -19.253981 -0.165924 1189 0.438169 0.877216 -0.396243
-23.104979 -19.252863 -0.156681 1207 0.456831 0.893298 -0.263250
-23.104645 -19.252527 -0.147444 1217 0.461633 0.898128 -0.130344
-23.105192 -19.252947 -0.138211 1215 0.453757 0.892090 0.002505
-23.106642 -19.254105 -0.128973 1219 0.432900 0.875432 0.135426
-23.108891 -19.255928 -0.119751 1193 0.400543 0.849196 0.268117
-23.112478 -19.258871 -0.110531 1155 0.348921 0.806850 0.400778
-23.116608 -19.262268 -0.101298 1059 0.289505 0.757972 0.533627
-23.124804 -19.269051 -0.092081 939 0.171579 0.660382 0.666246
-23.133905 -19.265406 -0.193831 949 0.040617 0.712827 -0.797783
-23.124063 -19.257168 -0.184515 1069 0.182227 0.831357 -0.663740
-23.119230 -19.253094 -0.175244 1117 0.251770 0.889977 -0.530344
-23.116655 -19.250896 -0.165987 1169 0.288819 0.921592 -0.397150
-23.115137 -19.249586 -0.156746 1183 0.310665 0.940446 -0.264186
-23.114340 -19.248884 -0.147501 1199 0.322136 0.950546 -0.131164
-23.113441 -19.248085 -0.138256 1189 0.335062 0.962045 0.001858
-23.113655 -19.248220 -0.129025 1177 0.331988 0.960096 0.134678
-23.115728 -19.249893 -0.119793 1135 0.302157 0.936028 0.267512
-23.120428 -19.253769 -0.110577 1103 0.234535 0.880262 0.400117
-23.127167 -19.259327 -0.101361 1033 0.137576 0.800291 0.532721
-23.138222 -19.256983 -0.184620 973 -0.021489 0.834019 -0.665250
-23.132481 -19.252165 -0.175331 1069 0.061117 0.903342 -0.531596
-23.128162 -19.248526 -0.166066 1119 0.123250 0.955705 -0.398286
-23.125502 -19.246269 -0.156811 1145 0.161535 0.988171 -0.265121
-23.123983 -19.244959 -0.147560 1161 0.183380 1.007025 -0.132013
-23.123705 -19.244671 -0.138321 1159 0.187387 1.011169 0.000922
-23.125088 -19.245781 -0.129084 1133 0.167490 0.995197 0.133829
-23.127895 -19.248072 -0.119858 1089 0.127093 0.962237 0.266577
-23.132494 -19.251856 -0.110632 1037 0.060925 0.907788 0.399325
-23.146137 -19.251331 -0.175419 937 -0.135381 0.915335 -0.532862
-23.140902 -19.246929 -0.166149 1033 -0.060047 0.978676 -0.399481
-23.138147 -19.244583 -0.156885 1077 -0.020418 1.012432 -0.266186
-23.136456 -19.243137 -0.147635 1083 0.003924 1.033234 -0.133092
-23.136894 -19.243456 -0.138392 1095 -0.002388 1.028651 -0.000099
-23.139029 -19.245186 -0.129160 1069 -0.033097 1.003759 0.132735
-23.141102 -19.246861 -0.119929 1013 -0.062929 0.979664 0.265555
-23.152750 -19.244255 -0.147728 943 -0.230528 1.017152 -0.134430
-23.152971 -19.244398 -0.138487 937 -0.233712 1.015094 -0.001466
