768
1.034780 1.227120 -0.106100 1561 -0.522427 -0.776265 -0.328562
1.034460 1.226740 -0.104830 1561 -0.527032 -0.781733 -0.310288
1.034180 1.226400 -0.103570 1565 -0.531059 -0.786625 -0.292159
1.034000 1.226190 -0.102310 1573 -0.533649 -0.789647 -0.274030
1.033860 1.226020 -0.101070 1577 -0.535665 -0.792093 -0.256188
1.033910 1.226080 -0.099840 1583 -0.534944 -0.791231 -0.238490
1.033820 1.225970 -0.098600 1593 -0.536239 -0.792812 -0.220648
1.032930 1.224920 -0.097280 1585 -0.549045 -0.807920 -0.201655
1.032550 1.224470 -0.096010 1581 -0.554514 -0.814395 -0.183382
1.032460 1.224360 -0.094770 1593 -0.555809 -0.815978 -0.165540
1.032180 1.224020 -0.093510 1591 -0.559838 -0.820870 -0.147411
1.032180 1.224020 -0.092280 1599 -0.559838 -0.820870 -0.129713
1.032220 1.224080 -0.091060 1599 -0.559261 -0.820007 -0.112159
1.032450 1.224350 -0.089850 1595 -0.555953 -0.816122 -0.094749
1.032730 1.224680 -0.088640 1611 -0.551924 -0.811374 -0.077339
1.032770 1.224730 -0.087410 1611 -0.551347 -0.810654 -0.059641
1.032540 1.224450 -0.086160 1603 -0.554658 -0.814683 -0.041655
1.032300 1.224170 -0.084910 1593 -0.558110 -0.818712 -0.023670
1.032390 1.224270 -0.083690 1619 -0.556815 -0.817273 -0.006116
1.032430 1.224320 -0.082460 1625 -0.556239 -0.816553 0.011582
1.032850 1.224820 -0.081260 1635 -0.550196 -0.809359 0.028848
1.032650 1.224580 -0.080020 1623 -0.553074 -0.812812 0.046690
1.032080 1.223900 -0.078740 1611 -0.561275 -0.822597 0.065107
1.032540 1.224450 -0.077550 1613 -0.554658 -0.814683 0.082229
1.032950 1.224940 -0.076350 1609 -0.548757 -0.807634 0.099496
1.033230 1.225270 -0.075140 1625 -0.544730 -0.802884 0.116906
1.033130 1.225140 -0.073900 1619 -0.546167 -0.804755 0.134747
1.032830 1.224790 -0.072650 1601 -0.550484 -0.809791 0.152733
1.032870 1.224840 -0.071420 1601 -0.549908 -0.809071 0.170431
1.032810 1.224760 -0.070190 1607 -0.550773 -0.810222 0.188129
1.033130 1.225140 -0.068980 1607 -0.546167 -0.804755 0.205539
1.033770 1.225900 -0.067790 1593 -0.536960 -0.793819 0.222661
1.033990 1.226170 -0.066570 1591 -0.533793 -0.789936 0.240215
1.034170 1.226370 -0.065350 1585 -0.531203 -0.787057 0.257769
1.034100 1.226300 -0.064120 1581 -0.532210 -0.788064 0.275467
1.034000 1.226170 -0.062880 1579 -0.533649 -0.789936 0.293309
1.034360 1.226600 -0.061670 1573 -0.528469 -0.783747 0.310719
1.034950 1.227300 -0.060470 1567 -0.519981 -0.773675 0.327985
1.035920 1.228450 -0.059300 1575 -0.506024 -0.757130 0.344819
1.036520 1.229150 -0.058100 1571 -0.497391 -0.747056 0.362086
1.036070 1.228630 -0.056840 1557 -0.503866 -0.754540 0.380215
1.035680 1.228160 -0.055590 1549 -0.509476 -0.761301 0.398201
1.035990 1.228530 -0.054370 1549 -0.505017 -0.755977 0.415755
1.036770 1.229450 -0.053180 1543 -0.493794 -0.742741 0.432877
1.037080 1.229820 -0.051960 1535 -0.489333 -0.737417 0.450431
1.037150 1.229900 -0.050730 1523 -0.488326 -0.736266 0.468129
1.038120 1.231050 -0.049540 1529 -0.474369 -0.719719 0.485251
1.039080 1.232190 -0.048350 1521 -0.460556 -0.703316 0.502373
1.039290 1.232440 -0.047120 1511 -0.457536 -0.699719 0.520071
1.039790 1.233020 -0.045910 1511 -0.450340 -0.691374 0.537481
1.040850 1.234280 -0.044720 1511 -0.435088 -0.673244 0.554604
1.041290 1.234810 -0.043500 1509 -0.428757 -0.665618 0.572158
1.041500 1.235060 -0.042270 1495 -0.425737 -0.662022 0.589855
1.042090 1.235750 -0.041050 1491 -0.417246 -0.652094 0.607409
1.042810 1.236610 -0.039840 1475 -0.406888 -0.639718 0.624819
1.043490 1.237410 -0.038620 1461 -0.397102 -0.628209 0.642373
1.043940 1.237940 -0.037400 1455 -0.390629 -0.620583 0.659927
1.044280 1.238350 -0.036170 1447 -0.385736 -0.614683 0.677625
1.045100 1.239320 -0.034950 1437 -0.373938 -0.600726 0.695179
1.046530 1.241010 -0.033760 1433 -0.353362 -0.576410 0.712301
1.047540 1.242210 -0.032540 1417 -0.338831 -0.559143 0.729855
1.048440 1.243280 -0.031330 1397 -0.325880 -0.543747 0.747265
1.049270 1.244250 -0.030100 1385 -0.313937 -0.529790 0.764963
1.050310 1.245490 -0.028880 1375 -0.298973 -0.511950 0.782517
1.051690 1.247130 -0.027670 1359 -0.279118 -0.488352 0.799927
1.052690 1.248310 -0.026450 1329 -0.264729 -0.471374 0.817481
1.054130 1.250010 -0.025230 1309 -0.244010 -0.446913 0.835035
1.055780 1.251970 -0.024010 1293 -0.220268 -0.418711 0.852589
1.057260 1.253720 -0.022790 1267 -0.198973 -0.393531 0.870143
1.058400 1.255070 -0.021550 1239 -0.182570 -0.374108 0.887985
1.059450 1.256310 -0.020320 1197 -0.167462 -0.356266 0.905683
1.060870 1.258000 -0.019080 1143 -0.147031 -0.331949 0.923524
1.063130 1.260680 -0.017860 1089 -0.114513 -0.293389 0.941078
1.055980 1.250370 -0.142230 1239 -0.217391 -0.441733 -0.848418
1.054400 1.248510 -0.140760 1271 -0.240125 -0.468496 -0.827267
1.052830 1.246640 -0.139290 1297 -0.262715 -0.495403 -0.806116
1.051490 1.245060 -0.137850 1317 -0.281996 -0.518137 -0.785396
1.050520 1.243920 -0.136470 1343 -0.295953 -0.534540 -0.765540
1.049650 1.242880 -0.135100 1369 -0.308471 -0.549503 -0.745828
1.048770 1.241850 -0.133740 1383 -0.321133 -0.564323 -0.726260
1.047430 1.240260 -0.132310 1395 -0.340412 -0.587201 -0.705684
1.045900 1.238450 -0.130870 1409 -0.362427 -0.613243 -0.684965
1.044840 1.237190 -0.129490 1421 -0.377679 -0.631374 -0.665109
1.044240 1.236480 -0.128170 1439 -0.386312 -0.641590 -0.646116
1.043650 1.235780 -0.126850 1449 -0.394801 -0.651661 -0.627123
1.042870 1.234850 -0.125500 1455 -0.406023 -0.665042 -0.607699
1.042500 1.234420 -0.124220 1473 -0.411348 -0.671231 -0.589281
1.041860 1.233670 -0.122900 1483 -0.420557 -0.682021 -0.570289
1.040790 1.232400 -0.121530 1485 -0.435953 -0.700295 -0.550576
1.040570 1.232130 -0.120260 1501 -0.439117 -0.704179 -0.532303
1.040210 1.231710 -0.118970 1507 -0.444297 -0.710223 -0.513742
1.039560 1.230940 -0.117660 1509 -0.453651 -0.721302 -0.494893
1.039060 1.230340 -0.116360 1521 -0.460844 -0.729935 -0.476188
1.038650 1.229860 -0.115070 1525 -0.466743 -0.736842 -0.457627
1.038460 1.229640 -0.113820 1531 -0.469477 -0.740007 -0.439641
1.038050 1.229150 -0.112530 1535 -0.475376 -0.747056 -0.421080
1.037350 1.228320 -0.111220 1543 -0.485448 -0.759000 -0.402231
1.036800 1.227670 -0.109920 1551 -0.493362 -0.768353 -0.383526
1.036150 1.226900 -0.108620 1551 -0.502715 -0.779432 -0.364821
1.035400 1.226020 -0.107300 1549 -0.513506 -0.792093 -0.345828
1.035220 1.225800 -0.106050 1569 -0.516096 -0.795258 -0.327842
1.035510 1.226140 -0.104840 1569 -0.511924 -0.790366 -0.310432
1.035610 1.226250 -0.103620 1573 -0.510485 -0.788783 -0.292878
1.035190 1.225760 -0.102340 1573 -0.516528 -0.795834 -0.274461
1.035190 1.225760 -0.101110 1571 -0.516528 -0.795834 -0.256763
1.035380 1.225980 -0.099890 1593 -0.513794 -0.792668 -0.239209
1.035100 1.225650 -0.098630 1591 -0.517823 -0.797418 -0.221080
1.034960 1.225490 -0.097380 1597 -0.519837 -0.799719 -0.203094
1.034540 1.224990 -0.096110 1595 -0.525879 -0.806913 -0.184821
1.033970 1.224320 -0.094830 1593 -0.534082 -0.816553 -0.166404
1.033880 1.224210 -0.093590 1595 -0.535377 -0.818136 -0.148562
1.033880 1.224210 -0.092350 1599 -0.535377 -0.818136 -0.130720
1.033780 1.224090 -0.091110 1605 -0.536816 -0.819863 -0.112878
1.033690 1.223980 -0.089870 1603 -0.538111 -0.821446 -0.095037
1.033590 1.223860 -0.088630 1611 -0.539550 -0.823172 -0.077195
1.033630 1.223910 -0.087410 1613 -0.538974 -0.822453 -0.059641
1.033300 1.223520 -0.086150 1611 -0.543721 -0.828064 -0.041512
1.033110 1.223290 -0.084900 1605 -0.546455 -0.831374 -0.023526
1.033620 1.223900 -0.083710 1623 -0.539118 -0.822597 -0.006404
1.033710 1.224010 -0.082490 1621 -0.537823 -0.821014 0.011150
1.033330 1.223550 -0.081230 1619 -0.543291 -0.827633 0.029280
1.033370 1.223600 -0.080000 1619 -0.542714 -0.826913 0.046978
1.033730 1.224030 -0.078800 1619 -0.537534 -0.820726 0.064244
1.033400 1.223640 -0.077540 1609 -0.542282 -0.826338 0.082373
1.033340 1.223570 -0.076310 1607 -0.543147 -0.827345 0.100071
1.034080 1.224440 -0.075130 1615 -0.532498 -0.814827 0.117050
1.034500 1.224940 -0.073930 1627 -0.526456 -0.807634 0.134316
1.034490 1.224920 -0.072700 1613 -0.526600 -0.807920 0.152014
1.034240 1.224630 -0.071450 1607 -0.530197 -0.812093 0.169999
1.033950 1.224280 -0.070200 1603 -0.534370 -0.817129 0.187985
1.034130 1.224490 -0.068980 1601 -0.531780 -0.814107 0.205539
1.034110 1.224470 -0.067750 1587 -0.532068 -0.814395 0.223237
1.034380 1.224790 -0.066540 1591 -0.528183 -0.809791 0.240647
1.034880 1.225390 -0.065340 1591 -0.520988 -0.801158 0.257913
1.035060 1.225590 -0.064120 1573 -0.518397 -0.798280 0.275467
1.035510 1.226130 -0.062920 1577 -0.511924 -0.790510 0.292733
1.035680 1.226330 -0.061690 1567 -0.509476 -0.787632 0.310431
1.036140 1.226870 -0.060490 1569 -0.502859 -0.779864 0.327697
1.036590 1.227410 -0.059280 1571 -0.496384 -0.772094 0.345107
1.036530 1.227330 -0.058050 1559 -0.497247 -0.773245 0.362805
1.036320 1.227090 -0.056800 1551 -0.500269 -0.776697 0.380791
1.037380 1.228340 -0.055630 1547 -0.485017 -0.758711 0.397625
1.038160 1.229270 -0.054440 1559 -0.473794 -0.745331 0.414747
1.037720 1.228740 -0.053180 1541 -0.480125 -0.752957 0.432877
1.037790 1.228820 -0.051950 1531 -0.479118 -0.751806 0.450575
1.038530 1.229690 -0.050750 1523 -0.468470 -0.739288 0.467841
1.039210 1.230500 -0.049550 1525 -0.458686 -0.727633 0.485107
1.039560 1.230920 -0.048330 1511 -0.453651 -0.721590 0.502661
1.040250 1.231730 -0.047120 1511 -0.443723 -0.709935 0.520071
1.040840 1.232420 -0.045910 1511 -0.435232 -0.700007 0.537481
1.041940 1.233730 -0.044720 1515 -0.419406 -0.681158 0.554604
1.042680 1.234600 -0.043520 1517 -0.408758 -0.668641 0.571870
1.042880 1.234840 -0.042290 1507 -0.405879 -0.665186 0.589568
1.042950 1.234920 -0.041050 1487 -0.404872 -0.664035 0.607409
1.043250 1.235280 -0.039820 1469 -0.400557 -0.658855 0.625107
1.044120 1.236310 -0.038610 1467 -0.388039 -0.644035 0.642517
1.044940 1.237280 -0.037400 1455 -0.376240 -0.630079 0.659927
1.045710 1.238190 -0.036190 1447 -0.365161 -0.616984 0.677337
1.046810 1.239490 -0.034980 1445 -0.349333 -0.598280 0.694747
1.047870 1.240740 -0.033770 1437 -0.334081 -0.580295 0.712158
1.048360 1.241320 -0.032540 1417 -0.327031 -0.571949 0.729855
1.049230 1.242340 -0.031320 1397 -0.314514 -0.557273 0.747409
1.050650 1.244030 -0.030120 1385 -0.294082 -0.532956 0.764675
1.052030 1.245660 -0.028910 1381 -0.274226 -0.509504 0.782086
1.053470 1.247360 -0.027690 1361 -0.253506 -0.485043 0.799640
1.054090 1.248100 -0.026460 1335 -0.244585 -0.474395 0.817337
1.055050 1.249230 -0.025230 1307 -0.230772 -0.458136 0.835035
1.056940 1.251470 -0.024020 1289 -0.203579 -0.425907 0.852445
1.058600 1.253440 -0.022800 1265 -0.179694 -0.397560 0.869999
1.059700 1.254730 -0.021560 1237 -0.163866 -0.379000 0.887841
1.060510 1.255690 -0.020320 1197 -0.152211 -0.365187 0.905683
1.062070 1.257540 -0.019090 1141 -0.129765 -0.338568 0.923381
1.064860 1.260840 -0.017870 1077 -0.089621 -0.291085 0.940934
1.056640 1.249140 -0.142190 1227 -0.207894 -0.459431 -0.847842
1.055070 1.247280 -0.140710 1259 -0.230484 -0.486194 -0.826548
1.053770 1.245750 -0.139280 1289 -0.249190 -0.508209 -0.805972
1.052520 1.244270 -0.137860 1313 -0.267175 -0.529504 -0.785540
1.051560 1.243130 -0.136480 1339 -0.280987 -0.545906 -0.765684
1.050310 1.241650 -0.135060 1359 -0.298973 -0.567201 -0.745253
1.049290 1.240450 -0.133680 1379 -0.313651 -0.584467 -0.725396
1.048190 1.239150 -0.132280 1401 -0.329477 -0.603172 -0.705253
1.047030 1.237780 -0.130890 1413 -0.346168 -0.622885 -0.685253
1.046390 1.237020 -0.129560 1431 -0.355376 -0.633820 -0.666116
1.045610 1.236100 -0.128210 1439 -0.366600 -0.647058 -0.646691
1.044630 1.234950 -0.126850 1443 -0.380700 -0.663605 -0.627123
1.043430 1.233520 -0.125450 1449 -0.397967 -0.684179 -0.606979
1.042920 1.232920 -0.124150 1461 -0.405305 -0.692812 -0.588274
1.042850 1.232840 -0.122900 1475 -0.406312 -0.693964 -0.570289
1.042570 1.232510 -0.121620 1483 -0.410341 -0.698712 -0.551871
1.042360 1.232250 -0.120350 1493 -0.413363 -0.702453 -0.533598
1.041420 1.231150 -0.119000 1509 -0.426888 -0.718280 -0.514173
1.040920 1.230560 -0.117700 1513 -0.434081 -0.726770 -0.495468
1.040600 1.230180 -0.116420 1519 -0.438687 -0.732237 -0.477051
1.039960 1.229420 -0.115110 1521 -0.447894 -0.743173 -0.458202
1.039770 1.229200 -0.113850 1527 -0.450628 -0.746338 -0.440073
1.039400 1.228760 -0.112570 1533 -0.455952 -0.752669 -0.421655
1.038380 1.227550 -0.111220 1539 -0.470628 -0.770078 -0.402231
1.037490 1.226500 -0.109890 1537 -0.483434 -0.785186 -0.383094
1.037170 1.226130 -0.108620 1541 -0.488038 -0.790510 -0.364821
1.036850 1.225750 -0.107350 1547 -0.492643 -0.795978 -0.346548
1.036480 1.225310 -0.106080 1555 -0.497967 -0.802309 -0.328274
1.036490 1.225310 -0.104840 1565 -0.497823 -0.802309 -0.310432
1.036490 1.225310 -0.103610 1573 -0.497823 -0.802309 -0.292735
1.036070 1.224820 -0.102330 1571 -0.503866 -0.809359 -0.274317
1.035560 1.224220 -0.101050 1569 -0.511204 -0.817992 -0.255900
1.035510 1.224160 -0.099810 1587 -0.511924 -0.818856 -0.238058
1.035560 1.224220 -0.098580 1593 -0.511204 -0.817992 -0.220361
1.035610 1.224270 -0.097350 1599 -0.510485 -0.817273 -0.202663
1.035330 1.223940 -0.096090 1607 -0.514512 -0.822021 -0.184533
1.035190 1.223780 -0.094850 1605 -0.516528 -0.824323 -0.166691
1.035090 1.223660 -0.093610 1599 -0.517967 -0.826050 -0.148850
1.034570 1.223050 -0.092330 1583 -0.525449 -0.834827 -0.130432
1.034660 1.223150 -0.091110 1593 -0.524154 -0.833388 -0.112878
1.034990 1.223540 -0.089900 1597 -0.519406 -0.827777 -0.095468
1.034850 1.223370 -0.088660 1603 -0.521420 -0.830223 -0.077627
1.034650 1.223140 -0.087410 1607 -0.524298 -0.833532 -0.059641
1.034650 1.223140 -0.086180 1623 -0.524298 -0.833532 -0.041943
1.034180 1.222580 -0.084910 1613 -0.531059 -0.841590 -0.023670
1.034120 1.222520 -0.083670 1599 -0.531924 -0.842453 -0.005828
1.034690 1.223180 -0.082490 1607 -0.523722 -0.832956 0.011150
1.034390 1.222830 -0.081240 1607 -0.528039 -0.837992 0.029136
1.033920 1.222270 -0.079970 1609 -0.534800 -0.846050 0.047409
1.034380 1.222820 -0.078770 1613 -0.528183 -0.838136 0.064676
1.034790 1.223310 -0.077570 1617 -0.522282 -0.831086 0.081942
1.034790 1.223300 -0.076340 1611 -0.522282 -0.831230 0.099640
1.035060 1.223620 -0.075130 1607 -0.518397 -0.826625 0.117050
1.035150 1.223720 -0.073910 1605 -0.517102 -0.825187 0.134604
1.035470 1.224100 -0.072700 1609 -0.512499 -0.819719 0.152014
1.035780 1.224470 -0.071490 1617 -0.508039 -0.814395 0.169424
1.035630 1.224290 -0.070250 1607 -0.510197 -0.816985 0.187265
1.035430 1.224060 -0.069010 1605 -0.513075 -0.820294 0.205107
1.035370 1.223980 -0.067770 1605 -0.513938 -0.821446 0.222949
1.035690 1.224360 -0.066560 1601 -0.509334 -0.815978 0.240359
1.036190 1.224950 -0.065360 1583 -0.502139 -0.807489 0.257625
1.036600 1.225430 -0.064150 1577 -0.496240 -0.800582 0.275035
1.036300 1.225080 -0.062900 1571 -0.500557 -0.805618 0.293021
1.036100 1.224840 -0.061660 1555 -0.503434 -0.809071 0.310863
1.036690 1.225540 -0.060460 1555 -0.494945 -0.798999 0.328129
1.036820 1.225690 -0.059240 1555 -0.493074 -0.796841 0.345683
1.037130 1.226060 -0.058030 1551 -0.488614 -0.791517 0.363093
1.037530 1.226530 -0.056820 1553 -0.482859 -0.784756 0.380503
1.038080 1.227190 -0.055610 1545 -0.474945 -0.775258 0.397913
1.038860 1.228100 -0.054420 1549 -0.463722 -0.762166 0.415035
1.039220 1.228520 -0.053200 1551 -0.458542 -0.756121 0.432589
1.039440 1.228780 -0.051980 1537 -0.455376 -0.752380 0.450143
1.040120 1.229590 -0.050780 1527 -0.445592 -0.740725 0.467409
1.040800 1.230400 -0.049580 1519 -0.435809 -0.729072 0.484675
1.041490 1.231200 -0.048370 1513 -0.425881 -0.717561 0.502086
1.041850 1.231630 -0.047150 1519 -0.420701 -0.711374 0.519639
1.042430 1.232320 -0.045940 1515 -0.412354 -0.701446 0.537050
1.043070 1.233070 -0.044730 1507 -0.403147 -0.690654 0.554460
1.043140 1.233150 -0.043490 1499 -0.402138 -0.689503 0.572301
1.043250 1.233290 -0.042260 1489 -0.400557 -0.687489 0.589999
1.043370 1.233430 -0.041030 1475 -0.398830 -0.685474 0.607697
1.044380 1.234620 -0.039830 1469 -0.384298 -0.668352 0.624963
1.045580 1.236040 -0.038630 1465 -0.367031 -0.647920 0.642229
1.046260 1.236840 -0.037410 1459 -0.357247 -0.636410 0.659783
1.047030 1.237750 -0.036200 1445 -0.346168 -0.623315 0.677193
1.048040 1.238940 -0.034990 1435 -0.331635 -0.606194 0.694604
1.048760 1.239790 -0.033770 1423 -0.321275 -0.593964 0.712158
1.049590 1.240760 -0.032550 1411 -0.309334 -0.580007 0.729711
1.050640 1.242000 -0.031330 1401 -0.294226 -0.562165 0.747265
1.051880 1.243470 -0.030120 1389 -0.276384 -0.541015 0.764675
1.053120 1.244940 -0.028910 1367 -0.258542 -0.519862 0.782086
1.054080 1.246070 -0.027680 1357 -0.244729 -0.503604 0.799783
1.054990 1.247150 -0.026460 1333 -0.231635 -0.488065 0.817337
1.056040 1.248390 -0.025230 1305 -0.216527 -0.470223 0.835035
1.057280 1.249850 -0.024000 1287 -0.198687 -0.449215 0.852733
1.058900 1.251760 -0.022780 1259 -0.175377 -0.421733 0.870287
1.060130 1.253220 -0.021550 1231 -0.157679 -0.400727 0.887985
1.061510 1.254850 -0.020320 1187 -0.137823 -0.377273 0.905683
1.063310 1.256980 -0.019090 1133 -0.111923 -0.346626 0.923381
1.065870 1.260000 -0.017870 1063 -0.075088 -0.303172 0.940934
1.057970 1.248690 -0.142230 1221 -0.188757 -0.465906 -0.848418
1.056620 1.247100 -0.140790 1257 -0.208182 -0.488784 -0.827699
1.055100 1.245300 -0.139320 1289 -0.230053 -0.514682 -0.806548
1.053800 1.243770 -0.137900 1317 -0.248758 -0.536697 -0.786116
1.053110 1.242960 -0.136550 1341 -0.258686 -0.548352 -0.766691
1.052150 1.241820 -0.135170 1357 -0.272499 -0.564755 -0.746835
1.050660 1.240070 -0.133720 1373 -0.293938 -0.589935 -0.725972
1.049220 1.238360 -0.132290 1391 -0.314658 -0.614538 -0.705397
1.048200 1.237160 -0.130910 1413 -0.329333 -0.631806 -0.685540
1.047750 1.236630 -0.129600 1429 -0.335808 -0.639432 -0.666691
1.046920 1.235650 -0.128250 1427 -0.347751 -0.653533 -0.647267
1.046090 1.234670 -0.126900 1439 -0.359693 -0.667632 -0.627843
1.045450 1.233910 -0.125580 1451 -0.368902 -0.678568 -0.608850
1.044430 1.232710 -0.124210 1455 -0.383578 -0.695834 -0.589137
1.043490 1.231610 -0.122860 1471 -0.397102 -0.711662 -0.569713
1.042940 1.230960 -0.121550 1473 -0.405017 -0.721014 -0.550864
1.042720 1.230700 -0.120280 1485 -0.408183 -0.724755 -0.532591
1.042360 1.230270 -0.118990 1499 -0.413363 -0.730942 -0.514030
1.041900 1.229730 -0.117700 1503 -0.419980 -0.738712 -0.495468
1.041720 1.229520 -0.116440 1523 -0.422570 -0.741734 -0.477339
1.041730 1.229530 -0.115200 1533 -0.422426 -0.741590 -0.459497
1.041130 1.228820 -0.113890 1527 -0.431061 -0.751806 -0.440648
1.040050 1.227550 -0.112540 1521 -0.446599 -0.770078 -0.421224
1.039450 1.226840 -0.111230 1529 -0.455232 -0.780294 -0.402375
1.039220 1.226570 -0.109970 1547 -0.458542 -0.784179 -0.384245
1.038990 1.226300 -0.108710 1551 -0.461851 -0.788064 -0.366116
1.038860 1.226140 -0.107460 1551 -0.463722 -0.790366 -0.348130
1.038250 1.225430 -0.106160 1557 -0.472499 -0.800582 -0.329425
1.037600 1.224650 -0.104860 1559 -0.481851 -0.811805 -0.310720
1.037230 1.224220 -0.103590 1567 -0.487175 -0.817992 -0.292447
1.036810 1.223720 -0.102310 1575 -0.493218 -0.825187 -0.274030
1.036900 1.223830 -0.101090 1579 -0.491923 -0.823604 -0.256476
1.036910 1.223840 -0.099850 1587 -0.491779 -0.823460 -0.238634
1.036530 1.223390 -0.098580 1583 -0.497247 -0.829935 -0.220361
1.036210 1.223010 -0.097320 1579 -0.501852 -0.835403 -0.202231
1.035830 1.222560 -0.096050 1585 -0.507319 -0.841877 -0.183958
1.035690 1.222400 -0.094810 1589 -0.509334 -0.844180 -0.166116
1.035640 1.222340 -0.093570 1583 -0.510053 -0.845043 -0.148274
1.035970 1.222730 -0.092370 1599 -0.505305 -0.839431 -0.131008
1.036060 1.222830 -0.091140 1601 -0.504010 -0.837992 -0.113310
1.035820 1.222550 -0.089890 1595 -0.507463 -0.842021 -0.095325
1.035720 1.222440 -0.088650 1601 -0.508902 -0.843604 -0.077483
1.035720 1.222440 -0.087420 1613 -0.508902 -0.843604 -0.059785
1.035440 1.222100 -0.086160 1607 -0.512931 -0.848496 -0.041655
1.035100 1.221710 -0.084910 1595 -0.517823 -0.854108 -0.023670
1.035420 1.222080 -0.083700 1605 -0.513219 -0.848784 -0.006260
1.035700 1.222410 -0.082490 1603 -0.509190 -0.844036 0.011150
1.035230 1.221850 -0.081230 1605 -0.515952 -0.852093 0.029280
1.035270 1.221900 -0.080000 1611 -0.515377 -0.851374 0.046978
1.035680 1.222390 -0.078800 1623 -0.509476 -0.844323 0.064244
1.036090 1.222870 -0.077600 1613 -0.503578 -0.837417 0.081510
1.036330 1.223150 -0.076390 1609 -0.500125 -0.833388 0.098920
1.036080 1.222860 -0.075140 1603 -0.503722 -0.837561 0.116906
1.036160 1.222950 -0.073910 1599 -0.502571 -0.836266 0.134604
1.036100 1.222880 -0.072680 1603 -0.503434 -0.837273 0.152301
1.035910 1.222650 -0.071430 1599 -0.506168 -0.840582 0.170287
1.035990 1.222740 -0.070210 1597 -0.505017 -0.839287 0.187841
1.036400 1.223230 -0.069010 1599 -0.499118 -0.832237 0.205107
1.036580 1.223440 -0.067790 1593 -0.496528 -0.829215 0.222661
1.036610 1.223480 -0.066560 1595 -0.496096 -0.828640 0.240359
1.037260 1.224240 -0.065370 1585 -0.486743 -0.817705 0.257481
1.037290 1.224280 -0.064140 1577 -0.486312 -0.817129 0.275179
1.037220 1.224200 -0.062900 1575 -0.487319 -0.818280 0.293021
1.037770 1.224850 -0.061700 1571 -0.479405 -0.808927 0.310287
1.038270 1.225440 -0.060500 1563 -0.472211 -0.800438 0.327553
1.038490 1.225700 -0.059280 1563 -0.469045 -0.796697 0.345107
1.038480 1.225680 -0.058050 1565 -0.469189 -0.796985 0.362805
1.039030 1.226330 -0.056840 1557 -0.461277 -0.787632 0.380215
1.039390 1.226750 -0.055630 1543 -0.456096 -0.781589 0.397625
1.040160 1.227670 -0.054440 1547 -0.445018 -0.768353 0.414747
1.040470 1.228030 -0.053220 1545 -0.440556 -0.763173 0.432301
1.040270 1.227790 -0.051970 1533 -0.443435 -0.766626 0.450287
1.040860 1.228480 -0.050770 1531 -0.434944 -0.756698 0.467553
1.041400 1.229130 -0.049560 1521 -0.427176 -0.747344 0.484963
1.041760 1.229550 -0.048340 1505 -0.421996 -0.741302 0.502517
1.041970 1.229800 -0.047110 1505 -0.418973 -0.737705 0.520215
1.042650 1.230600 -0.045910 1513 -0.409190 -0.726194 0.537481
1.043480 1.231570 -0.044710 1507 -0.397247 -0.712237 0.554747
1.044160 1.232380 -0.043500 1495 -0.387463 -0.700582 0.572158
1.045220 1.233630 -0.042300 1487 -0.372211 -0.682598 0.589424
1.045620 1.234100 -0.041080 1475 -0.366456 -0.675834 0.606978
1.045540 1.234010 -0.039830 1463 -0.367607 -0.677129 0.624963
1.046040 1.234590 -0.038610 1459 -0.360412 -0.668783 0.642517
1.046710 1.235390 -0.037400 1455 -0.350772 -0.657274 0.659927
1.047260 1.236030 -0.036170 1437 -0.342858 -0.648065 0.677625
1.048450 1.237440 -0.034970 1429 -0.325736 -0.627777 0.694891
1.049610 1.238800 -0.033760 1419 -0.309045 -0.608208 0.712301
1.050190 1.239480 -0.032540 1405 -0.300701 -0.598424 0.729855
1.051000 1.240450 -0.031320 1393 -0.289046 -0.584467 0.747409
1.052300 1.241980 -0.030110 1381 -0.270341 -0.562453 0.764819
1.053540 1.243430 -0.028890 1367 -0.252499 -0.541589 0.782373
1.054450 1.244510 -0.027670 1343 -0.239405 -0.526049 0.799927
1.055980 1.246310 -0.026460 1325 -0.217391 -0.500151 0.817337
1.057590 1.248220 -0.025240 1301 -0.194225 -0.472669 0.834891
1.058790 1.249630 -0.024010 1285 -0.176960 -0.452381 0.852589
1.060170 1.251260 -0.022790 1253 -0.157102 -0.428927 0.870143
1.061030 1.252270 -0.021550 1219 -0.144729 -0.414396 0.887985
1.062450 1.253950 -0.020320 1179 -0.124297 -0.390223 0.905683
1.064880 1.256810 -0.019100 1119 -0.089333 -0.349072 0.923237
1.067250 1.259600 -0.017880 1051 -0.055232 -0.308927 0.940791
1.058800 1.247990 -0.142230 1213 -0.176816 -0.475978 -0.848418
1.057730 1.246730 -0.140830 1257 -0.192212 -0.494108 -0.828274
1.057050 1.245930 -0.139470 1289 -0.201995 -0.505619 -0.808706
1.055660 1.244290 -0.138030 1319 -0.221995 -0.529216 -0.787986
1.053850 1.242150 -0.136540 1331 -0.248038 -0.560008 -0.766548
1.052730 1.240840 -0.135140 1349 -0.264154 -0.578856 -0.746404
1.051910 1.239870 -0.133780 1369 -0.275952 -0.592813 -0.726835
1.050800 1.238560 -0.132380 1391 -0.291924 -0.611662 -0.706691
1.049590 1.237140 -0.130980 1407 -0.309334 -0.632092 -0.686548
1.048570 1.235940 -0.129600 1415 -0.324009 -0.649360 -0.666691
1.047740 1.234960 -0.128250 1427 -0.335952 -0.663461 -0.647267
1.047470 1.234640 -0.126970 1441 -0.339837 -0.668064 -0.628850
1.046920 1.233990 -0.125660 1453 -0.347751 -0.677418 -0.610001
1.046280 1.233230 -0.124330 1463 -0.356959 -0.688352 -0.590864
1.045630 1.232470 -0.123010 1471 -0.366312 -0.699287 -0.571871
1.044510 1.231150 -0.121640 1475 -0.382427 -0.718280 -0.552159
1.043770 1.230280 -0.120310 1481 -0.393075 -0.730798 -0.533022
1.043360 1.229800 -0.119020 1491 -0.398974 -0.737705 -0.514461
1.042810 1.229140 -0.117710 1501 -0.406888 -0.747200 -0.495612
1.042490 1.228770 -0.116430 1515 -0.411492 -0.752524 -0.477195
1.042550 1.228840 -0.115200 1527 -0.410629 -0.751518 -0.459497
1.042420 1.228680 -0.113940 1535 -0.412498 -0.753820 -0.441368
1.041440 1.227530 -0.112600 1529 -0.426599 -0.770366 -0.422087
1.040920 1.226920 -0.111300 1537 -0.434081 -0.779143 -0.403382
1.040700 1.226650 -0.110040 1547 -0.437248 -0.783028 -0.385253
1.040000 1.225830 -0.108730 1543 -0.447320 -0.794828 -0.366404
1.039630 1.225390 -0.107450 1543 -0.452642 -0.801158 -0.347986
1.039400 1.225120 -0.106190 1553 -0.455952 -0.805044 -0.329857
1.038790 1.224410 -0.104900 1547 -0.464729 -0.815258 -0.311296
1.037990 1.223460 -0.103580 1555 -0.476240 -0.828928 -0.292303
1.037900 1.223360 -0.102340 1561 -0.477535 -0.830367 -0.274461
1.038290 1.223810 -0.101140 1583 -0.471923 -0.823892 -0.257195
1.037910 1.223370 -0.099870 1573 -0.477391 -0.830223 -0.238922
1.037630 1.223040 -0.098610 1577 -0.481420 -0.834971 -0.220792
1.037490 1.222870 -0.097360 1579 -0.483434 -0.837417 -0.202807
1.037200 1.222530 -0.096100 1591 -0.487607 -0.842309 -0.184677
1.036780 1.222030 -0.094830 1589 -0.493650 -0.849503 -0.166404
1.036740 1.221980 -0.093600 1593 -0.494226 -0.850223 -0.148706
1.036780 1.222040 -0.092370 1593 -0.493650 -0.849358 -0.131008
1.036920 1.222200 -0.091150 1593 -0.491636 -0.847057 -0.113454
1.037300 1.222650 -0.089950 1603 -0.486168 -0.840582 -0.096188
1.037290 1.222640 -0.088720 1601 -0.486312 -0.840726 -0.078490
1.037250 1.222580 -0.087480 1609 -0.486887 -0.841590 -0.060648
1.037190 1.222520 -0.086240 1609 -0.487751 -0.842453 -0.042807
1.037190 1.222510 -0.085010 1609 -0.487751 -0.842597 -0.025109
1.037370 1.222730 -0.083790 1611 -0.485161 -0.839431 -0.007555
1.036850 1.222110 -0.082520 1603 -0.492643 -0.848352 0.010719
1.036270 1.221430 -0.081240 1605 -0.500988 -0.858137 0.029136
1.036460 1.221650 -0.080030 1615 -0.498254 -0.854971 0.046546
1.036780 1.222030 -0.078820 1615 -0.493650 -0.849503 0.063956
1.036770 1.222010 -0.077590 1609 -0.493794 -0.849791 0.081654
1.036480 1.221670 -0.076340 1601 -0.497967 -0.854683 0.099640
1.036710 1.221940 -0.075120 1599 -0.494657 -0.850798 0.117193
1.036750 1.221990 -0.073900 1603 -0.494082 -0.850079 0.134747
1.036590 1.221800 -0.072650 1593 -0.496384 -0.852813 0.152733
1.036950 1.222230 -0.071450 1595 -0.491204 -0.846626 0.169999
1.037470 1.222840 -0.070250 1603 -0.483722 -0.837849 0.187265
1.037830 1.223260 -0.069050 1595 -0.478542 -0.831805 0.204532
1.038140 1.223630 -0.067830 1595 -0.474081 -0.826482 0.222086
1.038180 1.223670 -0.066610 1591 -0.473506 -0.825906 0.239640
1.037880 1.223320 -0.065350 1575 -0.477823 -0.830942 0.257769
1.037910 1.223360 -0.064130 1567 -0.477391 -0.830367 0.275323
1.038180 1.223680 -0.062910 1567 -0.473506 -0.825762 0.292877
1.038500 1.224050 -0.061700 1557 -0.468902 -0.820438 0.310287
1.039000 1.224640 -0.060500 1565 -0.461707 -0.811949 0.327553
1.039650 1.225400 -0.059300 1557 -0.452356 -0.801014 0.344819
1.040050 1.225880 -0.058090 1559 -0.446599 -0.794107 0.362229
1.040550 1.226460 -0.056880 1551 -0.439405 -0.785762 0.379640
1.041100 1.227110 -0.055680 1545 -0.431491 -0.776409 0.396906
1.040940 1.226920 -0.054440 1543 -0.433793 -0.779143 0.414747
1.040970 1.226950 -0.053200 1539 -0.433363 -0.778711 0.432589
1.041320 1.227370 -0.051990 1529 -0.428327 -0.772668 0.449999
1.041490 1.227570 -0.050760 1519 -0.425881 -0.769790 0.467697
1.042040 1.228210 -0.049550 1517 -0.417967 -0.760583 0.485107
1.043050 1.229410 -0.048360 1515 -0.403433 -0.743315 0.502229
1.043690 1.230160 -0.047150 1507 -0.394226 -0.732525 0.519639
1.043900 1.230410 -0.045930 1509 -0.391204 -0.728928 0.537194
1.043830 1.230320 -0.044690 1499 -0.392211 -0.730223 0.555035
1.044750 1.231400 -0.043490 1495 -0.378974 -0.714683 0.572301
1.046470 1.233430 -0.042320 1495 -0.354225 -0.685474 0.589136
1.046780 1.233790 -0.041090 1487 -0.349765 -0.680294 0.606834
1.046660 1.233650 -0.039840 1467 -0.351492 -0.682309 0.624819
1.047570 1.234730 -0.038640 1459 -0.338398 -0.666769 0.642086
1.047920 1.235140 -0.037410 1449 -0.333362 -0.660871 0.659783
1.048790 1.236160 -0.036200 1443 -0.320845 -0.646193 0.677193
1.050180 1.237800 -0.035000 1437 -0.300845 -0.622597 0.694460
1.051000 1.238760 -0.033780 1421 -0.289046 -0.608784 0.712014
1.051540 1.239400 -0.032550 1405 -0.281276 -0.599575 0.729711
1.052070 1.240030 -0.031320 1383 -0.273650 -0.590510 0.747409
1.053030 1.241160 -0.030100 1373 -0.259837 -0.574251 0.764963
1.054420 1.242790 -0.028890 1357 -0.239837 -0.550798 0.782373
1.055900 1.244530 -0.027680 1341 -0.218542 -0.525763 0.799783
1.057520 1.246430 -0.026470 1323 -0.195232 -0.498423 0.817194
1.058760 1.247900 -0.025250 1299 -0.177390 -0.477273 0.834747
1.059860 1.249190 -0.024020 1273 -0.161564 -0.458712 0.852445
1.061290 1.250870 -0.022790 1245 -0.140988 -0.434539 0.870143
1.062440 1.252230 -0.021560 1209 -0.124441 -0.414970 0.887841
1.064340 1.254470 -0.020340 1169 -0.097103 -0.382741 0.905395
1.066280 1.256760 -0.019110 1105 -0.069189 -0.349791 0.923093
1.068180 1.258990 -0.017880 1043 -0.041852 -0.317704 0.940791
1.060240 1.247610 -0.142290 1209 -0.156096 -0.481446 -0.849281
1.058750 1.245870 -0.140830 1251 -0.177534 -0.506482 -0.828274
1.057650 1.244570 -0.139420 1287 -0.193363 -0.525186 -0.807986
1.055970 1.242590 -0.137940 1309 -0.217536 -0.553677 -0.786691
1.054680 1.241070 -0.136510 1327 -0.236096 -0.575546 -0.766116
1.053890 1.240150 -0.135160 1349 -0.247463 -0.588784 -0.746691
1.053110 1.239230 -0.133800 1369 -0.258686 -0.602021 -0.727123
1.052140 1.238080 -0.132420 1387 -0.272643 -0.618568 -0.707267
1.051260 1.237050 -0.131060 1407 -0.285305 -0.633387 -0.687699
1.050480 1.236130 -0.129710 1421 -0.296528 -0.646626 -0.668274
1.049360 1.234820 -0.128330 1431 -0.312642 -0.665474 -0.648418
1.048240 1.233500 -0.126940 1433 -0.328759 -0.684467 -0.628418
1.047510 1.232640 -0.125610 1447 -0.339261 -0.696841 -0.609281
1.046860 1.231880 -0.124280 1457 -0.348614 -0.707777 -0.590145
1.046210 1.231120 -0.122960 1469 -0.357966 -0.718712 -0.571152
1.045380 1.230130 -0.121620 1473 -0.369909 -0.732957 -0.551871
1.044730 1.229380 -0.120300 1473 -0.379262 -0.743748 -0.532879
1.044650 1.229280 -0.119050 1495 -0.380413 -0.745187 -0.514893
1.043950 1.228460 -0.117730 1503 -0.390485 -0.756986 -0.495900
1.043310 1.227700 -0.116410 1507 -0.399692 -0.767920 -0.476907
1.043410 1.227820 -0.115180 1511 -0.398255 -0.766193 -0.459209
1.043000 1.227330 -0.113900 1523 -0.404154 -0.773245 -0.440792
1.041820 1.225950 -0.112530 1529 -0.421131 -0.793100 -0.421080
1.041270 1.225300 -0.111230 1533 -0.429045 -0.802453 -0.402375
1.041280 1.225310 -0.110000 1533 -0.428901 -0.802309 -0.384677
1.040390 1.224260 -0.108670 1533 -0.441707 -0.817417 -0.365540
1.040110 1.223940 -0.107400 1537 -0.445736 -0.822021 -0.347267
1.040640 1.224560 -0.106220 1547 -0.438110 -0.813100 -0.330289
1.040070 1.223900 -0.104920 1553 -0.446311 -0.822597 -0.311583
1.039510 1.223230 -0.103630 1563 -0.454369 -0.832237 -0.293022
1.039280 1.222960 -0.102370 1561 -0.457678 -0.836122 -0.274893
1.039090 1.222740 -0.101120 1571 -0.460412 -0.839287 -0.256907
1.039000 1.222630 -0.099880 1575 -0.461707 -0.840870 -0.239066
1.038630 1.222190 -0.098610 1573 -0.467031 -0.847201 -0.220792
1.038580 1.222140 -0.097370 1571 -0.467752 -0.847921 -0.202950
1.038720 1.222310 -0.096150 1587 -0.465736 -0.845475 -0.185396
1.038630 1.222190 -0.094910 1591 -0.467031 -0.847201 -0.167555
1.038350 1.221860 -0.093650 1593 -0.471060 -0.851948 -0.149425
1.038200 1.221700 -0.092410 1601 -0.473218 -0.854252 -0.131583
1.038150 1.221630 -0.091170 1601 -0.473938 -0.855259 -0.113742
1.038150 1.221630 -0.089940 1601 -0.473938 -0.855259 -0.096044
1.038150 1.221630 -0.088700 1601 -0.473938 -0.855259 -0.078202
1.037770 1.221180 -0.087440 1589 -0.479405 -0.861734 -0.060073
1.037710 1.221120 -0.086200 1589 -0.480269 -0.862597 -0.042231
1.038000 1.221450 -0.084990 1599 -0.476096 -0.857849 -0.024821
1.037900 1.221330 -0.083760 1605 -0.477535 -0.859574 -0.007123
1.037800 1.221210 -0.082520 1601 -0.478974 -0.861302 0.010719
1.037780 1.221200 -0.081280 1605 -0.479261 -0.861446 0.028560
1.037730 1.221140 -0.080050 1595 -0.479981 -0.862309 0.046258
1.037720 1.221130 -0.078820 1603 -0.480125 -0.862453 0.063956
1.037950 1.221400 -0.077600 1609 -0.476815 -0.858568 0.081510
1.037900 1.221330 -0.076370 1607 -0.477535 -0.859574 0.099208
1.037930 1.221380 -0.075140 1609 -0.477103 -0.858856 0.116906
1.038260 1.221750 -0.073930 1603 -0.472355 -0.853532 0.134316
1.037910 1.221350 -0.072680 1587 -0.477391 -0.859288 0.152301
1.037950 1.221390 -0.071450 1587 -0.476815 -0.858712 0.169999
1.038460 1.221990 -0.070250 1587 -0.469477 -0.850079 0.187265
1.038630 1.222190 -0.069030 1593 -0.467031 -0.847201 0.204819
1.039000 1.222630 -0.067830 1581 -0.461707 -0.840870 0.222086
1.039220 1.222890 -0.066610 1589 -0.458542 -0.837129 0.239640
1.039110 1.222760 -0.065370 1579 -0.460126 -0.839000 0.257481
1.039190 1.222850 -0.064140 1573 -0.458973 -0.837705 0.275179
1.039550 1.223280 -0.062930 1567 -0.453795 -0.831518 0.292589
1.039490 1.223210 -0.061700 1561 -0.454657 -0.832525 0.310287
1.039710 1.223460 -0.060480 1559 -0.451491 -0.828928 0.327841
1.040450 1.224330 -0.059290 1557 -0.440845 -0.816410 0.344963
1.041090 1.225090 -0.058090 1549 -0.431635 -0.805474 0.362229
1.041830 1.225960 -0.056900 1549 -0.420989 -0.792956 0.379352
1.041810 1.225940 -0.055660 1543 -0.421275 -0.793244 0.397194
1.041790 1.225910 -0.054430 1541 -0.421564 -0.793677 0.414891
1.042390 1.226610 -0.053220 1539 -0.412931 -0.783605 0.432301
1.042930 1.227250 -0.052020 1535 -0.405161 -0.774396 0.449568
1.043290 1.227670 -0.050800 1523 -0.399981 -0.768353 0.467122
1.043840 1.228310 -0.049590 1519 -0.392066 -0.759144 0.484532
1.044520 1.229120 -0.048380 1519 -0.382283 -0.747489 0.501942
1.044970 1.229650 -0.047170 1509 -0.375808 -0.739863 0.519352
1.045180 1.229900 -0.045940 1499 -0.372787 -0.736266 0.537050
1.045350 1.230090 -0.044710 1489 -0.370341 -0.733532 0.554747
1.045930 1.230780 -0.043490 1487 -0.361995 -0.723604 0.572301
1.046900 1.231910 -0.042300 1489 -0.348038 -0.707345 0.589424
1.047440 1.232560 -0.041080 1483 -0.340268 -0.697992 0.606978
1.047940 1.233140 -0.039860 1467 -0.333074 -0.689647 0.624532
1.048900 1.234270 -0.038650 1465 -0.319261 -0.673388 0.641942
1.049720 1.235240 -0.037440 1455 -0.307462 -0.659432 0.659352
1.050830 1.236540 -0.036230 1447 -0.291492 -0.640727 0.676762
1.051550 1.237390 -0.035010 1437 -0.281132 -0.628495 0.694316
1.052330 1.238300 -0.033790 1427 -0.269909 -0.615403 0.711870
1.053250 1.239380 -0.032580 1413 -0.256672 -0.599863 0.729280
1.053880 1.240120 -0.031350 1391 -0.247607 -0.589215 0.746978
1.055310 1.241810 -0.030140 1377 -0.227031 -0.564899 0.764388
1.056130 1.242770 -0.028910 1357 -0.215232 -0.551087 0.782086
1.057000 1.243790 -0.027690 1335 -0.202714 -0.536409 0.799640
1.058720 1.245810 -0.026480 1319 -0.177967 -0.507344 0.817050
1.060000 1.247320 -0.025250 1299 -0.159550 -0.485617 0.834747
1.061390 1.248950 -0.024030 1275 -0.139549 -0.462165 0.852301
1.062440 1.250190 -0.022800 1239 -0.124441 -0.444323 0.869999
1.063780 1.251760 -0.021570 1199 -0.105161 -0.421733 0.887697
1.065680 1.254000 -0.020340 1169 -0.077822 -0.389504 0.905395
1.067580 1.256230 -0.019120 1111 -0.050485 -0.357417 0.922949
1.070150 1.259250 -0.017900 1031 -0.013506 -0.313963 0.940503
1.061370 1.247140 -0.142320 1207 -0.139837 -0.488207 -0.849713
1.059700 1.245170 -0.140830 1243 -0.163866 -0.516554 -0.828274
1.059100 1.244470 -0.139490 1285 -0.172498 -0.526625 -0.808993
1.058080 1.243280 -0.138100 1311 -0.187176 -0.543747 -0.788994
1.056170 1.241040 -0.136590 1319 -0.214657 -0.575978 -0.767267
1.054590 1.239170 -0.135130 1339 -0.237391 -0.602885 -0.746260
1.053670 1.238090 -0.133760 1361 -0.250628 -0.618424 -0.726548
1.052980 1.237280 -0.132420 1381 -0.260557 -0.630079 -0.707267
1.052050 1.236190 -0.131050 1399 -0.273938 -0.645763 -0.687555
1.051080 1.235050 -0.129680 1411 -0.287895 -0.662166 -0.667842
1.050480 1.234340 -0.128360 1425 -0.296528 -0.672382 -0.648850
1.049650 1.233370 -0.127010 1431 -0.308471 -0.686338 -0.629425
1.048630 1.232170 -0.125630 1445 -0.323146 -0.703604 -0.609569
1.047790 1.231190 -0.124290 1453 -0.335232 -0.717705 -0.590289
1.047140 1.230420 -0.122970 1465 -0.344585 -0.728784 -0.571296
1.046640 1.229830 -0.121660 1467 -0.351779 -0.737273 -0.552447
1.046320 1.229460 -0.120380 1481 -0.356384 -0.742597 -0.534030
1.045820 1.228870 -0.119080 1495 -0.363578 -0.751085 -0.515325
1.044880 1.227760 -0.117730 1499 -0.377103 -0.767058 -0.495900
1.044190 1.226950 -0.116410 1497 -0.387031 -0.778711 -0.476907
1.043720 1.226400 -0.115120 1505 -0.393794 -0.786625 -0.458346
1.043260 1.225860 -0.113830 1511 -0.400413 -0.794395 -0.439785
1.042930 1.225480 -0.112560 1523 -0.405161 -0.799863 -0.421512
1.042950 1.225490 -0.111320 1533 -0.404872 -0.799719 -0.403670
1.043140 1.225720 -0.110100 1541 -0.402138 -0.796409 -0.386116
1.042540 1.225010 -0.108800 1539 -0.410773 -0.806625 -0.367411
1.042020 1.224410 -0.107510 1547 -0.418255 -0.815258 -0.348850
1.041990 1.224360 -0.106270 1555 -0.418685 -0.815978 -0.331008
1.041330 1.223590 -0.104960 1549 -0.428183 -0.827057 -0.312159
1.040430 1.222540 -0.103640 1547 -0.441133 -0.842165 -0.293166
1.039870 1.221880 -0.102350 1557 -0.449189 -0.851662 -0.274605
1.039310 1.221220 -0.101060 1553 -0.457247 -0.861158 -0.256044
1.039360 1.221280 -0.099830 1565 -0.456527 -0.860295 -0.238346
1.039410 1.221330 -0.098600 1563 -0.455808 -0.859574 -0.220648
1.039640 1.221610 -0.097390 1579 -0.452500 -0.855547 -0.203238
1.039830 1.221830 -0.096170 1585 -0.449766 -0.852381 -0.185684
1.039510 1.221450 -0.094910 1585 -0.454369 -0.857849 -0.167555
1.038940 1.220780 -0.093620 1593 -0.462572 -0.867489 -0.148994
1.038890 1.220720 -0.092390 1587 -0.463290 -0.868351 -0.131296
1.039640 1.221610 -0.091220 1605 -0.452500 -0.855547 -0.114461
1.039690 1.221660 -0.089990 1593 -0.451779 -0.854827 -0.096763
1.039350 1.221270 -0.088730 1583 -0.456671 -0.860439 -0.078634
1.039160 1.221040 -0.087480 1595 -0.459405 -0.863748 -0.060648
1.038920 1.220760 -0.086230 1597 -0.462858 -0.867777 -0.042663
1.038490 1.220260 -0.084960 1589 -0.469045 -0.874970 -0.024389
1.038350 1.220080 -0.083720 1593 -0.471060 -0.877560 -0.006548
1.038720 1.220520 -0.082520 1597 -0.465736 -0.871230 0.010719
1.038760 1.220570 -0.081290 1595 -0.465162 -0.870511 0.028417
1.038510 1.220280 -0.080040 1593 -0.468758 -0.874682 0.046402
1.039030 1.220880 -0.078850 1593 -0.461277 -0.866049 0.063524
1.039730 1.221700 -0.077670 1601 -0.451205 -0.854252 0.080503
1.039430 1.221360 -0.076420 1605 -0.455520 -0.859144 0.098488
1.038950 1.220800 -0.075150 1595 -0.462427 -0.867200 0.116762
1.039370 1.221280 -0.073950 1587 -0.456385 -0.860295 0.134028
1.039460 1.221380 -0.072720 1591 -0.455090 -0.858856 0.151726
1.039210 1.221090 -0.071470 1599 -0.458686 -0.863029 0.169711
1.039340 1.221250 -0.070250 1591 -0.456815 -0.860725 0.187265
1.039650 1.221610 -0.069040 1585 -0.452356 -0.855547 0.204675
1.040070 1.222100 -0.067840 1579 -0.446311 -0.848496 0.221942
1.040190 1.222250 -0.066610 1579 -0.444585 -0.846338 0.239640
1.039990 1.222010 -0.065370 1571 -0.447464 -0.849791 0.257481
1.039930 1.221940 -0.064130 1563 -0.448326 -0.850798 0.275323
1.040490 1.222590 -0.062940 1561 -0.440268 -0.841446 0.292445
1.041130 1.223340 -0.061740 1567 -0.431061 -0.830654 0.309711
1.041540 1.223820 -0.060530 1569 -0.425160 -0.823748 0.327122
1.041240 1.223470 -0.059280 1557 -0.429478 -0.828784 0.345107
1.041600 1.223890 -0.058070 1559 -0.424298 -0.822741 0.362517
1.042530 1.224980 -0.056890 1557 -0.410917 -0.807057 0.379496
1.042830 1.225340 -0.055670 1547 -0.406600 -0.801877 0.397050
1.043150 1.225710 -0.054450 1537 -0.401996 -0.796553 0.414604
1.043890 1.226580 -0.053260 1529 -0.391348 -0.784035 0.431726
1.044150 1.226880 -0.052030 1521 -0.387607 -0.779720 0.449424
1.044030 1.226750 -0.050790 1519 -0.389334 -0.781589 0.467265
1.044390 1.227170 -0.049570 1519 -0.384154 -0.775546 0.484819
1.045270 1.228200 -0.048380 1521 -0.371492 -0.760727 0.501942
1.045950 1.229000 -0.047170 1505 -0.361707 -0.749216 0.519352
1.046500 1.229640 -0.045960 1497 -0.353794 -0.740007 0.536762
1.047130 1.230380 -0.044750 1485 -0.344729 -0.729358 0.554172
1.046920 1.230140 -0.043500 1481 -0.347751 -0.732813 0.572158
1.046940 1.230160 -0.042260 1477 -0.347463 -0.732525 0.589999
1.048100 1.231520 -0.041070 1473 -0.330772 -0.712956 0.607122
1.049490 1.233150 -0.039880 1465 -0.310773 -0.689503 0.624244
1.050360 1.234170 -0.038670 1459 -0.298255 -0.674828 0.641654
1.051090 1.235030 -0.037450 1449 -0.287751 -0.662452 0.659208
1.051400 1.235390 -0.036220 1439 -0.283291 -0.657274 0.676906
1.051980 1.236070 -0.035000 1429 -0.274945 -0.647488 0.694460
1.053230 1.237540 -0.033790 1415 -0.256959 -0.626338 0.711870
1.054140 1.238620 -0.032580 1403 -0.243866 -0.610798 0.729280
1.054920 1.239520 -0.031350 1389 -0.232643 -0.597849 0.746978
1.056070 1.240870 -0.030140 1369 -0.216096 -0.578424 0.764388
1.057220 1.242230 -0.028920 1355 -0.199549 -0.558855 0.781942
1.058370 1.243580 -0.027700 1329 -0.183003 -0.539431 0.799496
1.060090 1.245600 -0.026490 1313 -0.158255 -0.510367 0.816906
1.061570 1.247330 -0.025270 1295 -0.136959 -0.485475 0.834460
1.062340 1.248240 -0.024030 1263 -0.125880 -0.472381 0.852301
1.063490 1.249580 -0.022800 1229 -0.109333 -0.453100 0.869999
1.065350 1.251760 -0.021580 1195 -0.082570 -0.421733 0.887553
1.067680 1.254500 -0.020360 1161 -0.049046 -0.382308 0.905107
1.069870 1.257070 -0.019140 1111 -0.017535 -0.345331 0.922661
1.063430 1.247670 -0.142470 1203 -0.110197 -0.480582 -0.851871
1.061660 1.245590 -0.140970 1235 -0.135664 -0.510511 -0.830289
1.060360 1.244060 -0.139540 1273 -0.154370 -0.532524 -0.809713
1.059250 1.242760 -0.138130 1295 -0.170341 -0.551231 -0.789425
1.057950 1.241240 -0.136700 1315 -0.189045 -0.573100 -0.768850
1.056840 1.239930 -0.135300 1337 -0.205018 -0.591949 -0.748706
1.055400 1.238240 -0.133860 1363 -0.225736 -0.616266 -0.727986
1.054190 1.236820 -0.132450 1379 -0.243146 -0.636698 -0.707699
1.053540 1.236070 -0.131120 1395 -0.252499 -0.647488 -0.688562
1.052660 1.235030 -0.129760 1411 -0.265161 -0.662452 -0.668994
1.051550 1.233720 -0.128370 1419 -0.281132 -0.681303 -0.648994
1.050330 1.232300 -0.126980 1429 -0.298685 -0.701733 -0.628994
1.049410 1.231210 -0.125620 1439 -0.311924 -0.717417 -0.609425
1.048900 1.230620 -0.124310 1451 -0.319261 -0.725906 -0.590576
1.048540 1.230190 -0.123020 1465 -0.324441 -0.732093 -0.572015
1.048180 1.229770 -0.121730 1479 -0.329621 -0.738137 -0.553454
1.047580 1.229070 -0.120420 1489 -0.338254 -0.748209 -0.534605
1.047250 1.228690 -0.119140 1499 -0.343002 -0.753675 -0.516188
1.046800 1.228150 -0.117840 1497 -0.349477 -0.761445 -0.497483
1.046050 1.227280 -0.116520 1499 -0.360269 -0.773963 -0.478490
1.045160 1.226240 -0.115180 1497 -0.373074 -0.788927 -0.459209
1.044460 1.225410 -0.113860 1511 -0.383146 -0.800870 -0.440217
1.044660 1.225650 -0.112640 1529 -0.380269 -0.797418 -0.422663
1.044620 1.225600 -0.111400 1539 -0.380844 -0.798136 -0.404821
1.043590 1.224390 -0.110050 1533 -0.395665 -0.815546 -0.385396
1.043030 1.223730 -0.108750 1539 -0.403722 -0.825043 -0.366691
1.043230 1.223960 -0.107540 1547 -0.400843 -0.821733 -0.349281
1.042990 1.223690 -0.106280 1553 -0.404298 -0.825618 -0.331152
1.042390 1.222980 -0.104980 1549 -0.412931 -0.835834 -0.312447
1.041680 1.222150 -0.103670 1547 -0.423147 -0.847777 -0.293598
1.041030 1.221380 -0.102370 1555 -0.432498 -0.858856 -0.274893
1.041220 1.221610 -0.101150 1559 -0.429766 -0.855547 -0.257339
1.041080 1.221440 -0.099910 1573 -0.431779 -0.857993 -0.239497
1.041030 1.221390 -0.098670 1573 -0.432498 -0.858712 -0.221655
1.040890 1.221220 -0.097420 1575 -0.434514 -0.861158 -0.203670
1.040560 1.220830 -0.096160 1577 -0.439261 -0.866770 -0.185540
1.040140 1.220330 -0.094880 1577 -0.445304 -0.873964 -0.167123
1.039570 1.219670 -0.093600 1581 -0.453506 -0.883459 -0.148706
1.039570 1.219670 -0.092370 1587 -0.453506 -0.883459 -0.131008
1.039570 1.219670 -0.091140 1593 -0.453506 -0.883459 -0.113310
1.039420 1.219490 -0.089890 1579 -0.455664 -0.886049 -0.095325
1.039890 1.220050 -0.088700 1585 -0.448901 -0.877993 -0.078202
1.040600 1.220870 -0.087530 1599 -0.438687 -0.866194 -0.061368
1.040550 1.220820 -0.086290 1605 -0.439405 -0.866914 -0.043526
1.039690 1.219810 -0.084990 1593 -0.451779 -0.881446 -0.024821
1.039160 1.219190 -0.083710 1589 -0.459405 -0.890366 -0.006404
1.039350 1.219410 -0.082500 1601 -0.456671 -0.887202 0.011006
1.039440 1.219510 -0.081270 1587 -0.455376 -0.885763 0.028704
1.039670 1.219780 -0.080060 1599 -0.452067 -0.881878 0.046114
1.040180 1.220380 -0.078870 1597 -0.444730 -0.873245 0.063237
1.040360 1.220600 -0.077650 1593 -0.442140 -0.870079 0.080791
1.040120 1.220310 -0.076400 1597 -0.445592 -0.874252 0.098776
1.039730 1.219850 -0.075140 1583 -0.451205 -0.880871 0.116906
1.039720 1.219840 -0.073910 1581 -0.451347 -0.881013 0.134604
1.040180 1.220380 -0.072710 1587 -0.444730 -0.873245 0.151870
1.040640 1.220920 -0.071510 1591 -0.438110 -0.865475 0.169136
1.041390 1.221800 -0.070330 1589 -0.427320 -0.852813 0.186114
1.041520 1.221940 -0.069110 1587 -0.425449 -0.850798 0.203668
1.041360 1.221760 -0.067860 1583 -0.427750 -0.853388 0.221654
1.041490 1.221910 -0.066640 1577 -0.425881 -0.851230 0.239208
1.041470 1.221890 -0.065410 1569 -0.426167 -0.851518 0.256906
1.041090 1.221440 -0.064150 1553 -0.431635 -0.857993 0.275035
1.041490 1.221910 -0.062940 1561 -0.425881 -0.851230 0.292445
1.041910 1.222400 -0.061730 1567 -0.419836 -0.844180 0.309855
1.042130 1.222650 -0.060510 1555 -0.416672 -0.840582 0.327409
1.042910 1.223580 -0.059330 1553 -0.405449 -0.827201 0.344388
1.043420 1.224170 -0.058120 1545 -0.398111 -0.818712 0.361798
1.043920 1.224760 -0.056910 1549 -0.390916 -0.810222 0.379208
1.044180 1.225060 -0.055690 1545 -0.387175 -0.805906 0.396762
1.044210 1.225090 -0.054460 1531 -0.386744 -0.805474 0.414460
1.044380 1.225290 -0.053230 1523 -0.384298 -0.802598 0.432158
1.044550 1.225490 -0.052010 1515 -0.381852 -0.799719 0.449711
1.044900 1.225910 -0.050790 1511 -0.376816 -0.793677 0.467265
1.045310 1.226390 -0.049570 1505 -0.370916 -0.786769 0.484819
1.045860 1.227020 -0.048360 1507 -0.363002 -0.777704 0.502229
1.046680 1.227990 -0.047160 1501 -0.351204 -0.763747 0.519496
1.046900 1.228240 -0.045930 1489 -0.348038 -0.760150 0.537194
1.047250 1.228650 -0.044710 1483 -0.343002 -0.754252 0.554747
1.048220 1.229790 -0.043510 1481 -0.329045 -0.737849 0.572014
1.048860 1.230540 -0.042300 1471 -0.319838 -0.727057 0.589424
1.049640 1.231450 -0.041090 1469 -0.308613 -0.713964 0.606834
1.050700 1.232700 -0.039890 1471 -0.293363 -0.695978 0.624100
1.051380 1.233500 -0.038670 1459 -0.283577 -0.684467 0.641654
1.051880 1.234080 -0.037450 1445 -0.276384 -0.676122 0.659208
1.052510 1.234820 -0.036230 1431 -0.267319 -0.665474 0.676762
1.053290 1.235730 -0.035010 1421 -0.256096 -0.652380 0.694316
1.054110 1.236690 -0.033790 1419 -0.244297 -0.638567 0.711870
1.054700 1.237380 -0.032560 1393 -0.235808 -0.628639 0.729568
1.055660 1.238510 -0.031350 1381 -0.221995 -0.612381 0.746978
1.057190 1.240300 -0.030140 1369 -0.199982 -0.586625 0.764388
1.058250 1.241540 -0.028920 1349 -0.184730 -0.568784 0.781942
1.059490 1.243000 -0.027700 1333 -0.166888 -0.547776 0.799496
1.061260 1.245070 -0.026500 1315 -0.141420 -0.517993 0.816762
1.062600 1.246650 -0.025270 1289 -0.122139 -0.495259 0.834460
1.063560 1.247770 -0.024040 1263 -0.108326 -0.479144 0.852158
1.064850 1.249290 -0.022810 1227 -0.089765 -0.457273 0.869855
