167
-20.825838 -18.883533 -0.146265 889 0.974394 -0.472089 0.006999
-20.826366 -18.883963 -0.137632 879 0.966792 -0.478264 0.131215
-20.829260 -18.875195 -0.172186 937 0.925160 -0.352105 -0.365965
-20.824654 -18.870974 -0.163524 1009 0.991437 -0.291372 -0.241332
-20.823351 -18.869745 -0.154882 1045 1.010181 -0.273698 -0.116987
-20.821014 -18.867584 -0.146236 1041 1.043800 -0.242604 0.007416
-20.820848 -18.867395 -0.137607 1025 1.046188 -0.239887 0.131575
-20.825127 -18.871223 -0.129001 1001 0.984631 -0.294967 0.255402
-20.828539 -18.874264 -0.120382 951 0.935534 -0.338712 0.379416
-20.830637 -18.876125 -0.111759 841 0.905346 -0.365497 0.503488
-20.837313 -18.870745 -0.189503 839 0.809292 -0.288078 -0.615130
-20.832222 -18.866089 -0.180832 989 0.882540 -0.221088 -0.490368
-20.827223 -18.861525 -0.172161 1055 0.954470 -0.155415 -0.365605
-20.822889 -18.857553 -0.163507 1093 1.016823 -0.098276 -0.241087
-20.820061 -18.854950 -0.154863 1117 1.057522 -0.060816 -0.116713
-20.819960 -18.854813 -0.146234 1123 1.058976 -0.058840 0.007445
-20.821362 -18.856041 -0.137617 1121 1.038805 -0.076513 0.131431
-20.823357 -18.857798 -0.129005 1105 1.010099 -0.101789 0.255344
-20.825792 -18.859959 -0.120380 1073 0.975053 -0.132883 0.379445
-20.829691 -18.863447 -0.111767 1003 0.918958 -0.183078 0.503373
-20.835215 -18.868397 -0.103165 885 0.839480 -0.254295 0.627143
-20.836674 -18.858591 -0.189487 963 0.818486 -0.113206 -0.614900
-20.830381 -18.852846 -0.180815 1061 0.909023 -0.030545 -0.490123
-20.826857 -18.849607 -0.172155 1125 0.959739 0.016055 -0.365519
-20.823872 -18.846861 -0.163513 1133 1.002689 0.055574 -0.241174
-20.822628 -18.845690 -0.154880 1165 1.020582 0.072424 -0.116958
-20.822187 -18.845253 -0.146253 1171 1.026922 0.078709 0.007172
-20.822395 -18.845400 -0.137632 1169 1.023931 0.076596 0.131215
-20.823639 -18.846478 -0.129015 1145 1.006037 0.061090 0.255201
-20.825861 -18.848440 -0.120392 1129 0.974065 0.032850 0.379272
-20.829914 -18.852070 -0.111788 1089 0.915747 -0.019375 0.503071
-20.836466 -18.857946 -0.103180 1003 0.821477 -0.103930 0.626927
-20.845318 -18.854416 -0.198179 935 0.694110 -0.053131 -0.739965
-20.837173 -18.847010 -0.189487 1045 0.811296 0.053433 -0.614900
-20.832287 -18.842546 -0.180817 1121 0.881607 0.117652 -0.490152
-20.828552 -18.839125 -0.172169 1155 0.935342 0.166886 -0.365720
-20.826595 -18.837305 -0.163530 1195 0.963499 0.193068 -0.241418
-20.824863 -18.835699 -0.154890 1203 0.988418 0.216175 -0.117102
-20.823179 -18.834127 -0.146261 1215 1.012651 0.238789 0.007057
-20.823545 -18.834417 -0.137638 1213 1.007382 0.234618 0.131129
-20.825172 -18.835846 -0.129030 1177 0.983972 0.214062 0.254985
-20.827156 -18.837595 -0.120407 1171 0.955431 0.188896 0.379057
-20.831232 -18.841232 -0.111805 1125 0.896783 0.136561 0.502826
-20.837355 -18.846716 -0.103208 1087 0.808688 0.057660 0.626524
-20.844341 -18.852995 -0.094597 961 0.708162 -0.032686 0.750424
-20.847174 -18.844282 -0.198192 973 0.667407 0.092678 -0.740152
-20.839952 -18.837711 -0.189495 1081 0.771310 0.187222 -0.615015
-20.834692 -18.832912 -0.180836 1151 0.847000 0.256271 -0.490426
-20.830952 -18.829481 -0.172178 1179 0.900817 0.305642 -0.365850
-20.828289 -18.827036 -0.163544 1213 0.939129 0.340825 -0.241620
-20.827156 -18.825964 -0.154911 1225 0.955431 0.356249 -0.117404
-20.827412 -18.826159 -0.146288 1257 0.951753 0.353450 0.006668
-20.827902 -18.826548 -0.137667 1253 0.944700 0.347851 0.130711
-20.828718 -18.827236 -0.129051 1225 0.932954 0.337944 0.254683
-20.831032 -18.829292 -0.120437 1197 0.899665 0.308359 0.378625
-20.835310 -18.833105 -0.111833 1173 0.838108 0.253499 0.502424
-20.839426 -18.836784 -0.103229 1113 0.778884 0.200560 0.626222
-20.844948 -18.841736 -0.094616 1023 0.699434 0.129315 0.750150
-20.860088 -18.844208 -0.206919 863 0.481585 0.093748 -0.865720
-20.851349 -18.836269 -0.198210 1023 0.607333 0.207970 -0.740411
-20.843704 -18.829313 -0.189525 1095 0.717328 0.308057 -0.615447
-20.839844 -18.825790 -0.180868 1181 0.772874 0.358746 -0.490886
-20.836378 -18.822609 -0.172218 1221 0.822740 0.404523 -0.366425
-20.833126 -18.819622 -0.163566 1247 0.869531 0.447500 -0.241936
-20.831705 -18.818300 -0.154936 1247 0.889977 0.466518 -0.117764
-20.831644 -18.818203 -0.146316 1257 0.890855 0.467918 0.006265
-20.831757 -18.818251 -0.137695 1261 0.889236 0.467232 0.130308
-20.832996 -18.819332 -0.129078 1229 0.871398 0.451671 0.254294
-20.835812 -18.821821 -0.120472 1213 0.830890 0.415857 0.378121
-20.838461 -18.824169 -0.111866 1181 0.792771 0.382073 0.501949
-20.842247 -18.827541 -0.103254 1127 0.738295 0.333553 0.625862
-20.848366 -18.833025 -0.094648 1061 0.650255 0.254652 0.749690
-20.860573 -18.844007 -0.086058 917 0.474614 0.096630 0.873287
-20.864321 -18.836226 -0.206936 909 0.420687 0.208601 -0.865965
-20.855652 -18.828342 -0.198238 1033 0.545419 0.322026 -0.740814
-20.848915 -18.822222 -0.189558 1109 0.642351 0.410094 -0.615922
-20.844189 -18.817905 -0.180895 1171 0.710357 0.472199 -0.491274
-20.840618 -18.814634 -0.172247 1223 0.761732 0.519265 -0.366843
-20.838434 -18.812630 -0.163608 1239 0.793155 0.548109 -0.242541
-20.838335 -18.812489 -0.154980 1265 0.794582 0.550140 -0.118397
-20.837839 -18.811995 -0.146362 1273 0.801718 0.557248 0.005603
-20.836529 -18.810772 -0.137730 1263 0.820572 0.574839 0.129805
-20.838375 -18.812395 -0.129120 1233 0.794006 0.551484 0.253690
-20.841570 -18.815228 -0.120512 1219 0.748037 0.510730 0.377546
-20.843353 -18.816797 -0.111900 1197 0.722377 0.488144 0.501459
-20.846218 -18.819336 -0.103285 1145 0.681157 0.451616 0.625416
-20.851479 -18.824038 -0.094673 1069 0.605467 0.383967 0.749330
-20.864544 -18.835787 -0.086086 921 0.417476 0.214913 0.872884
-20.871716 -18.831331 -0.206995 881 0.314287 0.279022 -0.866814
-20.862759 -18.823200 -0.198288 1045 0.443164 0.396015 -0.741533
-20.854616 -18.815809 -0.189594 1105 0.560321 0.502360 -0.616440
-20.850214 -18.811796 -0.180931 1181 0.623662 0.560102 -0.491792
-20.847778 -18.809549 -0.172285 1213 0.658708 0.592431 -0.367390
-20.846256 -18.808128 -0.163654 1237 0.680608 0.612876 -0.243202
-20.844082 -18.806128 -0.155018 1245 0.711894 0.641665 -0.118943
-20.841957 -18.804167 -0.146389 1259 0.742466 0.669877 0.005215
-20.842220 -18.804354 -0.137768 1255 0.738679 0.667188 0.129258
-20.844223 -18.806120 -0.129156 1239 0.709863 0.641775 0.253172
-20.846594 -18.808218 -0.120542 1201 0.675750 0.611587 0.377114
-20.849194 -18.810514 -0.111938 1175 0.638344 0.578544 0.500913
-20.853977 -18.814785 -0.103330 1133 0.569515 0.517097 0.624769
-20.860413 -18.820547 -0.094723 1057 0.476920 0.434189 0.748611
-20.869808 -18.828978 -0.086126 915 0.341731 0.312888 0.872308
-20.875179 -18.822657 -0.207006 839 0.264449 0.403836 -0.866972
-20.869268 -18.817284 -0.198332 1027 0.349498 0.481146 -0.742166
-20.862579 -18.811209 -0.189651 1105 0.445743 0.568555 -0.617260
-20.857256 -18.806362 -0.180982 1157 0.522339 0.638289 -0.492526
-20.853853 -18.803247 -0.172333 1191 0.571299 0.683105 -0.368080
-20.852219 -18.801725 -0.163692 1219 0.594818 0.705005 -0.243749
-20.850317 -18.799974 -0.155063 1243 0.622180 0.730199 -0.119591
-20.849556 -18.799238 -0.146438 1255 0.633130 0.740792 0.004510
-20.850637 -18.800169 -0.137821 1247 0.617569 0.727400 0.128495
-20.851442 -18.800850 -0.129196 1227 0.605988 0.717602 0.252596
-20.852465 -18.801723 -0.120581 1193 0.591278 0.705033 0.376553
-20.855499 -18.804420 -0.111973 1165 0.547615 0.666227 0.500409
-20.859793 -18.808233 -0.103369 1119 0.485839 0.611367 0.624208
-20.865410 -18.813269 -0.094765 1027 0.405017 0.538915 0.748006
-20.879538 -18.814749 -0.198404 983 0.201740 0.517619 -0.743202
-20.870306 -18.806383 -0.189697 1077 0.334568 0.637988 -0.617922
-20.865524 -18.802027 -0.181036 1139 0.403370 0.700669 -0.493303
-20.861937 -18.798752 -0.172388 1161 0.454992 0.747790 -0.368872
-20.859171 -18.796215 -0.163744 1189 0.494785 0.784291 -0.244497
-20.857965 -18.795084 -0.155111 1203 0.512130 0.800565 -0.120282
-20.858019 -18.795088 -0.146490 1217 0.511362 0.800510 0.003762
-20.857904 -18.794935 -0.137861 1203 0.513008 0.802706 0.127920
-20.858719 -18.795624 -0.129248 1205 0.501290 0.792798 0.251848
-20.860935 -18.797579 -0.120634 1181 0.469400 0.764668 0.375790
-20.864624 -18.800854 -0.112022 1143 0.416323 0.717547 0.499704
-20.869507 -18.805208 -0.103424 1091 0.346067 0.654893 0.623416
-20.876883 -18.811810 -0.094820 987 0.239942 0.559910 0.747215
-20.897469 -18.819113 -0.198542 877 -0.056260 0.454827 -0.745188
-20.882851 -18.805899 -0.189787 1001 0.154070 0.644958 -0.619217
-20.875675 -18.799400 -0.181108 1085 0.257314 0.738460 -0.494339
-20.871119 -18.795242 -0.172445 1135 0.322877 0.798287 -0.369692
-20.868330 -18.792696 -0.163803 1157 0.363000 0.834925 -0.245346
-20.866753 -18.791233 -0.155172 1175 0.385696 0.855974 -0.121159
-20.865772 -18.790302 -0.146538 1191 0.399802 0.869367 0.003071
-20.865770 -18.790251 -0.137918 1185 0.399830 0.870108 0.127100
-20.868048 -18.792250 -0.129305 1177 0.367062 0.841347 0.251028
-20.870811 -18.794704 -0.120689 1135 0.327296 0.806026 0.374999
-20.874393 -18.797884 -0.112078 1097 0.275756 0.760277 0.498898
-20.879440 -18.802378 -0.103477 1027 0.203139 0.695620 0.622654
-20.890198 -18.812019 -0.094885 909 0.048356 0.556891 0.746280
-20.898449 -18.808380 -0.189907 907 -0.070366 0.609254 -0.620943
-20.887461 -18.798447 -0.181192 1021 0.087738 0.752181 -0.495548
-20.881535 -18.793070 -0.172516 1075 0.173006 0.829546 -0.370713
-20.877720 -18.789597 -0.163858 1123 0.227894 0.879521 -0.246138
-20.876247 -18.788227 -0.155228 1145 0.249081 0.899226 -0.121965
-20.875986 -18.787941 -0.146599 1145 0.252840 0.903342 0.002193
-20.877502 -18.789255 -0.137979 1143 0.231022 0.884433 0.126222
-20.878904 -18.790483 -0.129362 1135 0.210851 0.866760 0.250208
-20.880688 -18.792040 -0.120752 1087 0.185191 0.844365 0.374093
-20.884222 -18.795170 -0.112141 1039 0.134338 0.799330 0.497992
-20.890249 -18.800549 -0.103536 957 0.047615 0.721938 0.621805
-20.905392 -18.802811 -0.181318 889 -0.170262 0.689390 -0.497361
-20.895922 -18.794243 -0.172615 1009 -0.034003 0.812668 -0.372138
-20.891302 -18.790051 -0.163952 1061 0.032466 0.872989 -0.247490
-20.888641 -18.787605 -0.155308 1077 0.070750 0.908172 -0.123116
-20.887100 -18.786177 -0.146667 1089 0.092925 0.928728 0.001215
-20.888138 -18.787064 -0.138050 1095 0.077995 0.915966 0.125200
-20.890736 -18.789360 -0.129434 1063 0.040617 0.882924 0.249172
-20.893784 -18.792055 -0.120817 1023 -0.003238 0.844146 0.373157
-20.899755 -18.797377 -0.112213 953 -0.089165 0.767577 0.496956
-20.907505 -18.792606 -0.164060 911 -0.200670 0.836215 -0.249044
-20.903414 -18.788891 -0.155405 969 -0.141802 0.889675 -0.124512
-20.903143 -18.788595 -0.146767 977 -0.137905 0.893929 -0.000224
-20.903576 -18.788940 -0.138143 971 -0.144135 0.888962 0.123862
