189
-20.226015 -17.289335 -0.156093 889 0.982161 -0.546956 -0.227958
-20.223726 -17.287336 -0.147907 901 1.015094 -0.518195 -0.110174
-20.225107 -17.288473 -0.139749 879 0.995224 -0.534552 0.007208
-20.225224 -17.277834 -0.172435 967 0.993550 -0.381470 -0.463094
-20.222113 -17.275143 -0.164243 1023 1.038311 -0.342746 -0.345224
-20.220606 -17.273811 -0.156061 1041 1.059992 -0.323591 -0.227497
-20.219826 -17.273098 -0.147886 1059 1.071216 -0.313327 -0.109871
-20.220707 -17.273815 -0.139732 1051 1.058537 -0.323646 0.007452
-20.221811 -17.274715 -0.131564 1005 1.042647 -0.336599 0.124977
-20.225138 -17.277519 -0.123416 947 0.994785 -0.376942 0.242215
-20.235786 -17.276047 -0.188850 907 0.841566 -0.355755 -0.699282
-20.226721 -17.268253 -0.180602 1025 0.972007 -0.243619 -0.580605
-20.223925 -17.265841 -0.172418 1097 1.012240 -0.208903 -0.462850
-20.220373 -17.262754 -0.164230 1131 1.063340 -0.164499 -0.345037
-20.217527 -17.260292 -0.156047 1133 1.104286 -0.129068 -0.227296
-20.217295 -17.260048 -0.147878 1139 1.107634 -0.125556 -0.109756
-20.218739 -17.261246 -0.139720 1133 1.086859 -0.142790 0.007625
-20.219742 -17.262053 -0.131564 1111 1.072424 -0.154399 0.124977
-20.221563 -17.263567 -0.123403 1069 1.046215 -0.176190 0.242402
-20.225552 -17.266935 -0.115260 1023 0.988830 -0.224655 0.359567
-20.233881 -17.274002 -0.107131 911 0.868983 -0.326335 0.476532
-20.237091 -17.266088 -0.197021 907 0.822795 -0.212470 -0.816850
-20.230244 -17.260212 -0.188791 1043 0.921318 -0.127916 -0.698433
-20.226362 -17.256851 -0.180593 1115 0.977166 -0.079560 -0.580476
-20.222961 -17.253914 -0.172403 1155 1.026099 -0.037296 -0.462634
-20.220177 -17.251493 -0.164218 1167 1.066167 -0.002470 -0.344864
-20.219059 -17.250507 -0.156055 1189 1.082249 0.011719 -0.227411
-20.218998 -17.250412 -0.147895 1183 1.083127 0.013091 -0.110001
-20.219717 -17.250982 -0.139732 1177 1.072781 0.004885 0.007452
-20.220097 -17.251265 -0.131570 1161 1.067319 0.000823 0.124891
-20.222256 -17.253059 -0.123418 1135 1.036253 -0.025001 0.242186
-20.227465 -17.257473 -0.115278 1107 0.961304 -0.088506 0.359308
-20.231691 -17.261026 -0.107133 1025 0.900488 -0.139634 0.476503
-20.236847 -17.265390 -0.098983 883 0.826307 -0.202426 0.593769
-20.237684 -17.255486 -0.197015 995 0.814259 -0.059910 -0.816764
-20.231781 -17.250418 -0.188800 1097 0.899198 0.013008 -0.698562
-20.229002 -17.248005 -0.180616 1149 0.939184 0.047725 -0.580807
-20.225712 -17.245153 -0.172426 1191 0.986525 0.088753 -0.462965
-20.223104 -17.242891 -0.164241 1215 1.024040 0.121302 -0.345195
-20.221367 -17.241379 -0.156070 1205 1.049042 0.143065 -0.227627
-20.219749 -17.239948 -0.147899 1197 1.072314 0.163648 -0.110058
-20.221178 -17.241135 -0.139751 1199 1.051759 0.146578 0.007179
-20.222452 -17.242180 -0.131595 1193 1.033426 0.131538 0.124531
-20.223614 -17.243122 -0.123437 1183 1.016713 0.117981 0.241913
-20.226725 -17.245733 -0.115289 1139 0.971952 0.080411 0.359150
-20.231325 -17.249619 -0.107143 1087 0.905757 0.024507 0.476359
-20.237434 -17.254782 -0.099008 977 0.817855 -0.049783 0.593409
-20.246208 -17.251913 -0.205241 907 0.691613 -0.008508 -0.935123
-20.238750 -17.245520 -0.197015 1047 0.798918 0.083484 -0.816764
-20.233814 -17.241264 -0.188804 1121 0.869943 0.144712 -0.698620
-20.230083 -17.238049 -0.180616 1181 0.923623 0.190982 -0.580807
-20.226410 -17.234875 -0.172427 1205 0.976480 0.236648 -0.462979
-20.224178 -17.232929 -0.164251 1217 1.008590 0.264641 -0.345339
-20.223337 -17.232176 -0.156085 1215 1.020692 0.275482 -0.227843
-20.222942 -17.231794 -0.147918 1229 1.026373 0.280970 -0.110332
-20.223717 -17.232420 -0.139764 1215 1.015231 0.271969 0.006992
-20.225708 -17.234072 -0.131622 1209 0.986580 0.248202 0.124143
-20.228207 -17.236153 -0.123468 1201 0.950628 0.218261 0.241467
-20.230919 -17.238426 -0.115321 1177 0.911603 0.185548 0.358690
-20.234692 -17.241604 -0.107169 1121 0.857319 0.139826 0.475985
-20.240353 -17.246393 -0.099027 1029 0.775865 0.070915 0.593136
-20.260937 -17.263882 -0.090928 861 0.479691 -0.180718 0.709668
-20.248432 -17.243120 -0.205255 953 0.659613 0.118009 -0.935325
-20.242151 -17.237728 -0.197032 1069 0.749986 0.195592 -0.817008
-20.237251 -17.233521 -0.188831 1133 0.820489 0.256134 -0.699008
-20.233236 -17.230062 -0.180633 1177 0.878259 0.305889 -0.581051
-20.230177 -17.227407 -0.172452 1221 0.922279 0.344091 -0.463339
-20.228710 -17.226126 -0.164279 1247 0.943383 0.362533 -0.345742
-20.227991 -17.225473 -0.156114 1259 0.953729 0.371919 -0.228260
-20.227488 -17.225002 -0.147958 1257 0.960974 0.378698 -0.110907
-20.227699 -17.225147 -0.139797 1251 0.957928 0.376612 0.006517
-20.228476 -17.225758 -0.131643 1215 0.946758 0.367830 0.123841
-20.231068 -17.227928 -0.123496 1217 0.909462 0.336599 0.241064
-20.234621 -17.230911 -0.115346 1201 0.858334 0.293677 0.358330
-20.238461 -17.234138 -0.107204 1151 0.803090 0.247242 0.475481
-20.242952 -17.237921 -0.099057 1067 0.738460 0.192821 0.592704
-20.252954 -17.246407 -0.090921 939 0.594544 0.070723 0.709769
-20.254133 -17.237103 -0.205289 973 0.577584 0.204594 -0.935814
-20.247274 -17.231226 -0.197069 1075 0.676272 0.289149 -0.817541
-20.240934 -17.225794 -0.188846 1143 0.767495 0.367309 -0.699224
-20.237261 -17.222620 -0.180658 1191 0.820352 0.412975 -0.581411
-20.235706 -17.221252 -0.172487 1233 0.842719 0.432653 -0.463843
-20.233856 -17.219646 -0.164317 1255 0.869339 0.455760 -0.346289
-20.232965 -17.218843 -0.156152 1261 0.882156 0.467314 -0.228807
-20.232903 -17.218752 -0.147992 1269 0.883061 0.468631 -0.111397
-20.232393 -17.218273 -0.139825 1251 0.890389 0.475520 0.006114
-20.233557 -17.219215 -0.131669 1221 0.873648 0.461963 0.123467
-20.235550 -17.220871 -0.123527 1209 0.844969 0.438141 0.240618
-20.237658 -17.222635 -0.115375 1203 0.814644 0.412756 0.357913
-20.241480 -17.225843 -0.107223 1147 0.759646 0.366595 0.475208
-20.246817 -17.230337 -0.099082 1083 0.682858 0.301937 0.592344
-20.255426 -17.237627 -0.090953 977 0.558977 0.197047 0.709308
-20.257845 -17.230259 -0.205308 995 0.524178 0.303063 -0.936087
-20.251051 -17.224445 -0.197088 1097 0.621933 0.386712 -0.817814
-20.246649 -17.220659 -0.188884 1155 0.685273 0.441188 -0.699771
-20.243422 -17.217873 -0.180703 1191 0.731708 0.481283 -0.582058
-20.240461 -17.215326 -0.172519 1227 0.774301 0.517921 -0.464303
-20.238562 -17.213671 -0.164340 1251 0.801635 0.541742 -0.346620
-20.237329 -17.212570 -0.156179 1259 0.819364 0.557577 -0.229195
-20.236887 -17.212158 -0.148011 1265 0.825731 0.563505 -0.111670
-20.237097 -17.212301 -0.139859 1253 0.822712 0.561447 0.005625
-20.238480 -17.213436 -0.131702 1215 0.802815 0.545117 0.122992
-20.240356 -17.214993 -0.123561 1209 0.775811 0.522723 0.240129
-20.242579 -17.216837 -0.115409 1181 0.743839 0.496185 0.357424
-20.246733 -17.220339 -0.107265 1133 0.684066 0.445798 0.474603
-20.251846 -17.224646 -0.099115 1071 0.610489 0.383830 0.591870
-20.261415 -17.232746 -0.090989 947 0.472803 0.267276 0.708790
-20.264975 -17.226728 -0.205365 987 0.421593 0.353861 -0.936907
-20.257437 -17.220287 -0.197130 1083 0.530051 0.446539 -0.818418
-20.251211 -17.214951 -0.188916 1145 0.619628 0.523327 -0.700231
-20.247978 -17.212170 -0.180736 1189 0.666145 0.563340 -0.582533
-20.245638 -17.210135 -0.172550 1219 0.699819 0.592623 -0.464749
-20.243515 -17.208292 -0.164380 1251 0.730364 0.619134 -0.347195
-20.241894 -17.206877 -0.156211 1255 0.753691 0.639497 -0.229656
-20.241329 -17.206358 -0.148044 1251 0.761814 0.646962 -0.112145
-20.241323 -17.206308 -0.139884 1237 0.761897 0.647675 0.005265
-20.242596 -17.207354 -0.131736 1223 0.743592 0.632636 0.122503
-20.245092 -17.209433 -0.123592 1197 0.707668 0.602722 0.239683
-20.247972 -17.211855 -0.115436 1175 0.666227 0.567868 0.357035
-20.251858 -17.215111 -0.107293 1139 0.610324 0.521022 0.474201
-20.257023 -17.219467 -0.099153 1065 0.536006 0.458340 0.591323
-20.267378 -17.228220 -0.091024 935 0.387013 0.332400 0.708287
-20.273773 -17.223244 -0.205432 965 0.294994 0.404001 -0.937871
-20.265596 -17.216261 -0.197191 1051 0.412646 0.504473 -0.819296
-20.259232 -17.210819 -0.188978 1119 0.504226 0.582770 -0.701123
-20.254833 -17.207031 -0.180784 1179 0.567512 0.637274 -0.583224
-20.251877 -17.204481 -0.172590 1201 0.610050 0.673966 -0.465325
-20.249092 -17.202072 -0.164417 1225 0.650118 0.708628 -0.347728
-20.248301 -17.201366 -0.156251 1229 0.661507 0.718782 -0.230231
-20.248354 -17.201372 -0.148092 1219 0.660739 0.718700 -0.112835
-20.249012 -17.201887 -0.139938 1221 0.651270 0.711290 0.004488
-20.250450 -17.203064 -0.131778 1203 0.630578 0.694357 0.121898
-20.252617 -17.204868 -0.123636 1191 0.599401 0.668395 0.239049
-20.255890 -17.207609 -0.115487 1167 0.552308 0.628959 0.356301
-20.259888 -17.210960 -0.107345 1117 0.494785 0.580740 0.473452
-20.265505 -17.215694 -0.099202 1031 0.413963 0.512624 0.590618
-20.280149 -17.228094 -0.091077 883 0.203249 0.334211 0.707524
-20.282591 -17.219873 -0.205499 865 0.168121 0.452494 -0.938835
-20.273403 -17.212036 -0.197252 1017 0.300318 0.565261 -0.820174
-20.267601 -17.207062 -0.189035 1097 0.383802 0.636835 -0.701943
-20.262980 -17.203106 -0.180833 1147 0.450299 0.693753 -0.583929
-20.259634 -17.200218 -0.172653 1179 0.498435 0.735303 -0.466231
-20.257677 -17.198509 -0.164474 1185 0.526593 0.759893 -0.348548
-20.256895 -17.197811 -0.156308 1197 0.537845 0.769938 -0.231051
-20.256781 -17.197670 -0.148149 1207 0.539492 0.771968 -0.113656
-20.256660 -17.197525 -0.139980 1207 0.541220 0.774054 0.003884
-20.257875 -17.198515 -0.131833 1195 0.523739 0.759811 0.121107
-20.260372 -17.200594 -0.123678 1163 0.487815 0.729897 0.238445
-20.263597 -17.203289 -0.115529 1131 0.441407 0.691119 0.355697
-20.267931 -17.206934 -0.107385 1083 0.379055 0.638674 0.472877
-20.273376 -17.211517 -0.099243 987 0.300702 0.572726 0.590028
-20.285334 -17.211079 -0.197341 919 0.128657 0.579038 -0.821454
-20.276695 -17.203707 -0.189102 1029 0.252950 0.685109 -0.702907
-20.271955 -17.199638 -0.180898 1113 0.321148 0.743646 -0.584864
-20.268330 -17.196527 -0.172710 1149 0.373319 0.788407 -0.467051
-20.266481 -17.194921 -0.164531 1165 0.399912 0.811515 -0.349368
-20.265034 -17.193642 -0.156358 1201 0.420742 0.829930 -0.231771
-20.264908 -17.193502 -0.148200 1183 0.422553 0.831933 -0.114389
-20.265963 -17.194357 -0.140045 1185 0.407377 0.819638 0.002949
-20.266504 -17.194775 -0.131881 1177 0.399583 0.813628 0.120416
-20.268456 -17.196384 -0.123729 1131 0.371508 0.790466 0.237711
-20.272797 -17.200024 -0.115585 1087 0.309045 0.738103 0.354891
-20.277306 -17.203806 -0.107438 1015 0.244168 0.683682 0.472114
-20.287319 -17.212263 -0.099311 889 0.100088 0.561996 0.589049
-20.289709 -17.203747 -0.189203 949 0.065701 0.684532 -0.704361
-20.283520 -17.198458 -0.180980 1049 0.154756 0.760634 -0.586044
-20.278152 -17.193869 -0.172780 1091 0.231983 0.826664 -0.468059
-20.276031 -17.192028 -0.164592 1131 0.262501 0.853147 -0.350245
-20.275253 -17.191324 -0.156427 1153 0.273698 0.863274 -0.232763
-20.274075 -17.190287 -0.148254 1137 0.290658 0.878204 -0.115166
-20.274403 -17.190527 -0.140092 1137 0.285938 0.874746 0.002272
-20.276451 -17.192221 -0.131940 1105 0.256463 0.850376 0.119567
-20.279394 -17.194674 -0.123794 1077 0.214117 0.815083 0.236776
-20.282618 -17.197365 -0.115646 1023 0.167737 0.776359 0.354014
-20.288519 -17.202328 -0.107501 933 0.082826 0.704951 0.471208
-20.298758 -17.200827 -0.181096 913 -0.064493 0.726549 -0.587713
-20.291220 -17.194403 -0.172870 997 0.043965 0.818980 -0.469353
-20.286814 -17.190622 -0.164665 1047 0.107360 0.873374 -0.351296
-20.285526 -17.189499 -0.156493 1073 0.125885 0.889538 -0.233713
-20.286242 -17.190069 -0.148338 1085 0.115594 0.881332 -0.116375
-20.286352 -17.190113 -0.140168 1079 0.114002 0.880701 0.001179
-20.287905 -17.191389 -0.132009 1039 0.091663 0.862341 0.118575
-20.291132 -17.194082 -0.123861 989 0.045227 0.823590 0.235812
-20.297142 -17.199141 -0.115716 911 -0.041248 0.750809 0.353006
-20.302719 -17.193468 -0.164779 891 -0.121494 0.832427 -0.352936
-20.300371 -17.191439 -0.156593 959 -0.087711 0.861628 -0.235152
-20.299192 -17.190405 -0.148420 967 -0.070750 0.876502 -0.117555
-20.300632 -17.191584 -0.140250 941 -0.091470 0.859542 -0.000001
-20.303867 -17.194273 -0.132102 901 -0.138015 0.820846 0.117237
