98
-23.948481 -22.161228 -0.172861 1065 1.034359 -0.214337 -0.137001
-23.946011 -22.158894 -0.162826 1095 1.069899 -0.180745 0.007388
-23.945309 -22.158197 -0.152810 1067 1.079998 -0.170728 0.151503
-23.947987 -22.160620 -0.142794 1047 1.041467 -0.205582 0.295618
-23.955620 -22.153811 -0.192943 1031 0.931637 -0.107607 -0.425950
-23.951490 -22.149944 -0.182899 1107 0.991053 -0.051979 -0.281432
-23.949343 -22.147900 -0.172872 1157 1.021955 -0.022559 -0.137159
-23.948496 -22.147066 -0.162847 1181 1.034140 -0.010566 0.007086
-23.947737 -22.146313 -0.152832 1147 1.045062 0.000274 0.151186
-23.947630 -22.146158 -0.142812 1135 1.046599 0.002497 0.295359
-23.951214 -22.149429 -0.132810 1125 0.995032 -0.044569 0.439273
-23.956949 -22.154680 -0.122806 1049 0.912509 -0.120122 0.583215
-23.963970 -22.148258 -0.203023 1017 0.811488 -0.027718 -0.570986
-23.956518 -22.141321 -0.192949 1131 0.918711 0.072095 -0.426037
-23.952381 -22.137451 -0.182905 1175 0.978237 0.127779 -0.281519
-23.950663 -22.135818 -0.172886 1207 1.002964 0.151271 -0.137360
-23.950233 -22.135361 -0.162868 1213 1.009138 0.157857 0.006784
-23.949917 -22.135017 -0.152851 1203 1.013694 0.162797 0.150913
-23.950443 -22.135462 -0.142837 1177 1.006120 0.156403 0.294999
-23.952467 -22.137278 -0.132825 1179 0.977002 0.130276 0.439057
-23.956175 -22.140652 -0.122823 1141 0.923651 0.081728 0.582970
-23.962721 -22.146654 -0.112823 1029 0.829463 -0.004638 0.726855
-23.965479 -22.136084 -0.203027 1065 0.789780 0.147456 -0.571044
-23.960423 -22.131363 -0.192979 1157 0.862533 0.215379 -0.426468
-23.955276 -22.126564 -0.182929 1203 0.936577 0.284428 -0.281864
-23.951773 -22.123278 -0.172891 1223 0.986991 0.331714 -0.137432
-23.952747 -22.124121 -0.162885 1237 0.972967 0.319584 0.006539
-23.952749 -22.124081 -0.152876 1243 0.972940 0.320160 0.150553
-23.953276 -22.124510 -0.142864 1215 0.965365 0.313985 0.294611
-23.955954 -22.126934 -0.132856 1215 0.926834 0.279104 0.438611
-23.959063 -22.129759 -0.122858 1177 0.882101 0.238460 0.582467
-23.964432 -22.134659 -0.112855 1089 0.804846 0.167956 0.726395
-23.970160 -22.126572 -0.203054 1103 0.722432 0.284318 -0.571432
-23.964743 -22.121517 -0.193009 1159 0.800373 0.357045 -0.426900
-23.960976 -22.118000 -0.182960 1209 0.854575 0.407651 -0.282310
-23.959467 -22.116558 -0.172941 1259 0.876283 0.428399 -0.138152
-23.958139 -22.115273 -0.162918 1273 0.895384 0.446896 0.006064
-23.958128 -22.115217 -0.152908 1253 0.895548 0.447692 0.150093
-23.959309 -22.116251 -0.142902 1233 0.878560 0.432817 0.294064
-23.960802 -22.117579 -0.132892 1225 0.857072 0.413716 0.438093
-23.964073 -22.120558 -0.122892 1173 0.810006 0.370849 0.581978
-23.969761 -22.125742 -0.112888 1115 0.728168 0.296257 0.725920
-23.978075 -22.133373 -0.102898 1001 0.608540 0.186454 0.869661
-23.975725 -22.118404 -0.203092 1115 0.642351 0.401833 -0.571979
-23.969822 -22.112904 -0.193038 1177 0.727290 0.480981 -0.427317
-23.967134 -22.110374 -0.183006 1229 0.765958 0.517372 -0.282972
-23.966383 -22.109629 -0.172990 1267 0.776771 0.528102 -0.138857
-23.965412 -22.108681 -0.162965 1267 0.790740 0.541742 0.005388
-23.963533 -22.106899 -0.152948 1255 0.817772 0.567374 0.149517
-23.963787 -22.107088 -0.142936 1249 0.814122 0.564658 0.293575
-23.966095 -22.109158 -0.132933 1223 0.780915 0.534881 0.437503
-23.969358 -22.112129 -0.122932 1187 0.733959 0.492123 0.581402
-23.974792 -22.117081 -0.112930 1135 0.655771 0.420879 0.725316
-23.982567 -22.124210 -0.102931 1023 0.543910 0.318294 0.869186
-23.982269 -22.111418 -0.203133 1095 0.548191 0.502360 -0.572569
-23.976246 -22.105812 -0.193081 1185 0.634859 0.583017 -0.427936
-23.972855 -22.102640 -0.183040 1225 0.683654 0.628657 -0.283461
-23.969799 -22.099768 -0.173010 1247 0.727619 0.669987 -0.139145
-23.969273 -22.099222 -0.162992 1271 0.735194 0.677836 0.004999
-23.970501 -22.100307 -0.152984 1267 0.717520 0.662220 0.148999
-23.971306 -22.100994 -0.142980 1241 0.705939 0.652341 0.292942
-23.973183 -22.102676 -0.132978 1199 0.678934 0.628135 0.436855
-23.977468 -22.106590 -0.122972 1173 0.617267 0.571820 0.580827
-23.982079 -22.110775 -0.112976 1129 0.550936 0.511609 0.724654
-23.990078 -22.118109 -0.102977 1003 0.435836 0.406087 0.868524
-23.992617 -22.107399 -0.203194 1099 0.399308 0.560184 -0.573447
-23.986769 -22.101959 -0.193140 1155 0.483451 0.638454 -0.428785
-23.981928 -22.097448 -0.183099 1205 0.553104 0.703359 -0.284310
-23.978649 -22.094376 -0.173068 1221 0.600280 0.747571 -0.139979
-23.978638 -22.094320 -0.163049 1225 0.600444 0.748367 0.004179
-23.979511 -22.095068 -0.153043 1229 0.587875 0.737609 0.148150
-23.979349 -22.094870 -0.143024 1211 0.590208 0.740463 0.292309
-23.980885 -22.096226 -0.133016 1191 0.568115 0.720950 0.436309
-23.984858 -22.099844 -0.123022 1157 0.510950 0.668889 0.580107
-23.990601 -22.105087 -0.113018 1089 0.428316 0.593446 0.724050
-24.003269 -22.103395 -0.203264 1033 0.246034 0.617789 -0.574454
-23.996933 -22.097507 -0.193202 1127 0.337203 0.702508 -0.429677
-23.992846 -22.093689 -0.183169 1171 0.396015 0.757451 -0.285317
-23.989767 -22.090811 -0.173126 1213 0.440309 0.798863 -0.140814
-23.988642 -22.089722 -0.163113 1215 0.456501 0.814534 0.003258
-23.987724 -22.088827 -0.153089 1217 0.469702 0.827405 0.147488
-23.988581 -22.089556 -0.143083 1195 0.457379 0.816922 0.291460
-23.992559 -22.093178 -0.133079 1165 0.400132 0.764806 0.435402
-23.996912 -22.097128 -0.123083 1131 0.337505 0.707969 0.579229
-24.001270 -22.101086 -0.113078 1045 0.274795 0.651023 0.723186
-24.008444 -22.094292 -0.193277 1063 0.171579 0.748778 -0.430756
-24.003448 -22.089634 -0.183227 1131 0.243455 0.815796 -0.286152
-24.000002 -22.086416 -0.173190 1157 0.293046 0.862094 -0.141734
-23.997957 -22.084476 -0.163162 1159 0.322465 0.890005 0.002553
-23.998442 -22.084875 -0.153149 1169 0.315495 0.884269 0.146625
-23.999830 -22.086111 -0.143140 1145 0.295516 0.866485 0.290640
-24.002844 -22.088820 -0.133132 1123 0.252154 0.827515 0.434640
-24.006819 -22.092424 -0.123129 1069 0.194961 0.775646 0.578568
-24.017704 -22.088936 -0.183318 1041 0.038339 0.825841 -0.287461
-24.014042 -22.085524 -0.173269 1101 0.091031 0.874938 -0.142871
-24.013983 -22.085421 -0.163249 1109 0.091882 0.876420 0.001301
-24.013720 -22.085121 -0.153230 1121 0.095669 0.880729 0.145460
-24.013445 -22.084822 -0.143213 1099 0.099621 0.885037 0.289589
