764
-8.039902 -6.843953 -0.167776 1039 0.899788 -0.564946 -0.082935
-8.039728 -6.843781 -0.164528 1049 0.902286 -0.562469 -0.036201
-8.039376 -6.843477 -0.161280 1047 0.907349 -0.558092 0.010533
-8.039417 -6.843484 -0.158039 1049 0.906759 -0.558195 0.057166
-8.039796 -6.843791 -0.154796 1021 0.901311 -0.562613 0.103828
-8.040440 -6.844327 -0.151573 989 0.892049 -0.570325 0.150202
-8.041649 -6.845343 -0.148346 959 0.874650 -0.584945 0.196634
-8.041804 -6.845462 -0.145105 903 0.872413 -0.586654 0.243267
-8.045953 -6.845525 -0.187334 957 0.812723 -0.587559 -0.364345
-8.042612 -6.842658 -0.184023 1023 0.860791 -0.546311 -0.316704
-8.039586 -6.840068 -0.180719 1073 0.904330 -0.509043 -0.269165
-8.037627 -6.838389 -0.177431 1101 0.932515 -0.484885 -0.221856
-8.036894 -6.837758 -0.174175 1125 0.943067 -0.475808 -0.175007
-8.036607 -6.837489 -0.170936 1145 0.947198 -0.471938 -0.128402
-8.035860 -6.836844 -0.167681 1159 0.957942 -0.462656 -0.081568
-8.035851 -6.836817 -0.164442 1151 0.958079 -0.462264 -0.034963
-8.035670 -6.836652 -0.161192 1155 0.960672 -0.459891 0.011799
-8.035317 -6.836334 -0.157944 1145 0.965750 -0.455321 0.058533
-8.036190 -6.837064 -0.154720 1135 0.953194 -0.465818 0.104922
-8.037350 -6.838031 -0.151502 1129 0.936508 -0.479732 0.151224
-8.038445 -6.838950 -0.148277 1109 0.920742 -0.492960 0.197626
-8.039990 -6.840250 -0.145058 1079 0.898512 -0.511663 0.243943
-8.042591 -6.842446 -0.141853 1033 0.861092 -0.543258 0.290058
-8.043406 -6.843121 -0.138630 957 0.849374 -0.552973 0.336432
-8.047289 -6.842093 -0.193825 955 0.793498 -0.538181 -0.457741
-8.043552 -6.838899 -0.190494 1039 0.847261 -0.492226 -0.409812
-8.040763 -6.836511 -0.187191 1087 0.887397 -0.457867 -0.362287
-8.038410 -6.834490 -0.183905 1123 0.921249 -0.428783 -0.315007
-8.036560 -6.832901 -0.180624 1161 0.947870 -0.405922 -0.267798
-8.035770 -6.832215 -0.177370 1185 0.959232 -0.396049 -0.220978
-8.035539 -6.832001 -0.174120 1191 0.962566 -0.392976 -0.174215
-8.034807 -6.831357 -0.170875 1209 0.973091 -0.383706 -0.127525
-8.034018 -6.830670 -0.167620 1219 0.984453 -0.373820 -0.080690
-8.033499 -6.830220 -0.164362 1209 0.991917 -0.367350 -0.033812
-8.033820 -6.830471 -0.161131 1209 0.987293 -0.370959 0.012677
-8.034019 -6.830633 -0.157900 1211 0.984425 -0.373291 0.059166
-8.034519 -6.831030 -0.154667 1205 0.977235 -0.379000 0.105684
-8.035550 -6.831900 -0.151451 1199 0.962401 -0.391521 0.151957
-8.036544 -6.832720 -0.148226 1177 0.948103 -0.403315 0.198360
-8.037639 -6.833638 -0.144998 1149 0.932350 -0.416529 0.244806
-8.039236 -6.834987 -0.141781 1123 0.909366 -0.435939 0.291094
-8.041061 -6.836516 -0.138571 1085 0.883102 -0.457935 0.337281
-8.042594 -6.837803 -0.135351 1029 0.861051 -0.476453 0.383612
-8.044922 -6.839763 -0.132139 951 0.827556 -0.504658 0.429828
-8.049955 -6.840146 -0.200334 895 0.755132 -0.510168 -0.551395
-8.045760 -6.836576 -0.196998 1025 0.815494 -0.458800 -0.503395
-8.042584 -6.833855 -0.193685 1093 0.861188 -0.419651 -0.455726
-8.039903 -6.831558 -0.190391 1147 0.899775 -0.386602 -0.408330
-8.037944 -6.829877 -0.187103 1177 0.927959 -0.362410 -0.361021
-8.037040 -6.829094 -0.183847 1209 0.940968 -0.351144 -0.314172
-8.036093 -6.828269 -0.180584 1229 0.954594 -0.339275 -0.267222
-8.034786 -6.827152 -0.177320 1241 0.973393 -0.323200 -0.220258
-8.033667 -6.826188 -0.174057 1245 0.989502 -0.309334 -0.173309
-8.032985 -6.825593 -0.170811 1257 0.999313 -0.300771 -0.126604
-8.032029 -6.824760 -0.167557 1259 1.013063 -0.288785 -0.079784
-8.031734 -6.824498 -0.164308 1261 1.017303 -0.285018 -0.033035
-8.031891 -6.824603 -0.161077 1261 1.015053 -0.286528 0.013454
-8.032491 -6.825098 -0.157854 1271 1.006421 -0.293649 0.059828
-8.033643 -6.826072 -0.154627 1263 0.989845 -0.307666 0.106260
-8.033906 -6.826266 -0.151396 1247 0.986058 -0.310452 0.152749
-8.033891 -6.826247 -0.148155 1225 0.986278 -0.310184 0.199382
-8.034821 -6.827020 -0.144941 1207 0.972899 -0.321306 0.245626
-8.036252 -6.828223 -0.141722 1201 0.952302 -0.338616 0.291943
-8.037570 -6.829315 -0.138506 1165 0.933338 -0.354328 0.338216
-8.039889 -6.831282 -0.135292 1129 0.899967 -0.382629 0.384461
-8.043386 -6.834235 -0.132103 1091 0.849648 -0.425119 0.430346
-8.046266 -6.836660 -0.128906 1039 0.808222 -0.460007 0.476346
-8.047461 -6.837662 -0.125679 915 0.791028 -0.474429 0.522778
-8.050025 -6.835914 -0.203550 955 0.754130 -0.449277 -0.597668
-8.046060 -6.832525 -0.200212 1059 0.811186 -0.400509 -0.549640
-8.042489 -6.829477 -0.196894 1129 0.862561 -0.356654 -0.501899
-8.039520 -6.826944 -0.193590 1175 0.905277 -0.320208 -0.454359
-8.038172 -6.825784 -0.190317 1203 0.924680 -0.303522 -0.407266
-8.036780 -6.824584 -0.187044 1235 0.944700 -0.286253 -0.360172
-8.034706 -6.822807 -0.183767 1249 0.974545 -0.260682 -0.313021
-8.033473 -6.821747 -0.180504 1267 0.992288 -0.245430 -0.266071
-8.032962 -6.821289 -0.177257 1287 0.999643 -0.238844 -0.219352
-8.032172 -6.820603 -0.174002 1297 1.011005 -0.228971 -0.172517
-8.031935 -6.820382 -0.170763 1301 1.014421 -0.225794 -0.125913
-8.031919 -6.820363 -0.167522 1307 1.014655 -0.225520 -0.079280
-8.031967 -6.820378 -0.164293 1307 1.013955 -0.225733 -0.032820
-8.032009 -6.820400 -0.161053 1315 1.013351 -0.226055 0.013799
-8.031606 -6.820047 -0.157814 1303 1.019155 -0.220971 0.060404
-8.031310 -6.819771 -0.154566 1283 1.023409 -0.216999 0.107137
-8.031796 -6.820168 -0.151344 1277 1.016411 -0.222714 0.153497
-8.032784 -6.820996 -0.148117 1273 1.002195 -0.234624 0.199929
-8.033713 -6.821768 -0.144903 1261 0.988830 -0.245732 0.246173
-8.035253 -6.823061 -0.141683 1257 0.966683 -0.264339 0.292504
-8.037136 -6.824646 -0.138473 1243 0.939582 -0.287145 0.338691
-8.038725 -6.825974 -0.135265 1201 0.916721 -0.306253 0.384850
-8.040328 -6.827316 -0.132046 1163 0.893655 -0.325560 0.431166
-8.042542 -6.829178 -0.128834 1113 0.861792 -0.352352 0.477382
-8.045694 -6.831841 -0.125635 1051 0.816441 -0.390670 0.523411
-8.049296 -6.834884 -0.122446 963 0.764614 -0.434457 0.569296
-8.050669 -6.832239 -0.206772 983 0.744868 -0.396399 -0.644028
-8.046984 -6.829093 -0.203443 1087 0.797889 -0.351131 -0.596129
-8.043571 -6.826185 -0.200123 1147 0.846986 -0.309292 -0.548359
-8.040609 -6.823658 -0.196819 1197 0.889607 -0.272929 -0.500820
-8.038042 -6.821457 -0.193523 1227 0.926546 -0.241259 -0.453395
-8.036357 -6.820014 -0.190243 1263 0.950793 -0.220498 -0.406201
-8.035459 -6.819237 -0.186989 1279 0.963719 -0.209321 -0.359381
-8.034618 -6.818503 -0.183733 1303 0.975808 -0.198755 -0.312532
-8.033714 -6.817718 -0.180477 1313 0.988816 -0.187462 -0.265683
-8.032144 -6.816373 -0.177217 1305 1.011416 -0.168107 -0.218776
-8.031797 -6.816061 -0.173969 1323 1.016397 -0.163620 -0.172043
-8.031897 -6.816125 -0.170738 1335 1.014970 -0.164540 -0.125553
-8.031550 -6.815814 -0.167490 1337 1.019951 -0.160066 -0.078820
-8.031370 -6.815649 -0.164251 1341 1.022545 -0.157692 -0.032215
-8.031075 -6.815386 -0.161013 1337 1.026798 -0.153905 0.014375
-8.031009 -6.815303 -0.157774 1331 1.027745 -0.152711 0.060979
-8.031215 -6.815472 -0.154543 1323 1.024781 -0.155147 0.107468
-8.031700 -6.815870 -0.151319 1319 1.017797 -0.160869 0.153857
-8.032137 -6.816218 -0.148086 1301 1.011512 -0.165878 0.200375
-8.032894 -6.816852 -0.144863 1287 1.000617 -0.175003 0.246749
-8.034218 -6.817950 -0.141645 1287 0.981571 -0.190797 0.293051
-8.036144 -6.819577 -0.138445 1277 0.953853 -0.214213 0.339094
-8.037469 -6.820675 -0.135227 1253 0.934793 -0.230007 0.385396
-8.038234 -6.821316 -0.132004 1215 0.923788 -0.239228 0.431770
-8.040885 -6.823547 -0.128797 1187 0.885641 -0.271331 0.477914
-8.043878 -6.826069 -0.125601 1151 0.842582 -0.307618 0.523900
-8.047252 -6.828918 -0.122402 1091 0.794033 -0.348613 0.569929
-8.050971 -6.832059 -0.119211 997 0.740518 -0.393806 0.615842
-8.052531 -6.829606 -0.210028 983 0.718069 -0.358513 -0.690877
-8.047900 -6.825655 -0.206673 1089 0.784702 -0.301663 -0.642604
-8.044266 -6.822558 -0.203344 1151 0.836997 -0.257101 -0.594705
-8.041755 -6.820413 -0.200048 1199 0.873127 -0.226240 -0.547280
-8.039517 -6.818505 -0.196760 1233 0.905318 -0.198783 -0.499971
-8.037781 -6.817012 -0.193479 1261 0.930306 -0.177301 -0.452762
-8.036218 -6.815673 -0.190208 1291 0.952796 -0.158036 -0.405697
-8.034755 -6.814418 -0.186947 1305 0.973846 -0.139977 -0.358776
-8.034415 -6.814113 -0.183699 1323 0.978731 -0.135593 -0.312043
-8.033784 -6.813566 -0.180452 1339 0.987814 -0.127724 -0.265323
-8.032334 -6.812310 -0.177191 1341 1.008672 -0.109652 -0.218402
-8.031767 -6.811811 -0.173944 1351 1.016836 -0.102469 -0.171683
-8.031471 -6.811549 -0.170706 1359 1.021090 -0.098702 -0.125093
-8.030675 -6.810855 -0.167450 1353 1.032548 -0.088712 -0.078244
-8.030716 -6.810878 -0.164221 1347 1.031958 -0.089042 -0.031784
-8.031323 -6.811380 -0.160997 1353 1.023217 -0.096266 0.014605
-8.031752 -6.811721 -0.157764 1361 1.017056 -0.101172 0.061123
-8.031177 -6.811216 -0.154518 1345 1.025330 -0.093906 0.107828
-8.030881 -6.810953 -0.151279 1329 1.029584 -0.090126 0.154432
-8.032313 -6.812155 -0.148071 1335 1.008974 -0.107415 0.200590
-8.033021 -6.812741 -0.144848 1325 0.998792 -0.115847 0.246965
-8.033622 -6.813221 -0.141624 1315 0.990147 -0.122756 0.293353
-8.035612 -6.814896 -0.138412 1311 0.961510 -0.146859 0.339569
-8.037209 -6.816231 -0.135204 1291 0.938539 -0.166063 0.385727
-8.038303 -6.817149 -0.131988 1265 0.922786 -0.179277 0.432001
-8.040122 -6.818671 -0.128767 1233 0.896619 -0.201177 0.478346
-8.042672 -6.820819 -0.125564 1197 0.859926 -0.232079 0.524432
-8.044991 -6.822772 -0.122360 1143 0.826568 -0.260182 0.570533
-8.048481 -6.825718 -0.119161 1079 0.776346 -0.302569 0.616562
-8.055388 -6.827728 -0.213306 961 0.676958 -0.331488 -0.738043
-8.050306 -6.823409 -0.209936 1075 0.750082 -0.269348 -0.689553
-8.047072 -6.820646 -0.206613 1151 0.796613 -0.229589 -0.641741
-8.043710 -6.817786 -0.203302 1201 0.844997 -0.188443 -0.594100
-8.040756 -6.815266 -0.199989 1231 0.887493 -0.152183 -0.546431
-8.039407 -6.814107 -0.196728 1269 0.906910 -0.135504 -0.499510
-8.037786 -6.812713 -0.193457 1293 0.930237 -0.115449 -0.452446
-8.035828 -6.811033 -0.190178 1307 0.958408 -0.091271 -0.405266
-8.034486 -6.809881 -0.186905 1323 0.977715 -0.074702 -0.358172
-8.033524 -6.809056 -0.183651 1339 0.991561 -0.062826 -0.311352
-8.032455 -6.808127 -0.180397 1359 1.006929 -0.049461 -0.264532
-8.031379 -6.807204 -0.177143 1355 1.022421 -0.036178 -0.217712
-8.031096 -6.806942 -0.173904 1367 1.026483 -0.032411 -0.171107
-8.031081 -6.806923 -0.170664 1373 1.026702 -0.032137 -0.124489
-8.031015 -6.806840 -0.167435 1379 1.027649 -0.030943 -0.078028
-8.030390 -6.806300 -0.164188 1363 1.036651 -0.023176 -0.031309
-8.030374 -6.806267 -0.160957 1367 1.036884 -0.022696 0.015181
-8.031025 -6.806810 -0.157734 1379 1.027512 -0.030511 0.061554
-8.031180 -6.806915 -0.154503 1365 1.025275 -0.032020 0.108044
-8.031716 -6.807362 -0.151281 1355 1.017564 -0.038456 0.154403
-8.032547 -6.808051 -0.148056 1351 1.005612 -0.048370 0.200806
-8.033140 -6.808538 -0.144832 1347 0.997077 -0.055375 0.247195
-8.034177 -6.809401 -0.141617 1339 0.982161 -0.067793 0.293454
-8.035438 -6.810451 -0.138399 1321 0.964021 -0.082901 0.339756
-8.037155 -6.811889 -0.135191 1313 0.939307 -0.103594 0.385914
-8.038371 -6.812898 -0.131964 1289 0.921812 -0.118112 0.432346
-8.039618 -6.813948 -0.128746 1251 0.903877 -0.133219 0.478648
-8.041286 -6.815339 -0.125538 1221 0.879864 -0.153233 0.524806
-8.043706 -6.817375 -0.122324 1195 0.845052 -0.182529 0.571051
-8.047202 -6.820327 -0.119135 1143 0.794747 -0.224999 0.616936
-8.051586 -6.824017 -0.115950 1067 0.731667 -0.278096 0.662763
-8.056251 -6.827963 -0.112764 957 0.664553 -0.334870 0.708605
-8.059020 -6.826517 -0.216602 941 0.624705 -0.314068 -0.785467
-8.052325 -6.820829 -0.213190 1077 0.721033 -0.232223 -0.736374
-8.048018 -6.817164 -0.209844 1151 0.783001 -0.179490 -0.688230
-8.044955 -6.814554 -0.206531 1203 0.827076 -0.141940 -0.640561
-8.043212 -6.813055 -0.203251 1247 0.852159 -0.120369 -0.593366
-8.041541 -6.811626 -0.199982 1275 0.876200 -0.099806 -0.546330
-8.039188 -6.809620 -0.196684 1297 0.910052 -0.070942 -0.498877
-8.037230 -6.807940 -0.193405 1319 0.938237 -0.046771 -0.451697
-8.035882 -6.806782 -0.190143 1335 0.957626 -0.030106 -0.404762
-8.034540 -6.805630 -0.186880 1355 0.976933 -0.013537 -0.357812
-8.033635 -6.804847 -0.183626 1369 0.989955 -0.002264 -0.310992
-8.033348 -6.804591 -0.180387 1379 0.994085 0.001413 -0.264388
-8.032994 -6.804272 -0.177149 1391 0.999176 0.006003 -0.217798
-8.032147 -6.803545 -0.173895 1387 1.011361 0.016466 -0.170978
-8.030906 -6.802476 -0.170641 1383 1.029227 0.031849 -0.124158
-8.030289 -6.801930 -0.167395 1391 1.038105 0.039704 -0.077453
-8.030939 -6.802473 -0.164171 1383 1.028747 0.031890 -0.031064
-8.031152 -6.802633 -0.160940 1381 1.025687 0.029591 0.015425
-8.030914 -6.802413 -0.157711 1385 1.029104 0.032754 0.061885
-8.031800 -6.803143 -0.154486 1383 1.016356 0.022250 0.108288
-8.032509 -6.803728 -0.151272 1373 1.006161 0.013832 0.154533
-8.032708 -6.803889 -0.148041 1373 1.003293 0.011520 0.201022
-8.033194 -6.804272 -0.144808 1379 0.996308 0.006003 0.247540
-8.033793 -6.804768 -0.141584 1373 0.987677 -0.001132 0.293929
-8.034832 -6.805630 -0.138368 1345 0.972734 -0.013537 0.340202
-8.036937 -6.807402 -0.135168 1343 0.942450 -0.039032 0.386245
-8.038132 -6.808403 -0.131950 1331 0.925256 -0.053433 0.432547
-8.038962 -6.809079 -0.128727 1301 0.913304 -0.063162 0.478921
-8.041554 -6.811268 -0.125522 1269 0.876008 -0.094654 0.525037
-8.044269 -6.813547 -0.122326 1245 0.836956 -0.127449 0.571022
-8.046203 -6.815166 -0.119106 1201 0.809128 -0.150742 0.617353
-8.049139 -6.817634 -0.115909 1131 0.766878 -0.186255 0.663353
-8.053409 -6.821239 -0.112715 1053 0.705445 -0.238124 0.709310
-8.059241 -6.826165 -0.109543 925 0.621521 -0.309004 0.754950
-8.057550 -6.821123 -0.216526 1033 0.645850 -0.236456 -0.784374
-8.052468 -6.816804 -0.213154 1123 0.718974 -0.174310 -0.735856
-8.048338 -6.813283 -0.209818 1181 0.778404 -0.123648 -0.687856
-8.044983 -6.810430 -0.206497 1237 0.826678 -0.082599 -0.640071
-8.042581 -6.808376 -0.203211 1277 0.861243 -0.053042 -0.592791
-8.040401 -6.806523 -0.199922 1293 0.892598 -0.026380 -0.545467
-8.038600 -6.804982 -0.196642 1321 0.918519 -0.004213 -0.498273
-8.037645 -6.804151 -0.193388 1343 0.932254 0.007746 -0.451453
-8.036862 -6.803470 -0.190132 1355 0.943520 0.017543 -0.404604
-8.035686 -6.802465 -0.186878 1371 0.960453 0.032006 -0.357784
-8.034509 -6.801445 -0.183615 1379 0.977386 0.046682 -0.310834
-8.033927 -6.800947 -0.180368 1397 0.985756 0.053845 -0.264115
-8.033539 -6.800594 -0.177132 1409 0.991341 0.058929 -0.217553
-8.032462 -6.799672 -0.173878 1389 1.006833 0.072191 -0.170733
-8.032008 -6.799270 -0.170629 1395 1.013365 0.077975 -0.123985
-8.031993 -6.799237 -0.167400 1409 1.013584 0.078455 -0.077525
-8.031762 -6.799023 -0.164162 1413 1.016905 0.081529 -0.030935
-8.031516 -6.798810 -0.160923 1407 1.020445 0.084596 0.015670
-8.032226 -6.799394 -0.157709 1399 1.010236 0.076191 0.061914
-8.032832 -6.799881 -0.154486 1403 1.001509 0.069186 0.108288
-8.032357 -6.799473 -0.151247 1397 1.008343 0.075059 0.154893
-8.033245 -6.800204 -0.148023 1389 0.995567 0.064541 0.201281
-8.034397 -6.801163 -0.144817 1381 0.978991 0.050737 0.247411
-8.034883 -6.801560 -0.141584 1385 0.972007 0.045029 0.293929
-8.035806 -6.802326 -0.138368 1369 0.958724 0.034003 0.340202
-8.037022 -6.803334 -0.135153 1359 0.941229 0.019499 0.386461
-8.038002 -6.804156 -0.131927 1341 0.927122 0.007677 0.432878
-8.039377 -6.805302 -0.128719 1317 0.907335 -0.008816 0.479037
-8.041640 -6.807200 -0.125505 1301 0.874773 -0.036123 0.525281
-8.044188 -6.809333 -0.122312 1279 0.838122 -0.066812 0.571224
-8.046510 -6.811286 -0.119099 1239 0.804709 -0.094915 0.617454
-8.048830 -6.813239 -0.115896 1175 0.771324 -0.123017 0.663540
-8.052046 -6.815935 -0.112688 1111 0.725053 -0.161809 0.709698
-8.056939 -6.820062 -0.109510 1021 0.654646 -0.221191 0.755425
-8.061704 -6.820752 -0.219837 975 0.586091 -0.231119 -0.832014
-8.056120 -6.816017 -0.216457 1091 0.666433 -0.162989 -0.783381
-8.051325 -6.811934 -0.213095 1163 0.735427 -0.104239 -0.735007
-8.048356 -6.809414 -0.209782 1217 0.778143 -0.067978 -0.687338
-8.045330 -6.806839 -0.206478 1259 0.821683 -0.030929 -0.639798
-8.042541 -6.804465 -0.203174 1291 0.861820 0.003232 -0.592258
-8.040303 -6.802543 -0.199886 1305 0.894011 0.030881 -0.544949
-8.038453 -6.800968 -0.196607 1329 0.920632 0.053543 -0.497769
-8.037498 -6.800149 -0.193352 1361 0.934368 0.065330 -0.450935
-8.036823 -6.799561 -0.190105 1383 0.944083 0.073790 -0.404215
-8.036034 -6.798874 -0.186849 1387 0.955444 0.083676 -0.357366
-8.034634 -6.797667 -0.183588 1391 0.975588 0.101041 -0.310445
-8.033557 -6.796745 -0.180334 1397 0.991080 0.114311 -0.263625
-8.033548 -6.796718 -0.177105 1413 0.991204 0.114695 -0.217165
-8.033153 -6.796372 -0.173866 1415 0.996898 0.119676 -0.170561
-8.032470 -6.795776 -0.170620 1409 1.006723 0.128252 -0.123855
-8.032232 -6.795555 -0.167381 1423 1.010140 0.131429 -0.077251
-8.032776 -6.796008 -0.164160 1429 1.002319 0.124911 -0.030906
-8.032487 -6.795739 -0.160921 1411 1.006476 0.128780 0.015698
-8.032414 -6.795664 -0.157692 1409 1.007519 0.129864 0.062159
-8.032843 -6.796006 -0.154468 1413 1.001358 0.124938 0.108547
-8.032884 -6.796027 -0.151239 1409 1.000768 0.124636 0.155008
-8.033256 -6.796328 -0.148006 1393 0.995416 0.120307 0.201526
-8.034135 -6.797051 -0.144791 1391 0.982765 0.109906 0.247785
-8.035180 -6.797921 -0.141575 1389 0.967726 0.097385 0.294058
-8.035938 -6.798554 -0.138351 1371 0.956817 0.088280 0.340447
-8.036653 -6.799132 -0.135128 1355 0.946539 0.079965 0.386821
-8.038521 -6.800703 -0.131927 1353 0.919658 0.057358 0.432878
-8.040298 -6.802184 -0.128717 1347 0.894080 0.036048 0.479065
-8.041443 -6.803136 -0.125490 1319 0.877614 0.022353 0.525497
-8.043713 -6.805040 -0.122288 1289 0.844955 -0.005043 0.571569
-8.046707 -6.807564 -0.119091 1263 0.801869 -0.041358 0.617569
-8.049350 -6.809787 -0.115887 1219 0.763845 -0.073344 0.663670
-8.052401 -6.812351 -0.112690 1163 0.719949 -0.110242 0.709670
-8.056233 -6.815575 -0.109487 1091 0.664800 -0.156629 0.755756
-8.060687 -6.815839 -0.219776 1037 0.600719 -0.160423 -0.831136
-8.055612 -6.811527 -0.216406 1113 0.673747 -0.098379 -0.782647
-8.051369 -6.807924 -0.213058 1187 0.734796 -0.046538 -0.734474
-8.048572 -6.805542 -0.209755 1241 0.775042 -0.012267 -0.686949
-8.046048 -6.803398 -0.206459 1279 0.811350 0.018579 -0.639525
-8.043423 -6.801156 -0.203163 1299 0.849127 0.050840 -0.592100
-8.041573 -6.799581 -0.199884 1321 0.875747 0.073502 -0.544920
-8.040388 -6.798568 -0.196621 1343 0.892790 0.088081 -0.497971
-8.039713 -6.797979 -0.193375 1379 0.902505 0.096554 -0.451266
-8.038142 -6.796633 -0.190103 1395 0.925105 0.115923 -0.404186
-8.036414 -6.795148 -0.186832 1393 0.949969 0.137288 -0.357122
-8.035057 -6.793996 -0.183571 1401 0.969496 0.153864 -0.310201
-8.034095 -6.793158 -0.180315 1405 0.983341 0.165919 -0.263352
-8.034037 -6.793097 -0.177086 1415 0.984178 0.166797 -0.216891
-8.033684 -6.792778 -0.173847 1419 0.989255 0.171387 -0.170287
-8.033058 -6.792238 -0.170601 1413 0.998257 0.179154 -0.123582
-8.032155 -6.791455 -0.167356 1419 1.011252 0.190426 -0.076891
-8.032031 -6.791331 -0.164127 1423 1.013035 0.192210 -0.030431
-8.032187 -6.791451 -0.160896 1419 1.010785 0.190481 0.016058
-8.032336 -6.791564 -0.157665 1419 1.008644 0.188855 0.062547
-8.032772 -6.791912 -0.154444 1417 1.002373 0.183846 0.108893
-8.033028 -6.792115 -0.151213 1413 0.998696 0.180924 0.155382
-8.033578 -6.792561 -0.147999 1409 0.990778 0.174509 0.201626
-8.034228 -6.793089 -0.144775 1407 0.981420 0.166914 0.248015
-8.035101 -6.793820 -0.141550 1401 0.968865 0.156396 0.294418
-8.035645 -6.794260 -0.138327 1381 0.961043 0.150063 0.340792
-8.037183 -6.795538 -0.135118 1373 0.938910 0.131676 0.386965
-8.039182 -6.797221 -0.131918 1371 0.910148 0.107456 0.433008
-8.040664 -6.798458 -0.128710 1351 0.888824 0.089659 0.479166
-8.042367 -6.799883 -0.125490 1335 0.864317 0.069159 0.525497
-8.044086 -6.801323 -0.122280 1309 0.839576 0.048438 0.571684
-8.046134 -6.803025 -0.119070 1283 0.810115 0.023952 0.617871
-8.048669 -6.805158 -0.115866 1243 0.773643 -0.006744 0.663972
-8.051497 -6.807535 -0.112659 1195 0.732943 -0.040946 0.710116
-8.054714 -6.810230 -0.109461 1125 0.686659 -0.079718 0.756130
-8.059658 -6.814406 -0.106274 1045 0.615525 -0.139806 0.801986
-8.066492 -6.820164 -0.103105 883 0.517193 -0.222659 0.847583
-8.066084 -6.816270 -0.223122 983 0.523066 -0.166625 -0.879280
-8.059770 -6.810924 -0.219717 1099 0.613919 -0.089707 -0.830287
-8.054966 -6.806848 -0.216354 1169 0.683037 -0.031060 -0.781899
-8.051790 -6.804140 -0.213032 1217 0.728731 0.007904 -0.734100
-8.049044 -6.801808 -0.209726 1261 0.768250 0.041461 -0.686532
-8.046691 -6.799802 -0.206440 1293 0.802102 0.070325 -0.639251
-8.044455 -6.797894 -0.203152 1321 0.834280 0.097776 -0.591942
-8.042554 -6.796270 -0.199873 1347 0.861628 0.121144 -0.544762
-8.040811 -6.794785 -0.196604 1365 0.886711 0.142509 -0.497726
-8.039741 -6.793869 -0.193338 1379 0.902107 0.155689 -0.450733
-8.038120 -6.792475 -0.190067 1387 0.925421 0.175744 -0.403668
-8.036427 -6.791038 -0.186808 1395 0.949791 0.196423 -0.356776
-8.035480 -6.790214 -0.183554 1409 0.963417 0.208278 -0.309956
-8.035069 -6.789854 -0.180315 1421 0.969317 0.213458 -0.263352
-8.034337 -6.789223 -0.177069 1425 0.979856 0.222535 -0.216647
-8.033375 -6.788384 -0.173815 1419 0.993701 0.234611 -0.169827
-8.033316 -6.788323 -0.170586 1435 0.994552 0.235489 -0.123366
-8.033243 -6.788248 -0.167354 1445 0.995595 0.236566 -0.076863
-8.032833 -6.787889 -0.164118 1437 1.001495 0.241732 -0.030302
-8.032824 -6.787862 -0.160889 1423 1.001632 0.242123 0.016159
-8.033640 -6.788538 -0.157663 1435 0.989887 0.232395 0.062576
-8.034420 -6.789177 -0.154449 1435 0.978662 0.223201 0.108821
-8.034561 -6.789283 -0.151218 1425 0.976631 0.221678 0.155310
-8.034438 -6.789159 -0.147989 1417 0.978401 0.223462 0.201770
-8.035145 -6.789744 -0.144766 1415 0.968233 0.215043 0.248144
-8.035911 -6.790371 -0.141550 1409 0.957215 0.206021 0.294418
-8.036734 -6.791052 -0.138327 1401 0.945373 0.196224 0.340792
-8.037992 -6.792103 -0.135118 1387 0.927273 0.181102 0.386965
-8.039260 -6.793146 -0.131903 1373 0.909023 0.166090 0.433224
-8.041136 -6.794724 -0.128702 1373 0.882032 0.143387 0.479281
-8.043069 -6.796343 -0.125490 1339 0.854218 0.120094 0.525497
-8.044894 -6.797859 -0.122280 1325 0.827954 0.098276 0.571684
-8.046764 -6.799430 -0.119070 1291 0.801045 0.075676 0.617871
-8.049090 -6.801375 -0.115858 1257 0.767577 0.047691 0.664087
-8.052028 -6.803842 -0.112661 1215 0.725314 0.012192 0.710087
-8.055251 -6.806545 -0.109463 1157 0.678934 -0.026696 0.756101
-8.059241 -6.809908 -0.106260 1073 0.621521 -0.075086 0.802188
-8.065416 -6.815110 -0.103086 959 0.532672 -0.149940 0.847857
-8.064837 -6.811077 -0.223043 1037 0.541001 -0.091910 -0.878143
-8.059238 -6.806341 -0.219664 1129 0.621562 -0.023766 -0.829525
-8.055495 -6.803155 -0.216326 1189 0.675421 0.022079 -0.781496
-8.052026 -6.800219 -0.213005 1231 0.725341 0.064322 -0.733712
-8.049401 -6.797976 -0.209709 1277 0.763104 0.096596 -0.686287
-8.046935 -6.795888 -0.206413 1311 0.798589 0.126640 -0.638863
-8.045148 -6.794361 -0.203133 1337 0.824304 0.148609 -0.591668
-8.043348 -6.792820 -0.199854 1359 0.850197 0.170783 -0.544489
-8.041054 -6.790870 -0.196577 1367 0.883212 0.198838 -0.497338
-8.038816 -6.788961 -0.193289 1375 0.915404 0.226309 -0.450028
-8.037631 -6.787949 -0.190035 1399 0.932460 0.240868 -0.403208
-8.036735 -6.787172 -0.186781 1413 0.945359 0.252051 -0.356388
-8.036382 -6.786854 -0.183542 1433 0.950436 0.256628 -0.309784
-8.036272 -6.786744 -0.180313 1449 0.952014 0.258206 -0.263323
-8.035476 -6.786066 -0.177057 1447 0.963472 0.267962 -0.216474
-8.034737 -6.785414 -0.173813 1429 0.974106 0.277341 -0.169798
-8.034892 -6.785533 -0.170591 1445 0.971870 0.275632 -0.123438
-8.034820 -6.785459 -0.167362 1465 0.972912 0.276696 -0.076978
-8.034366 -6.785057 -0.164114 1451 0.979444 0.282480 -0.030244
-8.034127 -6.784836 -0.160885 1443 0.982875 0.285663 0.016216
-8.033948 -6.784670 -0.157646 1437 0.985454 0.288051 0.062821
-8.034432 -6.785068 -0.154434 1435 0.978484 0.282322 0.109037
-8.035026 -6.785556 -0.151211 1417 0.969949 0.275303 0.155411
-8.035520 -6.785946 -0.147987 1429 0.962841 0.269691 0.201799
-8.036119 -6.786441 -0.144764 1435 0.954210 0.262569 0.248173
-8.036927 -6.787109 -0.141550 1427 0.942587 0.252957 0.294418
-8.038145 -6.788116 -0.138334 1419 0.925064 0.238467 0.340691
-8.039362 -6.789126 -0.135116 1409 0.907555 0.223935 0.386993
-8.040557 -6.790127 -0.131910 1389 0.890361 0.209534 0.433123
-8.042110 -6.791420 -0.128691 1379 0.868008 0.190927 0.479439
-8.043763 -6.792796 -0.125482 1369 0.844228 0.171126 0.525612
-8.045467 -6.794222 -0.122272 1343 0.819707 0.150612 0.571799
-8.047401 -6.795841 -0.119062 1319 0.791879 0.127312 0.617986
-8.050122 -6.798113 -0.115867 1283 0.752730 0.094626 0.663957
-8.052435 -6.800059 -0.112654 1239 0.719455 0.066627 0.710188
-8.055099 -6.802289 -0.109449 1181 0.681129 0.034538 0.756303
-8.059441 -6.805937 -0.106254 1121 0.618653 -0.017948 0.802274
-8.065272 -6.810848 -0.103083 1021 0.534744 -0.088616 0.847900
-8.064769 -6.806721 -0.223009 1057 0.541989 -0.029235 -0.877654
-8.060188 -6.802834 -0.219644 1149 0.607895 0.026696 -0.829237
-8.056890 -6.800036 -0.216324 1213 0.655360 0.066956 -0.781467
-8.053527 -6.797189 -0.213003 1257 0.703743 0.107916 -0.733683
-8.050351 -6.794482 -0.209690 1289 0.749437 0.146866 -0.686014
-8.047655 -6.792199 -0.206396 1311 0.788229 0.179716 -0.638618
-8.046371 -6.791089 -0.203123 1347 0.806699 0.195688 -0.591525
-8.045195 -6.790083 -0.199869 1369 0.823632 0.210165 -0.544705
-8.043121 -6.788321 -0.196581 1375 0.853463 0.235516 -0.497395
-8.041435 -6.786877 -0.193310 1391 0.877723 0.256291 -0.450330
-8.040638 -6.786198 -0.190065 1417 0.889195 0.266061 -0.403640
-8.039405 -6.785137 -0.186811 1421 0.906937 0.281327 -0.356820
-8.038220 -6.784124 -0.183548 1431 0.923980 0.295907 -0.309870
-8.037431 -6.783438 -0.180303 1451 0.935342 0.305773 -0.263179
-8.036633 -6.782745 -0.177057 1447 0.946827 0.315749 -0.216474
-8.036295 -6.782441 -0.173818 1443 0.951685 0.320119 -0.169870
-8.035942 -6.782137 -0.170582 1447 0.956762 0.324496 -0.123309
-8.035598 -6.781826 -0.167343 1457 0.961715 0.328970 -0.076705
-8.035696 -6.781890 -0.164122 1455 0.960302 0.328050 -0.030359
-8.036024 -6.782148 -0.160890 1465 0.955582 0.324338 0.016144
-8.036173 -6.782259 -0.157669 1457 0.953441 0.322740 0.062490
-8.036379 -6.782414 -0.154438 1451 0.950477 0.320510 0.108979
-8.036535 -6.782534 -0.151209 1453 0.948227 0.318781 0.155439
-8.037301 -6.783160 -0.147993 1461 0.937208 0.309773 0.201713
-8.038058 -6.783794 -0.144779 1447 0.926313 0.300654 0.247957
-8.038321 -6.783989 -0.141548 1435 0.922539 0.297848 0.294447
-8.038858 -6.784436 -0.138325 1421 0.914800 0.291413 0.340821
-8.039909 -6.785297 -0.135109 1409 0.899679 0.279029 0.387094
-8.041177 -6.786355 -0.131903 1401 0.881442 0.263804 0.433224
-8.042881 -6.787780 -0.128693 1391 0.856921 0.243304 0.479411
-8.044706 -6.789295 -0.125482 1365 0.830657 0.221499 0.525612
-8.046581 -6.790873 -0.122272 1339 0.803680 0.198796 0.571799
-8.048796 -6.792722 -0.119070 1329 0.771818 0.172190 0.617871
-8.050729 -6.794342 -0.115860 1293 0.744003 0.148883 0.664058
-8.053220 -6.796419 -0.112656 1253 0.708162 0.118997 0.710159
-8.056379 -6.799073 -0.109447 1215 0.662701 0.080808 0.756332
-8.060047 -6.802151 -0.106256 1149 0.609926 0.036521 0.802245
-8.064603 -6.805979 -0.103062 1071 0.544376 -0.018552 0.848202
-8.071115 -6.811452 -0.099886 921 0.450683 -0.097302 0.893900
-8.064692 -6.802274 -0.222967 1091 0.543100 0.034751 -0.877050
-8.060112 -6.798400 -0.219602 1171 0.608993 0.090496 -0.828633
-8.056140 -6.795033 -0.216265 1221 0.666145 0.138941 -0.780618
-8.052670 -6.792082 -0.212944 1259 0.716079 0.181404 -0.732834
-8.050819 -6.790507 -0.209663 1293 0.742700 0.204066 -0.685625
-8.049593 -6.789453 -0.206400 1333 0.760346 0.219228 -0.638676
-8.047520 -6.787691 -0.203123 1353 0.790178 0.244580 -0.591525
-8.045885 -6.786295 -0.199842 1377 0.813697 0.264669 -0.544316
-8.044099 -6.784769 -0.196571 1387 0.839398 0.286624 -0.497251
-8.042406 -6.783333 -0.193300 1393 0.863755 0.307289 -0.450186
-8.041178 -6.782279 -0.190048 1423 0.881428 0.322452 -0.403395
-8.040382 -6.781586 -0.186792 1437 0.892872 0.332421 -0.356546
-8.039650 -6.780955 -0.183546 1455 0.903411 0.341505 -0.309841
-8.038910 -6.780317 -0.180302 1455 0.914059 0.350685 -0.263165
-8.038457 -6.779915 -0.177063 1451 0.920577 0.356468 -0.216561
-8.037545 -6.779140 -0.173818 1449 0.933695 0.367617 -0.169870
-8.037257 -6.778870 -0.170580 1461 0.937839 0.371501 -0.123280
-8.037298 -6.778893 -0.167351 1471 0.937249 0.371171 -0.076819
-8.037455 -6.779012 -0.164129 1473 0.934999 0.369456 -0.030460
-8.037553 -6.779076 -0.160898 1481 0.933585 0.368537 0.016029
-8.037595 -6.779098 -0.157669 1477 0.932982 0.368221 0.062490
-8.037536 -6.779023 -0.154438 1455 0.933832 0.369298 0.108979
-8.037677 -6.779129 -0.151209 1449 0.931802 0.367775 0.155439
-8.038385 -6.779713 -0.147993 1455 0.921606 0.359371 0.201713
-8.039372 -6.780527 -0.144779 1449 0.907404 0.347659 0.247957
-8.039478 -6.780599 -0.141548 1437 0.905881 0.346623 0.294447
-8.039679 -6.780760 -0.138327 1413 0.902999 0.344311 0.340792
-8.041217 -6.782039 -0.135118 1411 0.880866 0.325903 0.386965
-8.042942 -6.783471 -0.131908 1413 0.856043 0.305299 0.433152
-8.044475 -6.784757 -0.128700 1397 0.833992 0.286795 0.479310
-8.046357 -6.786327 -0.125490 1377 0.806905 0.264209 0.525497
-8.048405 -6.788031 -0.122288 1363 0.777444 0.239688 0.571569
-8.050561 -6.789837 -0.119076 1341 0.746418 0.213705 0.617785
-8.052608 -6.791540 -0.115866 1311 0.716971 0.189198 0.663972
-8.055480 -6.793958 -0.112669 1275 0.675641 0.154406 0.709972
-8.058475 -6.796466 -0.109463 1239 0.632554 0.118324 0.756101
-8.061533 -6.799023 -0.106266 1181 0.588547 0.081529 0.802101
-8.065974 -6.802754 -0.103071 1099 0.524644 0.027849 0.848073
-8.071376 -6.807290 -0.099880 965 0.446923 -0.037420 0.893986
-8.066455 -6.799623 -0.222971 1119 0.517729 0.072898 -0.877107
-8.061924 -6.795784 -0.219616 1185 0.582921 0.128135 -0.828834
-8.058066 -6.792514 -0.216278 1237 0.638427 0.175188 -0.780805
-8.054761 -6.789709 -0.212957 1275 0.685987 0.215544 -0.733021
-8.052353 -6.787662 -0.209671 1303 0.720635 0.244998 -0.685741
-8.050108 -6.785761 -0.206383 1337 0.752936 0.272353 -0.638431
-8.048265 -6.784192 -0.203104 1361 0.779447 0.294926 -0.591251
-8.046752 -6.782902 -0.199831 1375 0.801224 0.313491 -0.544158
-8.045288 -6.781646 -0.196569 1403 0.822287 0.331563 -0.497222
-8.043888 -6.780453 -0.193308 1415 0.842431 0.348722 -0.450302
-8.042260 -6.779065 -0.190037 1429 0.865854 0.368695 -0.403237
-8.041248 -6.778191 -0.186783 1431 0.880413 0.381271 -0.356417
-8.040624 -6.777651 -0.183546 1447 0.889401 0.389044 -0.309841
-8.039990 -6.777104 -0.180300 1451 0.898512 0.396914 -0.263136
-8.039589 -6.776751 -0.177061 1461 0.904289 0.401991 -0.216532
-8.039193 -6.776392 -0.173824 1463 0.909984 0.407157 -0.169956
-8.039233 -6.776413 -0.170593 1465 0.909407 0.406855 -0.123467
-8.039162 -6.776339 -0.167364 1465 0.910437 0.407919 -0.077007
-8.038651 -6.775896 -0.164127 1479 0.917778 0.414293 -0.030431
-8.038362 -6.775627 -0.160889 1463 0.921949 0.418162 0.016159
-8.038784 -6.775975 -0.157667 1469 0.915870 0.413154 0.062519
-8.038503 -6.775712 -0.154428 1461 0.919918 0.416941 0.109123
-8.038766 -6.775922 -0.151207 1465 0.916131 0.413922 0.155468
-8.040140 -6.777069 -0.147999 1467 0.896358 0.397415 0.201626
-8.040411 -6.777272 -0.144777 1439 0.892461 0.394492 0.247986
-8.040609 -6.777433 -0.141546 1433 0.889607 0.392180 0.294475
-8.041484 -6.778150 -0.138332 1425 0.877024 0.381861 0.340720
-8.042700 -6.779158 -0.135115 1419 0.859528 0.367357 0.387008
-8.044468 -6.780632 -0.131916 1421 0.834088 0.346149 0.433037
-8.045564 -6.781536 -0.128698 1405 0.818321 0.333141 0.479339
-8.047224 -6.782919 -0.125490 1381 0.794431 0.313244 0.525497
-8.049816 -6.785094 -0.122286 1367 0.757135 0.281951 0.571598
-8.051585 -6.786568 -0.119076 1349 0.731681 0.260737 0.617785
-8.053073 -6.787798 -0.115867 1323 0.710275 0.243043 0.663957
-8.055515 -6.789841 -0.112654 1293 0.675133 0.213644 0.710188
-8.058897 -6.792683 -0.109465 1259 0.626475 0.172752 0.756072
-8.062456 -6.795657 -0.106266 1203 0.575265 0.129960 0.802101
-8.066790 -6.799297 -0.103071 1129 0.512912 0.077591 0.848073
-8.071962 -6.803639 -0.099882 1003 0.438484 0.015115 0.893957
-8.067437 -6.796397 -0.222959 1139 0.503595 0.119312 -0.876935
-8.063465 -6.793044 -0.219612 1197 0.560747 0.167559 -0.828776
-8.059551 -6.789718 -0.216274 1241 0.617062 0.215414 -0.780748
-8.056582 -6.787213 -0.212971 1283 0.659778 0.251461 -0.733222
-8.054510 -6.785450 -0.209682 1315 0.689596 0.276826 -0.685899
-8.052165 -6.783452 -0.206396 1349 0.723338 0.305574 -0.638618
-8.050200 -6.781779 -0.203117 1361 0.751605 0.329649 -0.591438
-8.048243 -6.780113 -0.199839 1387 0.779776 0.353614 -0.544273
-8.046772 -6.778865 -0.196566 1407 0.800936 0.371576 -0.497179
-8.045480 -6.777762 -0.193313 1409 0.819529 0.387446 -0.450374
-8.043630 -6.776186 -0.190033 1415 0.846149 0.410121 -0.403179
-8.042955 -6.775598 -0.186798 1443 0.855851 0.418581 -0.356633
-8.042438 -6.775148 -0.183550 1451 0.863302 0.425057 -0.309899
-8.041812 -6.774607 -0.180303 1453 0.872303 0.432838 -0.263179
-8.040851 -6.773782 -0.177059 1457 0.886135 0.444714 -0.216503
-8.040398 -6.773381 -0.173822 1451 0.892653 0.450477 -0.169927
-8.040661 -6.773591 -0.170601 1469 0.888866 0.447459 -0.123582
-8.040488 -6.773418 -0.167362 1467 0.891349 0.449949 -0.076978
-8.040414 -6.773343 -0.164131 1475 0.892420 0.451026 -0.030489
-8.040291 -6.773221 -0.160902 1475 0.894190 0.452783 0.015972
-8.040555 -6.773430 -0.157680 1465 0.890389 0.449778 0.062331
-8.040481 -6.773355 -0.154442 1475 0.891459 0.450855 0.108921
-8.040630 -6.773468 -0.151220 1465 0.889305 0.449229 0.155281
-8.041568 -6.774233 -0.148006 1459 0.875816 0.438224 0.201526
-8.041839 -6.774450 -0.144785 1449 0.871919 0.435102 0.247871
-8.042818 -6.775256 -0.141569 1441 0.857827 0.423500 0.294144
-8.044035 -6.776265 -0.138351 1439 0.840317 0.408982 0.340447
-8.044628 -6.776752 -0.135128 1425 0.831782 0.401977 0.386821
-8.046009 -6.777892 -0.131922 1425 0.811913 0.385573 0.432950
-8.047721 -6.779324 -0.128712 1403 0.787282 0.364969 0.479137
-8.048873 -6.780271 -0.125496 1369 0.770706 0.351343 0.525411
-8.050692 -6.781793 -0.122286 1367 0.744538 0.329443 0.571598
-8.052632 -6.783405 -0.119083 1345 0.716614 0.306253 0.617684
-8.054958 -6.785350 -0.115871 1315 0.683146 0.278267 0.663900
-8.057286 -6.787296 -0.112669 1293 0.649651 0.250267 0.709972
-8.059155 -6.788853 -0.109457 1241 0.622756 0.227860 0.756188
-8.063103 -6.792160 -0.106256 1203 0.565961 0.180279 0.802245
-8.067837 -6.796134 -0.103069 1139 0.497845 0.123099 0.848101
-8.073683 -6.801044 -0.099897 1029 0.413730 0.052452 0.893742
-8.069183 -6.793661 -0.222965 1149 0.478470 0.158680 -0.877021
-8.064703 -6.789870 -0.219610 1191 0.542936 0.213232 -0.828748
-8.060846 -6.786601 -0.216272 1241 0.598427 0.260264 -0.780719
-8.058149 -6.784317 -0.212967 1291 0.637233 0.293128 -0.733165
-8.056357 -6.782797 -0.209688 1333 0.663016 0.315001 -0.685985
-8.054119 -6.780889 -0.206400 1357 0.695222 0.342451 -0.638676
-8.052161 -6.779223 -0.203121 1365 0.723393 0.366424 -0.591496
-8.050591 -6.777892 -0.199859 1383 0.745979 0.385573 -0.544560
-8.048848 -6.776407 -0.196579 1413 0.771063 0.406945 -0.497366
-8.046768 -6.774637 -0.193302 1405 0.800990 0.432406 -0.450215
-8.045025 -6.773152 -0.190040 1407 0.826074 0.453777 -0.403280
-8.044408 -6.772619 -0.186794 1441 0.834952 0.461448 -0.356575
-8.044062 -6.772308 -0.183555 1453 0.839933 0.465921 -0.309971
-8.043494 -6.771823 -0.180309 1469 0.848098 0.472899 -0.263266
-8.043206 -6.771554 -0.177082 1475 0.852242 0.476769 -0.216834
-8.042696 -6.771111 -0.173834 1469 0.859583 0.483142 -0.170100
-8.042229 -6.770710 -0.170597 1469 0.866307 0.488912 -0.123525
-8.042328 -6.770773 -0.167375 1477 0.864880 0.488007 -0.077165
-8.042369 -6.770795 -0.164146 1479 0.864290 0.487691 -0.030705
-8.042138 -6.770582 -0.160908 1479 0.867610 0.490751 0.015885
-8.041620 -6.770132 -0.157671 1461 0.875061 0.497228 0.062461
-8.041934 -6.770376 -0.154449 1461 0.870547 0.493715 0.108821
-8.042534 -6.770870 -0.151235 1451 0.861916 0.486607 0.155065
-8.042634 -6.770935 -0.148004 1435 0.860475 0.485674 0.201555
-8.043398 -6.771561 -0.144791 1453 0.849484 0.476666 0.247785
-8.044558 -6.772514 -0.141575 1451 0.832798 0.462957 0.294058
-8.045774 -6.773522 -0.138367 1455 0.815289 0.448453 0.340216
-8.046812 -6.774384 -0.135151 1433 0.800359 0.436049 0.386490
-8.047627 -6.775060 -0.131927 1427 0.788627 0.426320 0.432878
-8.048730 -6.775970 -0.128712 1401 0.772764 0.413229 0.479137
-8.050383 -6.777347 -0.125502 1377 0.748984 0.393415 0.525324
-8.052717 -6.779286 -0.122299 1381 0.715393 0.365518 0.571411
-8.054486 -6.780759 -0.119089 1343 0.689939 0.344324 0.617598
-8.056361 -6.782323 -0.115879 1315 0.662961 0.321820 0.663785
-8.059018 -6.784546 -0.112675 1293 0.624732 0.289835 0.709885
-8.061403 -6.786534 -0.109470 1255 0.590414 0.261231 0.756001
-8.064060 -6.788757 -0.106266 1211 0.552184 0.229245 0.802101
-8.067670 -6.791780 -0.103065 1141 0.500247 0.185747 0.848159
-8.072792 -6.796072 -0.099878 1033 0.426546 0.123991 0.894015
-8.070586 -6.790620 -0.222954 1151 0.458285 0.202440 -0.876863
-8.066392 -6.787078 -0.219618 1211 0.518634 0.253403 -0.828863
-8.063080 -6.784281 -0.216295 1261 0.566290 0.293649 -0.781050
-8.060512 -6.782095 -0.212990 1293 0.603244 0.325100 -0.733496
-8.057875 -6.779868 -0.209694 1325 0.641185 0.357141 -0.686071
-8.055515 -6.777869 -0.206398 1351 0.675133 0.385902 -0.638647
-8.053105 -6.775822 -0.203112 1369 0.709808 0.415356 -0.591366
-8.051371 -6.774343 -0.199840 1385 0.734768 0.436639 -0.544287
-8.050079 -6.773241 -0.196579 1409 0.753348 0.452494 -0.497366
-8.048057 -6.771526 -0.193300 1417 0.782452 0.477173 -0.450186
-8.047495 -6.771035 -0.190063 1427 0.790534 0.484233 -0.403611
-8.047043 -6.770634 -0.186815 1453 0.797038 0.490003 -0.356877
-8.045909 -6.769669 -0.183561 1459 0.813354 0.503890 -0.310057
-8.045564 -6.769359 -0.180323 1467 0.818321 0.508350 -0.263467
-8.045326 -6.769152 -0.177095 1477 0.821738 0.511327 -0.217021
-8.044135 -6.768132 -0.173841 1473 0.838877 0.526003 -0.170201
-8.043524 -6.767592 -0.170595 1469 0.847672 0.533776 -0.123496
-8.044226 -6.768170 -0.167381 1489 0.837573 0.525461 -0.077251
-8.044266 -6.768191 -0.164150 1499 0.836997 0.525159 -0.030762
-8.043698 -6.767694 -0.160913 1493 0.845161 0.532308 0.015813
-8.043353 -6.767382 -0.157677 1479 0.850129 0.536795 0.062375
-8.043502 -6.767495 -0.154455 1469 0.847988 0.535169 0.108734
-8.044044 -6.767933 -0.151232 1459 0.840194 0.528871 0.155108
-8.045090 -6.768803 -0.148027 1463 0.825141 0.516349 0.201224
-8.046077 -6.769617 -0.144812 1463 0.810939 0.504638 0.247483
-8.047293 -6.770625 -0.141594 1457 0.793443 0.490134 0.293785
-8.047550 -6.770829 -0.138372 1451 0.789738 0.487197 0.340144
-8.047534 -6.770795 -0.135143 1431 0.789972 0.487691 0.386605
-8.048248 -6.771372 -0.131920 1415 0.779694 0.479389 0.432979
-8.050125 -6.772936 -0.128719 1395 0.752689 0.456885 0.479037
-8.052402 -6.774833 -0.125517 1389 0.719935 0.429586 0.525109
-8.053990 -6.776161 -0.122307 1385 0.697074 0.410478 0.571295
-8.056046 -6.777871 -0.119097 1347 0.667503 0.385874 0.617483
-8.058037 -6.779532 -0.115885 1327 0.638852 0.361978 0.663698
-8.060027 -6.781193 -0.112684 1289 0.610214 0.338081 0.709756
-8.063358 -6.783972 -0.109486 1261 0.562284 0.298095 0.755770
-8.066574 -6.786668 -0.106277 1201 0.516013 0.259303 0.801943
-8.070076 -6.789600 -0.103079 1139 0.465626 0.217115 0.847957
-8.074919 -6.793649 -0.099892 1047 0.395946 0.158852 0.893814
-8.080764 -6.798560 -0.096708 895 0.311845 0.088191 0.939627
-8.072046 -6.787633 -0.222961 1171 0.437277 0.245417 -0.876963
-8.068125 -6.784329 -0.219612 1213 0.493701 0.292956 -0.828776
-8.065435 -6.782053 -0.216308 1259 0.532397 0.325704 -0.781237
-8.062023 -6.779158 -0.212997 1283 0.581494 0.367357 -0.733597
-8.058990 -6.776604 -0.209684 1307 0.625144 0.404104 -0.685927
-8.057542 -6.775362 -0.206411 1341 0.645974 0.421977 -0.638834
-8.056020 -6.774065 -0.203150 1367 0.667874 0.440639 -0.591913
-8.053942 -6.772309 -0.199861 1391 0.697774 0.465908 -0.544589
-8.051926 -6.770588 -0.196583 1407 0.726782 0.490669 -0.497424
-8.050576 -6.769443 -0.193331 1419 0.746199 0.507142 -0.450633
-8.049672 -6.768660 -0.190075 1427 0.759207 0.518408 -0.403784
-8.048654 -6.767794 -0.186821 1437 0.773862 0.530867 -0.356963
-8.048366 -6.767539 -0.183582 1461 0.778006 0.534538 -0.310359
-8.048578 -6.767700 -0.180363 1483 0.774946 0.532219 -0.264043
-8.048018 -6.767208 -0.177114 1483 0.783001 0.539299 -0.217294
-8.046992 -6.766334 -0.173870 1471 0.797766 0.551876 -0.170618
-8.047091 -6.766397 -0.170641 1483 0.796352 0.550970 -0.124158
-8.046917 -6.766239 -0.167412 1487 0.798850 0.553241 -0.077697
-8.046507 -6.765880 -0.164173 1493 0.804750 0.558407 -0.031093
-8.046662 -6.765985 -0.160942 1497 0.802514 0.556898 0.015396
-8.046648 -6.765966 -0.157713 1489 0.802719 0.557172 0.061857
-8.046294 -6.765648 -0.154486 1471 0.807810 0.561749 0.108288
-8.046780 -6.766045 -0.151262 1467 0.800826 0.556033 0.154677
-8.047388 -6.766533 -0.148039 1455 0.792071 0.549015 0.201051
-8.047372 -6.766500 -0.144810 1443 0.792304 0.549488 0.247511
-8.048137 -6.767126 -0.141596 1449 0.781299 0.540479 0.293756
-8.049067 -6.767898 -0.138380 1435 0.767920 0.529372 0.340029
-8.049775 -6.768483 -0.135157 1425 0.757725 0.520953 0.386403
-8.051149 -6.769616 -0.131948 1427 0.737952 0.504652 0.432576
-8.052588 -6.770812 -0.128740 1401 0.717245 0.487444 0.478734
-8.054578 -6.772473 -0.125528 1393 0.688621 0.463547 0.524950
-8.056296 -6.773898 -0.122320 1375 0.663895 0.443040 0.571109
-8.057672 -6.775031 -0.119102 1349 0.644108 0.426738 0.617411
-8.059999 -6.776977 -0.115900 1329 0.610612 0.398739 0.663483
-8.062827 -6.779339 -0.112703 1299 0.569927 0.364756 0.709483
-8.065206 -6.781320 -0.109489 1261 0.535704 0.336249 0.755727
-8.067087 -6.782890 -0.106279 1195 0.508631 0.313663 0.801914
-8.071041 -6.786190 -0.103079 1137 0.451740 0.266178 0.847957
-8.076722 -6.790955 -0.099907 1057 0.369998 0.197616 0.893598
-8.083965 -6.797026 -0.096737 907 0.265780 0.110263 0.939209
-8.074080 -6.785219 -0.222975 1167 0.408008 0.280147 -0.877165
-8.070274 -6.782012 -0.219635 1217 0.462772 0.326294 -0.829107
-8.066903 -6.779159 -0.216314 1257 0.511279 0.367343 -0.781323
-8.064222 -6.776889 -0.213009 1293 0.549852 0.400008 -0.733769
-8.062423 -6.775362 -0.209730 1323 0.575745 0.421977 -0.686589
-8.060178 -6.773461 -0.206442 1347 0.608046 0.449332 -0.639280
-8.058499 -6.772039 -0.203171 1381 0.632197 0.469791 -0.592215
-8.056427 -6.770276 -0.199892 1385 0.662015 0.495156 -0.545035
-8.054348 -6.768507 -0.196615 1403 0.691928 0.520610 -0.497884
-8.052770 -6.767168 -0.193344 1421 0.714638 0.539876 -0.450820
-8.051477 -6.766065 -0.190081 1437 0.733231 0.555745 -0.403870
-8.050681 -6.765386 -0.186834 1449 0.744689 0.565515 -0.357150
-8.050120 -6.764894 -0.183597 1445 0.752758 0.572596 -0.310575
-8.049710 -6.764534 -0.180361 1465 0.758658 0.577776 -0.264014
-8.049200 -6.764091 -0.177112 1461 0.765999 0.584150 -0.217266
-8.048905 -6.763829 -0.173885 1469 0.770240 0.587916 -0.170834
-8.048272 -6.763282 -0.170639 1485 0.779351 0.595793 -0.124129
-8.047712 -6.762790 -0.167402 1471 0.787406 0.602866 -0.077553
-8.047417 -6.762528 -0.164163 1473 0.791659 0.606640 -0.030949
-8.047458 -6.762550 -0.160932 1477 0.791069 0.606324 0.015540
-8.047944 -6.762933 -0.157720 1473 0.784071 0.600815 0.061756
-8.048437 -6.763338 -0.154497 1473 0.776977 0.594983 0.108130
-8.048815 -6.763630 -0.151276 1467 0.771543 0.590784 0.154475
-8.048741 -6.763555 -0.148046 1451 0.772600 0.591861 0.200950
-8.049006 -6.763765 -0.144815 1439 0.768785 0.588842 0.247439
-8.049656 -6.764295 -0.141601 1441 0.759440 0.581213 0.293684
-8.050758 -6.765205 -0.138386 1441 0.743578 0.568122 0.339943
-8.052304 -6.766492 -0.135176 1441 0.721335 0.549605 0.386130
-8.053069 -6.767118 -0.131962 1423 0.710330 0.540596 0.432375
-8.054165 -6.768023 -0.128746 1411 0.694563 0.527574 0.478648
-8.055438 -6.769072 -0.125530 1401 0.676244 0.512480 0.524921
-8.057199 -6.770539 -0.122320 1369 0.650914 0.491376 0.571109
-8.059591 -6.772533 -0.119116 1353 0.616485 0.462683 0.617209
-8.062026 -6.774555 -0.115913 1339 0.581453 0.433586 0.663296
-8.064690 -6.776786 -0.112707 1301 0.543128 0.401490 0.709425
-8.067297 -6.778960 -0.109503 1259 0.505612 0.370204 0.755526
-8.069953 -6.781170 -0.106298 1205 0.467396 0.338410 0.801641
-8.073792 -6.784386 -0.103107 1137 0.412152 0.292133 0.847555
-8.078692 -6.788477 -0.099920 1049 0.341649 0.233273 0.893411
-8.077076 -6.783694 -0.223013 1173 0.364907 0.302095 -0.877712
-8.073040 -6.780293 -0.219665 1219 0.422979 0.351028 -0.829539
-8.069742 -6.777495 -0.216343 1265 0.470429 0.391288 -0.781740
-8.066265 -6.774566 -0.213022 1289 0.520459 0.433428 -0.733956
-8.064243 -6.772852 -0.209743 1327 0.549550 0.458093 -0.686776
-8.062959 -6.771757 -0.206470 1347 0.568033 0.473846 -0.639683
-8.061660 -6.770646 -0.203209 1367 0.586722 0.489832 -0.592762
-8.059417 -6.768745 -0.199921 1383 0.618996 0.517187 -0.545453
-8.056891 -6.766614 -0.196634 1407 0.655332 0.547848 -0.498158
-8.055486 -6.765414 -0.193373 1423 0.675558 0.565110 -0.451237
-8.054244 -6.764360 -0.190109 1433 0.693424 0.580280 -0.404273
-8.053176 -6.763445 -0.186865 1445 0.708793 0.593446 -0.357597
-8.052321 -6.762711 -0.183611 1447 0.721088 0.604005 -0.310776
-8.051645 -6.762121 -0.180364 1457 0.730816 0.612492 -0.264057
-8.051186 -6.761727 -0.177126 1467 0.737430 0.618166 -0.217467
-8.050554 -6.761180 -0.173891 1473 0.746514 0.626036 -0.170920
-8.049986 -6.760682 -0.170643 1481 0.754693 0.633199 -0.124186
-8.049699 -6.760426 -0.167415 1485 0.758823 0.636883 -0.077740
-8.049288 -6.760066 -0.164177 1475 0.764737 0.642063 -0.031151
-8.049222 -6.759998 -0.160948 1471 0.765684 0.643044 0.015310
-8.050159 -6.760763 -0.157732 1469 0.752195 0.632032 0.061583
-8.050867 -6.761348 -0.154518 1475 0.742014 0.623621 0.107828
-8.051023 -6.761453 -0.151287 1469 0.739777 0.622104 0.154317
-8.051172 -6.761566 -0.148067 1457 0.737622 0.620478 0.200648
-8.051723 -6.762012 -0.144844 1447 0.729705 0.614063 0.247022
-8.052537 -6.762687 -0.141630 1449 0.717986 0.604348 0.293267
-8.053525 -6.763487 -0.138414 1443 0.703770 0.592842 0.339540
-8.054454 -6.764259 -0.135198 1435 0.690405 0.581734 0.385814
-8.055062 -6.764746 -0.131975 1417 0.681651 0.574723 0.432188
-8.056716 -6.766123 -0.128767 1405 0.657857 0.554915 0.478346
-8.058205 -6.767353 -0.125559 1387 0.636437 0.537214 0.524504
-8.059528 -6.768452 -0.122341 1363 0.617391 0.521399 0.570806
-8.062136 -6.770627 -0.119137 1353 0.579875 0.490106 0.616907
-8.064692 -6.772753 -0.115932 1337 0.543100 0.459520 0.663022
-8.066567 -6.774317 -0.112722 1301 0.516109 0.437016 0.709209
-8.069175 -6.776491 -0.109518 1257 0.478594 0.405730 0.755310
-8.072454 -6.779221 -0.106319 1205 0.431404 0.366451 0.801339
-8.076687 -6.782764 -0.103126 1155 0.370506 0.315474 0.847281
-8.081983 -6.787196 -0.099947 1065 0.294308 0.251701 0.893022
-8.079555 -6.781654 -0.223034 1179 0.329244 0.331446 -0.878014
-8.075583 -6.778301 -0.219696 1225 0.386382 0.379693 -0.829985
-8.072543 -6.775740 -0.216383 1267 0.430128 0.416536 -0.782316
-8.068793 -6.772575 -0.213053 1297 0.484082 0.462079 -0.734402
-8.066328 -6.770485 -0.209757 1329 0.519554 0.492151 -0.686978
-8.064980 -6.769341 -0.206484 1345 0.538956 0.508610 -0.639884
-8.062347 -6.767107 -0.203190 1363 0.576829 0.540754 -0.592489
-8.059867 -6.765018 -0.199903 1379 0.612520 0.570812 -0.545194
-8.058977 -6.764248 -0.196648 1407 0.625322 0.581892 -0.498359
-8.058180 -6.763569 -0.193403 1425 0.636794 0.591662 -0.451669
-8.056773 -6.762369 -0.190140 1431 0.657034 0.608925 -0.404719
-8.055812 -6.761544 -0.186886 1441 0.670865 0.620794 -0.357899
