93
-26.427816 -22.391569 -0.167257 1011 0.979938 -0.348784 0.006924
-26.427868 -22.391558 -0.156618 1001 0.979197 -0.348619 0.160003
-26.431688 -22.381653 -0.188566 1043 0.924227 -0.206103 -0.299681
-26.428396 -22.378807 -0.177906 1095 0.971595 -0.165157 -0.146299
-26.425774 -22.376532 -0.167261 1121 1.009331 -0.132417 0.006866
-26.425053 -22.375868 -0.156626 1119 1.019704 -0.122866 0.159888
-26.427443 -22.377840 -0.146002 1087 0.985317 -0.151243 0.312751
-26.437073 -22.372391 -0.199240 1067 0.846753 -0.072836 -0.453263
-26.431602 -22.367708 -0.188572 1149 0.925462 -0.005461 -0.299767
-26.427927 -22.364540 -0.177914 1181 0.978346 0.040123 -0.146414
-26.426477 -22.363262 -0.167273 1181 0.999204 0.058510 0.006694
-26.426086 -22.362875 -0.156645 1191 1.004830 0.064081 0.159614
-26.427252 -22.363810 -0.146017 1167 0.988061 0.050634 0.312535
-26.431156 -22.367058 -0.135395 1123 0.931884 0.003897 0.465370
-26.437294 -22.372200 -0.124790 1049 0.843570 -0.070092 0.617960
-26.445662 -22.366108 -0.209923 1045 0.723173 0.017564 -0.606976
-26.439152 -22.360548 -0.199251 1139 0.816839 0.097563 -0.453422
-26.434010 -22.356148 -0.188591 1181 0.890828 0.160876 -0.300040
-26.429266 -22.352079 -0.177929 1217 0.959081 0.219414 -0.146630
-26.428814 -22.351650 -0.167301 1219 0.965585 0.225589 0.006291
-26.430532 -22.353054 -0.156683 1219 0.940858 0.205390 0.159068
-26.431263 -22.353619 -0.146048 1217 0.930347 0.197267 0.312089
-26.432831 -22.354889 -0.135430 1185 0.907788 0.178989 0.464866
-26.438959 -22.360022 -0.124813 1137 0.819611 0.105137 0.617629
-26.446442 -22.366302 -0.114201 1019 0.711949 0.014765 0.770319
-26.449316 -22.355883 -0.209953 1069 0.670591 0.164691 -0.607407
-26.441389 -22.349133 -0.199270 1169 0.784648 0.261814 -0.453695
-26.437838 -22.346075 -0.188622 1207 0.835748 0.305807 -0.300486
-26.435543 -22.344074 -0.177975 1233 0.868763 0.334596 -0.147292
-26.432417 -22.341391 -0.167334 1255 0.913743 0.373209 0.005816
-26.432192 -22.341145 -0.156704 1255 0.916982 0.376749 0.158766
-26.433241 -22.341982 -0.146078 1249 0.901888 0.364702 0.311657
-26.435987 -22.344248 -0.135462 1217 0.862369 0.332098 0.464406
-26.441334 -22.348709 -0.124842 1167 0.785443 0.267907 0.617211
-26.449816 -22.355824 -0.114233 1093 0.663401 0.165541 0.769859
-26.461884 -22.352978 -0.220675 983 0.489763 0.206488 -0.761681
-26.452339 -22.344862 -0.209971 1101 0.627092 0.323261 -0.607666
-26.446907 -22.340216 -0.199312 1175 0.705252 0.390115 -0.454299
-26.441771 -22.335833 -0.188641 1223 0.779159 0.453181 -0.300760
-26.438652 -22.333141 -0.178000 1259 0.824030 0.491904 -0.147652
-26.438034 -22.332567 -0.167374 1261 0.832921 0.500164 0.005240
-26.437590 -22.332138 -0.156737 1273 0.839316 0.506339 0.158291
-26.438757 -22.333075 -0.146120 1241 0.822520 0.492864 0.311053
-26.441153 -22.335049 -0.135496 1203 0.788051 0.464460 0.463916
-26.445955 -22.339054 -0.124888 1163 0.718947 0.406828 0.616550
-26.454548 -22.346258 -0.114279 1093 0.595312 0.303172 0.769197
-26.470125 -22.345812 -0.220722 981 0.371178 0.309594 -0.762357
-26.460579 -22.337698 -0.210028 1109 0.508535 0.426340 -0.608486
-26.453150 -22.331379 -0.199352 1171 0.615429 0.517262 -0.454875
-26.448906 -22.327744 -0.188696 1233 0.676491 0.569570 -0.301551
-26.444439 -22.323914 -0.178044 1243 0.740765 0.624677 -0.148285
-26.442816 -22.322496 -0.167402 1267 0.764120 0.645068 0.004837
-26.444332 -22.323719 -0.156784 1257 0.742302 0.627477 0.157614
-26.446329 -22.325359 -0.146162 1239 0.713568 0.603875 0.310449
-26.449743 -22.328186 -0.135553 1203 0.664443 0.563203 0.463096
-26.455160 -22.332703 -0.124941 1163 0.586503 0.498216 0.615787
-26.461855 -22.338303 -0.114323 1087 0.490175 0.417641 0.768564
-26.468603 -22.330351 -0.210079 1089 0.393078 0.532054 -0.609220
-26.460608 -22.323555 -0.199396 1149 0.508123 0.629837 -0.455508
-26.457487 -22.320871 -0.188753 1207 0.553021 0.668450 -0.302371
-26.454069 -22.317936 -0.178105 1231 0.602201 0.710686 -0.149163
-26.451847 -22.316011 -0.167456 1245 0.634173 0.738377 0.004060
-26.452789 -22.316746 -0.156841 1249 0.620616 0.727811 0.156794
-26.454638 -22.318254 -0.146221 1231 0.594022 0.706103 0.309600
-26.456970 -22.320169 -0.135597 1201 0.560459 0.678550 0.462463
-26.461279 -22.323748 -0.124983 1153 0.498463 0.627065 0.615183
-26.468922 -22.330151 -0.114369 1067 0.388495 0.534936 0.767902
-26.480394 -22.326450 -0.210156 1049 0.223421 0.588177 -0.610328
-26.472746 -22.319950 -0.199480 1127 0.333470 0.681706 -0.456717
-26.466097 -22.314289 -0.188809 1177 0.429140 0.763159 -0.303177
-26.462637 -22.311312 -0.178158 1207 0.478923 0.805999 -0.149925
-26.462412 -22.311085 -0.167521 1213 0.482161 0.809265 0.003125
-26.463146 -22.311636 -0.156897 1221 0.471595 0.801333 0.155989
-26.463913 -22.312233 -0.146271 1219 0.460563 0.792744 0.308880
-26.465927 -22.313873 -0.135651 1163 0.431582 0.769142 0.461686
-26.470898 -22.318022 -0.125031 1125 0.360064 0.709451 0.614492
-26.478148 -22.324081 -0.114420 1019 0.255749 0.622262 0.767168
-26.484203 -22.315773 -0.199549 1067 0.168615 0.741808 -0.457709
-26.476591 -22.309309 -0.188873 1133 0.278144 0.834815 -0.304098
-26.473083 -22.306286 -0.178223 1163 0.328613 0.878313 -0.150860
-26.472631 -22.305857 -0.167586 1187 0.335117 0.884488 0.002190
-26.472733 -22.305893 -0.156956 1185 0.333663 0.883967 0.155140
-26.474689 -22.307495 -0.146334 1163 0.305505 0.860914 0.307974
-26.478668 -22.310783 -0.135712 1139 0.248257 0.813601 0.460809
-26.483795 -22.315054 -0.125101 1075 0.174488 0.752154 0.613485
-26.490967 -22.307577 -0.188954 1059 0.071299 0.859734 -0.305263
-26.487015 -22.304190 -0.178297 1107 0.128163 0.908474 -0.151925
-26.486008 -22.303286 -0.167664 1119 0.142653 0.921483 0.001068
-26.485834 -22.303093 -0.157025 1119 0.145151 0.924254 0.154147
-26.487900 -22.304783 -0.146402 1099 0.115429 0.899939 0.306996
-26.492203 -22.308353 -0.135788 1053 0.053516 0.848564 0.459715
-26.502424 -22.303543 -0.167751 1007 -0.093556 0.917778 -0.000184
-26.501139 -22.302416 -0.157108 1015 -0.075059 0.933997 0.152953
