770
-0.676480 0.435880 -0.096180 1627 0.922926 -0.156243 -0.331407
-0.675800 0.435440 -0.095460 1617 0.932710 -0.162574 -0.321047
-0.675680 0.435360 -0.094820 1623 0.934437 -0.163725 -0.311839
-0.676170 0.435680 -0.094260 1639 0.927387 -0.159120 -0.303781
-0.676360 0.435800 -0.093660 1639 0.924652 -0.157394 -0.295148
-0.675920 0.435520 -0.092970 1641 0.930983 -0.161423 -0.285220
-0.675300 0.435120 -0.092260 1637 0.939904 -0.167178 -0.275004
-0.675050 0.434960 -0.091600 1635 0.943501 -0.169480 -0.265508
-0.675170 0.435030 -0.090990 1633 0.941775 -0.168473 -0.256731
-0.675170 0.435030 -0.090370 1641 0.941775 -0.168473 -0.247810
-0.675040 0.434950 -0.089730 1645 0.943645 -0.169624 -0.238601
-0.674610 0.434670 -0.089050 1645 0.949832 -0.173653 -0.228817
-0.673980 0.434270 -0.088340 1641 0.958897 -0.179408 -0.218601
-0.673600 0.434020 -0.087670 1649 0.964365 -0.183005 -0.208961
-0.674030 0.434300 -0.087100 1659 0.958178 -0.178976 -0.200759
-0.674580 0.434660 -0.086550 1667 0.950264 -0.173797 -0.192846
-0.674150 0.434370 -0.085870 1659 0.956451 -0.177969 -0.183062
-0.673770 0.434130 -0.085200 1657 0.961919 -0.181422 -0.173421
-0.673820 0.434160 -0.084590 1659 0.961199 -0.180991 -0.164644
-0.674130 0.434360 -0.084000 1663 0.956739 -0.178113 -0.156155
-0.673870 0.434200 -0.083350 1659 0.960480 -0.180416 -0.146803
-0.673670 0.434070 -0.082700 1659 0.963358 -0.182286 -0.137450
-0.673980 0.434270 -0.082120 1665 0.958897 -0.179408 -0.129105
-0.674270 0.434460 -0.081530 1671 0.954725 -0.176674 -0.120616
-0.674140 0.434370 -0.080890 1669 0.956595 -0.177969 -0.111407
-0.673140 0.433720 -0.080150 1669 0.970984 -0.187322 -0.100760
-0.672460 0.433280 -0.079450 1655 0.980767 -0.193653 -0.090688
-0.672820 0.433520 -0.078870 1661 0.975588 -0.190200 -0.082342
-0.673600 0.434020 -0.078340 1669 0.964365 -0.183005 -0.074716
-0.673280 0.433820 -0.077680 1665 0.968969 -0.185883 -0.065220
-0.673210 0.433770 -0.077050 1665 0.969976 -0.186602 -0.056155
-0.673750 0.434120 -0.076490 1681 0.962207 -0.181566 -0.048098
-0.673490 0.433950 -0.075840 1677 0.965948 -0.184012 -0.038745
-0.673610 0.434030 -0.075240 1685 0.964221 -0.182861 -0.030112
-0.674150 0.434380 -0.074680 1689 0.956451 -0.177826 -0.022054
-0.673760 0.434130 -0.074010 1683 0.962063 -0.181422 -0.012414
-0.673190 0.433760 -0.073330 1677 0.970264 -0.186746 -0.002630
-0.673240 0.433790 -0.072710 1677 0.969545 -0.186315 0.006291
-0.673660 0.434060 -0.072140 1677 0.963502 -0.182430 0.014492
-0.673890 0.434210 -0.071540 1683 0.960192 -0.180271 0.023125
-0.673750 0.434120 -0.070910 1679 0.962207 -0.181566 0.032190
-0.673110 0.433710 -0.070220 1675 0.971415 -0.187466 0.042118
-0.672480 0.433300 -0.069540 1671 0.980480 -0.193365 0.051902
-0.672520 0.433330 -0.068920 1671 0.979905 -0.192933 0.060823
-0.673000 0.433640 -0.068350 1675 0.972998 -0.188473 0.069025
-0.672860 0.433540 -0.067720 1675 0.975012 -0.189912 0.078089
-0.672970 0.433610 -0.067110 1667 0.973430 -0.188905 0.086866
-0.673810 0.434160 -0.066580 1671 0.961343 -0.180991 0.094492
-0.674110 0.434350 -0.065980 1683 0.957027 -0.178257 0.103125
-0.673650 0.434050 -0.065320 1683 0.963645 -0.182574 0.112622
-0.673880 0.434200 -0.064720 1689 0.960336 -0.180416 0.121255
-0.674110 0.434350 -0.064120 1691 0.957027 -0.178257 0.129888
-0.673590 0.434010 -0.063460 1677 0.964509 -0.183149 0.139384
-0.673570 0.434000 -0.062840 1669 0.964797 -0.183293 0.148305
-0.673920 0.434230 -0.062250 1665 0.959761 -0.179984 0.156794
-0.674140 0.434370 -0.061650 1675 0.956595 -0.177969 0.165428
-0.674440 0.434560 -0.061060 1677 0.952278 -0.175236 0.173917
-0.674590 0.434660 -0.060450 1671 0.950120 -0.173797 0.182694
-0.675070 0.434960 -0.059870 1671 0.943214 -0.169480 0.191039
-0.675050 0.434950 -0.059250 1673 0.943501 -0.169624 0.199960
-0.674900 0.434860 -0.058620 1677 0.945660 -0.170919 0.209025
-0.675000 0.434920 -0.058010 1669 0.944221 -0.170055 0.217802
-0.675280 0.435100 -0.057410 1671 0.940193 -0.167466 0.226435
-0.675380 0.435170 -0.056800 1669 0.938753 -0.166459 0.235212
-0.675360 0.435150 -0.056180 1675 0.939041 -0.166746 0.244133
-0.675450 0.435210 -0.055570 1677 0.937746 -0.165883 0.252910
-0.675670 0.435350 -0.054960 1681 0.934580 -0.163869 0.261687
-0.676080 0.435620 -0.054380 1679 0.928682 -0.159984 0.270032
-0.676050 0.435600 -0.053750 1669 0.929113 -0.160271 0.279097
-0.675900 0.435500 -0.053120 1665 0.931272 -0.161710 0.288161
-0.675690 0.435360 -0.052490 1657 0.934293 -0.163725 0.297226
-0.675600 0.435310 -0.051860 1653 0.935588 -0.164444 0.306291
-0.676310 0.435770 -0.051290 1653 0.925372 -0.157825 0.314492
-0.677210 0.436350 -0.050740 1655 0.912423 -0.149480 0.322406
-0.677240 0.436370 -0.050120 1661 0.911991 -0.149193 0.331327
-0.676600 0.435950 -0.049450 1655 0.921200 -0.155235 0.340967
-0.677000 0.436210 -0.048860 1649 0.915444 -0.151494 0.349456
-0.677530 0.436550 -0.048280 1647 0.907818 -0.146603 0.357802
-0.677620 0.436610 -0.047660 1643 0.906523 -0.145739 0.366723
-0.678020 0.436870 -0.047070 1641 0.900768 -0.141998 0.375212
-0.678360 0.437090 -0.046470 1647 0.895876 -0.138833 0.383845
-0.678390 0.437110 -0.045850 1635 0.895444 -0.138545 0.392766
-0.678490 0.437170 -0.045240 1635 0.894005 -0.137682 0.401543
-0.678640 0.437270 -0.044630 1631 0.891847 -0.136243 0.410320
-0.679350 0.437730 -0.044050 1637 0.881631 -0.129624 0.418665
-0.679820 0.438030 -0.043460 1633 0.874868 -0.125307 0.427154
-0.680090 0.438200 -0.042850 1627 0.870983 -0.122861 0.435931
-0.679750 0.437980 -0.042210 1613 0.875875 -0.126027 0.445140
-0.679650 0.437920 -0.041580 1605 0.877314 -0.126890 0.454205
-0.680170 0.438250 -0.040990 1605 0.869832 -0.122142 0.462694
-0.680320 0.438350 -0.040370 1607 0.867674 -0.120703 0.471615
-0.680840 0.438690 -0.039780 1601 0.860192 -0.115811 0.480104
-0.681360 0.439020 -0.039190 1595 0.852710 -0.111063 0.488593
-0.681390 0.439040 -0.038570 1595 0.852279 -0.110775 0.497514
-0.681170 0.438900 -0.037930 1595 0.855444 -0.112790 0.506723
-0.681820 0.439310 -0.037340 1593 0.846092 -0.106890 0.515212
-0.682210 0.439570 -0.036740 1589 0.840480 -0.103149 0.523845
-0.682110 0.439500 -0.036110 1585 0.841919 -0.104156 0.532910
-0.682320 0.439640 -0.035500 1579 0.838897 -0.102142 0.541687
-0.683080 0.440130 -0.034910 1571 0.827962 -0.095092 0.550176
-0.683920 0.440670 -0.034330 1573 0.815875 -0.087322 0.558521
-0.684370 0.440960 -0.033720 1571 0.809401 -0.083149 0.567298
-0.684830 0.441260 -0.033120 1575 0.802782 -0.078833 0.575931
-0.685290 0.441550 -0.032510 1573 0.796164 -0.074660 0.584708
-0.685550 0.441720 -0.031900 1563 0.792423 -0.072214 0.593485
-0.686010 0.442020 -0.031290 1553 0.785804 -0.067897 0.602262
-0.686410 0.442270 -0.030680 1547 0.780048 -0.064300 0.611039
-0.686740 0.442490 -0.030070 1539 0.775300 -0.061135 0.619816
-0.687560 0.443020 -0.029480 1535 0.763501 -0.053509 0.628305
-0.688020 0.443310 -0.028870 1539 0.756883 -0.049336 0.637082
-0.687910 0.443240 -0.028230 1525 0.758465 -0.050344 0.646291
-0.688550 0.443650 -0.027630 1511 0.749257 -0.044444 0.654924
-0.689620 0.444340 -0.027040 1505 0.733861 -0.034516 0.663413
-0.690070 0.444640 -0.026430 1503 0.727387 -0.030199 0.672190
-0.690580 0.444970 -0.025820 1495 0.720048 -0.025451 0.680967
-0.691350 0.445460 -0.025210 1491 0.708969 -0.018401 0.689744
-0.692110 0.445950 -0.024610 1487 0.698034 -0.011351 0.698377
-0.692500 0.446200 -0.023990 1481 0.692422 -0.007753 0.707298
-0.693450 0.446810 -0.023390 1481 0.678754 0.001024 0.715931
-0.694520 0.447500 -0.022790 1471 0.663358 0.010951 0.724564
-0.694970 0.447790 -0.022170 1457 0.656883 0.015124 0.733485
-0.695670 0.448240 -0.021550 1441 0.646811 0.021599 0.742406
-0.696430 0.448730 -0.020940 1425 0.635875 0.028649 0.751183
-0.696990 0.449100 -0.020320 1419 0.627818 0.033973 0.760104
-0.697820 0.449630 -0.019700 1419 0.615875 0.041599 0.769025
-0.698390 0.450000 -0.019080 1409 0.607674 0.046923 0.777946
-0.698530 0.450090 -0.018450 1387 0.605660 0.048218 0.787010
-0.699660 0.450810 -0.017840 1369 0.589401 0.058577 0.795787
-0.701100 0.451740 -0.017230 1353 0.568681 0.071959 0.804564
-0.701980 0.452310 -0.016610 1349 0.556020 0.080160 0.813485
-0.703040 0.453000 -0.016000 1331 0.540768 0.090088 0.822262
-0.703560 0.453330 -0.015360 1305 0.533286 0.094837 0.831471
-0.704370 0.453860 -0.014740 1287 0.521631 0.102463 0.840392
-0.706430 0.455180 -0.014140 1267 0.491990 0.121455 0.849025
-0.708490 0.456510 -0.013530 1243 0.462350 0.140592 0.857802
-0.710060 0.457520 -0.012910 1219 0.439761 0.155124 0.866723
-0.711120 0.458210 -0.012280 1185 0.424509 0.165052 0.875787
-0.711940 0.458730 -0.011640 1145 0.412710 0.172534 0.884996
-0.713990 0.460060 -0.011020 1107 0.383214 0.191671 0.893917
-0.705140 0.455080 -0.131820 1129 0.510552 0.120016 -0.844213
-0.703140 0.453790 -0.130790 1175 0.539329 0.101455 -0.829393
-0.702050 0.453090 -0.129930 1217 0.555013 0.091383 -0.817019
-0.701160 0.452510 -0.129110 1247 0.567818 0.083038 -0.805220
-0.699830 0.451650 -0.128210 1273 0.586955 0.070664 -0.792270
-0.698740 0.450950 -0.127360 1291 0.602638 0.060592 -0.780040
-0.697480 0.450130 -0.126470 1311 0.620767 0.048793 -0.767234
-0.696080 0.449230 -0.125570 1333 0.640911 0.035843 -0.754285
-0.695300 0.448720 -0.124780 1345 0.652135 0.028506 -0.742918
-0.694580 0.448260 -0.124000 1355 0.662494 0.021887 -0.731695
-0.693500 0.447560 -0.123160 1373 0.678034 0.011815 -0.719608
-0.692780 0.447100 -0.122390 1391 0.688393 0.005196 -0.708529
-0.692120 0.446670 -0.121620 1405 0.697890 -0.000991 -0.697450
-0.691150 0.446040 -0.120810 1409 0.711847 -0.010056 -0.685795
-0.690370 0.445540 -0.120030 1423 0.723070 -0.017250 -0.674572
-0.689330 0.444870 -0.119200 1433 0.738034 -0.026890 -0.662630
-0.688490 0.444330 -0.118420 1439 0.750121 -0.034660 -0.651407
-0.688630 0.444410 -0.117800 1459 0.748106 -0.033509 -0.642486
-0.687960 0.443990 -0.117040 1467 0.757746 -0.039552 -0.631551
-0.686810 0.443240 -0.116210 1467 0.774293 -0.050344 -0.619608
-0.686520 0.443050 -0.115520 1475 0.778466 -0.053077 -0.609680
-0.686470 0.443020 -0.114870 1485 0.779185 -0.053509 -0.600328
-0.685440 0.442350 -0.114060 1495 0.794005 -0.063149 -0.588673
-0.684460 0.441720 -0.113260 1507 0.808106 -0.072214 -0.577162
-0.683920 0.441370 -0.112530 1507 0.815875 -0.077250 -0.566659
-0.683130 0.440860 -0.111770 1513 0.827242 -0.084588 -0.555723
-0.683200 0.440910 -0.111140 1523 0.826235 -0.083868 -0.546659
-0.683210 0.440910 -0.110510 1531 0.826091 -0.083868 -0.537594
-0.682610 0.440520 -0.109770 1541 0.834725 -0.089480 -0.526947
-0.681750 0.439970 -0.109000 1541 0.847099 -0.097394 -0.515867
-0.681150 0.439580 -0.108270 1543 0.855731 -0.103005 -0.505364
-0.680840 0.439380 -0.107590 1547 0.860192 -0.105883 -0.495580
-0.680300 0.439030 -0.106870 1555 0.867962 -0.110919 -0.485220
-0.680240 0.438990 -0.106230 1557 0.868826 -0.111495 -0.476011
-0.680000 0.438840 -0.105560 1559 0.872278 -0.113653 -0.466371
-0.679330 0.438410 -0.104830 1563 0.881919 -0.119840 -0.455867
-0.679090 0.438250 -0.104160 1573 0.885372 -0.122142 -0.446227
-0.678980 0.438180 -0.103510 1571 0.886955 -0.123149 -0.436875
-0.678430 0.437820 -0.102800 1581 0.894868 -0.128329 -0.426659
-0.678060 0.437590 -0.102110 1587 0.900192 -0.131638 -0.416731
-0.677820 0.437430 -0.101450 1595 0.903645 -0.133941 -0.407234
-0.677760 0.437390 -0.100810 1599 0.904509 -0.134516 -0.398026
-0.678010 0.437550 -0.100220 1599 0.900912 -0.132214 -0.389536
-0.677760 0.437390 -0.099550 1607 0.904509 -0.134516 -0.379896
-0.677280 0.437080 -0.098850 1611 0.911415 -0.138977 -0.369824
-0.677150 0.437000 -0.098200 1613 0.913286 -0.140128 -0.360472
-0.677520 0.437240 -0.097630 1625 0.907962 -0.136674 -0.352270
-0.677400 0.437160 -0.096980 1627 0.909689 -0.137826 -0.342918
-0.676410 0.436520 -0.096220 1625 0.923933 -0.147034 -0.331983
-0.675920 0.436200 -0.095520 1621 0.930983 -0.151639 -0.321911
-0.676110 0.436320 -0.094920 1621 0.928249 -0.149912 -0.313278
-0.675790 0.436120 -0.094250 1629 0.932854 -0.152789 -0.303637
-0.675360 0.435840 -0.093560 1635 0.939041 -0.156818 -0.293709
-0.675360 0.435840 -0.092940 1639 0.939041 -0.156818 -0.284788
-0.675170 0.435720 -0.092290 1635 0.941775 -0.158545 -0.275436
-0.674920 0.435560 -0.091630 1641 0.945372 -0.160847 -0.265939
-0.674920 0.435560 -0.091000 1641 0.945372 -0.160847 -0.256875
-0.674920 0.435550 -0.090380 1645 0.945372 -0.160991 -0.247954
-0.675170 0.435710 -0.089790 1639 0.941775 -0.158689 -0.239465
-0.675340 0.435830 -0.089180 1643 0.939329 -0.156962 -0.230688
-0.674660 0.435390 -0.088470 1641 0.949113 -0.163293 -0.220472
-0.674100 0.435030 -0.087770 1645 0.957171 -0.168473 -0.210400
-0.674090 0.435020 -0.087150 1657 0.957314 -0.168617 -0.201479
-0.674460 0.435260 -0.086570 1651 0.951991 -0.165164 -0.193134
-0.674330 0.435170 -0.085930 1649 0.953861 -0.166459 -0.183925
-0.673510 0.434650 -0.085210 1653 0.965660 -0.173941 -0.173565
-0.673080 0.434360 -0.084530 1649 0.971846 -0.178113 -0.163781
-0.673010 0.434320 -0.083900 1655 0.972854 -0.178689 -0.154716
-0.672880 0.434230 -0.083260 1651 0.974725 -0.179984 -0.145508
-0.673180 0.434430 -0.082680 1653 0.970408 -0.177106 -0.137162
-0.673910 0.434900 -0.082140 1663 0.959904 -0.170344 -0.129393
-0.673530 0.434660 -0.081480 1667 0.965372 -0.173797 -0.119896
-0.673210 0.434450 -0.080820 1665 0.969976 -0.176818 -0.110400
-0.673140 0.434400 -0.080190 1669 0.970984 -0.177538 -0.101335
-0.673070 0.434360 -0.079560 1667 0.971991 -0.178113 -0.092270
-0.673370 0.434550 -0.078970 1669 0.967674 -0.175380 -0.083781
-0.673790 0.434820 -0.078400 1667 0.961631 -0.171495 -0.075580
-0.673650 0.434740 -0.077760 1669 0.963645 -0.172645 -0.066371
-0.673330 0.434530 -0.077100 1663 0.968250 -0.175667 -0.056875
-0.673630 0.434720 -0.076520 1675 0.963933 -0.172933 -0.048529
-0.673430 0.434590 -0.075870 1681 0.966811 -0.174804 -0.039177
-0.673110 0.434390 -0.075220 1679 0.971415 -0.177681 -0.029824
-0.673710 0.434780 -0.074660 1685 0.962782 -0.172070 -0.021767
-0.673760 0.434810 -0.074050 1685 0.962063 -0.171638 -0.012990
-0.673320 0.434520 -0.073380 1679 0.968394 -0.175811 -0.003349
-0.673240 0.434470 -0.072750 1677 0.969545 -0.176531 0.005715
-0.673160 0.434420 -0.072120 1677 0.970696 -0.177250 0.014780
-0.673150 0.434410 -0.071500 1677 0.970840 -0.177394 0.023701
-0.673380 0.434560 -0.070900 1677 0.967530 -0.175236 0.032334
-0.672740 0.434150 -0.070220 1679 0.976739 -0.181135 0.042118
-0.672040 0.433700 -0.069520 1675 0.986811 -0.187610 0.052190
-0.672830 0.434210 -0.068990 1671 0.975444 -0.180271 0.059816
-0.673560 0.434670 -0.068440 1669 0.964940 -0.173653 0.067730
-0.673600 0.434700 -0.067820 1667 0.964365 -0.173221 0.076651
-0.673590 0.434690 -0.067200 1667 0.964509 -0.173365 0.085571
-0.674120 0.435040 -0.066640 1671 0.956883 -0.168329 0.093629
-0.674110 0.435030 -0.066010 1677 0.957027 -0.168473 0.102694
-0.673840 0.434860 -0.065370 1679 0.960912 -0.170919 0.111902
-0.674430 0.435240 -0.064810 1687 0.952422 -0.165451 0.119960
-0.674230 0.435110 -0.064170 1695 0.955300 -0.167322 0.129169
-0.673650 0.434740 -0.063490 1685 0.963645 -0.172645 0.138953
-0.673570 0.434680 -0.062860 1663 0.964797 -0.173509 0.148018
-0.674160 0.435060 -0.062300 1671 0.956307 -0.168041 0.156075
-0.674890 0.435530 -0.061750 1683 0.945804 -0.161279 0.163989
-0.674740 0.435440 -0.061110 1677 0.947962 -0.162574 0.173197
-0.674590 0.435340 -0.060480 1669 0.950120 -0.164013 0.182262
-0.674010 0.434960 -0.059810 1669 0.958466 -0.169480 0.191902
-0.674050 0.434990 -0.059190 1667 0.957890 -0.169049 0.200823
-0.674340 0.435180 -0.058600 1671 0.953717 -0.166315 0.209312
-0.674630 0.435360 -0.058000 1667 0.949545 -0.163725 0.217946
-0.675090 0.435660 -0.057420 1671 0.942926 -0.159408 0.226291
-0.675010 0.435610 -0.056800 1665 0.944077 -0.160128 0.235212
-0.675110 0.435670 -0.056180 1665 0.942638 -0.159264 0.244133
-0.675690 0.436050 -0.055610 1683 0.934293 -0.153797 0.252334
-0.676040 0.436280 -0.055020 1675 0.929257 -0.150487 0.260823
-0.675770 0.436100 -0.054380 1669 0.933142 -0.153077 0.270032
-0.675740 0.436080 -0.053750 1661 0.933573 -0.153365 0.279097
-0.675900 0.436190 -0.053150 1665 0.931272 -0.151782 0.287730
-0.675260 0.435770 -0.052480 1659 0.940480 -0.157825 0.297370
-0.675480 0.435910 -0.051870 1651 0.937314 -0.155811 0.306147
-0.676190 0.436370 -0.051310 1647 0.927098 -0.149193 0.314205
-0.676660 0.436670 -0.050720 1647 0.920336 -0.144876 0.322694
-0.677000 0.436890 -0.050130 1653 0.915444 -0.141710 0.331183
-0.676780 0.436750 -0.049490 1657 0.918610 -0.143725 0.340392
-0.676750 0.436730 -0.048870 1651 0.919041 -0.144013 0.349312
-0.677220 0.437040 -0.048280 1647 0.912279 -0.139552 0.357802
-0.677810 0.437410 -0.047700 1649 0.903789 -0.134228 0.366147
-0.677470 0.437200 -0.047050 1635 0.908681 -0.137250 0.375500
-0.677370 0.437130 -0.046430 1637 0.910120 -0.138257 0.384420
-0.677460 0.437190 -0.045810 1633 0.908825 -0.137394 0.393341
-0.677800 0.437410 -0.045210 1627 0.903933 -0.134228 0.401974
-0.678640 0.437950 -0.044650 1625 0.891847 -0.126459 0.410032
-0.678730 0.438010 -0.044030 1625 0.890552 -0.125595 0.418953
-0.679130 0.438270 -0.043430 1625 0.884796 -0.121854 0.427586
-0.679530 0.438530 -0.042840 1621 0.879041 -0.118113 0.436075
-0.679680 0.438630 -0.042220 1615 0.876883 -0.116674 0.444996
-0.680320 0.439040 -0.041640 1609 0.867674 -0.110775 0.453341
-0.680170 0.438940 -0.041010 1607 0.869832 -0.112214 0.462406
-0.680080 0.438880 -0.040380 1603 0.871127 -0.113077 0.471471
-0.680910 0.439420 -0.039800 1603 0.859185 -0.105307 0.479816
-0.681180 0.439590 -0.039200 1603 0.855300 -0.102861 0.488449
-0.681330 0.439690 -0.038580 1593 0.853141 -0.101423 0.497370
-0.681600 0.439870 -0.037970 1589 0.849257 -0.098833 0.506147
-0.682060 0.440160 -0.037370 1587 0.842638 -0.094660 0.514780
-0.682580 0.440500 -0.036780 1581 0.835156 -0.089768 0.523269
-0.682720 0.440590 -0.036160 1583 0.833142 -0.088473 0.532190
-0.682690 0.440570 -0.035530 1577 0.833573 -0.088761 0.541255
-0.683270 0.440940 -0.034940 1575 0.825228 -0.083437 0.549744
-0.683720 0.441230 -0.034330 1567 0.818753 -0.079264 0.558521
-0.683940 0.441370 -0.033720 1563 0.815588 -0.077250 0.567298
-0.684390 0.441660 -0.033110 1567 0.809113 -0.073077 0.576075
-0.685410 0.442320 -0.032530 1569 0.794436 -0.063581 0.584420
-0.685920 0.442660 -0.031930 1561 0.787099 -0.058689 0.593053
-0.686130 0.442790 -0.031310 1541 0.784077 -0.056818 0.601974
-0.686520 0.443040 -0.030700 1537 0.778466 -0.053221 0.610751
-0.686300 0.442890 -0.030060 1535 0.781631 -0.055380 0.619960
-0.686810 0.443230 -0.029460 1535 0.774293 -0.050487 0.628593
-0.687820 0.443880 -0.028870 1533 0.759760 -0.041135 0.637082
-0.688270 0.444170 -0.028260 1529 0.753286 -0.036962 0.645859
-0.688790 0.444500 -0.027650 1517 0.745803 -0.032214 0.654636
-0.689860 0.445200 -0.027060 1505 0.730408 -0.022142 0.663125
-0.690250 0.445450 -0.026450 1503 0.724797 -0.018545 0.671902
-0.690330 0.445500 -0.025820 1499 0.723645 -0.017826 0.680967
-0.691470 0.446230 -0.025230 1493 0.707242 -0.007322 0.689456
-0.692230 0.446730 -0.024620 1485 0.696307 -0.000128 0.698233
-0.692870 0.447140 -0.024010 1479 0.687098 0.005772 0.707010
-0.693750 0.447710 -0.023410 1473 0.674436 0.013973 0.715643
-0.694140 0.447960 -0.022780 1467 0.668825 0.017570 0.724708
-0.694780 0.448370 -0.022170 1455 0.659617 0.023470 0.733485
-0.695710 0.448980 -0.021560 1435 0.646235 0.032247 0.742262
-0.696420 0.449430 -0.020950 1421 0.636019 0.038721 0.751039
-0.696740 0.449640 -0.020320 1409 0.631416 0.041743 0.760104
-0.697380 0.450050 -0.019700 1407 0.622206 0.047642 0.769025
-0.698690 0.450900 -0.019100 1399 0.603358 0.059872 0.777658
-0.699630 0.451510 -0.018490 1383 0.589832 0.068650 0.786435
-0.700520 0.452080 -0.017870 1367 0.577027 0.076851 0.795356
-0.701580 0.452760 -0.017250 1349 0.561775 0.086635 0.804276
-0.702520 0.453370 -0.016630 1333 0.548250 0.095412 0.813197
-0.703340 0.453900 -0.016010 1321 0.536451 0.103038 0.822118
-0.704480 0.454630 -0.015390 1301 0.520048 0.113541 0.831039
-0.706220 0.455760 -0.014780 1279 0.495013 0.129800 0.839816
-0.707590 0.456650 -0.014160 1255 0.475300 0.142606 0.848737
-0.708540 0.457260 -0.013540 1231 0.461631 0.151383 0.857658
-0.710220 0.458350 -0.012920 1211 0.437459 0.167067 0.866579
-0.711730 0.459320 -0.012290 1177 0.415732 0.181024 0.875643
-0.712420 0.459760 -0.011660 1127 0.405804 0.187355 0.884708
-0.715220 0.461570 -0.011050 1081 0.365516 0.213397 0.893485
-0.706550 0.456670 -0.132140 1115 0.490264 0.142894 -0.848817
-0.703270 0.454540 -0.130870 1159 0.537458 0.112247 -0.830544
-0.701930 0.453680 -0.129960 1201 0.556739 0.099873 -0.817450
-0.701040 0.453100 -0.129140 1229 0.569544 0.091527 -0.805652
-0.700070 0.452480 -0.128310 1249 0.583501 0.082606 -0.793709
-0.698990 0.451780 -0.127460 1275 0.599041 0.072534 -0.781479
-0.697600 0.450870 -0.126550 1305 0.619041 0.059441 -0.768385
-0.696030 0.449860 -0.125620 1321 0.641631 0.044908 -0.755004
-0.695120 0.449270 -0.124800 1341 0.654725 0.036419 -0.743205
-0.694530 0.448890 -0.124050 1361 0.663214 0.030952 -0.732414
-0.693070 0.447940 -0.123140 1367 0.684221 0.017282 -0.719321
-0.691800 0.447120 -0.122270 1379 0.702494 0.005484 -0.706803
-0.691200 0.446740 -0.121520 1397 0.711127 0.000016 -0.696011
-0.690720 0.446430 -0.120790 1411 0.718034 -0.004444 -0.685508
-0.690070 0.446000 -0.120030 1421 0.727387 -0.010631 -0.674572
-0.689590 0.445690 -0.119300 1431 0.734293 -0.015092 -0.664069
-0.689050 0.445340 -0.118560 1441 0.742062 -0.020128 -0.653421
-0.688460 0.444960 -0.117820 1453 0.750552 -0.025595 -0.642774
-0.687850 0.444570 -0.117070 1461 0.759329 -0.031207 -0.631983
-0.687070 0.444060 -0.116300 1467 0.770552 -0.038545 -0.620903
-0.686100 0.443430 -0.115500 1473 0.784509 -0.047610 -0.609393
-0.685550 0.443080 -0.114770 1485 0.792423 -0.052645 -0.598889
-0.685450 0.443010 -0.114110 1495 0.793861 -0.053653 -0.589393
-0.684850 0.442620 -0.113370 1503 0.802495 -0.059264 -0.578745
-0.684110 0.442150 -0.112610 1507 0.813142 -0.066027 -0.567810
-0.684070 0.442120 -0.111970 1517 0.813717 -0.066459 -0.558601
-0.683830 0.441970 -0.111290 1525 0.817170 -0.068617 -0.548817
-0.682980 0.441410 -0.110520 1527 0.829401 -0.076674 -0.537738
-0.682000 0.440780 -0.109720 1535 0.843502 -0.085739 -0.526227
-0.681460 0.440430 -0.109000 1535 0.851271 -0.090775 -0.515867
-0.681160 0.440240 -0.108320 1541 0.855588 -0.093509 -0.506083
-0.680860 0.440040 -0.107640 1547 0.859905 -0.096387 -0.496299
-0.680380 0.439730 -0.106930 1553 0.866811 -0.100847 -0.486083
-0.679830 0.439380 -0.106210 1553 0.874724 -0.105883 -0.475724
-0.679590 0.439220 -0.105540 1553 0.878178 -0.108185 -0.466083
-0.679350 0.439060 -0.104870 1557 0.881631 -0.110487 -0.456443
-0.678620 0.438590 -0.104130 1561 0.892135 -0.117250 -0.445795
-0.677690 0.437990 -0.103360 1567 0.905515 -0.125883 -0.434716
-0.677270 0.437720 -0.102670 1571 0.911559 -0.129768 -0.424788
-0.677390 0.437800 -0.102060 1591 0.909833 -0.128617 -0.416011
-0.677770 0.438040 -0.101480 1599 0.904365 -0.125164 -0.407666
-0.677460 0.437850 -0.100810 1593 0.908825 -0.127897 -0.398026
-0.677530 0.437890 -0.100190 1593 0.907818 -0.127322 -0.389105
-0.677650 0.437970 -0.099580 1605 0.906092 -0.126171 -0.380328
-0.677350 0.437770 -0.098900 1607 0.910408 -0.129048 -0.370544
-0.677230 0.437690 -0.098260 1611 0.912135 -0.130200 -0.361335
-0.677350 0.437770 -0.097650 1617 0.910408 -0.129048 -0.352558
-0.677600 0.437930 -0.097050 1625 0.906811 -0.126746 -0.343925
-0.676860 0.437450 -0.096320 1619 0.917459 -0.133653 -0.333421
-0.676120 0.436970 -0.095590 1621 0.928106 -0.140559 -0.322918
-0.675870 0.436810 -0.094930 1629 0.931703 -0.142862 -0.313421
-0.675690 0.436700 -0.094280 1631 0.934293 -0.144444 -0.304069
-0.675750 0.436740 -0.093660 1631 0.933429 -0.143868 -0.295148
-0.675690 0.436690 -0.093020 1633 0.934293 -0.144588 -0.285939
-0.675310 0.436450 -0.092350 1633 0.939760 -0.148041 -0.276299
-0.674940 0.436210 -0.091670 1641 0.945084 -0.151494 -0.266515
-0.674760 0.436090 -0.091020 1641 0.947674 -0.153221 -0.257162
-0.674750 0.436090 -0.090390 1641 0.947819 -0.153221 -0.248098
-0.674310 0.435810 -0.089710 1635 0.954149 -0.157250 -0.238313
-0.674620 0.436000 -0.089130 1631 0.949689 -0.154516 -0.229968
-0.674680 0.436040 -0.088510 1635 0.948825 -0.153940 -0.221047
-0.674120 0.435680 -0.087810 1647 0.956883 -0.159120 -0.210975
-0.673800 0.435470 -0.087150 1647 0.961487 -0.162142 -0.201479
-0.674110 0.435670 -0.086570 1647 0.957027 -0.159264 -0.193134
-0.674530 0.435940 -0.086000 1655 0.950983 -0.155379 -0.184932
-0.674400 0.435860 -0.085360 1655 0.952854 -0.156530 -0.175723
-0.673340 0.435180 -0.084600 1645 0.968105 -0.166315 -0.164788
-0.673150 0.435050 -0.083950 1649 0.970840 -0.168185 -0.155436
-0.673510 0.435280 -0.083380 1653 0.965660 -0.164876 -0.147234
-0.673750 0.435440 -0.082780 1661 0.962207 -0.162574 -0.138601
-0.673990 0.435600 -0.082190 1665 0.958753 -0.160271 -0.130112
-0.673240 0.435110 -0.081480 1665 0.969545 -0.167322 -0.119896
-0.672430 0.434580 -0.080760 1665 0.981200 -0.174948 -0.109537
-0.672420 0.434580 -0.080140 1661 0.981343 -0.174948 -0.100616
-0.672840 0.434850 -0.079560 1661 0.975300 -0.171063 -0.092270
-0.672890 0.434880 -0.078950 1659 0.974581 -0.170631 -0.083493
-0.673190 0.435080 -0.078360 1661 0.970264 -0.167754 -0.075004
-0.673800 0.435470 -0.077810 1669 0.961487 -0.162142 -0.067090
-0.673540 0.435300 -0.077160 1671 0.965228 -0.164588 -0.057738
-0.673220 0.435090 -0.076500 1673 0.969833 -0.167610 -0.048241
-0.673020 0.434960 -0.075860 1675 0.972710 -0.169480 -0.039033
-0.673010 0.434960 -0.075240 1671 0.972854 -0.169480 -0.030112
-0.672800 0.434830 -0.074590 1669 0.975876 -0.171350 -0.020759
-0.672920 0.434900 -0.073990 1673 0.974149 -0.170344 -0.012126
-0.673280 0.435130 -0.073400 1673 0.968969 -0.167034 -0.003637
-0.673380 0.435200 -0.072800 1677 0.967530 -0.166027 0.004996
-0.673180 0.435070 -0.072150 1675 0.970408 -0.167897 0.014348
-0.672670 0.434740 -0.071480 1671 0.977746 -0.172645 0.023989
-0.672410 0.434570 -0.070830 1679 0.981487 -0.175091 0.033341
-0.672510 0.434640 -0.070220 1675 0.980048 -0.174085 0.042118
-0.673120 0.435030 -0.069670 1683 0.971271 -0.168473 0.050032
-0.673160 0.435060 -0.069050 1673 0.970696 -0.168041 0.058953
-0.673020 0.434970 -0.068420 1661 0.972710 -0.169336 0.068017
-0.673070 0.434990 -0.067800 1665 0.971991 -0.169049 0.076938
-0.672730 0.434780 -0.067150 1669 0.976882 -0.172070 0.086291
-0.673270 0.435130 -0.066580 1677 0.969113 -0.167034 0.094492
-0.673620 0.435350 -0.066000 1671 0.964077 -0.163869 0.102838
-0.673360 0.435180 -0.065350 1679 0.967818 -0.166315 0.112190
-0.673830 0.435490 -0.064780 1677 0.961056 -0.161854 0.120392
-0.674000 0.435600 -0.064170 1679 0.958609 -0.160271 0.129169
-0.673480 0.435260 -0.063500 1679 0.966092 -0.165164 0.138809
-0.673340 0.435170 -0.062870 1665 0.968105 -0.166459 0.147874
-0.673810 0.435470 -0.062290 1671 0.961343 -0.162142 0.156219
-0.674780 0.436100 -0.061760 1685 0.947386 -0.153077 0.163845
-0.674700 0.436050 -0.061130 1681 0.948537 -0.153797 0.172910
-0.673930 0.435550 -0.060450 1673 0.959617 -0.160991 0.182694
-0.674100 0.435660 -0.059840 1663 0.957171 -0.159408 0.191471
-0.674070 0.435640 -0.059220 1659 0.957602 -0.159696 0.200392
-0.673990 0.435590 -0.058590 1659 0.958753 -0.160415 0.209456
-0.674580 0.435970 -0.058020 1659 0.950264 -0.154948 0.217658
-0.674740 0.436070 -0.057420 1661 0.947962 -0.153509 0.226291
-0.674840 0.436140 -0.056810 1669 0.946523 -0.152502 0.235068
-0.675490 0.436560 -0.056240 1669 0.937170 -0.146458 0.243269
-0.675600 0.436630 -0.055630 1673 0.935588 -0.145451 0.252046
-0.675570 0.436610 -0.055000 1665 0.936019 -0.145739 0.261111
-0.675670 0.436670 -0.054390 1663 0.934580 -0.144876 0.269888
-0.676010 0.436900 -0.053800 1665 0.929688 -0.141567 0.278377
-0.675850 0.436790 -0.053170 1663 0.931991 -0.143149 0.287442
-0.675580 0.436610 -0.052520 1657 0.935875 -0.145739 0.296794
-0.676170 0.437000 -0.051950 1653 0.927387 -0.140128 0.304996
-0.676640 0.437300 -0.051360 1647 0.920624 -0.135811 0.313485
-0.676860 0.437440 -0.050760 1651 0.917459 -0.133797 0.322118
-0.676400 0.437140 -0.050100 1655 0.924077 -0.138113 0.331615
-0.676740 0.437370 -0.049510 1651 0.919185 -0.134804 0.340104
-0.677390 0.437790 -0.048930 1653 0.909833 -0.128761 0.348449
-0.677360 0.437760 -0.048310 1647 0.910264 -0.129192 0.357370
-0.677270 0.437710 -0.047680 1641 0.911559 -0.129912 0.366435
-0.677180 0.437650 -0.047050 1631 0.912854 -0.130775 0.375500
-0.677520 0.437870 -0.046460 1631 0.907962 -0.127610 0.383989
-0.677860 0.438090 -0.045860 1627 0.903070 -0.124444 0.392622
-0.677580 0.437900 -0.045220 1621 0.907099 -0.127178 0.401830
-0.677290 0.437720 -0.044580 1615 0.911271 -0.129768 0.411039
-0.678000 0.438180 -0.044000 1623 0.901056 -0.123149 0.419384
-0.678650 0.438600 -0.043420 1623 0.891703 -0.117106 0.427730
-0.678680 0.438620 -0.042800 1613 0.891271 -0.116818 0.436651
-0.678830 0.438720 -0.042190 1611 0.889113 -0.115380 0.445428
-0.679480 0.439130 -0.041610 1609 0.879760 -0.109480 0.453773
-0.680190 0.439590 -0.041030 1605 0.869544 -0.102861 0.462118
-0.680280 0.439650 -0.040410 1605 0.868249 -0.101998 0.471039
-0.680730 0.439940 -0.039810 1601 0.861775 -0.097825 0.479672
-0.681140 0.440200 -0.039210 1595 0.855876 -0.094084 0.488305
-0.681030 0.440140 -0.038580 1591 0.857459 -0.094948 0.497370
-0.681120 0.440190 -0.037960 1583 0.856164 -0.094229 0.506291
-0.681390 0.440370 -0.037350 1579 0.852279 -0.091638 0.515068
-0.681790 0.440630 -0.036750 1573 0.846523 -0.087898 0.523701
-0.682250 0.440920 -0.036150 1577 0.839904 -0.083725 0.532334
-0.683080 0.441460 -0.035570 1583 0.827962 -0.075955 0.540679
-0.683220 0.441550 -0.034950 1575 0.825947 -0.074660 0.549600
-0.683120 0.441490 -0.034320 1571 0.827386 -0.075523 0.558665
-0.683210 0.441550 -0.033700 1563 0.826091 -0.074660 0.567586
-0.683980 0.442040 -0.033110 1563 0.815012 -0.067610 0.576075
-0.685480 0.443020 -0.032550 1559 0.793430 -0.053509 0.584133
-0.685870 0.443270 -0.031940 1559 0.787818 -0.049912 0.592910
-0.686020 0.443360 -0.031320 1541 0.785660 -0.048617 0.601830
-0.685980 0.443340 -0.030690 1531 0.786235 -0.048905 0.610895
-0.686310 0.443550 -0.030080 1531 0.781487 -0.045883 0.619672
-0.687630 0.444400 -0.029500 1531 0.762494 -0.033653 0.628017
-0.688270 0.444820 -0.028900 1529 0.753286 -0.027610 0.636651
-0.688420 0.444910 -0.028280 1527 0.751127 -0.026315 0.645571
-0.688560 0.445000 -0.027650 1513 0.749113 -0.025020 0.654636
-0.689260 0.445460 -0.027050 1497 0.739041 -0.018401 0.663269
-0.690080 0.445990 -0.026450 1493 0.727243 -0.010775 0.671902
-0.690530 0.446280 -0.025840 1495 0.720768 -0.006602 0.680679
-0.691170 0.446690 -0.025230 1487 0.711559 -0.000703 0.689456
-0.691930 0.447190 -0.024620 1481 0.700624 0.006491 0.698233
-0.692380 0.447470 -0.024000 1473 0.694149 0.010520 0.707154
-0.692960 0.447850 -0.023390 1469 0.685803 0.015987 0.715931
-0.694150 0.448620 -0.022790 1463 0.668682 0.027067 0.724564
-0.695100 0.449230 -0.022190 1451 0.655012 0.035843 0.733197
-0.695300 0.449360 -0.021560 1435 0.652135 0.037714 0.742262
-0.695740 0.449650 -0.020940 1415 0.645804 0.041887 0.751183
-0.696380 0.450060 -0.020320 1409 0.636595 0.047786 0.760104
-0.697200 0.450590 -0.019700 1401 0.624796 0.055412 0.769025
-0.698210 0.451240 -0.019090 1385 0.610264 0.064765 0.777802
-0.699150 0.451850 -0.018480 1371 0.596739 0.073541 0.786579
-0.700150 0.452500 -0.017870 1357 0.582350 0.082894 0.795356
-0.701100 0.453110 -0.017250 1345 0.568681 0.091671 0.804276
-0.701980 0.453680 -0.016630 1329 0.556020 0.099873 0.813197
-0.702670 0.454130 -0.016000 1305 0.546092 0.106347 0.822262
-0.704110 0.455060 -0.015390 1287 0.525372 0.119729 0.831039
-0.705610 0.456030 -0.014780 1271 0.503790 0.133685 0.839816
-0.706860 0.456840 -0.014160 1251 0.485804 0.145340 0.848737
-0.708300 0.457770 -0.013540 1221 0.465084 0.158721 0.857658
-0.709670 0.458650 -0.012910 1191 0.445372 0.171383 0.866723
-0.711480 0.459830 -0.012300 1161 0.419329 0.188361 0.875499
-0.713230 0.460950 -0.011670 1115 0.394149 0.204477 0.884564
-0.716400 0.463010 -0.011070 1071 0.348537 0.234117 0.893197
-0.704210 0.456030 -0.131120 1145 0.523933 0.133685 -0.834141
-0.702450 0.454890 -0.130130 1185 0.549257 0.117283 -0.819896
-0.701310 0.454150 -0.129270 1209 0.565660 0.106635 -0.807522
-0.700100 0.453370 -0.128390 1235 0.583070 0.095412 -0.794860
-0.699020 0.452670 -0.127540 1261 0.598609 0.085340 -0.782630
-0.697810 0.451890 -0.126660 1283 0.616020 0.074117 -0.769968
-0.697100 0.451430 -0.125880 1311 0.626236 0.067498 -0.758745
-0.695710 0.450530 -0.124980 1325 0.646235 0.054549 -0.745795
-0.694010 0.449420 -0.124020 1343 0.670695 0.038577 -0.731983
-0.693160 0.448880 -0.123230 1359 0.682926 0.030807 -0.720616
-0.692320 0.448330 -0.122430 1373 0.695012 0.022894 -0.709105
-0.691240 0.447630 -0.121590 1397 0.710552 0.012822 -0.697019
-0.690580 0.447200 -0.120830 1411 0.720048 0.006635 -0.686083
-0.690160 0.446930 -0.120110 1411 0.726092 0.002750 -0.675723
-0.689440 0.446460 -0.119340 1417 0.736451 -0.004012 -0.664644
-0.688410 0.445790 -0.118520 1427 0.751272 -0.013653 -0.652846
-0.687810 0.445410 -0.117780 1445 0.759904 -0.019120 -0.642198
-0.687400 0.445140 -0.117060 1457 0.765804 -0.023005 -0.631839
-0.686920 0.444830 -0.116340 1463 0.772710 -0.027466 -0.621479
-0.686810 0.444760 -0.115680 1469 0.774293 -0.028473 -0.611983
-0.686080 0.444290 -0.114920 1475 0.784797 -0.035235 -0.601047
-0.685290 0.443770 -0.114150 1487 0.796164 -0.042718 -0.589968
-0.685430 0.443860 -0.113530 1503 0.794149 -0.041423 -0.581047
-0.685020 0.443590 -0.112830 1513 0.800048 -0.045308 -0.570975
-0.683860 0.442840 -0.112000 1517 0.816739 -0.056099 -0.559033
-0.683370 0.442530 -0.111280 1519 0.823789 -0.060559 -0.548673
-0.683510 0.442620 -0.110670 1531 0.821775 -0.059264 -0.539896
-0.682350 0.441870 -0.109840 1533 0.838466 -0.070056 -0.527954
-0.680940 0.440950 -0.108980 1531 0.858754 -0.083293 -0.515580
-0.680770 0.440840 -0.108320 1543 0.861200 -0.084876 -0.506083
-0.680590 0.440720 -0.107660 1543 0.863790 -0.086603 -0.496587
-0.679990 0.440330 -0.106930 1549 0.872422 -0.092214 -0.486083
-0.679620 0.440100 -0.106240 1555 0.877746 -0.095523 -0.476155
-0.679440 0.439980 -0.105580 1557 0.880336 -0.097250 -0.466659
-0.678650 0.439470 -0.104830 1555 0.891703 -0.104588 -0.455867
-0.678470 0.439350 -0.104170 1561 0.894293 -0.106315 -0.446371
-0.678480 0.439350 -0.103540 1569 0.894149 -0.106315 -0.437306
-0.677860 0.438960 -0.102810 1567 0.903070 -0.111926 -0.426803
-0.677500 0.438720 -0.102130 1581 0.908250 -0.115380 -0.417019
-0.677440 0.438680 -0.101490 1591 0.909113 -0.115955 -0.407810
-0.677440 0.438680 -0.100860 1597 0.909113 -0.115955 -0.398745
-0.677630 0.438810 -0.100260 1599 0.906379 -0.114085 -0.390112
-0.677640 0.438810 -0.099630 1603 0.906235 -0.114085 -0.381047
-0.676780 0.438250 -0.098880 1605 0.918610 -0.122142 -0.370256
-0.675970 0.437730 -0.098130 1597 0.930264 -0.129624 -0.359465
-0.676470 0.438050 -0.097580 1603 0.923070 -0.125020 -0.351551
-0.676590 0.438130 -0.096970 1607 0.921343 -0.123869 -0.342774
-0.676100 0.437820 -0.096270 1609 0.928393 -0.128329 -0.332702
-0.675670 0.437540 -0.095580 1619 0.934580 -0.132358 -0.322774
-0.675610 0.437500 -0.094950 1625 0.935444 -0.132933 -0.313709
-0.675550 0.437450 -0.094310 1619 0.936307 -0.133653 -0.304501
-0.675420 0.437370 -0.093670 1627 0.938178 -0.134804 -0.295292
-0.675430 0.437380 -0.093040 1629 0.938034 -0.134660 -0.286227
-0.675420 0.437370 -0.092410 1627 0.938178 -0.134804 -0.277162
-0.675540 0.437450 -0.091800 1631 0.936452 -0.133653 -0.268385
-0.675350 0.437330 -0.091150 1635 0.939185 -0.135379 -0.259033
-0.675040 0.437130 -0.090490 1639 0.943645 -0.138257 -0.249536
-0.675220 0.437240 -0.089880 1641 0.941055 -0.136674 -0.240759
-0.674660 0.436880 -0.089180 1643 0.949113 -0.141854 -0.230688
-0.674290 0.436640 -0.088510 1637 0.954437 -0.145308 -0.221047
-0.674350 0.436680 -0.087900 1641 0.953573 -0.144732 -0.212270
-0.673720 0.436270 -0.087190 1639 0.962638 -0.150631 -0.202055
-0.673650 0.436220 -0.086560 1649 0.963645 -0.151351 -0.192990
-0.674080 0.436500 -0.085990 1655 0.957458 -0.147322 -0.184788
-0.673760 0.436300 -0.085320 1659 0.962063 -0.150199 -0.175148
-0.673270 0.435980 -0.084640 1657 0.969113 -0.154804 -0.165364
-0.673380 0.436050 -0.084030 1653 0.967530 -0.153797 -0.156587
-0.673380 0.436040 -0.083410 1649 0.967530 -0.153940 -0.147666
-0.673180 0.435920 -0.082760 1647 0.970408 -0.155667 -0.138313
-0.673540 0.436150 -0.082180 1651 0.965228 -0.152358 -0.129968
-0.673840 0.436350 -0.081600 1669 0.960912 -0.149480 -0.121623
-0.673090 0.435860 -0.080880 1665 0.971703 -0.156530 -0.111263
-0.672650 0.435580 -0.080210 1657 0.978034 -0.160559 -0.101623
-0.673070 0.435850 -0.079640 1657 0.971991 -0.156674 -0.093421
-0.673180 0.435920 -0.079030 1661 0.970408 -0.155667 -0.084644
-0.672810 0.435680 -0.078360 1659 0.975731 -0.159120 -0.075004
-0.672920 0.435750 -0.077750 1661 0.974149 -0.158113 -0.066227
-0.673770 0.436300 -0.077230 1673 0.961919 -0.150199 -0.058745
-0.673570 0.436170 -0.076590 1679 0.964797 -0.152070 -0.049537
-0.672940 0.435760 -0.075890 1675 0.973861 -0.157969 -0.039464
-0.672370 0.435390 -0.075210 1667 0.982062 -0.163293 -0.029680
-0.671920 0.435100 -0.074540 1665 0.988537 -0.167466 -0.020040
-0.672530 0.435500 -0.073990 1669 0.979761 -0.161710 -0.012126
-0.673200 0.435930 -0.073440 1677 0.970120 -0.155523 -0.004213
-0.673180 0.435920 -0.072810 1677 0.970408 -0.155667 0.004852
-0.673170 0.435910 -0.072190 1669 0.970552 -0.155811 0.013773
-0.673640 0.436210 -0.071620 1673 0.963789 -0.151494 0.021974
-0.673190 0.435920 -0.070950 1681 0.970264 -0.155667 0.031615
-0.672380 0.435400 -0.070250 1677 0.981919 -0.163149 0.041687
-0.672420 0.435420 -0.069630 1673 0.981343 -0.162861 0.050607
-0.672650 0.435570 -0.069040 1673 0.978034 -0.160703 0.059097
-0.672390 0.435400 -0.068390 1669 0.981775 -0.163149 0.068449
-0.672680 0.435590 -0.067800 1665 0.977602 -0.160415 0.076938
-0.673280 0.435980 -0.067240 1669 0.968969 -0.154804 0.084996
-0.672830 0.435690 -0.066580 1667 0.975444 -0.158977 0.094492
-0.672620 0.435550 -0.065940 1671 0.978466 -0.160991 0.103701
-0.673400 0.436060 -0.065390 1681 0.967243 -0.153653 0.111615
-0.673510 0.436130 -0.064780 1671 0.965660 -0.152646 0.120392
-0.673050 0.435830 -0.064120 1661 0.972279 -0.156962 0.129888
-0.673030 0.435820 -0.063500 1659 0.972566 -0.157106 0.138809
-0.673440 0.436090 -0.062920 1665 0.966667 -0.153221 0.147154
-0.673920 0.436390 -0.062340 1673 0.959761 -0.148904 0.155500
-0.673830 0.436340 -0.061710 1669 0.961056 -0.149624 0.164564
-0.674120 0.436530 -0.061120 1671 0.956883 -0.146890 0.173053
-0.674410 0.436710 -0.060520 1677 0.952710 -0.144300 0.181687
-0.673400 0.436060 -0.059810 1661 0.967243 -0.153653 0.191902
-0.673250 0.435960 -0.059180 1657 0.969401 -0.155092 0.200967
-0.673720 0.436260 -0.058600 1659 0.962638 -0.150775 0.209312
-0.674130 0.436530 -0.058020 1657 0.956739 -0.146890 0.217658
-0.674290 0.436640 -0.057410 1651 0.954437 -0.145308 0.226435
-0.674630 0.436860 -0.056820 1659 0.949545 -0.142142 0.234924
-0.674670 0.436880 -0.056200 1655 0.948969 -0.141854 0.243845
-0.674590 0.436830 -0.055580 1661 0.950120 -0.142573 0.252766
-0.675240 0.437250 -0.055010 1663 0.940768 -0.136531 0.260967
-0.675280 0.437270 -0.054390 1659 0.940193 -0.136243 0.269888
-0.675250 0.437250 -0.053770 1651 0.940624 -0.136531 0.278809
-0.675410 0.437360 -0.053160 1651 0.938322 -0.134948 0.287586
-0.675260 0.437260 -0.052530 1651 0.940480 -0.136387 0.296651
-0.675600 0.437480 -0.051940 1643 0.935588 -0.133221 0.305140
-0.676000 0.437740 -0.051350 1643 0.929832 -0.129480 0.313629
-0.676220 0.437880 -0.050740 1649 0.926667 -0.127466 0.322406
-0.676630 0.438150 -0.050150 1645 0.920767 -0.123581 0.330895
-0.676790 0.438250 -0.049540 1645 0.918466 -0.122142 0.339672
-0.676570 0.438110 -0.048900 1645 0.921631 -0.124156 0.348881
-0.676540 0.438090 -0.048280 1639 0.922062 -0.124444 0.357802
-0.676690 0.438190 -0.047670 1639 0.919905 -0.123005 0.366579
-0.676910 0.438330 -0.047060 1629 0.916739 -0.120991 0.375356
-0.677560 0.438750 -0.046490 1619 0.907387 -0.114948 0.383557
-0.678020 0.439050 -0.045900 1625 0.900768 -0.110631 0.392046
-0.677860 0.438950 -0.045260 1619 0.903070 -0.112070 0.401255
-0.677580 0.438770 -0.044620 1619 0.907099 -0.114660 0.410464
-0.677550 0.438750 -0.044000 1615 0.907530 -0.114948 0.419384
-0.677950 0.439000 -0.043400 1615 0.901775 -0.111350 0.428017
-0.678660 0.439470 -0.042830 1617 0.891559 -0.104588 0.436219
-0.679430 0.439960 -0.042250 1617 0.880480 -0.097538 0.444564
-0.679400 0.439940 -0.041620 1611 0.880911 -0.097825 0.453629
-0.679610 0.440080 -0.041010 1605 0.877890 -0.095811 0.462406
-0.680310 0.440530 -0.040430 1597 0.867818 -0.089336 0.470751
-0.680720 0.440800 -0.039830 1597 0.861919 -0.085451 0.479384
-0.681050 0.441010 -0.039230 1599 0.857171 -0.082430 0.488017
-0.680950 0.440950 -0.038600 1591 0.858610 -0.083293 0.497082
-0.681410 0.441250 -0.038000 1587 0.851991 -0.078977 0.505715
-0.682550 0.441980 -0.037440 1583 0.835588 -0.068473 0.513773
-0.682450 0.441920 -0.036800 1581 0.837027 -0.069336 0.522982
-0.682160 0.441730 -0.036160 1569 0.841199 -0.072070 0.532190
-0.682560 0.441990 -0.035560 1567 0.835444 -0.068329 0.540823
-0.683080 0.442330 -0.034960 1569 0.827962 -0.063437 0.549456
-0.683660 0.442700 -0.034360 1571 0.819617 -0.058113 0.558089
-0.684370 0.443160 -0.033770 1569 0.809401 -0.051495 0.566579
-0.685190 0.443700 -0.033180 1561 0.797602 -0.043725 0.575068
-0.685520 0.443910 -0.032570 1551 0.792854 -0.040703 0.583845
-0.685860 0.444120 -0.031960 1545 0.787962 -0.037682 0.592622
-0.686120 0.444300 -0.031340 1539 0.784221 -0.035092 0.601543
-0.686570 0.444590 -0.030730 1535 0.777746 -0.030919 0.610320
-0.687340 0.445090 -0.030140 1531 0.766667 -0.023725 0.618809
-0.688110 0.445580 -0.029540 1523 0.755588 -0.016674 0.627442
-0.688550 0.445870 -0.028930 1515 0.749257 -0.012502 0.636219
-0.688760 0.446010 -0.028310 1513 0.746236 -0.010487 0.645140
-0.689030 0.446180 -0.027690 1505 0.742351 -0.008041 0.654061
-0.689420 0.446430 -0.027070 1503 0.736739 -0.004444 0.662982
-0.689440 0.446450 -0.026440 1491 0.736451 -0.004156 0.672046
-0.689700 0.446610 -0.025820 1481 0.732710 -0.001854 0.680967
-0.690830 0.447350 -0.025230 1483 0.716451 0.008793 0.689456
-0.691590 0.447840 -0.024620 1479 0.705516 0.015844 0.698233
-0.692540 0.448460 -0.024020 1469 0.691847 0.024765 0.706866
-0.693860 0.449310 -0.023430 1463 0.672854 0.036995 0.715356
-0.694310 0.449600 -0.022810 1453 0.666379 0.041168 0.724276
-0.694320 0.449610 -0.022180 1439 0.666235 0.041311 0.733341
-0.694900 0.449980 -0.021560 1427 0.657890 0.046635 0.742262
-0.695900 0.450630 -0.020950 1413 0.643501 0.055988 0.751039
-0.696900 0.451280 -0.020350 1401 0.629113 0.065340 0.759672
-0.697480 0.451660 -0.019720 1393 0.620767 0.070808 0.768737
-0.697860 0.451900 -0.019100 1383 0.615300 0.074261 0.777658
-0.698490 0.452310 -0.018470 1369 0.606235 0.080160 0.786723
-0.700000 0.453290 -0.017870 1353 0.584509 0.094261 0.795356
-0.701310 0.454140 -0.017260 1333 0.565660 0.106491 0.804133
-0.702560 0.454950 -0.016650 1321 0.547674 0.118146 0.812910
-0.704500 0.456200 -0.016050 1301 0.519760 0.136131 0.821543
-0.705070 0.456570 -0.015420 1273 0.511559 0.141455 0.830607
-0.705570 0.456900 -0.014780 1249 0.504365 0.146203 0.839816
-0.707390 0.458070 -0.014170 1225 0.478178 0.163038 0.848593
-0.708940 0.459080 -0.013560 1197 0.455875 0.177570 0.857370
-0.710320 0.459970 -0.012930 1173 0.436020 0.190376 0.866435
-0.711750 0.460900 -0.012310 1139 0.415444 0.203757 0.875356
-0.714120 0.462440 -0.011690 1103 0.381344 0.225916 0.884277
-0.705830 0.457840 -0.131480 1127 0.500624 0.159728 -0.839321
-0.702540 0.455700 -0.130210 1159 0.547962 0.128937 -0.821047
-0.701210 0.454840 -0.129310 1195 0.567098 0.116563 -0.808098
-0.700010 0.454060 -0.128430 1225 0.584365 0.105340 -0.795436
-0.698740 0.453240 -0.127550 1249 0.602638 0.093542 -0.782774
-0.697600 0.452500 -0.126690 1275 0.619041 0.082894 -0.770400
-0.696270 0.451630 -0.125790 1295 0.638178 0.070376 -0.757450
-0.695000 0.450810 -0.124910 1313 0.656451 0.058577 -0.744788
-0.693850 0.450060 -0.124060 1335 0.672998 0.047786 -0.732558
-0.693200 0.449640 -0.123290 1355 0.682351 0.041743 -0.721479
-0.692230 0.449010 -0.122470 1369 0.696307 0.032678 -0.709680
-0.691210 0.448350 -0.121650 1391 0.710984 0.023182 -0.697882
-0.690120 0.447640 -0.120810 1393 0.726667 0.012966 -0.685795
-0.689520 0.447250 -0.120060 1401 0.735300 0.007355 -0.675004
-0.689420 0.447180 -0.119400 1411 0.736739 0.006347 -0.665508
-0.689060 0.446950 -0.118690 1433 0.741919 0.003038 -0.655292
-0.688760 0.446760 -0.118000 1445 0.746236 0.000304 -0.645364
-0.688290 0.446450 -0.117270 1453 0.752998 -0.004156 -0.634860
-0.687140 0.445700 -0.116440 1459 0.769545 -0.014948 -0.622918
-0.686660 0.445390 -0.115710 1463 0.776451 -0.019408 -0.612414
-0.686110 0.445040 -0.114980 1469 0.784365 -0.024444 -0.601911
-0.685460 0.444610 -0.114230 1479 0.793718 -0.030631 -0.591119
-0.685160 0.444420 -0.113540 1495 0.798034 -0.033365 -0.581191
-0.684680 0.444110 -0.112830 1509 0.804941 -0.037825 -0.570975
-0.683650 0.443440 -0.112020 1511 0.819760 -0.047466 -0.559321
-0.683290 0.443210 -0.111320 1511 0.824940 -0.050775 -0.549249
-0.683110 0.443090 -0.110660 1519 0.827530 -0.052502 -0.539752
-0.682130 0.442460 -0.109860 1529 0.841631 -0.061566 -0.528242
-0.681470 0.442030 -0.109120 1535 0.851128 -0.067753 -0.517594
-0.681240 0.441870 -0.108450 1541 0.854436 -0.070056 -0.507954
-0.681120 0.441800 -0.107800 1545 0.856164 -0.071063 -0.498601
-0.680510 0.441400 -0.107070 1549 0.864941 -0.076818 -0.488098
-0.680090 0.441130 -0.106370 1555 0.870983 -0.080703 -0.478026
-0.679540 0.440770 -0.105650 1551 0.878897 -0.085883 -0.467666
-0.678630 0.440180 -0.104870 1555 0.891991 -0.094372 -0.456443
-0.678630 0.440180 -0.104240 1563 0.891991 -0.094372 -0.447378
-0.679130 0.440500 -0.103690 1569 0.884796 -0.089768 -0.439465
-0.678700 0.440230 -0.102990 1573 0.890984 -0.093653 -0.429393
-0.678340 0.439990 -0.102310 1585 0.896163 -0.097106 -0.419608
-0.678160 0.439870 -0.101650 1593 0.898753 -0.098833 -0.410112
-0.677730 0.439590 -0.100950 1591 0.904940 -0.102861 -0.400040
-0.677370 0.439360 -0.100270 1593 0.910120 -0.106171 -0.390256
-0.677000 0.439120 -0.099590 1599 0.915444 -0.109624 -0.380472
-0.676260 0.438640 -0.098850 1595 0.926092 -0.116531 -0.369824
-0.676080 0.438520 -0.098200 1593 0.928682 -0.118257 -0.360472
-0.676510 0.438800 -0.097630 1603 0.922495 -0.114228 -0.352270
-0.677070 0.439170 -0.097080 1613 0.914436 -0.108905 -0.344357
-0.676760 0.438960 -0.096410 1615 0.918897 -0.111926 -0.334716
-0.676200 0.438600 -0.095700 1623 0.926955 -0.117106 -0.324501
-0.675830 0.438360 -0.095020 1621 0.932278 -0.120559 -0.314716
-0.675890 0.438400 -0.094400 1625 0.931415 -0.119984 -0.305796
-0.675770 0.438320 -0.093760 1625 0.933142 -0.121135 -0.296587
-0.674970 0.437800 -0.093020 1627 0.944653 -0.128617 -0.285939
-0.674780 0.437680 -0.092370 1623 0.947386 -0.130343 -0.276587
-0.674960 0.437800 -0.091770 1625 0.944796 -0.128617 -0.267954
-0.674770 0.437670 -0.091120 1635 0.947530 -0.130487 -0.258601
-0.674520 0.437510 -0.090460 1639 0.951127 -0.132789 -0.249105
-0.674340 0.437390 -0.089810 1635 0.953717 -0.134516 -0.239752
-0.674400 0.437430 -0.089190 1637 0.952854 -0.133941 -0.230831
-0.674020 0.437190 -0.088520 1641 0.958322 -0.137394 -0.221191
-0.673890 0.437100 -0.087880 1645 0.960192 -0.138689 -0.211983
-0.674010 0.437180 -0.087270 1645 0.958466 -0.137538 -0.203206
-0.674070 0.437210 -0.086650 1653 0.957602 -0.137106 -0.194285
-0.674550 0.437530 -0.086090 1657 0.950696 -0.132502 -0.186227
-0.674550 0.437530 -0.085470 1653 0.950696 -0.132502 -0.177306
-0.673740 0.437000 -0.084740 1651 0.962350 -0.140128 -0.166803
-0.673610 0.436920 -0.084100 1651 0.964221 -0.141279 -0.157594
-0.673480 0.436830 -0.083460 1657 0.966092 -0.142573 -0.148385
-0.672920 0.436470 -0.082770 1647 0.974149 -0.147753 -0.138457
-0.672970 0.436500 -0.082150 1649 0.973430 -0.147322 -0.129536
-0.673450 0.436810 -0.081590 1669 0.966523 -0.142862 -0.121479
-0.673260 0.436690 -0.080940 1665 0.969257 -0.144588 -0.112126
