772
0.924680 1.015900 -0.050720 1435 -0.111793 -0.883790 0.467341
0.925160 1.016420 -0.049690 1429 -0.104886 -0.876308 0.482161
0.925530 1.016830 -0.048660 1419 -0.099562 -0.870410 0.496981
0.926150 1.017500 -0.047640 1413 -0.090641 -0.860768 0.511657
0.926820 1.018240 -0.046610 1411 -0.081001 -0.850122 0.526477
0.927390 1.018860 -0.045590 1401 -0.072800 -0.841201 0.541154
0.927660 1.019160 -0.044540 1383 -0.068915 -0.836884 0.556261
0.928080 1.019620 -0.043500 1381 -0.062871 -0.830266 0.571226
0.928400 1.019970 -0.042460 1371 -0.058268 -0.825228 0.586190
0.929260 1.020920 -0.041440 1361 -0.045893 -0.811560 0.600866
0.930670 1.022460 -0.040440 1351 -0.025605 -0.789402 0.615254
0.932030 1.023960 -0.039440 1347 -0.006037 -0.767819 0.629643
0.932800 1.024800 -0.038410 1331 0.005042 -0.755734 0.644463
0.932760 1.024760 -0.037350 1311 0.004466 -0.756308 0.659715
0.933580 1.025650 -0.036320 1295 0.016265 -0.743502 0.674535
0.935080 1.027310 -0.035310 1283 0.037848 -0.719618 0.689067
0.936690 1.029070 -0.034300 1271 0.061013 -0.694294 0.703600
0.937400 1.029850 -0.033260 1245 0.071229 -0.683071 0.718564
0.938210 1.030740 -0.032220 1221 0.082884 -0.670265 0.733528
0.939070 1.031680 -0.031180 1195 0.095258 -0.656740 0.748492
0.940030 1.032740 -0.030140 1163 0.109070 -0.641488 0.763456
0.941580 1.034440 -0.029120 1131 0.131373 -0.617027 0.778132
0.942440 1.035380 -0.028070 1075 0.143747 -0.603503 0.793240
0.943940 1.037030 -0.027040 1021 0.165330 -0.579762 0.808060
0.939690 1.030910 -0.135270 1065 0.104179 -0.667819 -0.749206
0.938130 1.029200 -0.133970 1091 0.081733 -0.692424 -0.730501
0.937300 1.028300 -0.132770 1131 0.069791 -0.705373 -0.713235
0.936140 1.027020 -0.131540 1167 0.053100 -0.723791 -0.695537
0.935020 1.025790 -0.130310 1197 0.036985 -0.741489 -0.677839
0.934140 1.024830 -0.129110 1215 0.024323 -0.755301 -0.660573
0.933080 1.023660 -0.127890 1237 0.009071 -0.772137 -0.643019
0.932300 1.022820 -0.126720 1261 -0.002153 -0.784222 -0.626185
0.931680 1.022130 -0.125570 1279 -0.011073 -0.794150 -0.609638
0.930600 1.020950 -0.124350 1295 -0.026613 -0.811129 -0.592084
0.930370 1.020700 -0.123260 1319 -0.029922 -0.814726 -0.576400
0.930430 1.020770 -0.122200 1341 -0.029059 -0.813719 -0.561149
0.929160 1.019370 -0.120970 1353 -0.047332 -0.833863 -0.543451
0.927640 1.017710 -0.119710 1353 -0.069202 -0.857748 -0.525321
0.927210 1.017230 -0.118590 1359 -0.075390 -0.864653 -0.509206
0.926870 1.016860 -0.117480 1373 -0.080282 -0.869977 -0.493235
0.926100 1.016010 -0.116320 1381 -0.091361 -0.882207 -0.476544
0.925610 1.015480 -0.115200 1391 -0.098411 -0.889833 -0.460429
0.925320 1.015160 -0.114110 1405 -0.102583 -0.894438 -0.444746
0.924990 1.014800 -0.113010 1407 -0.107332 -0.899619 -0.428918
0.924300 1.014040 -0.111860 1407 -0.117260 -0.910553 -0.412372
0.923970 1.013670 -0.110770 1423 -0.122009 -0.915877 -0.396688
0.923630 1.013300 -0.109670 1425 -0.126900 -0.921201 -0.380861
0.923290 1.012930 -0.108570 1431 -0.131792 -0.926524 -0.365034
0.923250 1.012880 -0.107510 1443 -0.132368 -0.927244 -0.349782
0.922950 1.012560 -0.106420 1449 -0.136684 -0.931848 -0.334098
0.922960 1.012570 -0.105360 1455 -0.136541 -0.931704 -0.318846
0.922470 1.012030 -0.104250 1461 -0.143591 -0.939474 -0.302875
0.921580 1.011060 -0.103100 1463 -0.156397 -0.953431 -0.286328
0.921290 1.010730 -0.102010 1465 -0.160570 -0.958179 -0.270645
0.921740 1.011230 -0.101010 1479 -0.154095 -0.950985 -0.256257
0.921840 1.011340 -0.099960 1485 -0.152656 -0.949402 -0.241149
0.921200 1.010630 -0.098840 1481 -0.161865 -0.959618 -0.225033
0.921050 1.010470 -0.097770 1485 -0.164023 -0.961919 -0.209638
0.920660 1.010040 -0.096680 1487 -0.169634 -0.968106 -0.193954
0.920360 1.009710 -0.095590 1481 -0.173950 -0.972856 -0.178271
0.920700 1.010090 -0.094580 1487 -0.169059 -0.967388 -0.163739
0.920110 1.009440 -0.093470 1489 -0.177548 -0.976741 -0.147767
0.919660 1.008950 -0.092370 1489 -0.184023 -0.983791 -0.131940
0.919910 1.009220 -0.091340 1485 -0.180425 -0.979906 -0.117120
0.920260 1.009600 -0.090330 1495 -0.175389 -0.974437 -0.102587
0.920160 1.009490 -0.089260 1495 -0.176829 -0.976021 -0.087192
0.919560 1.008830 -0.088160 1493 -0.185461 -0.985518 -0.071364
0.919450 1.008720 -0.087100 1505 -0.187045 -0.987099 -0.056113
0.919440 1.008710 -0.086050 1503 -0.187189 -0.987243 -0.041005
0.918800 1.008000 -0.084940 1497 -0.196397 -0.997459 -0.025034
0.918440 1.007610 -0.083850 1501 -0.201577 -1.003072 -0.009350
0.919380 1.008640 -0.082890 1509 -0.188051 -0.988250 0.004463
0.920120 1.009440 -0.081910 1515 -0.177404 -0.976741 0.018564
0.920260 1.009600 -0.080870 1509 -0.175389 -0.974437 0.033528
0.920350 1.009700 -0.079830 1513 -0.174094 -0.973000 0.048492
0.919800 1.009090 -0.078730 1503 -0.182009 -0.981777 0.064319
0.919590 1.008860 -0.077660 1501 -0.185030 -0.985086 0.079715
0.919730 1.009020 -0.076620 1505 -0.183015 -0.982784 0.094679
0.919570 1.008840 -0.075560 1507 -0.185317 -0.985374 0.109930
0.919560 1.008830 -0.074510 1501 -0.185461 -0.985518 0.125038
0.920390 1.009740 -0.073530 1505 -0.173519 -0.972424 0.139139
0.920920 1.010320 -0.072520 1513 -0.165893 -0.964079 0.153672
0.920370 1.009710 -0.071430 1507 -0.173807 -0.972856 0.169355
0.920150 1.009480 -0.070360 1499 -0.176973 -0.976165 0.184751
0.920540 1.009900 -0.069340 1501 -0.171361 -0.970122 0.199427
0.921020 1.010430 -0.068330 1495 -0.164455 -0.962496 0.213959
0.921300 1.010740 -0.067300 1495 -0.160426 -0.958034 0.228779
0.921630 1.011100 -0.066270 1491 -0.155677 -0.952854 0.243600
0.922610 1.012170 -0.065290 1493 -0.141577 -0.937460 0.257700
0.922940 1.012540 -0.064260 1489 -0.136828 -0.932136 0.272520
0.922830 1.012410 -0.063200 1489 -0.138411 -0.934006 0.287772
0.922310 1.011850 -0.062110 1483 -0.145893 -0.942064 0.303456
0.922340 1.011880 -0.061060 1477 -0.145462 -0.941632 0.318564
0.922870 1.012460 -0.060050 1477 -0.137836 -0.933287 0.333096
0.922950 1.012550 -0.059000 1471 -0.136684 -0.931992 0.348204
0.923230 1.012850 -0.057970 1463 -0.132656 -0.927675 0.363024
0.923810 1.013480 -0.056950 1463 -0.124310 -0.918611 0.377700
0.924180 1.013890 -0.055920 1459 -0.118987 -0.912711 0.392520
0.924410 1.014140 -0.054880 1451 -0.115678 -0.909114 0.407484
0.925130 1.014940 -0.053870 1455 -0.105318 -0.897603 0.422017
0.925460 1.015290 -0.052830 1447 -0.100570 -0.892567 0.436981
0.925440 1.015270 -0.051780 1429 -0.100857 -0.892855 0.452089
0.926010 1.015890 -0.050760 1429 -0.092656 -0.883934 0.466765
0.926730 1.016680 -0.049740 1425 -0.082296 -0.872567 0.481441
0.927250 1.017250 -0.048710 1425 -0.074814 -0.864367 0.496261
0.927470 1.017500 -0.047670 1409 -0.071648 -0.860768 0.511226
0.928040 1.018120 -0.046640 1401 -0.063447 -0.851847 0.526046
0.928710 1.018860 -0.045610 1397 -0.053807 -0.841201 0.540866
0.929180 1.019370 -0.044580 1385 -0.047044 -0.833863 0.555686
0.929850 1.020100 -0.043550 1379 -0.037404 -0.823359 0.570506
0.930260 1.020560 -0.042510 1367 -0.031505 -0.816740 0.585470
0.930590 1.020910 -0.041470 1355 -0.026757 -0.811704 0.600434
0.931400 1.021800 -0.040440 1339 -0.015102 -0.798898 0.615254
0.932960 1.023510 -0.039450 1335 0.007344 -0.774294 0.629499
0.934370 1.025060 -0.038450 1317 0.027632 -0.751991 0.643887
0.934590 1.025290 -0.037390 1299 0.030797 -0.748682 0.659139
0.935060 1.025810 -0.036340 1283 0.037560 -0.741201 0.674247
0.936360 1.027240 -0.035330 1275 0.056265 -0.720624 0.688779
0.937220 1.028180 -0.034290 1255 0.068639 -0.707100 0.703743
0.938390 1.029460 -0.033270 1233 0.085474 -0.688683 0.718420
0.939590 1.030770 -0.032240 1211 0.102740 -0.669834 0.733240
0.940300 1.031550 -0.031200 1171 0.112956 -0.658610 0.748204
0.941610 1.032990 -0.030170 1137 0.131804 -0.637891 0.763024
0.942910 1.034420 -0.029140 1107 0.150510 -0.617315 0.777844
0.944470 1.036120 -0.028110 1053 0.172956 -0.592854 0.792664
0.946170 1.037990 -0.027080 991 0.197416 -0.565949 0.807485
0.941460 1.031270 -0.135410 1027 0.129647 -0.662639 -0.751221
0.939800 1.029450 -0.134090 1073 0.105762 -0.688826 -0.732228
0.938680 1.028230 -0.132860 1113 0.089646 -0.706381 -0.714530
0.937660 1.027110 -0.131640 1151 0.074970 -0.722496 -0.696976
0.936790 1.026150 -0.130440 1177 0.062452 -0.736309 -0.679710
0.935870 1.025150 -0.129240 1201 0.049215 -0.750698 -0.662444
0.934650 1.023820 -0.128000 1233 0.031661 -0.769833 -0.644602
0.933830 1.022910 -0.126820 1251 0.019862 -0.782927 -0.627623
0.932760 1.021740 -0.125610 1267 0.004466 -0.799762 -0.610213
0.931980 1.020890 -0.124430 1281 -0.006756 -0.811992 -0.593235
0.931600 1.020470 -0.123310 1301 -0.012225 -0.818035 -0.577120
0.931070 1.019890 -0.122180 1327 -0.019850 -0.826381 -0.560861
0.930490 1.019250 -0.121040 1335 -0.028195 -0.835589 -0.544458
0.929810 1.018510 -0.119880 1351 -0.037980 -0.846237 -0.527767
0.928930 1.017550 -0.118710 1355 -0.050642 -0.860050 -0.510933
0.928300 1.016860 -0.117560 1359 -0.059706 -0.869977 -0.494386
0.927520 1.016000 -0.116400 1375 -0.070930 -0.882351 -0.477695
0.926980 1.015420 -0.115280 1391 -0.078699 -0.890698 -0.461580
0.926450 1.014830 -0.114150 1397 -0.086325 -0.899186 -0.445321
0.925920 1.014250 -0.113020 1401 -0.093951 -0.907531 -0.429062
0.925520 1.013820 -0.111920 1403 -0.099706 -0.913718 -0.413235
0.925040 1.013290 -0.110800 1407 -0.106613 -0.921344 -0.397120
0.924750 1.012970 -0.109710 1417 -0.110786 -0.925949 -0.381436
0.924360 1.012550 -0.108610 1429 -0.116397 -0.931992 -0.365609
0.923970 1.012120 -0.107500 1435 -0.122009 -0.938179 -0.349638
0.923980 1.012130 -0.106450 1439 -0.121864 -0.938035 -0.334530
0.924130 1.012300 -0.105410 1441 -0.119706 -0.935589 -0.319566
0.923940 1.012080 -0.104330 1453 -0.122440 -0.938755 -0.304026
0.923450 1.011550 -0.103220 1457 -0.129490 -0.946381 -0.288055
0.923150 1.011220 -0.102130 1459 -0.133807 -0.951129 -0.272372
0.923060 1.011120 -0.101070 1473 -0.135102 -0.952568 -0.257120
0.922810 1.010850 -0.099980 1481 -0.138699 -0.956453 -0.241436
0.922420 1.010420 -0.098890 1473 -0.144310 -0.962640 -0.225753
0.922180 1.010150 -0.097810 1477 -0.147764 -0.966525 -0.210213
0.921920 1.009870 -0.096730 1481 -0.151505 -0.970552 -0.194674
0.921580 1.009490 -0.095640 1483 -0.156397 -0.976021 -0.178990
0.921430 1.009330 -0.094570 1483 -0.158555 -0.978322 -0.163595
0.921180 1.009060 -0.093500 1487 -0.162152 -0.982207 -0.148199
0.921130 1.009010 -0.092440 1489 -0.162872 -0.982928 -0.132947
0.921430 1.009330 -0.091420 1487 -0.158555 -0.978322 -0.118271
0.921520 1.009430 -0.090370 1495 -0.157260 -0.976883 -0.103163
0.921370 1.009270 -0.089310 1489 -0.159418 -0.979187 -0.087911
0.921270 1.009160 -0.088250 1497 -0.160857 -0.980768 -0.072659
0.921070 1.008930 -0.087180 1501 -0.163735 -0.984079 -0.057264
0.920910 1.008760 -0.086110 1499 -0.166037 -0.986525 -0.041868
0.920760 1.008600 -0.085050 1497 -0.168196 -0.988827 -0.026616
0.920950 1.008810 -0.084010 1503 -0.165462 -0.985804 -0.011652
0.921540 1.009450 -0.083010 1505 -0.156972 -0.976597 0.002736
0.921190 1.009060 -0.081930 1503 -0.162008 -0.982207 0.018276
0.920830 1.008670 -0.080850 1509 -0.167188 -0.987820 0.033815
0.920680 1.008510 -0.079790 1503 -0.169347 -0.990121 0.049067
0.920420 1.008230 -0.078720 1497 -0.173088 -0.994151 0.064463
0.920410 1.008210 -0.077660 1501 -0.173232 -0.994439 0.079715
0.920500 1.008310 -0.076620 1499 -0.171937 -0.993000 0.094679
0.920840 1.008680 -0.075600 1509 -0.167044 -0.987676 0.109355
0.920980 1.008830 -0.074560 1511 -0.165030 -0.985518 0.124319
0.921210 1.009090 -0.073530 1497 -0.161721 -0.981777 0.139139
0.921500 1.009400 -0.072500 1505 -0.157548 -0.977315 0.153959
0.921680 1.009610 -0.071470 1503 -0.154958 -0.974293 0.168779
0.922020 1.009970 -0.070440 1497 -0.150066 -0.969115 0.183600
0.922260 1.010230 -0.069410 1493 -0.146613 -0.965374 0.198420
0.922240 1.010210 -0.068360 1491 -0.146900 -0.965660 0.213528
0.922870 1.010910 -0.067350 1493 -0.137836 -0.955589 0.228060
0.923350 1.011430 -0.066340 1493 -0.130930 -0.948107 0.242592
0.923290 1.011360 -0.065280 1491 -0.131792 -0.949113 0.257844
0.923570 1.011670 -0.064250 1481 -0.127764 -0.944654 0.272664
0.924190 1.012350 -0.063240 1489 -0.118843 -0.934870 0.287197
0.924230 1.012390 -0.062190 1485 -0.118268 -0.934294 0.302305
0.923960 1.012100 -0.061120 1471 -0.122153 -0.938467 0.317700
0.924390 1.012570 -0.060100 1475 -0.115965 -0.931704 0.332377
0.924520 1.012710 -0.059050 1469 -0.114094 -0.929690 0.347484
0.924750 1.012960 -0.058010 1465 -0.110786 -0.926093 0.362449
0.925180 1.013420 -0.056990 1455 -0.104598 -0.919474 0.377125
0.925650 1.013940 -0.055960 1447 -0.097836 -0.911992 0.391945
0.926230 1.014570 -0.054940 1451 -0.089490 -0.902927 0.406621
0.926650 1.015040 -0.053910 1447 -0.083447 -0.896164 0.421441
0.926930 1.015340 -0.052870 1445 -0.079418 -0.891848 0.436405
0.927310 1.015750 -0.051840 1437 -0.073951 -0.885948 0.451225
0.927630 1.016110 -0.050800 1431 -0.069346 -0.880770 0.466190
0.928000 1.016510 -0.049770 1421 -0.064023 -0.875013 0.481010
0.928420 1.016970 -0.048730 1417 -0.057979 -0.868394 0.495974
0.928350 1.016900 -0.047670 1401 -0.058987 -0.869403 0.511226
0.928920 1.017520 -0.046640 1383 -0.050786 -0.860482 0.526046
0.930130 1.018850 -0.045650 1385 -0.033375 -0.841345 0.540290
0.930700 1.019470 -0.044620 1381 -0.025174 -0.832424 0.555110
0.931670 1.020530 -0.043600 1381 -0.011217 -0.817172 0.569787
0.932490 1.021420 -0.042580 1365 0.000581 -0.804366 0.584463
0.932610 1.021560 -0.041520 1343 0.002308 -0.802352 0.599715
0.933520 1.022550 -0.040500 1335 0.015402 -0.788107 0.614391
0.934590 1.023720 -0.039490 1323 0.030797 -0.771272 0.628923
0.935410 1.024610 -0.038460 1307 0.042596 -0.758466 0.643743
0.936120 1.025400 -0.037420 1287 0.052811 -0.747099 0.658707
0.936980 1.026340 -0.036390 1279 0.065186 -0.733575 0.673528
0.937940 1.027390 -0.035360 1261 0.078999 -0.718467 0.688348
0.938160 1.027630 -0.034300 1235 0.082164 -0.715014 0.703600
0.939020 1.028570 -0.033260 1221 0.094538 -0.701487 0.718564
0.940530 1.030220 -0.032250 1193 0.116265 -0.677747 0.733096
0.941490 1.031270 -0.031210 1153 0.130078 -0.662639 0.748060
0.942950 1.032860 -0.030190 1115 0.151085 -0.639761 0.762736
0.944700 1.034790 -0.029170 1081 0.176265 -0.611991 0.777413
0.946890 1.037190 -0.028160 1023 0.207776 -0.577460 0.791945
0.942080 1.030350 -0.134310 1049 0.138568 -0.675877 -0.735393
0.941350 1.029560 -0.133120 1099 0.128063 -0.687244 -0.718271
0.940080 1.028170 -0.131870 1131 0.109790 -0.707244 -0.700285
0.938570 1.026520 -0.130580 1159 0.088064 -0.730985 -0.681724
0.937890 1.025780 -0.129410 1187 0.078279 -0.741633 -0.664890
0.937070 1.024880 -0.128230 1217 0.066481 -0.754581 -0.647911
0.935900 1.023600 -0.126990 1241 0.049646 -0.772999 -0.630070
0.934880 1.022480 -0.125790 1255 0.034970 -0.789114 -0.612803
0.933950 1.021470 -0.124590 1269 0.021589 -0.803647 -0.595537
0.932980 1.020410 -0.123390 1291 0.007632 -0.818899 -0.578271
0.932440 1.019820 -0.122260 1313 -0.000138 -0.827388 -0.562012
0.932060 1.019400 -0.121140 1323 -0.005605 -0.833431 -0.545897
0.931390 1.018660 -0.119990 1331 -0.015246 -0.844079 -0.529350
0.930510 1.017700 -0.118810 1341 -0.027908 -0.857892 -0.512372
0.929870 1.017010 -0.117660 1353 -0.037116 -0.867820 -0.495825
0.929190 1.016260 -0.116510 1365 -0.046901 -0.878610 -0.479278
0.928700 1.015730 -0.115390 1373 -0.053951 -0.886236 -0.463163
0.928170 1.015150 -0.114260 1389 -0.061576 -0.894583 -0.446904
0.927390 1.014290 -0.113110 1399 -0.072800 -0.906956 -0.430357
0.927050 1.013920 -0.112010 1399 -0.077692 -0.912280 -0.414530
0.926560 1.013390 -0.110890 1399 -0.084742 -0.919906 -0.398415
0.926180 1.012970 -0.109780 1409 -0.090210 -0.925949 -0.382444
0.925780 1.012540 -0.108680 1417 -0.095965 -0.932136 -0.366616
0.925390 1.012110 -0.107580 1429 -0.101577 -0.938323 -0.350789
0.925200 1.011900 -0.106500 1427 -0.104311 -0.941345 -0.335249
0.925010 1.011690 -0.105420 1435 -0.107044 -0.944366 -0.319710
0.925120 1.011810 -0.104370 1447 -0.105462 -0.942640 -0.304602
0.924920 1.011590 -0.103300 1453 -0.108339 -0.945805 -0.289206
0.924230 1.010830 -0.102160 1455 -0.118268 -0.956739 -0.272803
0.924280 1.010890 -0.101110 1467 -0.117548 -0.955877 -0.257695
0.924530 1.011170 -0.100090 1477 -0.113950 -0.951848 -0.243019
0.924230 1.010840 -0.099000 1475 -0.118268 -0.956595 -0.227336
0.923890 1.010460 -0.097910 1465 -0.123159 -0.962064 -0.211652
0.923990 1.010580 -0.096860 1483 -0.121720 -0.960338 -0.196544
0.923540 1.010090 -0.095760 1489 -0.128195 -0.967388 -0.180717
0.922950 1.009430 -0.094650 1487 -0.136684 -0.976883 -0.164746
0.922400 1.008840 -0.093540 1479 -0.144598 -0.985374 -0.148774
0.922400 1.008840 -0.092490 1489 -0.144598 -0.985374 -0.133667
0.922600 1.009060 -0.091460 1487 -0.141721 -0.982207 -0.118846
0.922400 1.008830 -0.090380 1483 -0.144598 -0.985518 -0.103307
0.922400 1.008830 -0.089330 1485 -0.144598 -0.985518 -0.088199
0.922390 1.008820 -0.088280 1491 -0.144742 -0.985660 -0.073091
0.921940 1.008340 -0.087190 1491 -0.151217 -0.992567 -0.057408
0.921540 1.007890 -0.086100 1489 -0.156972 -0.999042 -0.041724
0.921830 1.008210 -0.085070 1501 -0.152800 -0.994439 -0.026904
0.922620 1.009080 -0.084090 1499 -0.141433 -0.981919 -0.012803
0.922760 1.009230 -0.083050 1501 -0.139418 -0.979761 0.002161
0.922460 1.008900 -0.081980 1493 -0.143735 -0.984509 0.017556
0.922400 1.008830 -0.080920 1501 -0.144598 -0.985518 0.032808
0.922100 1.008500 -0.079840 1501 -0.148915 -0.990266 0.048348
0.922140 1.008550 -0.078800 1501 -0.148339 -0.989545 0.063312
0.922730 1.009190 -0.077790 1505 -0.139850 -0.980338 0.077844
0.923110 1.009610 -0.076780 1503 -0.134382 -0.974293 0.092377
0.922650 1.009110 -0.075690 1497 -0.141001 -0.981489 0.108060
0.922390 1.008820 -0.074610 1501 -0.144742 -0.985660 0.123600
0.922730 1.009190 -0.073590 1495 -0.139850 -0.980338 0.138276
0.922720 1.009180 -0.072540 1487 -0.139994 -0.980482 0.153384
0.922910 1.009380 -0.071500 1487 -0.137260 -0.977604 0.168348
0.923440 1.009970 -0.070490 1495 -0.129635 -0.969115 0.182880
0.923630 1.010170 -0.069460 1489 -0.126900 -0.966237 0.197700
0.923660 1.010210 -0.068410 1489 -0.126469 -0.965660 0.212808
0.923950 1.010520 -0.067380 1487 -0.122296 -0.961201 0.227628
0.924280 1.010880 -0.066350 1479 -0.117548 -0.956021 0.242449
0.924210 1.010810 -0.065290 1477 -0.118555 -0.957028 0.257700
0.924350 1.010950 -0.064250 1475 -0.116540 -0.955014 0.272664
0.924970 1.011640 -0.063240 1479 -0.107620 -0.945086 0.287197
0.925400 1.012110 -0.062220 1477 -0.101433 -0.938323 0.301873
0.925680 1.012420 -0.061180 1475 -0.097404 -0.933862 0.316837
0.925970 1.012720 -0.060150 1471 -0.093231 -0.929546 0.331657
0.926190 1.012970 -0.059110 1457 -0.090066 -0.925949 0.346621
0.926620 1.013440 -0.058080 1461 -0.083879 -0.919186 0.361441
0.926900 1.013740 -0.057040 1457 -0.079850 -0.914870 0.376405
0.927180 1.014050 -0.056010 1445 -0.075821 -0.910409 0.391225
0.927550 1.014460 -0.054970 1447 -0.070497 -0.904510 0.406190
0.927780 1.014710 -0.053930 1439 -0.067189 -0.900913 0.421154
0.928360 1.015330 -0.052910 1437 -0.058843 -0.891993 0.435830
0.928830 1.015850 -0.051880 1425 -0.052080 -0.884511 0.450650
0.929060 1.016100 -0.050840 1419 -0.048771 -0.880912 0.465614
0.929230 1.016290 -0.049790 1415 -0.046325 -0.878180 0.480722
0.929410 1.016480 -0.048740 1409 -0.043735 -0.875446 0.495830
0.929480 1.016560 -0.047690 1387 -0.042728 -0.874295 0.510938
0.930250 1.017410 -0.046670 1379 -0.031649 -0.862063 0.525614
0.931420 1.018680 -0.045670 1373 -0.014814 -0.843791 0.540002
0.932490 1.019850 -0.044660 1373 0.000581 -0.826956 0.554535
0.933500 1.020950 -0.043650 1365 0.015114 -0.811129 0.569067
0.933970 1.021470 -0.042610 1357 0.021876 -0.803647 0.584031
0.934140 1.021650 -0.041560 1337 0.024323 -0.801057 0.599139
0.935500 1.023140 -0.040550 1329 0.043891 -0.779618 0.613672
0.936220 1.023920 -0.039520 1311 0.054251 -0.768394 0.628492
0.936390 1.024110 -0.038460 1293 0.056696 -0.765662 0.643743
0.937310 1.025110 -0.037440 1271 0.069934 -0.751272 0.658420
0.938720 1.026650 -0.036430 1265 0.090222 -0.729115 0.672952
0.939430 1.027430 -0.035390 1247 0.100438 -0.717890 0.687916
0.940140 1.028210 -0.034340 1225 0.110654 -0.706668 0.703024
0.941000 1.029150 -0.033310 1195 0.123027 -0.693143 0.717844
0.942070 1.030310 -0.032270 1161 0.138423 -0.676452 0.732808
0.943580 1.031960 -0.031250 1125 0.160150 -0.652711 0.747485
0.942970 1.029770 -0.133240 1069 0.151373 -0.684222 -0.719998
0.941400 1.028060 -0.131940 1103 0.128783 -0.708827 -0.701293
0.939980 1.026510 -0.130670 1139 0.108351 -0.731129 -0.683019
0.938860 1.025300 -0.129440 1171 0.092236 -0.748538 -0.665321
0.937790 1.024120 -0.128220 1197 0.076840 -0.765517 -0.647767
0.937010 1.023270 -0.127040 1217 0.065617 -0.777747 -0.630789
0.936430 1.022640 -0.125890 1235 0.057272 -0.786812 -0.614242
0.935860 1.022010 -0.124740 1255 0.049070 -0.795877 -0.597695
0.934830 1.020890 -0.123540 1279 0.034251 -0.811992 -0.580429
0.933710 1.019660 -0.122320 1289 0.018135 -0.829690 -0.562875
0.933180 1.019090 -0.121180 1305 0.010509 -0.837890 -0.546472
0.932100 1.017910 -0.119980 1315 -0.005030 -0.854870 -0.529206
0.931120 1.016840 -0.118790 1325 -0.019131 -0.870266 -0.512084
0.930780 1.016480 -0.117680 1341 -0.024023 -0.875446 -0.496113
0.930350 1.016000 -0.116560 1347 -0.030210 -0.882351 -0.479997
0.929920 1.015530 -0.115450 1361 -0.036397 -0.889114 -0.464026
0.928980 1.014500 -0.114270 1375 -0.049922 -0.903934 -0.447048
0.928400 1.013870 -0.113140 1381 -0.058268 -0.912999 -0.430789
0.927860 1.013280 -0.112010 1387 -0.066037 -0.921488 -0.414530
0.927620 1.013020 -0.110930 1393 -0.069490 -0.925229 -0.398990
0.927530 1.012920 -0.109850 1403 -0.070785 -0.926668 -0.383451
0.927380 1.012760 -0.108780 1415 -0.072943 -0.928970 -0.368055
0.927140 1.012500 -0.107690 1423 -0.076397 -0.932711 -0.352372
0.926560 1.011860 -0.106570 1423 -0.084742 -0.941920 -0.336257
0.926460 1.011750 -0.105500 1433 -0.086181 -0.943503 -0.320861
0.926670 1.011980 -0.104460 1445 -0.083159 -0.940193 -0.305897
0.926320 1.011610 -0.103370 1449 -0.088195 -0.945517 -0.290213
0.925730 1.010960 -0.102250 1443 -0.096685 -0.954870 -0.274098
0.925390 1.010580 -0.101150 1451 -0.101577 -0.960338 -0.258271
0.925390 1.010590 -0.100100 1461 -0.101577 -0.960194 -0.243163
0.925090 1.010260 -0.099010 1463 -0.105893 -0.964942 -0.227480
0.924900 1.010040 -0.097930 1461 -0.108627 -0.968106 -0.211940
0.924800 1.009940 -0.096870 1471 -0.110066 -0.969545 -0.196688
0.924800 1.009940 -0.095810 1469 -0.110066 -0.969545 -0.181436
0.924550 1.009670 -0.094740 1477 -0.113663 -0.973430 -0.166041
0.924000 1.009070 -0.093630 1475 -0.121576 -0.982063 -0.150069
0.923860 1.008910 -0.092560 1477 -0.123591 -0.984367 -0.134674
0.923700 1.008740 -0.091490 1477 -0.125894 -0.986813 -0.119278
0.923600 1.008630 -0.090430 1479 -0.127332 -0.988394 -0.104026
0.923350 1.008350 -0.089350 1475 -0.130930 -0.992423 -0.088487
0.923600 1.008630 -0.088320 1483 -0.127332 -0.988394 -0.073667
0.923540 1.008560 -0.087260 1489 -0.128195 -0.989403 -0.058415
0.923040 1.008020 -0.086170 1491 -0.135390 -0.997171 -0.042731
0.923680 1.008710 -0.085170 1497 -0.126181 -0.987243 -0.028343
0.924120 1.009200 -0.084160 1491 -0.119850 -0.980194 -0.013810
0.924020 1.009080 -0.083100 1499 -0.121289 -0.981919 0.001441
0.923510 1.008530 -0.082000 1489 -0.128627 -0.989833 0.017269
0.923260 1.008250 -0.080930 1489 -0.132225 -0.993862 0.032664
0.923550 1.008570 -0.079900 1491 -0.128051 -0.989259 0.047485
0.923940 1.008990 -0.078880 1499 -0.122440 -0.983214 0.062161
0.924370 1.009470 -0.077870 1493 -0.116253 -0.976309 0.076693
0.924020 1.009080 -0.076790 1493 -0.121289 -0.981919 0.092233
0.923950 1.009010 -0.075730 1501 -0.122296 -0.982928 0.107484
0.924590 1.009710 -0.074730 1497 -0.113088 -0.972856 0.121873
0.924930 1.010070 -0.073710 1491 -0.108196 -0.967676 0.136549
0.924120 1.009200 -0.072590 1485 -0.119850 -0.980194 0.152664
0.923660 1.008690 -0.071500 1475 -0.126469 -0.987531 0.168348
0.924640 1.009760 -0.070530 1487 -0.112368 -0.972135 0.182305
0.925270 1.010450 -0.069520 1487 -0.103303 -0.962208 0.196837
0.925360 1.010550 -0.068480 1487 -0.102008 -0.960769 0.211801
0.925350 1.010530 -0.067420 1481 -0.102152 -0.961057 0.227053
0.925540 1.010730 -0.066380 1469 -0.099419 -0.958179 0.242017
0.925570 1.010770 -0.065330 1469 -0.098987 -0.957604 0.257125
0.925800 1.011020 -0.064300 1473 -0.095677 -0.954007 0.271945
0.926080 1.011330 -0.063260 1477 -0.091649 -0.949546 0.286909
0.926220 1.011470 -0.062220 1467 -0.089634 -0.947532 0.301873
0.926440 1.011720 -0.061180 1469 -0.086469 -0.943935 0.316837
0.927220 1.012570 -0.060180 1473 -0.075246 -0.931704 0.331225
0.927550 1.012930 -0.059150 1461 -0.070497 -0.926524 0.346046
0.927480 1.012850 -0.058090 1445 -0.071505 -0.927675 0.361297
0.927610 1.013000 -0.057040 1447 -0.069635 -0.925517 0.376405
0.928040 1.013460 -0.056010 1437 -0.063447 -0.918898 0.391225
0.928560 1.014030 -0.054990 1435 -0.055965 -0.910697 0.405902
0.929040 1.014550 -0.053960 1435 -0.049058 -0.903215 0.420722
0.929270 1.014800 -0.052920 1431 -0.045749 -0.899619 0.435686
0.929590 1.015150 -0.051880 1409 -0.041145 -0.894583 0.450650
0.930370 1.016000 -0.050870 1411 -0.029922 -0.882351 0.465182
0.930390 1.016030 -0.049810 1407 -0.029634 -0.881921 0.480434
0.930470 1.016110 -0.048760 1395 -0.028483 -0.880770 0.495542
0.931040 1.016730 -0.047730 1389 -0.020282 -0.871849 0.510362
0.931660 1.017410 -0.046700 1377 -0.011361 -0.862063 0.525182
0.932580 1.018410 -0.045690 1375 0.001876 -0.847676 0.539715
0.933400 1.019310 -0.044670 1365 0.013675 -0.834726 0.554391
0.934310 1.020310 -0.043650 1351 0.026769 -0.820337 0.569067
0.935090 1.021150 -0.042630 1339 0.037992 -0.808251 0.583744
0.935700 1.021820 -0.041590 1327 0.046769 -0.798611 0.598707
0.936520 1.022710 -0.040560 1309 0.058567 -0.785805 0.613528
0.937490 1.023770 -0.039540 1295 0.072524 -0.770553 0.628204
0.938550 1.024920 -0.038520 1277 0.087776 -0.754007 0.642880
0.939320 1.025760 -0.037490 1265 0.098855 -0.741919 0.657700
0.940030 1.026540 -0.036450 1243 0.109070 -0.730696 0.672664
0.941090 1.027700 -0.035420 1225 0.124322 -0.714007 0.687485
0.942110 1.028810 -0.034390 1201 0.138999 -0.698035 0.702305
0.942530 1.029260 -0.033330 1165 0.145042 -0.691560 0.717556
0.943090 1.029880 -0.032280 1125 0.153100 -0.682639 0.732664
0.944790 1.031740 -0.031270 1095 0.177560 -0.655878 0.747197
0.947190 1.034360 -0.030270 1063 0.212092 -0.618178 0.761585
0.943360 1.028660 -0.132110 1069 0.156984 -0.700193 -0.703739
0.941290 1.026400 -0.130740 1105 0.127201 -0.732712 -0.684026
0.939980 1.024970 -0.129490 1145 0.108351 -0.753286 -0.666041
0.939700 1.024670 -0.128370 1183 0.104323 -0.757603 -0.649926
0.938670 1.023550 -0.127160 1201 0.089502 -0.773718 -0.632515
0.937840 1.022640 -0.125980 1225 0.077560 -0.786812 -0.615537
0.937220 1.021960 -0.124820 1245 0.068639 -0.796596 -0.598846
0.936090 1.020730 -0.123600 1261 0.052380 -0.814294 -0.581293
0.935360 1.019940 -0.122440 1277 0.041877 -0.825661 -0.564602
0.934980 1.019520 -0.121320 1293 0.036409 -0.831703 -0.548487
0.933850 1.018290 -0.120110 1303 0.020150 -0.849401 -0.531077
0.932870 1.017220 -0.118920 1323 0.006049 -0.864797 -0.513954
0.932390 1.016700 -0.117790 1331 -0.000858 -0.872279 -0.497695
0.932100 1.016380 -0.116690 1341 -0.005030 -0.876885 -0.481868
0.931520 1.015750 -0.115550 1357 -0.013375 -0.885948 -0.465465
0.930340 1.014460 -0.114340 1371 -0.030354 -0.904510 -0.448055
0.929850 1.013930 -0.113220 1377 -0.037404 -0.912136 -0.431940
0.930000 1.014100 -0.112180 1381 -0.035246 -0.909690 -0.416976
0.929970 1.014060 -0.111110 1385 -0.035677 -0.910265 -0.401580
0.929380 1.013420 -0.109980 1403 -0.044167 -0.919474 -0.385321
0.928440 1.012400 -0.108810 1405 -0.057692 -0.934150 -0.368487
0.927950 1.011860 -0.107700 1413 -0.064742 -0.941920 -0.352515
0.927960 1.011870 -0.106640 1421 -0.064599 -0.941776 -0.337264
0.927820 1.011710 -0.105570 1429 -0.066612 -0.944078 -0.321868
0.927470 1.011340 -0.104470 1427 -0.071648 -0.949402 -0.306041
0.927130 1.010960 -0.103370 1439 -0.076541 -0.954870 -0.290213
0.926530 1.010320 -0.102250 1437 -0.085174 -0.964079 -0.274098
0.926290 1.010050 -0.101170 1443 -0.088627 -0.967962 -0.258559
0.926390 1.010160 -0.100120 1449 -0.087188 -0.966381 -0.243451
0.925800 1.009520 -0.099010 1445 -0.095677 -0.975588 -0.227480
0.925560 1.009250 -0.097920 1451 -0.099131 -0.979473 -0.211796
0.926100 1.009840 -0.096930 1457 -0.091361 -0.970985 -0.197551
0.925750 1.009460 -0.095840 1459 -0.096397 -0.976453 -0.181868
0.925160 1.008820 -0.094720 1459 -0.104886 -0.985660 -0.165753
0.925600 1.009300 -0.093710 1473 -0.098555 -0.978755 -0.151221
0.925650 1.009350 -0.092660 1475 -0.097836 -0.978036 -0.136113
0.925550 1.009240 -0.091600 1473 -0.099275 -0.979617 -0.120861
0.925350 1.009020 -0.090520 1481 -0.102152 -0.982784 -0.105321
0.925050 1.008690 -0.089440 1475 -0.106468 -0.987531 -0.089782
0.924550 1.008150 -0.088340 1473 -0.113663 -0.995302 -0.073954
0.924550 1.008150 -0.087290 1477 -0.113663 -0.995302 -0.058846
0.924940 1.008570 -0.086270 1483 -0.108052 -0.989259 -0.044170
0.924980 1.008620 -0.085220 1489 -0.107476 -0.988538 -0.029062
0.925130 1.008780 -0.084180 1489 -0.105318 -0.986236 -0.014098
0.925510 1.009200 -0.083170 1491 -0.099850 -0.980194 0.000434
0.925310 1.008980 -0.082100 1493 -0.102728 -0.983358 0.015830
0.924810 1.008430 -0.081000 1489 -0.109922 -0.991272 0.031657
0.925150 1.008800 -0.079980 1489 -0.105030 -0.985948 0.046333
0.925240 1.008890 -0.078930 1499 -0.103735 -0.984653 0.061441
0.924930 1.008560 -0.077850 1491 -0.108196 -0.989403 0.076981
0.925070 1.008710 -0.076810 1491 -0.106181 -0.987243 0.091945
0.925460 1.009140 -0.075790 1487 -0.100570 -0.981056 0.106621
0.925650 1.009340 -0.074750 1493 -0.097836 -0.978178 0.121585
0.925440 1.009110 -0.073690 1481 -0.100857 -0.981489 0.136837
0.925030 1.008670 -0.072600 1475 -0.106757 -0.987820 0.152520
0.924960 1.008600 -0.071550 1477 -0.107763 -0.988827 0.167628
0.925950 1.009670 -0.070570 1477 -0.093519 -0.973430 0.181729
0.926480 1.010250 -0.069560 1481 -0.085893 -0.965086 0.196261
0.926520 1.010290 -0.068510 1485 -0.085318 -0.964509 0.211369
0.926700 1.010490 -0.067470 1479 -0.082728 -0.961633 0.226333
0.926740 1.010530 -0.066420 1469 -0.082152 -0.961057 0.241441
0.926770 1.010560 -0.065360 1469 -0.081721 -0.960624 0.256693
0.927100 1.010920 -0.064330 1469 -0.076972 -0.955444 0.271513
0.927330 1.011170 -0.063300 1471 -0.073663 -0.951848 0.286333
0.927220 1.011050 -0.062240 1459 -0.075246 -0.953575 0.301585
0.927600 1.011460 -0.061210 1449 -0.069778 -0.947676 0.316405
0.928220 1.012150 -0.060190 1457 -0.060858 -0.937747 0.331082
0.928400 1.012340 -0.059150 1457 -0.058268 -0.935014 0.346046
0.928640 1.012590 -0.058110 1445 -0.054814 -0.931416 0.361010
0.928860 1.012840 -0.057070 1435 -0.051648 -0.927819 0.375974
0.929540 1.013580 -0.056060 1435 -0.041865 -0.917172 0.390506
0.930020 1.014100 -0.055030 1429 -0.034958 -0.909690 0.405326
0.930340 1.014450 -0.053990 1429 -0.030354 -0.904654 0.420290
0.930720 1.014860 -0.052960 1421 -0.024886 -0.898754 0.435110
0.930750 1.014890 -0.051900 1407 -0.024454 -0.898323 0.450362
0.931370 1.015570 -0.050880 1405 -0.015533 -0.888538 0.465038
0.932000 1.016250 -0.049860 1401 -0.006469 -0.878754 0.479715
0.932070 1.016330 -0.048800 1393 -0.005461 -0.877603 0.494967
0.932100 1.016360 -0.047750 1383 -0.005030 -0.877171 0.510074
0.933110 1.017470 -0.046740 1369 0.009502 -0.861201 0.524607
0.934540 1.019020 -0.045750 1367 0.030078 -0.838899 0.538851
0.934860 1.019370 -0.044700 1353 0.034682 -0.833863 0.553959
0.935280 1.019830 -0.043660 1339 0.040726 -0.827244 0.568923
0.936490 1.021150 -0.042660 1329 0.058136 -0.808251 0.583312
0.937260 1.021990 -0.041630 1307 0.069214 -0.796165 0.598132
0.937580 1.022340 -0.040580 1295 0.073819 -0.791128 0.613240
0.938200 1.023010 -0.039540 1281 0.082740 -0.781488 0.628204
0.939120 1.024010 -0.038510 1255 0.095977 -0.767101 0.643024
0.940680 1.025710 -0.037510 1243 0.118424 -0.742640 0.657413
0.941450 1.026550 -0.036470 1227 0.129502 -0.730552 0.672377
0.942160 1.027320 -0.035430 1201 0.139718 -0.719474 0.687341
0.943320 1.028590 -0.034400 1181 0.156409 -0.701201 0.702161
0.944540 1.029910 -0.033380 1145 0.173963 -0.682208 0.716837
0.945750 1.031230 -0.032350 1109 0.191373 -0.663215 0.731657
0.949670 1.035500 -0.030320 1021 0.247776 -0.601775 0.760866
0.942050 1.025660 -0.129660 1123 0.138135 -0.743358 -0.668487
0.940820 1.024320 -0.128420 1155 0.120437 -0.762639 -0.650645
0.940100 1.023530 -0.127250 1181 0.110078 -0.774006 -0.633811
0.939320 1.022680 -0.126070 1205 0.098855 -0.786236 -0.616832
0.938840 1.022160 -0.124930 1229 0.091948 -0.793718 -0.600429
0.938010 1.021260 -0.123750 1253 0.080006 -0.806668 -0.583451
0.937530 1.020740 -0.122620 1263 0.073099 -0.814150 -0.567192
0.937100 1.020260 -0.121490 1289 0.066912 -0.821057 -0.550933
0.935720 1.018770 -0.120250 1299 0.047057 -0.842496 -0.533091
0.934640 1.017590 -0.119040 1303 0.031517 -0.859473 -0.515681
0.934150 1.017060 -0.117910 1321 0.024466 -0.867099 -0.499422
0.933970 1.016860 -0.116820 1339 0.021876 -0.869977 -0.483739
0.933330 1.016170 -0.115680 1347 0.012668 -0.879905 -0.467336
0.932300 1.015040 -0.114490 1361 -0.002153 -0.896164 -0.450213
0.931660 1.014350 -0.113350 1371 -0.011361 -0.906092 -0.433810
0.931130 1.013770 -0.112220 1375 -0.018987 -0.914438 -0.417551
0.930740 1.013350 -0.111110 1387 -0.024598 -0.920481 -0.401580
0.930400 1.012980 -0.110010 1397 -0.029490 -0.925805 -0.385753
0.929810 1.012330 -0.108880 1399 -0.037980 -0.935157 -0.369494
0.929520 1.012010 -0.107790 1407 -0.042152 -0.939762 -0.353810
0.929480 1.011970 -0.106730 1413 -0.042728 -0.940337 -0.338559
0.929330 1.011810 -0.105650 1425 -0.044886 -0.942640 -0.323019
0.929040 1.011500 -0.104560 1421 -0.049058 -0.947100 -0.307336
0.928400 1.010800 -0.103430 1429 -0.058268 -0.957172 -0.291077
0.927850 1.010200 -0.102310 1431 -0.066181 -0.965805 -0.274962
0.927860 1.010210 -0.101260 1441 -0.066037 -0.965660 -0.259854
0.927860 1.010210 -0.100200 1441 -0.066037 -0.965660 -0.244602
0.927670 1.010000 -0.099120 1443 -0.068771 -0.968683 -0.229062
0.927320 1.009620 -0.098030 1453 -0.073807 -0.974151 -0.213379
0.927270 1.009570 -0.096970 1463 -0.074526 -0.974870 -0.198127
0.927370 1.009670 -0.095920 1457 -0.073087 -0.973430 -0.183019
0.927220 1.009510 -0.094850 1461 -0.075246 -0.975732 -0.167623
0.927170 1.009450 -0.093790 1471 -0.075965 -0.976597 -0.152372
0.926820 1.009070 -0.092700 1475 -0.081001 -0.982063 -0.136688
0.926470 1.008690 -0.091610 1469 -0.086037 -0.987531 -0.121005
0.926620 1.008850 -0.090570 1473 -0.083879 -0.985230 -0.106041
0.926860 1.009130 -0.089540 1483 -0.080426 -0.981201 -0.091221
0.926710 1.008950 -0.088470 1483 -0.082584 -0.983791 -0.075825
0.926110 1.008300 -0.087360 1477 -0.091217 -0.993144 -0.059854
0.926100 1.008300 -0.086310 1475 -0.091361 -0.993144 -0.044746
0.926350 1.008570 -0.085280 1479 -0.087764 -0.989259 -0.029926
0.926690 1.008940 -0.084260 1491 -0.082872 -0.983935 -0.015249
0.926490 1.008710 -0.083180 1487 -0.085749 -0.987243 0.000290
0.926030 1.008210 -0.082090 1485 -0.092368 -0.994439 0.015974
0.926420 1.008640 -0.081070 1487 -0.086757 -0.988250 0.030650
0.926660 1.008900 -0.080040 1497 -0.083303 -0.984509 0.045470
0.926110 1.008300 -0.078940 1495 -0.091217 -0.993144 0.061297
0.926000 1.008180 -0.077880 1489 -0.092800 -0.994869 0.076549
0.926490 1.008710 -0.076870 1487 -0.085749 -0.987243 0.091082
0.926630 1.008860 -0.075820 1481 -0.083735 -0.985086 0.106190
0.927260 1.009550 -0.074820 1485 -0.074670 -0.975158 0.120578
0.927250 1.009540 -0.073770 1479 -0.074814 -0.975302 0.135686
0.926840 1.009100 -0.072680 1475 -0.080713 -0.981633 0.151369
0.926830 1.009080 -0.071630 1483 -0.080857 -0.981919 0.166477
0.927160 1.009440 -0.070600 1479 -0.076109 -0.976741 0.181297
0.927550 1.009870 -0.069580 1473 -0.070497 -0.970552 0.195974
0.927590 1.009900 -0.068530 1475 -0.069922 -0.970122 0.211082
0.928070 1.010430 -0.067510 1479 -0.063015 -0.962496 0.225758
0.928160 1.010520 -0.066460 1475 -0.061720 -0.961201 0.240866
0.928390 1.010770 -0.065420 1481 -0.058411 -0.957604 0.255830
0.928570 1.010970 -0.064380 1461 -0.055822 -0.954726 0.270794
0.928350 1.010740 -0.063310 1457 -0.058987 -0.958034 0.286190
0.928530 1.010930 -0.062270 1449 -0.056397 -0.955302 0.301154
0.929260 1.011730 -0.061270 1451 -0.045893 -0.943791 0.315542
0.929940 1.012470 -0.060260 1453 -0.036109 -0.933143 0.330074
0.930180 1.012720 -0.059220 1451 -0.032656 -0.929546 0.345038
0.930260 1.012800 -0.058160 1439 -0.031505 -0.928395 0.360290
0.930730 1.013320 -0.057140 1433 -0.024742 -0.920913 0.374967
0.931060 1.013680 -0.056100 1427 -0.019994 -0.915733 0.389931
0.931040 1.013660 -0.055040 1423 -0.020282 -0.916021 0.405182
0.931520 1.014170 -0.054020 1417 -0.013375 -0.908682 0.419859
0.932290 1.015020 -0.053000 1421 -0.002296 -0.896452 0.434535
0.932570 1.015320 -0.051960 1413 0.001732 -0.892137 0.449499
0.933440 1.016270 -0.050950 1401 0.014251 -0.878466 0.464031
0.933960 1.016840 -0.049920 1395 0.021733 -0.870266 0.478851
0.934290 1.017200 -0.048880 1387 0.026481 -0.865086 0.493815
0.934620 1.017550 -0.047830 1377 0.031229 -0.860050 0.508923
0.935040 1.018010 -0.046800 1357 0.037272 -0.853430 0.523744
0.936360 1.019440 -0.045800 1355 0.056265 -0.832854 0.538132
0.937370 1.020550 -0.044790 1347 0.070797 -0.816884 0.552664
0.937600 1.020790 -0.043730 1329 0.074107 -0.813431 0.567916
0.938270 1.021520 -0.042700 1319 0.083747 -0.802927 0.582736
0.939090 1.022410 -0.041670 1297 0.095546 -0.790121 0.597556
0.939710 1.023080 -0.040630 1283 0.104467 -0.780481 0.612520
0.940680 1.024140 -0.039610 1271 0.118424 -0.765229 0.627197
0.941390 1.024920 -0.038570 1247 0.128639 -0.754007 0.642161
0.942060 1.025640 -0.037530 1227 0.138279 -0.743646 0.657125
0.943080 1.026750 -0.036500 1211 0.152956 -0.727676 0.671945
0.944040 1.027800 -0.035470 1187 0.166769 -0.712568 0.686765
0.945010 1.028850 -0.034440 1157 0.180726 -0.697460 0.701585
0.946370 1.030320 -0.033410 1125 0.200294 -0.676308 0.716405
0.949940 1.034210 -0.031380 1035 0.251661 -0.620338 0.745614
0.945690 1.028040 -0.131140 1053 0.190509 -0.709113 -0.689782
0.943280 1.025420 -0.129730 1089 0.155833 -0.746813 -0.669494
0.942260 1.024300 -0.128510 1127 0.141158 -0.762927 -0.651940
0.941780 1.023780 -0.127370 1155 0.134250 -0.770409 -0.635537
0.940650 1.022560 -0.126140 1179 0.117991 -0.787963 -0.617839
0.940020 1.021870 -0.124990 1205 0.108927 -0.797891 -0.601292
0.939340 1.021140 -0.123830 1225 0.099143 -0.808395 -0.584602
0.938410 1.020120 -0.122630 1243 0.085761 -0.823071 -0.567336
0.937980 1.019660 -0.121510 1273 0.079574 -0.829690 -0.551221
0.936990 1.018590 -0.120310 1283 0.065330 -0.845086 -0.533954
0.936210 1.017740 -0.119140 1293 0.054106 -0.857315 -0.517120
0.935830 1.017320 -0.118030 1309 0.048639 -0.863358 -0.501149
0.935090 1.016520 -0.116870 1323 0.037992 -0.874869 -0.484458
0.934160 1.015510 -0.115690 1333 0.024610 -0.889403 -0.467480
0.933530 1.014820 -0.114540 1345 0.015545 -0.899330 -0.450933
0.933490 1.014780 -0.113480 1355 0.014970 -0.899905 -0.435681
0.933300 1.014570 -0.112390 1371 0.012237 -0.902927 -0.419997
0.932160 1.013330 -0.111190 1377 -0.004166 -0.920769 -0.402731
0.931570 1.012700 -0.110060 1379 -0.012656 -0.929834 -0.386472
0.931530 1.012650 -0.108990 1391 -0.013231 -0.930553 -0.371077
0.931240 1.012330 -0.107900 1395 -0.017404 -0.935157 -0.355393
0.930850 1.011910 -0.106790 1407 -0.023015 -0.941201 -0.339422
0.930650 1.011690 -0.105710 1413 -0.025893 -0.944366 -0.323882
0.930010 1.011000 -0.104580 1413 -0.035102 -0.954294 -0.307623
0.929470 1.010410 -0.103460 1413 -0.042872 -0.962784 -0.291508
0.929470 1.010410 -0.102400 1429 -0.042872 -0.962784 -0.276257
0.929580 1.010530 -0.101360 1431 -0.041289 -0.961057 -0.261293
0.929380 1.010310 -0.100280 1441 -0.044167 -0.964221 -0.245753
0.928780 1.009660 -0.099160 1439 -0.052799 -0.973575 -0.229638
0.928540 1.009400 -0.098080 1447 -0.056253 -0.977315 -0.214098
0.928140 1.008970 -0.096980 1449 -0.062009 -0.983502 -0.198271
0.928190 1.009020 -0.095930 1453 -0.061289 -0.982784 -0.183163
0.928390 1.009240 -0.094890 1453 -0.058411 -0.979617 -0.168199
0.928540 1.009400 -0.093850 1459 -0.056253 -0.977315 -0.153235
0.928540 1.009390 -0.092800 1471 -0.056253 -0.977460 -0.138127
0.928040 1.008850 -0.091690 1463 -0.063447 -0.985230 -0.122156
0.927990 1.008800 -0.090630 1467 -0.064166 -0.985948 -0.106904
0.928040 1.008850 -0.089580 1473 -0.063447 -0.985230 -0.091796
0.927880 1.008680 -0.088510 1473 -0.065749 -0.987676 -0.076400
0.927680 1.008460 -0.087440 1475 -0.068627 -0.990840 -0.061005
0.927230 1.007970 -0.086340 1475 -0.075102 -0.997892 -0.045177
0.927170 1.007910 -0.085280 1473 -0.075965 -0.998754 -0.029926
0.927560 1.008330 -0.084260 1479 -0.070354 -0.992711 -0.015249
0.927310 1.008050 -0.083190 1473 -0.073951 -0.996741 0.000146
0.927450 1.008210 -0.082150 1483 -0.071936 -0.994439 0.015110
0.927740 1.008530 -0.081120 1475 -0.067764 -0.989833 0.029931
0.928030 1.008840 -0.080090 1485 -0.063591 -0.985374 0.044751
0.927930 1.008730 -0.079030 1479 -0.065030 -0.986955 0.060002
0.927620 1.008390 -0.077950 1477 -0.069490 -0.991849 0.075542
0.927760 1.008540 -0.076910 1477 -0.067476 -0.989689 0.090506
0.927990 1.008800 -0.075870 1477 -0.064166 -0.985948 0.105470
0.928240 1.009060 -0.074840 1475 -0.060569 -0.982207 0.120290
0.928520 1.009370 -0.073810 1473 -0.056540 -0.977748 0.135110
0.928460 1.009310 -0.072750 1471 -0.057404 -0.978611 0.150362
0.928450 1.009290 -0.071690 1471 -0.057548 -0.978899 0.165614
0.928690 1.009550 -0.070660 1479 -0.054094 -0.975158 0.180434
0.928520 1.009370 -0.069590 1469 -0.056540 -0.977748 0.195830
0.928810 1.009680 -0.068560 1467 -0.052368 -0.973286 0.210650
0.929140 1.010040 -0.067530 1471 -0.047620 -0.968106 0.225470
0.929380 1.010300 -0.066490 1469 -0.044167 -0.964365 0.240434
0.929810 1.010770 -0.065470 1465 -0.037980 -0.957604 0.255110
0.929840 1.010810 -0.064420 1459 -0.037547 -0.957028 0.270218
0.929880 1.010840 -0.063370 1449 -0.036972 -0.956595 0.285326
0.930210 1.011200 -0.062330 1445 -0.032224 -0.951417 0.300290
0.930740 1.011780 -0.061310 1441 -0.024598 -0.943071 0.314966
0.931170 1.012240 -0.060280 1443 -0.018411 -0.936452 0.329787
0.931000 1.012060 -0.059220 1437 -0.020857 -0.939042 0.345038
0.931080 1.012140 -0.058170 1427 -0.019706 -0.937891 0.360146
0.931560 1.012670 -0.057140 1423 -0.012800 -0.930265 0.374967
0.932190 1.013350 -0.056120 1423 -0.003735 -0.920481 0.389643
0.932470 1.013650 -0.055080 1417 0.000294 -0.916165 0.404607
0.932940 1.014170 -0.054050 1411 0.007057 -0.908682 0.419427
0.933820 1.015120 -0.053040 1413 0.019718 -0.895013 0.433959
0.934490 1.015850 -0.052020 1413 0.029359 -0.884511 0.448636
0.935070 1.016480 -0.051000 1401 0.037704 -0.875446 0.463312
0.935340 1.016780 -0.049950 1381 0.041589 -0.871128 0.478420
0.935670 1.017130 -0.048910 1369 0.046337 -0.866092 0.493384
0.936240 1.017750 -0.047880 1363 0.054539 -0.857171 0.508204
0.936920 1.018480 -0.046850 1351 0.064322 -0.846669 0.523024
0.937540 1.019160 -0.045820 1341 0.073243 -0.836884 0.537844
0.937910 1.019560 -0.044770 1331 0.078567 -0.831129 0.552952
0.938580 1.020290 -0.043740 1317 0.088207 -0.820625 0.567772
0.939750 1.021560 -0.042730 1301 0.105042 -0.802352 0.582305
0.940670 1.022550 -0.041710 1285 0.118280 -0.788107 0.596981
0.941190 1.023120 -0.040660 1267 0.125762 -0.779905 0.612089
0.941960 1.023950 -0.039630 1255 0.136840 -0.767963 0.626909
0.942520 1.024570 -0.038590 1235 0.144898 -0.759042 0.641873
0.943700 1.025840 -0.037570 1215 0.161877 -0.740768 0.656549
0.945060 1.027320 -0.036550 1191 0.181445 -0.719474 0.671225
0.945970 1.028320 -0.035510 1161 0.194538 -0.705086 0.686190
0.947290 1.029740 -0.034490 1123 0.213531 -0.684654 0.700866
0.948850 1.031450 -0.033470 1089 0.235977 -0.660049 0.715542
0.943140 1.023720 -0.127450 1139 0.153819 -0.771272 -0.636688
0.942260 1.022770 -0.126260 1165 0.141158 -0.784941 -0.619566
0.941480 1.021920 -0.125080 1181 0.129934 -0.797172 -0.602588
0.940650 1.021030 -0.123900 1203 0.117991 -0.809978 -0.585609
0.939870 1.020180 -0.122720 1229 0.106769 -0.822208 -0.568631
0.939290 1.019550 -0.121580 1253 0.098423 -0.831273 -0.552228
0.938700 1.018910 -0.120430 1265 0.089934 -0.840480 -0.535681
0.938020 1.018170 -0.119280 1283 0.080150 -0.851129 -0.519134
0.937790 1.017920 -0.118180 1305 0.076840 -0.854725 -0.503307
0.937100 1.017170 -0.117020 1317 0.066912 -0.865518 -0.486616
0.935810 1.015780 -0.115800 1315 0.048352 -0.885517 -0.469062
0.935030 1.014930 -0.114640 1329 0.037128 -0.897747 -0.452372
0.934790 1.014670 -0.113540 1349 0.033675 -0.901488 -0.436544
0.934550 1.014410 -0.112450 1357 0.030222 -0.905229 -0.420861
0.933710 1.013500 -0.111290 1369 0.018135 -0.918323 -0.404170
0.932880 1.012590 -0.110120 1373 0.006193 -0.931416 -0.387336
0.932580 1.012270 -0.109030 1379 0.001876 -0.936021 -0.371652
0.932140 1.011790 -0.107920 1387 -0.004454 -0.942927 -0.355681
0.932300 1.011960 -0.106870 1399 -0.002153 -0.940481 -0.340573
0.932310 1.011970 -0.105810 1405 -0.002009 -0.940337 -0.325321
0.931420 1.011010 -0.104650 1403 -0.014814 -0.954149 -0.308631
0.930570 1.010090 -0.103500 1409 -0.027044 -0.967388 -0.292084
0.930330 1.009820 -0.102420 1415 -0.030498 -0.971273 -0.276544
0.930480 1.009990 -0.101370 1421 -0.028339 -0.968827 -0.261436
0.930280 1.009780 -0.100300 1431 -0.031217 -0.971847 -0.246041
0.929940 1.009400 -0.099200 1427 -0.036109 -0.977315 -0.230213
0.930040 1.009510 -0.098150 1441 -0.034670 -0.975732 -0.215105
0.929790 1.009240 -0.097070 1445 -0.038267 -0.979617 -0.199566
0.929290 1.008700 -0.095960 1447 -0.045462 -0.987387 -0.183595
0.929340 1.008750 -0.094910 1447 -0.044742 -0.986669 -0.168487
0.929640 1.009080 -0.093890 1455 -0.040426 -0.981919 -0.153810
0.929790 1.009240 -0.092850 1463 -0.038267 -0.979617 -0.138846
0.929590 1.009020 -0.091770 1453 -0.041145 -0.982784 -0.123307
0.929040 1.008430 -0.090660 1459 -0.049058 -0.991272 -0.107336
0.929030 1.008420 -0.089600 1463 -0.049203 -0.991417 -0.092084
0.929280 1.008690 -0.088570 1467 -0.045606 -0.987531 -0.077264
0.928880 1.008250 -0.087480 1465 -0.051361 -0.993862 -0.061580
0.928530 1.007870 -0.086390 1463 -0.056397 -0.999331 -0.045897
0.928720 1.008080 -0.085360 1475 -0.053663 -0.996308 -0.031077
0.928560 1.007910 -0.084290 1477 -0.055965 -0.998754 -0.015681
0.928210 1.007520 -0.083200 1465 -0.061001 -1.004367 0.000002
0.928350 1.007680 -0.082160 1467 -0.058987 -1.002063 0.014966
0.929040 1.008430 -0.081170 1469 -0.049058 -0.991272 0.029211
0.929340 1.008740 -0.080140 1477 -0.044742 -0.986813 0.044031
0.929070 1.008460 -0.079060 1469 -0.048627 -0.990840 0.059571
0.928770 1.008130 -0.077980 1475 -0.052944 -0.995590 0.075110
0.928710 1.008060 -0.076920 1475 -0.053807 -0.996597 0.090362
0.928950 1.008330 -0.075890 1469 -0.050353 -0.992711 0.105182
0.929190 1.008580 -0.074850 1467 -0.046901 -0.989115 0.120146
0.929480 1.008890 -0.073820 1467 -0.042728 -0.984653 0.134966
0.929410 1.008820 -0.072760 1463 -0.043735 -0.985660 0.150218
0.929150 1.008540 -0.071690 1467 -0.047476 -0.989689 0.165614
0.929590 1.009020 -0.070670 1469 -0.041145 -0.982784 0.180290
0.930220 1.009700 -0.069660 1467 -0.032080 -0.973000 0.194823
0.930210 1.009690 -0.068610 1459 -0.032224 -0.973142 0.209931
0.930140 1.009620 -0.067550 1463 -0.033231 -0.974151 0.225182
0.930230 1.009710 -0.066500 1459 -0.031936 -0.972856 0.240290
0.930720 1.010230 -0.065480 1457 -0.024886 -0.965374 0.254966
0.931150 1.010700 -0.064460 1457 -0.018699 -0.958611 0.269643
0.931130 1.010680 -0.063400 1447 -0.018987 -0.958899 0.284895
0.931010 1.010560 -0.062340 1443 -0.020713 -0.960624 0.300146
0.931590 1.011180 -0.061320 1437 -0.012368 -0.951703 0.314823
0.932380 1.012030 -0.060310 1441 -0.001001 -0.939474 0.329355
0.932350 1.012010 -0.059260 1435 -0.001433 -0.939762 0.344463
0.932740 1.012420 -0.058220 1423 0.004178 -0.933862 0.359427
0.932870 1.012570 -0.057170 1423 0.006049 -0.931704 0.374535
0.933090 1.012810 -0.056130 1417 0.009214 -0.928251 0.389499
0.933820 1.013600 -0.055120 1409 0.019718 -0.916884 0.404031
0.934050 1.013850 -0.054070 1401 0.023028 -0.913287 0.419139
0.934430 1.014250 -0.053040 1393 0.028495 -0.907531 0.433959
0.935500 1.015420 -0.052040 1395 0.043891 -0.890698 0.448348
0.936080 1.016050 -0.051010 1387 0.052236 -0.881632 0.463168
