349
-15.211594 -13.091530 -0.179201 771 0.842417 -0.330109 -0.258395
-15.211481 -13.091402 -0.173042 847 0.844036 -0.328270 -0.169776
-15.210752 -13.090750 -0.166866 891 0.854533 -0.318884 -0.080913
-15.210749 -13.090713 -0.160708 889 0.854575 -0.318349 0.007691
-15.210788 -13.090714 -0.154547 883 0.854012 -0.318376 0.096339
-15.212333 -13.092012 -0.148398 847 0.831782 -0.337052 0.184814
-15.213827 -13.085722 -0.185375 893 0.810280 -0.246542 -0.347230
-15.211775 -13.083922 -0.179197 955 0.839810 -0.220649 -0.258337
-15.209770 -13.082171 -0.173010 991 0.868653 -0.195455 -0.169316
-15.208213 -13.080807 -0.166840 999 0.891061 -0.175819 -0.080539
-15.207706 -13.080339 -0.160671 1007 0.898347 -0.169095 0.008224
-15.208919 -13.081347 -0.154524 995 0.880907 -0.183599 0.096670
-15.209909 -13.082167 -0.148369 973 0.866650 -0.195387 0.185231
-15.210669 -13.082791 -0.142216 937 0.855727 -0.204374 0.273763
-15.213703 -13.085368 -0.136078 887 0.812064 -0.241451 0.362080
-15.217570 -13.088662 -0.129936 813 0.756422 -0.288847 0.450454
-15.219492 -13.082567 -0.197752 861 0.728772 -0.201150 -0.525316
-15.215220 -13.078857 -0.191538 955 0.790232 -0.147771 -0.435906
-15.211390 -13.075543 -0.185339 1015 0.845353 -0.100088 -0.346712
-15.208840 -13.073322 -0.179144 1051 0.882032 -0.068129 -0.257575
-15.207397 -13.072041 -0.172972 1077 0.902793 -0.049687 -0.168769
-15.206617 -13.071339 -0.166807 1077 0.914018 -0.039588 -0.080064
-15.205772 -13.070590 -0.160643 1067 0.926176 -0.028816 0.008627
-15.205977 -13.070739 -0.154492 1065 0.923225 -0.030957 0.097130
-15.207529 -13.072029 -0.148342 1065 0.900900 -0.049522 0.185619
-15.209008 -13.073277 -0.142193 1035 0.879617 -0.067484 0.274094
-15.211546 -13.075432 -0.136059 1011 0.843103 -0.098482 0.362353
-15.214254 -13.077723 -0.129913 959 0.804133 -0.131442 0.450785
-15.218671 -13.081488 -0.123778 875 0.740586 -0.185617 0.539058
-15.221930 -13.076608 -0.203919 879 0.693699 -0.115401 -0.614050
-15.216889 -13.072244 -0.197697 979 0.766219 -0.052610 -0.524525
-15.212179 -13.068168 -0.191485 1037 0.833992 0.006038 -0.435143
-15.209730 -13.066029 -0.185299 1081 0.869230 0.036816 -0.346136
-15.208175 -13.064665 -0.179127 1095 0.891610 0.056438 -0.257330
-15.206335 -13.063058 -0.172949 1123 0.918080 0.079560 -0.168438
-15.205167 -13.062025 -0.166784 1117 0.934889 0.094421 -0.079733
-15.205386 -13.062174 -0.160633 1123 0.931733 0.092280 0.008770
-15.205095 -13.061902 -0.154476 1115 0.935918 0.096191 0.097360
-15.205862 -13.062519 -0.148321 1099 0.924886 0.087313 0.185921
-15.208283 -13.064578 -0.142187 1091 0.890046 0.057687 0.274181
-15.210100 -13.066109 -0.136036 1073 0.863905 0.035663 0.362684
-15.212760 -13.068353 -0.129902 1043 0.825635 0.003376 0.450943
-15.217176 -13.072118 -0.123766 985 0.762089 -0.050799 0.539231
-15.222209 -13.076407 -0.117638 899 0.689678 -0.112520 0.627404
-15.225430 -13.071562 -0.210108 861 0.643339 -0.042799 -0.703100
-15.220434 -13.067238 -0.203886 977 0.715215 0.019417 -0.613575
-15.215775 -13.063211 -0.197672 1025 0.782260 0.077351 -0.524165
-15.211670 -13.059649 -0.191467 1089 0.841319 0.128602 -0.434884
-15.209890 -13.058098 -0.185288 1129 0.866924 0.150928 -0.345978
-15.208945 -13.057251 -0.179123 1151 0.880523 0.163113 -0.257273
-15.207668 -13.056129 -0.172949 1165 0.898896 0.179250 -0.168438
-15.206003 -13.054660 -0.166779 1159 0.922855 0.200395 -0.079661
-15.204936 -13.053710 -0.160616 1159 0.938210 0.214062 0.009015
-15.205587 -13.054246 -0.154472 1157 0.928838 0.206350 0.097418
-15.207080 -13.055493 -0.148323 1145 0.907363 0.188402 0.185893
-15.208625 -13.056791 -0.142185 1137 0.885133 0.169727 0.274209
-15.210598 -13.058461 -0.136044 1117 0.856743 0.145699 0.362569
-15.213531 -13.060941 -0.129906 1093 0.814548 0.110022 0.450886
-15.216681 -13.063613 -0.123768 1053 0.769224 0.071574 0.539202
-15.220656 -13.066997 -0.117636 983 0.712017 0.022888 0.627432
-15.224798 -13.070526 -0.111492 865 0.652423 -0.027897 0.715835
-15.230472 -13.067842 -0.216307 795 0.570791 0.010731 -0.792294
-15.225202 -13.063284 -0.210077 943 0.646619 0.076308 -0.702654
-15.221156 -13.059791 -0.203871 1033 0.704827 0.126571 -0.613359
-15.216390 -13.055661 -0.197659 1075 0.773409 0.185987 -0.523978
-15.212888 -13.052623 -0.191458 1129 0.823796 0.229705 -0.434755
-15.210670 -13.050690 -0.185282 1155 0.855700 0.257520 -0.345892
-15.208717 -13.048988 -0.179102 1163 0.883802 0.281999 -0.256971
-15.207935 -13.048285 -0.172947 1189 0.895054 0.292126 -0.168409
-15.207099 -13.047544 -0.166782 1195 0.907088 0.302788 -0.079704
-15.207313 -13.047688 -0.160631 1191 0.904015 0.300716 0.008799
-15.208021 -13.048265 -0.154476 1171 0.893819 0.292401 0.097360
-15.208348 -13.048517 -0.148325 1171 0.889113 0.288778 0.185864
-15.210115 -13.050001 -0.142185 1167 0.863686 0.267427 0.274209
-15.212099 -13.051679 -0.136053 1153 0.835144 0.243290 0.362440
-15.214132 -13.053389 -0.129912 1127 0.805889 0.218686 0.450799
-15.217669 -13.056394 -0.123772 1101 0.755008 0.175449 0.539145
-15.221652 -13.059770 -0.117640 1051 0.697692 0.126873 0.627375
-15.226016 -13.063486 -0.111504 953 0.634900 0.073399 0.715662
-15.230216 -13.067058 -0.105370 789 0.574469 0.022010 0.803922
-15.233913 -13.062703 -0.216328 893 0.521269 0.084664 -0.792596
-15.226249 -13.056106 -0.210072 1009 0.631552 0.179593 -0.702582
-15.221042 -13.051608 -0.203852 1071 0.706474 0.244305 -0.613086
-15.217548 -13.048578 -0.197651 1119 0.756737 0.287900 -0.523863
-15.214374 -13.045825 -0.191460 1149 0.802417 0.327515 -0.434784
-15.212047 -13.043803 -0.185282 1167 0.835899 0.356606 -0.345892
-15.211317 -13.043152 -0.179117 1185 0.846396 0.365978 -0.257186
-15.210976 -13.042830 -0.172958 1207 0.851309 0.370602 -0.168568
-15.209641 -13.041652 -0.166796 1217 0.870506 0.387562 -0.079906
-15.209243 -13.041276 -0.160639 1207 0.876241 0.392969 0.008684
-15.210124 -13.042005 -0.154493 1209 0.863562 0.382485 0.097116
-15.210553 -13.042342 -0.148342 1205 0.857388 0.377628 0.185619
-15.211269 -13.042927 -0.142197 1189 0.847082 0.369216 0.274037
-15.213144 -13.044498 -0.136057 1171 0.820105 0.346602 0.362382
-15.215235 -13.046267 -0.129915 1161 0.790027 0.321162 0.450756
-15.217657 -13.048310 -0.123772 1141 0.755173 0.291756 0.539145
-15.221251 -13.051353 -0.117642 1079 0.703469 0.247969 0.627346
-15.226515 -13.055839 -0.111511 1009 0.627724 0.183435 0.715562
-15.233483 -13.061779 -0.105391 887 0.527457 0.097961 0.803619
-15.234143 -13.054671 -0.216305 927 0.517962 0.200230 -0.792266
-15.227757 -13.049180 -0.210062 1029 0.609844 0.279241 -0.702438
-15.222661 -13.044774 -0.203842 1099 0.683174 0.342637 -0.612942
-15.219721 -13.042220 -0.197659 1137 0.725479 0.379384 -0.523978
-15.216768 -13.039665 -0.191465 1153 0.767962 0.416145 -0.434856
-15.214384 -13.037590 -0.185290 1183 0.802267 0.446004 -0.346006
-15.213825 -13.037074 -0.179123 1211 0.810308 0.453428 -0.257273
-15.213096 -13.036422 -0.172966 1213 0.820805 0.462813 -0.168683
-15.212419 -13.035819 -0.166811 1219 0.830547 0.471486 -0.080122
-15.212300 -13.035684 -0.160652 1233 0.832249 0.473434 0.008497
-15.211857 -13.035267 -0.154493 1219 0.838630 0.479431 0.097116
-15.212012 -13.035367 -0.148344 1209 0.836393 0.477990 0.185591
-15.212550 -13.035808 -0.142201 1177 0.828654 0.471650 0.273979
-15.214986 -13.037864 -0.136067 1183 0.793608 0.442066 0.362238
-15.217126 -13.039664 -0.129925 1167 0.762816 0.416159 0.450612
-15.219008 -13.041245 -0.123783 1135 0.735729 0.393408 0.538986
-15.222702 -13.044374 -0.117653 1095 0.682584 0.348386 0.627188
-15.227687 -13.048615 -0.111525 1033 0.610859 0.287365 0.715360
-15.233555 -13.053610 -0.105400 933 0.526428 0.215503 0.803490
-15.239869 -13.058991 -0.099264 755 0.435575 0.138070 0.891778
-15.243510 -13.054333 -0.222563 827 0.383185 0.205102 -0.882309
-15.235571 -13.047515 -0.216299 961 0.497420 0.303200 -0.792179
-15.229905 -13.042631 -0.210072 1047 0.578942 0.373470 -0.702582
-15.225080 -13.038460 -0.203850 1103 0.648375 0.433490 -0.613057
-15.221308 -13.035201 -0.197651 1139 0.702645 0.480377 -0.523863
-15.219189 -13.033351 -0.191473 1171 0.733135 0.506998 -0.434971
-15.217294 -13.031705 -0.185305 1201 0.760401 0.530682 -0.346222
-15.215851 -13.030436 -0.179133 1219 0.781162 0.548946 -0.257417
-15.215790 -13.030356 -0.172983 1231 0.782040 0.550085 -0.168927
-15.215787 -13.030319 -0.166832 1253 0.782082 0.550620 -0.080424
-15.215001 -13.029612 -0.160668 1249 0.793388 0.560802 0.008267
-15.213652 -13.028434 -0.154505 1211 0.812805 0.577748 0.096943
-15.214203 -13.028872 -0.148361 1209 0.804874 0.571450 0.185346
-15.216358 -13.030688 -0.142220 1207 0.773862 0.545310 0.273706
-15.218240 -13.032268 -0.136089 1193 0.746789 0.522586 0.361922
-15.219827 -13.033592 -0.129940 1179 0.723955 0.503526 0.450396
-15.222422 -13.035789 -0.123806 1147 0.686618 0.471925 0.538655
-15.225576 -13.038453 -0.117666 1103 0.641226 0.433586 0.627001
-15.229552 -13.041823 -0.111534 1045 0.584019 0.385092 0.715231
-15.235479 -13.046875 -0.105410 971 0.498737 0.312407 0.803346
-15.240844 -13.051440 -0.099280 827 0.421551 0.246720 0.891547
-15.246127 -13.048347 -0.222569 891 0.345532 0.291221 -0.882395
-15.239030 -13.042238 -0.216318 973 0.447651 0.379123 -0.792453
-15.233472 -13.037459 -0.210091 1051 0.527622 0.447884 -0.702855
-15.229361 -13.033904 -0.203884 1107 0.586777 0.499039 -0.613546
-15.226917 -13.031785 -0.197699 1149 0.621933 0.529529 -0.524553
-15.224030 -13.029281 -0.191515 1187 0.663483 0.565563 -0.435575
-15.221187 -13.026817 -0.185322 1205 0.704388 0.601007 -0.346467
-15.220189 -13.025936 -0.179167 1219 0.718741 0.613686 -0.257906
-15.218740 -13.024662 -0.172997 1233 0.739585 0.632019 -0.169129
-15.217571 -13.023629 -0.166832 1253 0.756408 0.646879 -0.080424
-15.217340 -13.023398 -0.160685 1255 0.759729 0.650200 0.008022
-15.217551 -13.023555 -0.154534 1249 0.756696 0.647950 0.096526
-15.218375 -13.024228 -0.148388 1237 0.744840 0.638262 0.184958
-15.219423 -13.025090 -0.142243 1209 0.729760 0.625857 0.273375
-15.220240 -13.025758 -0.136097 1173 0.718014 0.616252 0.361806
-15.222230 -13.027429 -0.129955 1169 0.689376 0.592211 0.450181
-15.225213 -13.029954 -0.123829 1153 0.646454 0.555875 0.538324
-15.228476 -13.032709 -0.117691 1107 0.599511 0.516233 0.626641
-15.233121 -13.036654 -0.111565 1075 0.532672 0.459465 0.714785
-15.239263 -13.041883 -0.105438 997 0.444302 0.384228 0.802943
-15.244627 -13.046450 -0.099308 873 0.367117 0.318527 0.891145
-15.250307 -13.043695 -0.222595 893 0.285389 0.358156 -0.882769
-15.242425 -13.036916 -0.216339 985 0.398801 0.455705 -0.792755
-15.237652 -13.032807 -0.210117 1063 0.467479 0.514819 -0.703230
-15.233094 -13.028880 -0.203903 1107 0.533056 0.571326 -0.613820
-15.228586 -13.024998 -0.197699 1145 0.597920 0.627188 -0.524553
-15.226311 -13.023012 -0.191523 1183 0.630660 0.655757 -0.435690
-15.224977 -13.021849 -0.185351 1211 0.649857 0.672498 -0.346884
-15.224354 -13.021285 -0.179194 1229 0.658817 0.680608 -0.258294
-15.223523 -13.020535 -0.173029 1243 0.670769 0.691393 -0.169589
-15.221902 -13.019123 -0.166868 1255 0.694097 0.711715 -0.080942
-15.222223 -13.019367 -0.160715 1253 0.689472 0.708203 0.007591
-15.222499 -13.019572 -0.154564 1253 0.685507 0.705252 0.096094
-15.221929 -13.019058 -0.148407 1223 0.693712 0.712649 0.184684
-15.222754 -13.019733 -0.142264 1205 0.681843 0.702933 0.273073
-15.224736 -13.021396 -0.136122 1193 0.653315 0.679016 0.361447
-15.226949 -13.023253 -0.129990 1173 0.621480 0.652286 0.449677
-15.229716 -13.025586 -0.123854 1155 0.581659 0.618722 0.537965
-15.232368 -13.027823 -0.117718 1111 0.543498 0.586530 0.626252
-15.236507 -13.031337 -0.111586 1077 0.483945 0.535979 0.714483
-15.242435 -13.036375 -0.105461 997 0.398650 0.463486 0.802612
-15.248022 -13.041127 -0.099329 863 0.318267 0.395109 0.890842
-15.254510 -13.039220 -0.222630 903 0.224916 0.422553 -0.883273
-15.247630 -13.033306 -0.216379 997 0.323906 0.507643 -0.793330
-15.241632 -13.028145 -0.210144 1053 0.410203 0.581906 -0.703618
-15.236011 -13.023318 -0.203917 1111 0.491094 0.651353 -0.614021
-15.232784 -13.020531 -0.197724 1145 0.537516 0.691462 -0.524913
-15.231184 -13.019125 -0.191553 1191 0.560541 0.711688 -0.436122
-15.228339 -13.016661 -0.185370 1199 0.601473 0.747146 -0.347158
-15.227344 -13.015779 -0.179205 1229 0.615799 0.759838 -0.258453
-15.226837 -13.015315 -0.173048 1229 0.623085 0.766507 -0.169863
-15.225553 -13.014184 -0.166885 1241 0.641569 0.782781 -0.081186
-15.225931 -13.014485 -0.160734 1251 0.636121 0.778445 0.007317
-15.226583 -13.015008 -0.154591 1257 0.626749 0.770926 0.095706
-15.227134 -13.015448 -0.148447 1227 0.618818 0.764600 0.184108
-15.227626 -13.015831 -0.142294 1207 0.611737 0.759084 0.272641
-15.227666 -13.015836 -0.136145 1181 0.611161 0.759015 0.361116
-15.229592 -13.017458 -0.130003 1177 0.583443 0.735674 0.449490
-15.233251 -13.020551 -0.123882 1153 0.530806 0.691174 0.537562
-15.237233 -13.023929 -0.117750 1113 0.473503 0.642571 0.625792
-15.241217 -13.027306 -0.111616 1063 0.416186 0.593981 0.714051
-15.246645 -13.031905 -0.105486 985 0.338081 0.527800 0.802252
-15.253457 -13.037696 -0.099358 839 0.240065 0.444481 0.890425
-15.259634 -13.036154 -0.222666 867 0.151188 0.466669 -0.883791
-15.253185 -13.030615 -0.216423 995 0.243976 0.546366 -0.793963
-15.246417 -13.024798 -0.210182 1057 0.341361 0.630056 -0.704165
-15.241573 -13.020635 -0.203970 1103 0.411054 0.689966 -0.614784
-15.237517 -13.017133 -0.197762 1143 0.469414 0.740353 -0.525460
-15.234855 -13.014829 -0.191578 1169 0.507725 0.773505 -0.436481
-15.233679 -13.013803 -0.185415 1185 0.524644 0.788270 -0.347805
-15.232782 -13.013005 -0.179249 1215 0.537543 0.799742 -0.259086
-15.231614 -13.011972 -0.173086 1235 0.554352 0.814603 -0.170409
-15.229720 -13.010325 -0.166918 1235 0.581604 0.838300 -0.081661
-15.229321 -13.009948 -0.160759 1227 0.587354 0.843734 0.006957
-15.230583 -13.011003 -0.154623 1231 0.569186 0.828558 0.095245
-15.230968 -13.011296 -0.148470 1213 0.563642 0.824331 0.183778
-15.231398 -13.011634 -0.142319 1211 0.557467 0.819474 0.272281
-15.233113 -13.013069 -0.136179 1193 0.532781 0.798822 0.360627
-15.235263 -13.014876 -0.130047 1161 0.501852 0.772819 0.448857
-15.237417 -13.016677 -0.123903 1143 0.470854 0.746912 0.537260
-15.240738 -13.019487 -0.117775 1103 0.423075 0.706474 0.625432
-15.246497 -13.024378 -0.111652 1067 0.340208 0.636108 0.713533
-15.252258 -13.029269 -0.105518 983 0.257314 0.565728 0.801792
-15.256853 -13.033165 -0.099383 843 0.191201 0.509674 0.890065
-15.264952 -13.032957 -0.222712 839 0.074675 0.512665 -0.884453
-15.257561 -13.026624 -0.216456 977 0.181020 0.603792 -0.794438
-15.251729 -13.021608 -0.210228 1039 0.264929 0.675956 -0.704827
-15.247000 -13.017543 -0.204004 1097 0.332976 0.734453 -0.615273
-15.242607 -13.013759 -0.197800 1131 0.396180 0.788901 -0.526007
-15.239273 -13.010880 -0.191610 1163 0.444152 0.830314 -0.436942
-15.237544 -13.009377 -0.185440 1189 0.469029 0.851954 -0.348165
-15.236037 -13.008060 -0.179268 1195 0.490710 0.870890 -0.259359
-15.234875 -13.007035 -0.173105 1217 0.507437 0.885641 -0.170683
-15.234139 -13.006375 -0.166948 1217 0.518017 0.895137 -0.082093
-15.233244 -13.005577 -0.160784 1213 0.530902 0.906622 0.006598
-15.233513 -13.005775 -0.154633 1205 0.527032 0.903768 0.095101
-15.235389 -13.007348 -0.148502 1199 0.500041 0.881140 0.183317
-15.236990 -13.008686 -0.142363 1203 0.477002 0.861888 0.271648
-15.237814 -13.009361 -0.136219 1177 0.465146 0.852173 0.360051
-15.239523 -13.010788 -0.130070 1145 0.440556 0.831645 0.448526
-15.242571 -13.013349 -0.123942 1117 0.396701 0.794802 0.536698
-15.247006 -13.017107 -0.117817 1093 0.332880 0.740724 0.624828
-15.252212 -13.021521 -0.111687 1045 0.257986 0.677219 0.713029
-15.257973 -13.026411 -0.105555 941 0.175092 0.606852 0.801260
-15.264740 -13.024521 -0.216524 943 0.077721 0.634049 -0.795417
-15.258348 -13.019037 -0.210280 1017 0.169685 0.712950 -0.705575
-15.252733 -13.014217 -0.204052 1075 0.250480 0.782301 -0.615963
-15.248729 -13.010765 -0.197855 1127 0.308099 0.831975 -0.526798
-15.246058 -13.008454 -0.191671 1157 0.346520 0.865223 -0.437819
-15.243213 -13.006003 -0.185476 1171 0.387466 0.900488 -0.348683
-15.241705 -13.004686 -0.179316 1191 0.409161 0.919438 -0.260050
-15.241033 -13.004076 -0.173149 1201 0.418835 0.928220 -0.171316
-15.240534 -13.003617 -0.166992 1203 0.426011 0.934820 -0.082726
-15.240811 -13.003820 -0.160841 1205 0.422018 0.931898 0.005778
-15.240743 -13.003736 -0.154692 1209 0.423006 0.933119 0.094253
-15.241287 -13.004169 -0.148539 1199 0.415171 0.926875 0.182785
-15.242220 -13.004933 -0.142393 1177 0.401751 0.915884 0.271217
-15.244375 -13.006748 -0.136261 1165 0.370739 0.889771 0.359447
-15.246141 -13.008217 -0.130121 1147 0.345326 0.868640 0.447792
-15.248743 -13.010406 -0.123976 1101 0.307893 0.837148 0.536209
-15.253005 -13.014010 -0.117851 1059 0.246569 0.785279 0.624339
-15.257262 -13.017622 -0.111717 999 0.185315 0.733314 0.712598
-15.263648 -13.023031 -0.105591 889 0.093433 0.655483 0.800742
-15.265100 -13.016747 -0.210341 981 0.072548 0.745897 -0.706453
-15.259211 -13.011690 -0.204115 1035 0.157281 0.818664 -0.616870
-15.254812 -13.007914 -0.197899 1097 0.220566 0.873003 -0.527431
-15.250974 -13.004608 -0.191702 1129 0.275797 0.920563 -0.438265
-15.249135 -13.002999 -0.185532 1161 0.302253 0.943712 -0.349489
-15.247737 -13.001788 -0.179361 1169 0.322369 0.961139 -0.260697
-15.247353 -13.001426 -0.173203 1187 0.327899 0.966353 -0.172093
-15.246781 -13.000913 -0.167046 1195 0.336119 0.973736 -0.083503
-15.245994 -13.000203 -0.160881 1183 0.347453 0.983945 0.005202
-15.246323 -13.000457 -0.154728 1193 0.342719 0.980295 0.093735
-15.247369 -13.001317 -0.148583 1191 0.327666 0.967918 0.182152
-15.248475 -13.002221 -0.142437 1169 0.311749 0.954909 0.270583
-15.249730 -13.003267 -0.136299 1141 0.293691 0.939856 0.358900
-15.251784 -13.004985 -0.130158 1121 0.264133 0.915143 0.447260
-15.254378 -13.007167 -0.124014 1081 0.226810 0.883747 0.535663
-15.258260 -13.010448 -0.117882 1027 0.170962 0.836530 0.623893
-15.263359 -13.014758 -0.111752 951 0.097590 0.774521 0.712094
-15.268680 -13.019267 -0.105621 837 0.021036 0.709643 0.800310
-15.269347 -13.011993 -0.210367 913 0.011430 0.814301 -0.706827
-15.266617 -13.009642 -0.204174 993 0.050716 0.848139 -0.617719
-15.262722 -13.006292 -0.197975 1067 0.106757 0.896330 -0.528524
-15.259164 -13.003228 -0.191776 1095 0.157953 0.940419 -0.439330
-15.255939 -13.000439 -0.185585 1113 0.204361 0.980556 -0.350251
-15.254375 -12.999083 -0.179413 1141 0.226851 1.000068 -0.261445
-15.253702 -12.998471 -0.173248 1163 0.236539 1.008864 -0.172740
-15.252800 -12.997680 -0.167093 1171 0.249520 1.020253 -0.084179
-15.252409 -12.997312 -0.160925 1173 0.255146 1.025550 0.004569
-15.252677 -12.997508 -0.154774 1169 0.251290 1.022723 0.093073
-15.252834 -12.997610 -0.148623 1155 0.249026 1.021255 0.181576
-15.254320 -12.998851 -0.142485 1141 0.227647 1.003403 0.269893
-15.256597 -13.000756 -0.136341 1125 0.194893 0.975986 0.358296
-15.258689 -13.002508 -0.130200 1097 0.164787 0.950779 0.446655
-15.261404 -13.004792 -0.124064 1059 0.125720 0.917915 0.534943
-15.265279 -13.008065 -0.117931 991 0.069968 0.870821 0.623188
-15.271269 -13.013136 -0.111809 893 -0.016219 0.797862 0.711274
-15.273721 -13.007634 -0.204243 917 -0.051498 0.877024 -0.618712
-15.270882 -13.005176 -0.198048 993 -0.010648 0.912399 -0.529575
-15.267533 -13.002298 -0.191847 1043 0.037529 0.953798 -0.440352
-15.265200 -13.000284 -0.185671 1091 0.071107 0.982779 -0.351489
-15.262412 -12.997875 -0.179478 1119 0.111216 1.017440 -0.262381
-15.261294 -12.996892 -0.173313 1131 0.127298 1.031587 -0.173676
-15.260846 -12.996481 -0.167156 1147 0.133748 1.037502 -0.085086
-15.260894 -12.996492 -0.160996 1149 0.133062 1.037337 0.003547
-15.260940 -12.996503 -0.154846 1141 0.132403 1.037186 0.092037
-15.260585 -12.996168 -0.148678 1125 0.137507 1.042002 0.180785
-15.261416 -12.996836 -0.142532 1111 0.125542 1.032397 0.269216
-15.263405 -12.998506 -0.136391 1093 0.096932 1.008370 0.357576
-15.266006 -13.000694 -0.130257 1051 0.059498 0.976878 0.445835
-15.269673 -13.003780 -0.124117 1009 0.006737 0.932474 0.534180
-15.274044 -13.007475 -0.117981 935 -0.056150 0.879315 0.622468
-15.277652 -13.010505 -0.111841 807 -0.108060 0.835721 0.710814
-15.280196 -13.005070 -0.198134 919 -0.144670 0.913922 -0.530812
-15.276573 -13.001957 -0.191935 989 -0.092541 0.958710 -0.441618
-15.273016 -12.998891 -0.185736 1041 -0.041358 1.002826 -0.352424
-15.270667 -12.996864 -0.179548 1081 -0.007561 1.031985 -0.263388
-15.269326 -12.995692 -0.173376 1087 0.011732 1.048850 -0.174582
-15.267756 -12.994329 -0.167206 1095 0.034319 1.068458 -0.085805
-15.267198 -12.993814 -0.161049 1093 0.042360 1.075868 0.002785
-15.267468 -12.994012 -0.154888 1089 0.038463 1.073028 0.091432
-15.268019 -12.994451 -0.148735 1069 0.030545 1.066716 0.179965
-15.269340 -12.995546 -0.142586 1065 0.011540 1.050949 0.268440
-15.271933 -12.997727 -0.136452 1045 -0.025770 1.019567 0.356698
-15.275053 -13.000344 -0.130314 1007 -0.070668 0.981914 0.445015
-15.279372 -13.003990 -0.124180 947 -0.132815 0.929455 0.533274
-15.283811 -13.007733 -0.118044 829 -0.196676 0.875597 0.621562
-15.284860 -13.000795 -0.192007 889 -0.211771 0.975424 -0.442654
-15.282799 -12.999002 -0.185820 953 -0.182117 1.001221 -0.353632
-15.280235 -12.996793 -0.179634 1003 -0.145233 1.033015 -0.264625
-15.278233 -12.995057 -0.173456 1021 -0.116417 1.057988 -0.175733
-15.277106 -12.994064 -0.167282 1039 -0.100211 1.072273 -0.086899
-15.276428 -12.993462 -0.161116 1043 -0.090455 1.080945 0.001821
-15.276696 -12.993658 -0.154965 1039 -0.094311 1.078119 0.090324
-15.277744 -12.994519 -0.148810 1027 -0.109391 1.065728 0.178886
-15.279238 -12.995752 -0.142660 997 -0.130880 1.047985 0.267375
-15.282177 -12.998224 -0.136524 967 -0.173171 1.012418 0.355662
-15.286340 -13.001734 -0.130390 911 -0.233067 0.961921 0.443921
-15.288099 -13.003209 -0.124241 779 -0.258384 0.940693 0.532396
-15.291596 -12.998593 -0.185898 805 -0.308702 1.007107 -0.354755
-15.290305 -12.997472 -0.179726 887 -0.290123 1.023245 -0.265949
-15.288747 -12.996105 -0.173544 935 -0.267701 1.042908 -0.176999
-15.287119 -12.994701 -0.167364 957 -0.244278 1.063107 -0.088079
-15.286613 -12.994234 -0.161196 955 -0.237005 1.069831 0.000670
-15.287221 -12.994716 -0.155043 957 -0.245746 1.062901 0.089202
-15.287930 -12.995294 -0.148890 937 -0.255941 1.054585 0.177734
-15.289705 -12.996769 -0.142738 889 -0.281492 1.033358 0.266252
-15.292982 -12.999523 -0.136601 837 -0.328640 0.993729 0.354555
