767
-9.262383 -7.710771 -0.196108 971 0.802253 -0.349436 -0.469865
-9.259231 -7.708126 -0.192345 1029 0.847618 -0.311378 -0.415721
-9.256180 -7.705578 -0.188584 1073 0.891514 -0.274713 -0.361606
-9.254093 -7.703817 -0.184845 1111 0.921538 -0.249376 -0.307808
-9.252904 -7.702809 -0.181132 1139 0.938649 -0.234871 -0.254383
-9.252111 -7.702136 -0.177416 1159 0.950052 -0.225191 -0.200916
-9.250806 -7.701032 -0.173693 1159 0.968837 -0.209308 -0.147347
-9.250131 -7.700441 -0.169987 1169 0.978552 -0.200800 -0.094024
-9.250280 -7.700549 -0.166296 1171 0.976398 -0.202357 -0.040916
-9.250048 -7.700335 -0.162598 1167 0.979746 -0.199277 0.012293
-9.250312 -7.700538 -0.158896 1179 0.975945 -0.202200 0.065559
-9.250469 -7.700654 -0.155205 1173 0.973681 -0.203867 0.118667
-9.250953 -7.701034 -0.151513 1157 0.966724 -0.209335 0.171789
-9.251335 -7.701334 -0.147820 1153 0.961221 -0.213650 0.224926
-9.252000 -7.701873 -0.144137 1139 0.951657 -0.221403 0.277919
-9.253771 -7.703322 -0.140467 1117 0.926176 -0.242254 0.330725
-9.255043 -7.704368 -0.136780 1101 0.907871 -0.257307 0.383775
-9.256996 -7.705975 -0.133109 1061 0.879768 -0.280428 0.436595
-9.259174 -7.707766 -0.129437 1017 0.848427 -0.306198 0.489430
-9.262185 -7.710264 -0.125769 959 0.805107 -0.342143 0.542207
-9.267164 -7.714390 -0.122122 869 0.733465 -0.401504 0.594681
-9.266829 -7.709815 -0.203572 911 0.738295 -0.335680 -0.577261
-9.262671 -7.706329 -0.199786 997 0.798109 -0.285519 -0.522786
-9.259918 -7.704021 -0.196030 1049 0.837724 -0.252312 -0.468743
-9.257431 -7.701937 -0.192284 1093 0.873511 -0.222330 -0.414844
-9.254837 -7.699765 -0.188529 1131 0.910834 -0.191078 -0.360815
-9.252525 -7.697818 -0.184792 1149 0.944096 -0.163058 -0.307045
-9.251611 -7.697043 -0.181077 1177 0.957256 -0.151909 -0.253592
-9.250818 -7.696357 -0.177372 1185 0.968659 -0.142036 -0.200283
-9.249572 -7.695308 -0.173649 1191 0.986593 -0.126948 -0.146714
-9.249063 -7.694860 -0.169951 1201 0.993921 -0.120499 -0.093506
-9.248308 -7.694222 -0.166247 1191 1.004775 -0.111319 -0.040211
-9.248357 -7.694233 -0.162547 1203 1.004075 -0.111477 0.013027
-9.248679 -7.694492 -0.158854 1209 0.999437 -0.115202 0.066164
-9.249286 -7.694977 -0.155171 1199 0.990710 -0.122180 0.119156
-9.250052 -7.695598 -0.151486 1197 0.979677 -0.131120 0.172178
-9.250607 -7.696034 -0.147793 1197 0.971705 -0.137391 0.225315
-9.251489 -7.696751 -0.144118 1185 0.959012 -0.147710 0.278192
-9.252551 -7.697612 -0.140433 1165 0.943726 -0.160094 0.331214
-9.254208 -7.698979 -0.136754 1157 0.919891 -0.179764 0.384149
-9.255653 -7.700162 -0.133074 1129 0.899089 -0.196786 0.437099
-9.257657 -7.701818 -0.129405 1095 0.870259 -0.220614 0.489890
-9.260501 -7.704155 -0.125739 1049 0.829340 -0.254240 0.542638
-9.264192 -7.707214 -0.122077 991 0.776236 -0.298253 0.595329
-9.268838 -7.711053 -0.118432 903 0.709383 -0.353491 0.647775
-9.269586 -7.707335 -0.207295 913 0.698625 -0.299996 -0.630829
-9.264521 -7.703102 -0.203494 1009 0.771502 -0.239091 -0.576139
-9.261651 -7.700697 -0.199730 1063 0.812791 -0.204484 -0.521980
-9.258943 -7.698430 -0.195975 1115 0.851762 -0.171867 -0.467952
-9.255731 -7.695744 -0.192223 1129 0.897977 -0.133219 -0.413966
-9.253534 -7.693894 -0.188485 1157 0.929579 -0.106599 -0.360182
-9.252969 -7.693407 -0.184779 1197 0.937716 -0.099594 -0.306858
-9.251945 -7.692542 -0.181065 1213 0.952453 -0.087148 -0.253419
-9.250299 -7.691157 -0.177334 1217 0.976123 -0.067217 -0.199736
-9.249726 -7.690662 -0.173626 1227 0.984370 -0.060095 -0.146383
-9.249889 -7.690770 -0.169936 1237 0.982024 -0.061653 -0.093290
-9.249874 -7.690748 -0.166247 1231 0.982243 -0.061337 -0.040211
-9.249633 -7.690526 -0.162549 1231 0.985715 -0.058140 0.012998
-9.248718 -7.689752 -0.158833 1229 0.998874 -0.047004 0.066466
-9.248484 -7.689538 -0.155135 1229 1.002250 -0.043924 0.119674
-9.249315 -7.690207 -0.151459 1227 0.990284 -0.053550 0.172566
-9.249914 -7.690684 -0.147767 1217 0.981667 -0.060411 0.225688
-9.251251 -7.691778 -0.144099 1213 0.962429 -0.076157 0.278466
-9.252357 -7.692680 -0.140412 1199 0.946525 -0.089131 0.331516
-9.253695 -7.693773 -0.136734 1181 0.927273 -0.104856 0.384437
-9.255750 -7.695462 -0.133063 1161 0.897703 -0.129165 0.437257
-9.257195 -7.696645 -0.129385 1137 0.876900 -0.146180 0.490178
-9.259814 -7.698799 -0.125721 1099 0.839220 -0.177178 0.542897
-9.262383 -7.700920 -0.122046 1041 0.802253 -0.207695 0.595775
-9.265221 -7.703266 -0.118380 971 0.761430 -0.241451 0.648523
-9.270041 -7.707255 -0.114733 877 0.692066 -0.298843 0.700998
-9.272272 -7.704694 -0.211020 893 0.659970 -0.261993 -0.684426
-9.267035 -7.700324 -0.207209 989 0.735331 -0.199119 -0.629592
-9.262420 -7.696476 -0.203415 1055 0.801731 -0.143751 -0.575002
-9.259660 -7.694160 -0.199660 1111 0.841443 -0.110427 -0.520973
-9.257913 -7.692693 -0.195931 1147 0.866581 -0.089323 -0.467319
-9.256556 -7.691541 -0.192208 1175 0.886108 -0.072747 -0.413750
-9.255084 -7.690307 -0.188487 1203 0.907280 -0.054991 -0.360211
-9.252989 -7.688552 -0.184748 1225 0.937428 -0.029735 -0.306412
-9.251409 -7.687215 -0.181027 1239 0.960165 -0.010497 -0.252872
-9.250218 -7.686208 -0.177313 1249 0.977290 0.003993 -0.199434
-9.249311 -7.685439 -0.173600 1255 0.990339 0.015053 -0.146009
-9.249187 -7.685314 -0.169899 1253 0.992123 0.016851 -0.092757
-9.248844 -7.685011 -0.166201 1249 0.997063 0.021214 -0.039549
-9.248429 -7.684653 -0.162505 1253 1.003032 0.026367 0.013631
-9.249036 -7.685138 -0.158820 1251 0.994305 0.019382 0.066653
-9.249250 -7.685293 -0.155129 1249 0.991218 0.017152 0.119761
-9.249357 -7.685360 -0.151438 1251 0.989681 0.016192 0.172868
-9.250738 -7.686494 -0.147761 1245 0.969811 -0.000123 0.225775
-9.251793 -7.687348 -0.144085 1239 0.954635 -0.012411 0.278667
-9.252731 -7.688106 -0.140400 1233 0.941132 -0.023320 0.331688
-9.253954 -7.689104 -0.136723 1211 0.923541 -0.037680 0.384595
-9.255284 -7.690190 -0.133046 1189 0.904399 -0.053303 0.437502
-9.257007 -7.691605 -0.129366 1169 0.879617 -0.073666 0.490451
-9.260023 -7.694096 -0.125710 1149 0.836215 -0.109508 0.543056
-9.261853 -7.695600 -0.122029 1105 0.809882 -0.131147 0.596020
-9.263915 -7.697297 -0.118357 1047 0.780215 -0.155566 0.648854
-9.268229 -7.700861 -0.114703 977 0.718151 -0.206844 0.701430
-9.273266 -7.705028 -0.111056 867 0.645672 -0.266802 0.753904
-9.276891 -7.703854 -0.214793 841 0.593515 -0.249911 -0.738714
-9.270748 -7.698738 -0.210957 969 0.681898 -0.176299 -0.683520
-9.265676 -7.694512 -0.207144 1047 0.754885 -0.115491 -0.628657
-9.262424 -7.691785 -0.203383 1101 0.801663 -0.076253 -0.574542
-9.259880 -7.689661 -0.199637 1141 0.838273 -0.045694 -0.520642
-9.258018 -7.688098 -0.195899 1187 0.865072 -0.023204 -0.466858
-9.255763 -7.686208 -0.192160 1197 0.897510 0.003993 -0.413060
-9.253959 -7.684686 -0.188431 1225 0.923472 0.025886 -0.359405
-9.252320 -7.683309 -0.184710 1247 0.947047 0.045701 -0.305865
-9.251522 -7.682628 -0.181004 1267 0.958532 0.055498 -0.252542
-9.251453 -7.682544 -0.177306 1273 0.959520 0.056706 -0.199333
-9.250888 -7.682056 -0.173598 1281 0.967657 0.063732 -0.145981
-9.250314 -7.681562 -0.169901 1273 0.975918 0.070839 -0.092786
-9.250131 -7.681396 -0.166203 1275 0.978552 0.073227 -0.039578
-9.249557 -7.680901 -0.162507 1273 0.986813 0.080349 0.013602
-9.249039 -7.680447 -0.158799 1269 0.994264 0.086880 0.066955
-9.249357 -7.680699 -0.155118 1271 0.989681 0.083258 0.119919
-9.250187 -7.681368 -0.151433 1281 0.977743 0.073632 0.172940
-9.251184 -7.682181 -0.147757 1263 0.963389 0.061934 0.225833
-9.251949 -7.682803 -0.144072 1255 0.952384 0.052980 0.278854
-9.252048 -7.682862 -0.140383 1249 0.950971 0.052136 0.331933
-9.253104 -7.683716 -0.136696 1237 0.935767 0.039848 0.384984
-9.255275 -7.685501 -0.133034 1221 0.904536 0.014161 0.437674
-9.257452 -7.687292 -0.129363 1211 0.873209 -0.011609 0.490494
-9.259339 -7.688838 -0.125691 1187 0.846053 -0.033852 0.543329
-9.261292 -7.690444 -0.122021 1139 0.817951 -0.056960 0.596135
-9.264028 -7.692695 -0.118346 1095 0.778596 -0.089350 0.649012
-9.267379 -7.695458 -0.114687 1039 0.730377 -0.129103 0.701660
-9.271800 -7.699112 -0.111031 963 0.666762 -0.181678 0.754264
-9.277070 -7.703471 -0.107382 827 0.590935 -0.244401 0.806768
-9.279864 -7.701649 -0.218524 781 0.550730 -0.218186 -0.792398
-9.273282 -7.696171 -0.214680 947 0.645439 -0.139360 -0.737088
-9.268096 -7.691850 -0.210869 1027 0.720058 -0.077193 -0.682254
-9.265116 -7.689356 -0.207106 1075 0.762939 -0.041303 -0.628110
-9.262638 -7.687280 -0.203360 1135 0.798589 -0.011437 -0.574211
-9.260102 -7.685163 -0.199614 1177 0.835076 0.019025 -0.520311
-9.257508 -7.682991 -0.195858 1215 0.872399 0.050277 -0.466268
-9.255196 -7.681046 -0.192122 1229 0.905675 0.078263 -0.412513
-9.254172 -7.680181 -0.188408 1259 0.920399 0.090709 -0.359074
-9.253041 -7.679228 -0.184695 1277 0.936673 0.104424 -0.305650
-9.252583 -7.678828 -0.180996 1283 0.943273 0.110180 -0.252427
-9.252573 -7.678799 -0.177298 1287 0.943410 0.110592 -0.199218
-9.251999 -7.678305 -0.173600 1297 0.951671 0.117700 -0.146009
-9.250752 -7.677256 -0.169888 1289 0.969606 0.132794 -0.092599
-9.249331 -7.676056 -0.166165 1281 0.990051 0.150063 -0.039031
-9.248988 -7.675753 -0.162468 1283 0.994991 0.154420 0.014163
-9.249420 -7.676086 -0.158785 1281 0.988775 0.149631 0.067156
-9.249969 -7.676529 -0.155102 1291 0.980885 0.143257 0.120149
-9.250293 -7.676775 -0.151421 1291 0.976219 0.139717 0.173113
-9.251290 -7.677588 -0.147734 1287 0.961866 0.128019 0.226163
-9.251946 -7.678119 -0.144051 1269 0.952426 0.120376 0.279156
-9.252443 -7.678500 -0.140368 1263 0.945276 0.114894 0.332149
-9.254050 -7.679820 -0.136700 1243 0.922155 0.095903 0.384926
-9.256560 -7.681885 -0.133036 1235 0.886039 0.066195 0.437645
-9.258571 -7.683534 -0.129364 1237 0.857113 0.042463 0.490480
-9.259625 -7.684387 -0.125678 1203 0.841937 0.030188 0.543516
-9.261398 -7.685851 -0.122008 1155 0.816428 0.009125 0.596322
-9.264018 -7.688005 -0.118334 1123 0.778733 -0.021866 0.649185
-9.267208 -7.690632 -0.114676 1077 0.732834 -0.059663 0.701818
-9.270783 -7.693580 -0.111016 1013 0.681390 -0.102084 0.754480
-9.275372 -7.697364 -0.107361 901 0.615374 -0.156526 0.807070
-9.279362 -7.696535 -0.218476 897 0.557961 -0.144602 -0.791707
-9.273844 -7.691940 -0.214655 1009 0.637356 -0.078483 -0.736729
-9.269787 -7.688563 -0.210869 1075 0.695729 -0.029893 -0.682254
-9.266127 -7.685508 -0.207098 1123 0.748394 0.014065 -0.627995
-9.262918 -7.682823 -0.203337 1161 0.794555 0.052692 -0.573880
-9.260881 -7.681124 -0.199599 1205 0.823865 0.077138 -0.520096
-9.258286 -7.678952 -0.195853 1213 0.861202 0.108390 -0.466196
-9.255924 -7.676971 -0.192107 1237 0.895191 0.136897 -0.412297
-9.254445 -7.675731 -0.188385 1255 0.916474 0.154735 -0.358743
-9.254052 -7.675379 -0.184687 1273 0.922128 0.159806 -0.305534
-9.253702 -7.675070 -0.180989 1289 0.927164 0.164252 -0.252326
-9.252846 -7.674349 -0.177285 1301 0.939486 0.174625 -0.199031
-9.251765 -7.673430 -0.173571 1311 0.955033 0.187846 -0.145592
-9.250576 -7.672422 -0.169858 1299 0.972144 0.202350 -0.092167
-9.250841 -7.672626 -0.166176 1301 0.968329 0.199414 -0.039189
-9.251903 -7.673486 -0.162499 1303 0.953057 0.187037 0.013717
-9.251894 -7.673458 -0.158810 1313 0.953180 0.187442 0.066796
-9.251762 -7.673339 -0.155110 1299 0.955074 0.189157 0.120034
-9.252028 -7.673542 -0.151419 1297 0.951246 0.186234 0.173142
-9.251730 -7.673266 -0.147730 1295 0.955541 0.190207 0.226221
-9.252110 -7.673566 -0.144040 1289 0.950079 0.185891 0.279314
-9.252992 -7.674284 -0.140364 1275 0.937386 0.175558 0.332206
-9.253880 -7.674994 -0.136679 1265 0.924611 0.165342 0.385228
-9.256051 -7.676779 -0.133017 1263 0.893366 0.139662 0.437919
-9.257888 -7.678289 -0.129347 1245 0.866938 0.117933 0.490725
-9.259217 -7.679376 -0.125670 1221 0.847810 0.102290 0.543631
-9.261221 -7.681017 -0.121998 1191 0.818980 0.078682 0.596466
-9.263840 -7.683170 -0.118323 1157 0.781299 0.047704 0.649343
-9.267488 -7.686174 -0.114672 1125 0.728813 0.004480 0.701876
-9.270498 -7.688657 -0.111006 1065 0.685493 -0.031245 0.754624
-9.274812 -7.692208 -0.107342 981 0.623429 -0.082338 0.807343
-9.281144 -7.697450 -0.103707 843 0.532315 -0.157768 0.859645
-9.284002 -7.695990 -0.222247 787 0.491190 -0.136760 -0.845966
-9.277362 -7.690471 -0.218403 951 0.586736 -0.057351 -0.790657
-9.272856 -7.686710 -0.214598 1033 0.651572 -0.003232 -0.735909
-9.269423 -7.683855 -0.210827 1087 0.700971 0.037845 -0.681649
-9.266030 -7.681025 -0.207066 1149 0.749780 0.078565 -0.627534
-9.263277 -7.678716 -0.203312 1183 0.789395 0.111786 -0.573520
-9.260742 -7.676600 -0.199566 1207 0.825868 0.142235 -0.519621
-9.258471 -7.674708 -0.195830 1221 0.858554 0.169459 -0.465865
-9.256900 -7.673379 -0.192097 1257 0.881154 0.188581 -0.412153
-9.255485 -7.672186 -0.188385 1281 0.901517 0.205747 -0.358743
-9.254630 -7.671466 -0.184670 1283 0.913812 0.216107 -0.305290
-9.254287 -7.671162 -0.180974 1301 0.918752 0.220477 -0.252110
-9.253879 -7.670812 -0.177275 1317 0.924625 0.225513 -0.198887
-9.252798 -7.669893 -0.173571 1315 0.940172 0.238741 -0.145592
-9.252173 -7.669350 -0.169865 1311 0.949160 0.246549 -0.092268
-9.252099 -7.669272 -0.166174 1315 0.950230 0.247674 -0.039160
-9.251807 -7.669018 -0.162476 1315 0.954429 0.251331 0.014048
-9.252247 -7.669358 -0.158795 1331 0.948103 0.246439 0.067012
-9.252680 -7.669705 -0.155112 1319 0.941873 0.241444 0.120005
-9.252670 -7.669676 -0.151412 1311 0.942011 0.241863 0.173243
-9.252769 -7.669736 -0.147721 1305 0.940584 0.240998 0.226351
-9.253368 -7.670214 -0.144049 1307 0.931966 0.234117 0.279185
-9.254250 -7.670930 -0.140364 1293 0.919287 0.223818 0.332206
-9.255124 -7.671641 -0.136679 1285 0.906704 0.213589 0.385228
-9.256461 -7.672734 -0.133011 1277 0.887466 0.197863 0.438005
-9.257966 -7.673958 -0.129332 1255 0.865813 0.180251 0.490940
-9.259180 -7.674949 -0.125657 1233 0.848345 0.165987 0.543818
-9.261364 -7.676733 -0.121983 1203 0.816922 0.140320 0.596681
-9.264831 -7.679593 -0.118325 1185 0.767042 0.099168 0.649314
-9.267783 -7.682021 -0.114668 1137 0.724559 0.064232 0.701933
-9.270345 -7.684134 -0.110993 1093 0.687702 0.033831 0.754811
-9.273535 -7.686761 -0.107325 1017 0.641802 -0.003966 0.807588
-9.279869 -7.691988 -0.103690 903 0.550661 -0.079176 0.859890
-9.285637 -7.692648 -0.222256 877 0.467671 -0.088671 -0.846096
-9.278315 -7.686567 -0.218386 991 0.573028 -0.001173 -0.790412
-9.272788 -7.681979 -0.214568 1065 0.652547 0.064836 -0.735477
-9.269811 -7.679486 -0.210804 1115 0.695386 0.100712 -0.681319
-9.267093 -7.677226 -0.207049 1155 0.734494 0.133226 -0.627290
-9.264107 -7.674725 -0.203295 1197 0.777457 0.169212 -0.573276
-9.261230 -7.672328 -0.199542 1219 0.818843 0.203702 -0.519275
-9.259708 -7.671046 -0.195820 1245 0.840743 0.222151 -0.465722
-9.258635 -7.670134 -0.192107 1271 0.856194 0.235269 -0.412297
-9.257054 -7.668810 -0.188385 1273 0.878931 0.254322 -0.358743
-9.256088 -7.667987 -0.184672 1287 0.892831 0.266164 -0.305319
-9.255182 -7.667219 -0.180966 1307 0.905867 0.277210 -0.251995
-9.254665 -7.666779 -0.177269 1323 0.913304 0.283543 -0.198801
-9.253469 -7.665764 -0.173556 1311 0.930512 0.298150 -0.145376
-9.252613 -7.665043 -0.169850 1313 0.942834 0.308524 -0.092053
-9.252821 -7.665193 -0.166159 1325 0.939843 0.306363 -0.038945
-9.253036 -7.665347 -0.162478 1321 0.936755 0.304147 0.014020
-9.253873 -7.666024 -0.158793 1341 0.924707 0.294404 0.067041
-9.253516 -7.665721 -0.155106 1329 0.929839 0.298768 0.120092
-9.252885 -7.665172 -0.151400 1307 0.938923 0.306665 0.173415
-9.253766 -7.665888 -0.147725 1305 0.926244 0.296366 0.226293
-9.255212 -7.667071 -0.144057 1317 0.905442 0.279344 0.279070
-9.255709 -7.667452 -0.140364 1307 0.898293 0.273862 0.332206
-9.256250 -7.667888 -0.136681 1295 0.890499 0.267585 0.385199
-9.257191 -7.668647 -0.133006 1281 0.876969 0.256669 0.438077
-9.258245 -7.669500 -0.129319 1255 0.861792 0.244394 0.491127
-9.260697 -7.671512 -0.125657 1249 0.826513 0.215441 0.543818
-9.262700 -7.673152 -0.121994 1223 0.797697 0.191846 0.596523
-9.265038 -7.675082 -0.118321 1197 0.764065 0.164073 0.649372
-9.268063 -7.677564 -0.114655 1155 0.720539 0.128362 0.702120
-9.271361 -7.680279 -0.110997 1117 0.673075 0.089302 0.754753
-9.275110 -7.683365 -0.107335 1055 0.619134 0.044898 0.807444
-9.278859 -7.686450 -0.103674 969 0.565193 0.000508 0.860120
-9.284808 -7.691355 -0.100022 819 0.479595 -0.070071 0.912667
-9.284622 -7.687216 -0.222189 909 0.482271 -0.010511 -0.845131
-9.279155 -7.682682 -0.218369 1023 0.560939 0.054723 -0.790168
-9.274540 -7.678833 -0.214575 1083 0.627339 0.110105 -0.735578
-9.271490 -7.676299 -0.210812 1139 0.671222 0.146564 -0.681434
-9.268678 -7.673949 -0.207058 1191 0.711688 0.180382 -0.627419
-9.265115 -7.670984 -0.203288 1211 0.762953 0.223043 -0.573175
-9.262751 -7.669003 -0.199542 1237 0.796970 0.251544 -0.519275
-9.261170 -7.667681 -0.195820 1263 0.819707 0.270562 -0.465722
-9.259807 -7.666534 -0.192097 1279 0.839329 0.287070 -0.412153
-9.258574 -7.665486 -0.188385 1287 0.857072 0.302150 -0.358743
-9.257893 -7.664903 -0.184680 1307 0.866869 0.310534 -0.305434
-9.257144 -7.664271 -0.180974 1319 0.877641 0.319632 -0.252110
-9.256071 -7.663358 -0.177269 1325 0.893078 0.332764 -0.198801
-9.255092 -7.662536 -0.173565 1325 0.907171 0.344592 -0.145506
-9.254242 -7.661808 -0.169859 1323 0.919397 0.355069 -0.092182
-9.253668 -7.661313 -0.166153 1337 0.927658 0.362190 -0.038858
-9.253260 -7.660963 -0.162455 1337 0.933531 0.367226 0.014350
-9.253807 -7.661392 -0.158782 1335 0.925654 0.361051 0.067199
-9.254356 -7.661835 -0.155098 1335 0.917750 0.354678 0.120206
-9.254506 -7.661943 -0.151408 1317 0.915596 0.353127 0.173300
-9.255396 -7.662653 -0.147732 1321 0.902793 0.342911 0.226192
-9.256001 -7.663137 -0.144049 1319 0.894080 0.335947 0.279185
-9.256883 -7.663855 -0.140364 1313 0.881401 0.325615 0.332206
-9.258335 -7.665030 -0.136696 1309 0.860502 0.308709 0.384984
-9.259558 -7.666027 -0.133021 1301 0.842911 0.294363 0.437861
-9.260374 -7.666683 -0.129336 1293 0.831165 0.284922 0.490883
-9.261312 -7.667440 -0.125660 1257 0.817676 0.274034 0.543775
-9.263997 -7.669643 -0.121994 1247 0.779035 0.242336 0.596523
-9.266565 -7.671749 -0.118330 1221 0.742082 0.212031 0.649243
-9.268786 -7.673583 -0.114659 1183 0.710124 0.185644 0.702063
-9.271927 -7.676160 -0.110991 1135 0.664937 0.148567 0.754840
-9.275392 -7.679006 -0.107331 1089 0.615086 0.107614 0.807502
-9.279148 -7.682097 -0.103671 1005 0.561035 0.063141 0.860163
-9.284692 -7.686675 -0.100020 883 0.481269 -0.002731 0.912696
-9.284711 -7.682522 -0.222157 935 0.480995 0.057028 -0.844671
-9.279698 -7.678351 -0.218346 1037 0.553117 0.117041 -0.789837
-9.276265 -7.675496 -0.214575 1109 0.602516 0.158118 -0.735578
-9.273272 -7.673002 -0.210812 1159 0.645589 0.194008 -0.681434
-9.270229 -7.670461 -0.207058 1205 0.689362 0.230563 -0.627419
-9.266332 -7.667222 -0.203280 1227 0.745444 0.277169 -0.573060
-9.263854 -7.665146 -0.199534 1245 0.781094 0.307042 -0.519160
-9.262273 -7.663823 -0.195813 1265 0.803845 0.326074 -0.465621
-9.260917 -7.662685 -0.192091 1285 0.823357 0.342451 -0.412067
-9.260011 -7.661917 -0.188385 1299 0.836393 0.353498 -0.358743
-9.258755 -7.660860 -0.184672 1313 0.854465 0.368708 -0.305319
-9.257458 -7.659763 -0.180960 1321 0.873127 0.384495 -0.251909
-9.257114 -7.659460 -0.177262 1333 0.878066 0.388852 -0.198700
-9.257265 -7.659568 -0.173571 1353 0.875898 0.387302 -0.145592
-9.256466 -7.658889 -0.169865 1349 0.887397 0.397072 -0.092268
-9.255669 -7.658209 -0.166171 1353 0.898869 0.406855 -0.039117
-9.256049 -7.658509 -0.162478 1355 0.893394 0.402540 0.014020
-9.256315 -7.658712 -0.158797 1341 0.889565 0.399617 0.066984
-9.255908 -7.658347 -0.155098 1337 0.895425 0.404866 0.120206
-9.256406 -7.658742 -0.151417 1331 0.888262 0.399185 0.173171
-9.257569 -7.659686 -0.147740 1329 0.871521 0.385600 0.226077
-9.257437 -7.659567 -0.144051 1319 0.873428 0.387315 0.279156
-9.258101 -7.660093 -0.140366 1311 0.863864 0.379748 0.332178
-9.259829 -7.661500 -0.136698 1309 0.839014 0.359501 0.384955
-9.260711 -7.662218 -0.133023 1301 0.826321 0.349168 0.437833
-9.262034 -7.663298 -0.129345 1285 0.807275 0.333628 0.490753
-9.263826 -7.664752 -0.125676 1277 0.781492 0.312709 0.543545
-9.265041 -7.665744 -0.121998 1243 0.764010 0.298438 0.596466
-9.266820 -7.667200 -0.118319 1213 0.738418 0.277485 0.649401
-9.269722 -7.669581 -0.114663 1189 0.696663 0.243228 0.702005
-9.273137 -7.672392 -0.110993 1153 0.647524 0.202783 0.754811
-9.277284 -7.675798 -0.107340 1109 0.587861 0.153775 0.807372
-9.281430 -7.679205 -0.103688 1045 0.528198 0.104753 0.859919
-9.286417 -7.683323 -0.100029 935 0.456446 0.045502 0.912566
-9.285528 -7.678326 -0.222142 981 0.469235 0.117398 -0.844455
-9.280009 -7.673745 -0.218323 1053 0.548644 0.183311 -0.789506
-9.275952 -7.670369 -0.214535 1117 0.607017 0.231887 -0.735002
-9.273357 -7.668197 -0.210780 1167 0.644355 0.263139 -0.680973
-9.270590 -7.665888 -0.207026 1195 0.684176 0.296366 -0.626959
-9.267772 -7.663545 -0.203282 1221 0.724724 0.330074 -0.573088
-9.265685 -7.661798 -0.199543 1243 0.754747 0.355213 -0.519290
-9.264205 -7.660557 -0.195822 1275 0.776044 0.373072 -0.465750
-9.262574 -7.659186 -0.192101 1293 0.799508 0.392797 -0.412211
-9.260871 -7.657761 -0.188370 1297 0.824016 0.413298 -0.358527
-9.260304 -7.657273 -0.184674 1317 0.832167 0.420323 -0.305347
-9.259506 -7.656593 -0.180968 1325 0.843652 0.430107 -0.252024
-9.258924 -7.656106 -0.177271 1335 0.852036 0.437112 -0.198829
-9.258633 -7.655838 -0.173573 1357 0.856221 0.440968 -0.145621
-9.257668 -7.655028 -0.169869 1349 0.870108 0.452625 -0.092326
-9.256870 -7.654348 -0.166163 1349 0.881579 0.462409 -0.039002
-9.256794 -7.654272 -0.162474 1353 0.882677 0.463499 0.014077
-9.257582 -7.654900 -0.158799 1345 0.871343 0.454464 0.066955
-9.258572 -7.655705 -0.155123 1349 0.857099 0.442882 0.119847
-9.258562 -7.655676 -0.151434 1341 0.857237 0.443301 0.172926
-9.257866 -7.655079 -0.147728 1331 0.867254 0.451891 0.226250
-9.258073 -7.655227 -0.144047 1309 0.864276 0.449757 0.279214
-9.259295 -7.656226 -0.140370 1309 0.846684 0.435383 0.332120
-9.261031 -7.657640 -0.136700 1325 0.821711 0.415040 0.384926
-9.262362 -7.658727 -0.133032 1317 0.802568 0.399397 0.437703
-9.263582 -7.659711 -0.129357 1287 0.785004 0.385243 0.490581
-9.265021 -7.660886 -0.125678 1271 0.764298 0.368338 0.543516
-9.266524 -7.662109 -0.122000 1255 0.742672 0.350739 0.596437
-9.268137 -7.663422 -0.118330 1231 0.719468 0.331844 0.649243
-9.270648 -7.665487 -0.114657 1197 0.683339 0.302136 0.702091
-9.274520 -7.668661 -0.111004 1173 0.627627 0.256463 0.754653
-9.277935 -7.671473 -0.107346 1129 0.578489 0.216004 0.807286
-9.281234 -7.674174 -0.103678 1057 0.531025 0.177143 0.860063
-9.286503 -7.678518 -0.100018 949 0.455211 0.114640 0.912725
-9.293756 -7.684492 -0.096388 801 0.350856 0.028679 0.964955
-9.292167 -7.679133 -0.225953 923 0.373717 0.105789 -0.899290
-9.286589 -7.674511 -0.222125 995 0.453976 0.172293 -0.844211
-9.281570 -7.670349 -0.218323 1067 0.526181 0.232175 -0.789506
-9.277796 -7.667212 -0.214545 1125 0.580493 0.277313 -0.735146
-9.274976 -7.664855 -0.210780 1165 0.621068 0.311227 -0.680973
-9.272491 -7.662786 -0.207034 1195 0.656814 0.340997 -0.627074
-9.269616 -7.660388 -0.203280 1231 0.698186 0.375501 -0.573060
-9.267694 -7.658785 -0.199551 1249 0.725835 0.398567 -0.519405
-9.266904 -7.658113 -0.195845 1281 0.737211 0.408234 -0.466081
-9.265316 -7.656783 -0.192124 1297 0.760058 0.427370 -0.412542
-9.263793 -7.655501 -0.188403 1313 0.781972 0.445819 -0.359002
-9.262930 -7.654774 -0.184697 1341 0.794390 0.456275 -0.305678
-9.261799 -7.653821 -0.180983 1343 0.810664 0.469990 -0.252240
-9.261224 -7.653327 -0.177287 1347 0.818939 0.477098 -0.199060
-9.260476 -7.652695 -0.173581 1361 0.829697 0.486189 -0.145736
-9.258831 -7.651310 -0.169859 1361 0.853367 0.506120 -0.092182
-9.257975 -7.650589 -0.166155 1347 0.865689 0.516494 -0.038887
-9.257849 -7.650465 -0.162467 1355 0.867501 0.518277 0.014178
-9.258911 -7.651325 -0.158801 1367 0.852214 0.505900 0.066926
-9.260242 -7.652412 -0.155123 1355 0.833059 0.490264 0.119847
-9.260522 -7.652615 -0.151442 1341 0.829038 0.487341 0.172811
-9.260564 -7.652635 -0.147751 1329 0.828434 0.487053 0.225919
-9.260482 -7.652551 -0.144061 1317 0.829614 0.488261 0.279012
-9.261538 -7.653405 -0.140385 1325 0.814424 0.475973 0.331904
-9.263266 -7.654812 -0.136715 1321 0.789560 0.455733 0.384710
-9.263929 -7.655337 -0.133032 1299 0.780010 0.448179 0.437703
-9.265209 -7.656377 -0.129355 1297 0.761595 0.433215 0.490609
-9.266871 -7.657736 -0.125685 1275 0.737677 0.413661 0.543415
-9.268259 -7.658864 -0.122008 1255 0.717712 0.397428 0.596322
-9.270328 -7.660553 -0.118336 1233 0.687949 0.373127 0.649156
-9.272607 -7.662426 -0.114674 1207 0.655154 0.346177 0.701847
-9.275632 -7.664895 -0.111008 1175 0.611628 0.310651 0.754595
-9.278996 -7.667659 -0.107348 1135 0.563217 0.270885 0.807257
-9.282237 -7.670319 -0.103680 1067 0.516590 0.232607 0.860034
-9.287731 -7.674849 -0.100029 965 0.437538 0.167428 0.912566
-9.295041 -7.680862 -0.096388 833 0.332359 0.080911 0.964955
-9.291785 -7.674327 -0.225913 1021 0.379206 0.174941 -0.898714
-9.287895 -7.671094 -0.222125 1009 0.435177 0.221458 -0.844211
-9.283723 -7.667636 -0.218338 1071 0.495211 0.271214 -0.789721
-9.279942 -7.664492 -0.214549 1127 0.549618 0.316448 -0.735204
-9.276225 -7.661397 -0.210780 1165 0.603093 0.360983 -0.680973
-9.273790 -7.659375 -0.207034 1193 0.638125 0.390073 -0.627074
-9.271255 -7.657259 -0.203288 1239 0.674611 0.420522 -0.573175
-9.269059 -7.655423 -0.199549 1255 0.706199 0.446937 -0.519376
-9.268766 -7.655167 -0.195851 1285 0.710412 0.450621 -0.466168
-9.267063 -7.653742 -0.192132 1301 0.734919 0.471129 -0.412657
-9.264578 -7.651673 -0.188385 1311 0.770679 0.500899 -0.358743
-9.264121 -7.651275 -0.184687 1331 0.777251 0.506621 -0.305534
-9.263147 -7.650458 -0.180983 1333 0.791262 0.518380 -0.252240
-9.262240 -7.649690 -0.177279 1341 0.804311 0.529426 -0.198944
-9.261956 -7.649428 -0.173581 1363 0.808400 0.533200 -0.145736
-9.261434 -7.648982 -0.169882 1357 0.815920 0.539615 -0.092513
-9.261533 -7.649041 -0.166192 1371 0.814493 0.538764 -0.039419
-9.260841 -7.648464 -0.162497 1363 0.824441 0.547066 0.013746
-9.261000 -7.648565 -0.158806 1369 0.822163 0.545618 0.066854
-9.260977 -7.648537 -0.155116 1343 0.822493 0.546016 0.119947
-9.260917 -7.648459 -0.151427 1341 0.823357 0.547141 0.173027
-9.261971 -7.649313 -0.147749 1335 0.808181 0.534854 0.225947
-9.262968 -7.650126 -0.144074 1323 0.793841 0.523156 0.278825
-9.263965 -7.650925 -0.140399 1323 0.779502 0.511657 0.331703
-9.265244 -7.651963 -0.136733 1325 0.761101 0.496720 0.384451
-9.265959 -7.652536 -0.133048 1309 0.750809 0.488480 0.437473
-9.267123 -7.653479 -0.129372 1307 0.734055 0.474909 0.490365
-9.268280 -7.654415 -0.125695 1283 0.717410 0.461441 0.543271
-9.270015 -7.655829 -0.122025 1265 0.692450 0.441098 0.596077
-9.271396 -7.656951 -0.118348 1225 0.672581 0.424955 0.648984
-9.273573 -7.658728 -0.114676 1211 0.641253 0.399384 0.701818
-9.277097 -7.661629 -0.111016 1169 0.590551 0.357642 0.754480
-9.280859 -7.664713 -0.107356 1127 0.536418 0.313272 0.807142
-9.285006 -7.668119 -0.103703 1069 0.476755 0.264264 0.859703
-9.290115 -7.672313 -0.100043 991 0.403233 0.203915 0.912365
-9.296231 -7.677349 -0.096400 839 0.315234 0.131456 0.964782
-9.294312 -7.671830 -0.225937 1007 0.342856 0.210865 -0.899060
-9.290710 -7.668831 -0.222157 1029 0.394670 0.254020 -0.844671
-9.285866 -7.664818 -0.218344 1097 0.464378 0.311762 -0.789808
-9.281796 -7.661442 -0.214556 1135 0.522929 0.360338 -0.735304
-9.277963 -7.658264 -0.210787 1167 0.578091 0.406059 -0.681074
-9.275419 -7.656140 -0.207032 1207 0.614688 0.436625 -0.627045
-9.273448 -7.654489 -0.203303 1245 0.643051 0.460378 -0.573390
-9.271527 -7.652885 -0.199574 1275 0.670687 0.483458 -0.519736
-9.269939 -7.651556 -0.195843 1287 0.693534 0.502580 -0.466052
-9.268186 -7.650095 -0.192122 1295 0.718769 0.523602 -0.412513
-9.266425 -7.648630 -0.188393 1309 0.744099 0.544678 -0.358858
-9.266025 -7.648272 -0.184695 1327 0.749862 0.549831 -0.305650
-9.265682 -7.647969 -0.181006 1347 0.754789 0.554195 -0.252570
-9.264421 -7.646921 -0.177294 1339 0.772929 0.569268 -0.199160
-9.263687 -7.646289 -0.173588 1361 0.783495 0.578366 -0.145836
-9.263164 -7.645842 -0.169892 1363 0.791028 0.584794 -0.092657
-9.262756 -7.645492 -0.166193 1361 0.796888 0.589830 -0.039434
-9.262804 -7.645503 -0.162503 1357 0.796201 0.589673 0.013660
-9.263353 -7.645947 -0.158829 1357 0.788298 0.583285 0.066523
-9.263626 -7.646143 -0.155138 1353 0.784373 0.580465 0.119631
-9.264117 -7.646531 -0.151455 1347 0.777306 0.574880 0.172624
-9.264606 -7.646919 -0.147772 1341 0.770267 0.569302 0.225617
-9.264640 -7.646931 -0.144083 1331 0.769787 0.569124 0.278696
-9.265529 -7.647641 -0.140408 1337 0.756998 0.558908 0.331574
-9.266534 -7.648461 -0.136733 1321 0.742535 0.547114 0.384451
-9.267524 -7.649253 -0.133057 1313 0.728292 0.535718 0.437343
-9.269194 -7.650621 -0.129387 1313 0.704264 0.516034 0.490149
-9.270589 -7.651755 -0.125710 1295 0.684189 0.499718 0.543056
-9.272208 -7.653060 -0.122031 1279 0.660889 0.480940 0.595991
-9.274371 -7.654838 -0.118369 1247 0.629768 0.455355 0.648681
-9.276614 -7.656663 -0.114697 1223 0.597494 0.429099 0.701516
-9.279638 -7.659146 -0.111029 1177 0.553982 0.393374 0.754293
-9.283045 -7.661936 -0.107371 1129 0.504967 0.353230 0.806926
-9.287199 -7.665349 -0.103718 1069 0.445194 0.304119 0.859487
-9.291571 -7.668941 -0.100054 985 0.382293 0.252436 0.912207
-9.298084 -7.674298 -0.096407 853 0.288572 0.175359 0.964681
-9.298191 -7.670351 -0.225983 931 0.287035 0.232148 -0.899721
-9.292894 -7.665955 -0.222163 1031 0.363247 0.295399 -0.844758
-9.288548 -7.662359 -0.218367 1103 0.425778 0.347137 -0.790139
-9.284883 -7.659312 -0.214598 1151 0.478525 0.390986 -0.735909
-9.281775 -7.656736 -0.210835 1191 0.523231 0.428049 -0.681765
-9.278559 -7.654058 -0.207074 1223 0.569515 0.466580 -0.627650
-9.275625 -7.651620 -0.203320 1235 0.611724 0.501660 -0.573635
-9.273640 -7.649968 -0.199580 1261 0.640293 0.525427 -0.519822
-9.272283 -7.648831 -0.195868 1283 0.659819 0.541790 -0.466412
-9.271485 -7.648151 -0.192153 1307 0.671291 0.551574 -0.412959
-9.270296 -7.647156 -0.188439 1315 0.688402 0.565893 -0.359520
-9.269505 -7.646485 -0.184733 1339 0.699791 0.575546 -0.306196
-9.268200 -7.645381 -0.181021 1347 0.718563 0.591429 -0.252786
-9.266546 -7.644003 -0.177300 1351 0.742357 0.611257 -0.199247
-9.265414 -7.643050 -0.173596 1351 0.758645 0.624965 -0.145952
-9.265000 -7.642693 -0.169899 1361 0.764600 0.630104 -0.092757
-9.264875 -7.642568 -0.166211 1361 0.766397 0.631902 -0.039693
-9.264532 -7.642264 -0.162512 1349 0.771337 0.636279 0.013530
-9.264799 -7.642469 -0.158831 1339 0.767495 0.633329 0.066494
-9.265405 -7.642953 -0.155146 1353 0.758782 0.626365 0.119516
-9.265106 -7.642690 -0.151459 1337 0.763077 0.630145 0.172566
-9.265770 -7.643216 -0.147774 1329 0.753526 0.622578 0.225588
-9.267787 -7.644856 -0.144114 1349 0.724504 0.598983 0.278250
-9.268668 -7.645574 -0.140439 1335 0.711825 0.588650 0.331127
-9.268762 -7.645627 -0.136748 1305 0.710481 0.587889 0.384235
-9.269533 -7.646240 -0.133065 1303 0.699379 0.579066 0.437228
-9.271378 -7.647745 -0.129393 1311 0.672841 0.557412 0.490063
-9.273330 -7.649338 -0.125733 1291 0.644752 0.534497 0.542725
-9.274545 -7.650328 -0.122056 1265 0.627271 0.520247 0.595631
-9.276273 -7.651736 -0.118376 1243 0.602407 0.499993 0.648581
-9.279637 -7.654486 -0.114718 1221 0.553996 0.460419 0.701214
-9.282661 -7.656969 -0.111052 1175 0.510483 0.424694 0.753962
-9.285120 -7.658971 -0.107388 1131 0.475108 0.395891 0.806681
-9.288536 -7.661769 -0.103718 1069 0.425956 0.355631 0.859487
-9.293079 -7.665496 -0.100064 977 0.360585 0.302006 0.912063
-9.300101 -7.671278 -0.096425 849 0.259550 0.218810 0.964422
-9.300364 -7.667369 -0.226000 943 0.255777 0.275056 -0.899966
-9.294894 -7.662836 -0.222170 1057 0.334472 0.340276 -0.844858
-9.289869 -7.658679 -0.218369 1095 0.406773 0.400090 -0.790168
-9.286595 -7.655961 -0.214596 1139 0.453880 0.439198 -0.735880
-9.283608 -7.653474 -0.210833 1179 0.496857 0.474985 -0.681736
-9.281008 -7.651324 -0.207089 1225 0.534277 0.505921 -0.627865
-9.278689 -7.649384 -0.203341 1243 0.567635 0.533831 -0.573937
-9.275980 -7.647130 -0.199597 1261 0.606619 0.566263 -0.520067
-9.274508 -7.645897 -0.195874 1277 0.627792 0.584005 -0.466499
-9.273818 -7.645321 -0.192168 1303 0.637727 0.592294 -0.413175
-9.271848 -7.643670 -0.188439 1315 0.666076 0.616046 -0.359520
-9.270310 -7.642388 -0.184729 1325 0.688196 0.634495 -0.306139
-9.269794 -7.641949 -0.181021 1343 0.695620 0.640807 -0.252786
-9.268879 -7.641172 -0.177317 1351 0.708793 0.651991 -0.199491
-9.268089 -7.640500 -0.173621 1345 0.720154 0.661658 -0.146311
-9.267566 -7.640053 -0.169913 1355 0.727688 0.668093 -0.092959
-9.267324 -7.639832 -0.166226 1359 0.731159 0.671270 -0.039909
-9.267257 -7.639762 -0.162535 1353 0.732134 0.672279 0.013199
-9.267414 -7.639876 -0.158844 1349 0.729870 0.670639 0.066307
-9.268072 -7.640396 -0.155171 1349 0.720401 0.663154 0.119156
-9.268004 -7.640326 -0.151482 1339 0.721376 0.664162 0.172235
-9.268443 -7.640666 -0.147799 1349 0.715064 0.659270 0.225228
-9.268362 -7.640582 -0.144110 1331 0.716230 0.660478 0.278307
-9.268974 -7.641058 -0.140427 1313 0.707421 0.653631 0.331300
-9.270869 -7.642611 -0.136755 1307 0.680155 0.631284 0.384135
-9.272374 -7.643834 -0.133088 1299 0.658502 0.613686 0.436897
-9.273993 -7.645154 -0.129418 1287 0.635216 0.594695 0.489703
-9.275728 -7.646554 -0.125748 1263 0.610242 0.574551 0.542509
-9.278131 -7.648517 -0.122086 1263 0.575676 0.546304 0.595199
-9.279794 -7.649878 -0.118407 1233 0.551745 0.526723 0.648135
-9.282195 -7.651839 -0.114743 1211 0.517193 0.498511 0.700854
-9.284886 -7.654034 -0.111067 1169 0.478470 0.466923 0.753746
-9.287236 -7.655949 -0.107396 1119 0.444659 0.439369 0.806566
-9.291499 -7.659451 -0.103741 1057 0.383322 0.388982 0.859156
-9.296825 -7.663823 -0.100091 971 0.306685 0.326074 0.911674
-9.303180 -7.669043 -0.096446 833 0.215256 0.250967 0.964120
-9.304061 -7.665540 -0.226038 923 0.202577 0.301368 -0.900513
-9.300049 -7.662220 -0.222252 1061 0.260305 0.349141 -0.846038
-9.294408 -7.657550 -0.218422 1107 0.341470 0.416337 -0.790930
-9.288758 -7.652887 -0.214604 1131 0.422759 0.483431 -0.735995
-9.285592 -7.650257 -0.210843 1173 0.468316 0.521269 -0.681880
-9.283505 -7.648524 -0.207104 1213 0.498339 0.546208 -0.628081
-9.280738 -7.646215 -0.203360 1239 0.538161 0.579429 -0.574211
-9.278983 -7.644755 -0.199629 1249 0.563409 0.600437 -0.520527
-9.277678 -7.643666 -0.195906 1281 0.582194 0.616108 -0.466959
-9.275418 -7.641781 -0.192170 1287 0.614701 0.643229 -0.413203
-9.273497 -7.640178 -0.188450 1309 0.642351 0.666289 -0.359678
-9.272865 -7.639643 -0.184742 1321 0.651435 0.673987 -0.306326
-9.272792 -7.639566 -0.181054 1319 0.652492 0.675098 -0.253261
-9.271768 -7.638702 -0.177340 1343 0.667229 0.687531 -0.199822
-9.270861 -7.637933 -0.173634 1343 0.680279 0.698597 -0.146498
-9.270736 -7.637808 -0.169945 1353 0.682076 0.700395 -0.093419
-9.269879 -7.637088 -0.166241 1339 0.694398 0.710755 -0.040124
-9.269753 -7.636963 -0.162550 1357 0.696210 0.712553 0.012984
-9.270020 -7.637166 -0.158869 1347 0.692381 0.709630 0.065948
-9.271198 -7.638124 -0.155194 1351 0.675421 0.695846 0.118825
-9.272196 -7.638922 -0.151518 1365 0.661068 0.684361 0.171717
-9.271896 -7.638659 -0.147830 1347 0.665377 0.688148 0.224782
-9.271539 -7.638343 -0.144131 1317 0.670522 0.692697 0.278005
-9.272536 -7.639156 -0.140456 1313 0.656169 0.680999 0.330883
-9.274098 -7.640420 -0.136788 1311 0.633693 0.662811 0.383660
-9.274921 -7.641082 -0.133103 1303 0.621851 0.653287 0.436681
-9.276209 -7.642114 -0.129435 1287 0.603326 0.638434 0.489458
-9.277762 -7.643385 -0.125758 1261 0.580973 0.620149 0.542365
-9.279607 -7.644889 -0.122086 1251 0.554435 0.598510 0.595199
-9.282407 -7.647173 -0.118420 1239 0.514147 0.565646 0.647948
-9.284699 -7.649046 -0.114758 1211 0.481160 0.538696 0.700638
-9.287268 -7.651138 -0.111084 1167 0.444206 0.508597 0.753502
-9.290349 -7.653662 -0.107417 1117 0.399871 0.472275 0.806264
-9.294220 -7.656836 -0.103766 1061 0.344174 0.426608 0.858796
-9.298823 -7.660605 -0.100100 963 0.277938 0.372379 0.911545
-9.305169 -7.665817 -0.096455 831 0.186632 0.297389 0.963991
-9.302759 -7.659498 -0.222277 1023 0.221307 0.388303 -0.846398
-9.298074 -7.655623 -0.218472 1105 0.288723 0.444062 -0.791650
-9.293555 -7.651891 -0.214678 1143 0.353738 0.497756 -0.737060
-9.289324 -7.648378 -0.210892 1169 0.414622 0.548308 -0.682585
-9.286665 -7.646172 -0.207137 1203 0.452879 0.580047 -0.628556
-9.284803 -7.644625 -0.203406 1233 0.479664 0.602304 -0.574873
-9.282767 -7.642925 -0.199667 1251 0.508960 0.626770 -0.521074
-9.280333 -7.640903 -0.195931 1273 0.543992 0.655860 -0.467319
-9.278795 -7.639623 -0.192210 1287 0.566112 0.674275 -0.413779
-9.277672 -7.638676 -0.188496 1303 0.582277 0.687901 -0.360340
-9.276700 -7.637860 -0.184783 1309 0.596259 0.699647 -0.306916
-9.275901 -7.637180 -0.181077 1327 0.607758 0.709431 -0.253592
-9.274819 -7.636275 -0.177372 1349 0.623319 0.722453 -0.200283
-9.274522 -7.636014 -0.173674 1353 0.627600 0.726206 -0.147074
-9.274179 -7.635710 -0.169976 1347 0.632526 0.730583 -0.093865
-9.273822 -7.635394 -0.166289 1341 0.637672 0.735125 -0.040815
-9.273582 -7.635187 -0.162591 1347 0.641116 0.738103 0.012394
-9.273514 -7.635103 -0.158900 1353 0.642104 0.739310 0.065502
-9.273215 -7.634842 -0.155211 1337 0.646399 0.743070 0.118581
-9.273206 -7.634812 -0.151522 1331 0.646536 0.743502 0.171660
-9.273363 -7.634926 -0.147831 1335 0.644272 0.741863 0.224768
-9.273622 -7.635124 -0.144150 1309 0.640554 0.739008 0.277732
-9.274445 -7.635786 -0.140465 1305 0.628712 0.729485 0.330753
-9.276014 -7.637057 -0.136796 1309 0.606125 0.711201 0.383545
-9.277634 -7.638376 -0.133128 1293 0.582825 0.692217 0.436322
-9.279087 -7.639551 -0.129448 1283 0.561913 0.675311 0.489271
-9.280191 -7.640439 -0.125773 1257 0.546023 0.662536 0.542149
-9.282434 -7.642264 -0.122111 1241 0.513749 0.636279 0.594840
-9.284893 -7.644268 -0.118447 1233 0.478374 0.607442 0.647559
-9.286898 -7.645908 -0.114766 1203 0.449531 0.583848 0.700523
-9.289697 -7.648192 -0.111100 1159 0.409257 0.550984 0.753271
-9.292952 -7.650853 -0.107443 1103 0.362424 0.512693 0.805890
-9.296657 -7.653882 -0.103781 1033 0.309114 0.469112 0.858581
-9.301367 -7.657741 -0.100125 947 0.241341 0.413586 0.911185
-9.308569 -7.663651 -0.096486 805 0.137713 0.328551 0.963545
-9.306236 -7.657583 -0.222315 995 0.171277 0.415857 -0.846945
-9.300762 -7.653058 -0.218497 1073 0.250041 0.480967 -0.792009
-9.296692 -7.649696 -0.214709 1127 0.308606 0.529344 -0.737506
-9.293583 -7.647121 -0.210948 1163 0.353340 0.566393 -0.683391
-9.290359 -7.644450 -0.207184 1191 0.399734 0.604822 -0.629232
-9.287311 -7.641917 -0.203421 1219 0.443589 0.641267 -0.575088
-9.285332 -7.640272 -0.199692 1241 0.472062 0.664937 -0.521434
-9.284077 -7.639230 -0.195969 1275 0.490120 0.679936 -0.467865
-9.282721 -7.638092 -0.192257 1285 0.509633 0.696306 -0.414455
-9.280845 -7.636529 -0.188529 1285 0.536624 0.718796 -0.360815
-9.279090 -7.635070 -0.184807 1299 0.561872 0.739791 -0.307261
-9.278126 -7.634247 -0.181094 1301 0.575745 0.751633 -0.253837
-9.277319 -7.633575 -0.177388 1315 0.587354 0.761300 -0.200513
-9.276811 -7.633128 -0.173691 1325 0.594667 0.767728 -0.147319
-9.276064 -7.632497 -0.169985 1327 0.605412 0.776812 -0.093995
-9.276048 -7.632474 -0.166295 1341 0.605645 0.777142 -0.040901
-9.276370 -7.632719 -0.162613 1331 0.601007 0.773615 0.012077
-9.275963 -7.632368 -0.158915 1335 0.606866 0.778665 0.065286
-9.276178 -7.632524 -0.155234 1333 0.603765 0.776421 0.118250
-9.276560 -7.632823 -0.151553 1327 0.598276 0.772119 0.171214
-9.276768 -7.632972 -0.147860 1327 0.595285 0.769979 0.224350
-9.277474 -7.633538 -0.144177 1311 0.585117 0.761835 0.277343
-9.278769 -7.634576 -0.140509 1305 0.566496 0.746899 0.330120
-9.280555 -7.636024 -0.136839 1299 0.540795 0.726062 0.382926
-9.280980 -7.636366 -0.133158 1279 0.534675 0.721142 0.435890
-9.281818 -7.637028 -0.129473 1261 0.522614 0.711613 0.488912
-9.284219 -7.638990 -0.125809 1253 0.488075 0.683387 0.541631
-9.286404 -7.640775 -0.122147 1233 0.456638 0.657699 0.594322
-9.288414 -7.642408 -0.118466 1213 0.427713 0.634207 0.647286
-9.290483 -7.644083 -0.114794 1189 0.397936 0.610105 0.700120
-9.293398 -7.646462 -0.111128 1141 0.356002 0.575875 0.752868
-9.296364 -7.648890 -0.107462 1093 0.313327 0.540939 0.805617
-9.299953 -7.651824 -0.103802 1019 0.261677 0.498724 0.858279
-9.305184 -7.656106 -0.100153 917 0.186412 0.437112 0.910782
-9.310310 -7.656538 -0.222371 967 0.112657 0.430896 -0.847750
-9.304496 -7.651745 -0.218543 1061 0.196320 0.499863 -0.792671
-9.300259 -7.648239 -0.214756 1117 0.257286 0.550304 -0.738182
-9.296643 -7.645239 -0.210976 1141 0.309306 0.593474 -0.683793
-9.293253 -7.642438 -0.207215 1183 0.358088 0.633775 -0.629678
-9.289799 -7.639575 -0.203444 1197 0.407788 0.674968 -0.575419
-9.287820 -7.637932 -0.199715 1225 0.436261 0.698611 -0.521765
-9.286181 -7.636569 -0.195984 1259 0.459836 0.718220 -0.468081
-9.284580 -7.635239 -0.192263 1271 0.482875 0.737355 -0.414542
-9.283897 -7.634655 -0.188557 1291 0.492700 0.745760 -0.361218
-9.282434 -7.633428 -0.184836 1305 0.513749 0.763413 -0.307678
-9.280724 -7.632010 -0.181115 1301 0.538366 0.783817 -0.254139
-9.279989 -7.631378 -0.177409 1303 0.548932 0.792908 -0.200815
-9.279858 -7.631261 -0.173720 1319 0.550826 0.794596 -0.147736
-9.279567 -7.631006 -0.170022 1331 0.555011 0.798267 -0.094527
-9.279217 -7.630696 -0.166333 1329 0.560047 0.802726 -0.041448
-9.279091 -7.630571 -0.162634 1325 0.561858 0.804524 0.011775
-9.278561 -7.630117 -0.158938 1325 0.569488 0.811055 0.064955
-9.278667 -7.630184 -0.155257 1321 0.567951 0.810088 0.117919
-9.279222 -7.630620 -0.151574 1329 0.559978 0.803817 0.170912
-9.279706 -7.631001 -0.147891 1315 0.553008 0.798335 0.223904
-9.280376 -7.631534 -0.144207 1303 0.543361 0.790665 0.276912
-9.281822 -7.632702 -0.140540 1303 0.522559 0.773862 0.329674
-9.282703 -7.633419 -0.136855 1295 0.509880 0.763543 0.382696
-9.283477 -7.634034 -0.133170 1281 0.498751 0.754693 0.435717
-9.284923 -7.635201 -0.129502 1257 0.477949 0.737904 0.488494
-9.286375 -7.636377 -0.125824 1251 0.457050 0.720985 0.541415
-9.288103 -7.637785 -0.122155 1227 0.432186 0.700724 0.594207
-9.290171 -7.639459 -0.118483 1203 0.402437 0.676635 0.647041
-9.292688 -7.641518 -0.114810 1175 0.366211 0.647010 0.699890
-9.295720 -7.643993 -0.111153 1131 0.322589 0.611401 0.752509
-9.299251 -7.646872 -0.107483 1075 0.271790 0.569975 0.805314
-9.303288 -7.650176 -0.103831 995 0.213692 0.522435 0.857861
-9.308636 -7.654553 -0.100180 887 0.136753 0.459458 0.910394
-9.315181 -7.656148 -0.222449 933 0.042579 0.436508 -0.848873
-9.308461 -7.650610 -0.218598 1061 0.139264 0.516192 -0.793462
-9.303710 -7.646687 -0.214793 1095 0.207627 0.572637 -0.738714
-9.300321 -7.643886 -0.211022 1121 0.256394 0.612938 -0.684455
-9.296915 -7.641070 -0.207251 1161 0.305395 0.653459 -0.630196
-9.293424 -7.638174 -0.203492 1201 0.355631 0.695126 -0.576110
-9.291329 -7.636434 -0.199753 1219 0.385765 0.720161 -0.522311
-9.289459 -7.634879 -0.196023 1239 0.412673 0.742535 -0.468642
-9.287698 -7.633412 -0.192294 1261 0.438018 0.763646 -0.414988
-9.286169 -7.632137 -0.188570 1275 0.460014 0.781992 -0.361405
-9.285024 -7.631186 -0.184857 1291 0.476494 0.795673 -0.307980
-9.284341 -7.630601 -0.181162 1309 0.486319 0.804092 -0.254815
-9.283318 -7.629737 -0.177447 1303 0.501043 0.816524 -0.201362
-9.282686 -7.629202 -0.173750 1301 0.510127 0.824222 -0.148168
-9.282221 -7.628809 -0.170054 1311 0.516823 0.829875 -0.094988
-9.282205 -7.628774 -0.166354 1309 0.517056 0.830376 -0.041750
-9.282933 -7.629347 -0.162680 1329 0.506573 0.822136 0.011113
-9.282526 -7.628995 -0.158982 1327 0.512432 0.827199 0.064322
-9.282112 -7.628638 -0.155283 1317 0.518387 0.832338 0.117545
-9.282609 -7.629033 -0.151602 1307 0.511238 0.826650 0.170509
-9.283946 -7.630113 -0.147934 1315 0.492000 0.811110 0.223286
-9.283647 -7.629851 -0.144236 1293 0.496309 0.814884 0.276494
-9.284304 -7.630369 -0.140553 1285 0.486854 0.807426 0.329487
-9.285989 -7.631736 -0.136883 1281 0.462608 0.787762 0.382293
-9.286869 -7.632439 -0.133208 1257 0.449942 0.777642 0.435171
-9.288708 -7.633937 -0.129538 1257 0.423486 0.756092 0.487976
-9.290672 -7.635529 -0.125866 1255 0.395219 0.733183 0.540811
-9.292343 -7.636882 -0.122187 1227 0.371178 0.713719 0.593746
-9.294181 -7.638379 -0.118517 1179 0.344736 0.692175 0.646552
-9.296994 -7.640662 -0.114851 1149 0.304256 0.659325 0.699300
-9.300294 -7.643364 -0.111193 1105 0.256779 0.620451 0.751933
-9.304011 -7.646393 -0.107523 1043 0.203290 0.576870 0.804739
-9.308216 -7.649841 -0.103869 957 0.142790 0.527258 0.857315
-9.314353 -7.654854 -0.100226 843 0.054490 0.455129 0.909732
-9.313047 -7.650199 -0.218667 987 0.073275 0.522106 -0.794455
-9.307848 -7.645920 -0.214856 1073 0.148087 0.583676 -0.739621
-9.303778 -7.642558 -0.211068 1111 0.206652 0.632046 -0.685117
-9.299541 -7.639053 -0.207282 1143 0.267605 0.682481 -0.630642
-9.296418 -7.636478 -0.203520 1173 0.312544 0.719530 -0.576513
-9.294947 -7.635244 -0.199797 1213 0.333717 0.737286 -0.522945
-9.293136 -7.633745 -0.196068 1235 0.359775 0.758850 -0.469290
-9.290700 -7.631723 -0.192332 1257 0.394821 0.787948 -0.415534
-9.288425 -7.629840 -0.188593 1261 0.427548 0.815042 -0.361736
-9.287751 -7.629263 -0.184887 1281 0.437249 0.823343 -0.308412
-9.287003 -7.628632 -0.181181 1293 0.448021 0.832420 -0.255088
-9.286145 -7.627912 -0.177477 1285 0.460357 0.842781 -0.201793
-9.286368 -7.628074 -0.173785 1301 0.457146 0.840448 -0.148671
-9.285664 -7.627484 -0.170090 1303 0.467287 0.848942 -0.095506
-9.284186 -7.626257 -0.166367 1299 0.488542 0.866595 -0.041937
-9.284458 -7.626453 -0.162686 1305 0.484631 0.863775 0.011027
-9.284891 -7.626801 -0.159005 1315 0.478401 0.858767 0.063991
-9.284939 -7.626813 -0.155314 1299 0.477715 0.858595 0.117099
-9.285879 -7.627571 -0.151639 1307 0.464186 0.847686 0.169976
-9.286493 -7.628062 -0.147955 1291 0.455349 0.840626 0.222984
-9.286699 -7.628210 -0.144265 1287 0.452385 0.838492 0.276077
-9.287920 -7.629193 -0.140587 1289 0.434821 0.824352 0.328998
-9.289374 -7.630370 -0.136919 1279 0.413895 0.807412 0.381775
-9.290364 -7.631175 -0.133235 1263 0.399651 0.795831 0.434782
-9.291709 -7.632262 -0.129557 1241 0.380303 0.780188 0.487703
-9.293552 -7.633752 -0.125885 1231 0.353779 0.758754 0.540538
-9.294997 -7.634920 -0.122208 1199 0.332990 0.741945 0.593444
-9.297067 -7.636608 -0.118536 1165 0.303214 0.717657 0.646279
-9.299866 -7.638891 -0.114871 1135 0.262940 0.684807 0.699012
-9.303289 -7.641682 -0.111212 1089 0.213678 0.644650 0.751660
-9.307731 -7.645314 -0.107558 1017 0.149775 0.592390 0.804235
-9.313071 -7.649684 -0.103907 929 0.072932 0.529516 0.856768
-9.320562 -7.655814 -0.100276 799 -0.034854 0.441311 0.909012
-9.317944 -7.648967 -0.218731 927 0.002827 0.539835 -0.795376
-9.311897 -7.643984 -0.214905 1023 0.089824 0.611532 -0.740326
-9.307537 -7.640388 -0.211110 1083 0.152560 0.663270 -0.685721
-9.303864 -7.637348 -0.207329 1119 0.205417 0.707009 -0.631319
-9.301097 -7.635054 -0.203585 1159 0.245225 0.740017 -0.577448
-9.299336 -7.633602 -0.199854 1193 0.270555 0.760909 -0.523765
-9.296844 -7.631526 -0.196108 1225 0.306424 0.790781 -0.469865
-9.294467 -7.629560 -0.192372 1237 0.340620 0.819069 -0.416110
-9.292533 -7.627957 -0.188643 1249 0.368448 0.842136 -0.362455
-9.291286 -7.626908 -0.184920 1257 0.386382 0.857230 -0.308887
-9.290994 -7.626654 -0.181221 1269 0.390595 0.860880 -0.255664
-9.290298 -7.626070 -0.177525 1283 0.400598 0.869284 -0.202484
-9.289614 -7.625486 -0.173819 1299 0.410450 0.877689 -0.149160
-9.289156 -7.625088 -0.170123 1303 0.417037 0.883411 -0.095980
-9.288236 -7.624320 -0.166417 1299 0.430279 0.894464 -0.042657
-9.288052 -7.624154 -0.162718 1287 0.432927 0.896852 0.010566
-9.289056 -7.624959 -0.159043 1297 0.418478 0.885270 0.063444
-9.289387 -7.625211 -0.155362 1291 0.413716 0.881648 0.116408
-9.289479 -7.625264 -0.151671 1307 0.412385 0.880879 0.169516
