311
-16.043716 -13.686284 -0.174387 819 0.913963 -0.442450 -0.365217
-16.043547 -13.686101 -0.167908 885 0.916406 -0.439815 -0.271994
-16.042816 -13.685450 -0.161423 923 0.926917 -0.430443 -0.178685
-16.041916 -13.684652 -0.154938 923 0.939870 -0.418972 -0.085376
-16.042679 -13.685274 -0.148474 909 0.928892 -0.427918 0.007632
-16.043455 -13.685896 -0.141999 875 0.917723 -0.436865 0.100797
-16.044498 -13.686757 -0.135533 825 0.902711 -0.449256 0.193833
-16.046854 -13.680891 -0.187359 817 0.868818 -0.364852 -0.551865
-16.045622 -13.679806 -0.180867 919 0.886547 -0.349237 -0.458455
-16.042664 -13.677257 -0.174363 971 0.929112 -0.312558 -0.364872
-16.040264 -13.675180 -0.167866 999 0.963636 -0.282686 -0.271390
-16.039589 -13.674570 -0.161391 1013 0.973352 -0.273903 -0.178225
-16.039694 -13.674620 -0.154921 1033 0.971842 -0.274617 -0.085131
-16.039684 -13.674586 -0.148440 1027 0.971979 -0.274137 0.008121
-16.041739 -13.676302 -0.141989 1013 0.942422 -0.298823 0.100941
-16.044174 -13.678340 -0.135535 983 0.907377 -0.328146 0.193804
-16.046057 -13.679918 -0.129063 923 0.880289 -0.350856 0.286927
-16.047924 -13.681479 -0.122603 835 0.853422 -0.373319 0.379876
-16.050949 -13.676115 -0.193856 857 0.809896 -0.296133 -0.645347
-16.046822 -13.672560 -0.187340 967 0.869284 -0.244978 -0.551591
-16.043036 -13.669302 -0.180830 1027 0.923761 -0.198104 -0.457922
-16.040466 -13.667081 -0.174336 1053 0.960727 -0.166145 -0.364483
-16.039526 -13.666243 -0.167851 1077 0.974257 -0.154084 -0.271174
-16.039175 -13.665915 -0.161383 1099 0.979307 -0.149363 -0.178109
-16.038277 -13.665118 -0.154898 1097 0.992233 -0.137905 -0.084800
-16.038374 -13.665175 -0.148428 1095 0.990833 -0.138729 0.008294
-16.038704 -13.665412 -0.141966 1079 0.986086 -0.142132 0.101272
-16.040022 -13.666507 -0.135498 1055 0.967122 -0.157885 0.194337
-16.043743 -13.669646 -0.129057 1035 0.913579 -0.203057 0.287013
-16.048132 -13.673349 -0.122603 963 0.850430 -0.256339 0.379876
-16.051624 -13.676294 -0.116152 875 0.800181 -0.298713 0.472696
-16.054903 -13.671052 -0.200365 865 0.753005 -0.223283 -0.739002
-16.050114 -13.666933 -0.193833 961 0.821916 -0.164018 -0.645016
-16.045546 -13.663013 -0.187319 1019 0.887644 -0.107621 -0.551289
-16.042133 -13.660084 -0.180807 1073 0.936741 -0.065467 -0.457591
-16.039631 -13.657912 -0.174313 1115 0.972748 -0.034222 -0.364152
-16.038790 -13.657171 -0.167838 1129 0.984851 -0.023561 -0.270987
-16.038115 -13.656561 -0.161362 1139 0.994566 -0.014779 -0.177807
-16.037933 -13.656377 -0.154892 1145 0.997173 -0.012130 -0.084714
-16.037762 -13.656194 -0.148423 1131 0.999643 -0.009496 0.008365
-16.037970 -13.656340 -0.141953 1113 0.996651 -0.011595 0.101459
-16.039459 -13.657573 -0.135495 1101 0.975218 -0.029337 0.194380
-16.041449 -13.659241 -0.129042 1075 0.946594 -0.053337 0.287229
-16.045397 -13.662563 -0.122589 1037 0.889785 -0.101144 0.380078
-16.050224 -13.666645 -0.116152 987 0.820325 -0.159874 0.472696
-16.055832 -13.671387 -0.109700 871 0.739640 -0.228100 0.565531
-16.057962 -13.665218 -0.206849 821 0.708985 -0.139346 -0.832296
-16.054672 -13.662391 -0.200337 961 0.756325 -0.098661 -0.738598
-16.049608 -13.658052 -0.193817 1043 0.829189 -0.036240 -0.644786
-16.045591 -13.654603 -0.187300 1103 0.886986 0.013393 -0.551016
-16.042027 -13.651528 -0.180790 1127 0.938278 0.057632 -0.457347
-16.038897 -13.648841 -0.174298 1155 0.983314 0.096301 -0.363937
-16.038172 -13.648183 -0.167822 1169 0.993742 0.105769 -0.270757
-16.037943 -13.647957 -0.161354 1167 0.997036 0.109021 -0.177692
-16.037712 -13.647726 -0.154885 1161 1.000356 0.112341 -0.084613
-16.037924 -13.647880 -0.148415 1151 0.997310 0.110132 0.008481
-16.038750 -13.648547 -0.141961 1151 0.985427 0.100527 0.101344
-16.040291 -13.649829 -0.135500 1153 0.963252 0.082085 0.194308
-16.043011 -13.652107 -0.129046 1119 0.924117 0.049303 0.287171
-16.045275 -13.654007 -0.122593 1083 0.891541 0.021969 0.380020
-16.048218 -13.656472 -0.116135 1035 0.849196 -0.013502 0.472941
-16.053602 -13.661029 -0.109694 959 0.771721 -0.079066 0.565617
-16.058544 -13.665193 -0.103247 833 0.700614 -0.138976 0.658380
-16.061357 -13.659654 -0.206871 937 0.660135 -0.059279 -0.832613
-16.054617 -13.653885 -0.200320 1023 0.757121 0.023725 -0.738354
-16.049648 -13.649635 -0.193798 1075 0.828613 0.084870 -0.644512
-16.046532 -13.646947 -0.187296 1131 0.873456 0.123552 -0.550958
-16.043573 -13.644397 -0.180792 1157 0.916021 0.160245 -0.457376
-16.041340 -13.642467 -0.174305 1161 0.948158 0.188018 -0.364038
-16.039545 -13.640913 -0.167826 1183 0.973983 0.210371 -0.270814
-16.038595 -13.640069 -0.161353 1201 0.987650 0.222515 -0.177678
-16.038195 -13.639691 -0.154885 1187 0.993413 0.227949 -0.084613
-16.039131 -13.640466 -0.148419 1191 0.979938 0.216807 0.008423
-16.040628 -13.641705 -0.141970 1183 0.958395 0.198982 0.101214
-16.041954 -13.642794 -0.135514 1171 0.939321 0.183311 0.194106
-16.043272 -13.643889 -0.129055 1141 0.920357 0.167545 0.287042
-16.045328 -13.645605 -0.122593 1119 0.890773 0.142859 0.380020
-16.049318 -13.648956 -0.116150 1079 0.833360 0.094640 0.472725
-16.054600 -13.653416 -0.109711 1025 0.757368 0.030476 0.565373
-16.060986 -13.658815 -0.103264 931 0.665486 -0.047217 0.658135
-16.069927 -13.658187 -0.213425 839 0.536829 -0.038174 -0.926915
-16.062349 -13.651715 -0.206858 967 0.645864 0.054943 -0.832426
-16.057102 -13.647218 -0.200329 1043 0.721362 0.119655 -0.738484
-16.052038 -13.642879 -0.193808 1107 0.794225 0.182090 -0.644656
-16.047239 -13.638767 -0.187285 1147 0.863274 0.241245 -0.550800
-16.044340 -13.636271 -0.180792 1167 0.904989 0.277156 -0.457376
-16.043888 -13.635861 -0.174324 1203 0.911493 0.283056 -0.364311
-16.042095 -13.634309 -0.167836 1195 0.937290 0.305395 -0.270958
-16.040525 -13.632943 -0.161354 1195 0.959877 0.325045 -0.177692
-16.040356 -13.632757 -0.154896 1203 0.962319 0.327721 -0.084771
-16.040627 -13.632953 -0.148434 1203 0.958422 0.324908 0.008207
-16.042177 -13.634241 -0.141976 1199 0.936110 0.306370 0.101128
-16.042995 -13.634903 -0.135521 1181 0.924337 0.296847 0.194006
-16.044767 -13.636377 -0.129061 1169 0.898842 0.275632 0.286955
-16.048708 -13.639694 -0.122618 1159 0.842142 0.227908 0.379660
-16.052149 -13.642592 -0.116167 1115 0.792634 0.186207 0.472481
-16.056095 -13.645902 -0.109726 1067 0.735852 0.138592 0.565157
-16.061644 -13.650589 -0.103274 989 0.656018 0.071148 0.657991
-16.069426 -13.657166 -0.096840 849 0.544047 -0.023478 0.750567
-16.071472 -13.650709 -0.213419 877 0.514600 0.069419 -0.926829
-16.063005 -13.643487 -0.206849 989 0.636423 0.173335 -0.832296
-16.056864 -13.638233 -0.200314 1059 0.724792 0.248930 -0.738268
-16.053020 -13.634933 -0.193797 1131 0.780092 0.296407 -0.644498
-16.049559 -13.631971 -0.187296 1153 0.829902 0.339028 -0.550958
-16.047663 -13.630322 -0.180807 1171 0.857182 0.362753 -0.457591
-16.046036 -13.628914 -0.174326 1205 0.880591 0.383020 -0.364340
-16.045094 -13.628077 -0.167851 1223 0.894149 0.395068 -0.271174
-16.044909 -13.627892 -0.161393 1215 0.896811 0.397730 -0.178253
-16.044573 -13.627563 -0.154925 1237 0.901641 0.402451 -0.085189
-16.043558 -13.626672 -0.148451 1221 0.916241 0.415281 0.007963
-16.043600 -13.626674 -0.141981 1199 0.915637 0.415253 0.101056
-16.045315 -13.628107 -0.135531 1187 0.890965 0.394629 0.193862
-16.047649 -13.630048 -0.129078 1171 0.857374 0.366705 0.286711
-16.049908 -13.631941 -0.122624 1163 0.824880 0.339467 0.379574
-16.053017 -13.634550 -0.116177 1135 0.780147 0.301924 0.472337
-16.057468 -13.638287 -0.109732 1093 0.716093 0.248161 0.565070
-16.062742 -13.642739 -0.103291 1015 0.640211 0.184093 0.657747
-16.070198 -13.649035 -0.096850 907 0.532932 0.093501 0.750423
-16.073416 -13.643900 -0.213421 925 0.486635 0.167394 -0.926858
-16.066338 -13.637861 -0.206871 1017 0.588479 0.254281 -0.832613
-16.060526 -13.632896 -0.200335 1089 0.672100 0.325718 -0.738570
-16.056293 -13.629267 -0.193819 1123 0.732998 0.377943 -0.644814
-16.053114 -13.626546 -0.187317 1169 0.778747 0.417092 -0.551260
-16.051044 -13.624744 -0.180828 1201 0.808524 0.443013 -0.457894
-16.048643 -13.622683 -0.174343 1227 0.843076 0.472679 -0.364584
-16.048523 -13.622547 -0.167874 1247 0.844805 0.474628 -0.271505
-16.048246 -13.622274 -0.161406 1245 0.848784 0.478552 -0.178440
-16.046728 -13.620956 -0.154934 1245 0.870629 0.497516 -0.085318
-16.046492 -13.620723 -0.148466 1229 0.874032 0.500878 0.007747
-16.047262 -13.621351 -0.142012 1199 0.862945 0.491835 0.100610
-16.048985 -13.622777 -0.135552 1199 0.838163 0.471321 0.193560
-16.051645 -13.625002 -0.129107 1191 0.799879 0.439308 0.286294
-16.054140 -13.627093 -0.122652 1165 0.763982 0.409215 0.379171
-16.056520 -13.629076 -0.116209 1141 0.729732 0.380688 0.471876
-16.060358 -13.632297 -0.109757 1093 0.674515 0.334349 0.564711
-16.065575 -13.636694 -0.103318 1033 0.599456 0.271077 0.657358
-16.072582 -13.642604 -0.096877 941 0.498628 0.186042 0.750035
-16.076939 -13.638610 -0.213440 949 0.435946 0.243509 -0.927131
-16.069693 -13.632426 -0.206883 1035 0.540205 0.332482 -0.832786
-16.063782 -13.627379 -0.200346 1081 0.625254 0.405099 -0.738728
-16.060040 -13.624176 -0.193838 1139 0.679098 0.451191 -0.645088
-16.057531 -13.622012 -0.187352 1179 0.715187 0.482326 -0.551764
-16.054567 -13.619470 -0.180849 1211 0.757835 0.518909 -0.458196
-16.051495 -13.616836 -0.174357 1225 0.802047 0.556809 -0.364786
-16.050314 -13.615800 -0.167883 1229 0.819035 0.571711 -0.271634
-16.050194 -13.615664 -0.161415 1227 0.820764 0.573673 -0.178570
-16.050863 -13.616195 -0.154961 1249 0.811131 0.566030 -0.085707
-16.051027 -13.616301 -0.148501 1231 0.808771 0.564507 0.007243
-16.052402 -13.617436 -0.142043 1215 0.788984 0.548164 0.100164
-16.054058 -13.618814 -0.135594 1211 0.765162 0.528336 0.192955
-16.054438 -13.619099 -0.129132 1181 0.759701 0.524246 0.285934
-16.055490 -13.619952 -0.122666 1159 0.744552 0.511965 0.378970
-16.058872 -13.622795 -0.116227 1145 0.695894 0.471060 0.471617
-16.063541 -13.626725 -0.109780 1099 0.628712 0.414512 0.564380
-16.068209 -13.630655 -0.103333 1027 0.561556 0.357964 0.657143
-16.074429 -13.635897 -0.096886 939 0.472062 0.282548 0.749905
-16.080940 -13.633554 -0.213471 955 0.378369 0.316249 -0.927577
-16.072908 -13.626719 -0.206906 1031 0.493935 0.414594 -0.833117
-16.067610 -13.622188 -0.200377 1095 0.570174 0.479801 -0.739174
-16.064489 -13.619507 -0.193875 1135 0.615072 0.518373 -0.645620
-16.061129 -13.616628 -0.187373 1165 0.663428 0.559800 -0.552066
-16.058172 -13.614091 -0.180870 1209 0.705966 0.596300 -0.458498
-16.056660 -13.612779 -0.174399 1229 0.727729 0.615182 -0.365390
-16.055529 -13.611790 -0.167916 1213 0.744003 0.629411 -0.272109
-16.054804 -13.611145 -0.161450 1229 0.754432 0.638687 -0.179073
-16.054296 -13.610680 -0.154982 1233 0.761732 0.645384 -0.086009
-16.054226 -13.610592 -0.148514 1241 0.762747 0.646646 0.007056
-16.055336 -13.611488 -0.142058 1229 0.746775 0.633747 0.099948
-16.056437 -13.612391 -0.135601 1205 0.730940 0.620753 0.192855
-16.058376 -13.614010 -0.129151 1205 0.703030 0.597467 0.285660
-16.060757 -13.615993 -0.122706 1177 0.668780 0.568939 0.378394
-16.063814 -13.618553 -0.116249 1139 0.624787 0.532095 0.471301
-16.067421 -13.621581 -0.109808 1101 0.572891 0.488528 0.563977
-16.072153 -13.625558 -0.103361 1037 0.504802 0.431308 0.656740
-16.078987 -13.631318 -0.096922 943 0.406471 0.348427 0.749387
-16.085192 -13.628876 -0.213496 955 0.317196 0.383569 -0.927937
-16.078278 -13.622981 -0.206946 1023 0.416680 0.468384 -0.833692
-16.072693 -13.618217 -0.200417 1089 0.497036 0.536925 -0.739750
-16.068062 -13.614264 -0.193894 1129 0.563670 0.593817 -0.645894
-16.064875 -13.611537 -0.187392 1169 0.609528 0.633048 -0.552340
-16.063196 -13.610080 -0.180912 1197 0.633679 0.654015 -0.459102
-16.060787 -13.608012 -0.174425 1205 0.668340 0.683764 -0.365764
-16.059954 -13.607263 -0.167950 1219 0.680333 0.694549 -0.272599
-16.060398 -13.607609 -0.161488 1227 0.673939 0.689568 -0.179620
-16.060215 -13.607426 -0.155020 1243 0.676574 0.692203 -0.086555
-16.059483 -13.606774 -0.148554 1235 0.687112 0.701575 0.006481
-16.059414 -13.606672 -0.142084 1221 0.688100 0.703043 0.099574
-16.060797 -13.607816 -0.135636 1205 0.668203 0.686591 0.192351
-16.062794 -13.609476 -0.129185 1177 0.639470 0.662701 0.285171
-16.065506 -13.611748 -0.122731 1155 0.600444 0.630015 0.378035
-16.067841 -13.613688 -0.116276 1129 0.566853 0.602091 0.470912
-16.072176 -13.617329 -0.109831 1085 0.504473 0.549714 0.563646
-16.077848 -13.622105 -0.103400 1023 0.422855 0.480995 0.656178
-16.083744 -13.627066 -0.096945 921 0.338026 0.409613 0.749056
-16.090446 -13.625056 -0.213538 931 0.241588 0.438526 -0.928541
-16.083418 -13.619067 -0.206988 1015 0.342719 0.524699 -0.834297
-16.078730 -13.615073 -0.200465 1071 0.410176 0.582167 -0.740440
-16.074770 -13.611678 -0.193947 1127 0.467149 0.631017 -0.646656
-16.070845 -13.608330 -0.187439 1149 0.523629 0.679195 -0.553016
-16.068228 -13.606075 -0.180945 1181 0.561282 0.711633 -0.459577
-16.066158 -13.604289 -0.174466 1207 0.591059 0.737334 -0.366354
-16.064863 -13.603170 -0.167982 1203 0.609693 0.753430 -0.273059
-16.064808 -13.603083 -0.161524 1245 0.610489 0.754693 -0.180138
-16.063507 -13.601956 -0.155041 1227 0.629206 0.770898 -0.086857
-16.063894 -13.602248 -0.148579 1203 0.623634 0.766699 0.006121
-16.064827 -13.603005 -0.142125 1207 0.610214 0.755804 0.098984
-16.065649 -13.603668 -0.135670 1191 0.598386 0.746267 0.191862
-16.068041 -13.605664 -0.129216 1177 0.563971 0.717547 0.284725
-16.070032 -13.607316 -0.122765 1151 0.535320 0.693781 0.377545
-16.072418 -13.609306 -0.116310 1115 0.500988 0.665143 0.470423
-16.076977 -13.613132 -0.109866 1077 0.435397 0.610091 0.563142
-16.083046 -13.618231 -0.103430 991 0.348071 0.536733 0.655747
-16.090002 -13.624092 -0.096991 889 0.247983 0.452398 0.748394
-16.098572 -13.623489 -0.213612 895 0.124677 0.461071 -0.929606
-16.091202 -13.617219 -0.207054 1005 0.230721 0.551292 -0.835246
-16.085285 -13.612179 -0.200518 1065 0.315851 0.623813 -0.741203
-16.079819 -13.607525 -0.193989 1099 0.394506 0.690776 -0.647260
-16.075960 -13.604225 -0.187481 1139 0.450025 0.738254 -0.553620
-16.073732 -13.602301 -0.180985 1161 0.482079 0.765945 -0.460153
-16.071987 -13.600798 -0.174504 1183 0.507190 0.787570 -0.366901
-16.071205 -13.600097 -0.168028 1199 0.518442 0.797656 -0.273721
-16.070131 -13.599164 -0.161555 1201 0.533893 0.811076 -0.180584
-16.068779 -13.597988 -0.155083 1183 0.553351 0.827995 -0.087462
-16.069210 -13.598321 -0.148621 1171 0.547148 0.823206 0.005517
-16.071278 -13.600035 -0.142168 1187 0.517399 0.798548 0.098365
-16.071766 -13.600409 -0.135706 1173 0.510374 0.793169 0.191344
-16.072643 -13.601127 -0.129250 1165 0.497749 0.782836 0.284236
-16.075478 -13.603486 -0.122795 1131 0.456968 0.748888 0.377114
-16.080212 -13.607465 -0.116358 1113 0.388852 0.691640 0.469732
-16.084539 -13.611097 -0.109913 1065 0.326582 0.639373 0.562466
-16.088600 -13.614504 -0.103461 971 0.268154 0.590359 0.655301
-16.096294 -13.620971 -0.097027 853 0.157445 0.497310 0.747876
-16.097097 -13.613773 -0.207102 941 0.145892 0.600870 -0.835937
-16.091461 -13.608974 -0.200564 1025 0.226988 0.669918 -0.741865
-16.087437 -13.605530 -0.194046 1075 0.284895 0.719482 -0.648081
-16.083363 -13.602052 -0.187540 1107 0.343515 0.769526 -0.554469
-16.080109 -13.599275 -0.181038 1139 0.390334 0.809484 -0.460915
-16.078547 -13.597916 -0.174559 1157 0.412811 0.829038 -0.367692
-16.077084 -13.596652 -0.168076 1165 0.433860 0.847220 -0.274411
-16.075405 -13.595196 -0.161597 1169 0.458011 0.868173 -0.181188
-16.074884 -13.594729 -0.155129 1179 0.465503 0.874883 -0.088124
-16.075666 -13.595357 -0.148665 1181 0.454251 0.865854 0.004884
-16.077101 -13.596537 -0.142207 1181 0.433613 0.848880 0.097804
-16.079046 -13.598147 -0.135756 1165 0.405620 0.825704 0.190624
-16.080095 -13.599001 -0.129300 1131 0.390526 0.813422 0.283517
-16.082037 -13.600606 -0.122839 1105 0.362588 0.790328 0.376481
-16.086206 -13.604102 -0.116394 1081 0.302596 0.740024 0.469214
-16.090490 -13.607694 -0.109951 1023 0.240957 0.688347 0.561919
-16.095671 -13.612041 -0.103501 919 0.166420 0.625789 0.654725
-16.108431 -13.614754 -0.207209 869 -0.017180 0.586764 -0.837476
-16.101278 -13.608677 -0.200652 969 0.085735 0.674200 -0.743131
-16.095306 -13.603593 -0.194115 1029 0.171661 0.747351 -0.649073
-16.090500 -13.599504 -0.187592 1081 0.240820 0.806177 -0.555217
-16.086973 -13.596479 -0.181092 1119 0.291564 0.849703 -0.461692
-16.084515 -13.594377 -0.174597 1141 0.326939 0.879960 -0.368239
-16.082880 -13.592961 -0.168116 1151 0.350458 0.900323 -0.274987
-16.081873 -13.592077 -0.161642 1155 0.364949 0.913044 -0.181836
-16.082088 -13.592230 -0.155180 1159 0.361847 0.910848 -0.088858
-16.082748 -13.592753 -0.148716 1157 0.352352 0.903315 0.004150
-16.083914 -13.593705 -0.142260 1157 0.335584 0.889620 0.097042
-16.085743 -13.595220 -0.135800 1141 0.309265 0.867830 0.189991
-16.087242 -13.596446 -0.129341 1113 0.287694 0.850183 0.282927
-16.090302 -13.599006 -0.122895 1079 0.243674 0.813354 0.375675
-16.094528 -13.602544 -0.116450 1037 0.182858 0.762445 0.468409
-16.099154 -13.606418 -0.110005 963 0.116307 0.706707 0.561142
-16.104832 -13.611185 -0.103552 859 0.034607 0.638111 0.653991
-16.109493 -13.607014 -0.200726 885 -0.032466 0.698131 -0.744196
-16.103123 -13.601596 -0.194184 973 0.059196 0.776085 -0.650066
-16.098318 -13.597506 -0.187661 1037 0.128328 0.834938 -0.556210
-16.095911 -13.595437 -0.181164 1065 0.162962 0.864701 -0.462728
-16.093445 -13.593328 -0.174668 1105 0.198447 0.895041 -0.369260
-16.091427 -13.591590 -0.168179 1129 0.227482 0.920056 -0.275894
-16.091192 -13.591357 -0.161711 1131 0.230858 0.923404 -0.182829
-16.090794 -13.590995 -0.155243 1141 0.236594 0.928618 -0.089764
-16.090225 -13.590473 -0.148768 1125 0.244772 0.936124 0.003402
-16.091328 -13.591377 -0.142311 1111 0.228909 0.923116 0.096308
-16.093330 -13.593029 -0.135849 1103 0.200093 0.899349 0.189286
-16.095276 -13.594640 -0.129399 1071 0.172100 0.876173 0.282092
-16.099115 -13.597860 -0.122946 1027 0.116856 0.829834 0.374941
-16.103848 -13.601825 -0.116509 987 0.048768 0.772792 0.467560
-16.110096 -13.607066 -0.110064 895 -0.041138 0.697376 0.560294
-16.114820 -13.603047 -0.194289 875 -0.109117 0.755200 -0.651577
-16.108898 -13.598015 -0.187752 965 -0.023904 0.827611 -0.557519
-16.104866 -13.594579 -0.181244 1017 0.034113 0.877051 -0.463879
-16.102182 -13.592277 -0.174740 1059 0.072726 0.910176 -0.370296
-16.100945 -13.591198 -0.168257 1077 0.090537 0.925695 -0.277016
-16.100220 -13.590553 -0.161782 1089 0.100966 0.934971 -0.183850
-16.099596 -13.589991 -0.155304 1089 0.109940 0.943067 -0.090642
-16.099413 -13.589808 -0.148836 1077 0.112575 0.945688 0.002423
-16.099964 -13.590242 -0.142372 1063 0.104643 0.939445 0.095430
-16.102402 -13.592267 -0.135920 1051 0.069570 0.910313 0.188265
-16.105135 -13.594545 -0.129464 1005 0.030243 0.877531 0.281157
-16.107796 -13.596754 -0.123009 961 -0.008041 0.845751 0.374034
-16.112261 -13.600491 -0.116564 907 -0.072287 0.791989 0.466768
-16.121075 -13.599689 -0.187865 843 -0.199105 0.803529 -0.559145
-16.115982 -13.595365 -0.181334 933 -0.125830 0.865744 -0.465174
-16.111279 -13.591372 -0.174820 989 -0.058154 0.923198 -0.371448
-16.109261 -13.589634 -0.168322 1017 -0.029118 0.948199 -0.277951
-16.108643 -13.589077 -0.161847 1039 -0.020226 0.956213 -0.184786
-16.108135 -13.588612 -0.155369 1045 -0.012926 0.962909 -0.091577
-16.108450 -13.588847 -0.148898 1031 -0.017454 0.959520 0.001531
-16.110012 -13.590136 -0.142437 1015 -0.039931 0.940982 0.094495
-16.112225 -13.591975 -0.135985 993 -0.071766 0.914512 0.187329
-16.114901 -13.594196 -0.129530 959 -0.110269 0.882554 0.280207
-16.126509 -13.595885 -0.174944 827 -0.277293 0.858252 -0.373232
-16.123936 -13.593688 -0.168450 879 -0.240271 0.889867 -0.279793
-16.122143 -13.592134 -0.161950 915 -0.214474 0.912220 -0.186268
-16.120899 -13.591063 -0.155466 927 -0.196580 0.927644 -0.092973
-16.121002 -13.591113 -0.148997 929 -0.198062 0.926917 0.000107
-16.121996 -13.591913 -0.142521 885 -0.212361 0.915404 0.093286
-16.124670 -13.594136 -0.136065 845 -0.250837 0.883418 0.186178
