440
-13.452200 -12.103539 -0.164403 805 0.790027 -0.364647 -0.233001
-13.450350 -12.101847 -0.158824 845 0.816647 -0.340290 -0.152727
-13.449847 -12.101365 -0.153268 857 0.823879 -0.333361 -0.072785
-13.451093 -12.102460 -0.147719 853 0.805958 -0.349113 0.007057
-13.451133 -12.102468 -0.142159 813 0.805381 -0.349223 0.087057
-13.454876 -12.105803 -0.136637 749 0.751523 -0.397209 0.166510
-13.455690 -12.099685 -0.181096 801 0.739804 -0.309183 -0.473188
-13.450996 -12.095445 -0.175483 889 0.807344 -0.248175 -0.392425
-13.448320 -12.093006 -0.169900 939 0.845847 -0.213088 -0.312094
-13.446683 -12.091511 -0.164328 965 0.869408 -0.191572 -0.231921
-13.445805 -12.090696 -0.158765 983 0.882046 -0.179853 -0.151878
-13.445578 -12.090464 -0.153205 993 0.885312 -0.176505 -0.071878
-13.445786 -12.090614 -0.147654 971 0.882307 -0.178673 0.007992
-13.446751 -12.091452 -0.142119 955 0.868434 -0.190721 0.087632
-13.448379 -12.092887 -0.136578 931 0.845010 -0.211373 0.167359
-13.451797 -12.095938 -0.131049 877 0.795831 -0.255269 0.246913
-13.457543 -12.101075 -0.125535 797 0.713143 -0.329189 0.326251
-13.455486 -12.091939 -0.186633 869 0.742741 -0.197733 -0.552857
-13.450751 -12.087657 -0.181021 941 0.810870 -0.136122 -0.472109
-13.447476 -12.084686 -0.175431 993 0.857991 -0.093378 -0.391677
-13.445951 -12.083290 -0.169860 1025 0.879933 -0.073289 -0.311519
-13.445066 -12.082468 -0.164296 1049 0.892667 -0.061461 -0.231461
-13.444407 -12.081847 -0.158740 1057 0.902148 -0.052528 -0.151519
-13.443467 -12.080968 -0.153174 1053 0.915678 -0.039876 -0.071432
-13.443578 -12.081033 -0.147624 1035 0.914087 -0.040809 0.008424
-13.444486 -12.081830 -0.142079 1041 0.901023 -0.052281 0.088208
-13.446056 -12.083206 -0.136550 1025 0.878423 -0.072081 0.167762
-13.448869 -12.085706 -0.131013 985 0.837957 -0.108047 0.247431
-13.451632 -12.088167 -0.125487 939 0.798205 -0.143463 0.326942
-13.456680 -12.092673 -0.119967 867 0.725561 -0.208299 0.406366
-13.466658 -12.094458 -0.197863 767 0.582002 -0.233973 -0.714440
-13.455496 -12.084408 -0.192158 897 0.742604 -0.089371 -0.632353
-13.451838 -12.081097 -0.186560 977 0.795241 -0.041728 -0.551807
-13.448579 -12.078140 -0.180970 1021 0.842129 0.000810 -0.471375
-13.446339 -12.076098 -0.175393 1057 0.874362 0.030188 -0.391130
-13.445082 -12.074944 -0.169831 1095 0.892447 0.046806 -0.311101
-13.444034 -12.073974 -0.164267 1103 0.907527 0.060761 -0.231044
-13.443709 -12.073642 -0.158709 1109 0.912193 0.065536 -0.151073
-13.443482 -12.073409 -0.153161 1103 0.915459 0.068884 -0.071245
-13.444120 -12.073965 -0.147618 1091 0.906279 0.060884 0.008510
-13.444873 -12.074603 -0.142073 1109 0.895452 0.051704 0.088294
-13.445619 -12.075252 -0.136529 1079 0.884722 0.042373 0.168064
-13.446921 -12.076386 -0.130992 1053 0.865977 0.026044 0.247733
-13.448696 -12.077956 -0.125460 1023 0.840441 0.003458 0.327330
-13.451783 -12.080702 -0.119933 979 0.796023 -0.036048 0.406855
-13.456564 -12.084967 -0.114415 905 0.727235 -0.097412 0.486251
-13.463835 -12.091465 -0.108901 795 0.622619 -0.190913 0.565589
-13.470721 -12.090408 -0.203456 759 0.523533 -0.175709 -0.794914
-13.459116 -12.079967 -0.197736 909 0.690515 -0.025468 -0.712612
-13.454267 -12.075586 -0.192124 995 0.760291 0.037557 -0.631864
-13.450943 -12.072566 -0.186524 1047 0.808112 0.081014 -0.551288
-13.448430 -12.070291 -0.180949 1077 0.844269 0.113755 -0.471073
-13.447178 -12.069143 -0.175385 1107 0.862286 0.130262 -0.391015
-13.445477 -12.067583 -0.169816 1125 0.886766 0.152711 -0.310886
-13.444168 -12.066381 -0.164254 1135 0.905593 0.170001 -0.230857
-13.443624 -12.065856 -0.158698 1147 0.913428 0.177562 -0.150914
-13.444206 -12.066354 -0.153153 1145 0.905044 0.170399 -0.071130
-13.444855 -12.066903 -0.147610 1143 0.895713 0.162495 0.008625
-13.443856 -12.065981 -0.142056 1131 0.910080 0.175764 0.088539
-13.444391 -12.066429 -0.136513 1109 0.902382 0.169315 0.168294
-13.447754 -12.069425 -0.130994 1107 0.853998 0.126214 0.247704
-13.448943 -12.070460 -0.125457 1077 0.836887 0.111312 0.327373
-13.451536 -12.072767 -0.119921 1041 0.799577 0.078119 0.407028
-13.456367 -12.077067 -0.114402 989 0.730075 0.016247 0.486438
-13.460873 -12.081083 -0.108886 907 0.665239 -0.041536 0.565805
-13.467443 -12.086951 -0.103368 761 0.570695 -0.125967 0.645201
-13.463717 -12.076403 -0.203326 885 0.624307 0.025811 -0.793044
-13.458482 -12.071687 -0.197707 981 0.699640 0.093666 -0.712195
-13.455325 -12.068822 -0.192115 1045 0.745060 0.134887 -0.631734
-13.451880 -12.065710 -0.186515 1097 0.794623 0.179661 -0.551159
-13.448677 -12.062797 -0.180924 1127 0.840715 0.221582 -0.470713
-13.446536 -12.060854 -0.175357 1149 0.871521 0.249533 -0.390612
-13.445618 -12.059997 -0.169802 1177 0.884735 0.261869 -0.310684
-13.445057 -12.059473 -0.164246 1189 0.892804 0.269403 -0.230742
-13.444513 -12.058949 -0.158690 1177 0.900625 0.276936 -0.150799
-13.444821 -12.059200 -0.153147 1169 0.896193 0.273327 -0.071044
-13.444818 -12.059166 -0.147597 1165 0.896248 0.273821 0.008812
-13.445021 -12.059324 -0.142056 1167 0.893325 0.271543 0.088539
-13.445716 -12.059919 -0.136512 1151 0.883322 0.262981 0.168309
-13.446892 -12.060944 -0.130976 1141 0.866403 0.248243 0.247963
-13.449175 -12.062965 -0.125453 1117 0.833553 0.219153 0.327431
-13.452538 -12.065947 -0.119921 1081 0.785169 0.176258 0.407028
-13.455342 -12.068437 -0.114396 1033 0.744813 0.140430 0.486525
-13.458493 -12.071234 -0.108866 963 0.699476 0.100184 0.566093
-13.464248 -12.076364 -0.103354 877 0.616677 0.026374 0.645402
-13.476340 -12.080353 -0.214597 739 0.442683 -0.031025 -0.955217
-13.470830 -12.075389 -0.208958 851 0.521969 0.040397 -0.874080
-13.464570 -12.069744 -0.203316 969 0.612039 0.121617 -0.792900
-13.459778 -12.065418 -0.197694 1037 0.680992 0.183860 -0.712008
-13.456072 -12.062072 -0.192096 1093 0.734316 0.232010 -0.631461
-13.452303 -12.058661 -0.186499 1121 0.788545 0.281080 -0.550929
-13.449466 -12.056087 -0.180915 1149 0.829367 0.318129 -0.470583
-13.448208 -12.054933 -0.175353 1169 0.847467 0.334733 -0.390555
-13.447493 -12.054268 -0.169797 1197 0.857758 0.344297 -0.310612
-13.446770 -12.053594 -0.164252 1205 0.868159 0.353998 -0.230828
-13.446548 -12.053369 -0.158704 1197 0.871343 0.357237 -0.151001
-13.445949 -12.052790 -0.153146 1193 0.879974 0.365566 -0.071029
-13.445938 -12.052762 -0.147597 1183 0.880125 0.365964 0.008812
-13.447016 -12.053699 -0.142070 1195 0.864619 0.352489 0.088338
-13.447656 -12.054241 -0.136527 1177 0.855412 0.344681 0.168093
-13.448788 -12.055235 -0.130990 1155 0.839124 0.330383 0.247762
-13.450733 -12.056946 -0.125458 1149 0.811131 0.305766 0.327359
-13.453334 -12.059245 -0.119933 1127 0.773711 0.272682 0.406855
-13.455984 -12.061595 -0.114398 1081 0.735578 0.238871 0.486496
-13.459233 -12.064474 -0.108868 1031 0.688827 0.197445 0.566064
-13.463957 -12.068683 -0.103350 937 0.620863 0.136890 0.645460
-13.470804 -12.074784 -0.097840 825 0.522339 0.049097 0.724740
-13.479188 -12.075629 -0.214604 763 0.401710 0.036939 -0.955317
-13.470799 -12.068083 -0.208924 903 0.522408 0.145521 -0.873591
-13.464589 -12.062487 -0.203290 995 0.611765 0.226041 -0.792526
-13.461751 -12.059915 -0.197697 1065 0.652601 0.263049 -0.712051
-13.458046 -12.056568 -0.192099 1117 0.705911 0.311200 -0.631504
-13.453352 -12.052341 -0.186497 1143 0.773450 0.372015 -0.550900
-13.450627 -12.049867 -0.180913 1161 0.812654 0.407624 -0.470555
-13.450286 -12.049535 -0.175364 1191 0.817566 0.412399 -0.390713
-13.449748 -12.049020 -0.169808 1203 0.825306 0.419809 -0.310770
-13.448808 -12.048156 -0.164254 1203 0.838835 0.432241 -0.230857
-13.449566 -12.048801 -0.158719 1231 0.827927 0.422951 -0.151217
-13.449276 -12.048520 -0.153170 1229 0.832098 0.426999 -0.071375
-13.448567 -12.047848 -0.147616 1219 0.842293 0.436673 0.008539
-13.448327 -12.047615 -0.142068 1187 0.845751 0.440021 0.088366
-13.449192 -12.048354 -0.136533 1175 0.833306 0.429387 0.168006
-13.451142 -12.050072 -0.131001 1179 0.805244 0.404674 0.247604
-13.452981 -12.051691 -0.125470 1161 0.778788 0.381374 0.327186
-13.455202 -12.053650 -0.119937 1151 0.746830 0.353189 0.406798
-13.457308 -12.055510 -0.114403 1119 0.716532 0.326431 0.486424
-13.460347 -12.058207 -0.108876 1061 0.672800 0.287625 0.565949
-13.464901 -12.062258 -0.103360 983 0.607278 0.229335 0.645316
-13.471093 -12.067772 -0.097844 883 0.518181 0.149994 0.724683
-13.479513 -12.068354 -0.214577 809 0.397030 0.141624 -0.954929
-13.471554 -12.061198 -0.208905 927 0.511554 0.244580 -0.873317
-13.466056 -12.056248 -0.203278 1027 0.590661 0.315810 -0.792353
-13.462618 -12.053142 -0.197688 1087 0.640128 0.360503 -0.711922
-13.459400 -12.050229 -0.192097 1125 0.686426 0.402409 -0.631475
-13.456400 -12.047506 -0.186505 1157 0.729595 0.441586 -0.551015
-13.454210 -12.045528 -0.180938 1177 0.761101 0.470045 -0.470914
-13.453009 -12.044416 -0.175376 1189 0.778390 0.486045 -0.390886
-13.451646 -12.043169 -0.169814 1215 0.797999 0.503993 -0.310857
-13.450210 -12.041865 -0.164252 1213 0.818664 0.522751 -0.230828
-13.449772 -12.041434 -0.158705 1221 0.824963 0.528953 -0.151015
-13.449924 -12.041542 -0.153165 1221 0.822767 0.527402 -0.071303
-13.450902 -12.042395 -0.147628 1227 0.808702 0.515135 0.008366
-13.451542 -12.042935 -0.142085 1213 0.799495 0.507355 0.088122
-13.451962 -12.043284 -0.136542 1203 0.793443 0.502333 0.167877
-13.453039 -12.044223 -0.131005 1193 0.777951 0.488830 0.247546
-13.454498 -12.045500 -0.125478 1185 0.756957 0.470456 0.327071
-13.456005 -12.046815 -0.119939 1159 0.735276 0.451534 0.406769
-13.459318 -12.049759 -0.114419 1133 0.687606 0.409174 0.486194
-13.462624 -12.052683 -0.108889 1091 0.640046 0.367103 0.565762
-13.465825 -12.055529 -0.103360 1013 0.593981 0.326157 0.645316
-13.472014 -12.061040 -0.097844 923 0.504926 0.246858 0.724683
-13.481488 -12.069484 -0.092349 783 0.368612 0.125364 0.803748
-13.481318 -12.062397 -0.214574 851 0.371055 0.227331 -0.954885
-13.474551 -12.056313 -0.208924 965 0.468426 0.314877 -0.873591
-13.468495 -12.050873 -0.203290 1037 0.555560 0.393147 -0.792526
-13.464839 -12.047577 -0.197692 1087 0.608170 0.440570 -0.711979
-13.461628 -12.044669 -0.192101 1139 0.654372 0.482408 -0.631533
-13.458508 -12.041856 -0.186509 1165 0.699270 0.522888 -0.551073
-13.457808 -12.041189 -0.180953 1201 0.709342 0.532480 -0.471130
-13.456704 -12.040176 -0.175400 1209 0.725218 0.547052 -0.391231
-13.455560 -12.039121 -0.169837 1229 0.741684 0.562242 -0.311188
-13.454731 -12.038357 -0.164281 1251 0.753609 0.573234 -0.231245
-13.453361 -12.037103 -0.158730 1235 0.773327 0.591278 -0.151375
-13.453134 -12.036870 -0.153182 1225 0.776593 0.594626 -0.071547
-13.453447 -12.037127 -0.147639 1241 0.772078 0.590935 0.008208
-13.453488 -12.037136 -0.142098 1223 0.771488 0.590798 0.087935
-13.454189 -12.037724 -0.136555 1215 0.761403 0.582345 0.167690
-13.455536 -12.038904 -0.131028 1205 0.742027 0.565357 0.247215
-13.457220 -12.040380 -0.125487 1187 0.717794 0.544130 0.326942
-13.459213 -12.042142 -0.119965 1157 0.689115 0.518771 0.406395
-13.462633 -12.045165 -0.114436 1145 0.639909 0.475273 0.485949
-13.466165 -12.048303 -0.108914 1107 0.589096 0.430128 0.565402
-13.469795 -12.051524 -0.103383 1045 0.536857 0.383775 0.644985
-13.474631 -12.055816 -0.097865 961 0.467273 0.322026 0.724381
-13.481973 -12.062356 -0.092353 823 0.361642 0.227921 0.803690
-13.483340 -12.057284 -0.214576 897 0.341964 0.300895 -0.954914
-13.476410 -12.051063 -0.208926 981 0.441682 0.390416 -0.873619
-13.471280 -12.046441 -0.203295 1047 0.515492 0.456913 -0.792598
-13.467461 -12.042994 -0.197699 1103 0.570448 0.506518 -0.712080
-13.465229 -12.040975 -0.192122 1159 0.602558 0.535567 -0.631835
-13.462984 -12.038939 -0.186545 1193 0.634859 0.564850 -0.551591
-13.460090 -12.036324 -0.180962 1213 0.676505 0.602489 -0.471260
-13.458612 -12.034977 -0.175400 1213 0.697760 0.621864 -0.391231
-13.458611 -12.034943 -0.169862 1231 0.697788 0.622358 -0.311547
-13.457290 -12.033740 -0.164298 1247 0.716793 0.639662 -0.231490
-13.456469 -12.032969 -0.158744 1251 0.728607 0.650749 -0.151576
-13.455910 -12.032445 -0.153197 1237 0.736648 0.658296 -0.071763
-13.455300 -12.031871 -0.147641 1227 0.745417 0.666557 0.008179
-13.456603 -12.033009 -0.142113 1231 0.726672 0.650186 0.087719
-13.458004 -12.034227 -0.136584 1225 0.706515 0.632650 0.167273
-13.458637 -12.034777 -0.131041 1207 0.697403 0.624746 0.247028
-13.459723 -12.035707 -0.125504 1183 0.681774 0.611353 0.326697
-13.461397 -12.037177 -0.119975 1173 0.657692 0.590208 0.406251
-13.463999 -12.039476 -0.114449 1155 0.620259 0.557124 0.485762
-13.467524 -12.042605 -0.108920 1115 0.569543 0.512103 0.565316
-13.471542 -12.046163 -0.103396 1069 0.511718 0.460920 0.644798
-13.476258 -12.050362 -0.097878 983 0.443863 0.400502 0.724194
-13.484206 -12.057442 -0.092372 865 0.329505 0.298630 0.803417
-13.486319 -12.053614 -0.214597 919 0.299111 0.353710 -0.955217
-13.479003 -12.047048 -0.208939 985 0.404372 0.448186 -0.873806
-13.473935 -12.042488 -0.203309 1055 0.477290 0.513790 -0.792799
-13.470441 -12.039341 -0.197720 1105 0.527567 0.559073 -0.712382
-13.467441 -12.036618 -0.192128 1141 0.570736 0.598249 -0.631922
-13.465047 -12.034449 -0.186551 1167 0.605178 0.629466 -0.551677
-13.462865 -12.032463 -0.180985 1209 0.636574 0.658035 -0.471591
-13.461811 -12.031500 -0.175421 1223 0.651737 0.671894 -0.391533
-13.461430 -12.031126 -0.169873 1245 0.657226 0.677273 -0.311706
-13.460551 -12.030312 -0.164319 1267 0.669864 0.688992 -0.231792
-13.459504 -12.029341 -0.158765 1271 0.684930 0.702961 -0.151878
-13.459008 -12.028867 -0.153218 1245 0.692066 0.709781 -0.072065
-13.459274 -12.029076 -0.147677 1239 0.688237 0.706776 0.007661
-13.459435 -12.029176 -0.142136 1235 0.685918 0.705335 0.087388
-13.460399 -12.030014 -0.136599 1217 0.672059 0.693273 0.167057
-13.461420 -12.030895 -0.131064 1201 0.657363 0.680594 0.246697
-13.461962 -12.031337 -0.125521 1165 0.649569 0.674241 0.326452
-13.463855 -12.032997 -0.119990 1163 0.622331 0.650351 0.406035
-13.466400 -12.035240 -0.114465 1155 0.585707 0.618077 0.485532
-13.469884 -12.038328 -0.108935 1115 0.535581 0.573645 0.565100
-13.474112 -12.042082 -0.103419 1065 0.474751 0.519636 0.644467
-13.478026 -12.045544 -0.097886 987 0.418423 0.469825 0.724078
-13.484612 -12.051397 -0.092377 883 0.323659 0.385600 0.803345
-13.490002 -12.048937 -0.214614 913 0.246117 0.421003 -0.955461
-13.483073 -12.042717 -0.208964 1001 0.345806 0.510497 -0.874166
-13.477617 -12.037824 -0.203336 1063 0.424310 0.580904 -0.793188
-13.474617 -12.035115 -0.197743 1115 0.467479 0.619875 -0.712713
-13.471497 -12.032302 -0.192153 1145 0.512377 0.660354 -0.632281
-13.468384 -12.029493 -0.186570 1169 0.557165 0.700765 -0.551950
-13.466315 -12.027609 -0.181002 1195 0.586928 0.727880 -0.471835
-13.464943 -12.026354 -0.175441 1207 0.606674 0.745938 -0.391821
-13.464504 -12.025937 -0.169894 1237 0.612986 0.751934 -0.312008
-13.463733 -12.025214 -0.164338 1253 0.624087 0.762336 -0.232065
-13.462842 -12.024402 -0.158784 1267 0.636904 0.774027 -0.152152
-13.463172 -12.024657 -0.153241 1249 0.632156 0.770349 -0.072396
-13.463535 -12.024963 -0.147700 1241 0.626928 0.765945 0.007330
-13.463795 -12.025164 -0.142159 1235 0.623195 0.763063 0.087057
-13.464498 -12.025754 -0.136624 1219 0.613082 0.754569 0.166697
-13.466230 -12.027281 -0.131095 1191 0.588149 0.732600 0.246251
-13.467471 -12.028354 -0.125558 1185 0.570297 0.717163 0.325920
-13.468759 -12.029476 -0.120019 1175 0.551773 0.701012 0.405618
-13.470760 -12.031242 -0.114487 1151 0.522970 0.675599 0.485215
-13.473368 -12.033536 -0.108962 1105 0.485455 0.642598 0.564712
-13.478099 -12.037737 -0.103444 1067 0.417380 0.582153 0.644107
-13.483973 -12.042957 -0.097930 1001 0.332867 0.507039 0.723445
-13.489951 -12.048272 -0.092404 871 0.246844 0.430567 0.802956
-13.494205 -12.044995 -0.214646 899 0.185630 0.477715 -0.955922
-13.487502 -12.038974 -0.208995 989 0.282082 0.564356 -0.874612
-13.482315 -12.034323 -0.203376 1057 0.356715 0.631278 -0.793763
-13.478545 -12.030926 -0.197768 1103 0.410958 0.680155 -0.713073
-13.474987 -12.027729 -0.192179 1127 0.462155 0.726151 -0.632655
-13.473025 -12.025949 -0.186610 1169 0.490381 0.751770 -0.552526
-13.470844 -12.023966 -0.181033 1195 0.521763 0.780298 -0.472281
-13.468597 -12.021931 -0.175456 1203 0.554092 0.809580 -0.392037
-13.468207 -12.021563 -0.169909 1231 0.559704 0.814877 -0.312224
-13.467930 -12.021279 -0.164361 1257 0.563697 0.818952 -0.232396
-13.466658 -12.020126 -0.158808 1245 0.582002 0.835542 -0.152497
-13.466537 -12.019985 -0.153260 1243 0.583731 0.837573 -0.072670
-13.467465 -12.020789 -0.147723 1243 0.570380 0.826005 0.006999
-13.467893 -12.021132 -0.142192 1249 0.564232 0.821066 0.086582
-13.467981 -12.021189 -0.136641 1221 0.562956 0.820256 0.166453
-13.468961 -12.022028 -0.131104 1197 0.548864 0.808181 0.246122
-13.471067 -12.023886 -0.125582 1181 0.518552 0.781450 0.325575
-13.473125 -12.025697 -0.120051 1167 0.488940 0.755392 0.405158
-13.475351 -12.027650 -0.114518 1143 0.456913 0.727290 0.484769
-13.477790 -12.029799 -0.108994 1101 0.421826 0.696361 0.564251
-13.481809 -12.033356 -0.103471 1061 0.364002 0.645192 0.643719
-13.487139 -12.038087 -0.097949 991 0.287310 0.577117 0.723172
-13.493670 -12.043885 -0.092431 875 0.193328 0.493688 0.802568
-13.499997 -12.042466 -0.214700 875 0.102297 0.514106 -0.956699
-13.493237 -12.036402 -0.209048 989 0.199572 0.601364 -0.875375
-13.486893 -12.030714 -0.203406 1049 0.290850 0.683201 -0.794195
-13.483511 -12.027665 -0.197816 1103 0.339508 0.727070 -0.713763
-13.481216 -12.025596 -0.192229 1139 0.372523 0.756847 -0.633375
-13.477828 -12.022540 -0.186639 1163 0.421277 0.800812 -0.552943
-13.476022 -12.020904 -0.181071 1205 0.447266 0.824359 -0.472828
-13.474544 -12.019557 -0.175509 1211 0.468535 0.843734 -0.392799
-13.472074 -12.017324 -0.169934 1225 0.504075 0.875857 -0.312583
-13.471315 -12.016616 -0.164387 1229 0.514984 0.886053 -0.232771
-13.471080 -12.016376 -0.158839 1223 0.518373 0.889511 -0.152943
-13.470634 -12.015951 -0.153292 1211 0.524782 0.895617 -0.073130
-13.471443 -12.016649 -0.147757 1223 0.513145 0.885572 0.006510
-13.471871 -12.017006 -0.142215 1209 0.506984 0.880440 0.086251
-13.472785 -12.017794 -0.136679 1203 0.493839 0.869106 0.165906
-13.474138 -12.018967 -0.131142 1201 0.474367 0.852228 0.245575
-13.475101 -12.019803 -0.125605 1183 0.460508 0.840194 0.325244
-13.476397 -12.020920 -0.120068 1161 0.441874 0.824126 0.404913
-13.479224 -12.023417 -0.114543 1123 0.401188 0.788188 0.484409
-13.482749 -12.026533 -0.109021 1091 0.350472 0.743358 0.563863
-13.486886 -12.030194 -0.103497 1039 0.290946 0.690680 0.643345
-13.491449 -12.034239 -0.097970 963 0.225287 0.632485 0.722870
-13.498479 -12.040482 -0.092459 827 0.124142 0.542661 0.802165
-13.505054 -12.039551 -0.214745 835 0.029530 0.556054 -0.957346
-13.497898 -12.033148 -0.209086 967 0.132499 0.648183 -0.875922
-13.491561 -12.027467 -0.203444 1039 0.223681 0.729924 -0.794742
-13.487138 -12.023498 -0.197840 1073 0.287324 0.787035 -0.714109
-13.485328 -12.021860 -0.192261 1119 0.313368 0.810596 -0.633835
-13.482920 -12.019690 -0.186684 1153 0.348016 0.841827 -0.553591
-13.480520 -12.017514 -0.181109 1187 0.382540 0.873127 -0.473375
-13.478549 -12.015727 -0.175542 1199 0.410903 0.898842 -0.393274
-13.477277 -12.014573 -0.169978 1205 0.429208 0.915445 -0.313216
-13.476343 -12.013717 -0.164424 1205 0.442642 0.927767 -0.233303
-13.475679 -12.013087 -0.158868 1203 0.452193 0.936824 -0.153360
-13.475507 -12.012911 -0.153329 1203 0.454676 0.939362 -0.073663
-13.475667 -12.013026 -0.147788 1199 0.452371 0.937702 0.006064
-13.476581 -12.013814 -0.142243 1193 0.439225 0.926368 0.085848
-13.478097 -12.015137 -0.136714 1197 0.417407 0.907335 0.165402
-13.478898 -12.015824 -0.131179 1183 0.405881 0.897442 0.245042
-13.479383 -12.016224 -0.125636 1165 0.398897 0.891692 0.324798
-13.481603 -12.018169 -0.120103 1143 0.366966 0.863700 0.404409
-13.485353 -12.021482 -0.114581 1121 0.312997 0.816030 0.483863
-13.488892 -12.024612 -0.109061 1073 0.262089 0.770994 0.563287
-13.492473 -12.027785 -0.103530 1019 0.210563 0.725341 0.642870
-13.497204 -12.031970 -0.098012 927 0.142489 0.665130 0.722265
-13.504834 -12.038745 -0.092498 773 0.032699 0.567649 0.801604
-13.504196 -12.031355 -0.209145 937 0.041879 0.673980 -0.876770
-13.497422 -12.025291 -0.203496 1013 0.139346 0.761224 -0.795490
-13.493647 -12.021902 -0.197898 1057 0.193671 0.809992 -0.714943
-13.490913 -12.019448 -0.192313 1105 0.232998 0.845299 -0.634583
-13.488237 -12.017025 -0.186728 1133 0.271502 0.880166 -0.554224
-13.486213 -12.015196 -0.181151 1161 0.300634 0.906485 -0.473979
-13.484354 -12.013510 -0.175582 1189 0.327378 0.930745 -0.393850
-13.482475 -12.011817 -0.170024 1189 0.354410 0.955101 -0.313878
-13.481816 -12.011193 -0.164468 1201 0.363892 0.964076 -0.233936
-13.480883 -12.010336 -0.158913 1205 0.377326 0.976412 -0.154008
-13.480331 -12.009820 -0.153365 1199 0.385257 0.983835 -0.074181
-13.480539 -12.009970 -0.147815 1193 0.382266 0.981681 0.005676
-13.481343 -12.010660 -0.142279 1189 0.370698 0.971746 0.085330
-13.482751 -12.011889 -0.136752 1189 0.350444 0.954059 0.164856
-13.483947 -12.012918 -0.131215 1175 0.333237 0.939253 0.244524
-13.485130 -12.013948 -0.125678 1155 0.316208 0.924433 0.324194
-13.487356 -12.015900 -0.120145 1127 0.284181 0.896358 0.403805
-13.490558 -12.018733 -0.114617 1089 0.238117 0.855590 0.483345
-13.493602 -12.021407 -0.109088 1055 0.194316 0.817114 0.562899
-13.497360 -12.024729 -0.103566 983 0.140238 0.769320 0.642352
-13.504003 -12.030625 -0.098058 869 0.044665 0.684477 0.721604
-13.515905 -12.034394 -0.209281 845 -0.126599 0.630248 -0.878727
-13.505569 -12.025159 -0.203582 967 0.022120 0.763132 -0.796727
-13.499669 -12.019876 -0.197947 1019 0.107017 0.839151 -0.715648
-13.495948 -12.016542 -0.192349 1071 0.160560 0.887109 -0.635101
-13.493598 -12.014416 -0.186772 1109 0.194371 0.917709 -0.554857
-13.491134 -12.012190 -0.181197 1143 0.229829 0.949736 -0.474641
-13.488832 -12.010114 -0.175622 1161 0.262940 0.979609 -0.394425
-13.487631 -12.009016 -0.170058 1183 0.280229 0.995403 -0.314368
-13.487184 -12.008592 -0.164511 1187 0.286665 1.001509 -0.234555
-13.487069 -12.008458 -0.158961 1189 0.288312 1.003430 -0.154698
-13.486023 -12.007502 -0.153407 1177 0.303364 1.017193 -0.074785
-13.485519 -12.007022 -0.147851 1169 0.310610 1.024095 0.005158
-13.485453 -12.006937 -0.142312 1171 0.311570 1.025317 0.084855
-13.486912 -12.008201 -0.136773 1177 0.290576 1.007135 0.164553
-13.488708 -12.009778 -0.131242 1147 0.264737 0.984439 0.244136
-13.490054 -12.010943 -0.125705 1117 0.245362 0.967671 0.323805
-13.492823 -12.013384 -0.120179 1101 0.205527 0.932556 0.403316
-13.495593 -12.015825 -0.114651 1065 0.165665 0.897428 0.482855
-13.498152 -12.018068 -0.109116 993 0.128849 0.865154 0.562496
-13.504137 -12.023375 -0.103612 921 0.042730 0.788805 0.641690
-13.511775 -12.030144 -0.098098 807 -0.067169 0.691407 0.721028
-13.515133 -12.025984 -0.203683 883 -0.115484 0.751262 -0.798181
-13.508741 -12.020262 -0.198041 983 -0.023519 0.833594 -0.717001
-13.503601 -12.015658 -0.192422 1037 0.050442 0.899829 -0.636152
-13.500482 -12.012859 -0.186839 1073 0.095326 0.940103 -0.555821
-13.498293 -12.010881 -0.181262 1117 0.126818 0.968563 -0.475576
-13.495992 -12.008804 -0.175687 1145 0.159929 0.998449 -0.395360
-13.493894 -12.006918 -0.170108 1157 0.190117 1.025591 -0.315087
-13.492579 -12.005722 -0.164546 1155 0.209026 1.042798 -0.235058
-13.492458 -12.005582 -0.159007 1157 0.210769 1.044815 -0.155360
-13.492504 -12.005596 -0.153456 1175 0.210110 1.044610 -0.075490
-13.492007 -12.005122 -0.147910 1163 0.217259 1.051429 0.004309
-13.492655 -12.005671 -0.142365 1159 0.207942 1.043539 0.084093
-13.493902 -12.006750 -0.136828 1149 0.189994 1.028006 0.163762
-13.495634 -12.008261 -0.131299 1135 0.165075 1.006271 0.243316
-13.497100 -12.009533 -0.125760 1093 0.143984 0.987965 0.323014
-13.499326 -12.011484 -0.120227 1071 0.111957 0.959890 0.402625
-13.502421 -12.014211 -0.114699 1037 0.067416 0.920659 0.482165
-13.505846 -12.017241 -0.109170 959 0.018140 0.877065 0.561719
-13.512828 -12.023419 -0.103669 885 -0.082318 0.788160 0.640870
-13.516443 -12.019428 -0.198123 905 -0.134338 0.845587 -0.718180
-13.511127 -12.014675 -0.192494 979 -0.057852 0.913977 -0.637188
-13.507847 -12.011726 -0.186904 1041 -0.010648 0.956405 -0.556756
-13.505164 -12.009322 -0.181319 1081 0.027952 0.990998 -0.476396
-13.502318 -12.006757 -0.175736 1105 0.068898 1.027910 -0.396065
-13.500446 -12.005070 -0.170167 1123 0.095834 1.052184 -0.315936
-13.499513 -12.004213 -0.164613 1133 0.109268 1.064506 -0.236022
-13.498524 -12.003300 -0.159049 1125 0.123497 1.077652 -0.155965
-13.497964 -12.002776 -0.153502 1131 0.131552 1.085185 -0.076152
-13.498447 -12.003174 -0.147959 1143 0.124595 1.079463 0.003604
-13.499307 -12.003907 -0.142415 1119 0.112232 1.068911 0.083373
-13.500723 -12.005141 -0.136876 1119 0.091855 1.051155 0.163071
-13.502399 -12.006599 -0.131346 1095 0.067731 1.030174 0.242640
-13.504414 -12.008365 -0.125815 1065 0.038751 1.004775 0.322222
-13.506641 -12.010318 -0.120282 1023 0.006696 0.976672 0.401834
-13.509954 -12.013234 -0.114753 977 -0.040974 0.934711 0.481388
-13.514636 -12.017371 -0.109235 917 -0.108335 0.875185 0.560783
-13.522273 -12.024126 -0.103720 781 -0.218220 0.777992 0.640136
-13.520243 -12.015231 -0.192588 903 -0.189006 0.905977 -0.638540
-13.515479 -12.010978 -0.186974 973 -0.120465 0.967177 -0.557763
-13.512733 -12.008511 -0.181391 1019 -0.080959 1.002675 -0.477432
-13.510704 -12.006681 -0.175812 1057 -0.051759 1.028994 -0.397159
-13.508898 -12.005045 -0.170243 1087 -0.025770 1.052541 -0.317029
-13.507299 -12.003592 -0.164674 1095 -0.002772 1.073453 -0.236900
-13.505322 -12.001811 -0.159104 1101 0.025674 1.099072 -0.156756
-13.505046 -12.001529 -0.153556 1093 0.029653 1.103134 -0.076929
-13.506228 -12.002561 -0.148021 1101 0.012638 1.088287 0.002712
-13.506438 -12.002710 -0.142468 1089 0.009619 1.086132 0.082611
-13.506929 -12.003116 -0.136925 1061 0.002552 1.080300 0.162366
-13.508776 -12.004727 -0.131394 1031 -0.024013 1.057110 0.241949
-13.511764 -12.007361 -0.125867 1013 -0.067004 1.019210 0.321474
-13.516072 -12.011164 -0.120343 975 -0.129000 0.964501 0.400956
-13.519667 -12.014321 -0.114821 913 -0.180718 0.919068 0.480409
-13.525336 -12.019338 -0.109298 801 -0.262295 0.846890 0.559877
-13.525826 -12.012774 -0.187079 873 -0.269348 0.941325 -0.559274
-13.521873 -12.009235 -0.181483 949 -0.212470 0.992247 -0.478756
-13.518315 -12.006051 -0.175883 995 -0.161274 1.038064 -0.398180
-13.515350 -12.003392 -0.170300 1019 -0.118612 1.076321 -0.317850
-13.514092 -12.002237 -0.164738 1037 -0.100513 1.092938 -0.237821
-13.514140 -12.002254 -0.159178 1057 -0.101199 1.092705 -0.157821
-13.513856 -12.001979 -0.153630 1053 -0.097110 1.096657 -0.077994
-13.514283 -12.002321 -0.148078 1047 -0.103258 1.091731 0.001891
-13.515092 -12.003016 -0.142543 1053 -0.114894 1.081727 0.081532
-13.516007 -12.003806 -0.136998 1023 -0.128067 1.070366 0.161316
-13.517585 -12.005176 -0.131459 995 -0.150763 1.050661 0.241014
-13.520630 -12.007852 -0.125932 949 -0.194577 1.012157 0.320539
-13.524831 -12.011549 -0.120406 885 -0.255022 0.958957 0.400050
-13.530776 -12.016799 -0.114892 783 -0.340565 0.883418 0.479388
-13.533588 -12.012251 -0.181599 795 -0.381031 0.948858 -0.480425
-13.530080 -12.009104 -0.175999 887 -0.330548 0.994140 -0.399850
-13.526686 -12.006055 -0.170411 935 -0.281711 1.038009 -0.319447
-13.524383 -12.003991 -0.164824 969 -0.248573 1.067704 -0.239058
-13.523880 -12.003510 -0.159266 981 -0.241341 1.074619 -0.159087
-13.523215 -12.002894 -0.153710 989 -0.231777 1.083484 -0.079144
-13.522274 -12.002030 -0.148146 999 -0.218234 1.095916 0.000913
-13.523675 -12.003252 -0.142607 965 -0.238391 1.078338 0.080611
-13.526142 -12.005404 -0.137074 937 -0.273890 1.047368 0.160222
-13.528694 -12.007639 -0.131539 895 -0.310610 1.015217 0.239863
-13.532571 -12.011053 -0.126015 835 -0.366389 0.966093 0.319345
-13.538916 -12.009377 -0.170525 735 -0.457681 0.990216 -0.321087
-13.536340 -12.007065 -0.164941 809 -0.420618 1.023478 -0.240742
-13.535398 -12.006202 -0.159375 845 -0.407061 1.035896 -0.160655
-13.535227 -12.006024 -0.153817 865 -0.404605 1.038448 -0.080684
-13.534774 -12.005595 -0.148259 855 -0.398087 1.044623 -0.000713
-13.535857 -12.006524 -0.142712 827 -0.413675 1.031258 0.079100
-13.539679 -12.009881 -0.137181 769 -0.468659 0.982957 0.158683
