82
-22.224657 -20.578749 -0.653057 689 -0.382408 0.923994 0.000000
-22.224480 -20.578585 -0.643738 679 -0.382408 0.923994 0.000000
-22.224514 -20.578613 -0.634438 683 -0.382408 0.923994 0.000000
-22.223740 -20.577898 -0.625115 681 -0.382408 0.923994 0.000000
-22.222643 -20.576891 -0.615775 671 -0.382408 0.923994 0.000000
-22.222406 -20.576666 -0.606467 669 -0.382408 0.923994 0.000000
-22.224421 -20.578535 -0.597218 661 -0.382408 0.923994 0.000000
-22.224075 -20.578211 -0.587901 671 -0.382408 0.923994 0.000000
-22.222326 -20.576595 -0.578547 673 -0.382408 0.923994 0.000000
-22.222841 -20.577068 -0.569262 691 -0.382408 0.923994 0.000000
-22.224457 -20.578569 -0.559996 693 -0.382408 0.923994 0.000000
-22.224419 -20.578543 -0.550686 675 -0.382408 0.923994 0.000000
-22.222885 -20.577124 -0.541350 667 -0.382408 0.923994 0.000000
-22.221344 -20.575686 -0.532005 683 -0.382408 0.923994 0.000000
-22.221939 -20.576248 -0.522719 685 -0.382408 0.923994 0.000000
-22.222431 -20.576704 -0.513424 689 -0.382408 0.923994 0.000000
-22.223032 -20.577259 -0.504138 693 -0.382408 0.923994 0.000000
-22.222237 -20.576517 -0.494815 691 -0.382408 0.923994 0.000000
-22.221859 -20.576168 -0.485509 689 -0.382408 0.923994 0.000000
-22.221537 -20.575876 -0.476192 679 -0.382408 0.923994 0.000000
-22.221001 -20.575377 -0.466876 671 -0.382408 0.923994 0.000000
-22.223835 -20.578009 -0.457640 675 -0.382408 0.923994 0.000000
-22.224318 -20.578457 -0.448345 689 -0.382408 0.923994 0.000000
-22.222433 -20.576710 -0.439002 675 -0.382408 0.923994 0.000000
-22.221945 -20.576260 -0.429687 679 -0.382408 0.923994 0.000000
-22.221876 -20.576195 -0.420387 669 -0.382408 0.923994 0.000000
-22.221100 -20.575480 -0.411074 661 -0.382408 0.923994 0.000000
-22.221415 -20.575769 -0.401771 659 -0.382408 0.923994 0.000000
-22.221388 -20.575750 -0.392471 653 -0.382408 0.923994 0.000000
-22.220785 -20.575186 -0.383156 657 -0.382408 0.923994 0.000000
-22.222425 -20.576704 -0.373881 657 -0.382408 0.923994 0.000000
-22.221594 -20.575945 -0.364568 669 -0.382408 0.923994 0.000000
-22.221724 -20.576063 -0.355267 671 -0.382408 0.923994 0.000000
-22.222286 -20.576588 -0.345981 669 -0.382408 0.923994 0.000000
-22.221876 -20.576200 -0.336665 675 -0.382408 0.923994 0.000000
-22.223028 -20.577269 -0.327384 675 -0.382408 0.923994 0.000000
-22.224230 -20.578390 -0.318103 671 -0.382408 0.923994 0.000000
-22.224344 -20.578495 -0.308801 649 -0.382408 0.923994 0.000000
-22.223400 -20.577621 -0.299480 655 -0.382408 0.923994 0.000000
-22.220720 -20.575140 -0.290145 635 -0.382408 0.923994 0.000000
-22.219614 -20.574112 -0.280835 635 -0.382408 0.923994 0.000000
-22.250351 -20.589182 -0.653614 657 -0.382408 0.923994 0.000000
-22.250986 -20.589777 -0.644317 649 -0.382408 0.923994 0.000000
-22.248550 -20.587515 -0.634940 655 -0.382408 0.923994 0.000000
-22.249025 -20.587957 -0.625635 655 -0.382408 0.923994 0.000000
-22.248678 -20.587633 -0.616318 667 -0.382408 0.923994 0.000000
-22.246771 -20.585867 -0.606956 665 -0.382408 0.923994 0.000000
-22.246368 -20.585499 -0.597629 655 -0.382408 0.923994 0.000000
-22.247856 -20.586870 -0.588355 643 -0.382408 0.923994 0.000000
-22.249157 -20.588085 -0.579083 653 -0.382408 0.923994 0.000000
-22.248159 -20.587168 -0.569742 649 -0.382408 0.923994 0.000000
-22.248610 -20.587578 -0.560437 653 -0.382408 0.923994 0.000000
-22.248575 -20.587553 -0.551127 657 -0.382408 0.923994 0.000000
-22.248213 -20.587215 -0.541811 665 -0.382408 0.923994 0.000000
-22.248066 -20.587074 -0.532492 663 -0.382408 0.923994 0.000000
-22.247375 -20.586441 -0.523168 677 -0.382408 0.923994 0.000000
-22.248625 -20.587599 -0.513876 673 -0.382408 0.923994 0.000000
-22.248150 -20.587160 -0.504560 659 -0.382408 0.923994 0.000000
-22.246759 -20.585869 -0.495213 659 -0.382408 0.923994 0.000000
-22.248430 -20.587412 -0.485947 661 -0.382408 0.923994 0.000000
-22.248371 -20.587368 -0.476628 647 -0.382408 0.923994 0.000000
-22.247019 -20.586121 -0.467290 653 -0.382408 0.923994 0.000000
-22.248411 -20.587404 -0.458007 651 -0.382408 0.923994 0.000000
-22.247555 -20.586611 -0.448685 655 -0.382408 0.923994 0.000000
-22.247766 -20.586805 -0.439372 635 -0.382408 0.923994 0.000000
-22.248457 -20.587446 -0.430076 647 -0.382408 0.923994 0.000000
-22.247952 -20.586981 -0.420760 637 -0.382408 0.923994 0.000000
-22.248426 -20.587423 -0.411456 637 -0.382408 0.923994 0.000000
-22.248198 -20.587206 -0.402138 607 -0.382408 0.923994 0.000000
-22.247206 -20.586296 -0.392816 623 -0.382408 0.923994 0.000000
-22.246223 -20.585390 -0.383485 635 -0.382408 0.923994 0.000000
-22.246202 -20.585363 -0.374175 659 -0.382408 0.923994 0.000000
-22.246176 -20.585342 -0.364865 653 -0.382408 0.923994 0.000000
-22.246365 -20.585520 -0.355563 645 -0.382408 0.923994 0.000000
-22.246279 -20.585443 -0.346254 649 -0.382408 0.923994 0.000000
-22.246141 -20.585323 -0.336945 655 -0.382408 0.923994 0.000000
-22.246376 -20.585535 -0.327633 657 -0.382408 0.923994 0.000000
-22.246126 -20.585302 -0.318325 639 -0.382408 0.923994 0.000000
-22.246571 -20.585718 -0.309020 631 -0.382408 0.923994 0.000000
-22.246534 -20.585678 -0.299711 623 -0.382408 0.923994 0.000000
-22.246277 -20.585451 -0.290403 623 -0.382408 0.923994 0.000000
-22.246016 -20.585209 -0.281085 619 -0.382408 0.923994 0.000000
