299
-21.563713 -21.390902 -0.652641 807 0.265426 0.964131 0.000000
-21.563335 -21.390526 -0.643305 805 0.265426 0.964131 0.000000
-21.563992 -21.391182 -0.633988 797 0.265426 0.964131 0.000000
-21.564964 -21.392145 -0.624688 783 0.265426 0.964131 0.000000
-21.565300 -21.392487 -0.615365 781 0.265426 0.964131 0.000000
-21.564905 -21.392096 -0.606018 795 0.265426 0.964131 0.000000
-21.564993 -21.392185 -0.596687 803 0.265426 0.964131 0.000000
-21.565542 -21.392723 -0.587372 809 0.265426 0.964131 0.000000
-21.565964 -21.393148 -0.578047 781 0.265426 0.964131 0.000000
-21.565220 -21.392410 -0.568704 791 0.265426 0.964131 0.000000
-21.565079 -21.392279 -0.559366 789 0.265426 0.964131 0.000000
-21.563795 -21.391001 -0.549998 793 0.265426 0.964131 0.000000
-21.563139 -21.390348 -0.540654 793 0.265426 0.964131 0.000000
-21.563313 -21.390526 -0.531332 783 0.265426 0.964131 0.000000
-21.562901 -21.390106 -0.521986 797 0.265426 0.964131 0.000000
-21.564465 -21.391670 -0.512690 769 0.265426 0.964131 0.000000
-21.564632 -21.391840 -0.503368 783 0.265426 0.964131 0.000000
-21.564157 -21.391373 -0.494023 807 0.265426 0.964131 0.000000
-21.564894 -21.392092 -0.484716 809 0.265426 0.964131 0.000000
-21.563906 -21.391119 -0.475365 811 0.265426 0.964131 0.000000
-21.562347 -21.389580 -0.466000 801 0.265426 0.964131 0.000000
-21.562759 -21.389984 -0.456676 821 0.265426 0.964131 0.000000
-21.563585 -21.390797 -0.447367 817 0.265426 0.964131 0.000000
-21.564360 -21.391579 -0.438050 801 0.265426 0.964131 0.000000
-21.564194 -21.391413 -0.428721 793 0.265426 0.964131 0.000000
-21.565161 -21.392368 -0.419411 787 0.265426 0.964131 0.000000
-21.564936 -21.392151 -0.410073 795 0.265426 0.964131 0.000000
-21.562952 -21.390186 -0.400702 811 0.265426 0.964131 0.000000
-21.561323 -21.388573 -0.391348 797 0.265426 0.964131 0.000000
-21.561602 -21.388840 -0.372695 791 0.265426 0.964131 0.000000
-21.561485 -21.388729 -0.354035 799 0.265426 0.964131 0.000000
-21.564007 -21.391239 -0.344751 789 0.265426 0.964131 0.000000
-21.565319 -21.392544 -0.335438 795 0.265426 0.964131 0.000000
-21.565300 -21.392515 -0.326108 789 0.265426 0.964131 0.000000
-21.563810 -21.391050 -0.316762 763 0.265426 0.964131 0.000000
-21.562685 -21.389931 -0.307413 727 0.265426 0.964131 0.000000
-21.562595 -21.389843 -0.298083 759 0.265426 0.964131 0.000000
-21.564007 -21.391247 -0.288779 765 0.265426 0.964131 0.000000
-21.566605 -21.393822 -0.279484 761 0.265426 0.964131 0.000000
-21.566664 -21.393887 -0.270153 769 0.265426 0.964131 0.000000
-21.565689 -21.392910 -0.260812 737 0.265426 0.964131 0.000000
-21.575449 -21.389030 -0.652797 809 0.265426 0.964131 0.000000
-21.575691 -21.389280 -0.643474 803 0.265426 0.964131 0.000000
-21.577087 -21.390657 -0.634181 783 0.265426 0.964131 0.000000
-21.577684 -21.391262 -0.624864 783 0.265426 0.964131 0.000000
-21.576103 -21.389688 -0.615480 781 0.265426 0.964131 0.000000
-21.574890 -21.388485 -0.606111 793 0.265426 0.964131 0.000000
-21.576056 -21.389639 -0.596810 813 0.265426 0.964131 0.000000
-21.575304 -21.388893 -0.587457 809 0.265426 0.964131 0.000000
-21.574650 -21.388243 -0.578103 813 0.265426 0.964131 0.000000
-21.576384 -21.389963 -0.568816 795 0.265426 0.964131 0.000000
-21.575888 -21.389473 -0.559470 817 0.265426 0.964131 0.000000
-21.574659 -21.388258 -0.550112 793 0.265426 0.964131 0.000000
-21.572540 -21.386158 -0.540722 779 0.265426 0.964131 0.000000
-21.573381 -21.386997 -0.531414 799 0.265426 0.964131 0.000000
-21.575373 -21.388962 -0.522135 781 0.265426 0.964131 0.000000
-21.575014 -21.388605 -0.512788 785 0.265426 0.964131 0.000000
-21.575647 -21.389238 -0.503471 797 0.265426 0.964131 0.000000
-21.575022 -21.388626 -0.494127 795 0.265426 0.964131 0.000000
-21.574194 -21.387806 -0.484775 807 0.265426 0.964131 0.000000
-21.573582 -21.387190 -0.475431 795 0.265426 0.964131 0.000000
-21.573263 -21.386881 -0.466094 809 0.265426 0.964131 0.000000
-21.574507 -21.388115 -0.456781 815 0.265426 0.964131 0.000000
-21.574135 -21.387743 -0.447445 793 0.265426 0.964131 0.000000
-21.572884 -21.386507 -0.438087 793 0.265426 0.964131 0.000000
-21.573709 -21.387320 -0.428778 793 0.265426 0.964131 0.000000
-21.574522 -21.388134 -0.419460 799 0.265426 0.964131 0.000000
-21.574879 -21.388477 -0.410137 801 0.265426 0.964131 0.000000
-21.575174 -21.388773 -0.400813 793 0.265426 0.964131 0.000000
-21.573442 -21.387058 -0.391450 791 0.265426 0.964131 0.000000
-21.573729 -21.387342 -0.382127 773 0.265426 0.964131 0.000000
-21.573811 -21.387426 -0.372796 791 0.265426 0.964131 0.000000
-21.574100 -21.387716 -0.363473 809 0.265426 0.964131 0.000000
-21.574959 -21.388569 -0.354154 799 0.265426 0.964131 0.000000
-21.574200 -21.387815 -0.344812 787 0.265426 0.964131 0.000000
-21.574896 -21.388506 -0.335495 805 0.265426 0.964131 0.000000
-21.575600 -21.389200 -0.326168 795 0.265426 0.964131 0.000000
-21.574686 -21.388288 -0.316826 769 0.265426 0.964131 0.000000
-21.574392 -21.387999 -0.307489 745 0.265426 0.964131 0.000000
-21.573988 -21.387604 -0.298153 771 0.265426 0.964131 0.000000
-21.573576 -21.387199 -0.288816 769 0.265426 0.964131 0.000000
-21.574003 -21.387619 -0.279492 741 0.265426 0.964131 0.000000
-21.572668 -21.386297 -0.270145 739 0.265426 0.964131 0.000000
-21.572355 -21.385979 -0.260818 733 0.265426 0.964131 0.000000
-21.585218 -21.386026 -0.652908 803 0.265426 0.964131 0.000000
-21.585268 -21.386070 -0.643567 803 0.265426 0.964131 0.000000
-21.585251 -21.386057 -0.634237 793 0.265426 0.964131 0.000000
-21.584606 -21.385416 -0.624883 773 0.265426 0.964131 0.000000
-21.584219 -21.385035 -0.615537 789 0.265426 0.964131 0.000000
-21.582737 -21.383574 -0.606161 787 0.265426 0.964131 0.000000
-21.583448 -21.384275 -0.596844 791 0.265426 0.964131 0.000000
-21.586124 -21.386929 -0.587587 799 0.265426 0.964131 0.000000
-21.585104 -21.385914 -0.578217 791 0.265426 0.964131 0.000000
-21.584032 -21.384855 -0.568857 795 0.265426 0.964131 0.000000
-21.584774 -21.385595 -0.559540 793 0.265426 0.964131 0.000000
-21.584017 -21.384844 -0.550187 781 0.265426 0.964131 0.000000
-21.584034 -21.384863 -0.540856 811 0.265426 0.964131 0.000000
-21.584925 -21.385742 -0.531548 805 0.265426 0.964131 0.000000
-21.585041 -21.385857 -0.522216 781 0.265426 0.964131 0.000000
-21.585779 -21.386591 -0.512899 787 0.265426 0.964131 0.000000
-21.585260 -21.386070 -0.503554 789 0.265426 0.964131 0.000000
-21.583815 -21.384642 -0.494188 803 0.265426 0.964131 0.000000
-21.583189 -21.384029 -0.484833 809 0.265426 0.964131 0.000000
-21.583715 -21.384548 -0.475518 801 0.265426 0.964131 0.000000
-21.582466 -21.383310 -0.466160 813 0.265426 0.964131 0.000000
-21.582460 -21.383308 -0.456820 791 0.265426 0.964131 0.000000
-21.584690 -21.385515 -0.447538 785 0.265426 0.964131 0.000000
-21.584785 -21.385612 -0.438207 793 0.265426 0.964131 0.000000
-21.584051 -21.384878 -0.428864 787 0.265426 0.964131 0.000000
-21.584446 -21.385286 -0.419539 787 0.265426 0.964131 0.000000
-21.584343 -21.385172 -0.410200 787 0.265426 0.964131 0.000000
-21.583963 -21.384794 -0.400864 771 0.265426 0.964131 0.000000
-21.583158 -21.384005 -0.391511 775 0.265426 0.964131 0.000000
-21.583611 -21.384459 -0.382187 759 0.265426 0.964131 0.000000
-21.584774 -21.385611 -0.372875 771 0.265426 0.964131 0.000000
-21.584225 -21.385063 -0.363540 795 0.265426 0.964131 0.000000
-21.584406 -21.385248 -0.354208 801 0.265426 0.964131 0.000000
-21.583925 -21.384771 -0.344863 789 0.265426 0.964131 0.000000
-21.583574 -21.384422 -0.335526 795 0.265426 0.964131 0.000000
-21.584171 -21.385010 -0.326210 779 0.265426 0.964131 0.000000
-21.584137 -21.384985 -0.316870 757 0.265426 0.964131 0.000000
-21.583271 -21.384127 -0.307528 733 0.265426 0.964131 0.000000
-21.583021 -21.383877 -0.298200 729 0.265426 0.964131 0.000000
-21.583086 -21.383947 -0.288870 747 0.265426 0.964131 0.000000
-21.583183 -21.384043 -0.279538 727 0.265426 0.964131 0.000000
-21.584087 -21.384935 -0.270219 725 0.265426 0.964131 0.000000
-21.583054 -21.383923 -0.260869 745 0.265426 0.964131 0.000000
-21.598288 -21.385519 -0.653100 801 0.265426 0.964131 0.000000
-21.596769 -21.384029 -0.643715 787 0.265426 0.964131 0.000000
-21.595863 -21.383123 -0.634353 799 0.265426 0.964131 0.000000
-21.595276 -21.382545 -0.624999 769 0.265426 0.964131 0.000000
-21.595055 -21.382320 -0.615661 777 0.265426 0.964131 0.000000
-21.596115 -21.383371 -0.606350 785 0.265426 0.964131 0.000000
-21.596144 -21.383408 -0.597020 787 0.265426 0.964131 0.000000
-21.595446 -21.382710 -0.587656 787 0.265426 0.964131 0.000000
-21.595465 -21.382727 -0.578326 765 0.265426 0.964131 0.000000
-21.594799 -21.382067 -0.568972 757 0.265426 0.964131 0.000000
-21.595556 -21.382822 -0.559655 773 0.265426 0.964131 0.000000
-21.597183 -21.384436 -0.550358 777 0.265426 0.964131 0.000000
-21.595535 -21.382805 -0.540984 783 0.265426 0.964131 0.000000
-21.594398 -21.381680 -0.531615 791 0.265426 0.964131 0.000000
-21.595196 -21.382467 -0.522297 781 0.265426 0.964131 0.000000
-21.596560 -21.383816 -0.512994 797 0.265426 0.964131 0.000000
-21.596674 -21.383928 -0.503662 795 0.265426 0.964131 0.000000
-21.597033 -21.384289 -0.494339 803 0.265426 0.964131 0.000000
-21.596258 -21.383522 -0.484986 799 0.265426 0.964131 0.000000
-21.595694 -21.382963 -0.475641 787 0.265426 0.964131 0.000000
-21.595581 -21.382856 -0.466302 797 0.265426 0.964131 0.000000
-21.593605 -21.380896 -0.456921 777 0.265426 0.964131 0.000000
-21.594166 -21.381453 -0.447595 771 0.265426 0.964131 0.000000
-21.595823 -21.383095 -0.438299 791 0.265426 0.964131 0.000000
-21.594727 -21.382000 -0.428939 785 0.265426 0.964131 0.000000
-21.593260 -21.380552 -0.419583 773 0.265426 0.964131 0.000000
-21.594118 -21.381407 -0.410265 765 0.265426 0.964131 0.000000
-21.594992 -21.382273 -0.400946 777 0.265426 0.964131 0.000000
-21.594141 -21.381428 -0.391594 785 0.265426 0.964131 0.000000
-21.595007 -21.382288 -0.382276 779 0.265426 0.964131 0.000000
-21.596443 -21.383713 -0.372971 787 0.265426 0.964131 0.000000
-21.596685 -21.383945 -0.363639 787 0.265426 0.964131 0.000000
-21.595766 -21.383030 -0.354288 783 0.265426 0.964131 0.000000
-21.594969 -21.382248 -0.344945 771 0.265426 0.964131 0.000000
-21.595079 -21.382355 -0.335604 779 0.265426 0.964131 0.000000
-21.594276 -21.381567 -0.326261 789 0.265426 0.964131 0.000000
-21.592735 -21.380043 -0.316906 755 0.265426 0.964131 0.000000
-21.592121 -21.379427 -0.307562 743 0.265426 0.964131 0.000000
-21.594851 -21.382126 -0.298275 725 0.265426 0.964131 0.000000
-21.596415 -21.383688 -0.288960 713 0.265426 0.964131 0.000000
-21.594503 -21.381796 -0.279598 723 0.265426 0.964131 0.000000
-21.592892 -21.380196 -0.270243 735 0.265426 0.964131 0.000000
-21.594103 -21.381390 -0.260932 753 0.265426 0.964131 0.000000
-21.605957 -21.380049 -0.653143 789 0.265426 0.964131 0.000000
-21.604183 -21.378300 -0.643750 767 0.265426 0.964131 0.000000
-21.605467 -21.379566 -0.634448 751 0.265426 0.964131 0.000000
-21.606638 -21.380728 -0.625146 749 0.265426 0.964131 0.000000
-21.605473 -21.379576 -0.615777 765 0.265426 0.964131 0.000000
-21.605553 -21.379660 -0.606436 765 0.265426 0.964131 0.000000
-21.606419 -21.380518 -0.597118 767 0.265426 0.964131 0.000000
-21.605867 -21.379971 -0.587773 761 0.265426 0.964131 0.000000
-21.605848 -21.379942 -0.578433 753 0.265426 0.964131 0.000000
-21.605238 -21.379343 -0.569078 761 0.265426 0.964131 0.000000
-21.605204 -21.379314 -0.559738 775 0.265426 0.964131 0.000000
-21.605375 -21.379477 -0.550407 793 0.265426 0.964131 0.000000
-21.606482 -21.380579 -0.541096 795 0.265426 0.964131 0.000000
-21.606501 -21.380596 -0.531755 785 0.265426 0.964131 0.000000
-21.604689 -21.378801 -0.522373 791 0.265426 0.964131 0.000000
-21.605215 -21.379318 -0.513057 765 0.265426 0.964131 0.000000
-21.606680 -21.380768 -0.503753 773 0.265426 0.964131 0.000000
-21.607201 -21.381292 -0.494428 781 0.265426 0.964131 0.000000
-21.606850 -21.380943 -0.485081 771 0.265426 0.964131 0.000000
-21.607315 -21.381407 -0.475756 793 0.265426 0.964131 0.000000
-21.606480 -21.380577 -0.466394 797 0.265426 0.964131 0.000000
-21.606115 -21.380215 -0.457057 811 0.265426 0.964131 0.000000
-21.606472 -21.380575 -0.447723 779 0.265426 0.964131 0.000000
-21.606777 -21.380873 -0.438390 793 0.265426 0.964131 0.000000
-21.605679 -21.379782 -0.429031 785 0.265426 0.964131 0.000000
-21.605091 -21.379200 -0.419686 767 0.265426 0.964131 0.000000
-21.605659 -21.379765 -0.410360 765 0.265426 0.964131 0.000000
-21.605221 -21.379330 -0.401015 771 0.265426 0.964131 0.000000
-21.605619 -21.379723 -0.391690 785 0.265426 0.964131 0.000000
-21.605078 -21.379194 -0.382345 775 0.265426 0.964131 0.000000
-21.603550 -21.377682 -0.372980 789 0.265426 0.964131 0.000000
-21.603991 -21.378115 -0.363656 773 0.265426 0.964131 0.000000
-21.606989 -21.381079 -0.354366 779 0.265426 0.964131 0.000000
-21.606329 -21.380428 -0.345022 777 0.265426 0.964131 0.000000
-21.604534 -21.378660 -0.335660 769 0.265426 0.964131 0.000000
-21.605953 -21.380056 -0.326346 779 0.265426 0.964131 0.000000
-21.606079 -21.380178 -0.317014 739 0.265426 0.964131 0.000000
-21.605370 -21.379482 -0.307661 745 0.265426 0.964131 0.000000
-21.606520 -21.380625 -0.298349 725 0.265426 0.964131 0.000000
-21.605955 -21.380062 -0.289005 725 0.265426 0.964131 0.000000
-21.604418 -21.378544 -0.279649 743 0.265426 0.964131 0.000000
-21.603746 -21.377878 -0.270306 745 0.265426 0.964131 0.000000
-21.603958 -21.378086 -0.260973 741 0.265426 0.964131 0.000000
-21.619144 -21.379526 -0.653336 775 0.265426 0.964131 0.000000
-21.618341 -21.378736 -0.643973 757 0.265426 0.964131 0.000000
-21.618067 -21.378464 -0.634626 763 0.265426 0.964131 0.000000
-21.618311 -21.378700 -0.625293 749 0.265426 0.964131 0.000000
-21.619122 -21.379499 -0.615975 755 0.265426 0.964131 0.000000
-21.618788 -21.379173 -0.606618 769 0.265426 0.964131 0.000000
-21.617884 -21.378286 -0.597256 771 0.265426 0.964131 0.000000
-21.615925 -21.376341 -0.587865 741 0.265426 0.964131 0.000000
-21.614912 -21.375347 -0.578495 765 0.265426 0.964131 0.000000
-21.616602 -21.377012 -0.569198 771 0.265426 0.964131 0.000000
-21.616413 -21.376827 -0.559860 781 0.265426 0.964131 0.000000
-21.616171 -21.376581 -0.550512 771 0.265426 0.964131 0.000000
-21.618567 -21.378958 -0.541229 773 0.265426 0.964131 0.000000
-21.617802 -21.378201 -0.531876 765 0.265426 0.964131 0.000000
-21.616312 -21.376734 -0.522500 767 0.265426 0.964131 0.000000
-21.617517 -21.377922 -0.513188 759 0.265426 0.964131 0.000000
-21.619545 -21.379930 -0.503898 745 0.265426 0.964131 0.000000
-21.618624 -21.379015 -0.494537 761 0.265426 0.964131 0.000000
-21.616436 -21.376844 -0.485148 757 0.265426 0.964131 0.000000
-21.617416 -21.377829 -0.475828 769 0.265426 0.964131 0.000000
-21.616276 -21.376696 -0.466469 775 0.265426 0.964131 0.000000
-21.614777 -21.375210 -0.457093 773 0.265426 0.964131 0.000000
-21.616375 -21.376785 -0.447788 775 0.265426 0.964131 0.000000
-21.617939 -21.378334 -0.438482 793 0.265426 0.964131 0.000000
-21.618546 -21.378942 -0.429156 771 0.265426 0.964131 0.000000
-21.618948 -21.379341 -0.419832 751 0.265426 0.964131 0.000000
-21.617584 -21.377995 -0.410465 751 0.265426 0.964131 0.000000
-21.615431 -21.375856 -0.401086 745 0.265426 0.964131 0.000000
-21.615784 -21.376209 -0.391752 755 0.265426 0.964131 0.000000
-21.616747 -21.377167 -0.382432 745 0.265426 0.964131 0.000000
-21.615889 -21.376316 -0.373080 755 0.265426 0.964131 0.000000
-21.616602 -21.377018 -0.363753 771 0.265426 0.964131 0.000000
-21.617413 -21.377817 -0.354435 769 0.265426 0.964131 0.000000
-21.616241 -21.376659 -0.345076 753 0.265426 0.964131 0.000000
-21.615059 -21.375496 -0.335718 761 0.265426 0.964131 0.000000
-21.617434 -21.377838 -0.326414 759 0.265426 0.964131 0.000000
-21.617798 -21.378204 -0.317091 759 0.265426 0.964131 0.000000
-21.614910 -21.375345 -0.307708 739 0.265426 0.964131 0.000000
-21.616220 -21.376637 -0.298385 729 0.265426 0.964131 0.000000
-21.617071 -21.377481 -0.289067 721 0.265426 0.964131 0.000000
-21.616196 -21.376619 -0.279715 719 0.265426 0.964131 0.000000
-21.616356 -21.376783 -0.270383 719 0.265426 0.964131 0.000000
-21.616520 -21.376938 -0.261052 727 0.265426 0.964131 0.000000
-21.629633 -21.376423 -0.653454 783 0.265426 0.964131 0.000000
-21.629143 -21.375940 -0.644098 769 0.265426 0.964131 0.000000
-21.628145 -21.374947 -0.634728 755 0.265426 0.964131 0.000000
-21.626089 -21.372913 -0.625327 757 0.265426 0.964131 0.000000
-21.625546 -21.372387 -0.615972 739 0.265426 0.964131 0.000000
-21.628336 -21.375137 -0.606705 749 0.265426 0.964131 0.000000
-21.628317 -21.375122 -0.597365 759 0.265426 0.964131 0.000000
-21.627459 -21.374273 -0.587993 747 0.265426 0.964131 0.000000
-21.625660 -21.372492 -0.578610 757 0.265426 0.964131 0.000000
-21.624727 -21.371576 -0.569239 763 0.265426 0.964131 0.000000
-21.625853 -21.372684 -0.559928 737 0.265426 0.964131 0.000000
-21.627636 -21.374458 -0.550640 759 0.265426 0.964131 0.000000
-21.628908 -21.375702 -0.541328 769 0.265426 0.964131 0.000000
-21.627974 -21.374788 -0.531967 761 0.265426 0.964131 0.000000
-21.627047 -21.373867 -0.522596 737 0.265426 0.964131 0.000000
-21.626387 -21.373213 -0.513242 747 0.265426 0.964131 0.000000
-21.627586 -21.374409 -0.503930 751 0.265426 0.964131 0.000000
-21.627857 -21.374668 -0.494597 739 0.265426 0.964131 0.000000
-21.625462 -21.372309 -0.485200 743 0.265426 0.964131 0.000000
-21.625874 -21.372715 -0.475876 739 0.265426 0.964131 0.000000
-21.627384 -21.374203 -0.466561 751 0.265426 0.964131 0.000000
-21.628422 -21.375235 -0.457251 753 0.265426 0.964131 0.000000
-21.628408 -21.375225 -0.447910 745 0.265426 0.964131 0.000000
-21.628466 -21.375275 -0.438570 763 0.265426 0.964131 0.000000
-21.628408 -21.375214 -0.429230 753 0.265426 0.964131 0.000000
-21.626205 -21.373045 -0.419841 735 0.265426 0.964131 0.000000
-21.625416 -21.372269 -0.410489 735 0.265426 0.964131 0.000000
-21.625757 -21.372599 -0.401155 743 0.265426 0.964131 0.000000
-21.624285 -21.371147 -0.391789 729 0.265426 0.964131 0.000000
-21.625566 -21.372414 -0.382477 745 0.265426 0.964131 0.000000
-21.627516 -21.374344 -0.373167 747 0.265426 0.964131 0.000000
-21.625990 -21.372829 -0.363802 721 0.265426 0.964131 0.000000
-21.625753 -21.372604 -0.354464 731 0.265426 0.964131 0.000000
-21.625727 -21.372568 -0.345124 725 0.265426 0.964131 0.000000
-21.624922 -21.371780 -0.335772 725 0.265426 0.964131 0.000000
-21.625772 -21.372612 -0.326443 733 0.265426 0.964131 0.000000
-21.627501 -21.374325 -0.317136 735 0.265426 0.964131 0.000000
-21.626797 -21.373632 -0.307783 727 0.265426 0.964131 0.000000
-21.624722 -21.371588 -0.298423 701 0.265426 0.964131 0.000000
-21.625719 -21.372574 -0.289093 703 0.265426 0.964131 0.000000
-21.626354 -21.373194 -0.279766 707 0.265426 0.964131 0.000000
-21.625011 -21.371866 -0.270409 713 0.265426 0.964131 0.000000
-21.626585 -21.373421 -0.261094 743 0.265426 0.964131 0.000000
