80
-22.235405 -20.699581 -0.644592 295 -0.548674 0.836037 0.000000
-22.236084 -20.700214 -0.635276 285 -0.548674 0.836037 0.000000
-22.235485 -20.699648 -0.625931 285 -0.548674 0.836037 0.000000
-22.234234 -20.698483 -0.616563 289 -0.548674 0.836037 0.000000
-22.233192 -20.697521 -0.607202 279 -0.548674 0.836037 0.000000
-22.233316 -20.697636 -0.597871 267 -0.548674 0.836037 0.000000
-22.235758 -20.699909 -0.588598 269 -0.548674 0.836037 0.000000
-22.233532 -20.697836 -0.579208 261 -0.548674 0.836037 0.000000
-22.229864 -20.694422 -0.569783 261 -0.548674 0.836037 0.000000
-22.230202 -20.694731 -0.560469 251 -0.548674 0.836037 0.000000
-22.231081 -20.695549 -0.551161 257 -0.548674 0.836037 0.000000
-22.231848 -20.696266 -0.541843 261 -0.548674 0.836037 0.000000
-22.232233 -20.696625 -0.532520 265 -0.548674 0.836037 0.000000
-22.232246 -20.696638 -0.523189 273 -0.548674 0.836037 0.000000
-22.232584 -20.696947 -0.513866 295 -0.548674 0.836037 0.000000
-22.231405 -20.695852 -0.504507 287 -0.548674 0.836037 0.000000
-22.229742 -20.694307 -0.495142 317 -0.548674 0.836037 0.000000
-22.230667 -20.695164 -0.485833 289 -0.548674 0.836037 0.000000
-22.234303 -20.698555 -0.476579 273 -0.548674 0.836037 0.000000
-22.235252 -20.699442 -0.467270 285 -0.548674 0.836037 0.000000
-22.233976 -20.698246 -0.457911 269 -0.548674 0.836037 0.000000
-22.231783 -20.696213 -0.448542 287 -0.548674 0.836037 0.000000
-22.231236 -20.695702 -0.439197 249 -0.548674 0.836037 0.000000
-22.230907 -20.695389 -0.429860 281 -0.548674 0.836037 0.000000
-22.230019 -20.694567 -0.411187 277 -0.548674 0.836037 0.000000
-22.233271 -20.697588 -0.401917 259 -0.548674 0.836037 0.000000
-22.235229 -20.699423 -0.392628 279 -0.548674 0.836037 0.000000
-22.233072 -20.697407 -0.383258 259 -0.548674 0.836037 0.000000
-22.231554 -20.696003 -0.373902 259 -0.548674 0.836037 0.000000
-22.231312 -20.695772 -0.364564 255 -0.548674 0.836037 0.000000
-22.229731 -20.694304 -0.355209 245 -0.548674 0.836037 0.000000
-22.230890 -20.695374 -0.345908 233 -0.548674 0.836037 0.000000
-22.233692 -20.697983 -0.336621 219 -0.548674 0.836037 0.000000
-22.235104 -20.699305 -0.327308 251 -0.548674 0.836037 0.000000
-22.231199 -20.695675 -0.317924 227 -0.548674 0.836037 0.000000
-22.230005 -20.694555 -0.308575 221 -0.548674 0.836037 0.000000
-22.231939 -20.696358 -0.299277 209 -0.548674 0.836037 0.000000
-22.231689 -20.696121 -0.289939 215 -0.548674 0.836037 0.000000
-22.231163 -20.695637 -0.280604 233 -0.548674 0.836037 0.000000
-22.229885 -20.694439 -0.271265 187 -0.548674 0.836037 0.000000
-22.286736 -20.734146 -0.636537 219 -0.548674 0.836037 0.000000
-22.284739 -20.732296 -0.627136 223 -0.548674 0.836037 0.000000
-22.281021 -20.728838 -0.617680 237 -0.548674 0.836037 0.000000
-22.281803 -20.729568 -0.608353 211 -0.548674 0.836037 0.000000
-22.280710 -20.728542 -0.598973 217 -0.548674 0.836037 0.000000
-22.278276 -20.726278 -0.589555 209 -0.548674 0.836037 0.000000
-22.281622 -20.729389 -0.580294 215 -0.548674 0.836037 0.000000
-22.282549 -20.730257 -0.570975 215 -0.548674 0.836037 0.000000
-22.279884 -20.727772 -0.561560 201 -0.548674 0.836037 0.000000
-22.280231 -20.728102 -0.552216 243 -0.548674 0.836037 0.000000
-22.282015 -20.729757 -0.542909 237 -0.548674 0.836037 0.000000
-22.281385 -20.729177 -0.533545 233 -0.548674 0.836037 0.000000
-22.279942 -20.727837 -0.524168 197 -0.548674 0.836037 0.000000
-22.280231 -20.728094 -0.514825 201 -0.548674 0.836037 0.000000
-22.280132 -20.728003 -0.505476 211 -0.548674 0.836037 0.000000
-22.279861 -20.727762 -0.496118 237 -0.548674 0.836037 0.000000
-22.277895 -20.725922 -0.486727 235 -0.548674 0.836037 0.000000
-22.280249 -20.728111 -0.477434 231 -0.548674 0.836037 0.000000
-22.283613 -20.731251 -0.468152 243 -0.548674 0.836037 0.000000
-22.282284 -20.730009 -0.458775 223 -0.548674 0.836037 0.000000
-22.281525 -20.729301 -0.449412 219 -0.548674 0.836037 0.000000
-22.282856 -20.730547 -0.440089 215 -0.548674 0.836037 0.000000
-22.281008 -20.728828 -0.430706 183 -0.548674 0.836037 0.000000
-22.281013 -20.728834 -0.421366 193 -0.548674 0.836037 0.000000
-22.283560 -20.731201 -0.412062 205 -0.548674 0.836037 0.000000
-22.281778 -20.729549 -0.402678 197 -0.548674 0.836037 0.000000
-22.280367 -20.728231 -0.393311 213 -0.548674 0.836037 0.000000
-22.283081 -20.730759 -0.384005 199 -0.548674 0.836037 0.000000
-22.284880 -20.732428 -0.374688 179 -0.548674 0.836037 0.000000
-22.280415 -20.728271 -0.365270 173 -0.548674 0.836037 0.000000
-22.279211 -20.727158 -0.355901 173 -0.548674 0.836037 0.000000
-22.281113 -20.728924 -0.346583 147 -0.548674 0.836037 0.000000
-22.280275 -20.728153 -0.337231 151 -0.548674 0.836037 0.000000
-22.282661 -20.730368 -0.327918 143 -0.548674 0.836037 0.000000
-22.283855 -20.731476 -0.318587 129 -0.548674 0.836037 0.000000
-22.281559 -20.729347 -0.309208 87 -0.548674 0.836037 0.000000
-22.280983 -20.728813 -0.299853 131 -0.548674 0.836037 0.000000
-22.280201 -20.728073 -0.290490 145 -0.548674 0.836037 0.000000
-22.277641 -20.725697 -0.281114 161 -0.548674 0.836037 0.000000
-22.278725 -20.726704 -0.271784 137 -0.548674 0.836037 0.000000
