310
-22.214821 -20.734058 -0.635664 337 0.609637 0.792681 0.000000
-22.214437 -20.733698 -0.626318 293 0.609637 0.792681 0.000000
-22.215696 -20.734873 -0.617015 311 0.609637 0.792681 0.000000
-22.214289 -20.733555 -0.607639 301 0.609637 0.792681 0.000000
-22.212759 -20.732130 -0.598263 341 0.609637 0.792681 0.000000
-22.213001 -20.732365 -0.588940 305 0.609637 0.792681 0.000000
-22.212162 -20.731583 -0.579578 311 0.609637 0.792681 0.000000
-22.212292 -20.731705 -0.570256 297 0.609637 0.792681 0.000000
-22.213020 -20.732372 -0.560939 351 0.609637 0.792681 0.000000
-22.213728 -20.733036 -0.551622 363 0.609637 0.792681 0.000000
-22.210741 -20.730247 -0.542210 321 0.609637 0.792681 0.000000
-22.210651 -20.730165 -0.532881 347 0.609637 0.792681 0.000000
-22.212210 -20.731621 -0.523576 331 0.609637 0.792681 0.000000
-22.209766 -20.729338 -0.514189 339 0.609637 0.792681 0.000000
-22.209291 -20.728901 -0.504843 337 0.609637 0.792681 0.000000
-22.210850 -20.730358 -0.495548 359 0.609637 0.792681 0.000000
-22.212778 -20.732151 -0.486260 353 0.609637 0.792681 0.000000
-22.211227 -20.730705 -0.476894 327 0.609637 0.792681 0.000000
-22.213039 -20.732405 -0.467597 333 0.609637 0.792681 0.000000
-22.213423 -20.732752 -0.458273 349 0.609637 0.792681 0.000000
-22.212116 -20.731546 -0.448915 339 0.609637 0.792681 0.000000
-22.212847 -20.732216 -0.420928 371 0.609637 0.792681 0.000000
-22.210634 -20.730160 -0.411558 353 0.609637 0.792681 0.000000
-22.210251 -20.729799 -0.402221 319 0.609637 0.792681 0.000000
-22.212694 -20.732073 -0.392928 343 0.609637 0.792681 0.000000
-22.214220 -20.733503 -0.383624 313 0.609637 0.792681 0.000000
-22.215597 -20.734785 -0.374311 375 0.609637 0.792681 0.000000
-22.213219 -20.732569 -0.364943 341 0.609637 0.792681 0.000000
-22.208380 -20.728050 -0.355528 339 0.609637 0.792681 0.000000
-22.211012 -20.730515 -0.346243 319 0.609637 0.792681 0.000000
-22.212545 -20.731937 -0.336928 323 0.609637 0.792681 0.000000
-22.211231 -20.730707 -0.327581 359 0.609637 0.792681 0.000000
-22.212420 -20.731825 -0.318269 331 0.609637 0.792681 0.000000
-22.211744 -20.731194 -0.308925 341 0.609637 0.792681 0.000000
-22.210955 -20.730463 -0.299582 299 0.609637 0.792681 0.000000
-22.211027 -20.730526 -0.290252 325 0.609637 0.792681 0.000000
-22.209951 -20.729527 -0.280911 307 0.609637 0.792681 0.000000
-22.221571 -20.727903 -0.635683 289 0.609637 0.792681 0.000000
-22.222357 -20.728643 -0.626376 291 0.609637 0.792681 0.000000
-22.224483 -20.730621 -0.617095 317 0.609637 0.792681 0.000000
-22.222311 -20.728596 -0.607696 323 0.609637 0.792681 0.000000
-22.215174 -20.721939 -0.598172 319 0.609637 0.792681 0.000000
-22.217125 -20.723764 -0.588884 305 0.609637 0.792681 0.000000
-22.219610 -20.726084 -0.579620 323 0.609637 0.792681 0.000000
-22.218775 -20.725294 -0.570258 351 0.609637 0.792681 0.000000
-22.219332 -20.725824 -0.560942 311 0.609637 0.792681 0.000000
-22.218498 -20.725037 -0.551590 341 0.609637 0.792681 0.000000
-22.217871 -20.724453 -0.542236 309 0.609637 0.792681 0.000000
-22.215155 -20.721924 -0.532841 349 0.609637 0.792681 0.000000
-22.217468 -20.724081 -0.523559 343 0.609637 0.792681 0.000000
-22.218493 -20.725037 -0.514249 331 0.609637 0.792681 0.000000
-22.218653 -20.725182 -0.504927 309 0.609637 0.792681 0.000000
-22.219358 -20.725843 -0.495601 307 0.609637 0.792681 0.000000
-22.215729 -20.722458 -0.486194 325 0.609637 0.792681 0.000000
-22.217648 -20.724245 -0.476906 329 0.609637 0.792681 0.000000
-22.220327 -20.726748 -0.467621 315 0.609637 0.792681 0.000000
-22.221813 -20.728134 -0.458327 331 0.609637 0.792681 0.000000
-22.220100 -20.726542 -0.448953 315 0.609637 0.792681 0.000000
-22.217848 -20.724438 -0.439573 359 0.609637 0.792681 0.000000
-22.222277 -20.728577 -0.430332 331 0.609637 0.792681 0.000000
-22.223928 -20.730106 -0.421026 337 0.609637 0.792681 0.000000
-22.221550 -20.727890 -0.411648 353 0.609637 0.792681 0.000000
-22.221327 -20.727684 -0.402310 345 0.609637 0.792681 0.000000
-22.220030 -20.726469 -0.392952 343 0.609637 0.792681 0.000000
-22.218449 -20.724998 -0.383596 331 0.609637 0.792681 0.000000
-22.219177 -20.725679 -0.374269 355 0.609637 0.792681 0.000000
-22.218464 -20.725014 -0.364926 321 0.609637 0.792681 0.000000
-22.216133 -20.722836 -0.355558 313 0.609637 0.792681 0.000000
-22.214188 -20.721020 -0.346196 321 0.609637 0.792681 0.000000
-22.211958 -20.718952 -0.336836 319 0.609637 0.792681 0.000000
-22.214394 -20.721216 -0.327543 299 0.609637 0.792681 0.000000
-22.219748 -20.726215 -0.318283 323 0.609637 0.792681 0.000000
-22.224373 -20.730524 -0.309019 323 0.609637 0.792681 0.000000
-22.223787 -20.729986 -0.299674 305 0.609637 0.792681 0.000000
-22.216959 -20.723619 -0.290258 281 0.609637 0.792681 0.000000
-22.216600 -20.723278 -0.280921 293 0.609637 0.792681 0.000000
-22.227205 -20.720474 -0.635674 319 0.609637 0.792681 0.000000
-22.227234 -20.720497 -0.626333 327 0.609637 0.792681 0.000000
-22.227861 -20.721085 -0.617017 351 0.609637 0.792681 0.000000
-22.227352 -20.720610 -0.607662 335 0.609637 0.792681 0.000000
-22.228287 -20.721483 -0.598353 321 0.609637 0.792681 0.000000
-22.225584 -20.718966 -0.588948 313 0.609637 0.792681 0.000000
-22.225138 -20.718544 -0.579602 305 0.609637 0.792681 0.000000
-22.228741 -20.721907 -0.570358 323 0.609637 0.792681 0.000000
-22.227917 -20.721127 -0.561005 337 0.609637 0.792681 0.000000
-22.225307 -20.718697 -0.551600 349 0.609637 0.792681 0.000000
-22.227886 -20.721104 -0.542335 325 0.609637 0.792681 0.000000
-22.232136 -20.725071 -0.533095 351 0.609637 0.792681 0.000000
-22.232029 -20.724972 -0.523756 325 0.609637 0.792681 0.000000
-22.228783 -20.721937 -0.514346 337 0.609637 0.792681 0.000000
-22.226963 -20.720251 -0.504973 355 0.609637 0.792681 0.000000
-22.226706 -20.720005 -0.495635 347 0.609637 0.792681 0.000000
-22.224785 -20.718210 -0.486253 333 0.609637 0.792681 0.000000
-22.226004 -20.719351 -0.476951 351 0.609637 0.792681 0.000000
-22.230129 -20.723202 -0.467703 315 0.609637 0.792681 0.000000
-22.230185 -20.723251 -0.458372 295 0.609637 0.792681 0.000000
-22.228518 -20.721697 -0.448997 319 0.609637 0.792681 0.000000
-22.227867 -20.721098 -0.439653 323 0.609637 0.792681 0.000000
-22.227058 -20.720341 -0.430300 343 0.609637 0.792681 0.000000
-22.225065 -20.718473 -0.420929 309 0.609637 0.792681 0.000000
-22.226118 -20.719456 -0.411619 345 0.609637 0.792681 0.000000
-22.228239 -20.721441 -0.402319 365 0.609637 0.792681 0.000000
-22.228975 -20.722130 -0.393001 361 0.609637 0.792681 0.000000
-22.226810 -20.720112 -0.383632 363 0.609637 0.792681 0.000000
-22.223644 -20.717152 -0.374241 373 0.609637 0.792681 0.000000
-22.224207 -20.717672 -0.364926 349 0.609637 0.792681 0.000000
-22.225302 -20.718702 -0.355605 321 0.609637 0.792681 0.000000
-22.226835 -20.720123 -0.346300 299 0.609637 0.792681 0.000000
-22.226265 -20.719599 -0.336956 305 0.609637 0.792681 0.000000
-22.224247 -20.717710 -0.327594 301 0.609637 0.792681 0.000000
-22.225277 -20.718676 -0.318274 305 0.609637 0.792681 0.000000
-22.227222 -20.720495 -0.308976 295 0.609637 0.792681 0.000000
-22.225853 -20.719210 -0.299619 285 0.609637 0.792681 0.000000
-22.226402 -20.719732 -0.290303 303 0.609637 0.792681 0.000000
-22.225389 -20.718786 -0.280952 315 0.609637 0.792681 0.000000
-22.234142 -20.713995 -0.635684 299 0.609637 0.792681 0.000000
-22.232828 -20.712767 -0.626316 273 0.609637 0.792681 0.000000
-22.235546 -20.715302 -0.617050 333 0.609637 0.792681 0.000000
-22.236441 -20.716127 -0.607741 337 0.609637 0.792681 0.000000
-22.235609 -20.715355 -0.598379 321 0.609637 0.792681 0.000000
-22.236332 -20.716030 -0.589062 311 0.609637 0.792681 0.000000
-22.235279 -20.715052 -0.579702 281 0.609637 0.792681 0.000000
-22.236687 -20.716360 -0.570398 289 0.609637 0.792681 0.000000
-22.236336 -20.716040 -0.561061 317 0.609637 0.792681 0.000000
-22.235346 -20.715111 -0.551700 319 0.609637 0.792681 0.000000
-22.235470 -20.715225 -0.542369 311 0.609637 0.792681 0.000000
-22.233507 -20.713396 -0.532977 305 0.609637 0.792681 0.000000
-22.235500 -20.715254 -0.523698 333 0.609637 0.792681 0.000000
-22.236200 -20.715912 -0.514372 343 0.609637 0.792681 0.000000
-22.237371 -20.717001 -0.505070 329 0.609637 0.792681 0.000000
-22.237762 -20.717373 -0.495736 329 0.609637 0.792681 0.000000
-22.234182 -20.714029 -0.486320 301 0.609637 0.792681 0.000000
-22.234186 -20.714033 -0.476989 303 0.609637 0.792681 0.000000
-22.234285 -20.714128 -0.467658 327 0.609637 0.792681 0.000000
-22.233629 -20.713520 -0.458314 309 0.609637 0.792681 0.000000
-22.235188 -20.714975 -0.449009 325 0.609637 0.792681 0.000000
-22.237476 -20.717100 -0.439718 297 0.609637 0.792681 0.000000
-22.237633 -20.717253 -0.430386 287 0.609637 0.792681 0.000000
-22.235641 -20.715401 -0.421014 313 0.609637 0.792681 0.000000
-22.231022 -20.711086 -0.411598 311 0.609637 0.792681 0.000000
-22.232397 -20.712368 -0.402284 327 0.609637 0.792681 0.000000
-22.234903 -20.714705 -0.393001 357 0.609637 0.792681 0.000000
-22.234173 -20.714027 -0.383647 345 0.609637 0.792681 0.000000
-22.235441 -20.715206 -0.374335 331 0.609637 0.792681 0.000000
-22.232857 -20.712799 -0.364959 347 0.609637 0.792681 0.000000
-22.233034 -20.712969 -0.355637 329 0.609637 0.792681 0.000000
-22.237930 -20.717535 -0.346381 313 0.609637 0.792681 0.000000
-22.235014 -20.714806 -0.336998 313 0.609637 0.792681 0.000000
-22.232630 -20.712595 -0.327630 317 0.609637 0.792681 0.000000
-22.236292 -20.715996 -0.318346 337 0.609637 0.792681 0.000000
-22.235493 -20.715261 -0.309003 347 0.609637 0.792681 0.000000
-22.229889 -20.710035 -0.299596 269 0.609637 0.792681 0.000000
-22.230713 -20.710808 -0.290278 287 0.609637 0.792681 0.000000
-22.234037 -20.713896 -0.280986 317 0.609637 0.792681 0.000000
-22.240793 -20.706757 -0.635689 315 0.609637 0.792681 0.000000
-22.245476 -20.711124 -0.626484 331 0.609637 0.792681 0.000000
-22.245882 -20.711504 -0.617160 315 0.609637 0.792681 0.000000
-22.242645 -20.708490 -0.607731 311 0.609637 0.792681 0.000000
-22.242514 -20.708361 -0.598392 301 0.609637 0.792681 0.000000
-22.241951 -20.707842 -0.589047 297 0.609637 0.792681 0.000000
-22.242403 -20.708261 -0.579722 277 0.609637 0.792681 0.000000
-22.243717 -20.709480 -0.570420 283 0.609637 0.792681 0.000000
-22.244312 -20.710039 -0.561094 331 0.609637 0.792681 0.000000
-22.245302 -20.710958 -0.551784 327 0.609637 0.792681 0.000000
-22.245054 -20.710733 -0.542436 295 0.609637 0.792681 0.000000
-22.246193 -20.711784 -0.533126 331 0.609637 0.792681 0.000000
-22.243849 -20.709606 -0.523737 341 0.609637 0.792681 0.000000
-22.245193 -20.710863 -0.514434 363 0.609637 0.792681 0.000000
-22.245260 -20.710918 -0.505094 297 0.609637 0.792681 0.000000
-22.243717 -20.709480 -0.495728 305 0.609637 0.792681 0.000000
-22.242863 -20.708689 -0.486376 323 0.609637 0.792681 0.000000
-22.242758 -20.708591 -0.477036 331 0.609637 0.792681 0.000000
-22.243597 -20.709375 -0.467718 361 0.609637 0.792681 0.000000
-22.245314 -20.710970 -0.458422 369 0.609637 0.792681 0.000000
-22.246328 -20.711920 -0.449102 373 0.609637 0.792681 0.000000
-22.242039 -20.707928 -0.439682 365 0.609637 0.792681 0.000000
-22.239504 -20.705570 -0.430296 323 0.609637 0.792681 0.000000
-22.240934 -20.706898 -0.420992 323 0.609637 0.792681 0.000000
-22.241301 -20.707233 -0.411669 329 0.609637 0.792681 0.000000
-22.241392 -20.707323 -0.402327 367 0.609637 0.792681 0.000000
-22.241547 -20.707460 -0.393006 393 0.609637 0.792681 0.000000
-22.242111 -20.707996 -0.383680 351 0.609637 0.792681 0.000000
-22.245514 -20.711161 -0.374398 321 0.609637 0.792681 0.000000
-22.245920 -20.711544 -0.365074 325 0.609637 0.792681 0.000000
-22.245523 -20.711172 -0.355728 345 0.609637 0.792681 0.000000
-22.245480 -20.711126 -0.346398 345 0.609637 0.792681 0.000000
-22.242565 -20.708410 -0.337015 297 0.609637 0.792681 0.000000
-22.244936 -20.710625 -0.327712 315 0.609637 0.792681 0.000000
-22.246305 -20.711903 -0.318399 337 0.609637 0.792681 0.000000
-22.242090 -20.707979 -0.309009 345 0.609637 0.792681 0.000000
-22.240444 -20.706444 -0.299654 331 0.609637 0.792681 0.000000
-22.241480 -20.707399 -0.290334 301 0.609637 0.792681 0.000000
-22.240469 -20.706467 -0.280983 287 0.609637 0.792681 0.000000
-22.251099 -20.703617 -0.635806 323 0.609637 0.792681 0.000000
-22.249037 -20.701708 -0.626415 323 0.609637 0.792681 0.000000
-22.250895 -20.703430 -0.617127 285 0.609637 0.792681 0.000000
-22.249157 -20.701820 -0.607743 285 0.609637 0.792681 0.000000
-22.247906 -20.700657 -0.598375 261 0.609637 0.792681 0.000000
-22.248840 -20.701530 -0.589066 279 0.609637 0.792681 0.000000
-22.248167 -20.700897 -0.579712 259 0.609637 0.792681 0.000000
-22.249313 -20.701967 -0.570401 307 0.609637 0.792681 0.000000
-22.253452 -20.705816 -0.561172 319 0.609637 0.792681 0.000000
-22.253424 -20.705797 -0.551832 339 0.609637 0.792681 0.000000
-22.249153 -20.701817 -0.542392 319 0.609637 0.792681 0.000000
-22.246058 -20.698942 -0.532980 311 0.609637 0.792681 0.000000
-22.248476 -20.701195 -0.523698 327 0.609637 0.792681 0.000000
-22.252558 -20.705002 -0.514459 353 0.609637 0.792681 0.000000
-22.252081 -20.704552 -0.505113 337 0.609637 0.792681 0.000000
-22.251715 -20.704205 -0.495767 311 0.609637 0.792681 0.000000
-22.254660 -20.706951 -0.486499 321 0.609637 0.792681 0.000000
-22.254602 -20.706903 -0.477159 341 0.609637 0.792681 0.000000
-22.253155 -20.705555 -0.467792 367 0.609637 0.792681 0.000000
-22.253679 -20.706045 -0.458467 381 0.609637 0.792681 0.000000
-22.254110 -20.706448 -0.449133 349 0.609637 0.792681 0.000000
-22.248047 -20.700802 -0.439680 343 0.609637 0.792681 0.000000
-22.244724 -20.697716 -0.430280 325 0.609637 0.792681 0.000000
-22.249908 -20.702541 -0.421042 343 0.609637 0.792681 0.000000
-22.251926 -20.704416 -0.411753 331 0.609637 0.792681 0.000000
-22.251108 -20.703657 -0.402400 339 0.609637 0.792681 0.000000
-22.251516 -20.704037 -0.393066 303 0.609637 0.792681 0.000000
-22.249626 -20.702282 -0.383703 305 0.609637 0.792681 0.000000
-22.246286 -20.699169 -0.374314 327 0.609637 0.792681 0.000000
-22.250486 -20.703083 -0.365045 315 0.609637 0.792681 0.000000
-22.251049 -20.703604 -0.355719 307 0.609637 0.792681 0.000000
-22.248508 -20.701241 -0.346343 329 0.609637 0.792681 0.000000
-22.253780 -20.706150 -0.337093 321 0.609637 0.792681 0.000000
-22.253366 -20.705765 -0.327747 325 0.609637 0.792681 0.000000
-22.250603 -20.703197 -0.318373 333 0.609637 0.792681 0.000000
-22.249281 -20.701963 -0.309025 325 0.609637 0.792681 0.000000
-22.249989 -20.702625 -0.299698 351 0.609637 0.792681 0.000000
-22.252146 -20.704630 -0.290398 355 0.609637 0.792681 0.000000
-22.249146 -20.701843 -0.281015 311 0.609637 0.792681 0.000000
-22.257908 -20.696817 -0.635818 289 0.609637 0.792681 0.000000
-22.260571 -20.699295 -0.626553 263 0.609637 0.792681 0.000000
-22.261103 -20.699776 -0.617237 265 0.609637 0.792681 0.000000
-22.261705 -20.700344 -0.607912 299 0.609637 0.792681 0.000000
-22.261150 -20.699831 -0.598557 291 0.609637 0.792681 0.000000
-22.260168 -20.698910 -0.589196 305 0.609637 0.792681 0.000000
-22.260723 -20.699425 -0.579870 253 0.609637 0.792681 0.000000
-22.256399 -20.695417 -0.570420 273 0.609637 0.792681 0.000000
-22.255836 -20.694885 -0.561065 285 0.609637 0.792681 0.000000
-22.258535 -20.697392 -0.551800 339 0.609637 0.792681 0.000000
-22.257587 -20.696510 -0.542439 331 0.609637 0.792681 0.000000
-22.257008 -20.695980 -0.533084 337 0.609637 0.792681 0.000000
-22.258619 -20.697477 -0.523788 291 0.609637 0.792681 0.000000
-22.260399 -20.699137 -0.514492 325 0.609637 0.792681 0.000000
-22.262020 -20.700644 -0.505196 315 0.609637 0.792681 0.000000
-22.260098 -20.698845 -0.495814 315 0.609637 0.792681 0.000000
-22.259779 -20.698549 -0.486467 305 0.609637 0.792681 0.000000
-22.260746 -20.699450 -0.477158 311 0.609637 0.792681 0.000000
-22.260956 -20.699646 -0.467815 329 0.609637 0.792681 0.000000
-22.259941 -20.698698 -0.458465 339 0.609637 0.792681 0.000000
-22.257360 -20.696304 -0.449068 353 0.609637 0.792681 0.000000
-22.257513 -20.696444 -0.439737 331 0.609637 0.792681 0.000000
-22.259380 -20.698185 -0.430439 345 0.609637 0.792681 0.000000
-22.257980 -20.696875 -0.421082 327 0.609637 0.792681 0.000000
-22.258322 -20.697205 -0.411749 335 0.609637 0.792681 0.000000
-22.258427 -20.697292 -0.402417 331 0.609637 0.792681 0.000000
-22.259270 -20.698076 -0.393099 369 0.609637 0.792681 0.000000
-22.258121 -20.697010 -0.383740 337 0.609637 0.792681 0.000000
-22.254238 -20.693407 -0.374336 331 0.609637 0.792681 0.000000
-22.251915 -20.691248 -0.364967 339 0.609637 0.792681 0.000000
-22.255476 -20.694553 -0.355694 347 0.609637 0.792681 0.000000
-22.260630 -20.699354 -0.346435 315 0.609637 0.792681 0.000000
-22.261099 -20.699787 -0.337111 347 0.609637 0.792681 0.000000
-22.259998 -20.698755 -0.327761 327 0.609637 0.792681 0.000000
-22.261414 -20.700069 -0.318438 351 0.609637 0.792681 0.000000
-22.261049 -20.699738 -0.309101 333 0.609637 0.792681 0.000000
-22.261005 -20.699692 -0.299761 389 0.609637 0.792681 0.000000
-22.259573 -20.698368 -0.290404 331 0.609637 0.792681 0.000000
-22.258190 -20.697084 -0.281057 349 0.609637 0.792681 0.000000
-22.265224 -20.690569 -0.635845 291 0.609637 0.792681 0.000000
-22.264938 -20.690313 -0.626497 259 0.609637 0.792681 0.000000
-22.268887 -20.693970 -0.617270 259 0.609637 0.792681 0.000000
-22.267904 -20.693062 -0.607909 243 0.609637 0.792681 0.000000
-22.266472 -20.691738 -0.598532 273 0.609637 0.792681 0.000000
-22.270420 -20.695395 -0.589295 305 0.609637 0.792681 0.000000
-22.269209 -20.694277 -0.579926 289 0.609637 0.792681 0.000000
-22.264513 -20.689915 -0.570460 297 0.609637 0.792681 0.000000
-22.263626 -20.689083 -0.561108 333 0.609637 0.792681 0.000000
-22.264719 -20.690098 -0.551797 331 0.609637 0.792681 0.000000
-22.265266 -20.690605 -0.542472 361 0.609637 0.792681 0.000000
-22.265650 -20.690969 -0.533148 333 0.609637 0.792681 0.000000
-22.267752 -20.692928 -0.523858 333 0.609637 0.792681 0.000000
-22.268726 -20.693832 -0.514539 343 0.609637 0.792681 0.000000
-22.264992 -20.690351 -0.505114 323 0.609637 0.792681 0.000000
-22.264135 -20.689558 -0.495761 317 0.609637 0.792681 0.000000
-22.267082 -20.692303 -0.486494 281 0.609637 0.792681 0.000000
-22.264460 -20.689863 -0.477098 303 0.609637 0.792681 0.000000
-22.262159 -20.687721 -0.467709 357 0.609637 0.792681 0.000000
-22.264029 -20.689465 -0.458412 325 0.609637 0.792681 0.000000
-22.266106 -20.691389 -0.449122 337 0.609637 0.792681 0.000000
-22.266748 -20.691990 -0.439796 301 0.609637 0.792681 0.000000
-22.266357 -20.691635 -0.430459 317 0.609637 0.792681 0.000000
-22.266031 -20.691322 -0.421112 365 0.609637 0.792681 0.000000
-22.264946 -20.690319 -0.411752 353 0.609637 0.792681 0.000000
-22.269697 -20.694727 -0.402507 359 0.609637 0.792681 0.000000
-22.268717 -20.693821 -0.393156 329 0.609637 0.792681 0.000000
-22.265856 -20.691162 -0.383763 309 0.609637 0.792681 0.000000
-22.268347 -20.693487 -0.374469 315 0.609637 0.792681 0.000000
-22.266346 -20.691628 -0.365098 349 0.609637 0.792681 0.000000
-22.264496 -20.689901 -0.355735 341 0.609637 0.792681 0.000000
-22.264572 -20.689978 -0.346404 311 0.609637 0.792681 0.000000
-22.267328 -20.692543 -0.337108 325 0.609637 0.792681 0.000000
-22.270189 -20.695189 -0.327811 309 0.609637 0.792681 0.000000
-22.265808 -20.691124 -0.318412 345 0.609637 0.792681 0.000000
-22.265621 -20.690948 -0.309073 367 0.609637 0.792681 0.000000
-22.271692 -20.696590 -0.299826 357 0.609637 0.792681 0.000000
-22.271704 -20.696600 -0.290486 321 0.609637 0.792681 0.000000
-22.270420 -20.695412 -0.281128 351 0.609637 0.792681 0.000000
