301
-21.652054 -21.194824 -0.652664 1363 0.472078 0.881557 0.000000
-21.651670 -21.194454 -0.643347 1357 0.472078 0.881557 0.000000
-21.652697 -21.195463 -0.634067 1357 0.472078 0.881557 0.000000
-21.653313 -21.196068 -0.624781 1359 0.472078 0.881557 0.000000
-21.652971 -21.195736 -0.615454 1365 0.472078 0.881557 0.000000
-21.652477 -21.195248 -0.606139 1377 0.472078 0.881557 0.000000
-21.652138 -21.194914 -0.596822 1369 0.472078 0.881557 0.000000
-21.652269 -21.195051 -0.587510 1361 0.472078 0.881557 0.000000
-21.651663 -21.194458 -0.578186 1355 0.472078 0.881557 0.000000
-21.651430 -21.194229 -0.568878 1355 0.472078 0.881557 0.000000
-21.651709 -21.194500 -0.559575 1347 0.472078 0.881557 0.000000
-21.651669 -21.194469 -0.550265 1361 0.472078 0.881557 0.000000
-21.652306 -21.195089 -0.540969 1357 0.472078 0.881557 0.000000
-21.652542 -21.195312 -0.531676 1347 0.472078 0.881557 0.000000
-21.651604 -21.194405 -0.522345 1353 0.472078 0.881557 0.000000
-21.651194 -21.194002 -0.513029 1341 0.472078 0.881557 0.000000
-21.651722 -21.194519 -0.503733 1343 0.472078 0.881557 0.000000
-21.651516 -21.194324 -0.494415 1355 0.472078 0.881557 0.000000
-21.650791 -21.193607 -0.485092 1361 0.472078 0.881557 0.000000
-21.650688 -21.193510 -0.475783 1355 0.472078 0.881557 0.000000
-21.650629 -21.193449 -0.466483 1355 0.472078 0.881557 0.000000
-21.650784 -21.193604 -0.457171 1365 0.472078 0.881557 0.000000
-21.651459 -21.194273 -0.447885 1347 0.472078 0.881557 0.000000
-21.651707 -21.194519 -0.438582 1359 0.472078 0.881557 0.000000
-21.651077 -21.193893 -0.429258 1373 0.472078 0.881557 0.000000
-21.650379 -21.193209 -0.419944 1367 0.472078 0.881557 0.000000
-21.650524 -21.193359 -0.410643 1371 0.472078 0.881557 0.000000
-21.650671 -21.193508 -0.401341 1371 0.472078 0.881557 0.000000
-21.650908 -21.193731 -0.392038 1373 0.472078 0.881557 0.000000
-21.651312 -21.194134 -0.382734 1365 0.472078 0.881557 0.000000
-21.651129 -21.193958 -0.373426 1365 0.472078 0.881557 0.000000
-21.650640 -21.193476 -0.364110 1363 0.472078 0.881557 0.000000
-21.650293 -21.193136 -0.354803 1359 0.472078 0.881557 0.000000
-21.651415 -21.194239 -0.345512 1355 0.472078 0.881557 0.000000
-21.651653 -21.194466 -0.336210 1373 0.472078 0.881557 0.000000
-21.650721 -21.193562 -0.326899 1363 0.472078 0.881557 0.000000
-21.650539 -21.193386 -0.317590 1353 0.472078 0.881557 0.000000
-21.650175 -21.193035 -0.308273 1357 0.472078 0.881557 0.000000
-21.650986 -21.193825 -0.298985 1357 0.472078 0.881557 0.000000
-21.651371 -21.194199 -0.289682 1365 0.472078 0.881557 0.000000
-21.650751 -21.193596 -0.280367 1369 0.472078 0.881557 0.000000
-21.650755 -21.193600 -0.271067 1361 0.472078 0.881557 0.000000
-21.650972 -21.193806 -0.261765 1367 0.472078 0.881557 0.000000
-21.661911 -21.190504 -0.652760 1363 0.472078 0.881557 0.000000
-21.662155 -21.190748 -0.643457 1365 0.472078 0.881557 0.000000
-21.661669 -21.190266 -0.634132 1359 0.472078 0.881557 0.000000
-21.660870 -21.189487 -0.624799 1361 0.472078 0.881557 0.000000
-21.660429 -21.189058 -0.615473 1359 0.472078 0.881557 0.000000
-21.661402 -21.190010 -0.606194 1357 0.472078 0.881557 0.000000
-21.661741 -21.190346 -0.596890 1367 0.472078 0.881557 0.000000
-21.661823 -21.190414 -0.587589 1355 0.472078 0.881557 0.000000
-21.661741 -21.190336 -0.578270 1339 0.472078 0.881557 0.000000
-21.661036 -21.189648 -0.568947 1355 0.472078 0.881557 0.000000
-21.661360 -21.189972 -0.559643 1353 0.472078 0.881557 0.000000
-21.661224 -21.189833 -0.550334 1345 0.472078 0.881557 0.000000
-21.660448 -21.189087 -0.541001 1349 0.472078 0.881557 0.000000
-21.660727 -21.189358 -0.531709 1361 0.472078 0.881557 0.000000
-21.660885 -21.189505 -0.522397 1369 0.472078 0.881557 0.000000
-21.660742 -21.189375 -0.513088 1351 0.472078 0.881557 0.000000
-21.661631 -21.190243 -0.503799 1343 0.472078 0.881557 0.000000
-21.661484 -21.190098 -0.494490 1355 0.472078 0.881557 0.000000
-21.660490 -21.189131 -0.485160 1357 0.472078 0.881557 0.000000
-21.660549 -21.189182 -0.475849 1347 0.472078 0.881557 0.000000
-21.660749 -21.189388 -0.466547 1355 0.472078 0.881557 0.000000
-21.661379 -21.190004 -0.457251 1355 0.472078 0.881557 0.000000
-21.661047 -21.189676 -0.447943 1353 0.472078 0.881557 0.000000
-21.660528 -21.189169 -0.438618 1349 0.472078 0.881557 0.000000
-21.660368 -21.189013 -0.429310 1351 0.472078 0.881557 0.000000
-21.660093 -21.188747 -0.420002 1351 0.472078 0.881557 0.000000
-21.660074 -21.188732 -0.410692 1353 0.472078 0.881557 0.000000
-21.659899 -21.188562 -0.401383 1361 0.472078 0.881557 0.000000
-21.659676 -21.188339 -0.392075 1361 0.472078 0.881557 0.000000
-21.659603 -21.188267 -0.382766 1357 0.472078 0.881557 0.000000
-21.659428 -21.188097 -0.373457 1363 0.472078 0.881557 0.000000
-21.659868 -21.188530 -0.364153 1355 0.472078 0.881557 0.000000
-21.659849 -21.188517 -0.354853 1347 0.472078 0.881557 0.000000
-21.659660 -21.188335 -0.345544 1353 0.472078 0.881557 0.000000
-21.659422 -21.188099 -0.336226 1349 0.472078 0.881557 0.000000
-21.659916 -21.188576 -0.326931 1347 0.472078 0.881557 0.000000
-21.660351 -21.189005 -0.317627 1347 0.472078 0.881557 0.000000
-21.660934 -21.189581 -0.308331 1357 0.472078 0.881557 0.000000
-21.660635 -21.189295 -0.299024 1371 0.472078 0.881557 0.000000
-21.659960 -21.188633 -0.289710 1365 0.472078 0.881557 0.000000
-21.660503 -21.189163 -0.280405 1373 0.472078 0.881557 0.000000
-21.659990 -21.188662 -0.271099 1351 0.472078 0.881557 0.000000
-21.659935 -21.188616 -0.261790 1345 0.472078 0.881557 0.000000
-21.671547 -21.186209 -0.652847 1361 0.472078 0.881557 0.000000
-21.671324 -21.185986 -0.643529 1357 0.472078 0.881557 0.000000
-21.670042 -21.184742 -0.634181 1355 0.472078 0.881557 0.000000
-21.669817 -21.184519 -0.624863 1347 0.472078 0.881557 0.000000
-21.670988 -21.185673 -0.615582 1353 0.472078 0.881557 0.000000
-21.671179 -21.185858 -0.606280 1351 0.472078 0.881557 0.000000
-21.671104 -21.185787 -0.596970 1353 0.472078 0.881557 0.000000
-21.671343 -21.186012 -0.587658 1355 0.472078 0.881557 0.000000
-21.670841 -21.185532 -0.578342 1359 0.472078 0.881557 0.000000
-21.669924 -21.184628 -0.569001 1343 0.472078 0.881557 0.000000
-21.668890 -21.183630 -0.559671 1355 0.472078 0.881557 0.000000
-21.669800 -21.184515 -0.550382 1357 0.472078 0.881557 0.000000
-21.670492 -21.185196 -0.541085 1349 0.472078 0.881557 0.000000
-21.670456 -21.185156 -0.531775 1367 0.472078 0.881557 0.000000
-21.670774 -21.185472 -0.522482 1361 0.472078 0.881557 0.000000
-21.670053 -21.184757 -0.513148 1355 0.472078 0.881557 0.000000
-21.669704 -21.184416 -0.503831 1339 0.472078 0.881557 0.000000
-21.669380 -21.184113 -0.494514 1351 0.472078 0.881557 0.000000
-21.669449 -21.184170 -0.485213 1349 0.472078 0.881557 0.000000
-21.670216 -21.184925 -0.475916 1351 0.472078 0.881557 0.000000
-21.669973 -21.184685 -0.466608 1345 0.472078 0.881557 0.000000
-21.670172 -21.184879 -0.457296 1349 0.472078 0.881557 0.000000
-21.670168 -21.184877 -0.447996 1347 0.472078 0.881557 0.000000
-21.669580 -21.184313 -0.438671 1351 0.472078 0.881557 0.000000
-21.669624 -21.184351 -0.429360 1353 0.472078 0.881557 0.000000
-21.669035 -21.183771 -0.420046 1345 0.472078 0.881557 0.000000
-21.669443 -21.184179 -0.410742 1347 0.472078 0.881557 0.000000
-21.670097 -21.184813 -0.401445 1355 0.472078 0.881557 0.000000
-21.669882 -21.184612 -0.392137 1359 0.472078 0.881557 0.000000
-21.669497 -21.184225 -0.382821 1357 0.472078 0.881557 0.000000
-21.670094 -21.184814 -0.373525 1357 0.472078 0.881557 0.000000
-21.669968 -21.184698 -0.364215 1357 0.472078 0.881557 0.000000
-21.669470 -21.184210 -0.354900 1347 0.472078 0.881557 0.000000
-21.670063 -21.184793 -0.345604 1359 0.472078 0.881557 0.000000
-21.669832 -21.184565 -0.336286 1353 0.472078 0.881557 0.000000
-21.669167 -21.183924 -0.326972 1363 0.472078 0.881557 0.000000
-21.669037 -21.183790 -0.317663 1371 0.472078 0.881557 0.000000
-21.668900 -21.183653 -0.308354 1355 0.472078 0.881557 0.000000
-21.669693 -21.184429 -0.299057 1357 0.472078 0.881557 0.000000
-21.670275 -21.185007 -0.289761 1365 0.472078 0.881557 0.000000
-21.669968 -21.184698 -0.280444 1363 0.472078 0.881557 0.000000
-21.669979 -21.184710 -0.271143 1361 0.472078 0.881557 0.000000
-21.669508 -21.184258 -0.261827 1365 0.472078 0.881557 0.000000
-21.680386 -21.181135 -0.652912 1367 0.472078 0.881557 0.000000
-21.680416 -21.181175 -0.643602 1361 0.472078 0.881557 0.000000
-21.680450 -21.181206 -0.634291 1343 0.472078 0.881557 0.000000
-21.681120 -21.181852 -0.624995 1369 0.472078 0.881557 0.000000
-21.680468 -21.181221 -0.615661 1369 0.472078 0.881557 0.000000
-21.680080 -21.180840 -0.606344 1357 0.472078 0.881557 0.000000
-21.680311 -21.181070 -0.597032 1357 0.472078 0.881557 0.000000
-21.679865 -21.180635 -0.587716 1359 0.472078 0.881557 0.000000
-21.679947 -21.180717 -0.578405 1349 0.472078 0.881557 0.000000
-21.679544 -21.180323 -0.569078 1349 0.472078 0.881557 0.000000
-21.679207 -21.179989 -0.559761 1353 0.472078 0.881557 0.000000
-21.679266 -21.180054 -0.550451 1355 0.472078 0.881557 0.000000
-21.680277 -21.181038 -0.541171 1359 0.472078 0.881557 0.000000
-21.680288 -21.181049 -0.531860 1347 0.472078 0.881557 0.000000
-21.679823 -21.180599 -0.522534 1355 0.472078 0.881557 0.000000
-21.681517 -21.182253 -0.513268 1353 0.472078 0.881557 0.000000
-21.681887 -21.182615 -0.503964 1369 0.472078 0.881557 0.000000
-21.679901 -21.180681 -0.494603 1359 0.472078 0.881557 0.000000
-21.678545 -21.179350 -0.485266 1359 0.472078 0.881557 0.000000
-21.678911 -21.179718 -0.475962 1355 0.472078 0.881557 0.000000
-21.678852 -21.179661 -0.466652 1355 0.472078 0.881557 0.000000
-21.678638 -21.179457 -0.457334 1359 0.472078 0.881557 0.000000
-21.678696 -21.179506 -0.448033 1361 0.472078 0.881557 0.000000
-21.679045 -21.179850 -0.438730 1347 0.472078 0.881557 0.000000
-21.679354 -21.180147 -0.429427 1339 0.472078 0.881557 0.000000
-21.678545 -21.179361 -0.420094 1351 0.472078 0.881557 0.000000
-21.678692 -21.179508 -0.410793 1351 0.472078 0.881557 0.000000
-21.679251 -21.180054 -0.401497 1349 0.472078 0.881557 0.000000
-21.678568 -21.179382 -0.392173 1347 0.472078 0.881557 0.000000
-21.678751 -21.179564 -0.382871 1355 0.472078 0.881557 0.000000
-21.679413 -21.180218 -0.373575 1359 0.472078 0.881557 0.000000
-21.678392 -21.179218 -0.364244 1347 0.472078 0.881557 0.000000
-21.677944 -21.178782 -0.354928 1353 0.472078 0.881557 0.000000
-21.678864 -21.179674 -0.345639 1363 0.472078 0.881557 0.000000
-21.678345 -21.179180 -0.336314 1355 0.472078 0.881557 0.000000
-21.678272 -21.179110 -0.327005 1355 0.472078 0.881557 0.000000
-21.679281 -21.180094 -0.317715 1361 0.472078 0.881557 0.000000
-21.679350 -21.180164 -0.308404 1361 0.472078 0.881557 0.000000
-21.678480 -21.179314 -0.299092 1367 0.472078 0.881557 0.000000
-21.678123 -21.178967 -0.289775 1351 0.472078 0.881557 0.000000
-21.678543 -21.179382 -0.280471 1357 0.472078 0.881557 0.000000
-21.678923 -21.179750 -0.271167 1357 0.472078 0.881557 0.000000
-21.678934 -21.179762 -0.261857 1353 0.472078 0.881557 0.000000
-21.690128 -21.177437 -0.653006 1359 0.472078 0.881557 0.000000
-21.689690 -21.177021 -0.643680 1363 0.472078 0.881557 0.000000
-21.689419 -21.176746 -0.634362 1357 0.472078 0.881557 0.000000
-21.688183 -21.175552 -0.625014 1355 0.472078 0.881557 0.000000
-21.688850 -21.176201 -0.615717 1349 0.472078 0.881557 0.000000
-21.690027 -21.177345 -0.606436 1357 0.472078 0.881557 0.000000
-21.689430 -21.176762 -0.597111 1367 0.472078 0.881557 0.000000
-21.689402 -21.176739 -0.587791 1345 0.472078 0.881557 0.000000
-21.688908 -21.176252 -0.578466 1343 0.472078 0.881557 0.000000
-21.688864 -21.176220 -0.569156 1341 0.472078 0.881557 0.000000
-21.689518 -21.176853 -0.559860 1351 0.472078 0.881557 0.000000
-21.689842 -21.177179 -0.550556 1343 0.472078 0.881557 0.000000
-21.689550 -21.176884 -0.541239 1357 0.472078 0.881557 0.000000
-21.688406 -21.175781 -0.531899 1357 0.472078 0.881557 0.000000
-21.688362 -21.175734 -0.522580 1363 0.472078 0.881557 0.000000
-21.688587 -21.175947 -0.513277 1363 0.472078 0.881557 0.000000
-21.689487 -21.176826 -0.503989 1355 0.472078 0.881557 0.000000
-21.689753 -21.177086 -0.494686 1349 0.472078 0.881557 0.000000
-21.688757 -21.176117 -0.485345 1355 0.472078 0.881557 0.000000
-21.688503 -21.175871 -0.476027 1361 0.472078 0.881557 0.000000
-21.689014 -21.176374 -0.466732 1363 0.472078 0.881557 0.000000
-21.689379 -21.176729 -0.457428 1359 0.472078 0.881557 0.000000
-21.689428 -21.176771 -0.448118 1359 0.472078 0.881557 0.000000
-21.688787 -21.176149 -0.438794 1347 0.472078 0.881557 0.000000
-21.688206 -21.175591 -0.429469 1341 0.472078 0.881557 0.000000
-21.688351 -21.175726 -0.420167 1353 0.472078 0.881557 0.000000
-21.688339 -21.175718 -0.410857 1351 0.472078 0.881557 0.000000
-21.687679 -21.175081 -0.401533 1357 0.472078 0.881557 0.000000
-21.688200 -21.175579 -0.392228 1353 0.472078 0.881557 0.000000
-21.688290 -21.175669 -0.382927 1357 0.472078 0.881557 0.000000
-21.687897 -21.175293 -0.373611 1349 0.472078 0.881557 0.000000
-21.688236 -21.175629 -0.364307 1359 0.472078 0.881557 0.000000
-21.688055 -21.175451 -0.354989 1359 0.472078 0.881557 0.000000
-21.688599 -21.175982 -0.345693 1355 0.472078 0.881557 0.000000
-21.688671 -21.176060 -0.336382 1351 0.472078 0.881557 0.000000
-21.688755 -21.176128 -0.327071 1349 0.472078 0.881557 0.000000
-21.688141 -21.175531 -0.317757 1357 0.472078 0.881557 0.000000
-21.688046 -21.175438 -0.308438 1355 0.472078 0.881557 0.000000
-21.687065 -21.174484 -0.299117 1359 0.472078 0.881557 0.000000
-21.686766 -21.174198 -0.289809 1363 0.472078 0.881557 0.000000
-21.688026 -21.175428 -0.280517 1363 0.472078 0.881557 0.000000
-21.687523 -21.174932 -0.271202 1363 0.472078 0.881557 0.000000
-21.688051 -21.175453 -0.261896 1359 0.472078 0.881557 0.000000
-21.698750 -21.172676 -0.653070 1359 0.472078 0.881557 0.000000
-21.699049 -21.172966 -0.643767 1365 0.472078 0.881557 0.000000
-21.699663 -21.173569 -0.634471 1363 0.472078 0.881557 0.000000
-21.699026 -21.172937 -0.625137 1361 0.472078 0.881557 0.000000
-21.698843 -21.172760 -0.615819 1373 0.472078 0.881557 0.000000
-21.699535 -21.173439 -0.606522 1365 0.472078 0.881557 0.000000
-21.699726 -21.173628 -0.597210 1363 0.472078 0.881557 0.000000
-21.699078 -21.172998 -0.587886 1369 0.472078 0.881557 0.000000
-21.698214 -21.172153 -0.578544 1369 0.472078 0.881557 0.000000
-21.697977 -21.171917 -0.569226 1351 0.472078 0.881557 0.000000
-21.698668 -21.172600 -0.559929 1333 0.472078 0.881557 0.000000
-21.698328 -21.172266 -0.550612 1345 0.472078 0.881557 0.000000
-21.698912 -21.172842 -0.541306 1369 0.472078 0.881557 0.000000
-21.699080 -21.173010 -0.532004 1355 0.472078 0.881557 0.000000
-21.698202 -21.172153 -0.522662 1337 0.472078 0.881557 0.000000
-21.697426 -21.171392 -0.513340 1351 0.472078 0.881557 0.000000
-21.697329 -21.171301 -0.504020 1361 0.472078 0.881557 0.000000
-21.697847 -21.171810 -0.494725 1359 0.472078 0.881557 0.000000
-21.696697 -21.170687 -0.485386 1363 0.472078 0.881557 0.000000
-21.695818 -21.169830 -0.476054 1357 0.472078 0.881557 0.000000
-21.696867 -21.170847 -0.466764 1361 0.472078 0.881557 0.000000
-21.697226 -21.171196 -0.457460 1359 0.472078 0.881557 0.000000
-21.696278 -21.170280 -0.448129 1355 0.472078 0.881557 0.000000
-21.695744 -21.169762 -0.438804 1355 0.472078 0.881557 0.000000
-21.696621 -21.170622 -0.429515 1347 0.472078 0.881557 0.000000
-21.696932 -21.170918 -0.420202 1349 0.472078 0.881557 0.000000
-21.696762 -21.170755 -0.410893 1341 0.472078 0.881557 0.000000
-21.697172 -21.171150 -0.401589 1351 0.472078 0.881557 0.000000
-21.698139 -21.172094 -0.392300 1345 0.472078 0.881557 0.000000
-21.697954 -21.171917 -0.382981 1351 0.472078 0.881557 0.000000
-21.696999 -21.170984 -0.373650 1357 0.472078 0.881557 0.000000
-21.697706 -21.171677 -0.364353 1363 0.472078 0.881557 0.000000
-21.697578 -21.171558 -0.355044 1357 0.472078 0.881557 0.000000
-21.696865 -21.170864 -0.345721 1365 0.472078 0.881557 0.000000
-21.697205 -21.171186 -0.336417 1359 0.472078 0.881557 0.000000
-21.697695 -21.171673 -0.327113 1367 0.472078 0.881557 0.000000
-21.697298 -21.171280 -0.317796 1359 0.472078 0.881557 0.000000
-21.697367 -21.171352 -0.308485 1349 0.472078 0.881557 0.000000
-21.697227 -21.171213 -0.299176 1339 0.472078 0.881557 0.000000
-21.696650 -21.170654 -0.289852 1347 0.472078 0.881557 0.000000
-21.696770 -21.170769 -0.280540 1357 0.472078 0.881557 0.000000
-21.696573 -21.170582 -0.271232 1353 0.472078 0.881557 0.000000
-21.697092 -21.171093 -0.261927 1351 0.472078 0.881557 0.000000
-21.708565 -21.168791 -0.653165 1369 0.472078 0.881557 0.000000
-21.708179 -21.168421 -0.643838 1357 0.472078 0.881557 0.000000
-21.708006 -21.168253 -0.634519 1349 0.472078 0.881557 0.000000
-21.708462 -21.168697 -0.625215 1361 0.472078 0.881557 0.000000
-21.709232 -21.169441 -0.615927 1361 0.472078 0.881557 0.000000
-21.708792 -21.169014 -0.606601 1353 0.472078 0.881557 0.000000
-21.708134 -21.168377 -0.597267 1357 0.472078 0.881557 0.000000
-21.707310 -21.167578 -0.587925 1355 0.472078 0.881557 0.000000
-21.707758 -21.168016 -0.578620 1357 0.472078 0.881557 0.000000
-21.707685 -21.167944 -0.569311 1351 0.472078 0.881557 0.000000
-21.706806 -21.167086 -0.559969 1347 0.472078 0.881557 0.000000
-21.706827 -21.167105 -0.550659 1361 0.472078 0.881557 0.000000
-21.706846 -21.167122 -0.541348 1359 0.472078 0.881557 0.000000
-21.706968 -21.167236 -0.532037 1349 0.472078 0.881557 0.000000
-21.707495 -21.167757 -0.522732 1363 0.472078 0.881557 0.000000
-21.707344 -21.167618 -0.513413 1363 0.472078 0.881557 0.000000
-21.706984 -21.167267 -0.504096 1353 0.472078 0.881557 0.000000
-21.707195 -21.167473 -0.494784 1353 0.472078 0.881557 0.000000
-21.707047 -21.167324 -0.485465 1355 0.472078 0.881557 0.000000
-21.706627 -21.166912 -0.476149 1355 0.472078 0.881557 0.000000
-21.706306 -21.166607 -0.466822 1361 0.472078 0.881557 0.000000
-21.706934 -21.167223 -0.457525 1365 0.472078 0.881557 0.000000
-21.707617 -21.167881 -0.448229 1355 0.472078 0.881557 0.000000
-21.707870 -21.168133 -0.438916 1351 0.472078 0.881557 0.000000
-21.707321 -21.167599 -0.429591 1355 0.472078 0.881557 0.000000
-21.706272 -21.166574 -0.420261 1347 0.472078 0.881557 0.000000
-21.706041 -21.166359 -0.410943 1357 0.472078 0.881557 0.000000
-21.707336 -21.167616 -0.401660 1361 0.472078 0.881557 0.000000
-21.707893 -21.168159 -0.392355 1361 0.472078 0.881557 0.000000
-21.707041 -21.167322 -0.383023 1365 0.472078 0.881557 0.000000
-21.707224 -21.167517 -0.373721 1363 0.472078 0.881557 0.000000
-21.706892 -21.167191 -0.364404 1361 0.472078 0.881557 0.000000
-21.706179 -21.166492 -0.355080 1353 0.472078 0.881557 0.000000
-21.706369 -21.166681 -0.345768 1341 0.472078 0.881557 0.000000
-21.706499 -21.166803 -0.336457 1347 0.472078 0.881557 0.000000
-21.705879 -21.166199 -0.327132 1355 0.472078 0.881557 0.000000
-21.705479 -21.165815 -0.317816 1343 0.472078 0.881557 0.000000
-21.705755 -21.166086 -0.308513 1351 0.472078 0.881557 0.000000
-21.705406 -21.165747 -0.299196 1359 0.472078 0.881557 0.000000
-21.705639 -21.165966 -0.289884 1355 0.472078 0.881557 0.000000
-21.705845 -21.166180 -0.280582 1349 0.472078 0.881557 0.000000
-21.705444 -21.165783 -0.271265 1339 0.472078 0.881557 0.000000
-21.706331 -21.166651 -0.261967 1349 0.472078 0.881557 0.000000
