80
-22.139101 -20.636684 -0.642181 449 -0.548674 0.836037 0.000000
-22.140787 -20.638252 -0.632925 467 -0.548674 0.836037 0.000000
-22.141199 -20.638632 -0.623641 459 -0.548674 0.836037 0.000000
-22.140648 -20.638117 -0.614326 459 -0.548674 0.836037 0.000000
-22.138483 -20.636108 -0.604966 443 -0.548674 0.836037 0.000000
-22.137327 -20.635033 -0.595637 437 -0.548674 0.836037 0.000000
-22.137730 -20.635406 -0.586353 451 -0.548674 0.836037 0.000000
-22.137598 -20.635275 -0.577054 453 -0.548674 0.836037 0.000000
-22.138849 -20.636444 -0.567792 447 -0.548674 0.836037 0.000000
-22.138966 -20.636564 -0.558490 471 -0.548674 0.836037 0.000000
-22.140648 -20.638124 -0.549235 453 -0.548674 0.836037 0.000000
-22.142113 -20.639490 -0.539971 463 -0.548674 0.836037 0.000000
-22.141905 -20.639299 -0.530672 455 -0.548674 0.836037 0.000000
-22.142448 -20.639799 -0.521387 451 -0.548674 0.836037 0.000000
-22.141603 -20.639023 -0.512065 461 -0.548674 0.836037 0.000000
-22.141560 -20.638975 -0.502765 463 -0.548674 0.836037 0.000000
-22.139261 -20.636833 -0.493416 431 -0.548674 0.836037 0.000000
-22.136532 -20.634296 -0.484062 457 -0.548674 0.836037 0.000000
-22.139374 -20.636940 -0.474825 445 -0.548674 0.836037 0.000000
-22.140648 -20.638124 -0.465552 453 -0.548674 0.836037 0.000000
-22.137016 -20.634737 -0.456186 463 -0.548674 0.836037 0.000000
-22.137974 -20.635632 -0.446907 445 -0.548674 0.836037 0.000000
-22.137636 -20.635324 -0.437610 451 -0.548674 0.836037 0.000000
-22.139023 -20.636614 -0.428337 447 -0.548674 0.836037 0.000000
-22.139711 -20.637255 -0.419050 423 -0.548674 0.836037 0.000000
-22.137926 -20.635586 -0.409727 431 -0.548674 0.836037 0.000000
-22.138775 -20.636381 -0.400449 441 -0.548674 0.836037 0.000000
-22.139717 -20.637264 -0.391169 431 -0.548674 0.836037 0.000000
-22.141079 -20.638531 -0.381896 435 -0.548674 0.836037 0.000000
-22.139893 -20.637419 -0.372577 429 -0.548674 0.836037 0.000000
-22.139008 -20.636597 -0.363265 435 -0.548674 0.836037 0.000000
-22.138710 -20.636324 -0.353968 429 -0.548674 0.836037 0.000000
-22.136484 -20.634251 -0.344639 417 -0.548674 0.836037 0.000000
-22.139029 -20.636618 -0.335375 437 -0.548674 0.836037 0.000000
-22.142529 -20.639877 -0.326132 427 -0.548674 0.836037 0.000000
-22.142437 -20.639793 -0.316832 443 -0.548674 0.836037 0.000000
-22.138969 -20.636564 -0.307495 421 -0.548674 0.836037 0.000000
-22.137863 -20.635540 -0.298185 425 -0.548674 0.836037 0.000000
-22.140711 -20.638187 -0.288928 411 -0.548674 0.836037 0.000000
-22.138912 -20.636509 -0.279604 417 -0.548674 0.836037 0.000000
-22.190825 -20.671486 -0.643493 403 -0.548674 0.836037 0.000000
-22.191662 -20.672256 -0.634195 395 -0.548674 0.836037 0.000000
-22.189932 -20.670649 -0.624831 385 -0.548674 0.836037 0.000000
-22.188629 -20.669441 -0.615473 393 -0.548674 0.836037 0.000000
-22.189091 -20.669863 -0.606169 401 -0.548674 0.836037 0.000000
-22.188955 -20.669743 -0.596850 379 -0.548674 0.836037 0.000000
-22.188442 -20.669256 -0.587524 393 -0.548674 0.836037 0.000000
-22.185581 -20.666599 -0.578131 391 -0.548674 0.836037 0.000000
-22.186291 -20.667259 -0.568834 407 -0.548674 0.836037 0.000000
-22.188400 -20.669228 -0.559574 387 -0.548674 0.836037 0.000000
-22.189064 -20.669836 -0.550278 391 -0.548674 0.836037 0.000000
-22.189346 -20.670101 -0.540965 383 -0.548674 0.836037 0.000000
-22.187437 -20.668320 -0.531602 387 -0.548674 0.836037 0.000000
-22.187878 -20.668739 -0.522298 401 -0.548674 0.836037 0.000000
-22.190178 -20.670883 -0.513036 375 -0.548674 0.836037 0.000000
-22.186926 -20.667852 -0.503646 399 -0.548674 0.836037 0.000000
-22.183342 -20.664516 -0.494260 403 -0.548674 0.836037 0.000000
-22.185856 -20.666859 -0.484996 391 -0.548674 0.836037 0.000000
-22.186186 -20.667160 -0.475693 397 -0.548674 0.836037 0.000000
-22.185595 -20.666615 -0.466368 385 -0.548674 0.836037 0.000000
-22.185320 -20.666357 -0.457050 373 -0.548674 0.836037 0.000000
-22.185047 -20.666103 -0.447733 395 -0.548674 0.836037 0.000000
-22.186068 -20.667048 -0.438433 393 -0.548674 0.836037 0.000000
-22.186089 -20.667078 -0.429123 375 -0.548674 0.836037 0.000000
-22.185766 -20.666771 -0.419805 369 -0.548674 0.836037 0.000000
-22.186131 -20.667112 -0.410492 359 -0.548674 0.836037 0.000000
-22.187721 -20.668591 -0.401217 373 -0.548674 0.836037 0.000000
-22.187551 -20.668430 -0.391898 369 -0.548674 0.836037 0.000000
-22.188646 -20.669460 -0.382597 373 -0.548674 0.836037 0.000000
-22.189213 -20.669979 -0.373292 371 -0.548674 0.836037 0.000000
-22.186676 -20.667620 -0.363945 355 -0.548674 0.836037 0.000000
-22.186592 -20.667542 -0.354626 383 -0.548674 0.836037 0.000000
-22.186510 -20.667463 -0.345317 373 -0.548674 0.836037 0.000000
-22.185522 -20.666548 -0.335986 369 -0.548674 0.836037 0.000000
-22.186615 -20.667562 -0.326685 379 -0.548674 0.836037 0.000000
-22.187057 -20.667982 -0.317381 359 -0.548674 0.836037 0.000000
-22.184986 -20.666046 -0.308040 373 -0.548674 0.836037 0.000000
-22.185110 -20.666161 -0.298729 377 -0.548674 0.836037 0.000000
-22.184368 -20.665480 -0.289405 369 -0.548674 0.836037 0.000000
-22.183943 -20.665077 -0.280089 355 -0.548674 0.836037 0.000000
