323
-21.959322 -21.043007 -0.645943 283 0.472078 0.881557 0.000000
-21.956457 -21.040253 -0.636510 287 0.472078 0.881557 0.000000
-21.954115 -21.038012 -0.627102 275 0.472078 0.881557 0.000000
-21.954353 -21.038250 -0.617769 253 0.472078 0.881557 0.000000
-21.958832 -21.042530 -0.608547 263 0.472078 0.881557 0.000000
-21.957104 -21.040876 -0.599163 315 0.472078 0.881557 0.000000
-21.954334 -21.038227 -0.589739 289 0.472078 0.881557 0.000000
-21.957628 -21.041380 -0.580488 283 0.472078 0.881557 0.000000
-21.958187 -21.041922 -0.571162 321 0.472078 0.881557 0.000000
-21.957153 -21.040922 -0.561792 289 0.472078 0.881557 0.000000
-21.954260 -21.038157 -0.552379 329 0.472078 0.881557 0.000000
-21.953255 -21.037197 -0.514987 307 0.472078 0.881557 0.000000
-21.953735 -21.037651 -0.505663 273 0.472078 0.881557 0.000000
-21.952740 -21.036697 -0.496292 285 0.472078 0.881557 0.000000
-21.953110 -21.037058 -0.486968 293 0.472078 0.881557 0.000000
-21.954805 -21.038673 -0.477662 301 0.472078 0.881557 0.000000
-21.956697 -21.040493 -0.468364 339 0.472078 0.881557 0.000000
-21.955961 -21.039793 -0.459000 343 0.472078 0.881557 0.000000
-21.956106 -21.039928 -0.449669 297 0.472078 0.881557 0.000000
-21.952726 -21.036695 -0.440261 303 0.472078 0.881557 0.000000
-21.954515 -21.038401 -0.430954 321 0.472078 0.881557 0.000000
-21.957310 -21.041077 -0.421667 315 0.472078 0.881557 0.000000
-21.955959 -21.039785 -0.412299 287 0.472078 0.881557 0.000000
-21.958651 -21.042360 -0.403014 303 0.472078 0.881557 0.000000
-21.957886 -21.041636 -0.393661 317 0.472078 0.881557 0.000000
-21.954700 -21.038576 -0.384261 315 0.472078 0.881557 0.000000
-21.957058 -21.040836 -0.374958 315 0.472078 0.881557 0.000000
-21.955233 -21.039085 -0.365585 301 0.472078 0.881557 0.000000
-21.953310 -21.037245 -0.356223 325 0.472078 0.881557 0.000000
-21.956089 -21.039904 -0.346927 343 0.472078 0.881557 0.000000
-21.955526 -21.039371 -0.337572 277 0.472078 0.881557 0.000000
-21.955177 -21.039032 -0.328235 291 0.472078 0.881557 0.000000
-21.958153 -21.041897 -0.318936 279 0.472078 0.881557 0.000000
-21.957899 -21.041647 -0.309589 303 0.472078 0.881557 0.000000
-21.957287 -21.041063 -0.300244 279 0.472078 0.881557 0.000000
-21.958828 -21.042538 -0.290919 303 0.472078 0.881557 0.000000
-21.958580 -21.042297 -0.281582 293 0.472078 0.881557 0.000000
-21.958164 -21.041901 -0.272235 281 0.472078 0.881557 0.000000
-21.952824 -21.036791 -0.262826 285 0.472078 0.881557 0.000000
-21.962410 -21.033340 -0.645848 297 0.472078 0.881557 0.000000
-21.963179 -21.034084 -0.636530 287 0.472078 0.881557 0.000000
-21.966276 -21.037050 -0.627271 287 0.472078 0.881557 0.000000
-21.968681 -21.039360 -0.617998 285 0.472078 0.881557 0.000000
-21.966066 -21.036852 -0.608582 263 0.472078 0.881557 0.000000
-21.963297 -21.034203 -0.599158 267 0.472078 0.881557 0.000000
-21.963116 -21.034025 -0.589810 279 0.472078 0.881557 0.000000
-21.962137 -21.033085 -0.580439 259 0.472078 0.881557 0.000000
-21.963636 -21.034529 -0.571144 267 0.472078 0.881557 0.000000
-21.961491 -21.032475 -0.561744 301 0.472078 0.881557 0.000000
-21.961353 -21.032337 -0.552396 279 0.472078 0.881557 0.000000
-21.962315 -21.033255 -0.543076 323 0.472078 0.881557 0.000000
-21.957472 -21.028624 -0.533622 293 0.472078 0.881557 0.000000
-21.961599 -21.032570 -0.524383 307 0.472078 0.881557 0.000000
-21.967474 -21.038204 -0.515177 299 0.472078 0.881557 0.000000
-21.967587 -21.038313 -0.505835 297 0.472078 0.881557 0.000000
-21.969702 -21.040333 -0.496545 311 0.472078 0.881557 0.000000
-21.969193 -21.039845 -0.487190 287 0.472078 0.881557 0.000000
-21.964901 -21.035738 -0.477750 299 0.472078 0.881557 0.000000
-21.966286 -21.037056 -0.468437 303 0.472078 0.881557 0.000000
-21.964905 -21.035742 -0.459060 323 0.472078 0.881557 0.000000
-21.961725 -21.032688 -0.449660 321 0.472078 0.881557 0.000000
-21.962831 -21.033749 -0.440339 333 0.472078 0.881557 0.000000
-21.960396 -21.031416 -0.430952 325 0.472078 0.881557 0.000000
-21.960377 -21.031403 -0.421612 317 0.472078 0.881557 0.000000
-21.960522 -21.031538 -0.412270 327 0.472078 0.881557 0.000000
-21.958826 -21.029911 -0.402906 317 0.472078 0.881557 0.000000
-21.960817 -21.031826 -0.393597 297 0.472078 0.881557 0.000000
-21.959679 -21.030737 -0.384237 319 0.472078 0.881557 0.000000
-21.960880 -21.031879 -0.374926 325 0.472078 0.881557 0.000000
-21.960688 -21.031698 -0.365577 297 0.472078 0.881557 0.000000
-21.959087 -21.030161 -0.356212 267 0.472078 0.881557 0.000000
-21.961914 -21.032875 -0.346915 275 0.472078 0.881557 0.000000
-21.961349 -21.032341 -0.337570 257 0.472078 0.881557 0.000000
-21.961260 -21.032255 -0.328231 271 0.472078 0.881557 0.000000
-21.963665 -21.034554 -0.318928 281 0.472078 0.881557 0.000000
-21.961300 -21.032291 -0.309550 287 0.472078 0.881557 0.000000
-21.959248 -21.030329 -0.300190 297 0.472078 0.881557 0.000000
-21.962017 -21.032967 -0.290883 287 0.472078 0.881557 0.000000
-21.964134 -21.035002 -0.281573 249 0.472078 0.881557 0.000000
-21.966211 -21.036987 -0.272263 279 0.472078 0.881557 0.000000
-21.967422 -21.038151 -0.262931 271 0.472078 0.881557 0.000000
-21.971428 -21.028870 -0.645929 335 0.472078 0.881557 0.000000
-21.976435 -21.033669 -0.636731 331 0.472078 0.881557 0.000000
-21.974670 -21.031982 -0.627328 253 0.472078 0.881557 0.000000
-21.972111 -21.029535 -0.617912 233 0.472078 0.881557 0.000000
-21.972153 -21.029572 -0.608571 249 0.472078 0.881557 0.000000
-21.971066 -21.028526 -0.599201 285 0.472078 0.881557 0.000000
-21.972885 -21.030273 -0.589904 279 0.472078 0.881557 0.000000
-21.972593 -21.029995 -0.580556 295 0.472078 0.881557 0.000000
-21.971243 -21.028704 -0.571169 275 0.472078 0.881557 0.000000
-21.972898 -21.030289 -0.561873 301 0.472078 0.881557 0.000000
-21.974237 -21.031569 -0.552560 279 0.472078 0.881557 0.000000
-21.973040 -21.030422 -0.543191 283 0.472078 0.881557 0.000000
-21.971096 -21.028564 -0.533799 307 0.472078 0.881557 0.000000
-21.969633 -21.027155 -0.524423 285 0.472078 0.881557 0.000000
-21.972132 -21.029543 -0.515139 315 0.472078 0.881557 0.000000
-21.977631 -21.034813 -0.505917 315 0.472078 0.881557 0.000000
-21.974932 -21.032234 -0.496512 319 0.472078 0.881557 0.000000
-21.971933 -21.029356 -0.487100 315 0.472078 0.881557 0.000000
-21.972452 -21.029854 -0.477775 291 0.472078 0.881557 0.000000
-21.973238 -21.030611 -0.468447 329 0.472078 0.881557 0.000000
-21.969555 -21.027086 -0.459032 325 0.472078 0.881557 0.000000
-21.968801 -21.026360 -0.449669 341 0.472078 0.881557 0.000000
-21.973764 -21.031118 -0.440432 331 0.472078 0.881557 0.000000
-21.975397 -21.032671 -0.431116 299 0.472078 0.881557 0.000000
-21.973640 -21.030991 -0.421743 333 0.472078 0.881557 0.000000
-21.968235 -21.025816 -0.412304 327 0.472078 0.881557 0.000000
-21.972393 -21.029804 -0.403034 301 0.472078 0.881557 0.000000
-21.975601 -21.032873 -0.393753 303 0.472078 0.881557 0.000000
-21.972933 -21.030319 -0.384358 343 0.472078 0.881557 0.000000
-21.971914 -21.029346 -0.375008 331 0.472078 0.881557 0.000000
-21.971415 -21.028866 -0.365652 263 0.472078 0.881557 0.000000
-21.969227 -21.026766 -0.356273 321 0.472078 0.881557 0.000000
-21.970882 -21.028351 -0.346967 279 0.472078 0.881557 0.000000
-21.975088 -21.032377 -0.337687 309 0.472078 0.881557 0.000000
-21.973143 -21.030518 -0.328315 305 0.472078 0.881557 0.000000
-21.975588 -21.032860 -0.319012 275 0.472078 0.881557 0.000000
-21.979425 -21.036531 -0.309725 289 0.472078 0.881557 0.000000
-21.976267 -21.033504 -0.300335 295 0.472078 0.881557 0.000000
-21.969990 -21.027500 -0.290904 249 0.472078 0.881557 0.000000
-21.973009 -21.030386 -0.281605 271 0.472078 0.881557 0.000000
-21.976933 -21.034140 -0.272318 263 0.472078 0.881557 0.000000
-21.967796 -21.025398 -0.262864 243 0.472078 0.881557 0.000000
-21.985558 -21.029024 -0.646153 265 0.472078 0.881557 0.000000
-21.982220 -21.025826 -0.636704 267 0.472078 0.881557 0.000000
-21.983519 -21.027073 -0.627402 315 0.472078 0.881557 0.000000
-21.984612 -21.028114 -0.618081 335 0.472078 0.881557 0.000000
-21.986393 -21.029816 -0.608784 273 0.472078 0.881557 0.000000
-21.984140 -21.027672 -0.599375 277 0.472078 0.881557 0.000000
-21.982054 -21.025669 -0.589975 285 0.472078 0.881557 0.000000
-21.980280 -21.023977 -0.580581 259 0.472078 0.881557 0.000000
-21.979242 -21.022985 -0.571211 267 0.472078 0.881557 0.000000
-21.980688 -21.024368 -0.561907 267 0.472078 0.881557 0.000000
-21.979864 -21.023571 -0.552544 301 0.472078 0.881557 0.000000
-21.981100 -21.024755 -0.543223 303 0.472078 0.881557 0.000000
-21.983278 -21.026836 -0.533932 303 0.472078 0.881557 0.000000
-21.979488 -21.023211 -0.524497 315 0.472078 0.881557 0.000000
-21.980381 -21.024069 -0.515179 349 0.472078 0.881557 0.000000
-21.983980 -21.027515 -0.505914 321 0.472078 0.881557 0.000000
-21.982096 -21.025705 -0.496532 305 0.472078 0.881557 0.000000
-21.983791 -21.027336 -0.487226 321 0.472078 0.881557 0.000000
-21.984583 -21.028084 -0.477898 297 0.472078 0.881557 0.000000
-21.982521 -21.026115 -0.468507 315 0.472078 0.881557 0.000000
-21.983677 -21.027220 -0.459186 361 0.472078 0.881557 0.000000
-21.982718 -21.026308 -0.449825 343 0.472078 0.881557 0.000000
-21.981817 -21.025444 -0.440463 285 0.472078 0.881557 0.000000
-21.981026 -21.024685 -0.431101 319 0.472078 0.881557 0.000000
-21.978842 -21.022598 -0.421721 307 0.472078 0.881557 0.000000
-21.980154 -21.023846 -0.412398 351 0.472078 0.881557 0.000000
-21.982092 -21.025702 -0.403100 337 0.472078 0.881557 0.000000
-21.981916 -21.025534 -0.393751 339 0.472078 0.881557 0.000000
-21.979832 -21.023546 -0.384371 331 0.472078 0.881557 0.000000
-21.978535 -21.022301 -0.375003 315 0.472078 0.881557 0.000000
-21.982061 -21.025671 -0.365719 305 0.472078 0.881557 0.000000
-21.982088 -21.025709 -0.356379 311 0.472078 0.881557 0.000000
-21.978510 -21.022282 -0.346982 309 0.472078 0.881557 0.000000
-21.980492 -21.024178 -0.337673 333 0.472078 0.881557 0.000000
-21.983894 -21.027433 -0.328381 319 0.472078 0.881557 0.000000
-21.982862 -21.026447 -0.319021 297 0.472078 0.881557 0.000000
-21.981985 -21.025604 -0.309669 291 0.472078 0.881557 0.000000
-21.981678 -21.025311 -0.300321 267 0.472078 0.881557 0.000000
-21.979469 -21.023191 -0.290952 279 0.472078 0.881557 0.000000
-21.983337 -21.026901 -0.281655 271 0.472078 0.881557 0.000000
-21.985088 -21.028576 -0.272338 273 0.472078 0.881557 0.000000
-21.982986 -21.026562 -0.262968 297 0.472078 0.881557 0.000000
-21.994198 -21.023680 -0.646210 283 0.472078 0.881557 0.000000
-21.997839 -21.027163 -0.636965 273 0.472078 0.881557 0.000000
-21.999254 -21.028507 -0.627652 273 0.472078 0.881557 0.000000
-21.993469 -21.022976 -0.618146 281 0.472078 0.881557 0.000000
-21.991175 -21.020788 -0.608738 243 0.472078 0.881557 0.000000
-21.992262 -21.021822 -0.599417 239 0.472078 0.881557 0.000000
-21.992811 -21.022343 -0.590082 279 0.472078 0.881557 0.000000
-21.991507 -21.021105 -0.580704 261 0.472078 0.881557 0.000000
-21.992647 -21.022200 -0.571393 301 0.472078 0.881557 0.000000
-21.992403 -21.021957 -0.562035 299 0.472078 0.881557 0.000000
-21.993637 -21.023140 -0.552723 265 0.472078 0.881557 0.000000
-21.994867 -21.024317 -0.543401 331 0.472078 0.881557 0.000000
-21.992035 -21.021603 -0.533988 313 0.472078 0.881557 0.000000
-21.989769 -21.019438 -0.524589 291 0.472078 0.881557 0.000000
-21.992096 -21.021673 -0.515297 329 0.472078 0.881557 0.000000
-21.995186 -21.024616 -0.506027 303 0.472078 0.881557 0.000000
-21.994503 -21.023960 -0.496664 293 0.472078 0.881557 0.000000
-21.996885 -21.026237 -0.487371 303 0.472078 0.881557 0.000000
-21.996717 -21.026089 -0.478022 329 0.472078 0.881557 0.000000
-21.992695 -21.022240 -0.468590 337 0.472078 0.881557 0.000000
-21.989784 -21.019461 -0.459177 291 0.472078 0.881557 0.000000
-21.990995 -21.020613 -0.449856 323 0.472078 0.881557 0.000000
-21.997929 -21.027241 -0.440650 319 0.472078 0.881557 0.000000
-21.991783 -21.021358 -0.431188 301 0.472078 0.881557 0.000000
-21.987597 -21.017365 -0.421757 315 0.472078 0.881557 0.000000
-21.993021 -21.022549 -0.412526 287 0.472078 0.881557 0.000000
-21.992054 -21.021629 -0.403154 277 0.472078 0.881557 0.000000
-21.990187 -21.019846 -0.393782 347 0.472078 0.881557 0.000000
-21.991539 -21.021139 -0.384459 343 0.472078 0.881557 0.000000
-21.991997 -21.021572 -0.375124 345 0.472078 0.881557 0.000000
-21.990448 -21.020092 -0.365759 307 0.472078 0.881557 0.000000
-21.992636 -21.022184 -0.356448 317 0.472078 0.881557 0.000000
-21.992453 -21.022009 -0.347099 319 0.472078 0.881557 0.000000
-21.989986 -21.019650 -0.337722 291 0.472078 0.881557 0.000000
-21.990265 -21.019918 -0.328380 271 0.472078 0.881557 0.000000
-21.988024 -21.017775 -0.319001 275 0.472078 0.881557 0.000000
-21.990582 -21.020212 -0.309696 291 0.472078 0.881557 0.000000
-21.993549 -21.023056 -0.300398 289 0.472078 0.881557 0.000000
-21.990335 -21.019985 -0.291008 297 0.472078 0.881557 0.000000
-21.989178 -21.018869 -0.281649 285 0.472078 0.881557 0.000000
-21.989775 -21.019444 -0.272313 271 0.472078 0.881557 0.000000
-21.991056 -21.020666 -0.262991 295 0.472078 0.881557 0.000000
-21.997570 -21.013275 -0.646107 265 0.472078 0.881557 0.000000
-21.998932 -21.014576 -0.636804 289 0.472078 0.881557 0.000000
-21.998749 -21.014399 -0.627455 253 0.472078 0.881557 0.000000
-21.996889 -21.012623 -0.618053 259 0.472078 0.881557 0.000000
-21.997395 -21.013109 -0.608718 247 0.472078 0.881557 0.000000
-21.995676 -21.011463 -0.599334 189 0.472078 0.881557 0.000000
-21.999466 -21.015079 -0.590088 215 0.472078 0.881557 0.000000
-22.001762 -21.017275 -0.580796 261 0.472078 0.881557 0.000000
-21.997442 -21.013155 -0.571336 261 0.472078 0.881557 0.000000
-21.998896 -21.014532 -0.562033 319 0.472078 0.881557 0.000000
-22.001492 -21.017015 -0.552748 319 0.472078 0.881557 0.000000
-22.001045 -21.016594 -0.543392 343 0.472078 0.881557 0.000000
-22.002327 -21.017817 -0.534079 297 0.472078 0.881557 0.000000
-22.001762 -21.017271 -0.524715 281 0.472078 0.881557 0.000000
-22.000286 -21.015865 -0.515338 305 0.472078 0.881557 0.000000
-21.999870 -21.015469 -0.505982 307 0.472078 0.881557 0.000000
-22.005219 -21.020573 -0.496751 291 0.472078 0.881557 0.000000
-22.005644 -21.020983 -0.487417 309 0.472078 0.881557 0.000000
-21.999985 -21.015579 -0.477950 309 0.472078 0.881557 0.000000
-22.003691 -21.019114 -0.468675 341 0.472078 0.881557 0.000000
-22.002728 -21.018200 -0.459314 345 0.472078 0.881557 0.000000
-21.997168 -21.012882 -0.449856 365 0.472078 0.881557 0.000000
-21.998114 -21.013786 -0.440527 341 0.472078 0.881557 0.000000
-22.001337 -21.016867 -0.431246 325 0.472078 0.881557 0.000000
-21.999729 -21.015339 -0.421871 313 0.472078 0.881557 0.000000
-22.001160 -21.016697 -0.412548 359 0.472078 0.881557 0.000000
-22.002987 -21.018450 -0.403240 347 0.472078 0.881557 0.000000
-21.998417 -21.014084 -0.393813 321 0.472078 0.881557 0.000000
-21.997704 -21.013403 -0.384450 305 0.472078 0.881557 0.000000
-22.004776 -21.020163 -0.375232 317 0.472078 0.881557 0.000000
-22.005131 -21.020496 -0.365889 303 0.472078 0.881557 0.000000
-22.000608 -21.016171 -0.356471 307 0.472078 0.881557 0.000000
-21.999582 -21.015190 -0.347111 283 0.472078 0.881557 0.000000
-21.999392 -21.015007 -0.337763 303 0.472078 0.881557 0.000000
-22.003325 -21.018766 -0.328475 291 0.472078 0.881557 0.000000
-22.003344 -21.018787 -0.319135 269 0.472078 0.881557 0.000000
-21.998600 -21.014250 -0.309719 269 0.472078 0.881557 0.000000
-22.000088 -21.015682 -0.300395 293 0.472078 0.881557 0.000000
-22.001850 -21.017355 -0.291078 321 0.472078 0.881557 0.000000
-21.999207 -21.014837 -0.281693 309 0.472078 0.881557 0.000000
-22.000597 -21.016161 -0.272370 345 0.472078 0.881557 0.000000
-22.001661 -21.017178 -0.263039 315 0.472078 0.881557 0.000000
-22.011995 -21.014193 -0.646356 325 0.472078 0.881557 0.000000
-22.010021 -21.012308 -0.636944 239 0.472078 0.881557 0.000000
-22.007088 -21.009510 -0.627512 271 0.472078 0.881557 0.000000
-22.008072 -21.010447 -0.618192 251 0.472078 0.881557 0.000000
-22.008421 -21.010775 -0.608849 199 0.472078 0.881557 0.000000
-22.010519 -21.012779 -0.599559 245 0.472078 0.881557 0.000000
-22.013983 -21.016087 -0.590306 277 0.472078 0.881557 0.000000
-22.011883 -21.014086 -0.580905 251 0.472078 0.881557 0.000000
-22.011164 -21.013397 -0.571532 263 0.472078 0.881557 0.000000
-22.012360 -21.014534 -0.562220 267 0.472078 0.881557 0.000000
-22.009674 -21.011969 -0.552795 321 0.472078 0.881557 0.000000
-22.007624 -21.010019 -0.543405 309 0.472078 0.881557 0.000000
-22.011295 -21.013514 -0.534140 315 0.472078 0.881557 0.000000
-22.011354 -21.013578 -0.524799 285 0.472078 0.881557 0.000000
-22.006496 -21.008934 -0.515335 271 0.472078 0.881557 0.000000
-22.003759 -21.006323 -0.505930 315 0.472078 0.881557 0.000000
-22.009209 -21.011526 -0.496709 269 0.472078 0.881557 0.000000
-22.013599 -21.015720 -0.487457 309 0.472078 0.881557 0.000000
-22.015764 -21.017792 -0.478156 319 0.472078 0.881557 0.000000
-22.017519 -21.019459 -0.468839 313 0.472078 0.881557 0.000000
-22.013067 -21.015203 -0.459401 309 0.472078 0.881557 0.000000
-22.011747 -21.013952 -0.450023 323 0.472078 0.881557 0.000000
-22.012531 -21.014698 -0.440696 333 0.472078 0.881557 0.000000
-22.012363 -21.014534 -0.431337 329 0.472078 0.881557 0.000000
-22.012930 -21.015081 -0.422002 323 0.472078 0.881557 0.000000
-22.015940 -21.017948 -0.412713 335 0.472078 0.881557 0.000000
-22.013964 -21.016062 -0.403331 303 0.472078 0.881557 0.000000
-22.010658 -21.012915 -0.393922 295 0.472078 0.881557 0.000000
-22.011177 -21.013412 -0.384577 307 0.472078 0.881557 0.000000
-22.008461 -21.010807 -0.375193 319 0.472078 0.881557 0.000000
-22.010765 -21.013008 -0.365881 309 0.472078 0.881557 0.000000
-22.010363 -21.012625 -0.356524 329 0.472078 0.881557 0.000000
-22.008318 -21.010681 -0.347153 299 0.472078 0.881557 0.000000
-22.007767 -21.010147 -0.337799 273 0.472078 0.881557 0.000000
-22.006512 -21.008949 -0.328430 285 0.472078 0.881557 0.000000
-22.010342 -21.012613 -0.319144 249 0.472078 0.881557 0.000000
-22.010735 -21.012980 -0.309800 303 0.472078 0.881557 0.000000
-22.011549 -21.013762 -0.300472 311 0.472078 0.881557 0.000000
-22.012939 -21.015085 -0.291138 305 0.472078 0.881557 0.000000
-22.010195 -21.012470 -0.281754 311 0.472078 0.881557 0.000000
-22.010454 -21.012714 -0.272422 329 0.472078 0.881557 0.000000
-22.009033 -21.011368 -0.263055 311 0.472078 0.881557 0.000000
-22.019156 -21.008167 -0.646373 307 0.472078 0.881557 0.000000
-22.019714 -21.008711 -0.637048 295 0.472078 0.881557 0.000000
-22.019466 -21.008469 -0.618340 263 0.472078 0.881557 0.000000
-22.017576 -21.006666 -0.608937 227 0.472078 0.881557 0.000000
-22.013355 -21.002644 -0.590127 267 0.472078 0.881557 0.000000
-22.018517 -21.007570 -0.580908 263 0.472078 0.881557 0.000000
-22.020390 -21.009346 -0.571610 277 0.472078 0.881557 0.000000
-22.019846 -21.008835 -0.552894 293 0.472078 0.881557 0.000000
-22.018229 -21.007284 -0.543509 323 0.472078 0.881557 0.000000
-22.018078 -21.007149 -0.534161 323 0.472078 0.881557 0.000000
-22.020100 -21.009075 -0.524861 317 0.472078 0.881557 0.000000
-22.020002 -21.008984 -0.515502 291 0.472078 0.881557 0.000000
-22.018782 -21.007814 -0.506133 285 0.472078 0.881557 0.000000
-22.020172 -21.009146 -0.450069 295 0.472078 0.881557 0.000000
-22.018991 -21.008013 -0.440700 299 0.472078 0.881557 0.000000
-22.020313 -21.009281 -0.431377 323 0.472078 0.881557 0.000000
-22.020121 -21.009087 -0.403328 313 0.472078 0.881557 0.000000
-22.013746 -21.003014 -0.393868 323 0.472078 0.881557 0.000000
-22.014475 -21.003698 -0.384531 305 0.472078 0.881557 0.000000
-22.019270 -21.008280 -0.375266 357 0.472078 0.881557 0.000000
-22.016861 -21.005981 -0.365878 337 0.472078 0.881557 0.000000
-22.016201 -21.005358 -0.356524 329 0.472078 0.881557 0.000000
-22.018970 -21.007998 -0.347218 321 0.472078 0.881557 0.000000
-22.017309 -21.006411 -0.337853 287 0.472078 0.881557 0.000000
-22.017000 -21.006117 -0.328496 285 0.472078 0.881557 0.000000
-22.016558 -21.005688 -0.319150 305 0.472078 0.881557 0.000000
-22.017998 -21.007065 -0.309816 303 0.472078 0.881557 0.000000
-22.017698 -21.006779 -0.300469 275 0.472078 0.881557 0.000000
-22.016869 -21.005987 -0.291116 319 0.472078 0.881557 0.000000
-22.020317 -21.009283 -0.281814 307 0.472078 0.881557 0.000000
-22.013021 -21.002314 -0.272372 285 0.472078 0.881557 0.000000
-22.010960 -21.000343 -0.263002 299 0.472078 0.881557 0.000000
