144
-23.746517 -19.340700 -0.163511 897 0.954690 -0.432817 0.007278
-23.747704 -19.341621 -0.154104 903 0.937620 -0.446073 0.142630
-23.744755 -19.327330 -0.191715 855 0.980048 -0.240436 -0.398535
-23.747721 -19.329697 -0.182329 981 0.937373 -0.274494 -0.263485
-23.746580 -19.328726 -0.172924 1031 0.953784 -0.260525 -0.128161
-23.746346 -19.328489 -0.163517 1071 0.957160 -0.257122 0.007191
-23.745384 -19.327656 -0.154112 1067 0.970991 -0.245129 0.142515
-23.746004 -19.328115 -0.144709 1039 0.962072 -0.251743 0.277810
-23.748991 -19.330502 -0.135321 999 0.919095 -0.286075 0.412889
-23.750116 -19.331367 -0.125915 921 0.902903 -0.298534 0.548227
-23.751743 -19.321236 -0.201168 889 0.879494 -0.152753 -0.534550
-23.751526 -19.321012 -0.191759 1029 0.882622 -0.149542 -0.399168
-23.746246 -19.316675 -0.182329 1085 0.958587 -0.087134 -0.263485
-23.743795 -19.314636 -0.172913 1127 0.993852 -0.057797 -0.128003
-23.743689 -19.314499 -0.163513 1149 0.995389 -0.055821 0.007249
-23.743164 -19.314026 -0.154106 1153 1.002936 -0.049015 0.142601
-23.744118 -19.314760 -0.144712 1141 0.989214 -0.059581 0.277767
-23.747454 -19.317427 -0.135332 1105 0.941215 -0.097947 0.412731
-23.750570 -19.319914 -0.125946 1043 0.896372 -0.133734 0.547781
-23.753557 -19.322302 -0.116548 955 0.853394 -0.168094 0.683004
-23.762356 -19.318090 -0.210640 875 0.726796 -0.107498 -0.670837
-23.756683 -19.313440 -0.201202 1001 0.808414 -0.040589 -0.535039
-23.751059 -19.308815 -0.191765 1101 0.889346 0.025962 -0.399255
-23.746572 -19.305120 -0.182329 1161 0.953894 0.079121 -0.263485
-23.743446 -19.302534 -0.172918 1175 0.998874 0.116335 -0.128075
-23.742140 -19.301426 -0.163515 1191 1.017673 0.132279 0.007220
-23.742256 -19.301466 -0.154114 1197 1.015999 0.131703 0.142486
-23.744339 -19.303123 -0.144733 1197 0.986031 0.107854 0.277465
-23.746187 -19.304583 -0.135342 1159 0.959438 0.086860 0.412587
-23.750057 -19.307678 -0.125961 1115 0.903754 0.042318 0.547565
-23.756687 -19.313017 -0.116583 1053 0.808359 -0.034497 0.682501
-23.760521 -19.316095 -0.107191 921 0.753197 -0.078791 0.817637
-23.768204 -19.310781 -0.210680 949 0.642653 -0.002333 -0.671413
-23.759441 -19.303627 -0.201219 1067 0.768730 0.100609 -0.535284
-23.754051 -19.299204 -0.191780 1157 0.846286 0.164252 -0.399471
-23.750132 -19.295975 -0.182363 1203 0.902684 0.210714 -0.263974
-23.746552 -19.293011 -0.172943 1219 0.954196 0.253362 -0.128435
-23.744219 -19.291079 -0.163536 1209 0.987760 0.281162 0.006918
-23.745699 -19.292227 -0.154148 1217 0.966463 0.264641 0.141997
-23.748240 -19.294245 -0.144764 1209 0.929908 0.235606 0.277019
-23.750452 -19.295996 -0.135372 1207 0.898073 0.210412 0.412155
-23.753382 -19.298326 -0.125986 1163 0.855919 0.176876 0.547206
-23.757643 -19.301739 -0.116602 1097 0.794610 0.127779 0.682227
-23.763475 -19.306437 -0.107218 987 0.710686 0.060184 0.817249
-23.771542 -19.301447 -0.210705 989 0.594626 0.131978 -0.671773
-23.761883 -19.293556 -0.201240 1093 0.733602 0.245513 -0.535586
-23.755640 -19.288435 -0.191795 1145 0.823426 0.319200 -0.399686
-23.752052 -19.285480 -0.182377 1217 0.875048 0.361710 -0.264176
-23.750404 -19.284090 -0.172975 1227 0.898759 0.381717 -0.128895
-23.749273 -19.283129 -0.163572 1243 0.915033 0.395548 0.006400
-23.748075 -19.282106 -0.154169 1243 0.932268 0.410258 0.141695
-23.749319 -19.283068 -0.144783 1225 0.914375 0.396427 0.276745
-23.752483 -19.285603 -0.135405 1207 0.868845 0.359954 0.411680
-23.755831 -19.288263 -0.126015 1185 0.820681 0.321670 0.546789
-23.760574 -19.292074 -0.116638 1127 0.752428 0.266837 0.681709
-23.766588 -19.296907 -0.107254 1047 0.665898 0.197294 0.816731
-23.784414 -19.311340 -0.097893 879 0.409408 -0.010374 0.951422
-23.773571 -19.291040 -0.210718 1031 0.565426 0.281711 -0.671960
-23.765099 -19.284121 -0.201256 1117 0.687332 0.381278 -0.535816
-23.760906 -19.280666 -0.191830 1173 0.747653 0.430978 -0.400190
-23.758289 -19.278500 -0.182424 1227 0.785306 0.462155 -0.264852
-23.755333 -19.276054 -0.173012 1245 0.827844 0.497338 -0.129427
-23.754194 -19.275084 -0.163608 1265 0.844228 0.511307 0.005882
-23.755201 -19.275856 -0.154213 1279 0.829738 0.500192 0.141062
-23.756212 -19.276630 -0.144827 1251 0.815193 0.489050 0.276112
-23.758478 -19.278427 -0.135445 1219 0.782589 0.463198 0.411105
-23.760754 -19.280218 -0.126051 1187 0.749849 0.437428 0.546271
-23.764475 -19.283195 -0.116671 1137 0.696306 0.394588 0.681234
-23.772539 -19.289692 -0.107294 1067 0.580273 0.301114 0.816155
-23.782522 -19.297750 -0.097917 907 0.436632 0.185164 0.951076
-23.779581 -19.283865 -0.210758 1031 0.478950 0.384955 -0.672535
-23.771402 -19.277187 -0.201303 1133 0.596630 0.481036 -0.536492
-23.766739 -19.273357 -0.191870 1181 0.663730 0.536143 -0.400766
-23.762827 -19.270134 -0.182453 1223 0.720017 0.582523 -0.265269
-23.759863 -19.267694 -0.173040 1247 0.762665 0.617624 -0.129830
-23.758888 -19.266846 -0.163645 1267 0.776689 0.629837 0.005350
-23.759115 -19.266991 -0.154243 1261 0.773423 0.627751 0.140630
-23.759779 -19.267490 -0.144859 1253 0.763873 0.620561 0.275652
-23.760340 -19.267893 -0.135467 1215 0.755804 0.614770 0.410789
-23.763174 -19.270140 -0.126081 1187 0.715022 0.582441 0.545839
-23.770330 -19.275894 -0.116711 1145 0.612053 0.499643 0.680659
-23.777468 -19.281643 -0.107330 1065 0.509358 0.416927 0.815637
-23.787338 -19.289598 -0.097954 927 0.367336 0.302459 0.950544
-23.786037 -19.277060 -0.210804 1027 0.386053 0.482875 -0.673197
-23.778082 -19.270569 -0.201349 1107 0.500521 0.576266 -0.537154
-23.773655 -19.266930 -0.191915 1167 0.564218 0.628629 -0.401413
-23.770632 -19.264435 -0.182503 1209 0.607717 0.664526 -0.265989
-23.768471 -19.262646 -0.173094 1237 0.638811 0.690268 -0.130607
-23.766428 -19.260933 -0.163687 1241 0.668203 0.714913 0.004745
-23.766346 -19.260820 -0.154297 1257 0.669383 0.716532 0.139853
-23.768057 -19.262163 -0.144907 1245 0.644766 0.697211 0.274961
-23.768269 -19.262293 -0.135515 1211 0.641720 0.695345 0.410098
-23.769566 -19.263288 -0.126120 1185 0.623058 0.681020 0.545278
-23.776217 -19.268635 -0.116751 1121 0.527361 0.604094 0.680083
-23.785242 -19.275902 -0.107380 1053 0.397497 0.499533 0.814918
-23.794481 -19.283350 -0.097998 887 0.264559 0.392365 0.949911
-23.795061 -19.272089 -0.210869 991 0.256216 0.554394 -0.674132
-23.787104 -19.265600 -0.201404 1089 0.370712 0.647758 -0.537945
-23.781588 -19.261087 -0.191975 1151 0.450079 0.712690 -0.402276
-23.777092 -19.257402 -0.182550 1181 0.514765 0.765711 -0.266665
-23.776117 -19.256569 -0.173145 1213 0.528788 0.777704 -0.131341
-23.775045 -19.255650 -0.163742 1225 0.544212 0.790932 0.003954
-23.774750 -19.255371 -0.154344 1231 0.548466 0.794939 0.139177
-23.775475 -19.255909 -0.144960 1211 0.538037 0.787200 0.274199
-23.777349 -19.257378 -0.135570 1187 0.511060 0.766068 0.409306
-23.780581 -19.259945 -0.126181 1155 0.464570 0.729129 0.544400
-23.784090 -19.262741 -0.116793 1089 0.414073 0.688896 0.679479
-23.790960 -19.268261 -0.107412 995 0.315220 0.609473 0.814457
-23.805790 -19.280218 -0.098049 817 0.101844 0.437428 0.949177
-23.809992 -19.272142 -0.210968 885 0.041385 0.553625 -0.675557
-23.797606 -19.262060 -0.201479 1033 0.219606 0.698693 -0.539025
-23.789810 -19.255703 -0.192032 1109 0.331769 0.790164 -0.403096
-23.785139 -19.251884 -0.182598 1149 0.398979 0.845106 -0.267355
-23.783030 -19.250128 -0.173191 1167 0.429332 0.870382 -0.132003
-23.782686 -19.249800 -0.163793 1183 0.434272 0.875103 0.003220
-23.782181 -19.249342 -0.154396 1195 0.441544 0.881689 0.138429
-23.783699 -19.250523 -0.145008 1197 0.419699 0.864701 0.273508
-23.786535 -19.252775 -0.135622 1147 0.378890 0.832290 0.408558
-23.789194 -19.254889 -0.126236 1117 0.340633 0.801882 0.543609
-23.794811 -19.259388 -0.116856 1073 0.259811 0.737142 0.678573
-23.804295 -19.267017 -0.107481 943 0.123360 0.627367 0.813465
-23.809912 -19.259989 -0.201563 941 0.042538 0.728497 -0.540233
-23.801771 -19.253357 -0.192108 1047 0.159668 0.823920 -0.404190
-23.795578 -19.248297 -0.182672 1109 0.248779 0.896728 -0.268420
-23.793867 -19.246876 -0.173263 1143 0.273396 0.917174 -0.133039
-23.793354 -19.246410 -0.163856 1157 0.280778 0.923870 0.002314
-23.792551 -19.245710 -0.154461 1147 0.292332 0.933942 0.137494
-23.793165 -19.246161 -0.145058 1153 0.283495 0.927465 0.272788
-23.795717 -19.248178 -0.135673 1113 0.246775 0.898430 0.407824
-23.800491 -19.251991 -0.126297 1077 0.178083 0.843570 0.542731
-23.806787 -19.257044 -0.116911 989 0.087491 0.770871 0.677781
-23.818954 -19.266832 -0.107542 813 -0.087573 0.630029 0.812587
-23.818703 -19.255013 -0.192217 915 -0.083951 0.800098 -0.405758
-23.811481 -19.249125 -0.182768 1025 0.019952 0.884818 -0.269801
-23.809078 -19.247141 -0.173351 1075 0.054531 0.913359 -0.134305
-23.807034 -19.245441 -0.163942 1091 0.083951 0.937812 0.001076
-23.806673 -19.245106 -0.154535 1095 0.089138 0.942642 0.136429
-23.807800 -19.245972 -0.145138 1073 0.072918 0.930182 0.271637
-23.809851 -19.247576 -0.135748 1037 0.043416 0.907102 0.406745
-23.815525 -19.252123 -0.126366 959 -0.038229 0.841676 0.541738
-23.824682 -19.259470 -0.116993 833 -0.169987 0.735962 0.676601
-23.825603 -19.248470 -0.173450 917 -0.183243 0.894231 -0.135729
-23.822361 -19.245800 -0.164030 965 -0.136588 0.932652 -0.000190
-23.821266 -19.244871 -0.154615 971 -0.120835 0.946018 0.135278
