768
-6.152181 -5.134849 -0.203177 1575 0.747633 0.305313 -0.549611
-6.150826 -5.133702 -0.200677 1583 0.767132 0.321820 -0.513640
-6.150093 -5.133076 -0.198190 1611 0.777677 0.330822 -0.477855
-6.149075 -5.132215 -0.195695 1621 0.792325 0.343213 -0.441956
-6.147217 -5.130651 -0.193175 1615 0.819062 0.365717 -0.405697
-6.145918 -5.129560 -0.190684 1619 0.837751 0.381415 -0.369855
-6.146240 -5.129816 -0.188231 1633 0.833113 0.377731 -0.334560
-6.146067 -5.129663 -0.185773 1649 0.835604 0.379933 -0.299193
-6.144488 -5.128328 -0.183261 1659 0.858327 0.399144 -0.263050
-6.143513 -5.127509 -0.180777 1657 0.872351 0.410924 -0.227309
-6.143175 -5.127209 -0.178309 1659 0.877216 0.415239 -0.191798
-6.142994 -5.127049 -0.175849 1677 0.879823 0.417545 -0.156402
-6.142362 -5.126507 -0.173373 1671 0.888914 0.425346 -0.120776
-6.142289 -5.126437 -0.170914 1681 0.889963 0.426347 -0.085395
-6.142166 -5.126318 -0.168454 1703 0.891734 0.428063 -0.049999
-6.141592 -5.125830 -0.165978 1693 0.899994 0.435081 -0.014373
-6.141862 -5.126038 -0.163525 1677 0.896111 0.432090 0.020922
-6.142513 -5.126572 -0.161082 1675 0.886746 0.424406 0.056073
-6.142555 -5.126598 -0.158633 1681 0.886135 0.424035 0.091310
-6.142431 -5.126480 -0.156163 1679 0.887926 0.425730 0.126850
-6.142867 -5.126832 -0.153720 1665 0.881648 0.420666 0.162001
-6.143181 -5.127082 -0.151269 1677 0.877133 0.417071 0.197267
-6.143559 -5.127379 -0.148816 1673 0.871693 0.412797 0.232562
-6.143486 -5.127309 -0.146357 1657 0.872742 0.413805 0.267943
-6.143070 -5.126947 -0.143889 1647 0.878725 0.419013 0.303454
-6.143785 -5.127530 -0.141446 1653 0.868441 0.410622 0.338605
-6.144887 -5.128445 -0.139010 1643 0.852585 0.397456 0.373656
-6.146663 -5.129916 -0.136590 1645 0.827028 0.376290 0.408476
-6.148102 -5.131103 -0.134162 1647 0.806328 0.359213 0.443411
-6.148136 -5.131123 -0.131701 1621 0.805834 0.358925 0.478821
-6.148673 -5.131559 -0.129248 1613 0.798109 0.352654 0.514116
-6.149889 -5.132558 -0.126813 1601 0.780613 0.338280 0.549152
-6.151329 -5.133744 -0.124385 1603 0.759893 0.321217 0.584087
-6.153154 -5.135250 -0.121953 1589 0.733636 0.299543 0.619080
-6.154644 -5.136485 -0.119515 1567 0.712196 0.281773 0.654159
-6.156133 -5.137720 -0.117078 1553 0.690769 0.264003 0.689224
-6.157794 -5.139093 -0.114638 1525 0.666872 0.244250 0.724332
-6.159340 -5.140369 -0.112199 1487 0.644629 0.225890 0.759425
-6.161338 -5.142028 -0.109769 1465 0.615882 0.202021 0.794389
-6.164289 -5.144471 -0.107352 1433 0.573419 0.166866 0.829166
-6.167742 -5.147344 -0.104943 1391 0.523739 0.125528 0.863828
-6.171194 -5.150217 -0.102523 1335 0.474065 0.084191 0.898648
-6.175378 -5.153687 -0.100110 1261 0.413867 0.034264 0.933368
-6.180458 -5.157915 -0.097712 1133 0.340770 -0.026573 0.967871
-6.172801 -5.148954 -0.223542 1327 0.450944 0.102366 -0.842632
-6.168320 -5.145197 -0.220918 1373 0.515416 0.156423 -0.804877
-6.164836 -5.142280 -0.218337 1417 0.565549 0.198392 -0.767740
-6.162019 -5.139925 -0.215773 1449 0.606084 0.232278 -0.730848
-6.159939 -5.138175 -0.213244 1483 0.636012 0.257458 -0.694460
-6.158082 -5.136612 -0.210715 1511 0.662728 0.279948 -0.658071
-6.156339 -5.135146 -0.208194 1537 0.687805 0.301039 -0.621798
-6.154990 -5.134006 -0.205691 1565 0.707215 0.317443 -0.585783
-6.153298 -5.132588 -0.203172 1581 0.731564 0.337848 -0.549539
-6.152000 -5.131498 -0.200669 1589 0.750240 0.353532 -0.513524
-6.150988 -5.130629 -0.198174 1615 0.764799 0.366033 -0.477625
-6.149740 -5.129587 -0.195681 1619 0.782754 0.381024 -0.441755
-6.149173 -5.129094 -0.193204 1627 0.790918 0.388118 -0.406114
-6.148153 -5.128231 -0.190711 1639 0.805594 0.400536 -0.370244
-6.147027 -5.127279 -0.188216 1643 0.821793 0.414238 -0.334345
-6.146059 -5.126466 -0.185731 1647 0.835721 0.425936 -0.298589
-6.145498 -5.125979 -0.183255 1655 0.843796 0.432941 -0.262963
-6.145475 -5.125957 -0.180795 1671 0.844125 0.433256 -0.227568
-6.144908 -5.125463 -0.178328 1683 0.852283 0.440364 -0.192071
-6.143939 -5.124651 -0.175843 1681 0.866224 0.452048 -0.156316
-6.143644 -5.124393 -0.173375 1681 0.870471 0.455760 -0.120805
-6.144030 -5.124698 -0.170924 1699 0.864914 0.451369 -0.085539
-6.144072 -5.124724 -0.168473 1711 0.864310 0.450999 -0.050273
-6.143439 -5.124182 -0.165997 1699 0.873422 0.458793 -0.014647
-6.142585 -5.123452 -0.163522 1693 0.885710 0.469297 0.020965
-6.142520 -5.123389 -0.161061 1693 0.886643 0.470209 0.056375
-6.143393 -5.124110 -0.158627 1699 0.874080 0.459829 0.091396
-6.143377 -5.124082 -0.156167 1693 0.874314 0.460234 0.126792
-6.142860 -5.123637 -0.153689 1671 0.881751 0.466635 0.162447
-6.143345 -5.124024 -0.151248 1673 0.874773 0.461071 0.197569
-6.144003 -5.124565 -0.148803 1669 0.865305 0.453283 0.232749
-6.144317 -5.124814 -0.146352 1655 0.860784 0.449702 0.268015
-6.145484 -5.125778 -0.143925 1667 0.843995 0.435829 0.302936
-6.146250 -5.126409 -0.141480 1667 0.832976 0.426752 0.338116
-6.147015 -5.127026 -0.139037 1649 0.821964 0.417874 0.373267
-6.148174 -5.127983 -0.136601 1653 0.805292 0.404104 0.408317
-6.148159 -5.127954 -0.134141 1631 0.805505 0.404523 0.443713
-6.148860 -5.128537 -0.131697 1625 0.795419 0.396132 0.478879
-6.150184 -5.129626 -0.129260 1621 0.776366 0.380468 0.513943
-6.151293 -5.130535 -0.126822 1615 0.760415 0.367384 0.549022
-6.152339 -5.131394 -0.124377 1599 0.745362 0.355028 0.584202
-6.154049 -5.132817 -0.121947 1589 0.720758 0.334554 0.619166
-6.155875 -5.134322 -0.119517 1567 0.694481 0.312894 0.654130
-6.156978 -5.135223 -0.117072 1555 0.678611 0.299934 0.689310
-6.158467 -5.136459 -0.114634 1531 0.657191 0.282150 0.724389
-6.160629 -5.138249 -0.112212 1513 0.626084 0.256394 0.759238
-6.162857 -5.140088 -0.109778 1487 0.594022 0.229932 0.794260
-6.164961 -5.141837 -0.107348 1461 0.563752 0.204766 0.829224
-6.166953 -5.143488 -0.104916 1409 0.535087 0.181013 0.864217
-6.170069 -5.146077 -0.102488 1345 0.490250 0.143758 0.899152
-6.174425 -5.149699 -0.100085 1279 0.427575 0.091642 0.933727
-6.179733 -5.154107 -0.097686 1181 0.351206 0.028219 0.968245
-6.181666 -5.155703 -0.095244 927 0.323392 0.005256 1.003382
-6.173279 -5.146103 -0.223510 1335 0.444069 0.143387 -0.842172
-6.169136 -5.142631 -0.220902 1381 0.503677 0.193342 -0.804647
-6.166089 -5.140082 -0.218329 1419 0.547519 0.230021 -0.767625
-6.163507 -5.137915 -0.215783 1459 0.584671 0.261197 -0.730992
-6.160862 -5.135699 -0.213229 1489 0.622729 0.293087 -0.694244
-6.158840 -5.134004 -0.210700 1519 0.651819 0.317471 -0.657855
-6.157098 -5.132538 -0.208180 1547 0.676889 0.338568 -0.621596
-6.155519 -5.131204 -0.205668 1565 0.699606 0.357758 -0.585452
-6.154221 -5.130113 -0.203166 1585 0.718281 0.373456 -0.549452
-6.153145 -5.129210 -0.200671 1597 0.733767 0.386451 -0.513553
-6.152413 -5.128584 -0.198186 1611 0.744298 0.395459 -0.477798
-6.151394 -5.127723 -0.195691 1621 0.758960 0.407843 -0.441899
-6.150096 -5.126631 -0.193198 1629 0.777636 0.423562 -0.406028
-6.149134 -5.125811 -0.190703 1637 0.791474 0.435356 -0.370129
-6.148337 -5.125136 -0.188218 1647 0.802946 0.445071 -0.334373
-6.147319 -5.124275 -0.185735 1655 0.817594 0.457455 -0.298647
-6.147088 -5.124066 -0.183265 1667 0.820915 0.460467 -0.263107
-6.147129 -5.124093 -0.180816 1677 0.820325 0.460076 -0.227870
-6.146218 -5.123322 -0.178330 1693 0.833436 0.471170 -0.192100
-6.145586 -5.122779 -0.175855 1685 0.842527 0.478985 -0.156488
-6.145577 -5.122757 -0.173394 1683 0.842657 0.479300 -0.121078
-6.145225 -5.122458 -0.170926 1705 0.847720 0.483602 -0.085568
-6.144708 -5.122013 -0.168460 1709 0.855158 0.490003 -0.050085
-6.144362 -5.121706 -0.165992 1699 0.860139 0.494422 -0.014575
-6.143895 -5.121310 -0.163523 1697 0.866856 0.500116 0.020950
-6.143995 -5.121378 -0.161063 1697 0.865422 0.499142 0.056346
-6.144201 -5.121537 -0.158612 1697 0.862458 0.496851 0.091612
-6.144300 -5.121606 -0.156161 1699 0.861031 0.495863 0.126879
-6.144671 -5.121911 -0.153708 1675 0.855693 0.491472 0.162174
-6.145279 -5.122403 -0.151265 1671 0.846945 0.484391 0.197325
-6.145930 -5.122936 -0.148822 1681 0.837580 0.476727 0.232476
-6.146365 -5.123290 -0.146371 1665 0.831316 0.471630 0.267742
-6.147016 -5.123809 -0.143925 1665 0.821951 0.464165 0.302936
-6.147846 -5.124489 -0.141492 1665 0.810006 0.454381 0.337943
-6.148103 -5.124697 -0.139041 1661 0.806308 0.451383 0.373209
-6.149105 -5.125515 -0.136596 1653 0.791893 0.439616 0.408389
-6.150307 -5.126513 -0.134158 1649 0.774596 0.425256 0.443468
-6.150678 -5.126804 -0.131705 1639 0.769258 0.421071 0.478763
-6.151501 -5.127477 -0.129262 1627 0.757416 0.411384 0.513914
-6.152489 -5.128295 -0.126826 1615 0.743200 0.399617 0.548965
-6.153870 -5.129426 -0.124389 1609 0.723331 0.383343 0.584030
-6.155252 -5.130570 -0.121951 1599 0.703448 0.366883 0.619109
-6.156798 -5.131847 -0.119523 1577 0.681205 0.348510 0.654044
-6.158180 -5.132991 -0.117085 1553 0.661315 0.332050 0.689123
-6.159841 -5.134351 -0.114646 1529 0.637418 0.312483 0.724217
-6.162562 -5.136614 -0.112231 1517 0.598269 0.279921 0.758965
-6.164561 -5.138272 -0.109790 1487 0.569508 0.256065 0.794087
-6.165318 -5.138882 -0.107344 1443 0.558613 0.247283 0.829281
-6.167381 -5.140589 -0.104903 1397 0.528932 0.222721 0.864404
-6.170941 -5.143552 -0.102494 1345 0.477709 0.180094 0.899066
-6.175297 -5.147161 -0.100089 1283 0.415034 0.128163 0.933670
-6.179932 -5.151013 -0.097684 1179 0.348338 0.072740 0.968274
-6.174417 -5.143836 -0.223512 1357 0.427692 0.176004 -0.842201
-6.171098 -5.141065 -0.220931 1397 0.475444 0.215873 -0.805064
-6.168345 -5.138760 -0.218365 1439 0.515060 0.249039 -0.768143
-6.165420 -5.136301 -0.215802 1475 0.557145 0.284421 -0.731265
-6.162674 -5.134001 -0.213248 1499 0.596657 0.317519 -0.694517
-6.160186 -5.131925 -0.210702 1515 0.632458 0.347384 -0.657884
-6.158443 -5.130459 -0.208180 1541 0.657534 0.368482 -0.621596
-6.157146 -5.129369 -0.205678 1573 0.676196 0.384166 -0.585596
-6.155969 -5.128367 -0.203175 1589 0.693129 0.398581 -0.549582
-6.154886 -5.127457 -0.200681 1597 0.708717 0.411672 -0.513697
-6.153588 -5.126366 -0.198178 1619 0.727393 0.427370 -0.477683
-6.152353 -5.125324 -0.195685 1631 0.745163 0.442368 -0.441812
-6.151385 -5.124511 -0.193200 1635 0.759090 0.454066 -0.406057
-6.150710 -5.123927 -0.190715 1639 0.768799 0.462463 -0.370301
-6.149691 -5.123065 -0.188229 1653 0.783461 0.474868 -0.334532
-6.148607 -5.122155 -0.185736 1665 0.799062 0.487959 -0.298661
-6.148090 -5.121709 -0.183268 1675 0.806500 0.494381 -0.263150
-6.147630 -5.121320 -0.180791 1673 0.813114 0.499979 -0.227510
-6.147285 -5.121013 -0.178323 1683 0.818081 0.504391 -0.191999
-6.147219 -5.120950 -0.175864 1699 0.819028 0.505296 -0.156618
-6.146530 -5.120366 -0.173388 1699 0.828942 0.513701 -0.120992
-6.145783 -5.119726 -0.170913 1699 0.839693 0.522909 -0.085380
-6.145266 -5.119282 -0.168444 1697 0.847130 0.529303 -0.049855
-6.144971 -5.119024 -0.165976 1703 0.851377 0.533015 -0.014345
-6.145464 -5.119432 -0.163533 1703 0.844283 0.527142 0.020807
-6.145112 -5.119119 -0.161065 1701 0.849346 0.531643 0.056317
-6.144867 -5.118910 -0.158606 1703 0.852873 0.534654 0.091699
-6.145761 -5.119638 -0.156163 1697 0.840009 0.524178 0.126850
-6.146362 -5.120123 -0.153720 1679 0.831364 0.517200 0.162001
-6.147241 -5.120851 -0.151284 1675 0.818712 0.506724 0.197051
-6.147677 -5.121191 -0.148843 1685 0.812441 0.501832 0.232173
-6.147597 -5.121113 -0.146382 1669 0.813594 0.502957 0.267583
-6.148534 -5.121883 -0.143937 1669 0.800112 0.491876 0.302763
-6.148906 -5.122188 -0.141484 1661 0.794754 0.487485 0.338058
-6.149227 -5.122444 -0.139033 1661 0.790136 0.483801 0.373324
-6.150386 -5.123387 -0.136607 1655 0.773464 0.470237 0.408231
-6.151489 -5.124303 -0.134160 1653 0.757595 0.457057 0.443440
-6.152139 -5.124823 -0.131717 1643 0.748236 0.449572 0.478591
-6.152848 -5.125412 -0.129273 1635 0.738041 0.441098 0.513756
-6.153950 -5.126314 -0.126838 1621 0.722178 0.428117 0.548792
-6.155446 -5.127542 -0.124398 1625 0.700656 0.410450 0.583900
-6.156376 -5.128304 -0.121953 1607 0.687277 0.399487 0.619080
-6.157643 -5.129352 -0.119517 1579 0.669047 0.384406 0.654130
-6.158803 -5.130309 -0.117070 1559 0.652354 0.370636 0.689339
-6.160965 -5.132099 -0.114648 1547 0.621247 0.344880 0.724188
-6.164031 -5.134639 -0.112231 1533 0.577131 0.308339 0.758965
-6.166366 -5.136568 -0.109809 1505 0.543533 0.280579 0.793814
-6.167797 -5.137746 -0.107360 1459 0.522943 0.263633 0.829051
-6.169788 -5.139398 -0.104930 1419 0.494298 0.239859 0.864015
-6.173356 -5.142355 -0.102519 1363 0.442958 0.197315 0.898706
-6.177603 -5.145873 -0.100106 1297 0.381854 0.146694 0.933425
-6.182074 -5.149593 -0.097701 1207 0.317519 0.093172 0.968030
-6.175694 -5.141829 -0.223513 1359 0.409318 0.204882 -0.842215
-6.172375 -5.139058 -0.220933 1401 0.457071 0.244751 -0.805093
-6.169399 -5.136564 -0.218358 1439 0.499897 0.280641 -0.768042
-6.166482 -5.134127 -0.215794 1469 0.541865 0.315701 -0.731150
-6.164001 -5.132057 -0.213248 1505 0.577563 0.345484 -0.694517
-6.162259 -5.130591 -0.210728 1529 0.602626 0.366581 -0.658258
-6.160624 -5.129216 -0.208216 1549 0.626152 0.386362 -0.622114
-6.159039 -5.127889 -0.205697 1569 0.648958 0.405456 -0.585870
-6.157296 -5.126423 -0.203187 1589 0.674035 0.426553 -0.549755
-6.156106 -5.125422 -0.200682 1605 0.691160 0.440954 -0.513711
-6.154757 -5.124283 -0.198180 1617 0.710570 0.457345 -0.477711
-6.153566 -5.123282 -0.195687 1619 0.727708 0.471746 -0.441841
-6.153171 -5.122941 -0.193219 1631 0.733389 0.476652 -0.406330
-6.152653 -5.122496 -0.190741 1651 0.740840 0.483053 -0.370676
-6.152029 -5.121961 -0.188266 1667 0.749821 0.490751 -0.335064
-6.151117 -5.121189 -0.185780 1673 0.762946 0.501859 -0.299294
-6.149819 -5.120099 -0.183278 1671 0.781622 0.517543 -0.263294
-6.148972 -5.119375 -0.180802 1673 0.793807 0.527958 -0.227668
-6.148218 -5.118743 -0.178317 1687 0.804654 0.537056 -0.191913
-6.147092 -5.117791 -0.175834 1691 0.820860 0.550750 -0.156186
-6.146682 -5.117436 -0.173365 1687 0.826760 0.555862 -0.120661
-6.146609 -5.117366 -0.170905 1691 0.827810 0.556870 -0.085265
-6.146156 -5.116969 -0.168439 1701 0.834328 0.562579 -0.049783
-6.147144 -5.117787 -0.166003 1709 0.820112 0.550812 -0.014733
-6.147579 -5.118140 -0.163560 1705 0.813848 0.545728 0.020418
-6.146446 -5.117182 -0.161067 1701 0.830149 0.559519 0.056289
-6.146882 -5.117535 -0.158624 1703 0.823879 0.554435 0.091440
-6.147482 -5.118020 -0.156180 1701 0.815247 0.547457 0.126605
-6.147237 -5.117797 -0.153722 1685 0.818774 0.550668 0.161972
-6.147788 -5.118248 -0.151269 1681 0.810843 0.544178 0.197267
-6.148718 -5.119010 -0.148835 1679 0.797464 0.533214 0.232289
-6.148824 -5.119085 -0.146384 1673 0.795934 0.532137 0.267555
-6.148630 -5.118911 -0.143914 1661 0.798726 0.534641 0.303094
-6.149008 -5.119209 -0.141473 1669 0.793292 0.530353 0.338217
-6.149837 -5.119889 -0.139027 1661 0.781361 0.520569 0.373411
-6.151212 -5.121026 -0.136601 1651 0.761574 0.504206 0.408317
-6.152142 -5.121789 -0.134156 1647 0.748195 0.493228 0.443497
-6.152857 -5.122371 -0.131711 1643 0.737911 0.484851 0.478677
-6.154075 -5.123370 -0.129275 1631 0.720381 0.470477 0.513727
-6.155227 -5.124321 -0.126838 1627 0.703805 0.456796 0.548792
-6.156157 -5.125083 -0.124392 1619 0.690426 0.445832 0.583986
-6.157703 -5.126359 -0.121964 1601 0.668183 0.427473 0.618922
-6.158920 -5.127358 -0.119517 1583 0.650673 0.413099 0.654130
-6.160073 -5.128309 -0.117081 1557 0.634084 0.399418 0.689181
-6.162185 -5.130050 -0.114650 1535 0.603690 0.374362 0.724159
-6.164642 -5.132083 -0.112225 1521 0.568342 0.345113 0.759051
-6.166517 -5.133637 -0.109795 1493 0.541365 0.322754 0.794015
-6.168852 -5.135566 -0.107364 1457 0.507766 0.294994 0.828994
-6.171917 -5.138106 -0.104945 1425 0.463664 0.258453 0.863799
-6.175148 -5.140778 -0.102528 1375 0.417174 0.220004 0.898576
-6.178607 -5.143644 -0.100108 1311 0.367405 0.178769 0.933397
-6.182734 -5.147072 -0.097695 1213 0.308023 0.129446 0.968116
-6.187376 -5.150918 -0.095290 1041 0.241232 0.074105 1.002720
-6.176232 -5.139148 -0.223489 1365 0.401579 0.243455 -0.841870
-6.172798 -5.136280 -0.220898 1415 0.450985 0.284723 -0.804589
-6.170547 -5.134390 -0.218362 1451 0.483376 0.311920 -0.768100
-6.168288 -5.132507 -0.215813 1475 0.515876 0.339014 -0.731424
-6.165714 -5.130347 -0.213267 1509 0.552918 0.370094 -0.694791
-6.163563 -5.128555 -0.210730 1537 0.583868 0.395878 -0.658287
-6.161878 -5.127131 -0.208218 1561 0.608108 0.416365 -0.622143
-6.160185 -5.125714 -0.205699 1569 0.632471 0.436755 -0.585898
-6.158715 -5.124484 -0.203187 1593 0.653624 0.454450 -0.549755
-6.157646 -5.123573 -0.200692 1615 0.668999 0.467561 -0.513855
-6.156069 -5.122254 -0.198182 1611 0.691695 0.486539 -0.477740
-6.154828 -5.121204 -0.195689 1619 0.709547 0.501646 -0.441870
-6.154590 -5.121002 -0.193219 1637 0.712971 0.504549 -0.406330
-6.153406 -5.119995 -0.190726 1647 0.730007 0.519039 -0.370460
-6.152215 -5.118994 -0.188233 1661 0.747146 0.533440 -0.334589
-6.151476 -5.118375 -0.185757 1661 0.757780 0.542353 -0.298963
-6.150901 -5.117875 -0.183280 1671 0.766054 0.549543 -0.263323
-6.150613 -5.117624 -0.180812 1685 0.770198 0.553159 -0.227812
-6.149358 -5.116575 -0.178319 1681 0.788256 0.568253 -0.191942
-6.148396 -5.115755 -0.175834 1685 0.802095 0.580047 -0.156186
-6.148331 -5.115692 -0.173375 1695 0.803028 0.580952 -0.120805
-6.148036 -5.115434 -0.170916 1699 0.807275 0.584664 -0.085424
-6.148299 -5.115648 -0.168465 1707 0.803488 0.581590 -0.050158
-6.148678 -5.115946 -0.166013 1719 0.798040 0.577302 -0.014877
-6.148777 -5.116014 -0.163562 1717 0.796613 0.576321 0.020389
-6.148654 -5.115895 -0.161094 1707 0.798383 0.578036 0.055900
-6.148753 -5.115964 -0.158643 1705 0.796956 0.577042 0.091166
-6.148901 -5.116081 -0.156192 1701 0.794829 0.575354 0.126432
-6.148771 -5.115956 -0.153733 1699 0.796702 0.577158 0.161814
-6.148304 -5.115559 -0.151265 1689 0.803419 0.582867 0.197325
-6.149020 -5.116141 -0.148822 1691 0.793114 0.574496 0.232476
-6.149563 -5.116585 -0.146378 1685 0.785306 0.568109 0.267641
-6.149770 -5.116743 -0.143918 1667 0.782329 0.565831 0.303037
-6.150485 -5.117325 -0.141484 1669 0.772037 0.557460 0.338058
-6.150913 -5.117672 -0.139031 1653 0.765883 0.552466 0.373353
-6.152237 -5.118761 -0.136594 1651 0.746830 0.536795 0.408418
-6.153454 -5.119760 -0.134167 1647 0.729321 0.522421 0.443339
-6.154341 -5.120481 -0.131722 1635 0.716552 0.512048 0.478519
-6.155716 -5.121619 -0.129285 1635 0.696772 0.495671 0.513584
-6.156424 -5.122194 -0.126841 1621 0.686584 0.487403 0.548749
-6.157354 -5.122957 -0.124396 1615 0.673205 0.476419 0.583929
-6.158908 -5.124240 -0.121966 1607 0.650845 0.457963 0.618893
-6.160339 -5.125420 -0.119529 1591 0.630255 0.440982 0.653958
-6.161614 -5.126460 -0.117091 1561 0.611909 0.426018 0.689037
-6.163605 -5.128111 -0.114661 1555 0.583258 0.402265 0.724001
-6.165839 -5.129957 -0.112239 1527 0.551114 0.375700 0.758850
-6.167443 -5.131275 -0.109799 1493 0.528041 0.356736 0.793958
-6.169827 -5.133253 -0.107365 1453 0.493736 0.328277 0.828979
-6.173344 -5.136160 -0.104956 1411 0.443129 0.286452 0.863641
-6.176689 -5.138929 -0.102538 1365 0.395000 0.246611 0.898432
-6.179926 -5.141608 -0.100121 1309 0.348427 0.208059 0.933209
-6.183995 -5.144981 -0.097709 1235 0.289883 0.159531 0.967914
-6.188974 -5.149110 -0.095300 1053 0.218240 0.100122 1.002576
-6.178038 -5.137527 -0.223508 1369 0.375590 0.266782 -0.842143
-6.175235 -5.135173 -0.220944 1401 0.415926 0.300654 -0.805251
-6.172317 -5.132736 -0.218381 1441 0.457908 0.335714 -0.768373
-6.169041 -5.130006 -0.215798 1469 0.505043 0.375000 -0.731208
-6.166625 -5.127985 -0.213252 1507 0.539807 0.404077 -0.694575
-6.164710 -5.126380 -0.210732 1533 0.567361 0.427171 -0.658316
-6.162968 -5.124914 -0.208213 1553 0.592424 0.448261 -0.622071
-6.160817 -5.123123 -0.205684 1567 0.623374 0.474031 -0.585683
-6.159525 -5.122025 -0.203181 1587 0.641967 0.489832 -0.549668
-6.159130 -5.121683 -0.200703 1605 0.647648 0.494751 -0.514014
-6.158441 -5.121099 -0.198216 1613 0.657562 0.503156 -0.478230
-6.157479 -5.120293 -0.195733 1629 0.671407 0.514751 -0.442503
-6.156181 -5.119202 -0.193230 1647 0.690083 0.530449 -0.406488
-6.154711 -5.117973 -0.190728 1649 0.711235 0.548136 -0.370488
-6.153406 -5.116875 -0.188235 1655 0.730007 0.563930 -0.334618
-6.152608 -5.116201 -0.185750 1661 0.741492 0.573632 -0.298862
-6.152206 -5.115853 -0.183282 1669 0.747276 0.578640 -0.263352
-6.151968 -5.115637 -0.180814 1681 0.750700 0.581748 -0.227841
-6.151509 -5.115247 -0.178346 1685 0.757307 0.587360 -0.192330
-6.150991 -5.114802 -0.175879 1697 0.764758 0.593762 -0.156834
-6.150646 -5.114496 -0.173411 1697 0.769718 0.598160 -0.121323
-6.150351 -5.114238 -0.170943 1705 0.773965 0.601878 -0.085812
-6.150055 -5.113980 -0.168475 1707 0.778226 0.605590 -0.050301
-6.150097 -5.114007 -0.166024 1711 0.777622 0.605199 -0.015035
-6.150138 -5.114034 -0.163564 1699 0.777032 0.604808 0.020361
-6.149679 -5.113630 -0.161095 1711 0.783632 0.610626 0.055886
-6.149771 -5.113706 -0.158646 1703 0.782308 0.609528 0.091123
-6.150156 -5.114011 -0.156194 1701 0.776771 0.605144 0.126404
-6.149961 -5.113836 -0.153735 1699 0.779577 0.607662 0.161785
-6.150455 -5.114232 -0.151282 1695 0.772469 0.601961 0.197080
-6.151169 -5.114813 -0.148848 1687 0.762198 0.593604 0.232102
-6.151770 -5.115298 -0.146396 1683 0.753547 0.586626 0.267382
-6.152142 -5.115603 -0.143952 1675 0.748195 0.582235 0.302548
-6.151732 -5.115248 -0.141484 1647 0.754096 0.587340 0.338058
-6.152003 -5.115456 -0.139033 1639 0.750199 0.584348 0.373324
-6.153886 -5.117017 -0.136613 1659 0.723105 0.561893 0.408145
-6.154988 -5.117918 -0.134177 1643 0.707249 0.548925 0.443195
-6.155760 -5.118543 -0.131734 1637 0.696141 0.539931 0.478346
-6.156913 -5.119493 -0.129296 1631 0.679551 0.526264 0.513425
-6.158073 -5.120450 -0.126851 1623 0.662859 0.512494 0.548605
-6.159397 -5.121539 -0.124423 1613 0.643806 0.496823 0.583540
-6.161007 -5.122863 -0.121983 1603 0.620643 0.477777 0.618648
-6.162282 -5.123904 -0.119548 1593 0.602297 0.462793 0.653684
-6.163485 -5.124889 -0.117110 1571 0.584987 0.448625 0.688763
-6.165145 -5.126263 -0.114671 1557 0.561104 0.428852 0.723857
-6.166699 -5.127546 -0.112233 1521 0.538744 0.410396 0.758936
-6.168582 -5.129093 -0.109801 1487 0.511650 0.388132 0.793929
-6.171762 -5.131730 -0.107385 1463 0.465894 0.350191 0.828691
-6.175050 -5.134443 -0.104966 1425 0.418588 0.311159 0.863497
-6.177721 -5.136657 -0.102542 1373 0.380152 0.279296 0.898375
-6.180958 -5.139335 -0.100123 1299 0.333580 0.240765 0.933181
-6.185930 -5.143458 -0.097716 1219 0.262041 0.181445 0.967814
-6.193037 -5.149358 -0.095347 1067 0.159778 0.096554 1.001900
-6.180414 -5.136628 -0.223552 1381 0.341402 0.279715 -0.842776
-6.176471 -5.133336 -0.220944 1411 0.398135 0.327083 -0.805251
-6.173096 -5.130524 -0.218364 1447 0.446697 0.367542 -0.768129
-6.170400 -5.128273 -0.215808 1481 0.485489 0.399933 -0.731352
-6.168256 -5.126474 -0.213269 1509 0.516343 0.425819 -0.694819
-6.165998 -5.124592 -0.210732 1529 0.548829 0.452899 -0.658316
-6.164198 -5.123085 -0.208213 1543 0.574729 0.474580 -0.622071
-6.162570 -5.121716 -0.205701 1563 0.598153 0.494278 -0.585927
-6.160870 -5.120292 -0.203181 1581 0.622612 0.514765 -0.549668
-6.159630 -5.119257 -0.200688 1601 0.640458 0.529660 -0.513798
-6.158611 -5.118395 -0.198193 1615 0.655119 0.542064 -0.477898
-6.157527 -5.117485 -0.195699 1619 0.670714 0.555155 -0.442014
-6.156737 -5.116817 -0.193213 1627 0.682083 0.564767 -0.406244
-6.156048 -5.116234 -0.190738 1651 0.691997 0.573158 -0.370632
-6.154865 -5.115226 -0.188245 1657 0.709019 0.587662 -0.334762
-6.153954 -5.114469 -0.185759 1661 0.722124 0.598551 -0.298992
-6.153945 -5.114447 -0.183299 1671 0.722254 0.598866 -0.263596
-6.153435 -5.114009 -0.180833 1671 0.729588 0.605172 -0.228114
-6.153190 -5.113800 -0.178363 1697 0.733115 0.608177 -0.192575
-6.152730 -5.113395 -0.175896 1707 0.739736 0.614002 -0.157078
-6.151876 -5.112680 -0.173411 1701 0.752024 0.624293 -0.121323
-6.151581 -5.112422 -0.170943 1715 0.756271 0.628005 -0.085812
-6.151458 -5.112303 -0.168483 1713 0.758041 0.629720 -0.050417
-6.151277 -5.112143 -0.166024 1709 0.760641 0.632019 -0.015035
-6.150702 -5.111656 -0.163558 1695 0.768915 0.639024 0.020447
-6.151189 -5.112044 -0.161105 1695 0.761910 0.633446 0.055742
-6.151732 -5.112487 -0.158662 1699 0.754096 0.627072 0.090893
-6.152061 -5.112751 -0.156211 1715 0.749362 0.623271 0.126159
-6.152324 -5.112951 -0.153758 1705 0.745574 0.620396 0.161454
-6.151907 -5.112603 -0.151292 1691 0.751578 0.625398 0.196936
-6.152006 -5.112672 -0.148841 1681 0.750151 0.624410 0.232202
-6.152663 -5.113198 -0.146397 1675 0.740696 0.616842 0.267368
-6.152749 -5.113267 -0.143946 1671 0.739461 0.615847 0.302634
-6.153191 -5.113613 -0.141494 1661 0.733101 0.610866 0.337914
-6.154522 -5.114709 -0.139067 1651 0.713952 0.595100 0.372835
-6.155732 -5.115701 -0.136630 1655 0.696539 0.580822 0.407900
-6.156555 -5.116373 -0.134185 1641 0.684697 0.571155 0.443080
-6.157206 -5.116907 -0.131741 1639 0.675332 0.563471 0.478245
-6.158029 -5.117579 -0.129298 1629 0.663490 0.553804 0.513396
-6.159296 -5.118627 -0.126860 1617 0.645260 0.538723 0.548476
-6.160570 -5.119668 -0.124423 1607 0.626928 0.523746 0.583540
-6.162009 -5.120854 -0.121985 1599 0.606228 0.506682 0.618619
-6.163505 -5.122082 -0.119557 1589 0.584698 0.489009 0.653555
-6.164715 -5.123073 -0.117110 1563 0.567292 0.474751 0.688763
-6.166318 -5.124392 -0.114682 1539 0.544226 0.455774 0.723699
-6.168151 -5.125904 -0.112241 1517 0.517852 0.434018 0.758821
-6.170257 -5.127652 -0.109811 1487 0.487547 0.408866 0.793785
-6.172820 -5.129761 -0.107386 1473 0.450669 0.378520 0.828677
-6.175319 -5.131836 -0.104962 1429 0.414711 0.348667 0.863555
-6.178443 -5.134418 -0.102544 1369 0.369765 0.311515 0.898346
-6.182239 -5.137555 -0.100123 1299 0.315145 0.266377 0.933181
-6.187275 -5.141726 -0.097726 1219 0.242686 0.206364 0.967670
-6.193486 -5.146883 -0.095342 1055 0.153315 0.132163 1.001972
-6.182385 -5.134708 -0.223563 1395 0.313045 0.307344 -0.842934
-6.178780 -5.131702 -0.220973 1425 0.364914 0.350595 -0.805668
-6.175525 -5.128980 -0.218402 1453 0.411747 0.389758 -0.768675
-6.172643 -5.126577 -0.215836 1479 0.453215 0.424337 -0.731755
-6.170235 -5.124562 -0.213290 1507 0.487863 0.453332 -0.695122
-6.167410 -5.122215 -0.210736 1513 0.528514 0.487101 -0.658373
-6.165660 -5.120742 -0.208215 1531 0.553694 0.508295 -0.622100
-6.164763 -5.119985 -0.205731 1563 0.566599 0.519183 -0.586359
-6.163235 -5.118699 -0.203219 1581 0.588582 0.537687 -0.550215
-6.161773 -5.117476 -0.200707 1593 0.609617 0.555285 -0.514071
-6.160468 -5.116379 -0.198205 1613 0.628396 0.571073 -0.478071
-6.159169 -5.115288 -0.195712 1621 0.647085 0.586770 -0.442201
-6.158594 -5.114801 -0.193234 1637 0.655360 0.593775 -0.406546
-6.158370 -5.114599 -0.190766 1647 0.658584 0.596678 -0.371035
-6.157911 -5.114210 -0.188289 1657 0.665191 0.602276 -0.335395
-6.157272 -5.113674 -0.185813 1671 0.674385 0.609988 -0.299769
-6.156425 -5.112951 -0.183337 1677 0.686570 0.620396 -0.264143
-6.155456 -5.112138 -0.180852 1677 0.700512 0.632094 -0.228388
-6.154545 -5.111366 -0.178368 1677 0.713623 0.643202 -0.192647
-6.153526 -5.110505 -0.175883 1679 0.728285 0.655586 -0.156891
-6.153453 -5.110434 -0.173423 1703 0.729334 0.656608 -0.121496
-6.153388 -5.110371 -0.170964 1701 0.730268 0.657514 -0.086114
-6.152920 -5.109975 -0.168486 1707 0.737005 0.663215 -0.050460
-6.152854 -5.109898 -0.166037 1699 0.737952 0.664320 -0.015222
-6.153225 -5.110202 -0.163585 1685 0.732614 0.659949 0.020058
-6.153389 -5.110319 -0.161134 1693 0.730254 0.658262 0.055324
-6.153259 -5.110208 -0.158675 1689 0.732127 0.659860 0.090706
-6.153573 -5.110456 -0.156222 1705 0.727605 0.656293 0.126001
-6.153844 -5.110664 -0.153771 1699 0.723708 0.653301 0.161267
-6.153771 -5.110594 -0.151313 1687 0.724758 0.654310 0.196634
-6.154034 -5.110794 -0.148860 1683 0.720971 0.651428 0.231929
-6.155036 -5.111613 -0.146426 1675 0.706556 0.639648 0.266950
-6.155572 -5.112049 -0.143971 1683 0.698844 0.633370 0.302274
-6.155557 -5.112020 -0.141522 1661 0.699057 0.633789 0.337512
-6.156429 -5.112741 -0.139077 1653 0.686515 0.623415 0.372692
-6.157596 -5.113691 -0.136641 1645 0.669720 0.609748 0.407742
-6.158419 -5.114364 -0.134196 1637 0.657878 0.600060 0.442922
-6.159528 -5.115273 -0.131760 1635 0.641926 0.586983 0.477972
-6.160509 -5.116084 -0.129325 1625 0.627806 0.575313 0.513008
-6.161274 -5.116701 -0.126881 1617 0.616801 0.566435 0.548173
-6.162885 -5.118026 -0.124442 1615 0.593618 0.547375 0.583267
-6.164940 -5.119726 -0.122020 1611 0.564054 0.522909 0.618116
-6.165935 -5.120537 -0.119574 1583 0.549735 0.511245 0.653310
-6.166700 -5.121154 -0.117131 1557 0.538730 0.502367 0.688461
-6.168017 -5.122236 -0.114693 1539 0.519780 0.486799 0.723540
-6.169965 -5.123846 -0.112252 1523 0.491753 0.463630 0.758663
-6.172070 -5.125580 -0.109832 1491 0.461462 0.438683 0.793483
-6.174691 -5.127745 -0.107407 1467 0.423747 0.407528 0.828375
-6.177757 -5.130285 -0.104979 1427 0.379638 0.370986 0.863310
-6.180601 -5.132624 -0.102553 1375 0.338712 0.337326 0.898217
-6.184060 -5.135489 -0.100144 1305 0.288943 0.296106 0.932878
-6.188643 -5.139279 -0.097739 1217 0.223002 0.241575 0.967483
-6.193508 -5.143311 -0.095332 1053 0.153000 0.183558 1.002116
-6.184305 -5.133088 -0.223592 1399 0.285416 0.330651 -0.843352
-6.180986 -5.130317 -0.221009 1433 0.333175 0.370520 -0.806186
-6.177546 -5.127456 -0.218419 1459 0.382670 0.411685 -0.768920
-6.174384 -5.124824 -0.215855 1479 0.428165 0.449558 -0.732028
-6.171975 -5.122809 -0.213309 1503 0.462827 0.478552 -0.695395
-6.169831 -5.121010 -0.210772 1527 0.493681 0.504439 -0.658891
-6.167802 -5.119322 -0.208243 1543 0.522874 0.528727 -0.622503
-6.165995 -5.117808 -0.205724 1559 0.548870 0.550510 -0.586258
-6.164632 -5.116669 -0.203221 1571 0.568486 0.566894 -0.550244
-6.163112 -5.115390 -0.200709 1589 0.590352 0.585302 -0.514100
-6.162093 -5.114529 -0.198224 1607 0.605014 0.597686 -0.478344
-6.162206 -5.114611 -0.195763 1631 0.603388 0.596506 -0.442935
-6.161410 -5.113937 -0.193278 1651 0.614846 0.606208 -0.407179
-6.159824 -5.112610 -0.190778 1647 0.637665 0.625302 -0.371208
-6.158805 -5.111748 -0.188283 1649 0.652327 0.637699 -0.335308
-6.158461 -5.111456 -0.185815 1669 0.657274 0.641905 -0.299798
-6.158108 -5.111157 -0.183347 1673 0.662351 0.646207 -0.264287
-6.156638 -5.109913 -0.180844 1665 0.683503 0.664107 -0.228272
-6.155161 -5.108677 -0.178353 1669 0.704758 0.681891 -0.192431
-6.154758 -5.108329 -0.175885 1687 0.710556 0.686899 -0.156920
-6.155087 -5.108592 -0.173434 1691 0.705822 0.683112 -0.121654
-6.155013 -5.108521 -0.170974 1687 0.706885 0.684134 -0.086258
-6.154940 -5.108451 -0.168515 1687 0.707935 0.685143 -0.050877
-6.154817 -5.108332 -0.166055 1691 0.709705 0.686851 -0.015481
-6.154751 -5.108269 -0.163596 1691 0.710659 0.687757 0.019900
-6.155015 -5.108469 -0.161145 1691 0.706858 0.684882 0.055166
-6.154942 -5.108399 -0.158685 1687 0.707908 0.685891 0.090562
-6.154805 -5.108280 -0.156226 1693 0.709877 0.687599 0.125943
-6.154796 -5.108258 -0.153766 1677 0.710007 0.687922 0.161339
-6.155569 -5.108883 -0.151322 1681 0.698886 0.678927 0.196504
-6.156112 -5.109326 -0.148879 1683 0.691071 0.672553 0.231655
-6.156662 -5.109762 -0.146436 1681 0.683160 0.666275 0.266806
-6.157033 -5.110067 -0.143983 1675 0.677822 0.661891 0.302101
-6.157462 -5.110414 -0.141532 1663 0.671647 0.656896 0.337368
-6.158113 -5.110933 -0.139087 1649 0.662282 0.649432 0.372547
-6.158828 -5.111516 -0.136643 1647 0.651998 0.641041 0.407713
-6.159765 -5.112285 -0.134208 1643 0.638516 0.629974 0.442749
-6.161204 -5.113471 -0.131779 1629 0.617809 0.612911 0.477699
-6.162306 -5.114373 -0.129334 1625 0.601954 0.599930 0.512878
-6.162792 -5.114760 -0.126881 1619 0.594956 0.594366 0.548173
-6.164238 -5.115940 -0.124453 1605 0.574153 0.577385 0.583109
-6.165956 -5.117355 -0.122023 1601 0.549433 0.557028 0.618073
-6.167058 -5.118257 -0.119578 1583 0.533577 0.544047 0.653253
-6.168669 -5.119581 -0.117150 1559 0.510394 0.524994 0.688188
-6.170152 -5.120810 -0.114711 1543 0.489057 0.507314 0.723281
-6.171598 -5.121989 -0.112273 1519 0.468254 0.490353 0.758361
-6.173473 -5.123543 -0.109834 1485 0.441277 0.467993 0.793454
-6.175930 -5.125562 -0.107409 1447 0.405922 0.438937 0.828346
-6.178880 -5.128005 -0.104993 1411 0.363473 0.403788 0.863109
-6.181731 -5.130350 -0.102567 1359 0.322452 0.370046 0.898015
-6.185807 -5.133729 -0.100154 1297 0.263804 0.321429 0.932735
-6.191014 -5.138039 -0.097756 1213 0.188889 0.259413 0.967238
-6.186347 -5.131655 -0.223618 1391 0.256038 0.351268 -0.843726
-6.182290 -5.128281 -0.221011 1429 0.314411 0.399816 -0.806215
-6.178513 -5.125135 -0.218411 1447 0.368756 0.445085 -0.768805
-6.176097 -5.123114 -0.215865 1477 0.403521 0.474161 -0.732172
-6.174125 -5.121468 -0.213336 1503 0.431891 0.497845 -0.695783
-6.171358 -5.119162 -0.210782 1525 0.471705 0.531025 -0.659035
-6.169730 -5.117793 -0.208272 1541 0.495129 0.550723 -0.622920
-6.168768 -5.116987 -0.205777 1565 0.508974 0.562318 -0.587021
-6.167298 -5.115757 -0.203265 1585 0.530126 0.580019 -0.550877
-6.165434 -5.114201 -0.200745 1599 0.556946 0.602407 -0.514618
-6.163964 -5.112972 -0.198243 1611 0.578098 0.620094 -0.478618
-6.163561 -5.112624 -0.195765 1631 0.583896 0.625096 -0.442963
-6.162657 -5.111859 -0.193280 1639 0.596904 0.636108 -0.407208
-6.161409 -5.110817 -0.190787 1641 0.614859 0.651099 -0.371337
-6.161458 -5.110837 -0.188327 1659 0.614153 0.650811 -0.335942
-6.160668 -5.110169 -0.185841 1665 0.625521 0.660423 -0.300172
-6.158847 -5.108655 -0.183331 1669 0.651723 0.682206 -0.264057
-6.157886 -5.107835 -0.180846 1671 0.665548 0.694007 -0.228301
-6.157024 -5.107112 -0.178372 1675 0.677953 0.704409 -0.192704
-6.156285 -5.106494 -0.175896 1681 0.688587 0.713300 -0.157078
-6.156162 -5.106375 -0.173426 1677 0.690357 0.715009 -0.121539
-6.156490 -5.106638 -0.170985 1681 0.685637 0.711228 -0.086416
-6.157091 -5.107123 -0.168542 1681 0.676985 0.704251 -0.051265
-6.157362 -5.107331 -0.166091 1697 0.673088 0.701259 -0.015999
-6.157009 -5.107031 -0.163623 1693 0.678165 0.705575 0.019512
-6.156714 -5.106773 -0.161153 1683 0.682412 0.709287 0.055051
-6.156412 -5.106509 -0.158696 1687 0.686755 0.713081 0.090404
-6.156116 -5.106251 -0.156226 1681 0.691016 0.716799 0.125943
-6.157054 -5.107021 -0.153792 1683 0.677520 0.705719 0.160965
-6.157317 -5.107222 -0.151339 1677 0.673733 0.702824 0.196260
-6.157753 -5.107575 -0.148898 1677 0.667462 0.697747 0.231382
-6.158461 -5.108150 -0.146455 1677 0.657274 0.689472 0.266533
-6.158840 -5.108448 -0.144002 1661 0.651819 0.685184 0.301828
-6.159670 -5.109128 -0.141557 1663 0.639881 0.675400 0.337008
-6.159367 -5.108862 -0.139100 1657 0.644238 0.679229 0.372360
-6.160305 -5.109632 -0.136655 1651 0.630742 0.668148 0.407540
-6.162087 -5.111096 -0.134234 1653 0.605103 0.647085 0.442375
-6.162681 -5.111574 -0.131781 1635 0.596554 0.640204 0.477670
-6.163396 -5.112156 -0.129336 1625 0.586270 0.631833 0.512850
-6.164556 -5.113100 -0.126900 1617 0.569577 0.618249 0.547900
-6.165543 -5.113904 -0.124455 1595 0.555375 0.606681 0.583080
-6.166638 -5.114812 -0.122020 1583 0.539622 0.593618 0.618116
-6.168199 -5.116089 -0.119580 1579 0.517159 0.575244 0.653224
-6.170024 -5.117594 -0.117150 1565 0.490902 0.553591 0.688188
-6.171742 -5.119009 -0.114720 1547 0.466182 0.533227 0.723152
-6.173977 -5.120841 -0.112288 1515 0.434025 0.506868 0.758145
-6.176641 -5.123048 -0.109874 1481 0.395693 0.475115 0.792878
-6.178982 -5.124969 -0.107442 1445 0.362012 0.447472 0.827871
-6.181711 -5.127224 -0.105016 1399 0.322740 0.415027 0.862778
-6.185113 -5.130035 -0.102597 1357 0.273794 0.374581 0.897584
-6.188759 -5.133039 -0.100186 1289 0.221335 0.331357 0.932274
-6.193509 -5.136975 -0.097781 1191 0.152986 0.274727 0.966878
-6.188383 -5.130217 -0.223647 1369 0.226741 0.371960 -0.844143
-6.184440 -5.126939 -0.221038 1419 0.283475 0.419130 -0.806603
-6.181344 -5.124355 -0.218465 1445 0.328023 0.456309 -0.769582
-6.178476 -5.121966 -0.215911 1475 0.369292 0.490683 -0.732834
-6.176168 -5.120035 -0.213364 1501 0.402499 0.518463 -0.696186
-6.173522 -5.117834 -0.210818 1517 0.440570 0.550133 -0.659553
-6.171823 -5.116410 -0.208299 1541 0.465016 0.570627 -0.623308
-6.170804 -5.115562 -0.205804 1563 0.479678 0.582825 -0.587409
-6.169284 -5.114284 -0.203292 1579 0.501550 0.601213 -0.551265
-6.167477 -5.112770 -0.200772 1589 0.527547 0.622996 -0.515006
-6.166006 -5.111539 -0.198270 1601 0.548713 0.640711 -0.479006
-6.165324 -5.110963 -0.195784 1613 0.558524 0.648999 -0.443237
-6.164356 -5.110149 -0.193299 1623 0.572452 0.660711 -0.407481
-6.163108 -5.109107 -0.190797 1629 0.590414 0.675702 -0.371481
-6.162375 -5.108482 -0.188321 1649 0.600959 0.684697 -0.335855
-6.161521 -5.107766 -0.185836 1657 0.613247 0.694995 -0.300100
-6.160323 -5.106759 -0.183343 1653 0.630482 0.709486 -0.264229
-6.159813 -5.106320 -0.180875 1657 0.637823 0.715805 -0.228719
-6.159346 -5.105923 -0.178397 1667 0.644540 0.721513 -0.193064
-6.158772 -5.105437 -0.175931 1669 0.652800 0.728511 -0.157582
-6.158936 -5.105554 -0.173470 1675 0.650440 0.726823 -0.122172
-6.159149 -5.105720 -0.171019 1675 0.647373 0.724436 -0.086906
-6.158796 -5.105420 -0.168551 1677 0.652457 0.728751 -0.051395
-6.158601 -5.105246 -0.166091 1687 0.655263 0.731256 -0.015999
-6.158708 -5.105321 -0.163630 1689 0.653720 0.730178 0.019411
-6.158241 -5.104925 -0.161164 1687 0.660443 0.735873 0.054893
-6.158232 -5.104903 -0.158713 1689 0.660567 0.736189 0.090159
-6.158833 -5.105389 -0.156270 1681 0.651922 0.729197 0.125310
-6.159262 -5.105735 -0.153819 1681 0.645747 0.724223 0.160576
-6.159919 -5.106261 -0.151374 1675 0.636300 0.716655 0.195756
-6.160240 -5.106517 -0.148923 1681 0.631675 0.712971 0.231022
-6.160110 -5.106406 -0.146464 1665 0.633548 0.714563 0.266404
-6.161098 -5.107210 -0.144028 1663 0.619333 0.702995 0.301454
-6.161877 -5.107841 -0.141583 1659 0.608122 0.693918 0.336634
-6.162535 -5.108367 -0.139140 1657 0.598654 0.686350 0.371785
-6.163516 -5.109179 -0.136704 1651 0.584541 0.674666 0.406835
-6.164288 -5.109803 -0.134261 1641 0.573433 0.665685 0.441986
-6.164946 -5.110329 -0.131806 1629 0.563965 0.658118 0.477310
-6.165711 -5.110960 -0.129363 1615 0.552960 0.649041 0.512461
-6.166197 -5.111348 -0.126910 1603 0.545968 0.643456 0.547756
-6.167299 -5.112250 -0.124474 1587 0.530113 0.630482 0.582807
-6.168967 -5.113616 -0.122044 1581 0.506113 0.610825 0.617771
-6.169954 -5.114420 -0.119599 1567 0.491911 0.599257 0.652950
-6.171394 -5.115607 -0.117162 1559 0.471191 0.582180 0.688015
-6.173105 -5.117015 -0.114722 1539 0.446573 0.561920 0.723123
-6.175561 -5.119034 -0.112309 1511 0.411233 0.532871 0.757843
-6.178798 -5.121713 -0.109891 1479 0.364653 0.494319 0.792634
-6.180968 -5.123496 -0.107459 1439 0.333436 0.468666 0.827627
-6.183418 -5.125508 -0.105035 1403 0.298184 0.439719 0.862504
-6.186655 -5.128186 -0.102607 1343 0.251605 0.401181 0.897440
-6.190122 -5.131045 -0.100188 1273 0.201719 0.360050 0.932245
-6.195099 -5.135160 -0.097791 1169 0.130111 0.300840 0.966735
-6.196589 -5.136381 -0.095342 933 0.108671 0.283269 1.001972
-6.191184 -5.129352 -0.223700 1363 0.186440 0.384406 -0.844906
-6.187370 -5.126172 -0.221101 1415 0.241321 0.430162 -0.807510
-6.183650 -5.123082 -0.218501 1453 0.294843 0.474621 -0.770100
-6.180991 -5.120867 -0.215947 1479 0.333100 0.506497 -0.733352
-6.179413 -5.119546 -0.213435 1503 0.355810 0.525502 -0.697208
-6.176488 -5.117115 -0.210872 1519 0.397895 0.560479 -0.660330
-6.173779 -5.114851 -0.208316 1529 0.436872 0.593055 -0.623553
-6.172143 -5.113490 -0.205806 1551 0.460412 0.612636 -0.587438
-6.170788 -5.112358 -0.203303 1569 0.479911 0.628924 -0.551424
-6.169261 -5.111073 -0.200791 1581 0.501880 0.647415 -0.515280
-6.167511 -5.109614 -0.198272 1593 0.527059 0.668409 -0.479035
-6.166879 -5.109086 -0.195794 1617 0.536150 0.676004 -0.443381
-6.166147 -5.108459 -0.193309 1627 0.546682 0.685026 -0.407625
-6.164956 -5.107459 -0.190816 1633 0.563820 0.699414 -0.371755
-6.163930 -5.106605 -0.188330 1649 0.578585 0.711702 -0.335985
-6.162796 -5.105646 -0.185838 1647 0.594901 0.725499 -0.300129
-6.162157 -5.105110 -0.183362 1653 0.604094 0.733211 -0.264503
-6.161540 -5.104582 -0.180884 1657 0.612972 0.740813 -0.228848
-6.161009 -5.104137 -0.178418 1665 0.620616 0.747214 -0.193366
-6.160448 -5.103650 -0.175940 1667 0.628684 0.754219 -0.157712
-6.160490 -5.103676 -0.173480 1681 0.628080 0.753849 -0.122316
-6.160532 -5.103703 -0.171031 1675 0.627477 0.753458 -0.087078
-6.160071 -5.103300 -0.168553 1669 0.634111 0.759255 -0.051424
-6.159662 -5.102960 -0.166085 1671 0.639998 0.764147 -0.015913
-6.159925 -5.103159 -0.163634 1689 0.636211 0.761286 0.019353
-6.159631 -5.102902 -0.161176 1687 0.640444 0.764984 0.054720
-6.159557 -5.102832 -0.158715 1687 0.641507 0.765993 0.090130
-6.159707 -5.102949 -0.156264 1675 0.639346 0.764305 0.125396
-6.160142 -5.103288 -0.153813 1673 0.633089 0.759427 0.160663
-6.160749 -5.103780 -0.151370 1681 0.624355 0.752353 0.195814
-6.160956 -5.103939 -0.148917 1661 0.621377 0.750061 0.231109
-6.161958 -5.104757 -0.146483 1649 0.606955 0.738295 0.266130
-6.162945 -5.105562 -0.144048 1667 0.592760 0.726707 0.301166
-6.163202 -5.105769 -0.141585 1661 0.589062 0.723729 0.336605
-6.163696 -5.106164 -0.139144 1657 0.581954 0.718048 0.371727
-6.164582 -5.106885 -0.136699 1641 0.569206 0.707674 0.406907
-6.165792 -5.107877 -0.134261 1627 0.551793 0.693404 0.441986
-6.166729 -5.108632 -0.131827 1627 0.538311 0.682536 0.477008
-6.167559 -5.109312 -0.129382 1619 0.526366 0.672752 0.512188
-6.168489 -5.110075 -0.126937 1611 0.512988 0.661775 0.547368
-6.169764 -5.111115 -0.124499 1601 0.494641 0.646811 0.582447
-6.171260 -5.112343 -0.122062 1583 0.473119 0.629144 0.617512
-6.172139 -5.113057 -0.119616 1569 0.460467 0.618866 0.652706
-6.173178 -5.113910 -0.117171 1555 0.445517 0.606592 0.687886
-6.175010 -5.115408 -0.114741 1531 0.419157 0.585041 0.722850
-6.176793 -5.116871 -0.112311 1499 0.393504 0.563992 0.757814
-6.179184 -5.118842 -0.109887 1459 0.359103 0.535629 0.792692
-6.182307 -5.121424 -0.107470 1427 0.314171 0.498477 0.827468
-6.185093 -5.123720 -0.105044 1385 0.274082 0.465441 0.862375
-6.188001 -5.126107 -0.102620 1333 0.232237 0.431095 0.897253
-6.192306 -5.129667 -0.100215 1253 0.170296 0.379878 0.931857
-6.197177 -5.133692 -0.097808 1149 0.100211 0.321965 0.966490
-6.194054 -5.128417 -0.223754 1343 0.145144 0.397861 -0.845683
-6.190112 -5.125139 -0.221146 1395 0.201863 0.445023 -0.808158
-6.187008 -5.122563 -0.218573 1441 0.246528 0.482093 -0.771136
-6.183855 -5.119937 -0.216000 1459 0.291893 0.519876 -0.734114
-6.181266 -5.117778 -0.213445 1487 0.329148 0.550942 -0.697352
-6.179352 -5.116187 -0.210925 1513 0.356688 0.573831 -0.661093
-6.177322 -5.114485 -0.208386 1533 0.385895 0.598324 -0.624560
-6.174720 -5.112326 -0.205842 1549 0.423335 0.629384 -0.587956
-6.172635 -5.110582 -0.203313 1557 0.453332 0.654481 -0.551567
-6.171780 -5.109866 -0.200827 1583 0.465633 0.664780 -0.515798
-6.170589 -5.108866 -0.198335 1603 0.482772 0.679167 -0.479942
-6.169299 -5.107782 -0.195830 1609 0.501331 0.694769 -0.443899
-6.168215 -5.106872 -0.193337 1619 0.516933 0.707860 -0.408028
-6.166967 -5.105829 -0.190844 1625 0.534888 0.722871 -0.372157
-6.166399 -5.105350 -0.188367 1629 0.543059 0.729760 -0.336517
-6.165818 -5.104856 -0.185891 1641 0.551416 0.736868 -0.300891
-6.164455 -5.103716 -0.183389 1641 0.571031 0.753272 -0.264891
-6.163486 -5.102903 -0.180903 1649 0.584973 0.764970 -0.229122
-6.163478 -5.102882 -0.178443 1671 0.585090 0.765272 -0.193726
-6.163641 -5.102999 -0.175992 1669 0.582743 0.763584 -0.158460
-6.163117 -5.102561 -0.173526 1669 0.590283 0.769890 -0.122978
-6.162658 -5.102171 -0.171048 1671 0.596883 0.775502 -0.087323
-6.162870 -5.102323 -0.168597 1671 0.593837 0.773313 -0.052057
-6.163134 -5.102537 -0.166146 1667 0.590036 0.770233 -0.016790
-6.162560 -5.102051 -0.163678 1667 0.598297 0.777231 0.018720
-6.162151 -5.101696 -0.161212 1669 0.604184 0.782335 0.054202
-6.162643 -5.102091 -0.158759 1679 0.597103 0.776655 0.089497
-6.163187 -5.102534 -0.156316 1669 0.589275 0.770281 0.124648
-6.163679 -5.102929 -0.153872 1663 0.582194 0.764593 0.159814
-6.163943 -5.103129 -0.151412 1673 0.578400 0.761718 0.195210
-6.163806 -5.103010 -0.148951 1669 0.580369 0.763427 0.230620
-6.163747 -5.102940 -0.146493 1651 0.581220 0.764435 0.265986
-6.164850 -5.103841 -0.144057 1649 0.565344 0.751475 0.301037
-6.165450 -5.104327 -0.141614 1645 0.556713 0.744477 0.336188
-6.165484 -5.104346 -0.139153 1633 0.556225 0.744209 0.371598
-6.165863 -5.104644 -0.136700 1621 0.550771 0.739921 0.406893
-6.166850 -5.105448 -0.134265 1629 0.536569 0.728353 0.441929
-6.168181 -5.106544 -0.131827 1617 0.517420 0.712580 0.477008
-6.169678 -5.107772 -0.129399 1617 0.495876 0.694913 0.511943
-6.171016 -5.108861 -0.126962 1611 0.476624 0.679243 0.547008
-6.172118 -5.109763 -0.124526 1587 0.460769 0.666262 0.582058
-6.173048 -5.110526 -0.122081 1569 0.447390 0.655284 0.617238
-6.174150 -5.111427 -0.119635 1543 0.431534 0.642324 0.652432
-6.175482 -5.112509 -0.117198 1533 0.412372 0.626756 0.687497
-6.177701 -5.114341 -0.114775 1517 0.380441 0.600396 0.722360
-6.180330 -5.116498 -0.112351 1495 0.342616 0.569357 0.757238
-6.182772 -5.118518 -0.109927 1453 0.307474 0.540294 0.792116
-6.185228 -5.120536 -0.107493 1421 0.272140 0.511259 0.827138
-6.187850 -5.122687 -0.105069 1377 0.234412 0.480309 0.862015
-6.191538 -5.125733 -0.102660 1323 0.181349 0.436481 0.896677
-6.196294 -5.129661 -0.100253 1245 0.112918 0.379960 0.931310
-6.197263 -5.127864 -0.223815 1333 0.098976 0.405819 -0.846560
-6.192927 -5.124275 -0.221200 1385 0.161363 0.457455 -0.808935
-6.189093 -5.121088 -0.218600 1421 0.216525 0.503314 -0.771524
-6.186046 -5.118553 -0.216027 1451 0.260367 0.539787 -0.734503
-6.183795 -5.116677 -0.213490 1475 0.292757 0.566784 -0.697999
-6.181708 -5.114933 -0.210961 1493 0.322788 0.591875 -0.661611
-6.179672 -5.113239 -0.208422 1531 0.352084 0.616252 -0.625078
-6.176741 -5.110802 -0.205869 1543 0.394252 0.651312 -0.588345
-6.174704 -5.109107 -0.203339 1551 0.423562 0.675702 -0.551942
-6.174194 -5.108669 -0.200864 1577 0.430903 0.682007 -0.516330
-6.172889 -5.107585 -0.198361 1599 0.449675 0.697602 -0.480316
-6.171189 -5.106161 -0.195849 1605 0.474141 0.718089 -0.444172
-6.170400 -5.105494 -0.193364 1605 0.485489 0.727688 -0.408416
-6.169768 -5.104966 -0.190888 1619 0.494586 0.735283 -0.372791
-6.168914 -5.104249 -0.188403 1635 0.506875 0.745602 -0.337035
-6.168117 -5.103575 -0.185918 1637 0.518339 0.755296 -0.301280
-6.167600 -5.103130 -0.183450 1643 0.525776 0.761705 -0.265769
-6.167140 -5.102741 -0.180972 1657 0.532397 0.767303 -0.230114
-6.166007 -5.101796 -0.178479 1661 0.548699 0.780895 -0.194244
-6.165597 -5.101441 -0.176011 1663 0.554599 0.786006 -0.158733
-6.165589 -5.101419 -0.173550 1665 0.554716 0.786322 -0.123323
-6.165802 -5.101584 -0.171099 1667 0.551649 0.783948 -0.088057
-6.165392 -5.101230 -0.168631 1665 0.557550 0.789039 -0.052546
-6.164244 -5.100271 -0.166148 1669 0.574064 0.802836 -0.016819
-6.164630 -5.100576 -0.163697 1671 0.568513 0.798452 0.018447
-6.165123 -5.100970 -0.161254 1663 0.561419 0.792785 0.053598
-6.165222 -5.101039 -0.158793 1671 0.559992 0.791790 0.089008
-6.165429 -5.101197 -0.156342 1667 0.557014 0.789519 0.124274
-6.165578 -5.101315 -0.153891 1665 0.554874 0.787817 0.159540
-6.165734 -5.101425 -0.151431 1665 0.552630 0.786232 0.194936
-6.165769 -5.101445 -0.148970 1663 0.552123 0.785944 0.230346
-6.165868 -5.101514 -0.146519 1647 0.550702 0.784956 0.265612
-6.166518 -5.102047 -0.144076 1657 0.541344 0.777286 0.300763
-6.167463 -5.102810 -0.141631 1643 0.527752 0.766308 0.335943
-6.168393 -5.103573 -0.139195 1631 0.514367 0.755331 0.370994
-6.168993 -5.104058 -0.136742 1623 0.505736 0.748353 0.406289
-6.169601 -5.104550 -0.134299 1619 0.496988 0.741273 0.441440
-6.170474 -5.105257 -0.131854 1601 0.484425 0.731098 0.476620
-6.171576 -5.106159 -0.129418 1591 0.468570 0.718117 0.511670
-6.172972 -5.107289 -0.126981 1595 0.448481 0.701863 0.546735
-6.174189 -5.108288 -0.124545 1581 0.430972 0.687489 0.581785
-6.175226 -5.109140 -0.122098 1565 0.416049 0.675229 0.616994
