89
-27.601295 -24.084003 -0.185985 1051 0.888029 -0.091086 -0.317747
-27.598553 -24.081556 -0.174721 1091 0.927493 -0.055876 -0.155675
-27.597397 -24.080490 -0.163468 1091 0.944124 -0.040535 0.006239
-27.597841 -24.080820 -0.152226 1071 0.937729 -0.045282 0.167994
-27.607510 -24.074980 -0.208528 955 0.798616 0.038751 -0.642106
-27.606020 -24.073614 -0.197267 1073 0.820050 0.058401 -0.480078
-27.601072 -24.069256 -0.185996 1137 0.891240 0.121110 -0.317905
-27.599087 -24.067463 -0.174738 1167 0.919809 0.146907 -0.155920
-27.599258 -24.067554 -0.163497 1165 0.917339 0.145590 0.005822
-27.600025 -24.068171 -0.152252 1151 0.906306 0.136725 0.167620
-27.602894 -24.070610 -0.141015 1113 0.865031 0.101625 0.329304
-27.607460 -24.074528 -0.129779 1039 0.799330 0.045255 0.490973
-27.620356 -24.071384 -0.219863 951 0.613782 0.090482 -0.805200
-27.611158 -24.063311 -0.208548 1081 0.746116 0.206652 -0.642394
-27.605204 -24.058067 -0.197273 1157 0.831796 0.282095 -0.480164
-27.602118 -24.055326 -0.186011 1195 0.876200 0.321532 -0.318121
-27.601589 -24.054802 -0.174765 1215 0.883802 0.329079 -0.156308
-27.601812 -24.054943 -0.163524 1209 0.880591 0.327049 0.005433
-27.602957 -24.055883 -0.152277 1207 0.864125 0.313519 0.167260
-27.605497 -24.058033 -0.141042 1175 0.827570 0.282589 0.328915
-27.609695 -24.061632 -0.129817 1121 0.767166 0.230803 0.490426
-27.615536 -24.066668 -0.118583 1015 0.683133 0.158351 0.652066
-27.626371 -24.061481 -0.219901 991 0.527224 0.232971 -0.805747
-27.617502 -24.053699 -0.208593 1127 0.654838 0.344942 -0.643042
-27.610390 -24.047451 -0.197306 1189 0.757176 0.434848 -0.480639
-27.605711 -24.043324 -0.186033 1221 0.824496 0.494237 -0.318437
-27.604605 -24.042305 -0.174791 1249 0.840414 0.508892 -0.156682
-27.605221 -24.042774 -0.163547 1239 0.831549 0.502140 0.005102
-27.606863 -24.044159 -0.152317 1229 0.807920 0.482216 0.166685
-27.608747 -24.045738 -0.141076 1203 0.780805 0.459493 0.328426
-27.612543 -24.048986 -0.129854 1151 0.726192 0.412756 0.489894
-27.620550 -24.055897 -0.118627 1063 0.610983 0.313327 0.651433
-27.631580 -24.050608 -0.219936 1037 0.452275 0.389428 -0.806250
-27.622545 -24.042677 -0.208630 1133 0.582277 0.503540 -0.643574
-27.615974 -24.036901 -0.197349 1195 0.676821 0.586640 -0.481258
-27.611397 -24.032860 -0.186075 1229 0.742686 0.644794 -0.319042
-27.611244 -24.032675 -0.174836 1259 0.744881 0.647456 -0.157329
-27.610590 -24.032043 -0.163591 1269 0.754295 0.656540 0.004469
-27.611143 -24.032461 -0.152357 1245 0.746336 0.650529 0.166109
-27.614172 -24.035049 -0.141120 1227 0.702755 0.613288 0.327793
-27.619522 -24.039646 -0.129898 1177 0.625775 0.547148 0.489260
-27.626865 -24.045977 -0.118675 1093 0.520116 0.456062 0.650742
-27.642199 -24.059269 -0.107465 935 0.299495 0.264806 0.812037
-27.638088 -24.041128 -0.219981 1033 0.358636 0.525824 -0.806898
-27.629377 -24.033485 -0.208673 1137 0.483973 0.635792 -0.644193
-27.624235 -24.028965 -0.197403 1205 0.557961 0.700834 -0.482035
-27.620834 -24.025948 -0.186134 1237 0.606894 0.744250 -0.319891
-27.618776 -24.024099 -0.174886 1251 0.636506 0.770843 -0.158049
-27.618464 -24.023771 -0.163648 1255 0.641006 0.775564 0.003649
-27.619570 -24.024672 -0.152412 1237 0.625089 0.762610 0.165318
-27.622934 -24.027544 -0.141182 1203 0.576678 0.721280 0.326901
-27.627447 -24.031408 -0.129945 1175 0.511746 0.665678 0.488584
-27.632202 -24.035494 -0.118717 1099 0.443328 0.606894 0.650138
-27.645771 -24.047232 -0.107508 929 0.248093 0.438004 0.811419
-27.648190 -24.035086 -0.220043 1021 0.213294 0.612767 -0.807790
-27.639643 -24.027590 -0.208744 1121 0.336270 0.720621 -0.645214
-27.632795 -24.021585 -0.197455 1165 0.434793 0.807014 -0.482783
-27.628271 -24.017597 -0.186191 1215 0.499890 0.864399 -0.320711
-27.626455 -24.015955 -0.174932 1237 0.526017 0.888029 -0.158711
-27.627232 -24.016579 -0.163697 1233 0.514847 0.879054 0.002944
-27.628660 -24.017756 -0.152459 1225 0.494291 0.862122 0.164642
-27.631706 -24.020344 -0.141232 1183 0.450464 0.824880 0.326181
-27.636570 -24.024523 -0.130003 1141 0.380482 0.764751 0.487750
-27.642519 -24.029633 -0.118778 1061 0.294884 0.691229 0.649260
-27.660875 -24.030977 -0.220122 921 0.030765 0.671881 -0.808927
-27.651382 -24.022669 -0.208819 1069 0.167353 0.791426 -0.646294
-27.644701 -24.016811 -0.197528 1145 0.263489 0.875706 -0.483833
-27.639406 -24.012156 -0.186259 1181 0.339673 0.942697 -0.321689
-27.637033 -24.010042 -0.175003 1217 0.373813 0.973105 -0.159733
-27.636379 -24.009411 -0.163757 1205 0.383226 0.982189 0.002081
-27.637259 -24.010118 -0.152512 1189 0.370575 0.972007 0.163879
-27.641241 -24.013523 -0.141289 1163 0.313272 0.923020 0.325361
-27.646597 -24.018114 -0.130057 1111 0.236209 0.856962 0.486973
-27.653933 -24.024439 -0.118835 1005 0.130660 0.765958 0.648440
-27.675785 -24.028521 -0.220220 907 -0.183764 0.707228 -0.810337
-27.666519 -24.020420 -0.208915 981 -0.050442 0.823783 -0.647675
-27.657520 -24.012541 -0.197607 1095 0.079038 0.937153 -0.484970
-27.652208 -24.007883 -0.186329 1141 0.155469 1.004171 -0.322697
-27.649120 -24.005142 -0.175078 1153 0.199901 1.043608 -0.160812
-27.648186 -24.004278 -0.163823 1155 0.213349 1.056040 0.001131
-27.651241 -24.006872 -0.152595 1149 0.169384 1.018716 0.162685
-27.655659 -24.010643 -0.141359 1109 0.105824 0.964460 0.324354
-27.660522 -24.014809 -0.130131 1029 0.035842 0.904522 0.485908
-27.681683 -24.019026 -0.209005 881 -0.268621 0.843844 -0.648970
-27.672512 -24.011003 -0.197700 965 -0.136670 0.959273 -0.486308
-27.666937 -24.006117 -0.186422 1057 -0.056452 1.029584 -0.324035
-27.665451 -24.004772 -0.175161 1085 -0.035073 1.048932 -0.162006
-27.664124 -24.003565 -0.163909 1097 -0.015972 1.066304 -0.000107
-27.665070 -24.004326 -0.152663 1063 -0.029584 1.055354 0.161706
