157
-21.863913 -19.220541 -0.158981 927 0.917339 -0.402327 -0.250956
-21.862429 -19.219185 -0.150030 941 0.938690 -0.382814 -0.122164
-21.861929 -19.218702 -0.141092 953 0.945880 -0.375871 0.006440
-21.862633 -19.219286 -0.132148 925 0.935753 -0.384269 0.135131
-21.869101 -19.213581 -0.176891 951 0.842691 -0.302184 -0.508654
-21.861629 -19.206974 -0.167903 1027 0.950189 -0.207119 -0.379330
-21.858833 -19.204468 -0.158950 1077 0.990422 -0.171058 -0.250510
-21.857525 -19.203272 -0.150009 1095 1.009248 -0.153850 -0.121862
-21.859110 -19.204624 -0.141078 1089 0.986442 -0.173308 0.006641
-21.859699 -19.205097 -0.132146 1073 0.977962 -0.180114 0.135159
-21.861019 -19.206205 -0.123218 1027 0.958971 -0.196059 0.263620
-21.866730 -19.211180 -0.114305 957 0.876804 -0.267633 0.391864
-21.919493 -19.245893 -0.204120 717 0.117624 -0.767111 -0.900438
-21.870865 -19.203110 -0.185844 991 0.817306 -0.151518 -0.637474
-21.864660 -19.197620 -0.176858 1075 0.906581 -0.072534 -0.508179
-21.860474 -19.193901 -0.167894 1111 0.966820 -0.019019 -0.379200
-21.858282 -19.191935 -0.158946 1139 0.998353 0.009276 -0.250452
-21.857731 -19.191397 -0.150010 1151 1.006284 0.017015 -0.121877
-21.858061 -19.191645 -0.141078 1155 1.001536 0.013447 0.006641
-21.858427 -19.191927 -0.132146 1137 0.996267 0.009386 0.135159
-21.860518 -19.193707 -0.123224 1117 0.966189 -0.016219 0.263533
-21.865276 -19.197847 -0.114307 1071 0.897716 -0.075800 0.391836
-21.871643 -19.203396 -0.105400 983 0.806109 -0.155634 0.519994
-21.879330 -19.198048 -0.194829 959 0.695510 -0.078682 -0.766754
-21.869488 -19.189373 -0.185827 1061 0.837120 0.046133 -0.637229
-21.864489 -19.184942 -0.176856 1127 0.909051 0.109885 -0.508150
-21.861521 -19.182295 -0.167903 1175 0.951753 0.147977 -0.379330
-21.859324 -19.180323 -0.158956 1203 0.983369 0.176354 -0.250596
-21.858942 -19.179939 -0.150018 1219 0.988857 0.181870 -0.121992
-21.860411 -19.181179 -0.141101 1205 0.967726 0.164032 0.006310
-21.860620 -19.181322 -0.132169 1189 0.964707 0.161974 0.134828
-21.861223 -19.181808 -0.123235 1169 0.956034 0.154976 0.263375
-21.864508 -19.184650 -0.114328 1139 0.908776 0.114084 0.391533
-21.869932 -19.189360 -0.105405 1075 0.830726 0.046325 0.519922
-21.878008 -19.196407 -0.096498 957 0.714529 -0.055080 0.648080
-21.888079 -19.193647 -0.203832 881 0.569625 -0.015369 -0.896294
-21.877747 -19.184542 -0.194812 1013 0.718288 0.115648 -0.766510
-21.870872 -19.178476 -0.185823 1111 0.817196 0.202920 -0.637172
-21.867142 -19.175154 -0.176864 1183 0.870876 0.250727 -0.508265
-21.865156 -19.173376 -0.167926 1217 0.899445 0.276305 -0.379661
-21.863615 -19.171978 -0.158985 1251 0.921620 0.296421 -0.251013
-21.862291 -19.170767 -0.150043 1241 0.940666 0.313848 -0.122351
-21.861410 -19.169962 -0.141109 1223 0.953345 0.325429 0.006195
-21.862070 -19.170490 -0.132184 1225 0.943849 0.317827 0.134613
-21.864147 -19.172272 -0.123262 1213 0.913963 0.292195 0.262987
-21.866116 -19.173946 -0.114341 1177 0.885641 0.268099 0.391346
-21.870722 -19.177948 -0.105424 1113 0.819364 0.210522 0.519648
-21.877798 -19.184099 -0.096523 1027 0.717547 0.122015 0.647720
-21.893133 -19.197500 -0.087625 849 0.496899 -0.070805 0.775749
-21.892160 -19.185219 -0.203863 899 0.510895 0.105906 -0.896740
-21.882872 -19.177031 -0.194847 1065 0.644547 0.223722 -0.767013
-21.874790 -19.169903 -0.185853 1129 0.760826 0.326280 -0.637603
-21.869732 -19.165428 -0.176883 1187 0.833607 0.390663 -0.508538
-21.866488 -19.162539 -0.167932 1209 0.880289 0.432241 -0.379747
-21.866049 -19.162111 -0.158994 1235 0.886602 0.438388 -0.251143
-21.865938 -19.161968 -0.150064 1255 0.888193 0.440447 -0.122654
-21.864595 -19.160749 -0.141132 1247 0.907514 0.457983 0.005864
-21.866093 -19.162020 -0.132215 1239 0.885970 0.439706 0.134167
-21.867785 -19.163450 -0.123294 1211 0.861628 0.419123 0.262526
-21.869701 -19.165091 -0.114374 1173 0.834047 0.395521 0.390872
-21.874529 -19.169268 -0.105455 1147 0.764586 0.335419 0.519202
-21.880787 -19.174711 -0.096549 1063 0.674543 0.257094 0.647346
-21.894299 -19.186501 -0.087652 933 0.480130 0.087464 0.775361
-21.893663 -19.174944 -0.203863 955 0.489269 0.253746 -0.896740
-21.885653 -19.167871 -0.194860 1067 0.604533 0.355508 -0.767200
-21.881529 -19.164217 -0.185893 1153 0.663867 0.408090 -0.638179
-21.877998 -19.161089 -0.176935 1197 0.714666 0.453098 -0.509287
-21.874325 -19.157818 -0.167985 1239 0.767523 0.500164 -0.380510
-21.871286 -19.155117 -0.159034 1257 0.811241 0.539025 -0.251718
-21.869644 -19.153633 -0.150094 1247 0.834870 0.560376 -0.123085
-21.870079 -19.153971 -0.141172 1241 0.828613 0.555519 0.005289
-21.871559 -19.155220 -0.132253 1231 0.807316 0.537543 0.133620
-21.873854 -19.157190 -0.123329 1217 0.774301 0.509193 0.262023
-21.875830 -19.158873 -0.114408 1199 0.745869 0.484988 0.390382
-21.879396 -19.161949 -0.105497 1159 0.694549 0.440721 0.518598
-21.886303 -19.167961 -0.096588 1099 0.595175 0.354218 0.646785
-21.896585 -19.176914 -0.087678 959 0.447225 0.225396 0.774987
-21.900024 -19.168688 -0.203899 957 0.397744 0.343762 -0.897258
-21.892269 -19.161854 -0.194904 1077 0.509331 0.442093 -0.767833
-21.886887 -19.157101 -0.185926 1145 0.586777 0.510483 -0.638654
-21.882755 -19.153439 -0.176969 1193 0.646221 0.563176 -0.509776
-21.879623 -19.150661 -0.168018 1227 0.691284 0.603134 -0.380985
-21.877583 -19.148827 -0.159068 1255 0.720648 0.629535 -0.252208
-21.875599 -19.147049 -0.150131 1259 0.749190 0.655113 -0.123618
-21.875372 -19.146807 -0.141202 1233 0.752456 0.658598 0.004857
-21.876905 -19.148096 -0.132284 1231 0.730391 0.640046 0.133174
-21.877338 -19.148430 -0.123361 1203 0.724161 0.635243 0.261562
-21.879583 -19.150349 -0.114438 1185 0.691860 0.607635 0.389951
-21.883854 -19.154049 -0.105523 1147 0.630413 0.554394 0.518224
-21.891010 -19.160265 -0.096622 1085 0.527444 0.464954 0.646296
-21.900290 -19.168339 -0.087709 955 0.393929 0.348784 0.774541
-21.906981 -19.162725 -0.203952 951 0.297656 0.429551 -0.898021
-21.898613 -19.155359 -0.194950 1065 0.418052 0.535540 -0.768495
-21.892241 -19.149744 -0.185968 1133 0.509742 0.616334 -0.639258
-21.887838 -19.145859 -0.177003 1175 0.573083 0.672237 -0.510265
-21.884708 -19.143064 -0.168050 1207 0.618118 0.712443 -0.381445
-21.883223 -19.141720 -0.159110 1227 0.639497 0.731791 -0.252812
-21.882393 -19.140953 -0.150175 1247 0.651435 0.742823 -0.124251
-21.882715 -19.141191 -0.141252 1229 0.646797 0.739393 0.004138
-21.884251 -19.142483 -0.132333 1239 0.624705 0.720813 0.132469
-21.886276 -19.144217 -0.123413 1221 0.595559 0.695867 0.260814
-21.889185 -19.146719 -0.114496 1187 0.553707 0.659860 0.389116
-21.893633 -19.150566 -0.105581 1149 0.489708 0.604506 0.517390
-21.898460 -19.154741 -0.096662 1063 0.420248 0.544431 0.645720
-21.912434 -19.166916 -0.087772 931 0.219194 0.369257 0.773634
-21.917902 -19.161360 -0.204034 903 0.140513 0.449201 -0.899200
-21.907776 -19.152475 -0.195012 1047 0.286212 0.577035 -0.769387
-21.902056 -19.147417 -0.186027 1127 0.368516 0.649816 -0.640107
-21.897213 -19.143141 -0.177064 1167 0.438196 0.711345 -0.511143
-21.893085 -19.139494 -0.168098 1205 0.497585 0.763818 -0.382136
-21.890545 -19.137226 -0.159154 1221 0.534140 0.796448 -0.253445
-21.889723 -19.136465 -0.150218 1231 0.545968 0.807398 -0.124869
-21.889595 -19.136303 -0.141290 1221 0.547807 0.809731 0.003591
-21.890417 -19.136980 -0.132364 1215 0.535979 0.799989 0.132023
-21.893057 -19.139244 -0.123449 1185 0.497996 0.767413 0.260296
-21.895630 -19.141443 -0.114534 1167 0.460975 0.735770 0.388569
-21.899637 -19.144913 -0.105611 1113 0.403315 0.685850 0.516958
-21.906004 -19.150434 -0.096704 1015 0.311707 0.606400 0.645116
-21.929289 -19.170740 -0.087840 867 -0.023327 0.314232 0.772656
-21.917826 -19.150394 -0.195081 987 0.141610 0.606976 -0.770380
-21.910015 -19.143518 -0.186086 1079 0.253993 0.705911 -0.640956
-21.906496 -19.140406 -0.177127 1145 0.304627 0.750700 -0.512049
-21.903301 -19.137562 -0.168165 1177 0.350595 0.791618 -0.383100
-21.900377 -19.134974 -0.159223 1199 0.392667 0.828860 -0.254438
-21.898506 -19.133293 -0.150274 1205 0.419589 0.853038 -0.125675
-21.897844 -19.132664 -0.141347 1207 0.429112 0.862094 0.002771
-21.898333 -19.133051 -0.132415 1185 0.422087 0.856523 0.131289
-21.899817 -19.134293 -0.123496 1163 0.400735 0.838657 0.259620
-21.903759 -19.137697 -0.114574 1123 0.344009 0.789670 0.387994
-21.908321 -19.141644 -0.105667 1081 0.278363 0.732888 0.516152
-21.916183 -19.148468 -0.096752 977 0.165240 0.634694 0.644426
-21.921602 -19.141605 -0.186162 1007 0.087271 0.733437 -0.642049
-21.916317 -19.136948 -0.177192 1087 0.163318 0.800455 -0.512985
-21.912952 -19.133966 -0.168233 1143 0.211729 0.843350 -0.384078
-21.909876 -19.131231 -0.159280 1153 0.255996 0.882704 -0.255258
-21.908426 -19.129923 -0.150339 1165 0.276854 0.901531 -0.126611
-21.908485 -19.129932 -0.141408 1161 0.276003 0.901394 0.001893
-21.907984 -19.129440 -0.132472 1145 0.283221 0.908474 0.130469
-21.910011 -19.131174 -0.123550 1141 0.254048 0.883528 0.258843
-21.912760 -19.133520 -0.114623 1093 0.214501 0.849772 0.387289
-21.917980 -19.138042 -0.105714 1019 0.139387 0.784702 0.515476
-21.938122 -19.155579 -0.096847 883 -0.150420 0.532384 0.643059
-21.928892 -19.135666 -0.177274 995 -0.017619 0.818897 -0.514164
-21.923277 -19.130711 -0.168298 1067 0.063176 0.890197 -0.385013
-21.920574 -19.128311 -0.159343 1097 0.102064 0.924721 -0.256164
-21.918982 -19.126877 -0.150401 1115 0.124979 0.945359 -0.127502
-21.919516 -19.127298 -0.141469 1119 0.117295 0.939294 0.001015
-21.920340 -19.127972 -0.132545 1103 0.105439 0.929606 0.129418
-21.922871 -19.130133 -0.123620 1069 0.069021 0.898512 0.257836
-21.927589 -19.134203 -0.114704 1007 0.001125 0.839947 0.386123
-21.938385 -19.143589 -0.105811 913 -0.154207 0.704896 0.514080
-21.939598 -19.132456 -0.168409 947 -0.171661 0.865086 -0.386611
-21.935028 -19.128429 -0.159435 1005 -0.105906 0.923020 -0.257488
-21.933535 -19.127079 -0.150495 1029 -0.084417 0.942450 -0.128855
-21.933479 -19.126991 -0.141555 1027 -0.083621 0.943712 -0.000222
-21.934458 -19.127790 -0.132619 1023 -0.097700 0.932213 0.128354
-21.938095 -19.130922 -0.123699 957 -0.150036 0.887150 0.256699
