77
-27.837603 -24.616888 -0.190196 989 1.011828 -0.407487 -0.157079
-27.835144 -24.614660 -0.178771 1041 1.047203 -0.375432 0.007309
-27.836079 -24.615419 -0.167355 1055 1.033756 -0.386355 0.171568
-27.839209 -24.603508 -0.201619 1069 0.988720 -0.214968 -0.321439
-27.835423 -24.600107 -0.190190 1133 1.043196 -0.166035 -0.156993
-27.832747 -24.597677 -0.178767 1169 1.081700 -0.131072 0.007367
-27.832811 -24.597675 -0.167357 1163 1.080767 -0.131044 0.171540
-27.833090 -24.597874 -0.155955 1145 1.076760 -0.133899 0.335597
-27.846542 -24.594904 -0.213078 1069 0.883198 -0.091169 -0.486317
-27.839912 -24.588985 -0.201626 1163 0.978593 -0.006010 -0.321540
-27.835274 -24.584826 -0.190196 1193 1.045337 0.053845 -0.157079
-27.834280 -24.583895 -0.178792 1213 1.059635 0.067237 0.007007
-27.834454 -24.583984 -0.167380 1223 1.057138 0.065948 0.171209
-27.833849 -24.583393 -0.155974 1195 1.065837 0.074455 0.335324
-27.835770 -24.585032 -0.144581 1163 1.038201 0.050881 0.499252
-27.841969 -24.590450 -0.133197 1097 0.949009 -0.027087 0.663050
-27.860329 -24.592274 -0.224578 985 0.684834 -0.053323 -0.651784
-27.849863 -24.582968 -0.213099 1131 0.835419 0.080575 -0.486619
-27.844334 -24.578030 -0.201663 1193 0.914979 0.151627 -0.322072
-27.839176 -24.573425 -0.190222 1233 0.989187 0.217877 -0.157453
-27.836988 -24.571438 -0.178816 1245 1.020665 0.246473 0.006662
-27.837709 -24.572014 -0.167412 1251 1.010291 0.238185 0.170748
-27.838209 -24.572403 -0.156008 1221 1.003101 0.232587 0.334834
-27.840399 -24.574278 -0.144616 1203 0.971595 0.205609 0.498748
-27.845060 -24.578333 -0.133229 1147 0.904522 0.147264 0.662590
-27.853611 -24.585825 -0.121848 1059 0.781492 0.039464 0.826345
-27.864231 -24.580873 -0.224595 1027 0.628684 0.110709 -0.652029
-27.854540 -24.572266 -0.213133 1135 0.768126 0.234563 -0.487108
-27.848621 -24.566982 -0.201687 1191 0.853285 0.310582 -0.322417
-27.843962 -24.562815 -0.190255 1237 0.920330 0.370547 -0.157928
-27.842754 -24.561695 -0.178853 1269 0.937702 0.386657 0.006129
-27.843424 -24.562225 -0.167449 1277 0.928069 0.379027 0.170216
-27.844627 -24.563238 -0.156052 1249 0.910752 0.364455 0.334202
-27.848522 -24.566618 -0.144669 1217 0.854712 0.315824 0.497986
-27.854116 -24.571495 -0.133277 1177 0.774219 0.245650 0.661899
-27.859825 -24.576471 -0.121892 1089 0.692079 0.174049 0.825712
-27.871117 -24.571508 -0.224639 1033 0.529612 0.245458 -0.652662
-27.860863 -24.562416 -0.213170 1131 0.677150 0.376283 -0.487640
-27.856153 -24.558201 -0.201739 1215 0.744909 0.436934 -0.323165
-27.852211 -24.554672 -0.190312 1239 0.801635 0.487705 -0.158748
-27.848986 -24.551771 -0.178891 1251 0.848043 0.529447 0.005583
-27.849264 -24.551952 -0.167489 1265 0.844036 0.526840 0.169640
-27.849911 -24.552473 -0.156096 1243 0.834733 0.519348 0.333568
-27.852501 -24.554689 -0.144700 1227 0.797464 0.487458 0.497539
-27.857981 -24.559467 -0.133319 1187 0.718618 0.418711 0.661295
-27.864725 -24.565353 -0.121928 1093 0.621576 0.334019 0.825194
-27.878946 -24.563274 -0.224696 1015 0.416955 0.363933 -0.653482
-27.871124 -24.556320 -0.213233 1137 0.529502 0.463993 -0.488547
-27.863876 -24.549875 -0.201785 1199 0.633789 0.556726 -0.323827
-27.857790 -24.544453 -0.190352 1223 0.721362 0.634749 -0.159324
-27.855778 -24.542624 -0.178944 1245 0.750315 0.661068 0.004820
-27.857302 -24.543911 -0.167544 1259 0.728388 0.642543 0.168849
-27.859940 -24.546175 -0.156150 1251 0.690433 0.609967 0.332791
-27.862642 -24.548498 -0.144763 1211 0.651545 0.576541 0.496633
-27.867184 -24.552452 -0.133378 1153 0.586201 0.519650 0.660446
-27.873503 -24.557959 -0.121989 1067 0.495279 0.440419 0.824317
-27.881113 -24.550291 -0.213305 1083 0.385778 0.550744 -0.489583
-27.874582 -24.544485 -0.201853 1173 0.479746 0.634283 -0.324806
-27.870640 -24.540956 -0.190427 1205 0.536473 0.685054 -0.160403
-27.870043 -24.540375 -0.179021 1221 0.545063 0.693424 0.003712
-27.869612 -24.539925 -0.167613 1221 0.551265 0.699901 0.167856
-27.868952 -24.539291 -0.156207 1201 0.560760 0.709012 0.331971
-27.870270 -24.540388 -0.144810 1187 0.541797 0.693232 0.495957
-27.875208 -24.544689 -0.133420 1123 0.470745 0.631346 0.659842
-27.884094 -24.552456 -0.122039 1021 0.342884 0.519595 0.823597
-27.895342 -24.547401 -0.213385 1011 0.181047 0.592321 -0.490734
-27.887344 -24.540298 -0.201934 1115 0.296119 0.694522 -0.325971
-27.881851 -24.535408 -0.190495 1157 0.375158 0.764888 -0.161381
-27.879444 -24.533245 -0.179080 1185 0.409792 0.796009 0.002863
-27.879013 -24.532795 -0.167672 1193 0.415994 0.802486 0.167007
-27.880432 -24.533997 -0.156274 1177 0.395576 0.785196 0.331007
-27.883841 -24.536934 -0.144885 1161 0.346534 0.742933 0.494878
-27.889448 -24.541811 -0.133490 1057 0.265849 0.672759 0.658835
-27.896334 -24.533020 -0.190583 1081 0.166776 0.799248 -0.162648
-27.894188 -24.531076 -0.179166 1119 0.197651 0.827213 0.001626
-27.894873 -24.531616 -0.167761 1119 0.187798 0.819446 0.165727
-27.897667 -24.534019 -0.156365 1099 0.147593 0.784867 0.329698
