264
-17.040813 -15.648754 -0.180088 653 0.489214 -0.805546 -0.302849
-17.011505 -15.621772 -0.165632 865 0.910917 -0.417311 -0.094849
-17.009287 -15.619698 -0.158526 907 0.942834 -0.387466 0.007396
-17.009768 -15.620106 -0.151434 915 0.935918 -0.393339 0.109439
-17.011213 -15.621390 -0.144356 889 0.915116 -0.411823 0.211281
-17.021654 -15.621419 -0.186993 819 0.764888 -0.412234 -0.402201
-17.013033 -15.613476 -0.179823 931 0.888934 -0.297944 -0.299036
-17.008455 -15.609238 -0.172691 979 0.954800 -0.236964 -0.196417
-17.006180 -15.607120 -0.165585 1015 0.987540 -0.206488 -0.094173
-17.006128 -15.607025 -0.158495 1039 0.988281 -0.205129 0.007842
-17.006386 -15.607232 -0.151404 1031 0.984576 -0.208107 0.109871
-17.006062 -15.606889 -0.144316 1025 0.989242 -0.203167 0.211856
-17.007507 -15.608187 -0.137236 1001 0.968439 -0.221842 0.313727
-17.010885 -15.611243 -0.130167 951 0.919836 -0.265821 0.415439
-17.016266 -15.616150 -0.123104 873 0.842417 -0.336421 0.517065
-17.022707 -15.612841 -0.194084 875 0.749739 -0.288806 -0.504230
-17.013817 -15.604648 -0.186907 973 0.877655 -0.170920 -0.400964
-17.009880 -15.601009 -0.179781 1035 0.934299 -0.118571 -0.298432
-17.008635 -15.599832 -0.172678 1079 0.952220 -0.101625 -0.196230
-17.006687 -15.598011 -0.165579 1093 0.980240 -0.075429 -0.094086
-17.005177 -15.596590 -0.158478 1111 1.001976 -0.054984 0.008086
-17.004965 -15.596344 -0.151390 1097 1.005022 -0.051444 0.110072
-17.005173 -15.596504 -0.144299 1089 1.002030 -0.053749 0.212101
-17.006617 -15.597785 -0.137230 1075 0.981255 -0.072177 0.313813
-17.009352 -15.600267 -0.130154 1047 0.941901 -0.107896 0.415626
-17.012524 -15.603138 -0.123085 999 0.896262 -0.149199 0.517338
-17.018551 -15.608625 -0.116030 907 0.809539 -0.228155 0.618849
-17.026821 -15.607088 -0.201199 853 0.690543 -0.206035 -0.606604
-17.018631 -15.599542 -0.194027 981 0.808387 -0.097453 -0.503410
-17.012871 -15.594218 -0.186880 1057 0.891267 -0.020857 -0.400576
-17.009834 -15.591405 -0.179770 1099 0.934958 0.019622 -0.298273
-17.008219 -15.589877 -0.172659 1129 0.958203 0.041605 -0.195957
-17.006767 -15.588519 -0.165567 1157 0.979087 0.061145 -0.093914
-17.006710 -15.588436 -0.158478 1143 0.979911 0.062339 0.008086
-17.006910 -15.588572 -0.151396 1153 0.977029 0.060390 0.109986
-17.006540 -15.588190 -0.144310 1139 0.982353 0.065879 0.211943
-17.007126 -15.588694 -0.137226 1133 0.973928 0.058634 0.313871
-17.008623 -15.590033 -0.130158 1107 0.952384 0.039368 0.415568
-17.011631 -15.592752 -0.123089 1077 0.909105 0.000233 0.517281
-17.016628 -15.597294 -0.116030 1009 0.837203 -0.065111 0.618849
-17.021837 -15.602040 -0.108959 911 0.762253 -0.133405 0.720590
-17.036118 -15.605507 -0.208374 807 0.556781 -0.183284 -0.709842
-17.023668 -15.594062 -0.201149 967 0.735907 -0.018607 -0.605885
-17.017685 -15.588539 -0.193995 1053 0.821999 0.060857 -0.502950
-17.013483 -15.584658 -0.186869 1111 0.882457 0.116705 -0.400417
-17.011112 -15.582456 -0.179764 1141 0.916570 0.148389 -0.298187
-17.009706 -15.581127 -0.172661 1153 0.936796 0.167504 -0.195986
-17.008247 -15.579749 -0.165571 1171 0.957791 0.187332 -0.093971
-17.007168 -15.578732 -0.158478 1189 0.973324 0.201973 0.008086
-17.007433 -15.578932 -0.151396 1201 0.969509 0.199092 0.109986
-17.007912 -15.579339 -0.144312 1181 0.962621 0.193232 0.211914
-17.008924 -15.580222 -0.137238 1157 0.948048 0.180526 0.313698
-17.011177 -15.582253 -0.130173 1151 0.915637 0.151298 0.415353
-17.013971 -15.584776 -0.123097 1123 0.875432 0.115004 0.517165
-17.017029 -15.587546 -0.116030 1071 0.831439 0.075141 0.618849
-17.020842 -15.591002 -0.108967 1015 0.776579 0.025413 0.720475
-17.028061 -15.597568 -0.101914 885 0.672704 -0.069049 0.821957
-17.041004 -15.599873 -0.215498 765 0.486470 -0.102215 -0.812345
-17.032866 -15.592381 -0.208317 917 0.603573 0.005585 -0.709022
-17.025259 -15.585392 -0.201141 1029 0.713019 0.106139 -0.605770
-17.019548 -15.580120 -0.193995 1085 0.795186 0.181994 -0.502950
-17.016479 -15.577272 -0.186884 1129 0.839343 0.222968 -0.400633
-17.014435 -15.575363 -0.179775 1165 0.868763 0.250439 -0.298345
-17.011673 -15.572801 -0.172672 1179 0.908502 0.287310 -0.196144
-17.009943 -15.571188 -0.165571 1199 0.933393 0.310514 -0.093971
-17.009563 -15.570799 -0.158485 1213 0.938855 0.316112 0.007986
-17.009562 -15.570756 -0.151405 1207 0.938882 0.316730 0.109856
-17.010258 -15.571358 -0.144331 1203 0.928865 0.308071 0.211640
-17.010948 -15.571954 -0.137247 1191 0.918930 0.299495 0.313568
-17.012711 -15.573539 -0.130177 1171 0.893572 0.276689 0.415295
-17.015562 -15.576106 -0.123110 1155 0.852544 0.239750 0.516979
-17.018887 -15.579120 -0.116051 1113 0.804709 0.196388 0.618547
-17.022497 -15.582385 -0.108978 1045 0.752758 0.149404 0.720317
-17.028784 -15.588107 -0.101921 947 0.662303 0.067073 0.821856
-17.040707 -15.590024 -0.215468 799 0.490751 0.039492 -0.811914
-17.032501 -15.582491 -0.208286 965 0.608815 0.147881 -0.708576
-17.026417 -15.576880 -0.201132 1057 0.696361 0.228607 -0.605640
-17.023396 -15.574081 -0.194021 1131 0.739832 0.268881 -0.503324
-17.020212 -15.571132 -0.186899 1175 0.785636 0.311323 -0.400849
-17.016542 -15.567739 -0.179781 1187 0.838438 0.360146 -0.298432
-17.014814 -15.566124 -0.172682 1209 0.863302 0.383377 -0.196288
-17.013517 -15.564898 -0.165590 1227 0.881963 0.401023 -0.094245
-17.012594 -15.564021 -0.158505 1215 0.895246 0.413634 0.007698
-17.012865 -15.564230 -0.151423 1209 0.891349 0.410629 0.109597
-17.013016 -15.564330 -0.144343 1205 0.889181 0.409188 0.211468
-17.013924 -15.565119 -0.137268 1207 0.876118 0.397840 0.313266
-17.016287 -15.567248 -0.130203 1183 0.842115 0.367199 0.414921
-17.018703 -15.569430 -0.123129 1167 0.807344 0.335803 0.516705
-17.021666 -15.572099 -0.116062 1135 0.764723 0.297409 0.618389
-17.025158 -15.575255 -0.109001 1077 0.714474 0.251990 0.719986
-17.030256 -15.579887 -0.101931 995 0.641116 0.185342 0.821712
-17.041903 -15.590500 -0.094893 839 0.473544 0.032644 0.922978
-17.043861 -15.583530 -0.215487 865 0.445359 0.132924 -0.812187
-17.036953 -15.577188 -0.208317 983 0.544761 0.224189 -0.709022
-17.030540 -15.571282 -0.201155 1075 0.637027 0.309155 -0.605971
-17.025961 -15.567057 -0.194023 1139 0.702920 0.369957 -0.503352
-17.022772 -15.564116 -0.186911 1185 0.748806 0.412275 -0.401022
-17.020233 -15.561753 -0.179806 1191 0.785334 0.446265 -0.298791
-17.017752 -15.559452 -0.172701 1207 0.821038 0.479376 -0.196561
-17.016832 -15.558568 -0.165608 1235 0.834266 0.492096 -0.094504
-17.016880 -15.558577 -0.158527 1241 0.833580 0.491972 0.007381
-17.016598 -15.558290 -0.151449 1243 0.837642 0.496103 0.109223
-17.016548 -15.558195 -0.144369 1225 0.838355 0.497461 0.211094
-17.017725 -15.559235 -0.137293 1199 0.821422 0.482504 0.312907
-17.019440 -15.560770 -0.130222 1193 0.796750 0.460412 0.414648
-17.021584 -15.562700 -0.123150 1177 0.765903 0.432639 0.516403
-17.024113 -15.564967 -0.116085 1153 0.729513 0.400022 0.618058
-17.027277 -15.567829 -0.109017 1099 0.683983 0.358842 0.719755
-17.032934 -15.572965 -0.101954 1029 0.602585 0.284950 0.821381
-17.042416 -15.581595 -0.094906 911 0.466161 0.160766 0.922791
-17.046675 -15.576546 -0.215489 917 0.404879 0.233424 -0.812216
-17.039614 -15.570058 -0.208321 1007 0.506477 0.326774 -0.709079
-17.034109 -15.565000 -0.201172 1083 0.585680 0.399555 -0.606216
-17.030437 -15.561606 -0.194054 1141 0.638509 0.448378 -0.503798
-17.026991 -15.558414 -0.186936 1163 0.688100 0.494305 -0.401381
-17.024397 -15.556009 -0.179831 1205 0.725424 0.528912 -0.299151
-17.022228 -15.554002 -0.172724 1219 0.756627 0.557797 -0.196892
-17.020065 -15.551984 -0.165627 1229 0.787749 0.586832 -0.094777
-17.019636 -15.551560 -0.158539 1239 0.793924 0.592925 0.007209
-17.020229 -15.552057 -0.151465 1247 0.785389 0.585776 0.108993
-17.020435 -15.552214 -0.144384 1215 0.782425 0.583525 0.210878
-17.021559 -15.553197 -0.137318 1207 0.766260 0.569378 0.312547
-17.022675 -15.554186 -0.130241 1191 0.750206 0.555148 0.414374
-17.025208 -15.556460 -0.123177 1179 0.713760 0.522421 0.516014
-17.029505 -15.560354 -0.116121 1157 0.651929 0.466395 0.617540
-17.032843 -15.563369 -0.109051 1127 0.603902 0.423020 0.719266
-17.036825 -15.566970 -0.101978 1047 0.546599 0.371206 0.821036
-17.044096 -15.573577 -0.094925 923 0.441983 0.276140 0.922518
-17.052221 -15.572424 -0.215532 897 0.325073 0.292730 -0.812835
-17.044504 -15.565349 -0.208357 1005 0.436110 0.394533 -0.709597
-17.038406 -15.559738 -0.201204 1095 0.523849 0.475259 -0.606676
-17.034197 -15.555864 -0.194079 1135 0.584417 0.530998 -0.504158
-17.030638 -15.552571 -0.186960 1165 0.635627 0.578379 -0.401727
-17.028429 -15.550519 -0.179854 1197 0.667407 0.607909 -0.299482
-17.026539 -15.548753 -0.172754 1245 0.694604 0.633322 -0.197324
-17.024473 -15.546837 -0.165655 1233 0.724326 0.660889 -0.095180
-17.023495 -15.545903 -0.158562 1233 0.738405 0.674323 0.006878
-17.024406 -15.546700 -0.151497 1237 0.725286 0.662865 0.108532
-17.025057 -15.547253 -0.144423 1237 0.715928 0.654907 0.210317
-17.025263 -15.547411 -0.137343 1205 0.712964 0.652629 0.312187
-17.027195 -15.549138 -0.130270 1197 0.685164 0.627778 0.413957
-17.029869 -15.551541 -0.123205 1197 0.646687 0.593199 0.515612
-17.033543 -15.554857 -0.116144 1155 0.593830 0.545488 0.617209
-17.037796 -15.558709 -0.109078 1105 0.532631 0.490065 0.718878
-17.042101 -15.562596 -0.102013 1031 0.470690 0.434135 0.820532
-17.050022 -15.569800 -0.094956 921 0.356715 0.330479 0.922072
-17.056810 -15.567634 -0.215559 877 0.259043 0.361655 -0.813223
-17.050819 -15.562130 -0.208405 1019 0.345244 0.440845 -0.710288
-17.044344 -15.556174 -0.201243 1091 0.438416 0.526538 -0.607237
-17.039534 -15.551755 -0.194111 1135 0.507629 0.590125 -0.504619
-17.035757 -15.548267 -0.186995 1163 0.561968 0.640307 -0.402230
-17.033758 -15.546401 -0.179886 1201 0.590729 0.667160 -0.299942
-17.031813 -15.544593 -0.172787 1235 0.618722 0.693177 -0.197798
-17.030193 -15.543077 -0.165697 1227 0.642022 0.714981 -0.095784
-17.029858 -15.542733 -0.158609 1235 0.646852 0.719935 0.006201
-17.029961 -15.542799 -0.151529 1235 0.645370 0.718988 0.108072
-17.029852 -15.542662 -0.144449 1227 0.646934 0.720964 0.209943
-17.031025 -15.543694 -0.137373 1211 0.630056 0.706117 0.311755
-17.033117 -15.545575 -0.130310 1193 0.599950 0.679044 0.413381
-17.035276 -15.547503 -0.123238 1183 0.568884 0.651298 0.515137
-17.038286 -15.550210 -0.116171 1149 0.525577 0.612355 0.616820
-17.041729 -15.553316 -0.109110 1099 0.476041 0.567663 0.718417
-17.046247 -15.557410 -0.102043 1035 0.411027 0.508754 0.820101
-17.053898 -15.564350 -0.094988 909 0.300949 0.408900 0.921612
-17.062265 -15.563057 -0.215607 851 0.180553 0.427507 -0.813914
-17.056051 -15.557353 -0.208443 993 0.269965 0.509578 -0.710835
-17.049255 -15.551112 -0.201283 1067 0.367748 0.599374 -0.607813
-17.045422 -15.547580 -0.194155 1113 0.422910 0.650200 -0.505252
-17.041904 -15.544344 -0.187037 1145 0.473516 0.696759 -0.402835
-17.039316 -15.541948 -0.179932 1173 0.510758 0.731228 -0.300604
-17.037420 -15.540176 -0.172823 1187 0.538037 0.756723 -0.198316
-17.036070 -15.538906 -0.165732 1201 0.557467 0.775001 -0.096288
-17.035368 -15.538230 -0.158646 1223 0.567567 0.784730 0.005669
-17.034813 -15.537692 -0.151558 1215 0.575553 0.792469 0.107655
-17.035679 -15.538438 -0.144484 1215 0.563093 0.781739 0.209439
-17.036633 -15.539278 -0.137407 1191 0.549371 0.769650 0.311266
-17.038515 -15.540956 -0.130346 1187 0.522284 0.745513 0.412863
-17.040184 -15.542441 -0.123266 1159 0.498271 0.724134 0.514734
-17.042761 -15.544759 -0.116201 1123 0.461194 0.690790 0.616389
-17.047441 -15.548990 -0.109144 1079 0.393847 0.629905 0.717928
-17.053164 -15.554163 -0.102081 1007 0.311515 0.555478 0.819554
-17.062874 -15.562988 -0.095034 867 0.171799 0.428495 0.920950
-17.070995 -15.561284 -0.215674 745 0.054943 0.453016 -0.814878
-17.064632 -15.555443 -0.208511 961 0.146495 0.537063 -0.711813
-17.057171 -15.548604 -0.201346 1039 0.253856 0.635463 -0.608719
-17.051558 -15.543446 -0.194199 1089 0.334623 0.709685 -0.505885
-17.048424 -15.540563 -0.187077 1141 0.379713 0.751166 -0.403410
-17.046543 -15.538804 -0.179978 1169 0.406773 0.776469 -0.301266
-17.044052 -15.536493 -0.172873 1177 0.442615 0.809718 -0.199036
-17.042212 -15.534778 -0.165773 1197 0.469098 0.834403 -0.096878
-17.040741 -15.533415 -0.158682 1191 0.490257 0.854012 0.005151
-17.041334 -15.533909 -0.151610 1187 0.481722 0.846904 0.106907
-17.042297 -15.534756 -0.144533 1193 0.467863 0.834719 0.208734
-17.042511 -15.534905 -0.137453 1179 0.464789 0.832565 0.310604
-17.044498 -15.536692 -0.130381 1153 0.436193 0.806863 0.412360
-17.047565 -15.539441 -0.123312 1143 0.392063 0.767303 0.514072
-17.050791 -15.542354 -0.116255 1113 0.345656 0.725396 0.615612
-17.054457 -15.545659 -0.109182 1063 0.292908 0.677836 0.717381
-17.061522 -15.552051 -0.102131 979 0.191256 0.585872 0.818835
-17.078047 -15.567080 -0.095114 803 -0.046517 0.369628 0.919799
-17.076740 -15.556924 -0.208618 855 -0.027718 0.515753 -0.713352
-17.065008 -15.546203 -0.201408 997 0.141089 0.670015 -0.609611
-17.059395 -15.541044 -0.194262 1059 0.221856 0.744236 -0.506791
-17.056101 -15.538011 -0.187140 1105 0.269252 0.787886 -0.404317
-17.053604 -15.535706 -0.180035 1151 0.305176 0.821052 -0.302086
-17.051121 -15.533402 -0.172920 1169 0.340908 0.854190 -0.199712
-17.049225 -15.531646 -0.165821 1185 0.368187 0.879466 -0.097568
-17.047817 -15.530316 -0.158730 1173 0.388440 0.898594 0.004460
-17.048185 -15.530626 -0.151648 1181 0.383144 0.894135 0.106360
-17.049374 -15.531659 -0.144581 1189 0.366046 0.879274 0.208043
-17.050447 -15.532606 -0.137505 1163 0.350595 0.865648 0.309856
-17.051785 -15.533780 -0.130426 1145 0.331357 0.848756 0.411712
-17.054102 -15.535861 -0.123352 1115 0.298013 0.818815 0.513496
-17.057539 -15.538961 -0.116293 1069 0.248559 0.774205 0.615065
-17.062668 -15.543595 -0.109232 1009 0.174763 0.707530 0.716662
-17.069576 -15.549843 -0.102173 895 0.075361 0.617638 0.818230
-17.076611 -15.547050 -0.201510 903 -0.025852 0.657816 -0.611079
-17.068668 -15.539773 -0.194336 1005 0.088424 0.762528 -0.507856
-17.064613 -15.536042 -0.187210 1057 0.146770 0.816208 -0.405324
-17.060558 -15.532310 -0.180084 1109 0.205115 0.869916 -0.302791
-17.058067 -15.530015 -0.172978 1141 0.240957 0.902931 -0.200547
-17.057253 -15.529240 -0.165882 1161 0.252676 0.914087 -0.098446
-17.057089 -15.529045 -0.158794 1161 0.255036 0.916886 0.003540
-17.056808 -15.528757 -0.151705 1165 0.259070 0.921030 0.105540
-17.057344 -15.529209 -0.144632 1151 0.251358 0.914526 0.207309
-17.058365 -15.530100 -0.137556 1139 0.236676 0.901709 0.309122
-17.060022 -15.531576 -0.130478 1111 0.212827 0.880468 0.410964
-17.062447 -15.533751 -0.123413 1081 0.177946 0.849182 0.512619
-17.065359 -15.536355 -0.116337 1027 0.136039 0.811707 0.614432
-17.070753 -15.541234 -0.109274 955 0.058428 0.741506 0.716058
-17.088419 -15.557275 -0.102270 803 -0.195757 0.510703 0.816835
-17.113825 -15.571346 -0.201878 719 -0.561309 0.308236 -0.616374
-17.078934 -15.539574 -0.194424 909 -0.059279 0.765396 -0.509122
-17.072878 -15.534020 -0.187269 1003 0.027856 0.845299 -0.406173
-17.069584 -15.530987 -0.180149 1055 0.075251 0.888948 -0.303727
-17.068178 -15.529674 -0.173046 1101 0.095477 0.907843 -0.201525
-17.066385 -15.528008 -0.165947 1113 0.121274 0.931802 -0.099381
-17.065517 -15.527175 -0.158854 1123 0.133761 0.943795 0.002676
-17.065674 -15.527284 -0.151772 1133 0.131511 0.942230 0.104575
-17.065716 -15.527282 -0.144692 1123 0.130907 0.942258 0.206446
-17.067007 -15.528422 -0.137613 1101 0.112328 0.925846 0.308302
-17.069050 -15.530252 -0.130531 1077 0.082935 0.899514 0.410202
-17.072227 -15.533100 -0.123474 1031 0.037214 0.858540 0.511741
-17.077572 -15.537930 -0.116413 969 -0.039684 0.789052 0.613338
-17.086754 -15.546250 -0.109369 865 -0.171799 0.669328 0.714691
-17.085556 -15.535842 -0.187374 893 -0.154564 0.819090 -0.407683
-17.079878 -15.530646 -0.180237 987 -0.072863 0.893847 -0.304993
-17.078415 -15.529276 -0.173126 1041 -0.051814 0.913565 -0.202676
-17.076733 -15.527710 -0.166025 1059 -0.027609 0.936097 -0.100504
-17.074678 -15.525802 -0.158918 1071 0.001949 0.963554 0.001756
-17.074188 -15.525315 -0.151831 1071 0.009002 0.970552 0.103727
-17.074989 -15.526011 -0.144747 1073 -0.002525 0.960535 0.205655
-17.076431 -15.527295 -0.137669 1035 -0.023272 0.942066 0.307497
-17.078863 -15.529461 -0.130604 1005 -0.058263 0.910903 0.409151
-17.083605 -15.533744 -0.123535 949 -0.126489 0.849278 0.510863
-17.093283 -15.542504 -0.116499 845 -0.265739 0.723228 0.612101
-17.098839 -15.538057 -0.180395 799 -0.345683 0.787214 -0.307266
-17.091698 -15.531528 -0.173239 911 -0.242933 0.881154 -0.204302
-17.088497 -15.528581 -0.166117 957 -0.196882 0.923568 -0.101827
-17.086817 -15.527016 -0.159006 985 -0.172704 0.946086 0.000489
-17.086586 -15.526778 -0.151918 983 -0.169384 0.949503 0.102475
-17.087828 -15.527869 -0.144840 975 -0.187249 0.933805 0.204317
-17.089336 -15.529202 -0.137753 937 -0.208958 0.914622 0.306288
-17.093273 -15.532747 -0.130690 877 -0.265602 0.863617 0.407914
