767
-1.176567 -0.896887 -0.152331 1591 0.940747 0.328981 0.030480
-1.176377 -0.896734 -0.151852 1589 0.943479 0.331182 0.037372
-1.175947 -0.896410 -0.151335 1587 0.949668 0.335844 0.044810
-1.175813 -0.896300 -0.150866 1585 0.951595 0.337427 0.051559
-1.176073 -0.896504 -0.150433 1581 0.947855 0.334492 0.057789
-1.176003 -0.896444 -0.149964 1571 0.948861 0.335355 0.064537
-1.175623 -0.896156 -0.149466 1573 0.954328 0.339499 0.071703
-1.175834 -0.896310 -0.149035 1575 0.951294 0.337283 0.077904
-1.176861 -0.897093 -0.148699 1581 0.936515 0.326017 0.082739
-1.177254 -0.897390 -0.148287 1587 0.930862 0.321743 0.088667
-1.176874 -0.897102 -0.147780 1585 0.936328 0.325887 0.095962
-1.176684 -0.896949 -0.147301 1575 0.939062 0.328089 0.102854
-1.176775 -0.897010 -0.146851 1581 0.937753 0.327211 0.109328
-1.177099 -0.897265 -0.146430 1587 0.933091 0.323542 0.115386
-1.177078 -0.897240 -0.145968 1585 0.933393 0.323902 0.122033
-1.176824 -0.897052 -0.145480 1583 0.937048 0.326607 0.129055
-1.176796 -0.897021 -0.145020 1577 0.937452 0.327053 0.135674
-1.176894 -0.897089 -0.144570 1573 0.936042 0.326074 0.142149
-1.176809 -0.897029 -0.144101 1573 0.937265 0.326938 0.148897
-1.176675 -0.896919 -0.143632 1577 0.939193 0.328520 0.155645
-1.177104 -0.897252 -0.143220 1591 0.933019 0.323729 0.161573
-1.177554 -0.897592 -0.142817 1603 0.926544 0.318837 0.167372
-1.177765 -0.897747 -0.142375 1601 0.923508 0.316607 0.173731
-1.177920 -0.897858 -0.141934 1599 0.921279 0.315009 0.180077
-1.178180 -0.898062 -0.141513 1591 0.917538 0.312074 0.186134
-1.178511 -0.898310 -0.141091 1587 0.912774 0.308506 0.192206
-1.178306 -0.898143 -0.140603 1589 0.915725 0.310909 0.199228
-1.177933 -0.897861 -0.140105 1587 0.921092 0.314966 0.206393
-1.177447 -0.897494 -0.139588 1577 0.928085 0.320247 0.213832
-1.177651 -0.897642 -0.139157 1569 0.925148 0.318117 0.220034
-1.177862 -0.897796 -0.138726 1567 0.922112 0.315902 0.226235
-1.178369 -0.898179 -0.138323 1571 0.914817 0.310391 0.232034
-1.178277 -0.898112 -0.137852 1571 0.916141 0.311355 0.238811
-1.177721 -0.897687 -0.137326 1565 0.924141 0.317470 0.246379
-1.177819 -0.897756 -0.136885 1569 0.922731 0.316478 0.252724
-1.178030 -0.897911 -0.136445 1573 0.919695 0.314247 0.259055
-1.178353 -0.898165 -0.136023 1579 0.915049 0.310593 0.265127
-1.178670 -0.898398 -0.135602 1583 0.910486 0.307240 0.271185
-1.178599 -0.898338 -0.135131 1579 0.911509 0.308103 0.277962
-1.178627 -0.898364 -0.134680 1571 0.911105 0.307729 0.284451
-1.178599 -0.898332 -0.134211 1569 0.911509 0.308189 0.291199
-1.178866 -0.898544 -0.133790 1567 0.907666 0.305139 0.297256
-1.179365 -0.898919 -0.133378 1563 0.900486 0.299744 0.303185
-1.180322 -0.899645 -0.133023 1567 0.886716 0.289298 0.308293
-1.181708 -0.900692 -0.132716 1571 0.866775 0.274233 0.312710
-1.182081 -0.900981 -0.132294 1573 0.861408 0.270074 0.318782
-1.181827 -0.900779 -0.131806 1569 0.865063 0.272981 0.325803
-1.181454 -0.900498 -0.131306 1563 0.870430 0.277024 0.332998
-1.181010 -0.900159 -0.130799 1555 0.876818 0.281902 0.340293
-1.180581 -0.899821 -0.130301 1549 0.882991 0.286765 0.347458
-1.180961 -0.900118 -0.129880 1551 0.877523 0.282492 0.353516
-1.182051 -0.900936 -0.129534 1555 0.861840 0.270722 0.358494
-1.182185 -0.901041 -0.129084 1557 0.859911 0.269211 0.364969
-1.181228 -0.900310 -0.128527 1553 0.873681 0.279729 0.372983
-1.181319 -0.900371 -0.128077 1549 0.872372 0.278851 0.379458
-1.181762 -0.900704 -0.127665 1545 0.865998 0.274060 0.385386
-1.181846 -0.900772 -0.127215 1539 0.864789 0.273082 0.391861
-1.182585 -0.901334 -0.126832 1543 0.854156 0.264995 0.397372
-1.182845 -0.901524 -0.126389 1549 0.850415 0.262261 0.403746
-1.182992 -0.901642 -0.125949 1547 0.848300 0.260563 0.410077
-1.183372 -0.901925 -0.125527 1545 0.842832 0.256491 0.416149
-1.183752 -0.902208 -0.125106 1551 0.837366 0.252420 0.422206
-1.183780 -0.902234 -0.124646 1543 0.836962 0.252045 0.428825
-1.183583 -0.902074 -0.124167 1539 0.839796 0.254348 0.435717
-1.183611 -0.902100 -0.123717 1539 0.839393 0.253973 0.442192
-1.183814 -0.902247 -0.123274 1535 0.836472 0.251858 0.448566
-1.183723 -0.902180 -0.122805 1527 0.837782 0.252822 0.455314
-1.183990 -0.902377 -0.122365 1523 0.833940 0.249988 0.461645
-1.184721 -0.902931 -0.121981 1525 0.823422 0.242017 0.467170
-1.185045 -0.903171 -0.121548 1527 0.818760 0.238564 0.473400
-1.185185 -0.903282 -0.121108 1527 0.816747 0.236967 0.479731
-1.185572 -0.903572 -0.120677 1523 0.811177 0.232793 0.485933
-1.185881 -0.903812 -0.120255 1521 0.806731 0.229341 0.492005
-1.186085 -0.903959 -0.119815 1521 0.803797 0.227226 0.498336
-1.186240 -0.904071 -0.119362 1517 0.801567 0.225614 0.504854
-1.186211 -0.904054 -0.118903 1515 0.801983 0.225859 0.511458
-1.186415 -0.904201 -0.118462 1511 0.799049 0.223744 0.517803
-1.187140 -0.904748 -0.118069 1511 0.788617 0.215873 0.523458
-1.187456 -0.904995 -0.117636 1507 0.784070 0.212319 0.529688
-1.187315 -0.904878 -0.117158 1501 0.786099 0.214002 0.536566
-1.187111 -0.904725 -0.116679 1499 0.789033 0.216204 0.543458
-1.186900 -0.904565 -0.116200 1495 0.792069 0.218506 0.550350
-1.186935 -0.904584 -0.115740 1495 0.791567 0.218233 0.556969
-1.187835 -0.905267 -0.115365 1497 0.778617 0.208405 0.562364
-1.188967 -0.906128 -0.115010 1499 0.762329 0.196017 0.567472
-1.189411 -0.906460 -0.114586 1495 0.755940 0.191240 0.573573
-1.189966 -0.906879 -0.114174 1489 0.747955 0.185211 0.579501
-1.190163 -0.907033 -0.113734 1481 0.745120 0.182995 0.585832
-1.189720 -0.906695 -0.113225 1473 0.751494 0.187858 0.593156
-1.189579 -0.906578 -0.112755 1467 0.753523 0.189542 0.599918
-1.190127 -0.907003 -0.112343 1465 0.745638 0.183427 0.605846
-1.191133 -0.907764 -0.111968 1467 0.731163 0.172477 0.611242
-1.191921 -0.908361 -0.111575 1469 0.719825 0.163887 0.616897
-1.192294 -0.908637 -0.111142 1471 0.714458 0.159916 0.623127
-1.192779 -0.909012 -0.110720 1471 0.707481 0.154520 0.629199
-1.193102 -0.909252 -0.110289 1467 0.702832 0.151067 0.635400
-1.193004 -0.909178 -0.109818 1463 0.704242 0.152132 0.642177
-1.193559 -0.909596 -0.109406 1463 0.696256 0.146117 0.648105
-1.193763 -0.909744 -0.108956 1457 0.693321 0.143988 0.654580
-1.193840 -0.909805 -0.108504 1453 0.692213 0.143110 0.661084
-1.194565 -0.910352 -0.108101 1447 0.681781 0.135240 0.666882
-1.195177 -0.910813 -0.107688 1445 0.672977 0.128607 0.672825
-1.195486 -0.911053 -0.107247 1441 0.668531 0.125153 0.679170
-1.195634 -0.911157 -0.106795 1433 0.666400 0.123657 0.685674
-1.195535 -0.911083 -0.106326 1423 0.667826 0.124722 0.692422
-1.195795 -0.911273 -0.105885 1415 0.664083 0.121988 0.698767
-1.196463 -0.911777 -0.105471 1409 0.654473 0.114736 0.704724
-1.197117 -0.912281 -0.105069 1403 0.645063 0.107485 0.710508
-1.197610 -0.912649 -0.104636 1399 0.637969 0.102190 0.716739
-1.198045 -0.912975 -0.104214 1395 0.631710 0.097499 0.722811
-1.198707 -0.913486 -0.103800 1393 0.622185 0.090146 0.728767
-1.199136 -0.913805 -0.103367 1387 0.616012 0.085556 0.734998
-1.199037 -0.913730 -0.102898 1381 0.617437 0.086635 0.741746
-1.198959 -0.913663 -0.102429 1371 0.618559 0.087599 0.748494
-1.199437 -0.914032 -0.101996 1361 0.611681 0.082290 0.754724
-1.199817 -0.914315 -0.101565 1355 0.606214 0.078218 0.760926
-1.200598 -0.914904 -0.101161 1351 0.594976 0.069743 0.766739
-1.202181 -0.916108 -0.100823 1345 0.572199 0.052419 0.771602
-1.203074 -0.916783 -0.100428 1337 0.559351 0.042708 0.777285
-1.203334 -0.916987 -0.099976 1329 0.555610 0.039772 0.783789
-1.203587 -0.917170 -0.099526 1321 0.551968 0.037139 0.790264
-1.204474 -0.917852 -0.099131 1307 0.539207 0.027326 0.795947
-1.205655 -0.918749 -0.098755 1299 0.522214 0.014420 0.801357
-1.206436 -0.919339 -0.098351 1289 0.510976 0.005930 0.807170
-1.206760 -0.919579 -0.097911 1277 0.506314 0.002477 0.813501
-1.207062 -0.919811 -0.097458 1263 0.501969 -0.000861 0.820019
-1.207554 -0.920180 -0.097026 1251 0.494890 -0.006171 0.826235
-1.208511 -0.920905 -0.096631 1239 0.481120 -0.016602 0.831918
-1.209221 -0.921452 -0.096217 1225 0.470904 -0.024472 0.837875
-1.210058 -0.922084 -0.095812 1209 0.458861 -0.033566 0.843703
-1.210663 -0.922538 -0.095389 1193 0.450157 -0.040098 0.849789
-1.211261 -0.922999 -0.094956 1177 0.441551 -0.046732 0.856019
-1.212098 -0.923632 -0.094554 1161 0.429509 -0.055840 0.861803
-1.212815 -0.924171 -0.094140 1139 0.419191 -0.063594 0.867760
-1.213941 -0.925025 -0.093743 1117 0.402991 -0.075882 0.873472
-1.214722 -0.925615 -0.093329 1095 0.391753 -0.084372 0.879429
-1.218964 -0.928840 -0.092219 983 0.330717 -0.130774 0.895400
-1.207698 -0.920364 -0.221007 1109 0.492818 -0.008818 -0.957664
-1.204187 -0.917677 -0.218955 1177 0.543335 0.029844 -0.928139
-1.203363 -0.917052 -0.218339 1197 0.555193 0.038837 -0.919276
-1.202842 -0.916649 -0.217772 1223 0.562688 0.044636 -0.911118
-1.202441 -0.916339 -0.217223 1241 0.568458 0.049096 -0.903218
-1.201399 -0.915551 -0.216569 1249 0.583451 0.060434 -0.893808
-1.200583 -0.914919 -0.215953 1259 0.595192 0.069527 -0.884945
-1.200231 -0.914659 -0.215424 1265 0.600257 0.073268 -0.877333
-1.199830 -0.914349 -0.214877 1271 0.606026 0.077729 -0.869463
-1.198964 -0.913682 -0.214261 1279 0.618487 0.087326 -0.860600
-1.197916 -0.912886 -0.213606 1285 0.633566 0.098779 -0.851175
-1.197163 -0.912304 -0.213000 1291 0.644401 0.107154 -0.842456
-1.196416 -0.911730 -0.212403 1295 0.655149 0.115413 -0.833866
-1.195713 -0.911199 -0.211808 1297 0.665263 0.123053 -0.825305
-1.195417 -0.910967 -0.211289 1301 0.669522 0.126391 -0.817837
-1.195241 -0.910829 -0.210789 1309 0.672056 0.128376 -0.810643
-1.195008 -0.910647 -0.210280 1319 0.675407 0.130996 -0.803319
-1.194312 -0.910123 -0.209695 1325 0.685423 0.138535 -0.794902
-1.193439 -0.909449 -0.209069 1333 0.697983 0.148233 -0.785895
-1.193094 -0.909181 -0.208541 1343 0.702947 0.152089 -0.778298
-1.192672 -0.908864 -0.208003 1353 0.709019 0.156650 -0.770556
-1.191975 -0.908326 -0.207417 1361 0.719048 0.164390 -0.762125
-1.191918 -0.908280 -0.206936 1369 0.719868 0.165053 -0.755204
-1.191616 -0.908056 -0.206418 1379 0.724213 0.168275 -0.747751
-1.190750 -0.907388 -0.205802 1389 0.736674 0.177888 -0.738887
-1.190278 -0.907021 -0.205254 1393 0.743465 0.183168 -0.731003
-1.189814 -0.906675 -0.204716 1397 0.750142 0.188147 -0.723261
-1.189518 -0.906444 -0.204199 1401 0.754401 0.191470 -0.715823
-1.189567 -0.906477 -0.203738 1409 0.753696 0.190996 -0.709190
-1.189560 -0.906467 -0.203269 1413 0.753796 0.191139 -0.702441
-1.188856 -0.905936 -0.202681 1417 0.763926 0.198779 -0.693981
-1.188216 -0.905440 -0.202115 1419 0.773135 0.205916 -0.685837
-1.187807 -0.905123 -0.201577 1421 0.779020 0.210477 -0.678096
-1.187856 -0.905156 -0.201117 1429 0.778315 0.210002 -0.671477
-1.187955 -0.905238 -0.200667 1433 0.776890 0.208823 -0.665002
-1.187490 -0.904879 -0.200129 1433 0.783581 0.213988 -0.657261
-1.187025 -0.904519 -0.199582 1435 0.790272 0.219168 -0.649391
-1.186490 -0.904116 -0.199034 1441 0.797968 0.224967 -0.641506
-1.186026 -0.903756 -0.198487 1441 0.804646 0.230146 -0.633636
-1.185378 -0.903253 -0.197920 1443 0.813970 0.237383 -0.625477
-1.184794 -0.902814 -0.197363 1449 0.822373 0.243701 -0.617463
-1.185012 -0.902976 -0.196932 1457 0.819235 0.241370 -0.611261
-1.185406 -0.903273 -0.196530 1463 0.813567 0.237096 -0.605477
-1.185223 -0.903127 -0.196030 1467 0.816199 0.239196 -0.598283
-1.184934 -0.902903 -0.195523 1473 0.820357 0.242419 -0.590988
-1.184856 -0.902850 -0.195042 1473 0.821479 0.243183 -0.584067
-1.184272 -0.902397 -0.194485 1471 0.829882 0.249701 -0.576053
-1.183449 -0.901773 -0.193890 1469 0.841724 0.258679 -0.567492
-1.183554 -0.901849 -0.193438 1471 0.840213 0.257586 -0.560988
-1.183892 -0.902103 -0.193028 1483 0.835350 0.253930 -0.555089
-1.184222 -0.902350 -0.192616 1487 0.830602 0.250376 -0.549161
-1.184335 -0.902433 -0.192176 1493 0.828976 0.249183 -0.542830
-1.183511 -0.901809 -0.191579 1497 0.840832 0.258161 -0.534240
-1.182631 -0.901128 -0.190974 1493 0.853494 0.267959 -0.525535
-1.181513 -0.900275 -0.190339 1487 0.869581 0.280233 -0.516398
-1.180977 -0.899872 -0.189791 1483 0.877293 0.286031 -0.508513
-1.181428 -0.900212 -0.189400 1493 0.870804 0.281139 -0.502887
-1.181821 -0.900509 -0.188998 1497 0.865149 0.276866 -0.497103
-1.181870 -0.900542 -0.188538 1501 0.864444 0.276391 -0.490484
-1.181631 -0.900354 -0.188038 1501 0.867883 0.279096 -0.483290
-1.181321 -0.900122 -0.187531 1503 0.872343 0.282434 -0.475995
-1.181194 -0.900020 -0.187050 1507 0.874171 0.283902 -0.469074
-1.181011 -0.899874 -0.186553 1505 0.876804 0.286003 -0.461923
-1.181173 -0.899993 -0.186122 1509 0.874473 0.284290 -0.455722
-1.181152 -0.899983 -0.185650 1517 0.874775 0.284434 -0.448931
-1.180912 -0.899794 -0.185153 1519 0.878228 0.287154 -0.441779
-1.180490 -0.899463 -0.184624 1519 0.884300 0.291916 -0.434168
-1.179955 -0.899060 -0.184086 1517 0.891998 0.297714 -0.426427
-1.179765 -0.898907 -0.183589 1519 0.894732 0.299916 -0.419276
-1.179990 -0.899076 -0.183167 1529 0.891493 0.297485 -0.413204
-1.179968 -0.899066 -0.182698 1529 0.891811 0.297629 -0.406456
-1.179841 -0.898963 -0.182217 1533 0.893637 0.299111 -0.399535
-1.179771 -0.898903 -0.181748 1529 0.894646 0.299973 -0.392787
-1.179707 -0.898850 -0.181269 1529 0.895565 0.300736 -0.385895
-1.179510 -0.898705 -0.180779 1539 0.898401 0.302822 -0.378844
-1.179327 -0.898559 -0.180291 1543 0.901034 0.304924 -0.371823
-1.179545 -0.898721 -0.179860 1547 0.897896 0.302593 -0.365621
-1.179875 -0.898968 -0.179448 1551 0.893149 0.299039 -0.359693
-1.179509 -0.898693 -0.178929 1553 0.898414 0.302995 -0.352226
-1.179206 -0.898455 -0.178431 1555 0.902775 0.306419 -0.345060
-1.178897 -0.898224 -0.177922 1551 0.907220 0.309743 -0.337736
-1.178481 -0.897899 -0.177395 1549 0.913207 0.314420 -0.330154
-1.178228 -0.897711 -0.176905 1549 0.916846 0.317125 -0.323103
-1.178150 -0.897644 -0.176427 1549 0.917968 0.318089 -0.316226
-1.177967 -0.897498 -0.175938 1553 0.920603 0.320189 -0.309189
-1.177657 -0.897267 -0.175439 1553 0.925062 0.323513 -0.302010
-1.177291 -0.896978 -0.174922 1553 0.930328 0.327671 -0.294571
-1.176404 -0.896304 -0.174336 1555 0.943091 0.337369 -0.286139
-1.176390 -0.896287 -0.173876 1557 0.943292 0.337614 -0.279520
-1.176608 -0.896449 -0.173445 1547 0.940157 0.335283 -0.273319
-1.176587 -0.896439 -0.172984 1539 0.940458 0.335427 -0.266686
-1.177382 -0.897043 -0.172631 1553 0.929019 0.326736 -0.261607
-1.177832 -0.897383 -0.172238 1565 0.922544 0.321844 -0.255952
-1.177649 -0.897238 -0.171750 1565 0.925177 0.323930 -0.248930
-1.177803 -0.897349 -0.171309 1563 0.922961 0.322333 -0.242585
-1.177669 -0.897253 -0.170828 1571 0.924889 0.323715 -0.235664
-1.177592 -0.897186 -0.170359 1567 0.925997 0.324679 -0.228916
-1.177753 -0.897305 -0.169919 1567 0.923682 0.322966 -0.222585
-1.176979 -0.896716 -0.169352 1571 0.934819 0.331441 -0.214427
-1.176029 -0.895992 -0.168767 1561 0.948487 0.341859 -0.206010
-1.176191 -0.896111 -0.168326 1561 0.946156 0.340146 -0.199664
-1.176458 -0.896308 -0.167904 1563 0.942314 0.337312 -0.193592
-1.176620 -0.896427 -0.167464 1569 0.939983 0.335600 -0.187262
-1.176654 -0.896460 -0.167014 1573 0.939494 0.335125 -0.180787
-1.176408 -0.896264 -0.166516 1579 0.943033 0.337945 -0.173621
-1.176331 -0.896197 -0.166047 1579 0.944141 0.338909 -0.166873
-1.176541 -0.896366 -0.165616 1581 0.941120 0.336477 -0.160672
-1.176703 -0.896484 -0.165173 1583 0.938789 0.334779 -0.154297
-1.176914 -0.896639 -0.164742 1577 0.935753 0.332549 -0.148096
-1.177477 -0.897064 -0.164361 1579 0.927652 0.326434 -0.142614
-1.177167 -0.896833 -0.163861 1577 0.932112 0.329758 -0.135420
-1.176224 -0.896102 -0.163277 1567 0.945681 0.340276 -0.127017
-1.175858 -0.895828 -0.162768 1565 0.950947 0.344218 -0.119693
-1.176301 -0.896161 -0.162366 1577 0.944573 0.339427 -0.113909
-1.176751 -0.896501 -0.161963 1581 0.938098 0.334535 -0.108110
-1.176969 -0.896662 -0.161532 1593 0.934961 0.332218 -0.101909
-1.176884 -0.896602 -0.161063 1597 0.936184 0.333082 -0.095161
-1.176982 -0.896671 -0.160613 1591 0.934774 0.332089 -0.088686
-1.177137 -0.896782 -0.160182 1593 0.932544 0.330492 -0.082484
-1.176475 -0.896280 -0.159636 1593 0.942069 0.337715 -0.074628
-1.176102 -0.895998 -0.159127 1599 0.947436 0.341772 -0.067305
-1.176208 -0.896074 -0.158677 1593 0.945911 0.340679 -0.060830
-1.176531 -0.896314 -0.158265 1579 0.941265 0.337225 -0.054902
-1.176805 -0.896518 -0.157834 1585 0.937321 0.334290 -0.048700
-1.176432 -0.896237 -0.157336 1589 0.942688 0.338333 -0.041535
-1.175897 -0.895820 -0.156798 1585 0.950386 0.344333 -0.033794
-1.176038 -0.895932 -0.156367 1589 0.948357 0.342722 -0.027592
-1.175904 -0.895822 -0.155888 1587 0.950285 0.344305 -0.020700
-1.175657 -0.895640 -0.155400 1589 0.953839 0.346923 -0.013679
-1.176100 -0.895973 -0.154997 1601 0.947465 0.342132 -0.007880
-1.175910 -0.895820 -0.154507 1595 0.950199 0.344333 -0.000830
-1.175952 -0.895846 -0.154057 1589 0.949596 0.343959 0.005645
-1.176332 -0.896143 -0.153645 1593 0.944127 0.339686 0.011573
-1.177007 -0.896655 -0.153273 1593 0.934416 0.332319 0.016926
-1.177394 -0.896945 -0.152861 1597 0.928846 0.328146 0.022854
-1.177380 -0.896928 -0.152402 1597 0.929049 0.328391 0.029458
-1.177344 -0.896904 -0.151940 1597 0.929567 0.328736 0.036105
-1.177154 -0.896751 -0.151452 1595 0.932301 0.330938 0.043127
-1.176957 -0.896605 -0.150973 1585 0.935134 0.333038 0.050019
-1.176767 -0.896453 -0.150485 1577 0.937868 0.335225 0.057041
-1.176626 -0.896336 -0.150015 1571 0.939897 0.336909 0.063803
-1.176717 -0.896411 -0.149563 1573 0.938587 0.335830 0.070307
-1.177104 -0.896701 -0.149151 1581 0.933019 0.331657 0.076235
-1.177378 -0.896906 -0.148730 1583 0.929076 0.328707 0.082293
-1.177821 -0.897238 -0.148318 1587 0.922702 0.323930 0.088221
-1.177849 -0.897264 -0.147868 1585 0.922299 0.323556 0.094695
-1.177370 -0.896890 -0.147351 1575 0.929193 0.328938 0.102134
-1.177166 -0.896737 -0.146872 1585 0.932127 0.331139 0.109026
-1.176913 -0.896535 -0.146372 1585 0.935767 0.334046 0.116220
-1.176708 -0.896382 -0.145894 1581 0.938717 0.336247 0.123098
-1.177158 -0.896722 -0.145491 1581 0.932242 0.331355 0.128897
-1.177545 -0.897012 -0.145079 1577 0.926675 0.327182 0.134825
-1.177172 -0.896731 -0.144572 1569 0.932042 0.331225 0.142120
-1.176616 -0.896307 -0.144055 1565 0.940042 0.337326 0.149559
-1.176658 -0.896332 -0.143595 1575 0.939436 0.336966 0.156177
-1.176989 -0.896580 -0.143174 1587 0.934675 0.333398 0.162235
-1.176953 -0.896555 -0.142712 1589 0.935193 0.333758 0.168882
-1.177164 -0.896710 -0.142281 1593 0.932157 0.331528 0.175084
-1.178022 -0.897364 -0.141917 1591 0.919810 0.322117 0.180321
-1.178754 -0.897918 -0.141543 1597 0.909279 0.314146 0.185703
-1.178789 -0.897937 -0.141093 1597 0.908774 0.313873 0.192177
-1.178704 -0.897877 -0.140624 1595 0.909997 0.314737 0.198926
-1.178802 -0.897945 -0.140174 1585 0.908588 0.313758 0.205400
-1.178127 -0.897428 -0.139638 1577 0.918299 0.321197 0.213113
-1.177522 -0.896969 -0.139111 1565 0.927006 0.327801 0.220695
-1.177620 -0.897037 -0.138659 1563 0.925594 0.326822 0.227199
-1.178112 -0.897406 -0.138257 1565 0.918515 0.321513 0.232983
-1.178330 -0.897567 -0.137826 1563 0.915380 0.319197 0.239185
-1.178414 -0.897636 -0.137375 1565 0.914171 0.318204 0.245674
-1.178097 -0.897398 -0.136887 1567 0.918731 0.321628 0.252695
-1.178365 -0.897595 -0.136456 1573 0.914876 0.318794 0.258897
-1.178864 -0.897970 -0.136054 1579 0.907696 0.313398 0.264681
-1.178716 -0.897860 -0.135575 1585 0.909826 0.314981 0.271573
-1.178871 -0.897972 -0.135134 1579 0.907594 0.313369 0.277918
-1.179257 -0.898262 -0.134722 1571 0.902040 0.309196 0.283847
-1.178990 -0.898059 -0.134232 1569 0.905883 0.312117 0.290897
-1.179201 -0.898213 -0.133792 1573 0.902847 0.309901 0.297228
-1.180284 -0.899039 -0.133456 1575 0.887264 0.298017 0.302062
-1.181311 -0.899822 -0.133101 1569 0.872487 0.286751 0.307170
-1.182155 -0.900461 -0.132737 1577 0.860343 0.277556 0.312408
-1.182485 -0.900708 -0.132306 1575 0.855595 0.274002 0.318609
-1.181873 -0.900242 -0.131789 1571 0.864401 0.280708 0.326048
-1.181444 -0.899903 -0.131281 1563 0.870573 0.285585 0.333357
-1.181176 -0.899701 -0.130791 1557 0.874430 0.288492 0.340408
-1.181085 -0.899634 -0.130322 1557 0.875739 0.289456 0.347156
-1.181591 -0.900016 -0.129920 1559 0.868458 0.283959 0.352940
-1.182090 -0.900392 -0.129508 1563 0.861278 0.278549 0.358868
-1.182470 -0.900675 -0.129086 1561 0.855811 0.274477 0.364940
-1.182385 -0.900615 -0.128615 1549 0.857034 0.275341 0.371717
-1.182068 -0.900362 -0.128127 1545 0.861595 0.278981 0.378739
-1.181984 -0.900302 -0.127658 1541 0.862804 0.279844 0.385487
-1.182019 -0.900321 -0.127207 1539 0.862300 0.279571 0.391976
-1.182328 -0.900561 -0.126776 1541 0.857854 0.276118 0.398177
-1.183172 -0.901201 -0.126402 1543 0.845710 0.266909 0.403559
-1.183791 -0.901669 -0.126010 1545 0.836803 0.260175 0.409199
-1.183826 -0.901688 -0.125548 1543 0.836300 0.259902 0.415846
-1.184325 -0.902063 -0.125136 1543 0.829120 0.254506 0.421774
-1.184945 -0.902532 -0.124743 1547 0.820199 0.247758 0.427429
-1.185141 -0.902686 -0.124303 1549 0.817380 0.245542 0.433760
-1.185233 -0.902748 -0.123852 1545 0.816055 0.244650 0.440249
-1.184740 -0.902373 -0.123334 1539 0.823150 0.250045 0.447703
-1.184296 -0.902035 -0.122836 1533 0.829537 0.254909 0.454868
-1.185028 -0.902589 -0.122443 1533 0.819006 0.246937 0.460523
-1.185471 -0.902922 -0.122031 1531 0.812630 0.242147 0.466451
-1.185323 -0.902812 -0.121550 1529 0.814760 0.243729 0.473372
-1.185351 -0.902824 -0.121091 1525 0.814357 0.243557 0.479976
-1.185562 -0.902978 -0.120650 1521 0.811321 0.241340 0.486321
-1.185991 -0.903311 -0.120238 1519 0.805148 0.236549 0.492249
-1.186195 -0.903458 -0.119797 1517 0.802213 0.234434 0.498595
-1.186462 -0.903655 -0.119355 1517 0.798371 0.231600 0.504954
-1.186546 -0.903724 -0.118905 1513 0.797164 0.230607 0.511429
-1.186813 -0.903921 -0.118474 1507 0.793322 0.227772 0.517631
-1.187010 -0.904075 -0.118033 1507 0.790486 0.225556 0.523976
-1.186982 -0.904044 -0.117562 1503 0.790889 0.226003 0.530753
-1.186777 -0.903891 -0.117083 1497 0.793840 0.228203 0.537645
-1.187101 -0.904131 -0.116652 1497 0.789178 0.224751 0.543846
-1.187713 -0.904592 -0.116250 1497 0.780371 0.218118 0.549631
-1.188149 -0.904932 -0.115826 1499 0.774099 0.213225 0.555731
-1.190118 -0.906426 -0.115086 1505 0.745768 0.191729 0.566379
-1.190906 -0.907023 -0.114693 1499 0.734429 0.183139 0.572034
-1.191054 -0.907127 -0.114253 1493 0.732300 0.181642 0.578364
-1.190385 -0.906617 -0.113726 1481 0.741926 0.188981 0.585947
-1.190005 -0.906329 -0.113228 1469 0.747394 0.193125 0.593113
-1.190033 -0.906340 -0.112767 1465 0.746991 0.192966 0.599746
-1.190061 -0.906366 -0.112307 1463 0.746588 0.192592 0.606364
-1.190666 -0.906820 -0.111905 1461 0.737883 0.186060 0.612149
-1.191798 -0.907681 -0.111539 1467 0.721595 0.173672 0.617415
-1.192691 -0.908357 -0.111153 1467 0.708746 0.163945 0.622969
-1.193128 -0.908682 -0.110732 1469 0.702458 0.159269 0.629026
-1.193613 -0.909058 -0.110310 1467 0.695479 0.153859 0.635098
-1.193929 -0.909291 -0.109877 1461 0.690934 0.150506 0.641329
-1.193669 -0.909095 -0.109389 1455 0.694675 0.153326 0.648350
-1.193521 -0.908971 -0.108910 1453 0.696803 0.155110 0.655242
-1.193950 -0.909304 -0.108487 1449 0.690630 0.150319 0.661328
-1.195026 -0.910122 -0.108113 1449 0.675148 0.138549 0.666710
-1.195743 -0.910661 -0.107709 1443 0.664833 0.130794 0.672523
-1.196236 -0.911030 -0.107287 1441 0.657739 0.125484 0.678595
-1.196313 -0.911091 -0.106835 1433 0.656631 0.124606 0.685098
-1.196348 -0.911110 -0.106375 1419 0.656128 0.124334 0.691717
-1.196714 -0.911393 -0.105935 1409 0.650860 0.120262 0.698048
-1.197150 -0.911718 -0.105511 1403 0.644588 0.115585 0.704149
-1.197691 -0.912122 -0.105090 1397 0.636804 0.109772 0.710206
-1.198240 -0.912548 -0.104676 1397 0.628904 0.103643 0.716163
-1.198669 -0.912866 -0.104245 1397 0.622732 0.099067 0.722364
-1.199048 -0.913149 -0.103812 1393 0.617278 0.094995 0.728595
-1.199013 -0.913125 -0.103343 1385 0.617782 0.095341 0.735343
-1.199146 -0.913229 -0.102881 1377 0.615868 0.093844 0.741990
-1.199470 -0.913469 -0.102450 1373 0.611206 0.090391 0.748192
-1.199842 -0.913745 -0.102008 1369 0.605854 0.086420 0.754552
-1.200912 -0.914556 -0.101634 1363 0.590458 0.074750 0.759933
-1.202269 -0.915588 -0.101275 1359 0.570934 0.059901 0.765098
-1.202811 -0.916006 -0.100854 1349 0.563134 0.053887 0.771156
-1.203127 -0.916239 -0.100411 1341 0.558587 0.050534 0.777530
-1.203444 -0.916472 -0.099970 1327 0.554026 0.047182 0.783875
-1.203978 -0.916883 -0.099537 1317 0.546344 0.041269 0.790105
-1.204998 -0.917658 -0.099152 1307 0.531667 0.030118 0.795645
-1.205948 -0.918376 -0.098757 1301 0.517998 0.019786 0.801328
-1.206672 -0.918923 -0.098343 1289 0.507581 0.011916 0.807285
-1.207390 -0.919463 -0.097930 1279 0.497250 0.004147 0.813228
-1.207242 -0.919353 -0.097451 1265 0.499379 0.005729 0.820120
-1.207903 -0.919850 -0.097037 1251 0.489868 -0.001422 0.826077
-1.208845 -0.920575 -0.096642 1237 0.476314 -0.011854 0.831760
-1.209281 -0.920900 -0.096200 1225 0.470041 -0.016530 0.838120
-1.210407 -0.921754 -0.095814 1213 0.453839 -0.028818 0.843674
-1.211293 -0.922422 -0.095410 1199 0.441092 -0.038429 0.849487
-1.212074 -0.923012 -0.094996 1183 0.429853 -0.046919 0.855444
-1.212615 -0.923430 -0.094575 1161 0.422069 -0.052933 0.861501
-1.212932 -0.923663 -0.094123 1145 0.417509 -0.056286 0.868005
-1.214057 -0.924517 -0.093737 1123 0.401322 -0.068573 0.873559
-1.215063 -0.925278 -0.093341 1097 0.386847 -0.079523 0.879257
-1.220895 -0.929713 -0.091862 927 0.302932 -0.143336 0.900537
-1.207582 -0.919677 -0.220931 1117 0.494487 0.001067 -0.956571
-1.204754 -0.917514 -0.219485 1159 0.535178 0.032189 -0.935765
-1.204176 -0.917082 -0.218909 1185 0.543495 0.038405 -0.927477
-1.203656 -0.916680 -0.218341 1211 0.550977 0.044190 -0.919305
-1.203079 -0.916234 -0.217764 1229 0.559279 0.050606 -0.911003
-1.202487 -0.915788 -0.217187 1241 0.567796 0.057024 -0.902700
-1.201804 -0.915263 -0.216590 1255 0.577623 0.064578 -0.894110
-1.200988 -0.914632 -0.215973 1259 0.589364 0.073657 -0.885233
-1.200010 -0.913893 -0.215338 1267 0.603437 0.084290 -0.876096
-1.199025 -0.913133 -0.214694 1273 0.617609 0.095225 -0.866830
-1.198321 -0.912602 -0.214099 1283 0.627739 0.102866 -0.858269
-1.197687 -0.912113 -0.213521 1285 0.636861 0.109902 -0.849952
-1.197103 -0.911674 -0.212945 1295 0.645264 0.116218 -0.841664
-1.196526 -0.911229 -0.212376 1297 0.653565 0.122621 -0.833477
-1.196118 -0.910912 -0.211829 1301 0.659437 0.127183 -0.825607
-1.195301 -0.910294 -0.211222 1307 0.671191 0.136074 -0.816873
-1.194605 -0.909756 -0.210637 1317 0.681206 0.143815 -0.808456
-1.194485 -0.909660 -0.210147 1325 0.682934 0.145197 -0.801405
-1.193844 -0.909178 -0.209561 1329 0.692157 0.152132 -0.792974
-1.193380 -0.908818 -0.209014 1335 0.698832 0.157312 -0.785103
-1.193028 -0.908544 -0.208485 1343 0.703897 0.161254 -0.777492
-1.192451 -0.908099 -0.207917 1351 0.712199 0.167657 -0.769319
-1.191922 -0.907703 -0.207360 1361 0.719811 0.173355 -0.761305
-1.191732 -0.907550 -0.206860 1371 0.722544 0.175557 -0.754110
-1.191500 -0.907368 -0.206353 1377 0.725883 0.178175 -0.746815
-1.190916 -0.906930 -0.205784 1387 0.734286 0.184477 -0.738628
-1.190796 -0.906834 -0.205296 1389 0.736012 0.185858 -0.731607
-1.189923 -0.906160 -0.204690 1395 0.748573 0.195556 -0.722887
-1.189395 -0.905764 -0.204133 1401 0.756171 0.201254 -0.714873
-1.189276 -0.905668 -0.203644 1407 0.757883 0.202635 -0.707837
-1.189149 -0.905566 -0.203154 1413 0.759710 0.204103 -0.700787
-1.188973 -0.905427 -0.202654 1419 0.762243 0.206103 -0.693592
-1.188149 -0.904803 -0.202059 1425 0.774099 0.215082 -0.685031
-1.187853 -0.904571 -0.201541 1429 0.778358 0.218420 -0.677578
-1.188142 -0.904790 -0.201119 1431 0.774200 0.215269 -0.671506
-1.187790 -0.904516 -0.200600 1433 0.779263 0.219211 -0.664038
-1.187311 -0.904156 -0.200053 1437 0.786155 0.224390 -0.656168
-1.187015 -0.903924 -0.199534 1439 0.790414 0.227729 -0.648700
-1.186607 -0.903607 -0.199008 1441 0.796285 0.232290 -0.641132
-1.185671 -0.902897 -0.198392 1441 0.809754 0.242506 -0.632269
-1.184953 -0.902349 -0.197346 1451 0.820084 0.250391 -0.617218
-1.185579 -0.902824 -0.196982 1455 0.811078 0.243557 -0.611981
-1.185452 -0.902722 -0.196494 1459 0.812904 0.245024 -0.604959
-1.185501 -0.902754 -0.196032 1469 0.812199 0.244563 -0.598312
-1.185388 -0.902666 -0.195553 1475 0.813826 0.245830 -0.591420
-1.185311 -0.902613 -0.195073 1477 0.814934 0.246593 -0.584513
-1.184783 -0.902203 -0.194527 1483 0.822530 0.252491 -0.576657
-1.184086 -0.901665 -0.193949 1479 0.832559 0.260233 -0.568341
-1.183896 -0.901526 -0.193452 1483 0.835293 0.262233 -0.561190
-1.183945 -0.901559 -0.193001 1487 0.834589 0.261758 -0.554700
-1.184395 -0.901899 -0.192608 1495 0.828113 0.256866 -0.549046
-1.184388 -0.901889 -0.192139 1495 0.828213 0.257009 -0.542297
-1.183684 -0.901358 -0.191561 1495 0.838343 0.264650 -0.533981
-1.182741 -0.900626 -0.190947 1493 0.851911 0.275182 -0.525146
-1.181685 -0.899823 -0.190322 1487 0.867106 0.286736 -0.516154
-1.181143 -0.899414 -0.189774 1487 0.874904 0.292621 -0.508269
-1.181417 -0.899618 -0.189353 1489 0.870962 0.289685 -0.502211
-1.181586 -0.899744 -0.188922 1497 0.868530 0.287873 -0.496010
-1.181459 -0.899641 -0.188433 1497 0.870358 0.289355 -0.488974
-1.181565 -0.899717 -0.187993 1497 0.868832 0.288262 -0.482643
-1.181599 -0.899749 -0.187533 1503 0.868343 0.287801 -0.476024
-1.181247 -0.899475 -0.187014 1511 0.873408 0.291744 -0.468556
-1.180832 -0.899151 -0.186486 1513 0.879379 0.296405 -0.460959
-1.180234 -0.898698 -0.185929 1515 0.887984 0.302924 -0.452945
-1.180395 -0.898817 -0.185498 1517 0.885667 0.301211 -0.446743
-1.180846 -0.899157 -0.185107 1521 0.879178 0.296319 -0.441117
-1.180719 -0.899054 -0.184617 1523 0.881005 0.297801 -0.434067
-1.180353 -0.898780 -0.184098 1521 0.886270 0.301744 -0.426600
-1.179642 -0.898241 -0.183533 1525 0.896502 0.309499 -0.418470
-1.179740 -0.898310 -0.183081 1531 0.895092 0.308506 -0.411967
-1.180078 -0.898564 -0.182669 1533 0.890228 0.304852 -0.406038
-1.180120 -0.898590 -0.182219 1537 0.889624 0.304477 -0.399564
-1.180288 -0.898716 -0.181779 1537 0.887207 0.302665 -0.393233
-1.179978 -0.898484 -0.181271 1543 0.891667 0.306003 -0.385923
-1.179908 -0.898425 -0.180802 1545 0.892673 0.306852 -0.379175
-1.180006 -0.898493 -0.180350 1539 0.891264 0.305873 -0.372672
-1.179696 -0.898262 -0.179843 1541 0.895725 0.309196 -0.365376
-1.179569 -0.898159 -0.179362 1547 0.897552 0.310678 -0.358456
-1.179387 -0.898014 -0.178874 1551 0.900171 0.312765 -0.351434
-1.178612 -0.897425 -0.178307 1547 0.911322 0.321240 -0.343276
-1.178197 -0.897101 -0.177781 1543 0.917292 0.325902 -0.335708
-1.178063 -0.897005 -0.177300 1541 0.919220 0.327283 -0.328787
-1.177866 -0.896845 -0.176812 1543 0.922056 0.329585 -0.321765
-1.177563 -0.896621 -0.176303 1543 0.926416 0.332808 -0.314441
-1.177605 -0.896647 -0.175852 1547 0.925810 0.332434 -0.307952
-1.177767 -0.896765 -0.175412 1555 0.923479 0.330736 -0.301621
-1.177640 -0.896663 -0.174933 1559 0.925308 0.332204 -0.294729
-1.177147 -0.896289 -0.174405 1563 0.932400 0.337585 -0.287132
-1.176901 -0.896093 -0.173907 1565 0.935940 0.340405 -0.279966
-1.176823 -0.896040 -0.173438 1549 0.937062 0.341168 -0.273218
-1.176464 -0.895759 -0.172928 1533 0.942228 0.345211 -0.265880
-1.177027 -0.896185 -0.172545 1543 0.934127 0.339082 -0.260369
-1.177477 -0.896525 -0.172143 1559 0.927652 0.334189 -0.254585
-1.177695 -0.896686 -0.171723 1567 0.924515 0.331873 -0.248542
-1.178145 -0.897026 -0.171321 1569 0.918040 0.326981 -0.242758
-1.178011 -0.896930 -0.170840 1573 0.919970 0.328362 -0.235837
-1.177870 -0.896813 -0.170361 1569 0.921997 0.330046 -0.228945
-1.177624 -0.896632 -0.169863 1567 0.925538 0.332650 -0.221779
-1.177138 -0.896251 -0.169335 1567 0.932531 0.338132 -0.214182
-1.176828 -0.896019 -0.168837 1565 0.936990 0.341470 -0.207017
-1.176821 -0.896010 -0.168378 1565 0.937091 0.341600 -0.200412
-1.177032 -0.896164 -0.167946 1563 0.934055 0.339384 -0.194197
-1.177194 -0.896283 -0.167506 1575 0.931724 0.337672 -0.187866
-1.176884 -0.896051 -0.167006 1581 0.936184 0.341010 -0.180672
-1.176637 -0.895855 -0.166508 1581 0.939738 0.343830 -0.173506
-1.176609 -0.895838 -0.166049 1575 0.940141 0.344074 -0.166902
-1.176770 -0.895957 -0.165608 1573 0.937826 0.342362 -0.160556
-1.176869 -0.896026 -0.165167 1579 0.936400 0.341369 -0.154211
-1.177087 -0.896187 -0.164736 1577 0.933265 0.339053 -0.148010
-1.177530 -0.896520 -0.164334 1579 0.926889 0.334261 -0.142225
-1.176988 -0.896110 -0.163796 1573 0.934688 0.340161 -0.134484
-1.175805 -0.895208 -0.163182 1565 0.951710 0.353139 -0.125650
-1.176023 -0.895369 -0.162751 1561 0.948573 0.350823 -0.119449
-1.176466 -0.895702 -0.162348 1567 0.942199 0.346031 -0.113650
-1.176445 -0.895692 -0.161889 1575 0.942501 0.346175 -0.107046
-1.176487 -0.895718 -0.161439 1583 0.941897 0.345801 -0.100571
-1.176578 -0.895779 -0.160988 1593 0.940587 0.344923 -0.094082
-1.177148 -0.896212 -0.160605 1589 0.932386 0.338693 -0.088571
-1.177767 -0.896681 -0.160222 1595 0.923479 0.331945 -0.083060
-1.177225 -0.896271 -0.159695 1599 0.931278 0.337844 -0.075477
-1.176275 -0.895547 -0.159110 1601 0.944947 0.348262 -0.067060
-1.175958 -0.895294 -0.158612 1595 0.949508 0.351902 -0.059895
-1.176352 -0.895591 -0.158209 1579 0.943839 0.347628 -0.054096
-1.177034 -0.896110 -0.157836 1581 0.934026 0.340161 -0.048729
-1.176950 -0.896050 -0.157366 1589 0.935236 0.341024 -0.041966
-1.176527 -0.895719 -0.156848 1587 0.941321 0.345787 -0.034513
-1.176210 -0.895480 -0.156350 1589 0.945882 0.349226 -0.027348
-1.176076 -0.895370 -0.155871 1585 0.947810 0.350808 -0.020456
-1.175816 -0.895175 -0.155383 1595 0.951551 0.353614 -0.013434
-1.176090 -0.895379 -0.154961 1599 0.947609 0.350679 -0.007362
-1.176301 -0.895533 -0.154530 1593 0.944573 0.348462 -0.001161
-1.176399 -0.895616 -0.154080 1591 0.943163 0.347269 0.005314
-1.176371 -0.895585 -0.153618 1589 0.943566 0.347715 0.011962
-1.176476 -0.895661 -0.153168 1587 0.942055 0.346621 0.018436
-1.177039 -0.896086 -0.152787 1593 0.933954 0.340506 0.023918
-1.177243 -0.896248 -0.152356 1599 0.931019 0.338175 0.030120
-1.177285 -0.896274 -0.151894 1601 0.930416 0.337801 0.036767
-1.177263 -0.896249 -0.151435 1595 0.930731 0.338161 0.043372
-1.177298 -0.896282 -0.150984 1581 0.930229 0.337686 0.049861
-1.177101 -0.896123 -0.150496 1575 0.933062 0.339974 0.056882
-1.176841 -0.895927 -0.150008 1573 0.936803 0.342794 0.063904
-1.177115 -0.896131 -0.149586 1581 0.932862 0.339859 0.069976
-1.177621 -0.896514 -0.149184 1589 0.925580 0.334348 0.075760
-1.177537 -0.896454 -0.148713 1581 0.926790 0.335211 0.082537
-1.177691 -0.896566 -0.148272 1587 0.924574 0.333600 0.088883
-1.177438 -0.896363 -0.147784 1583 0.928213 0.336520 0.095904
-1.177121 -0.896124 -0.147286 1583 0.932774 0.339959 0.103070
-1.177100 -0.896100 -0.146826 1593 0.933078 0.340305 0.109688
-1.176846 -0.895912 -0.146336 1593 0.936731 0.343010 0.116738
-1.177113 -0.896109 -0.145917 1585 0.932889 0.340175 0.122767
-1.177556 -0.896442 -0.145503 1583 0.926515 0.335384 0.128724
-1.177817 -0.896646 -0.145083 1579 0.922761 0.332448 0.134767
-1.177626 -0.896493 -0.144593 1573 0.925508 0.334650 0.141818
-1.176958 -0.895984 -0.144057 1567 0.935121 0.341974 0.149530
-1.176465 -0.895609 -0.143538 1563 0.942213 0.347369 0.156998
-1.176915 -0.895949 -0.143138 1569 0.935738 0.342477 0.162753
-1.177182 -0.896147 -0.142705 1575 0.931898 0.339628 0.168983
-1.177161 -0.896122 -0.142245 1575 0.932199 0.339988 0.175602
-1.177597 -0.896462 -0.141842 1579 0.925925 0.335096 0.181401
-1.177977 -0.896745 -0.141430 1591 0.920459 0.331024 0.187328
-1.178251 -0.896950 -0.140999 1593 0.916515 0.328074 0.193530
-1.178807 -0.897368 -0.140607 1591 0.908515 0.322060 0.199170
-1.178665 -0.897265 -0.140128 1581 0.910558 0.323542 0.206062
-1.178180 -0.896884 -0.139611 1575 0.917538 0.329024 0.213501
-1.177575 -0.896424 -0.139083 1565 0.926242 0.335643 0.221098
-1.177307 -0.896222 -0.138606 1561 0.930098 0.338549 0.227962
-1.177398 -0.896283 -0.138154 1561 0.928790 0.337672 0.234465
-1.178024 -0.896759 -0.137761 1563 0.919781 0.330823 0.240120
-1.178404 -0.897042 -0.137349 1567 0.914315 0.326751 0.246048
-1.178551 -0.897160 -0.136908 1571 0.912200 0.325053 0.252393
-1.179107 -0.897579 -0.136506 1575 0.904200 0.319024 0.258177
-1.179142 -0.897597 -0.136056 1581 0.903696 0.318765 0.264652
-1.178882 -0.897402 -0.135567 1583 0.907437 0.321571 0.271688
-1.178980 -0.897470 -0.135117 1579 0.906027 0.320592 0.278163
-1.179479 -0.897846 -0.134715 1571 0.898847 0.315183 0.283947
-1.179739 -0.898050 -0.134282 1577 0.895106 0.312247 0.290177
-1.180119 -0.898333 -0.133860 1585 0.889637 0.308175 0.296249
-1.180738 -0.898802 -0.133477 1579 0.880732 0.301427 0.301760
-1.181413 -0.899313 -0.133084 1573 0.871019 0.294075 0.307415
-1.181920 -0.899696 -0.132681 1573 0.863724 0.288564 0.313213
-1.181891 -0.899665 -0.132222 1569 0.864142 0.289010 0.319818
-1.181511 -0.899376 -0.131714 1567 0.869609 0.293168 0.327127
-1.181426 -0.899316 -0.131255 1563 0.870832 0.294031 0.333731
-1.181110 -0.899064 -0.130755 1563 0.875379 0.297657 0.340925
-1.181257 -0.899182 -0.130314 1561 0.873264 0.295959 0.347271
-1.181989 -0.899736 -0.129931 1563 0.862732 0.287988 0.352782
-1.182024 -0.899755 -0.129471 1567 0.862228 0.287715 0.359400
-1.181932 -0.899688 -0.129002 1557 0.863552 0.288679 0.366149
-1.182136 -0.899835 -0.128571 1549 0.860616 0.286564 0.372350
-1.182065 -0.899775 -0.128102 1543 0.861638 0.287426 0.379098
-1.181854 -0.899615 -0.127621 1541 0.864674 0.289729 0.386019
-1.182051 -0.899769 -0.127181 1541 0.861840 0.287513 0.392350
-1.182501 -0.900109 -0.126769 1545 0.855365 0.282621 0.398278
-1.182761 -0.900299 -0.126338 1547 0.851624 0.279887 0.404479
-1.183605 -0.900939 -0.125964 1549 0.839480 0.270679 0.409861
-1.184161 -0.901358 -0.125550 1549 0.831481 0.264650 0.415818
-1.184189 -0.901383 -0.125100 1547 0.831077 0.264290 0.422292
-1.184751 -0.901809 -0.124697 1553 0.822990 0.258161 0.428091
-1.185131 -0.902092 -0.124276 1555 0.817524 0.254089 0.434149
-1.185398 -0.902289 -0.123833 1555 0.813681 0.251255 0.440523
-1.185482 -0.902358 -0.123383 1549 0.812472 0.250261 0.446998
-1.185398 -0.902283 -0.122914 1543 0.813681 0.251340 0.453746
-1.185602 -0.902445 -0.122473 1539 0.810747 0.249009 0.460091
-1.185229 -0.902149 -0.121976 1537 0.816114 0.253268 0.467242
-1.185313 -0.902218 -0.121525 1533 0.814904 0.252276 0.473731
-1.185517 -0.902365 -0.121083 1529 0.811970 0.250160 0.480091
-1.185369 -0.902255 -0.120614 1523 0.814098 0.251743 0.486839
-1.185692 -0.902495 -0.120183 1517 0.809452 0.248290 0.493041
-1.185903 -0.902650 -0.119742 1517 0.806416 0.246060 0.499386
-1.186100 -0.902804 -0.119301 1515 0.803580 0.243844 0.505731
-1.186768 -0.903308 -0.118907 1511 0.793968 0.236593 0.511400
-1.187324 -0.903726 -0.118495 1513 0.785968 0.230578 0.517328
-1.187176 -0.903616 -0.118016 1511 0.788099 0.232161 0.524221
-1.187035 -0.903499 -0.117547 1505 0.790128 0.233844 0.530969
-1.187288 -0.903696 -0.117104 1503 0.786486 0.231010 0.537343
-1.187492 -0.903844 -0.116664 1501 0.783552 0.228880 0.543674
-1.188054 -0.904269 -0.116261 1503 0.775466 0.222765 0.549472
-1.188554 -0.904645 -0.115838 1507 0.768270 0.217355 0.555559
-1.189799 -0.905591 -0.115492 1511 0.750358 0.203743 0.560537
-1.190586 -0.906188 -0.115109 1509 0.739034 0.195153 0.566048
-1.190431 -0.906071 -0.114628 1501 0.741264 0.196837 0.572969
-1.190586 -0.906183 -0.114178 1491 0.739034 0.195225 0.579444
-1.190319 -0.905980 -0.113700 1481 0.742876 0.198146 0.586321
-1.190346 -0.905992 -0.113240 1473 0.742487 0.197974 0.592940
-1.190030 -0.905753 -0.112740 1469 0.747034 0.201412 0.600134
-1.189987 -0.905722 -0.112280 1467 0.747653 0.201858 0.606753
-1.190838 -0.906369 -0.111897 1465 0.735408 0.192550 0.612264
-1.191781 -0.907080 -0.111512 1467 0.721839 0.182319 0.617803
-1.192224 -0.907413 -0.111090 1471 0.715465 0.177528 0.623875
-1.192660 -0.907738 -0.110667 1469 0.709192 0.172852 0.629962
-1.193258 -0.908199 -0.110255 1467 0.700587 0.166218 0.635890
-1.193750 -0.908568 -0.109831 1463 0.693508 0.160909 0.641990
-1.193954 -0.908715 -0.109391 1459 0.690573 0.158794 0.648321
-1.194383 -0.909048 -0.108969 1455 0.684400 0.154002 0.654393
-1.194868 -0.909409 -0.108546 1453 0.677423 0.148808 0.660479
-1.195248 -0.909692 -0.108115 1449 0.671954 0.144736 0.666681
-1.195501 -0.909889 -0.107674 1445 0.668315 0.141902 0.673026
-1.195881 -0.910172 -0.107241 1439 0.662847 0.137830 0.679257
-1.196253 -0.910447 -0.106810 1427 0.657495 0.133873 0.685458
-1.196507 -0.910644 -0.106368 1415 0.653840 0.131038 0.691818
-1.196654 -0.910748 -0.105908 1405 0.651725 0.129542 0.698436
-1.196851 -0.910903 -0.105467 1399 0.648890 0.127312 0.704782
-1.197399 -0.911314 -0.105044 1397 0.641005 0.121398 0.710868
-1.198068 -0.911818 -0.104630 1401 0.631379 0.114146 0.716825
-1.198321 -0.912015 -0.104190 1397 0.627739 0.111311 0.723156
-1.198982 -0.912512 -0.103785 1395 0.618228 0.104161 0.728983
-1.199186 -0.912659 -0.103335 1389 0.615293 0.102046 0.735458
-1.198974 -0.912499 -0.102856 1381 0.618343 0.104348 0.742350
-1.199115 -0.912611 -0.102395 1373 0.616314 0.102736 0.748983
-1.200184 -0.913422 -0.102019 1373 0.600933 0.091067 0.754393
-1.201366 -0.914318 -0.101643 1367 0.583927 0.078175 0.759803
-1.201971 -0.914772 -0.101231 1355 0.575220 0.071643 0.765731
-1.202519 -0.915184 -0.100808 1345 0.567335 0.065714 0.771818
-1.203300 -0.915773 -0.100403 1339 0.556098 0.057240 0.777645
-1.203898 -0.916234 -0.099982 1325 0.547495 0.050606 0.783703
-1.204214 -0.916467 -0.099539 1313 0.542948 0.047254 0.790077
-1.204939 -0.917014 -0.099126 1307 0.532516 0.039384 0.796019
-1.205656 -0.917554 -0.098712 1301 0.522198 0.031614 0.801976
-1.206542 -0.918236 -0.098319 1291 0.509451 0.021801 0.807631
-1.207267 -0.918783 -0.097905 1283 0.499019 0.013930 0.813587
-1.207527 -0.918973 -0.097453 1267 0.495278 0.011196 0.820091
-1.207780 -0.919170 -0.097012 1251 0.491638 0.008362 0.826436
-1.208385 -0.919624 -0.096589 1241 0.482933 0.001830 0.832523
-1.209567 -0.920521 -0.096203 1231 0.465926 -0.011077 0.838077
-1.210453 -0.921189 -0.095799 1221 0.453177 -0.020688 0.843890
-1.211297 -0.921828 -0.095395 1207 0.441033 -0.029882 0.849703
-1.212479 -0.922725 -0.095008 1193 0.424027 -0.042789 0.855271
-1.212437 -0.922694 -0.094538 1171 0.424630 -0.042343 0.862033
-1.212985 -0.923105 -0.094105 1155 0.416745 -0.048257 0.868264
-1.213942 -0.923830 -0.093711 1129 0.402975 -0.058688 0.873933
-1.214483 -0.924248 -0.093278 1105 0.395192 -0.064702 0.880163
-1.215545 -0.925052 -0.092883 1079 0.379911 -0.076271 0.885846
-1.217311 -0.926384 -0.092534 1047 0.354501 -0.095436 0.890868
-1.221061 -0.929240 -0.091855 951 0.300545 -0.136530 0.900638
-1.206249 -0.918080 -0.220172 1143 0.513667 0.024046 -0.945650
-1.204975 -0.917112 -0.219477 1169 0.531998 0.037974 -0.935650
-1.204511 -0.916752 -0.218920 1189 0.538673 0.043154 -0.927636
-1.203709 -0.916135 -0.218304 1207 0.550213 0.052031 -0.918772
-1.202836 -0.915475 -0.217679 1223 0.562774 0.061527 -0.909779
-1.202660 -0.915336 -0.217169 1239 0.565308 0.063527 -0.902441
-1.201956 -0.914805 -0.216572 1247 0.575436 0.071168 -0.893851
-1.201147 -0.914180 -0.215956 1257 0.587077 0.080161 -0.884988
-1.200865 -0.913963 -0.215438 1267 0.591134 0.083283 -0.877535
-1.199239 -0.912722 -0.214207 1285 0.614530 0.101139 -0.859823
-1.198718 -0.912319 -0.213648 1291 0.622027 0.106938 -0.851780
-1.197501 -0.911394 -0.212966 1297 0.639538 0.120247 -0.841966
-1.196227 -0.910427 -0.212281 1299 0.657869 0.134161 -0.832110
-1.195756 -0.910060 -0.211724 1303 0.664646 0.139441 -0.824096
-1.195178 -0.909614 -0.211157 1307 0.672961 0.145858 -0.815938
-1.194932 -0.909433 -0.210648 1319 0.676502 0.148463 -0.808614
-1.194474 -0.909080 -0.210101 1327 0.683092 0.153542 -0.800743
-1.193658 -0.908462 -0.209485 1335 0.694832 0.162434 -0.791880
-1.193081 -0.908017 -0.208918 1341 0.703134 0.168837 -0.783722
-1.193249 -0.908143 -0.208478 1345 0.700717 0.167024 -0.777391
-1.193123 -0.908040 -0.207987 1349 0.702530 0.168506 -0.770326
-1.192834 -0.907815 -0.207469 1357 0.706688 0.171744 -0.762873
-1.192587 -0.907634 -0.206959 1367 0.710242 0.174347 -0.755535
-1.191954 -0.907145 -0.206383 1375 0.719350 0.181383 -0.747247
-1.191250 -0.906614 -0.205798 1381 0.729480 0.189024 -0.738830
-1.190835 -0.906290 -0.205260 1385 0.735451 0.193686 -0.731089
-1.190778 -0.906244 -0.204779 1393 0.736271 0.194348 -0.724168
-1.190426 -0.905970 -0.204260 1405 0.741336 0.198290 -0.716700
-1.190124 -0.905745 -0.203744 1411 0.745681 0.201527 -0.709276
-1.189652 -0.905378 -0.203194 1415 0.752473 0.206808 -0.701362
-1.189476 -0.905240 -0.202696 1421 0.755005 0.208794 -0.694197
-1.189068 -0.904923 -0.202168 1427 0.760876 0.213355 -0.686600
-1.188540 -0.904527 -0.201611 1433 0.768473 0.219053 -0.678585
-1.188124 -0.904203 -0.201073 1433 0.774459 0.223715 -0.670844
-1.187589 -0.903800 -0.200526 1431 0.782155 0.229513 -0.662974
-1.187294 -0.903568 -0.200007 1437 0.786401 0.232851 -0.655506
-1.187462 -0.903694 -0.199566 1445 0.783984 0.231039 -0.649161
-1.187110 -0.903420 -0.199048 1445 0.789049 0.234981 -0.641707
-1.186231 -0.902753 -0.198432 1443 0.801695 0.244578 -0.632844
-1.185766 -0.902393 -0.197896 1447 0.808387 0.249758 -0.625132
-1.185695 -0.902347 -0.197415 1455 0.809407 0.250419 -0.618211
-1.185744 -0.902380 -0.196965 1459 0.808702 0.249945 -0.611736
-1.185273 -0.902013 -0.196417 1461 0.815479 0.255225 -0.603851
-1.184921 -0.901738 -0.195899 1465 0.820544 0.259182 -0.596398
-1.185427 -0.902121 -0.195517 1469 0.813265 0.253671 -0.590902
-1.185589 -0.902254 -0.195077 1473 0.810934 0.251758 -0.584571
-1.184941 -0.901752 -0.194508 1479 0.820256 0.258981 -0.576384
-1.184308 -0.901263 -0.193942 1479 0.829364 0.266017 -0.568240
-1.184111 -0.901117 -0.193444 1483 0.832199 0.268117 -0.561074
-1.183583 -0.900707 -0.192896 1483 0.839796 0.274017 -0.553189
-1.183751 -0.900833 -0.192465 1489 0.837379 0.272204 -0.546988
-1.184258 -0.901216 -0.192073 1491 0.830084 0.266693 -0.541348
-1.184131 -0.901127 -0.191594 1493 0.831911 0.267974 -0.534456
-1.183132 -0.900353 -0.190968 1491 0.846285 0.279110 -0.525449
-1.182069 -0.899543 -0.190344 1487 0.861581 0.290765 -0.516470
-1.181822 -0.899362 -0.189845 1485 0.865135 0.293369 -0.509290
-1.182160 -0.899616 -0.189433 1493 0.860271 0.289715 -0.503362
-1.182153 -0.899606 -0.188964 1497 0.860372 0.289859 -0.496614
-1.181737 -0.899282 -0.188435 1497 0.866358 0.294521 -0.489003
-1.181019 -0.898736 -0.187869 1499 0.876689 0.302377 -0.480859
-1.180893 -0.898634 -0.187380 1501 0.878502 0.303844 -0.473823
-1.181230 -0.898888 -0.186968 1509 0.873653 0.300190 -0.467895
-1.180927 -0.898664 -0.186459 1521 0.878012 0.303413 -0.460571
-1.180681 -0.898468 -0.185961 1519 0.881552 0.306232 -0.453405
-1.180610 -0.898408 -0.185490 1521 0.882574 0.307096 -0.446628
-1.180420 -0.898270 -0.185002 1519 0.885307 0.309081 -0.439607
-1.180174 -0.898074 -0.184502 1523 0.888847 0.311902 -0.432413
-1.180167 -0.898064 -0.184033 1521 0.888948 0.312045 -0.425664
-1.179969 -0.897918 -0.183545 1515 0.891797 0.314146 -0.418643
-1.180307 -0.898173 -0.183133 1523 0.886933 0.310478 -0.412715
-1.180356 -0.898206 -0.182673 1535 0.886228 0.310002 -0.406096
-1.179997 -0.897924 -0.182164 1541 0.891394 0.314060 -0.398772
-1.180496 -0.898300 -0.181771 1545 0.884214 0.308650 -0.393118
-1.180778 -0.898512 -0.181349 1551 0.880156 0.305599 -0.387046
-1.180580 -0.898366 -0.180861 1551 0.883005 0.307701 -0.380024
-1.180453 -0.898263 -0.180382 1545 0.884833 0.309183 -0.373132
-1.180094 -0.897996 -0.179864 1537 0.889998 0.313024 -0.365679
-1.179904 -0.897843 -0.179375 1535 0.892732 0.315225 -0.358643
-1.179418 -0.897476 -0.178847 1539 0.899725 0.320506 -0.351046
-1.178890 -0.897066 -0.178309 1545 0.907322 0.326405 -0.343305
-1.178348 -0.896656 -0.177762 1539 0.915121 0.332305 -0.335434
-1.177631 -0.896111 -0.177195 1535 0.925436 0.340146 -0.327276
-1.177736 -0.896186 -0.176755 1535 0.923925 0.339067 -0.320945
-1.177954 -0.896348 -0.176324 1537 0.920790 0.336736 -0.314743
-1.177827 -0.896245 -0.175845 1545 0.922616 0.338218 -0.307851
