758
-3.098303 -2.542051 -0.191545 1269 -0.019266 0.836887 -0.532020
-3.096599 -2.540647 -0.190216 1271 0.005252 0.857089 -0.512898
-3.095233 -2.539515 -0.188902 1269 0.024909 0.873377 -0.493991
-3.095226 -2.539500 -0.187662 1281 0.025008 0.873593 -0.476149
-3.095106 -2.539400 -0.186424 1289 0.026737 0.875031 -0.458336
-3.094697 -2.539065 -0.185174 1307 0.032620 0.879854 -0.440351
-3.094169 -2.538623 -0.183909 1319 0.040219 0.886210 -0.422149
-3.092972 -2.537632 -0.182616 1319 0.057440 0.900471 -0.403545
-3.092063 -2.536877 -0.181329 1331 0.070520 0.911335 -0.385027
-3.092105 -2.536912 -0.180099 1333 0.069917 0.910831 -0.367329
-3.091760 -2.536613 -0.178851 1339 0.074881 0.915133 -0.349372
-3.090725 -2.535758 -0.177567 1343 0.089772 0.927435 -0.330898
-3.090253 -2.535372 -0.176310 1345 0.096561 0.932989 -0.312811
-3.090013 -2.535166 -0.175061 1351 0.100016 0.935952 -0.294840
-3.089604 -2.534830 -0.173813 1355 0.105902 0.940786 -0.276883
-3.089484 -2.534716 -0.172572 1353 0.107628 0.942429 -0.259027
-3.089301 -2.534566 -0.171334 1357 0.110259 0.944587 -0.241214
-3.088667 -2.534032 -0.170079 1355 0.119384 0.952268 -0.223156
-3.088758 -2.534103 -0.168848 1357 0.118074 0.951249 -0.205444
-3.089194 -2.534452 -0.167645 1375 0.111799 0.946227 -0.188135
-3.089067 -2.534345 -0.166404 1387 0.113628 0.947767 -0.170279
-3.088426 -2.533817 -0.165150 1373 0.122849 0.955362 -0.152236
-3.088291 -2.533703 -0.163910 1373 0.124794 0.957002 -0.134394
-3.088678 -2.534002 -0.162696 1377 0.119226 0.952700 -0.116926
-3.088608 -2.533938 -0.161469 1371 0.120232 0.953623 -0.099272
-3.088304 -2.533695 -0.160218 1373 0.124605 0.957119 -0.081272
-3.087945 -2.533381 -0.158982 1371 0.129772 0.961636 -0.063487
-3.088325 -2.533688 -0.157770 1367 0.124304 0.957218 -0.046048
-3.088591 -2.533908 -0.156548 1379 0.120475 0.954055 -0.028466
-3.088063 -2.533466 -0.155300 1379 0.128074 0.960412 -0.010509
-3.087929 -2.533352 -0.154063 1377 0.130002 0.962055 0.007290
-3.087795 -2.533237 -0.152832 1379 0.131930 0.963708 0.025002
-3.087900 -2.533309 -0.151602 1377 0.130420 0.962672 0.042700
-3.088378 -2.533700 -0.150400 1379 0.123542 0.957047 0.059995
-3.088821 -2.534056 -0.149186 1367 0.117168 0.951925 0.077462
-3.089475 -2.534583 -0.147992 1361 0.107758 0.944340 0.094642
-3.089847 -2.534882 -0.146782 1357 0.102403 0.940038 0.112052
-3.089544 -2.534626 -0.145532 1349 0.106763 0.943722 0.130038
-3.090262 -2.535216 -0.144338 1357 0.096434 0.935232 0.147218
-3.091092 -2.535893 -0.143144 1353 0.084489 0.925493 0.164398
-3.091007 -2.535814 -0.141917 1343 0.085714 0.926628 0.182052
-3.091387 -2.536120 -0.140702 1341 0.080246 0.922227 0.199534
-3.092104 -2.536697 -0.139500 1347 0.069930 0.913925 0.216829
-3.092357 -2.536903 -0.138278 1343 0.066291 0.910961 0.234412
-3.093299 -2.537665 -0.137093 1329 0.052737 0.899998 0.251462
-3.093447 -2.537779 -0.135872 1321 0.050606 0.898354 0.269031
-3.093699 -2.537985 -0.134650 1317 0.046980 0.895390 0.286613
-3.094361 -2.538519 -0.133448 1301 0.037454 0.887710 0.303908
-3.094670 -2.538768 -0.132226 1297 0.033008 0.884125 0.321491
-3.095444 -2.539388 -0.131021 1295 0.021873 0.875205 0.338829
-3.096661 -2.540385 -0.129847 1289 0.004360 0.860859 0.355721
-3.097604 -2.541147 -0.128651 1285 -0.009207 0.849895 0.372930
-3.097631 -2.541168 -0.127421 1279 -0.009595 0.849593 0.390628
-3.097941 -2.541417 -0.126199 1269 -0.014055 0.846012 0.408210
-3.099052 -2.542321 -0.125014 1259 -0.030041 0.833004 0.425261
-3.099931 -2.543033 -0.123808 1243 -0.042689 0.822760 0.442613
-3.100522 -2.543510 -0.122595 1227 -0.051193 0.815896 0.460067
-3.101352 -2.544187 -0.121401 1209 -0.063135 0.806153 0.477246
-3.102731 -2.545319 -0.120215 1195 -0.082977 0.789865 0.494311
-3.103610 -2.546031 -0.119009 1171 -0.095625 0.779622 0.511664
-3.104490 -2.546743 -0.117805 1145 -0.108287 0.769378 0.528987
-3.106552 -2.548424 -0.116644 1127 -0.137953 0.745190 0.545692
-3.108339 -2.549884 -0.115475 1109 -0.163668 0.724182 0.562513
-3.109837 -2.551108 -0.114287 1067 -0.185222 0.706573 0.579606
-3.111392 -2.552376 -0.113108 1017 -0.207596 0.688326 0.596570
-3.114186 -2.554669 -0.111964 971 -0.247798 0.655335 0.613031
-3.116311 -2.556400 -0.110792 891 -0.278373 0.630427 0.629894
-3.112824 -2.552383 -0.205999 893 -0.228199 0.688227 -0.739991
-3.112872 -2.552425 -0.204760 991 -0.228889 0.687623 -0.722164
-3.111120 -2.550972 -0.203408 1039 -0.203682 0.708529 -0.702710
-3.108902 -2.549147 -0.202029 1065 -0.171768 0.734789 -0.682869
-3.106973 -2.547558 -0.200670 1099 -0.144012 0.757650 -0.663315
-3.105832 -2.546624 -0.199365 1137 -0.127597 0.771090 -0.644538
-3.104635 -2.545634 -0.198054 1163 -0.110372 0.785334 -0.625674
-3.103501 -2.544693 -0.196748 1183 -0.094057 0.798874 -0.606883
-3.102361 -2.543760 -0.195444 1195 -0.077652 0.812297 -0.588121
-3.101108 -2.542726 -0.194142 1213 -0.059625 0.827175 -0.569387
-3.100875 -2.542526 -0.192892 1233 -0.056270 0.830053 -0.551401
-3.099910 -2.541728 -0.191597 1243 -0.042387 0.841535 -0.532768
-3.098713 -2.540738 -0.190294 1257 -0.025163 0.855779 -0.514020
-3.098297 -2.540395 -0.189036 1267 -0.019180 0.860715 -0.495919
-3.096981 -2.539312 -0.187723 1269 -0.000244 0.876300 -0.477027
-3.096298 -2.538742 -0.186457 1279 0.009585 0.884499 -0.458811
-3.096346 -2.538770 -0.185227 1297 0.008895 0.884097 -0.441113
-3.095720 -2.538257 -0.183959 1303 0.017900 0.891480 -0.422869
-3.094797 -2.537488 -0.182675 1315 0.031183 0.902543 -0.404394
-3.093882 -2.536739 -0.181388 1323 0.044346 0.913318 -0.385876
-3.093705 -2.536582 -0.180151 1325 0.046895 0.915579 -0.368077
-3.093803 -2.536660 -0.178921 1331 0.045485 0.914457 -0.350379
-3.093113 -2.536083 -0.177654 1337 0.055413 0.922759 -0.332149
-3.092352 -2.535463 -0.176388 1333 0.066363 0.931678 -0.313933
-3.092120 -2.535263 -0.175138 1339 0.069701 0.934556 -0.295948
-3.091880 -2.535056 -0.173900 1347 0.073152 0.937534 -0.278135
-3.091697 -2.534907 -0.172661 1347 0.075786 0.939678 -0.260308
-3.091400 -2.534657 -0.171414 1351 0.080061 0.943277 -0.242365
-3.091217 -2.534493 -0.170174 1353 0.082692 0.945637 -0.224523
-3.091146 -2.534429 -0.168934 1355 0.083714 0.946556 -0.206682
-3.090449 -2.533858 -0.167668 1365 0.093741 0.954772 -0.188466
-3.089695 -2.533231 -0.166403 1371 0.104592 0.963794 -0.170264
-3.089392 -2.532974 -0.165163 1361 0.108952 0.967492 -0.152423
-3.089553 -2.533102 -0.163943 1361 0.106633 0.965650 -0.134869
-3.090046 -2.533494 -0.162731 1365 0.099542 0.960010 -0.117430
-3.090425 -2.533800 -0.161528 1367 0.094088 0.955609 -0.100121
-3.090186 -2.533593 -0.160280 1369 0.097525 0.958587 -0.082164
-3.089826 -2.533293 -0.159031 1363 0.102705 0.962902 -0.064192
-3.089699 -2.533186 -0.157803 1367 0.104534 0.964443 -0.046523
-3.090177 -2.533578 -0.156599 1367 0.097656 0.958803 -0.029200
-3.090339 -2.533692 -0.155379 1369 0.095326 0.957163 -0.011646
-3.089867 -2.533307 -0.154122 1373 0.102115 0.962700 0.006441
-3.090014 -2.533421 -0.152901 1367 0.100002 0.961060 0.024009
-3.090281 -2.533627 -0.151680 1361 0.096160 0.958096 0.041577
-3.090203 -2.533556 -0.150450 1359 0.097282 0.959118 0.059275
-3.089956 -2.533355 -0.149209 1353 0.100836 0.962010 0.077131
-3.090392 -2.533705 -0.147999 1353 0.094561 0.956974 0.094541
-3.091447 -2.534566 -0.146824 1355 0.079381 0.944587 0.111448
-3.092165 -2.535143 -0.145619 1351 0.069052 0.936285 0.128786
-3.092369 -2.535300 -0.144397 1347 0.066116 0.934025 0.146369
-3.092115 -2.535092 -0.143160 1343 0.069773 0.937016 0.164167
-3.092156 -2.535114 -0.141939 1337 0.069183 0.936700 0.181736
-3.092867 -2.535698 -0.140736 1329 0.058953 0.928299 0.199045
-3.093584 -2.536274 -0.139531 1329 0.048634 0.920011 0.216383
-3.094119 -2.536709 -0.138329 1335 0.040936 0.913750 0.233678
-3.094660 -2.537150 -0.137127 1325 0.033152 0.907407 0.250973
-3.095209 -2.537585 -0.135913 1307 0.025255 0.901147 0.268441
-3.095750 -2.538026 -0.134701 1301 0.017468 0.894800 0.285880
-3.096123 -2.538325 -0.133488 1297 0.012103 0.890499 0.303333
-3.096721 -2.538809 -0.132286 1295 0.003499 0.883535 0.320628
-3.097037 -2.539065 -0.131064 1287 -0.001050 0.879854 0.338210
-3.097240 -2.539222 -0.129843 1271 -0.003969 0.877593 0.355779
-3.098408 -2.540168 -0.128657 1265 -0.020775 0.863981 0.372844
-3.099168 -2.540788 -0.127452 1263 -0.031711 0.855062 0.390182
-3.099653 -2.541187 -0.126240 1255 -0.038689 0.849319 0.407621
-3.100363 -2.541756 -0.125036 1243 -0.048905 0.841134 0.424944
-3.101123 -2.542375 -0.123833 1221 -0.059841 0.832225 0.442254
-3.102572 -2.543551 -0.122653 1201 -0.080688 0.815306 0.459232
-3.104247 -2.544925 -0.121475 1193 -0.104791 0.795536 0.476182
-3.105520 -2.545965 -0.120288 1183 -0.123106 0.780572 0.493261
-3.106393 -2.546670 -0.119084 1155 -0.135669 0.770428 0.510585
-3.107561 -2.547617 -0.117899 1121 -0.152475 0.756802 0.527635
-3.109791 -2.549440 -0.116736 1103 -0.184560 0.730573 0.544369
-3.111353 -2.550715 -0.115559 1075 -0.207033 0.712227 0.561304
-3.112901 -2.551975 -0.114371 1029 -0.229307 0.694097 0.578397
-3.114970 -2.553663 -0.113209 979 -0.259077 0.669809 0.595117
-3.116694 -2.555073 -0.112030 901 -0.283883 0.649521 0.612081
-3.111453 -2.549538 -0.204617 871 -0.208474 0.729163 -0.720106
-3.113417 -2.551148 -0.203506 969 -0.236731 0.705997 -0.704120
-3.112058 -2.550022 -0.202183 1011 -0.217177 0.722199 -0.685084
-3.107918 -2.546616 -0.199445 1095 -0.157610 0.771204 -0.645689
-3.106777 -2.545682 -0.198141 1131 -0.141192 0.784644 -0.626926
-3.105975 -2.545019 -0.196856 1153 -0.129652 0.794184 -0.608437
-3.104841 -2.544078 -0.195551 1171 -0.113336 0.807721 -0.589660
-3.103876 -2.543280 -0.194257 1195 -0.099453 0.819206 -0.571041
-3.102616 -2.542240 -0.192953 1211 -0.081323 0.834170 -0.552279
-3.101876 -2.541627 -0.191668 1223 -0.070675 0.842990 -0.533790
-3.102094 -2.541797 -0.190446 1247 -0.073810 0.840544 -0.516207
-3.100496 -2.540487 -0.189125 1261 -0.050819 0.859391 -0.497200
-3.098793 -2.539083 -0.187793 1261 -0.026315 0.879593 -0.478034
-3.098834 -2.539118 -0.186553 1269 -0.026905 0.879089 -0.460192
-3.097806 -2.538270 -0.185269 1275 -0.012113 0.891291 -0.441718
-3.097116 -2.537693 -0.183993 1289 -0.002185 0.899593 -0.423358
-3.096989 -2.537585 -0.182752 1301 -0.000357 0.901147 -0.405502
-3.095848 -2.536638 -0.181460 1305 0.016058 0.914773 -0.386912
-3.095045 -2.535975 -0.180184 1309 0.027612 0.924313 -0.368552
-3.095256 -2.536138 -0.178962 1315 0.024576 0.921966 -0.350970
-3.094678 -2.535661 -0.177706 1317 0.032895 0.928831 -0.332898
-3.093530 -2.534720 -0.176413 1321 0.049413 0.942371 -0.314293
-3.093643 -2.534798 -0.175181 1329 0.047787 0.941249 -0.296567
-3.093678 -2.534827 -0.173949 1327 0.047282 0.940831 -0.278840
-3.093212 -2.534435 -0.172703 1337 0.053989 0.946470 -0.260912
-3.093198 -2.534413 -0.171463 1341 0.054188 0.946786 -0.243070
-3.093127 -2.534348 -0.170235 1347 0.055210 0.947722 -0.225401
-3.092880 -2.534149 -0.168995 1351 0.058764 0.950587 -0.207559
-3.092190 -2.533571 -0.167729 1349 0.068692 0.958902 -0.189344
-3.091443 -2.532951 -0.166453 1349 0.079440 0.967822 -0.170984
-3.091316 -2.532844 -0.165224 1341 0.081268 0.969362 -0.153300
-3.091464 -2.532958 -0.164003 1339 0.079138 0.967722 -0.135732
-3.091843 -2.533264 -0.162791 1345 0.073687 0.963321 -0.118293
-3.092568 -2.533848 -0.161597 1357 0.063255 0.954916 -0.101113
-3.093053 -2.534246 -0.160385 1355 0.056274 0.949191 -0.083674
-3.092419 -2.533712 -0.159127 1353 0.065399 0.956875 -0.065574
-3.091433 -2.532907 -0.157853 1349 0.079584 0.968456 -0.047243
-3.091532 -2.532971 -0.156622 1351 0.078160 0.967537 -0.029530
-3.092242 -2.533555 -0.155429 1353 0.067944 0.959132 -0.012365
-3.092572 -2.533811 -0.154217 1359 0.063196 0.955448 0.005074
-3.092262 -2.533561 -0.152970 1351 0.067656 0.959046 0.023016
-3.092648 -2.533860 -0.151757 1345 0.062102 0.954745 0.040469
-3.092620 -2.533839 -0.150526 1343 0.062507 0.955047 0.058182
-3.092999 -2.534145 -0.149315 1345 0.057052 0.950642 0.075606
-3.093942 -2.534907 -0.148131 1353 0.043485 0.939678 0.092642
-3.094259 -2.535163 -0.146919 1353 0.038922 0.935997 0.110081
-3.094300 -2.535184 -0.145689 1349 0.038332 0.935695 0.127779
-3.094553 -2.535390 -0.144467 1347 0.034692 0.932731 0.145362
-3.094539 -2.535369 -0.143236 1335 0.034895 0.933033 0.163074
-3.094524 -2.535347 -0.142008 1329 0.035111 0.933349 0.180743
-3.094720 -2.535511 -0.140785 1323 0.032291 0.930989 0.198340
-3.095156 -2.535859 -0.139574 1323 0.026017 0.925980 0.215764
-3.095973 -2.536521 -0.138380 1319 0.014261 0.916457 0.232944
-3.096978 -2.537334 -0.137184 1309 -0.000199 0.904759 0.250153
-3.097576 -2.537817 -0.135980 1299 -0.008803 0.897809 0.267477
-3.097829 -2.538024 -0.134760 1287 -0.012446 0.894831 0.285030
-3.098202 -2.538323 -0.133547 1283 -0.017811 0.890529 0.302484
-3.098631 -2.538665 -0.132336 1279 -0.023983 0.885607 0.319908
-3.099573 -2.539427 -0.131140 1265 -0.037536 0.874643 0.337117
-3.100460 -2.540146 -0.129936 1249 -0.050301 0.864296 0.354441
-3.100769 -2.540395 -0.128725 1243 -0.054747 0.860715 0.371865
-3.101141 -2.540694 -0.127503 1241 -0.060099 0.856413 0.389448
-3.102246 -2.541591 -0.126316 1235 -0.075999 0.843508 0.406527
-3.103350 -2.542488 -0.125120 1221 -0.091882 0.830599 0.423736
-3.104181 -2.543164 -0.123917 1201 -0.103841 0.820873 0.441045
-3.105560 -2.544297 -0.122740 1187 -0.123683 0.804572 0.457980
-3.106946 -2.545422 -0.121552 1177 -0.143624 0.788383 0.475074
-3.108395 -2.546597 -0.120375 1161 -0.164475 0.771478 0.492009
-3.109281 -2.547316 -0.119169 1133 -0.177222 0.761132 0.509362
-3.109752 -2.547700 -0.117947 1093 -0.183997 0.755608 0.526944
-3.111758 -2.549338 -0.116786 1059 -0.212861 0.732038 0.543649
-3.114397 -2.551489 -0.115643 1019 -0.250834 0.701088 0.560095
-3.116691 -2.553362 -0.114480 957 -0.283842 0.674141 0.576829
-3.116043 -2.552828 -0.113224 871 -0.274518 0.681822 0.594901
-3.112293 -2.548602 -0.203392 831 -0.220559 0.742628 -0.702480
-3.114945 -2.550767 -0.202317 939 -0.258717 0.711479 -0.687013
-3.113298 -2.549407 -0.200978 1001 -0.235019 0.731046 -0.667746
-3.111827 -2.548195 -0.199643 1053 -0.213853 0.748487 -0.648538
-3.110348 -2.546977 -0.198323 1093 -0.192574 0.766010 -0.629545
-3.109151 -2.545986 -0.197008 1123 -0.175349 0.780270 -0.610624
-3.107891 -2.544960 -0.195696 1143 -0.157222 0.795032 -0.591746
-3.106018 -2.543413 -0.194345 1173 -0.130273 0.817292 -0.572308
-3.104772 -2.542387 -0.193032 1189 -0.112345 0.832053 -0.553415
-3.104476 -2.542138 -0.191784 1207 -0.108084 0.835635 -0.535459
-3.104349 -2.542030 -0.190544 1227 -0.106256 0.837189 -0.517617
-3.103546 -2.541367 -0.189259 1241 -0.094702 0.846729 -0.499128
-3.101786 -2.539921 -0.187917 1249 -0.069378 0.867535 -0.479818
-3.100652 -2.538980 -0.186625 1253 -0.053063 0.881075 -0.461228
-3.099948 -2.538403 -0.185346 1261 -0.042932 0.889377 -0.442826
-3.099553 -2.538068 -0.184090 1273 -0.037252 0.894197 -0.424754
-3.099032 -2.537633 -0.182832 1289 -0.029753 0.900457 -0.406653
-3.097828 -2.536649 -0.181527 1285 -0.012429 0.914615 -0.387876
-3.097074 -2.536022 -0.180264 1291 -0.001581 0.923637 -0.369703
-3.096729 -2.535737 -0.179005 1301 0.003382 0.927736 -0.351588
-3.095983 -2.535117 -0.177737 1309 0.014116 0.936659 -0.333343
-3.095912 -2.535053 -0.176499 1319 0.015139 0.937578 -0.315530
-3.095616 -2.534803 -0.175251 1319 0.019396 0.941177 -0.297574
-3.095038 -2.534326 -0.173994 1321 0.027715 0.948038 -0.279487
-3.095080 -2.534347 -0.172764 1327 0.027111 0.947736 -0.261790
-3.095234 -2.534467 -0.171543 1325 0.024895 0.946011 -0.244221
-3.095783 -2.534916 -0.170340 1339 0.016995 0.939551 -0.226912
-3.095543 -2.534709 -0.169091 1343 0.020449 0.942529 -0.208941
-3.094684 -2.534003 -0.167816 1337 0.032809 0.952686 -0.190595
-3.094268 -2.533647 -0.166569 1335 0.038792 0.957808 -0.172653
-3.093853 -2.533305 -0.165310 1333 0.044764 0.962731 -0.154538
-3.093669 -2.533155 -0.164070 1341 0.047413 0.964889 -0.136696
-3.094161 -2.533547 -0.162868 1349 0.040332 0.959249 -0.119401
-3.094435 -2.533760 -0.161658 1351 0.036391 0.956182 -0.101991
-3.094414 -2.533746 -0.160426 1345 0.036692 0.956384 -0.084264
-3.093822 -2.533254 -0.159160 1337 0.045210 0.963465 -0.066049
-3.093589 -2.533054 -0.157920 1343 0.048562 0.966340 -0.048207
-3.093800 -2.533218 -0.156700 1347 0.045526 0.963983 -0.030653
-3.094165 -2.533509 -0.155488 1347 0.040274 0.959794 -0.013214
-3.094657 -2.533915 -0.154286 1347 0.033197 0.953952 0.004081
-3.094087 -2.533430 -0.153028 1341 0.041399 0.960930 0.022182
-3.093777 -2.533181 -0.151780 1337 0.045859 0.964515 0.040139
-3.094487 -2.533751 -0.150586 1337 0.035643 0.956312 0.057318
-3.095092 -2.534242 -0.149384 1339 0.026936 0.949249 0.074613
-3.095753 -2.534776 -0.148180 1343 0.017427 0.941565 0.091937
-3.096070 -2.535032 -0.146968 1333 0.012864 0.937880 0.109376
-3.096111 -2.535053 -0.145738 1333 0.012274 0.937578 0.127074
-3.095977 -2.534939 -0.144499 1333 0.014202 0.939218 0.144901
-3.095899 -2.534867 -0.143269 1321 0.015324 0.940254 0.162599
-3.096272 -2.535167 -0.142058 1315 0.009959 0.935939 0.180023
-3.096926 -2.535694 -0.140854 1313 0.000549 0.928357 0.197347
-3.097530 -2.536185 -0.139651 1315 -0.008141 0.921291 0.214656
-3.098009 -2.536576 -0.138439 1299 -0.015036 0.915665 0.232095
-3.098614 -2.537053 -0.137226 1297 -0.023739 0.908800 0.249549
-3.099500 -2.537772 -0.136029 1291 -0.036487 0.898457 0.266772
-3.100267 -2.538399 -0.134835 1285 -0.047522 0.889435 0.283951
-3.100182 -2.538320 -0.133597 1277 -0.046301 0.890571 0.301764
-3.100892 -2.538904 -0.132393 1267 -0.056517 0.882169 0.319088
-3.102004 -2.539808 -0.131207 1255 -0.072517 0.869161 0.336153
-3.102376 -2.540107 -0.129996 1245 -0.077869 0.864859 0.353577
-3.102524 -2.540221 -0.128765 1233 -0.079999 0.863219 0.371290
-3.103009 -2.540606 -0.127552 1223 -0.086976 0.857679 0.388743
-3.104226 -2.541602 -0.126366 1209 -0.104489 0.843350 0.405807
-3.106287 -2.543283 -0.125203 1201 -0.134142 0.819162 0.422541
-3.107857 -2.544551 -0.124037 1193 -0.156732 0.800918 0.439318
-3.108173 -2.544807 -0.122805 1167 -0.161277 0.797234 0.457045
-3.108651 -2.545199 -0.121592 1151 -0.168155 0.791594 0.474498
-3.109481 -2.545861 -0.120388 1131 -0.180100 0.782068 0.491822
-3.111036 -2.547128 -0.119210 1097 -0.202474 0.763838 0.508772
-3.115279 -2.550597 -0.116888 1015 -0.263523 0.713925 0.542182
-3.117010 -2.552000 -0.115708 961 -0.288432 0.693736 0.559160
-3.115566 -2.550817 -0.114416 859 -0.267653 0.710758 0.577750
-3.116664 -2.550608 -0.201149 921 -0.283451 0.713767 -0.670207
-3.115917 -2.549988 -0.199862 1005 -0.272703 0.722686 -0.651689
-3.110765 -2.545755 -0.197069 1073 -0.198574 0.783594 -0.611502
-3.109793 -2.544950 -0.195765 1107 -0.184587 0.795176 -0.592739
-3.108821 -2.544158 -0.194470 1135 -0.170601 0.806572 -0.574106
-3.108131 -2.543581 -0.193194 1163 -0.160674 0.814874 -0.555746
-3.106765 -2.542462 -0.191881 1177 -0.141020 0.830973 -0.536854
-3.106187 -2.541985 -0.190613 1201 -0.132705 0.837837 -0.518610
-3.105948 -2.541778 -0.189366 1215 -0.129264 0.840815 -0.500667
-3.105040 -2.541022 -0.188071 1227 -0.116201 0.851693 -0.482034
-3.103836 -2.540039 -0.186766 1235 -0.098877 0.865837 -0.463257
-3.102469 -2.538906 -0.185454 1247 -0.079206 0.882138 -0.444379
-3.101779 -2.538343 -0.184187 1255 -0.069279 0.890241 -0.426149
-3.101427 -2.538050 -0.182927 1265 -0.064215 0.894457 -0.408020
-3.100455 -2.537245 -0.181645 1273 -0.050229 0.906039 -0.389574
-3.099877 -2.536767 -0.180377 1279 -0.041914 0.912917 -0.371329
-3.099236 -2.536240 -0.179111 1291 -0.032689 0.920498 -0.353113
-3.098433 -2.535577 -0.177836 1295 -0.021135 0.930038 -0.334768
-3.098314 -2.535463 -0.176596 1303 -0.019423 0.931678 -0.316926
-3.098017 -2.535213 -0.175346 1307 -0.015149 0.935277 -0.298941
-3.097771 -2.535014 -0.174098 1307 -0.011609 0.938141 -0.280984
-3.097756 -2.534992 -0.172868 1315 -0.011393 0.938457 -0.263286
-3.098255 -2.535391 -0.171664 1325 -0.018573 0.932714 -0.245962
-3.098691 -2.535739 -0.170454 1329 -0.024847 0.927709 -0.228552
-3.098628 -2.535682 -0.169224 1333 -0.023941 0.928529 -0.210854
-3.097986 -2.535155 -0.167958 1327 -0.014703 0.936110 -0.192639
-3.096951 -2.534300 -0.166674 1325 0.000189 0.948412 -0.174164
-3.096655 -2.534050 -0.165425 1335 0.004449 0.952011 -0.156192
-3.096578 -2.533978 -0.164185 1337 0.005557 0.953047 -0.138351
-3.096394 -2.533829 -0.162947 1341 0.008202 0.955191 -0.120538
-3.096379 -2.533807 -0.161717 1339 0.008418 0.955506 -0.102840
-3.096013 -2.533500 -0.160467 1335 0.013684 0.959925 -0.084854
-3.095435 -2.533023 -0.159209 1327 0.022003 0.966786 -0.066754
-3.095357 -2.532951 -0.157982 1333 0.023125 0.967822 -0.049099
-3.095568 -2.533115 -0.156761 1335 0.020089 0.965465 -0.031531
-3.095891 -2.533378 -0.155539 1335 0.015441 0.961681 -0.013948
-3.096327 -2.533727 -0.154337 1337 0.009166 0.956659 0.003347
-3.096418 -2.533798 -0.153107 1337 0.007859 0.955637 0.021045
-3.096516 -2.533876 -0.151875 1327 0.006449 0.954515 0.038772
-3.096720 -2.534033 -0.150653 1321 0.003513 0.952254 0.056354
-3.096699 -2.534004 -0.149423 1325 0.003815 0.952673 0.074052
-3.096459 -2.533797 -0.148185 1323 0.007269 0.955650 0.091865
-3.097225 -2.534424 -0.146991 1319 -0.003753 0.946628 0.109045
-3.097373 -2.534538 -0.145761 1309 -0.005883 0.944988 0.126743
-3.097583 -2.534701 -0.144539 1307 -0.008906 0.942642 0.144326
-3.098357 -2.535334 -0.143345 1303 -0.020041 0.933534 0.161505
-3.098843 -2.535719 -0.142133 1297 -0.027036 0.927997 0.178944
-3.099553 -2.536303 -0.140939 1301 -0.037252 0.919592 0.196124
-3.100327 -2.536922 -0.139736 1297 -0.048387 0.910687 0.213434
-3.100580 -2.537129 -0.138514 1287 -0.052027 0.907709 0.231016
-3.101128 -2.537563 -0.137312 1283 -0.059913 0.901462 0.248311
-3.101507 -2.537869 -0.136090 1267 -0.065364 0.897061 0.265894
-3.102218 -2.538439 -0.134886 1267 -0.075594 0.888859 0.283218
-3.102759 -2.538880 -0.133682 1257 -0.083378 0.882512 0.300541
-3.103132 -2.539179 -0.132462 1251 -0.088747 0.878211 0.318095
-3.104011 -2.539891 -0.131266 1239 -0.101395 0.867967 0.335304
-3.104553 -2.540332 -0.130053 1225 -0.109192 0.861621 0.352757
-3.105376 -2.541002 -0.128849 1217 -0.121034 0.851981 0.370081
-3.105692 -2.541244 -0.127627 1197 -0.125580 0.848499 0.387664
-3.105839 -2.541358 -0.126396 1185 -0.127696 0.846859 0.405376
-3.107683 -2.542860 -0.125237 1169 -0.154228 0.825247 0.422052
-3.109238 -2.544128 -0.124058 1155 -0.176601 0.807004 0.439016
-3.110005 -2.544754 -0.122854 1131 -0.187637 0.797996 0.456340
-3.111173 -2.545701 -0.121659 1115 -0.204443 0.784370 0.473534
-3.112889 -2.547104 -0.120489 1085 -0.229136 0.764185 0.490369
-3.114909 -2.548743 -0.119330 1057 -0.258199 0.740600 0.507045
-3.116689 -2.550195 -0.118149 1011 -0.283811 0.719709 0.524038
-3.118596 -2.551748 -0.116979 933 -0.311251 0.697362 0.540872
-3.116526 -2.550045 -0.115669 813 -0.281464 0.721866 0.559721
-3.117411 -2.549678 -0.199903 897 -0.294198 0.727146 -0.652279
-3.116665 -2.549058 -0.198627 983 -0.283464 0.736068 -0.633919
-3.110984 -2.544398 -0.194566 1103 -0.201726 0.803117 -0.575487
-3.110012 -2.543592 -0.193274 1129 -0.187740 0.814716 -0.556898
-3.108808 -2.542609 -0.191960 1159 -0.170416 0.828860 -0.537991
-3.108575 -2.542409 -0.190710 1173 -0.167065 0.831738 -0.520005
-3.108174 -2.542067 -0.189453 1197 -0.161294 0.836657 -0.501919
-3.106744 -2.540898 -0.188130 1209 -0.140718 0.853477 -0.482883
-3.105146 -2.539587 -0.186808 1217 -0.117724 0.872341 -0.463862
-3.104463 -2.539017 -0.185531 1229 -0.107899 0.880543 -0.445487
-3.104054 -2.538682 -0.184275 1237 -0.102012 0.885363 -0.427415
-3.103308 -2.538062 -0.182999 1249 -0.091278 0.894282 -0.409056
-3.102216 -2.537164 -0.181704 1253 -0.075567 0.907205 -0.390423
-3.102145 -2.537099 -0.180464 1259 -0.074544 0.908141 -0.372581
-3.102194 -2.537127 -0.179234 1283 -0.075251 0.907737 -0.354883
-3.101335 -2.536422 -0.177960 1287 -0.062891 0.917881 -0.336552
-3.100638 -2.535852 -0.176682 1295 -0.052860 0.926083 -0.318164
-3.100116 -2.535417 -0.175425 1297 -0.045351 0.932340 -0.300077
-3.099652 -2.535025 -0.174168 1297 -0.038675 0.937983 -0.281991
-3.099524 -2.534918 -0.172927 1307 -0.036833 0.939520 -0.264135
-3.099510 -2.534896 -0.171697 1313 -0.036631 0.939839 -0.246437
-3.099488 -2.534881 -0.170457 1315 -0.036315 0.940052 -0.228595
-3.099875 -2.535180 -0.169247 1323 -0.041883 0.935750 -0.211185
-3.099579 -2.534931 -0.168009 1323 -0.037626 0.939335 -0.193372
-3.099114 -2.534553 -0.166749 1321 -0.030933 0.944772 -0.175243
-3.099155 -2.534574 -0.165519 1329 -0.031523 0.944470 -0.157545
-3.098902 -2.534367 -0.164273 1333 -0.027883 0.947448 -0.139617
-3.098606 -2.534117 -0.163023 1329 -0.023626 0.951047 -0.121631
-3.098816 -2.534281 -0.161803 1325 -0.026645 0.948686 -0.104077
-3.098520 -2.534032 -0.160565 1325 -0.022387 0.952268 -0.086264
-3.097485 -2.533176 -0.159279 1319 -0.007496 0.964587 -0.067761
-3.097801 -2.533433 -0.158067 1327 -0.012041 0.960889 -0.050322
-3.098526 -2.534016 -0.156864 1331 -0.022473 0.952501 -0.033013
-3.098617 -2.534087 -0.155644 1331 -0.023784 0.951479 -0.015459
-3.098708 -2.534158 -0.154413 1335 -0.025091 0.950457 0.002254
-3.098750 -2.534180 -0.153183 1333 -0.025698 0.950141 0.019951
-3.098848 -2.534258 -0.151963 1327 -0.027108 0.949019 0.037505
-3.099157 -2.534507 -0.150740 1319 -0.031554 0.945434 0.055103
-3.099424 -2.534713 -0.149518 1321 -0.035392 0.942470 0.072685
-3.098783 -2.534186 -0.148262 1315 -0.026171 0.950055 0.090757
-3.098586 -2.534022 -0.147024 1309 -0.023338 0.952412 0.108570
-3.098796 -2.534185 -0.145802 1301 -0.026356 0.950069 0.126153
-3.099345 -2.534619 -0.144590 1299 -0.034257 0.943822 0.143592
-3.100337 -2.535431 -0.143404 1303 -0.048531 0.932141 0.160656
-3.101174 -2.536101 -0.142210 1297 -0.060575 0.922498 0.177836
-3.101715 -2.536542 -0.141006 1285 -0.068359 0.916155 0.195160
-3.101862 -2.536656 -0.139776 1277 -0.070472 0.914515 0.212858
-3.102580 -2.537233 -0.138573 1279 -0.080805 0.906210 0.230167
-3.103178 -2.537716 -0.137369 1279 -0.089409 0.899263 0.247491
-3.103325 -2.537830 -0.136139 1263 -0.091522 0.897620 0.265189
-3.104092 -2.538457 -0.134945 1255 -0.102558 0.888601 0.282369
-3.104521 -2.538798 -0.133723 1251 -0.108733 0.883692 0.299951
-3.104957 -2.539147 -0.132509 1237 -0.115007 0.878674 0.317419
-3.105948 -2.539959 -0.131315 1221 -0.129264 0.866989 0.334599
-3.106715 -2.540571 -0.130112 1207 -0.140300 0.858183 0.351908
-3.107200 -2.540970 -0.128899 1189 -0.147278 0.852441 0.369362
-3.107805 -2.541447 -0.127686 1179 -0.155984 0.845580 0.386815
-3.108790 -2.542252 -0.126490 1159 -0.170155 0.833995 0.404023
-3.110352 -2.543526 -0.125311 1143 -0.192632 0.815666 0.420987
-3.111682 -2.544609 -0.124125 1121 -0.211767 0.800081 0.438052
-3.112787 -2.545506 -0.122938 1095 -0.227667 0.787176 0.455131
-3.114356 -2.546774 -0.121762 1071 -0.250243 0.768933 0.472052
-3.118774 -2.550378 -0.119438 995 -0.313810 0.717074 0.505491
-3.119653 -2.551089 -0.118232 925 -0.326459 0.706844 0.522844
-3.116627 -2.548603 -0.116888 769 -0.282919 0.742614 0.542182
-3.112808 -2.544330 -0.193398 1101 -0.227969 0.804098 -0.558682
-3.111435 -2.543204 -0.192074 1131 -0.208213 0.820297 -0.539631
-3.109963 -2.541993 -0.190752 1153 -0.187033 0.837724 -0.520610
-3.109041 -2.541237 -0.189466 1175 -0.173768 0.848599 -0.502106
-3.108520 -2.540803 -0.188200 1183 -0.166272 0.854846 -0.483890
-3.107661 -2.540097 -0.186915 1201 -0.153912 0.865003 -0.465401
-3.106632 -2.539249 -0.185620 1207 -0.139106 0.877205 -0.446768
-3.105210 -2.538073 -0.184298 1217 -0.118647 0.894125 -0.427746
-3.104738 -2.537688 -0.183040 1225 -0.111854 0.899665 -0.409646
-3.104731 -2.537673 -0.181810 1231 -0.111755 0.899881 -0.391948
-3.104153 -2.537196 -0.180544 1245 -0.103436 0.906745 -0.373732
-3.103632 -2.536761 -0.179276 1265 -0.095940 0.913002 -0.355487
-3.102991 -2.536234 -0.178009 1273 -0.086719 0.920587 -0.337257
-3.102350 -2.535706 -0.176743 1279 -0.077495 0.928182 -0.319041
-3.101948 -2.535364 -0.175485 1281 -0.071711 0.933105 -0.300941
-3.101701 -2.535164 -0.174246 1283 -0.068157 0.935980 -0.283113
-3.101405 -2.534915 -0.172999 1297 -0.063896 0.939565 -0.265171
-3.101173 -2.534715 -0.171749 1297 -0.060558 0.942443 -0.247185
-3.100933 -2.534508 -0.170500 1299 -0.057107 0.945421 -0.229214
-3.101031 -2.534586 -0.169279 1307 -0.058517 0.944299 -0.211646
-3.100446 -2.534102 -0.168012 1311 -0.050099 0.951263 -0.193415
-3.100150 -2.533852 -0.166764 1315 -0.045842 0.954858 -0.175459
-3.099960 -2.533695 -0.165526 1309 -0.043107 0.957119 -0.157646
-3.099375 -2.533210 -0.164268 1319 -0.034689 0.964096 -0.139545
-3.099480 -2.533281 -0.163038 1315 -0.036198 0.963074 -0.121847
-3.100479 -2.534100 -0.161852 1315 -0.050572 0.951290 -0.104782
-3.100577 -2.534164 -0.160632 1317 -0.051986 0.950371 -0.087228
-3.100161 -2.533822 -0.159374 1317 -0.045999 0.955290 -0.069128
-3.100646 -2.534220 -0.158172 1327 -0.052977 0.949565 -0.051833
-3.100463 -2.534056 -0.156933 1325 -0.050342 0.951925 -0.034005
-3.100230 -2.533856 -0.155684 1325 -0.046991 0.954803 -0.016034
-3.100652 -2.534205 -0.154473 1323 -0.053063 0.949781 0.001390
-3.100750 -2.534269 -0.153252 1321 -0.054473 0.948858 0.018959
-3.100342 -2.533934 -0.151993 1313 -0.048603 0.953678 0.037074
-3.100264 -2.533863 -0.150764 1307 -0.047481 0.954700 0.054757
-3.100517 -2.534069 -0.149541 1303 -0.051121 0.951736 0.072354
-3.101129 -2.534553 -0.148340 1301 -0.059927 0.944772 0.089635
-3.100938 -2.534396 -0.147101 1293 -0.057179 0.947033 0.107462
-3.101142 -2.534553 -0.145880 1285 -0.060112 0.944772 0.125031
-3.101521 -2.534858 -0.144657 1283 -0.065567 0.940385 0.142628
-3.101894 -2.535158 -0.143445 1285 -0.070932 0.936069 0.160067
-3.102435 -2.535599 -0.142243 1283 -0.078719 0.929723 0.177362
-3.102583 -2.535713 -0.141011 1267 -0.080846 0.928083 0.195088
-3.103469 -2.536432 -0.139817 1259 -0.093594 0.917737 0.212268
-3.104581 -2.537322 -0.138632 1259 -0.109597 0.904931 0.229318
-3.105179 -2.537806 -0.137429 1265 -0.118201 0.897967 0.246628
-3.105213 -2.537834 -0.136198 1251 -0.118688 0.897565 0.264340
-3.105924 -2.538404 -0.134995 1245 -0.128918 0.889363 0.281649
-3.106754 -2.539081 -0.133789 1233 -0.140862 0.879620 0.299002
-3.106957 -2.539237 -0.132569 1215 -0.143782 0.877377 0.316556
-3.107442 -2.539621 -0.131346 1197 -0.150759 0.871850 0.334153
-3.108554 -2.540525 -0.130162 1183 -0.166759 0.858845 0.351189
-3.109715 -2.541466 -0.128975 1157 -0.183466 0.845305 0.368268
-3.111397 -2.542833 -0.127805 1149 -0.207668 0.825635 0.385103
-3.112776 -2.543965 -0.126618 1135 -0.227510 0.809347 0.402182
-3.113436 -2.544499 -0.125405 1109 -0.237005 0.801666 0.419635
-3.114309 -2.545204 -0.124201 1089 -0.249568 0.791522 0.436959
-3.122028 -2.551479 -0.119539 891 -0.360633 0.701232 0.504038
-3.121542 -2.551080 -0.118283 721 -0.353638 0.706975 0.522110
-3.113978 -2.543686 -0.192190 1081 -0.244803 0.813364 -0.541300
-3.112549 -2.542518 -0.190868 1107 -0.224244 0.830170 -0.522279
-3.112422 -2.542411 -0.189619 1133 -0.222415 0.831707 -0.504308
-3.111006 -2.541242 -0.188298 1159 -0.202042 0.848530 -0.485300
-3.109690 -2.540159 -0.186993 1169 -0.183105 0.864111 -0.466523
-3.109386 -2.539916 -0.185736 1181 -0.178732 0.867607 -0.448437
-3.108534 -2.539203 -0.184450 1197 -0.166474 0.877868 -0.429933
-3.107893 -2.538676 -0.183184 1209 -0.157250 0.885449 -0.411718
-3.106929 -2.537878 -0.181889 1217 -0.143380 0.896931 -0.393084
-3.106393 -2.537443 -0.180632 1229 -0.135669 0.903191 -0.374998
-3.105196 -2.536452 -0.179327 1239 -0.118444 0.917448 -0.356221
-3.104112 -2.535561 -0.178032 1245 -0.102846 0.930268 -0.337588
-3.103703 -2.535226 -0.176775 1249 -0.096963 0.935088 -0.319502
-3.103794 -2.535297 -0.175555 1259 -0.098273 0.934069 -0.301948
-3.104575 -2.535924 -0.174361 1275 -0.109508 0.925047 -0.284768
-3.104399 -2.535767 -0.173120 1281 -0.106976 0.927304 -0.266912
-3.103138 -2.534741 -0.171818 1283 -0.088832 0.942069 -0.248178
-3.102096 -2.533879 -0.170534 1279 -0.073841 0.954470 -0.229703
-3.102138 -2.533914 -0.169304 1285 -0.074445 0.953966 -0.212005
-3.102637 -2.534312 -0.168091 1299 -0.081625 0.948240 -0.194552
-3.102559 -2.534241 -0.166861 1307 -0.080503 0.949263 -0.176854
-3.101475 -2.533350 -0.165568 1293 -0.064905 0.962082 -0.158250
-3.101397 -2.533279 -0.164337 1301 -0.063783 0.963105 -0.140538
-3.102122 -2.533863 -0.163134 1307 -0.074215 0.954700 -0.123228
-3.102501 -2.534168 -0.161921 1311 -0.079666 0.950312 -0.105775
-3.102198 -2.533912 -0.160673 1307 -0.075306 0.953997 -0.087818
-3.101965 -2.533712 -0.159436 1305 -0.071954 0.956875 -0.070020
-3.102669 -2.534289 -0.158242 1311 -0.082085 0.948573 -0.052840
-3.102774 -2.534360 -0.157011 1311 -0.083594 0.947551 -0.035128
-3.102471 -2.534103 -0.155761 1313 -0.079237 0.951249 -0.017142
-3.102618 -2.534217 -0.154541 1309 -0.081350 0.949609 0.000412
-3.102428 -2.534060 -0.153292 1305 -0.078616 0.951866 0.018383
-3.101906 -2.533625 -0.152045 1295 -0.071107 0.958127 0.036326
-3.101997 -2.533696 -0.150814 1297 -0.072414 0.957105 0.054038
-3.102827 -2.534373 -0.149620 1291 -0.084359 0.947362 0.071218
-3.103207 -2.534679 -0.148407 1283 -0.089827 0.942961 0.088671
-3.103586 -2.534971 -0.147187 1281 -0.095278 0.938759 0.106225
-3.103896 -2.535219 -0.145975 1275 -0.099738 0.935191 0.123664
-3.103543 -2.534927 -0.144726 1271 -0.094661 0.939393 0.141635
-3.103346 -2.534763 -0.143476 1259 -0.091827 0.941750 0.159621
-3.103725 -2.535069 -0.142266 1257 -0.097278 0.937349 0.177031
-3.104605 -2.535781 -0.141072 1251 -0.109940 0.927105 0.194210
-3.105266 -2.536315 -0.139868 1245 -0.119453 0.919421 0.211534
-3.106201 -2.537070 -0.138672 1243 -0.132904 0.908557 0.228743
-3.106975 -2.537689 -0.137469 1235 -0.144043 0.899651 0.246052
-3.107355 -2.537995 -0.136257 1233 -0.149511 0.895246 0.263491
-3.108002 -2.538515 -0.135054 1217 -0.158818 0.887764 0.280800
-3.108438 -2.538864 -0.133831 1199 -0.165092 0.882746 0.298398
-3.109035 -2.539348 -0.132617 1181 -0.173682 0.875782 0.315865
-3.110204 -2.540295 -0.131432 1169 -0.190502 0.862156 0.332916
-3.111083 -2.541007 -0.130238 1149 -0.203150 0.851909 0.350095
-3.111906 -2.541677 -0.129032 1129 -0.214992 0.842269 0.367448
-3.113299 -2.542809 -0.127846 1119 -0.235033 0.825981 0.384513
-3.114805 -2.544027 -0.126667 1099 -0.256703 0.808455 0.401477
-3.116135 -2.545110 -0.125489 1075 -0.275838 0.792874 0.418426
-3.117407 -2.544909 -0.192353 1017 -0.294143 0.795766 -0.543646
-3.116436 -2.544104 -0.191056 1057 -0.280171 0.807347 -0.524984
-3.115126 -2.543028 -0.189734 1093 -0.261321 0.822829 -0.505962
-3.114091 -2.542187 -0.188441 1111 -0.246429 0.834932 -0.487358
-3.113176 -2.541424 -0.187155 1129 -0.233266 0.845909 -0.468854
-3.112380 -2.540768 -0.185869 1151 -0.221812 0.855350 -0.450351
-3.112133 -2.540568 -0.184620 1177 -0.218258 0.858225 -0.432379
-3.110936 -2.539578 -0.183316 1191 -0.201033 0.872471 -0.413617
-3.109788 -2.538637 -0.182013 1205 -0.184515 0.886011 -0.394869
-3.109492 -2.538388 -0.180763 1217 -0.180258 0.889593 -0.376883
-3.108753 -2.537775 -0.179487 1223 -0.169624 0.898413 -0.358523
-3.107598 -2.536827 -0.178185 1227 -0.153006 0.912052 -0.339790
-3.106337 -2.535800 -0.176892 1225 -0.134863 0.926831 -0.321185
-3.106386 -2.535829 -0.175650 1241 -0.135566 0.926412 -0.303315
-3.107054 -2.536370 -0.174458 1267 -0.145178 0.918629 -0.286164
-3.106350 -2.535793 -0.173180 1271 -0.135048 0.926930 -0.267775
-3.105266 -2.534902 -0.171896 1269 -0.119453 0.939750 -0.249300
-3.104921 -2.534603 -0.170639 1263 -0.114489 0.944052 -0.231214
-3.104498 -2.534253 -0.169389 1269 -0.108400 0.949091 -0.213228
-3.104490 -2.534239 -0.168149 1285 -0.108287 0.949290 -0.195387
-3.104243 -2.534039 -0.166911 1287 -0.104733 0.952168 -0.177574
-3.103715 -2.533597 -0.165644 1275 -0.097134 0.958528 -0.159344
-3.104320 -2.534088 -0.164451 1287 -0.105841 0.951465 -0.142178
-3.104531 -2.534252 -0.163220 1297 -0.108877 0.949105 -0.124466
-3.104241 -2.534009 -0.161982 1295 -0.104702 0.952601 -0.106653
-3.103938 -2.533752 -0.160734 1287 -0.100345 0.956299 -0.088696
-3.104254 -2.534009 -0.159512 1293 -0.104890 0.952601 -0.071113
-3.104754 -2.534408 -0.158310 1299 -0.112084 0.946858 -0.053818
-3.104901 -2.534521 -0.157078 1301 -0.114201 0.945232 -0.036092
-3.104486 -2.534179 -0.155831 1299 -0.108228 0.950155 -0.018149
-3.104190 -2.533929 -0.154583 1289 -0.103971 0.953750 -0.000193
-3.104175 -2.533908 -0.153342 1285 -0.103755 0.954055 0.017664
-3.103872 -2.533651 -0.152104 1279 -0.099395 0.957750 0.035477
-3.104582 -2.534235 -0.150900 1285 -0.109611 0.949349 0.052800
-3.105525 -2.534997 -0.149716 1285 -0.123178 0.938385 0.069836
-3.105335 -2.534826 -0.148466 1269 -0.120444 0.940844 0.087822
-3.105088 -2.534626 -0.147228 1265 -0.116890 0.943722 0.105635
-3.105467 -2.534932 -0.146015 1263 -0.122345 0.939321 0.123088
-3.105607 -2.535038 -0.144785 1261 -0.124358 0.937795 0.140786
-3.105937 -2.535295 -0.143563 1255 -0.129106 0.934097 0.158369
-3.106535 -2.535779 -0.142361 1255 -0.137710 0.927133 0.175664
-3.107253 -2.536355 -0.141157 1249 -0.148043 0.918845 0.192987
-3.108140 -2.537075 -0.139961 1235 -0.160804 0.908485 0.210196
-3.108793 -2.537601 -0.138757 1227 -0.170200 0.900917 0.227520
-3.109335 -2.538043 -0.137545 1219 -0.177997 0.894557 0.244959
-3.110228 -2.538755 -0.136351 1205 -0.190848 0.884313 0.262138
-3.110826 -2.539239 -0.135138 1191 -0.199452 0.877349 0.279592
-3.111023 -2.539403 -0.133908 1169 -0.202285 0.874989 0.297290
-3.111916 -2.540115 -0.132712 1155 -0.215136 0.864742 0.314498
-3.113351 -2.541290 -0.131535 1147 -0.235784 0.847837 0.331434
-3.114069 -2.541867 -0.130331 1127 -0.246113 0.839535 0.348757
-3.114723 -2.542393 -0.129116 1105 -0.255523 0.831968 0.366239
-3.116172 -2.543568 -0.127939 1085 -0.276373 0.815062 0.383174
-3.117678 -2.544786 -0.126763 1063 -0.298040 0.797536 0.400095
-3.119128 -2.545961 -0.125574 1029 -0.318905 0.780630 0.417203
-3.116274 -2.542369 -0.187289 1081 -0.277842 0.832314 -0.470782
-3.115535 -2.541756 -0.186012 1115 -0.267207 0.841134 -0.452408
-3.114500 -2.540915 -0.184717 1135 -0.252315 0.853233 -0.433775
-3.113809 -2.540338 -0.183441 1151 -0.242374 0.861535 -0.415415
-3.113063 -2.539718 -0.182154 1171 -0.231640 0.870458 -0.396897
-3.111578 -2.538506 -0.180844 1179 -0.210271 0.887895 -0.378048
-3.110549 -2.537658 -0.179548 1189 -0.195466 0.900097 -0.359401
-3.110028 -2.537223 -0.178280 1191 -0.187970 0.906354 -0.341156
-3.110344 -2.537480 -0.177068 1209 -0.192515 0.902656 -0.323718
-3.110393 -2.537508 -0.175838 1231 -0.193222 0.902255 -0.306020
-3.109527 -2.536795 -0.174553 1241 -0.180762 0.912515 -0.287531
-3.108548 -2.535997 -0.173270 1243 -0.166673 0.923997 -0.269070
-3.107682 -2.535284 -0.171983 1245 -0.154214 0.934254 -0.250552
-3.106879 -2.534621 -0.170708 1239 -0.142660 0.943795 -0.232207
-3.106583 -2.534372 -0.169459 1239 -0.138403 0.947376 -0.214236
-3.106681 -2.534450 -0.168228 1249 -0.139813 0.946254 -0.196523
-3.106547 -2.534335 -0.166988 1259 -0.137885 0.947911 -0.178682
-3.106532 -2.534314 -0.165760 1259 -0.137669 0.948213 -0.161013
-3.106750 -2.534484 -0.164538 1259 -0.140804 0.945767 -0.143430
-3.106271 -2.534092 -0.163280 1261 -0.133912 0.951407 -0.125329
-3.105975 -2.533843 -0.162032 1259 -0.129652 0.954988 -0.107372
-3.106531 -2.534284 -0.160830 1257 -0.137652 0.948642 -0.090077
-3.106565 -2.534312 -0.159590 1269 -0.138142 0.948240 -0.072236
-3.106607 -2.534333 -0.158360 1275 -0.138746 0.947939 -0.054538
-3.106642 -2.534362 -0.157130 1279 -0.139250 0.947520 -0.036840
-3.106451 -2.534190 -0.155890 1265 -0.136502 0.949997 -0.018998
-3.106380 -2.534126 -0.154649 1257 -0.135480 0.950916 -0.001142
-3.106472 -2.534197 -0.153419 1261 -0.136804 0.949894 0.016556
-3.106626 -2.534318 -0.152199 1261 -0.139020 0.948155 0.034110
-3.107343 -2.534894 -0.150995 1263 -0.149336 0.939867 0.051433
-3.107716 -2.535193 -0.149783 1255 -0.154704 0.935565 0.068872
-3.108208 -2.535585 -0.148571 1245 -0.161782 0.929925 0.086311
-3.108588 -2.535891 -0.147358 1249 -0.167250 0.925520 0.103764
-3.108911 -2.536155 -0.146137 1239 -0.171898 0.921723 0.121333
-3.109107 -2.536304 -0.144904 1239 -0.174718 0.919579 0.139074
-3.109093 -2.536282 -0.143677 1231 -0.174516 0.919894 0.156728
-3.110367 -2.537322 -0.142500 1233 -0.192848 0.904931 0.173664
-3.111140 -2.537941 -0.141294 1231 -0.203970 0.896025 0.191016
-3.111351 -2.538105 -0.140074 1217 -0.207006 0.893665 0.208570
-3.111836 -2.538503 -0.138851 1201 -0.213983 0.887939 0.226167
-3.112209 -2.538802 -0.137640 1185 -0.219352 0.883638 0.243592
-3.113151 -2.539564 -0.136443 1163 -0.232906 0.872674 0.260815
-3.114094 -2.540326 -0.135241 1155 -0.246473 0.861706 0.278110
-3.114234 -2.540433 -0.134019 1135 -0.248487 0.860170 0.295692
-3.114438 -2.540589 -0.132787 1121 -0.251424 0.857923 0.313419
-3.115662 -2.541579 -0.131602 1103 -0.269036 0.843679 0.330469
-3.117281 -2.542897 -0.130423 1083 -0.292329 0.824716 0.347434
-3.118505 -2.543886 -0.129236 1057 -0.309941 0.810486 0.364513
-3.119039 -2.544321 -0.128023 1027 -0.317625 0.804225 0.381966
-3.117656 -2.541910 -0.186090 1059 -0.297725 0.838918 -0.453531
-3.116184 -2.540699 -0.184767 1073 -0.276545 0.856341 -0.434494
-3.115712 -2.540314 -0.183510 1095 -0.269753 0.861881 -0.416408
-3.115191 -2.539879 -0.182244 1123 -0.262257 0.868139 -0.398192
-3.113874 -2.538796 -0.180928 1139 -0.243307 0.883723 -0.379257
-3.112790 -2.537905 -0.179636 1159 -0.227712 0.896543 -0.360667
-3.112374 -2.537563 -0.178377 1167 -0.221726 0.901462 -0.342552
-3.112535 -2.537690 -0.177147 1181 -0.224041 0.899637 -0.324854
-3.112528 -2.537676 -0.175917 1203 -0.223942 0.899836 -0.307156
-3.111429 -2.536771 -0.174623 1213 -0.208127 0.912858 -0.288538
-3.110457 -2.535980 -0.173329 1215 -0.194141 0.924241 -0.269919
-3.109704 -2.535353 -0.172062 1217 -0.183308 0.933263 -0.251689
-3.108669 -2.534497 -0.170767 1213 -0.168416 0.945578 -0.233056
-3.108542 -2.534390 -0.169528 1221 -0.166588 0.947119 -0.215228
-3.109604 -2.535259 -0.168352 1231 -0.181867 0.934615 -0.198307
-3.110103 -2.535658 -0.167139 1241 -0.189047 0.928875 -0.180854
-3.109293 -2.534988 -0.165864 1247 -0.177394 0.938515 -0.162509
-3.108990 -2.534731 -0.164616 1243 -0.173034 0.942213 -0.144552
-3.108406 -2.534246 -0.163349 1239 -0.164632 0.949191 -0.126322
-3.107940 -2.533869 -0.162091 1233 -0.157926 0.954614 -0.108221
-3.108433 -2.534260 -0.160889 1233 -0.165020 0.948988 -0.090926
-3.109207 -2.534880 -0.159695 1247 -0.176155 0.940069 -0.073746
-3.109072 -2.534765 -0.158446 1249 -0.174214 0.941723 -0.055775
-3.108720 -2.534473 -0.157197 1251 -0.169150 0.945925 -0.037804
-3.108875 -2.534594 -0.155977 1247 -0.171380 0.944182 -0.020250
-3.108571 -2.534337 -0.154728 1239 -0.167006 0.947880 -0.002279
-3.108268 -2.534080 -0.153481 1241 -0.162646 0.951578 0.015664
-3.108697 -2.534436 -0.152268 1237 -0.168818 0.946457 0.033117
-3.109471 -2.535056 -0.151064 1235 -0.179956 0.937534 0.050441
-3.109681 -2.535219 -0.149842 1229 -0.182975 0.935191 0.068023
-3.109716 -2.535248 -0.148612 1219 -0.183479 0.934772 0.085721
-3.110610 -2.535960 -0.147417 1221 -0.196344 0.924529 0.102916
-3.110982 -2.536258 -0.146196 1221 -0.201695 0.920241 0.120484
-3.111242 -2.536472 -0.144974 1211 -0.205438 0.917160 0.138067
-3.111566 -2.536721 -0.143753 1201 -0.210100 0.913579 0.155635
-3.112051 -2.537119 -0.142540 1199 -0.217078 0.907853 0.173088
-3.112986 -2.537874 -0.141344 1199 -0.230532 0.896989 0.190297
-3.113542 -2.538316 -0.140133 1187 -0.238532 0.890629 0.207721
-3.114421 -2.539028 -0.138937 1171 -0.251177 0.880385 0.224930
-3.114801 -2.539334 -0.137717 1155 -0.256645 0.875981 0.242484
-3.114836 -2.539348 -0.136486 1135 -0.257149 0.875782 0.260196
-3.116003 -2.540295 -0.135300 1123 -0.273941 0.862156 0.277261
-3.117277 -2.541335 -0.134114 1097 -0.292270 0.847189 0.294326
-3.117656 -2.541626 -0.132891 1073 -0.297725 0.843004 0.311923
-3.118761 -2.542524 -0.131695 1057 -0.313625 0.830081 0.329131
-3.117790 -2.540404 -0.182348 1063 -0.299653 0.860585 -0.399689
-3.116530 -2.539377 -0.181046 1093 -0.281523 0.875363 -0.380955
-3.115494 -2.538522 -0.179751 1121 -0.266617 0.887665 -0.362322
-3.114741 -2.537909 -0.178465 1127 -0.255784 0.896485 -0.343818
-3.114620 -2.537795 -0.177225 1141 -0.254041 0.898125 -0.325977
-3.114550 -2.537730 -0.175986 1161 -0.253036 0.899061 -0.308149
-3.113515 -2.536890 -0.174692 1177 -0.238141 0.911147 -0.289531
-3.113275 -2.536683 -0.173442 1187 -0.234690 0.914124 -0.271545
-3.112979 -2.536433 -0.172194 1185 -0.230429 0.917723 -0.253588
-3.112056 -2.535677 -0.170910 1187 -0.217150 0.928601 -0.235113
-3.112267 -2.535841 -0.169688 1205 -0.220186 0.926241 -0.217531
-3.112365 -2.535919 -0.168457 1215 -0.221595 0.925119 -0.199818
-3.111957 -2.535584 -0.167199 1217 -0.215726 0.929939 -0.181718
-3.111879 -2.535512 -0.165961 1219 -0.214604 0.930975 -0.163905
-3.111920 -2.535533 -0.164730 1219 -0.215194 0.930673 -0.146192
-3.111279 -2.535006 -0.163464 1217 -0.205970 0.938254 -0.127977
-3.110638 -2.534478 -0.162197 1211 -0.196745 0.945853 -0.109746
-3.110736 -2.534556 -0.160967 1211 -0.198155 0.944731 -0.092049
-3.111285 -2.534991 -0.159764 1221 -0.206055 0.938470 -0.074739
-3.110925 -2.534692 -0.158504 1227 -0.200875 0.942772 -0.056610
-3.110397 -2.534264 -0.157248 1223 -0.193280 0.948930 -0.038538
-3.111065 -2.534791 -0.156044 1227 -0.202889 0.941349 -0.021214
-3.111501 -2.535139 -0.154832 1225 -0.209163 0.936340 -0.003775
-3.111423 -2.535068 -0.153593 1213 -0.208042 0.937362 0.014052
-3.111747 -2.535331 -0.152371 1207 -0.212704 0.933579 0.031635
-3.111781 -2.535359 -0.151139 1203 -0.213191 0.933177 0.049361
-3.111422 -2.535060 -0.149893 1193 -0.208028 0.937479 0.067290
-3.111802 -2.535352 -0.148669 1189 -0.213496 0.933277 0.084901
-3.112632 -2.536028 -0.147475 1191 -0.225438 0.923551 0.102081
-3.113117 -2.536412 -0.146263 1189 -0.232415 0.918025 0.119520
-3.113553 -2.536762 -0.145051 1173 -0.238690 0.912989 0.136959
-3.114214 -2.537295 -0.143839 1165 -0.248199 0.905318 0.154397
-3.114988 -2.537915 -0.142645 1161 -0.259338 0.896399 0.171577
-3.115818 -2.538591 -0.141440 1161 -0.271279 0.886674 0.188915
-3.115958 -2.538698 -0.140208 1149 -0.273293 0.885133 0.206642
-3.116499 -2.539139 -0.138996 1131 -0.281077 0.878787 0.224081
-3.117337 -2.539809 -0.137802 1111 -0.293135 0.869147 0.241261
-3.117934 -2.540293 -0.136589 1097 -0.301725 0.862183 0.258714
-3.122452 -2.543946 -0.133054 1025 -0.366732 0.809621 0.309577
-3.118649 -2.539510 -0.179883 1059 -0.312013 0.873449 -0.364221
-3.117840 -2.538854 -0.178599 1079 -0.300373 0.882890 -0.345746
-3.117438 -2.538512 -0.177340 1091 -0.294589 0.887809 -0.327631
-3.117649 -2.538675 -0.176118 1117 -0.297625 0.885463 -0.310049
-3.117064 -2.538191 -0.174852 1141 -0.289207 0.892426 -0.291833
-3.116592 -2.537806 -0.173584 1151 -0.282415 0.897967 -0.273588
-3.116014 -2.537328 -0.172318 1149 -0.274099 0.904845 -0.255372
-3.115381 -2.536808 -0.171051 1151 -0.264991 0.912327 -0.237142
-3.114965 -2.536465 -0.169793 1167 -0.259005 0.917263 -0.219041
-3.114894 -2.536401 -0.168555 1181 -0.257983 0.918183 -0.201228
-3.115161 -2.536607 -0.167332 1187 -0.261825 0.915219 -0.183631
-3.114865 -2.536358 -0.166085 1187 -0.257568 0.918800 -0.165689
-3.114336 -2.535930 -0.164816 1191 -0.249955 0.924961 -0.147430
-3.113864 -2.535531 -0.163558 1189 -0.243163 0.930700 -0.129329
-3.112724 -2.534597 -0.162266 1175 -0.226762 0.944141 -0.110739
-3.112758 -2.534625 -0.161036 1179 -0.227249 0.943736 -0.093041
-3.113814 -2.535473 -0.159849 1187 -0.242446 0.931534 -0.075962
-3.113630 -2.535323 -0.158610 1187 -0.239798 0.933695 -0.058135
-3.113777 -2.535437 -0.157379 1195 -0.241911 0.932052 -0.040423
-3.113826 -2.535465 -0.156149 1197 -0.242617 0.931651 -0.022725
-3.113805 -2.535436 -0.154909 1195 -0.242316 0.932069 -0.004883
-3.114121 -2.535692 -0.153689 1185 -0.246861 0.928385 0.012671
-3.114501 -2.535998 -0.152476 1179 -0.252329 0.923980 0.030124
-3.114542 -2.536019 -0.151236 1179 -0.252919 0.923678 0.047966
-3.114521 -2.536005 -0.150006 1175 -0.252617 0.923881 0.065664
-3.114950 -2.536346 -0.148782 1165 -0.258789 0.918975 0.083275
-3.115386 -2.536695 -0.147572 1163 -0.265063 0.913953 0.100685
-3.115420 -2.536709 -0.146342 1141 -0.265554 0.913750 0.118383
-3.116201 -2.537336 -0.145138 1129 -0.276789 0.904728 0.135707
-3.117425 -2.538326 -0.143952 1125 -0.294401 0.890485 0.152772
-3.117974 -2.538774 -0.142739 1121 -0.302301 0.884039 0.170225
-3.118340 -2.539066 -0.141525 1115 -0.307567 0.879837 0.187692
