291
-16.705175 -14.474076 -0.153791 675 0.830781 -0.570133 -0.091061
-16.705338 -14.474179 -0.147000 671 0.828448 -0.571615 0.006651
-16.710199 -14.469460 -0.180978 681 0.758494 -0.503705 -0.482241
-16.704552 -14.464536 -0.174140 823 0.839755 -0.432858 -0.383852
-16.701229 -14.461626 -0.167319 903 0.887562 -0.390993 -0.285708
-16.698732 -14.459431 -0.160514 943 0.923486 -0.359405 -0.187795
-16.697445 -14.458284 -0.153722 945 0.942011 -0.342911 -0.090068
-16.698387 -14.459064 -0.146947 951 0.928453 -0.354122 0.007414
-16.699810 -14.460265 -0.140168 931 0.907980 -0.371412 0.104954
-16.701796 -14.461939 -0.133407 877 0.879411 -0.395494 0.202234
-16.705097 -14.464767 -0.126638 783 0.831906 -0.436193 0.299630
-16.710011 -14.468990 -0.119880 631 0.761211 -0.496954 0.396867
-16.708622 -14.459017 -0.187732 797 0.781190 -0.353450 -0.579420
-16.703472 -14.454531 -0.180902 927 0.855288 -0.288902 -0.481147
-16.699760 -14.451287 -0.174083 987 0.908694 -0.242233 -0.383032
-16.697763 -14.449523 -0.167285 1037 0.937428 -0.216848 -0.285219
-16.695932 -14.447904 -0.160485 1049 0.963774 -0.193548 -0.187377
-16.695147 -14.447189 -0.153701 1049 0.975081 -0.183270 -0.089766
-16.695745 -14.447676 -0.146928 1039 0.966463 -0.190268 0.007687
-16.696461 -14.448260 -0.140144 1035 0.956172 -0.198680 0.105299
-16.698336 -14.449843 -0.133382 997 0.929194 -0.221458 0.202594
-16.701078 -14.452184 -0.126617 957 0.889730 -0.255132 0.299932
-16.705498 -14.455970 -0.119861 887 0.826143 -0.309608 0.397141
-16.711964 -14.461527 -0.113103 739 0.733108 -0.389566 0.494378
-16.710957 -14.452323 -0.194532 853 0.747598 -0.257135 -0.677262
-16.705370 -14.447455 -0.187684 973 0.827981 -0.187099 -0.578730
-16.702162 -14.444643 -0.180873 1045 0.874142 -0.146633 -0.480730
-16.698221 -14.441205 -0.174056 1083 0.930841 -0.097165 -0.382643
-16.695335 -14.438677 -0.167253 1103 0.972364 -0.060788 -0.284759
-16.694788 -14.438164 -0.160466 1131 0.980240 -0.053406 -0.187104
-16.693832 -14.437309 -0.153682 1103 0.993989 -0.041111 -0.089492
-16.694216 -14.437602 -0.146909 1111 0.988473 -0.045324 0.007961
-16.695358 -14.438560 -0.140144 1109 0.972034 -0.059100 0.105299
-16.696840 -14.439803 -0.133374 1091 0.950710 -0.076994 0.202709
-16.698830 -14.441484 -0.126603 1067 0.922086 -0.101186 0.300133
-16.701466 -14.443736 -0.119838 1007 0.884159 -0.133583 0.397472
-16.707483 -14.448904 -0.113094 929 0.797574 -0.207942 0.494508
-16.715763 -14.456037 -0.106345 767 0.678440 -0.310569 0.591616
-16.717562 -14.448972 -0.201369 809 0.652560 -0.208916 -0.775636
-16.708532 -14.441132 -0.194492 967 0.782479 -0.096108 -0.676687
-16.703281 -14.436563 -0.187652 1041 0.858032 -0.030367 -0.578269
-16.700397 -14.434034 -0.180848 1101 0.899528 0.006010 -0.480370
-16.697517 -14.431514 -0.174045 1127 0.940968 0.042277 -0.382485
-16.696016 -14.430174 -0.167255 1147 0.962566 0.061557 -0.284787
-16.695402 -14.429610 -0.160468 1163 0.971403 0.069666 -0.187133
-16.694010 -14.428375 -0.153676 1155 0.991437 0.087436 -0.089406
-16.694334 -14.428625 -0.146905 1155 0.986772 0.083841 0.008018
-16.694273 -14.428527 -0.140124 1141 0.987650 0.085254 0.105587
-16.695814 -14.429828 -0.133367 1137 0.965475 0.066538 0.202810
-16.698835 -14.432412 -0.126609 1115 0.922004 0.029351 0.300047
-16.700932 -14.434182 -0.119836 1079 0.891843 0.003883 0.397500
-16.705008 -14.437675 -0.113084 1027 0.833196 -0.046380 0.494651
-16.710907 -14.442739 -0.106328 925 0.748312 -0.119230 0.591860
-16.726843 -14.456470 -0.099618 745 0.519018 -0.316798 0.688407
-16.724670 -14.445691 -0.208205 761 0.550277 -0.161713 -0.873996
-16.714479 -14.436866 -0.201314 943 0.696910 -0.034730 -0.774845
-16.708338 -14.431517 -0.194471 1031 0.785279 0.042236 -0.676385
-16.702908 -14.426801 -0.187633 1089 0.863411 0.110091 -0.577996
-16.700411 -14.424607 -0.180837 1139 0.899335 0.141652 -0.480212
-16.698477 -14.422905 -0.174037 1173 0.927164 0.166145 -0.382370
-16.696911 -14.421517 -0.167247 1181 0.949695 0.186111 -0.284672
-16.695696 -14.420425 -0.160464 1181 0.967177 0.201822 -0.187075
-16.694525 -14.419378 -0.153680 1191 0.984027 0.216889 -0.089464
-16.694784 -14.419580 -0.146909 1181 0.980295 0.213980 0.007961
-16.695663 -14.420295 -0.140134 1171 0.967643 0.203702 0.105443
-16.697645 -14.421984 -0.133372 1163 0.939129 0.179401 0.202738
-16.699953 -14.423943 -0.126609 1141 0.905922 0.151216 0.300047
-16.701942 -14.425624 -0.119847 1129 0.877298 0.127024 0.397342
-16.705854 -14.428971 -0.113095 1079 0.821011 0.078860 0.494493
-16.710934 -14.433313 -0.106336 1011 0.747928 0.016384 0.591745
-16.717333 -14.438807 -0.099589 895 0.655854 -0.062654 0.688824
-16.723686 -14.435743 -0.208177 865 0.564438 -0.018579 -0.873593
-16.715824 -14.428922 -0.201312 991 0.677562 0.079573 -0.774816
-16.710730 -14.424491 -0.194472 1075 0.750864 0.143326 -0.676399
-16.706133 -14.420485 -0.187650 1129 0.817004 0.200971 -0.578241
-16.703188 -14.417915 -0.180846 1169 0.859377 0.237938 -0.480341
-16.701414 -14.416352 -0.174056 1193 0.884900 0.260429 -0.382643
-16.699968 -14.415069 -0.167264 1211 0.905702 0.278898 -0.284917
-16.697968 -14.413311 -0.160476 1213 0.934491 0.304188 -0.187248
-16.696529 -14.412032 -0.153686 1203 0.955184 0.322589 -0.089550
-16.697292 -14.412652 -0.146920 1195 0.944206 0.313670 0.007803
-16.699055 -14.414140 -0.140161 1201 0.918848 0.292263 0.105054
-16.700153 -14.415055 -0.133393 1201 0.903040 0.279090 0.202436
-16.700583 -14.415389 -0.126622 1167 0.896866 0.274288 0.299860
-16.702944 -14.417391 -0.119859 1149 0.862890 0.245485 0.397169
-16.707134 -14.420980 -0.113105 1119 0.802596 0.193836 0.494349
-16.711660 -14.424856 -0.106347 1053 0.737472 0.138070 0.591587
-16.717295 -14.429677 -0.099595 945 0.656402 0.068706 0.688738
-16.734507 -14.444505 -0.092887 769 0.408749 -0.144643 0.785256
-16.723854 -14.427147 -0.208160 923 0.562023 0.105110 -0.873348
-16.717154 -14.421341 -0.201308 1015 0.658433 0.188649 -0.774759
-16.712053 -14.416903 -0.194478 1085 0.731818 0.252511 -0.676485
-16.708120 -14.413473 -0.187661 1155 0.788407 0.301855 -0.578399
-16.705070 -14.410813 -0.180848 1185 0.832290 0.340126 -0.480370
-16.702631 -14.408675 -0.174052 1193 0.867391 0.370890 -0.382586
-16.701349 -14.407536 -0.167270 1209 0.885833 0.387288 -0.285003
-16.701010 -14.407210 -0.160493 1219 0.890718 0.391967 -0.187492
-16.700346 -14.406598 -0.153716 1219 0.900269 0.400776 -0.089982
-16.699999 -14.406266 -0.146938 1215 0.905263 0.405552 0.007544
-16.700491 -14.406649 -0.140165 1201 0.898183 0.400049 0.104997
-16.701862 -14.407801 -0.133407 1199 0.878451 0.383473 0.202234
-16.703733 -14.409378 -0.126638 1175 0.851528 0.360777 0.299630
-16.705385 -14.410775 -0.119878 1151 0.827762 0.340674 0.396896
-16.709410 -14.414206 -0.113124 1133 0.769855 0.291317 0.494076
-16.714211 -14.418317 -0.106366 1083 0.700779 0.232161 0.591313
-16.719120 -14.422520 -0.099609 1007 0.630139 0.171689 0.688536
-16.728294 -14.430395 -0.092866 869 0.498134 0.058373 0.785558
-16.727268 -14.421181 -0.208175 959 0.512898 0.190954 -0.873564
-16.721228 -14.415945 -0.201329 1059 0.599813 0.266288 -0.775061
-16.715624 -14.411077 -0.194492 1113 0.680443 0.336338 -0.676687
-16.711470 -14.407458 -0.187677 1163 0.740216 0.388399 -0.578629
-16.708755 -14.405083 -0.180871 1199 0.779269 0.422581 -0.480701
-16.705929 -14.402612 -0.174077 1207 0.819940 0.458134 -0.382946
-16.704533 -14.401375 -0.167287 1225 0.840029 0.475932 -0.285248
-16.704245 -14.401097 -0.160508 1237 0.844173 0.479925 -0.187708
-16.703417 -14.400341 -0.153733 1231 0.856084 0.490806 -0.090226
-16.702574 -14.399585 -0.146947 1237 0.868214 0.501688 0.007414
-16.703396 -14.400259 -0.140184 1225 0.856386 0.491986 0.104723
-16.705154 -14.401745 -0.133422 1205 0.831083 0.470607 0.202018
-16.706638 -14.402989 -0.126664 1195 0.809731 0.452700 0.299256
-16.708843 -14.404851 -0.119903 1167 0.778006 0.425915 0.396536
-16.711927 -14.407483 -0.113145 1137 0.733629 0.388043 0.493774
-16.716177 -14.411116 -0.106389 1099 0.672484 0.335776 0.590982
-16.721643 -14.415790 -0.099628 1029 0.593830 0.268524 0.688263
-16.729771 -14.422762 -0.092881 913 0.476892 0.168203 0.785342
-16.728830 -14.413963 -0.208179 975 0.490422 0.294802 -0.873622
-16.722696 -14.408637 -0.201333 1055 0.578681 0.371439 -0.775118
-16.718090 -14.404637 -0.194499 1119 0.644958 0.428989 -0.676787
-16.714100 -14.401165 -0.187682 1155 0.702371 0.478950 -0.578701
-16.710993 -14.398463 -0.180881 1181 0.747077 0.517825 -0.480845
-16.709162 -14.396847 -0.174092 1203 0.773423 0.541083 -0.383161
-16.707939 -14.395763 -0.167308 1219 0.791015 0.556671 -0.285550
-16.706535 -14.394521 -0.160527 1227 0.811213 0.574551 -0.187982
-16.707035 -14.394909 -0.153754 1243 0.804023 0.568966 -0.090528
-16.707691 -14.395437 -0.146991 1253 0.794582 0.561364 0.006781
-16.706900 -14.394729 -0.140205 1217 0.805971 0.571560 0.104421
-16.706947 -14.394737 -0.133435 1207 0.805285 0.571436 0.201831
-16.709154 -14.396599 -0.126681 1197 0.773533 0.544651 0.299011
-16.712461 -14.399419 -0.119924 1179 0.725945 0.504075 0.396234
-16.715376 -14.401897 -0.113166 1153 0.684011 0.468412 0.493472
-16.719631 -14.405523 -0.106412 1117 0.622784 0.416241 0.590652
-16.724440 -14.409629 -0.099654 1041 0.553598 0.357168 0.687889
-16.731125 -14.415358 -0.092906 925 0.457407 0.274741 0.784982
-16.733847 -14.409734 -0.208211 987 0.418245 0.355659 -0.874082
-16.727024 -14.403824 -0.201360 1071 0.516411 0.440694 -0.775507
-16.721874 -14.399352 -0.194530 1119 0.590510 0.505036 -0.677233
-16.718416 -14.396351 -0.187720 1149 0.640265 0.548219 -0.579248
-16.715546 -14.393838 -0.180917 1191 0.681568 0.584376 -0.481363
-16.713333 -14.391894 -0.174119 1211 0.713403 0.612341 -0.383550
-16.712046 -14.390762 -0.167337 1231 0.731928 0.628629 -0.285967
-16.711262 -14.390047 -0.160552 1243 0.743207 0.638921 -0.188341
-16.710808 -14.389624 -0.153775 1247 0.749739 0.645013 -0.090831
-16.710251 -14.389103 -0.146999 1247 0.757753 0.652505 0.006666
-16.711630 -14.390263 -0.140241 1245 0.737911 0.635819 0.103903
-16.712831 -14.391263 -0.133474 1231 0.720621 0.621425 0.201270
-16.713425 -14.391744 -0.126710 1199 0.712086 0.614509 0.298594
-16.716238 -14.394124 -0.119945 1171 0.671606 0.580259 0.395932
-16.719389 -14.396806 -0.113197 1141 0.626269 0.541673 0.493026
-16.722578 -14.399523 -0.106427 1107 0.580383 0.502580 0.590436
-16.728502 -14.404585 -0.099683 1043 0.495142 0.429743 0.687472
-16.736185 -14.411169 -0.092929 937 0.384598 0.335007 0.784652
-16.738447 -14.404612 -0.208240 985 0.352050 0.429359 -0.874500
-16.732006 -14.399042 -0.201398 1063 0.444728 0.509495 -0.776054
-16.726847 -14.394563 -0.194568 1107 0.518964 0.573947 -0.677780
-16.723419 -14.391577 -0.187747 1145 0.568280 0.616911 -0.579636
-16.720089 -14.388675 -0.180946 1173 0.616197 0.658666 -0.481780
-16.717482 -14.386403 -0.174142 1207 0.653713 0.691352 -0.383881
-16.715593 -14.384744 -0.167352 1225 0.680882 0.715228 -0.286183
-16.715244 -14.384412 -0.160585 1229 0.685905 0.720004 -0.188816
-16.715408 -14.384516 -0.153814 1249 0.683544 0.718508 -0.091392
-16.715061 -14.384184 -0.147035 1243 0.688539 0.723283 0.006148
-16.716269 -14.385190 -0.140269 1237 0.671167 0.708806 0.103500
-16.718092 -14.386725 -0.133508 1239 0.644931 0.686714 0.200781
-16.719296 -14.387726 -0.126743 1203 0.627614 0.672320 0.298119
-16.721558 -14.389643 -0.119979 1161 0.595065 0.644739 0.395443
-16.725756 -14.393212 -0.113235 1143 0.534661 0.593378 0.492479
-16.729286 -14.396220 -0.106475 1101 0.483863 0.550099 0.589745
-16.734152 -14.400367 -0.099717 1037 0.413853 0.490436 0.686982
-16.740671 -14.405950 -0.092960 919 0.320050 0.410107 0.784205
-16.744040 -14.400352 -0.208284 965 0.271584 0.490655 -0.875133
-16.737604 -14.394789 -0.201440 1043 0.364180 0.570695 -0.776658
-16.732725 -14.390553 -0.194610 1097 0.434382 0.631634 -0.678384
-16.728844 -14.387184 -0.187791 1155 0.490230 0.680114 -0.580269
-16.725901 -14.384615 -0.180988 1187 0.532576 0.717081 -0.482384
-16.723394 -14.382427 -0.174194 1217 0.568637 0.748559 -0.384629
-16.721291 -14.380587 -0.167396 1205 0.598907 0.775042 -0.286816
-16.719839 -14.379296 -0.160613 1213 0.619792 0.793608 -0.189219
-16.719721 -14.379157 -0.153834 1217 0.621494 0.795611 -0.091679
-16.721209 -14.380408 -0.147075 1227 0.600088 0.777608 0.005572
-16.721752 -14.380839 -0.140302 1221 0.592266 0.771406 0.103026
-16.721748 -14.380798 -0.133533 1207 0.592321 0.771996 0.200421
-16.722958 -14.381806 -0.126765 1181 0.574922 0.757492 0.297803
-16.725821 -14.384235 -0.120010 1163 0.533728 0.722542 0.394997
-16.729574 -14.387431 -0.113258 1131 0.479719 0.676560 0.492148
-16.734108 -14.391299 -0.106502 1099 0.414485 0.620904 0.589357
-16.739584 -14.395967 -0.099750 1023 0.335693 0.553749 0.686508
-16.746321 -14.401731 -0.093002 899 0.238762 0.470813 0.783601
-16.753241 -14.399187 -0.208366 951 0.139195 0.507410 -0.876313
-16.745138 -14.392188 -0.201503 1029 0.255777 0.608115 -0.777564
-16.739649 -14.387430 -0.194665 1097 0.334760 0.676574 -0.679176
-16.735432 -14.383778 -0.187839 1125 0.395439 0.729129 -0.580960
-16.732157 -14.380930 -0.181028 1157 0.442560 0.770102 -0.482960
-16.730707 -14.379654 -0.174247 1195 0.463417 0.788462 -0.385392
-16.728817 -14.377995 -0.167457 1195 0.490614 0.812338 -0.287694
-16.726879 -14.376287 -0.160659 1217 0.518497 0.836901 -0.189881
-16.726194 -14.375668 -0.153882 1213 0.528349 0.845820 -0.092370
-16.726578 -14.375960 -0.147111 1213 0.522833 0.841607 0.005054
-16.727177 -14.376447 -0.140348 1205 0.514216 0.834609 0.102364
-16.728046 -14.377154 -0.133573 1183 0.501701 0.824427 0.199846
-16.730368 -14.379114 -0.126819 1159 0.468302 0.796229 0.297026
-16.733238 -14.381552 -0.120063 1145 0.426999 0.761156 0.394234
-16.737328 -14.385032 -0.113309 1105 0.368159 0.711084 0.491414
-16.741920 -14.388942 -0.106553 1051 0.302075 0.654824 0.588623
-16.747061 -14.393324 -0.099794 973 0.228113 0.591772 0.685875
-16.756304 -14.401242 -0.093049 821 0.095120 0.477839 0.782925
-16.762972 -14.398645 -0.208455 847 -0.000823 0.515204 -0.877593
-16.752199 -14.389354 -0.201556 985 0.154180 0.648896 -0.778327
-16.746481 -14.384415 -0.194720 1051 0.236456 0.719962 -0.679967
-16.741598 -14.380188 -0.187888 1097 0.306713 0.780778 -0.581665
-16.738770 -14.377715 -0.181085 1153 0.347412 0.816359 -0.483780
-16.736822 -14.376014 -0.174285 1181 0.375432 0.840839 -0.385938
-16.734653 -14.374112 -0.167499 1191 0.406636 0.868200 -0.288298
-16.733482 -14.373077 -0.160705 1199 0.423486 0.883089 -0.190543
-16.733644 -14.373182 -0.153934 1205 0.421154 0.881579 -0.093118
-16.733976 -14.373425 -0.147163 1197 0.416378 0.878094 0.004306
-16.733681 -14.373141 -0.140384 1189 0.420632 0.882169 0.101846
-16.734831 -14.374092 -0.133617 1183 0.404083 0.868489 0.199213
-16.736485 -14.375475 -0.126859 1157 0.380290 0.848592 0.296450
-16.738861 -14.377490 -0.120093 1135 0.346095 0.819597 0.393803
-16.742672 -14.380726 -0.113343 1077 0.291262 0.773039 0.490925
-16.746920 -14.384344 -0.106578 1015 0.230144 0.720978 0.588263
-16.752245 -14.388879 -0.099828 917 0.153521 0.655730 0.685385
-16.762175 -14.389203 -0.201642 897 0.010648 0.651065 -0.779564
-16.755239 -14.383211 -0.194793 1007 0.110434 0.737279 -0.681018
-16.750908 -14.379460 -0.187968 1069 0.172759 0.791248 -0.582816
-16.746681 -14.375801 -0.181142 1123 0.233575 0.843899 -0.484600
-16.743574 -14.373100 -0.174340 1139 0.278281 0.882759 -0.386730
-16.741346 -14.371156 -0.167543 1153 0.310335 0.910738 -0.288931
-16.740396 -14.370294 -0.160758 1159 0.324002 0.923143 -0.191305
-16.739563 -14.369546 -0.153974 1169 0.335995 0.933901 -0.093694
-16.739609 -14.369553 -0.147203 1163 0.335337 0.933805 0.003731
-16.740818 -14.370561 -0.140435 1159 0.317937 0.919301 0.101112
-16.742023 -14.371567 -0.133670 1151 0.300593 0.904824 0.198450
-16.744238 -14.373422 -0.126907 1137 0.268730 0.878135 0.295759
-16.747217 -14.375950 -0.120149 1103 0.225863 0.841758 0.392997
-16.750862 -14.379040 -0.113389 1045 0.173418 0.797299 0.490263
-16.756115 -14.383519 -0.106639 971 0.097837 0.732847 0.587385
-16.764599 -14.390770 -0.099891 859 -0.024233 0.628519 0.684479
-16.764442 -14.382048 -0.194865 913 -0.021983 0.754020 -0.682054
-16.758942 -14.377290 -0.188028 1007 0.057166 0.822479 -0.583679
-16.755775 -14.374548 -0.181214 1069 0.102722 0.861929 -0.485636
-16.752045 -14.371312 -0.174407 1095 0.156403 0.908488 -0.387694
-16.749437 -14.369040 -0.167602 1125 0.193918 0.941187 -0.289780
-16.749092 -14.368708 -0.160823 1141 0.198886 0.945963 -0.192241
-16.748085 -14.367805 -0.154040 1155 0.213376 0.958957 -0.094643
-16.746740 -14.366617 -0.147247 1133 0.232724 0.976041 0.003098
-16.748407 -14.368014 -0.140489 1123 0.208738 0.955938 0.100335
-16.750393 -14.369690 -0.133727 1113 0.180169 0.931829 0.197630
-16.752258 -14.371251 -0.126956 1089 0.153329 0.909366 0.295054
-16.756355 -14.374738 -0.120202 1037 0.094379 0.859199 0.392234
-16.760561 -14.378301 -0.113448 989 0.033866 0.807934 0.489414
-16.766050 -14.382980 -0.106687 901 -0.045118 0.740600 0.586695
-16.784204 -14.389918 -0.195058 789 -0.306328 0.640773 -0.684831
-16.769758 -14.377494 -0.188121 931 -0.098469 0.819542 -0.585018
-16.763754 -14.372321 -0.181285 1019 -0.012075 0.893970 -0.486658
-16.761091 -14.369995 -0.174480 1053 0.026236 0.927438 -0.388744
-16.758577 -14.367815 -0.167674 1079 0.062407 0.958806 -0.290816
-16.756681 -14.366149 -0.160876 1093 0.089687 0.982779 -0.193003
-16.756069 -14.365585 -0.154100 1107 0.098496 0.990888 -0.095507
-16.755392 -14.364976 -0.147313 1095 0.108239 0.999656 0.002148
-16.756886 -14.366219 -0.140544 1087 0.086750 0.981777 0.099544
-16.759209 -14.368177 -0.133781 1077 0.053323 0.953592 0.196853
-16.761362 -14.369990 -0.127019 1041 0.022339 0.927507 0.294148
-16.764555 -14.372699 -0.120252 979 -0.023602 0.888536 0.391515
-16.769548 -14.376943 -0.113502 913 -0.095450 0.827474 0.488637
-16.776669 -14.374672 -0.181394 879 -0.197898 0.860146 -0.488226
-16.772615 -14.371164 -0.174567 953 -0.139580 0.910615 -0.389996
-16.769278 -14.368269 -0.167756 1005 -0.091553 0.952275 -0.291996
-16.767210 -14.366463 -0.160958 1025 -0.061804 0.978264 -0.194183
-16.767141 -14.366373 -0.154180 1033 -0.060816 0.979554 -0.096658
-16.767576 -14.366715 -0.147397 1039 -0.067073 0.974628 0.000939
-16.768578 -14.367534 -0.140620 1023 -0.081481 0.962854 0.098450
-16.769226 -14.368054 -0.133847 981 -0.090812 0.955362 0.195903
-16.772276 -14.370638 -0.127080 945 -0.134694 0.918189 0.293270
-16.778093 -14.375583 -0.120336 855 -0.218398 0.847041 0.390306
-16.792007 -14.378884 -0.174731 749 -0.418601 0.799536 -0.392356
-16.782333 -14.370573 -0.167855 855 -0.279406 0.919123 -0.293420
-16.779608 -14.368198 -0.161052 917 -0.240189 0.953290 -0.195536
-16.779924 -14.368442 -0.154269 931 -0.244744 0.949791 -0.097938
-16.779642 -14.368156 -0.147481 913 -0.240683 0.953894 -0.000269
-16.781073 -14.369351 -0.140714 905 -0.261266 0.936700 0.097097
