763
-3.411755 -2.929379 -0.141414 1521 0.993694 -0.014470 0.228092
-3.412389 -2.929924 -0.140062 1515 0.984573 -0.022312 0.247545
-3.412762 -2.930235 -0.138689 1517 0.979207 -0.026785 0.267301
-3.412910 -2.930348 -0.137319 1515 0.977077 -0.028411 0.287013
-3.412945 -2.930375 -0.135929 1503 0.976573 -0.028802 0.307013
-3.413473 -2.930828 -0.134565 1501 0.968978 -0.035320 0.326639
-3.414114 -2.931366 -0.133211 1495 0.959753 -0.043059 0.346121
-3.414254 -2.931486 -0.131832 1489 0.957739 -0.044785 0.365963
-3.414683 -2.931840 -0.130468 1487 0.951565 -0.049879 0.385589
-3.415318 -2.932386 -0.129104 1479 0.942429 -0.057735 0.405214
-3.416022 -2.932974 -0.127741 1469 0.932299 -0.066198 0.424826
-3.416438 -2.933328 -0.126379 1463 0.926313 -0.071289 0.444423
-3.416803 -2.933632 -0.125007 1453 0.921064 -0.075663 0.464164
-3.417452 -2.934177 -0.123644 1447 0.911723 -0.083505 0.483776
-3.418029 -2.934666 -0.122280 1437 0.903421 -0.090541 0.503402
-3.418558 -2.935119 -0.120907 1419 0.895812 -0.097059 0.523157
-3.419868 -2.936233 -0.119569 1411 0.876962 -0.113089 0.542409
-3.421447 -2.937588 -0.118231 1407 0.854242 -0.132585 0.561661
-3.422751 -2.938695 -0.116893 1397 0.835480 -0.148512 0.580912
-3.423279 -2.939148 -0.115520 1375 0.827882 -0.155030 0.600668
-3.424470 -2.940155 -0.114174 1343 0.810747 -0.169521 0.620035
-3.425893 -2.941368 -0.112827 1327 0.790270 -0.186975 0.639416
-3.427747 -2.942958 -0.111496 1311 0.763595 -0.209853 0.658567
-3.429721 -2.944639 -0.110164 1287 0.735190 -0.234038 0.677732
-3.430806 -2.945568 -0.108808 1243 0.719582 -0.247406 0.697243
-3.432378 -2.946916 -0.107460 1203 0.696961 -0.266802 0.716639
-3.434626 -2.948833 -0.106138 1167 0.664615 -0.294383 0.735661
-3.436712 -2.950614 -0.104807 1113 0.634602 -0.320009 0.754812
-3.439511 -2.953012 -0.103491 1027 0.594328 -0.354513 0.773747
-3.436924 -2.949509 -0.213415 1129 0.631552 -0.304109 -0.807893
-3.434201 -2.947156 -0.211860 1179 0.670731 -0.270253 -0.785519
-3.431593 -2.944917 -0.210315 1223 0.708258 -0.238038 -0.763289
-3.429265 -2.942906 -0.208788 1253 0.741753 -0.209102 -0.741318
-3.427530 -2.941420 -0.207298 1279 0.766716 -0.187723 -0.719879
-3.426197 -2.940269 -0.205826 1309 0.785896 -0.171161 -0.698699
-3.424533 -2.938825 -0.204344 1327 0.809841 -0.150382 -0.677375
-3.423306 -2.937766 -0.202881 1347 0.827494 -0.135147 -0.656325
-3.422353 -2.936940 -0.201446 1365 0.841206 -0.123261 -0.635678
-3.421901 -2.936549 -0.200029 1381 0.847710 -0.117635 -0.615289
-3.421062 -2.935823 -0.198593 1397 0.859782 -0.107189 -0.594627
-3.419278 -2.934288 -0.197113 1417 0.885452 -0.085103 -0.573332
-3.417606 -2.932837 -0.195633 1427 0.909507 -0.064226 -0.552037
-3.416879 -2.932211 -0.194206 1435 0.919970 -0.055217 -0.531505
-3.416259 -2.931677 -0.192791 1453 0.928889 -0.047536 -0.511145
-3.415581 -2.931086 -0.191364 1459 0.938645 -0.039032 -0.490613
-3.415186 -2.930737 -0.189956 1463 0.944330 -0.034010 -0.470354
-3.414727 -2.930338 -0.188549 1473 0.950933 -0.028267 -0.450109
-3.414057 -2.929754 -0.187132 1485 0.960573 -0.019866 -0.429721
-3.413492 -2.929263 -0.185716 1491 0.968703 -0.012803 -0.409347
-3.413315 -2.929105 -0.184326 1497 0.971249 -0.010528 -0.389347
-3.412920 -2.928756 -0.182918 1505 0.976933 -0.005506 -0.369088
-3.412849 -2.928691 -0.181530 1515 0.977955 -0.004569 -0.349116
-3.412503 -2.928391 -0.180132 1515 0.982933 -0.000254 -0.329001
-3.411776 -2.927751 -0.178714 1519 0.993392 0.008954 -0.308599
-3.411649 -2.927643 -0.177326 1529 0.995221 0.010508 -0.288627
-3.411310 -2.927337 -0.175928 1535 1.000099 0.014912 -0.268512
-3.410463 -2.926604 -0.174503 1533 1.012284 0.025458 -0.248009
-3.410335 -2.926496 -0.173113 1527 1.014126 0.027012 -0.228009
-3.410095 -2.926275 -0.171715 1527 1.017581 0.030192 -0.207894
-3.409418 -2.925684 -0.170309 1529 1.027320 0.038696 -0.187663
-3.409678 -2.925910 -0.168937 1535 1.023581 0.035444 -0.167922
-3.409833 -2.926029 -0.167556 1541 1.021351 0.033732 -0.148052
-3.408874 -2.925197 -0.166132 1539 1.035148 0.045704 -0.127563
-3.408640 -2.924997 -0.164743 1541 1.038517 0.048579 -0.107577
-3.409507 -2.925734 -0.163398 1541 1.026040 0.037975 -0.088224
-3.409880 -2.926046 -0.162037 1551 1.020675 0.033488 -0.068642
-3.410035 -2.926165 -0.160665 1551 1.018445 0.031773 -0.048901
-3.409294 -2.925525 -0.159250 1543 1.029107 0.040984 -0.028541
-3.408504 -2.924835 -0.157833 1533 1.040472 0.050912 -0.008152
-3.408376 -2.924727 -0.156444 1533 1.042315 0.052466 0.011833
-3.408298 -2.924655 -0.155056 1537 1.043436 0.053502 0.031804
-3.409059 -2.925300 -0.153711 1533 1.032486 0.044222 0.051157
-3.409644 -2.925796 -0.152357 1537 1.024071 0.037084 0.070639
-3.409629 -2.925773 -0.150978 1539 1.024284 0.037416 0.090481
-3.410002 -2.926085 -0.149605 1543 1.018919 0.032926 0.110236
-3.410488 -2.926495 -0.148243 1537 1.011927 0.027025 0.129833
-3.411178 -2.927083 -0.146888 1539 1.001996 0.018566 0.149330
-3.411277 -2.927160 -0.145519 1543 1.000572 0.017458 0.169027
-3.411036 -2.926939 -0.144119 1531 1.004041 0.020638 0.189171
-3.411522 -2.927349 -0.142757 1527 0.997049 0.014737 0.208768
-3.411719 -2.927511 -0.141386 1525 0.994212 0.012408 0.228495
-3.411585 -2.927397 -0.139997 1519 0.996140 0.014048 0.248481
-3.412113 -2.927836 -0.138633 1525 0.988545 0.007732 0.268107
-3.412599 -2.928246 -0.137272 1529 0.981550 0.001832 0.287689
-3.412796 -2.928409 -0.135900 1523 0.978717 -0.000515 0.307430
-3.413549 -2.929047 -0.134546 1517 0.967883 -0.009695 0.326912
-3.414191 -2.929585 -0.133182 1509 0.958645 -0.017434 0.346538
-3.414620 -2.929953 -0.131820 1503 0.952474 -0.022730 0.366135
-3.414753 -2.930065 -0.130439 1487 0.950559 -0.024339 0.386006
-3.415232 -2.930469 -0.129076 1491 0.943668 -0.030154 0.405617
-3.415542 -2.930716 -0.127704 1481 0.939208 -0.033708 0.425358
-3.415739 -2.930878 -0.126323 1469 0.936371 -0.036037 0.445229
-3.416718 -2.931715 -0.124979 1465 0.922285 -0.048082 0.464567
-3.417860 -2.932687 -0.123632 1463 0.905853 -0.062068 0.483948
-3.418332 -2.933083 -0.122259 1447 0.899061 -0.067766 0.503704
-3.419191 -2.933813 -0.120905 1437 0.886704 -0.078270 0.523186
-3.420727 -2.935126 -0.119575 1433 0.864602 -0.097162 0.542322
-3.421975 -2.936190 -0.118229 1429 0.846647 -0.112468 0.561689
-3.422891 -2.936977 -0.116874 1421 0.833467 -0.123792 0.581186
-3.423582 -2.937551 -0.115511 1393 0.823522 -0.132053 0.600797
-3.424392 -2.938246 -0.114145 1363 0.811868 -0.142053 0.620452
-3.425914 -2.939544 -0.112808 1343 0.789968 -0.160728 0.639689
-3.427662 -2.941041 -0.111467 1331 0.764819 -0.182268 0.658984
-3.429361 -2.942488 -0.110138 1309 0.740370 -0.203088 0.678107
-3.430601 -2.943545 -0.108782 1277 0.722532 -0.218299 0.697617
-3.431743 -2.944517 -0.107425 1233 0.706100 -0.232281 0.717143
-3.433547 -2.946056 -0.106085 1185 0.680141 -0.254425 0.736423
-3.435844 -2.948022 -0.104763 1141 0.647092 -0.282713 0.755445
-3.438925 -2.950648 -0.103454 1083 0.602760 -0.320500 0.774279
-3.435626 -2.946527 -0.213293 1177 0.650227 -0.261204 -0.806138
-3.433073 -2.944330 -0.211748 1213 0.686961 -0.229592 -0.783908
-3.430845 -2.942418 -0.210220 1249 0.719019 -0.202083 -0.761922
-3.429124 -2.940933 -0.208730 1271 0.743780 -0.180714 -0.740483
-3.427290 -2.939347 -0.207229 1293 0.770171 -0.157895 -0.718886
-3.425830 -2.938096 -0.205759 1315 0.791179 -0.139895 -0.697735
-3.424779 -2.937185 -0.204313 1343 0.806301 -0.126787 -0.676929
-3.423609 -2.936169 -0.202850 1361 0.823134 -0.112167 -0.655879
-3.422268 -2.935010 -0.201387 1377 0.842431 -0.095491 -0.634829
-3.421429 -2.934284 -0.199953 1397 0.854502 -0.085045 -0.614196
-3.420645 -2.933615 -0.198526 1411 0.865782 -0.075419 -0.593663
-3.419580 -2.932690 -0.197082 1433 0.881106 -0.062109 -0.572886
-3.418353 -2.931631 -0.195629 1445 0.898759 -0.046874 -0.551980
-3.417739 -2.931089 -0.194202 1453 0.907596 -0.039073 -0.531447
-3.417287 -2.930698 -0.192796 1463 0.914097 -0.033447 -0.511217
-3.416384 -2.929922 -0.191360 1467 0.927092 -0.022284 -0.490555
-3.415883 -2.929481 -0.189953 1477 0.934299 -0.015938 -0.470311
-3.415149 -2.928847 -0.188528 1485 0.944861 -0.006816 -0.449807
-3.414084 -2.927923 -0.187093 1493 0.960185 0.006480 -0.429160
-3.413357 -2.927297 -0.185667 1497 0.970645 0.015485 -0.408642
-3.412955 -2.926940 -0.184259 1501 0.976429 0.020624 -0.388383
-3.412997 -2.926974 -0.182880 1509 0.975825 0.020134 -0.368541
-3.412820 -2.926817 -0.181490 1515 0.978370 0.022394 -0.348541
-3.412424 -2.926467 -0.180093 1519 0.984068 0.027430 -0.328440
-3.412022 -2.926111 -0.178686 1523 0.989852 0.032552 -0.308195
-3.411676 -2.925812 -0.177288 1527 0.994833 0.036854 -0.288080
-3.411274 -2.925456 -0.175880 1523 1.000617 0.041975 -0.267821
-3.410928 -2.925156 -0.174482 1529 1.005595 0.046291 -0.247706
-3.410751 -2.924998 -0.173092 1537 1.008140 0.048565 -0.227706
-3.410292 -2.924599 -0.171695 1531 1.014747 0.054308 -0.207606
-3.409996 -2.924335 -0.170297 1541 1.019004 0.058106 -0.187490
-3.409769 -2.924128 -0.168897 1541 1.022270 0.061083 -0.167347
-3.409310 -2.923729 -0.167501 1539 1.028874 0.066826 -0.147260
-3.408231 -2.922805 -0.166067 1531 1.044400 0.080119 -0.126627
-3.408555 -2.923066 -0.164705 1533 1.039738 0.076366 -0.107030
-3.410035 -2.924336 -0.163387 1547 1.018445 0.058092 -0.088066
-3.410521 -2.924747 -0.162033 1559 1.011451 0.052178 -0.068584
-3.409943 -2.924242 -0.160627 1557 1.019766 0.059443 -0.048354
-3.409483 -2.923842 -0.159219 1551 1.026387 0.065200 -0.028095
-3.409081 -2.923486 -0.157821 1547 1.032171 0.070321 -0.007980
-3.408841 -2.923279 -0.156433 1545 1.035625 0.073299 0.011991
-3.409108 -2.923498 -0.155061 1543 1.031783 0.070150 0.031732
-3.409199 -2.923568 -0.153681 1535 1.030473 0.069141 0.051589
-3.409509 -2.923829 -0.152319 1541 1.026013 0.065385 0.071186
-3.410108 -2.924325 -0.150957 1547 1.017392 0.058250 0.090783
-3.410636 -2.924778 -0.149603 1545 1.009797 0.051732 0.110265
-3.410840 -2.924948 -0.148231 1547 1.006860 0.049286 0.130006
-3.410438 -2.924591 -0.146835 1541 1.012644 0.054421 0.150092
-3.409915 -2.924143 -0.145427 1533 1.020171 0.060867 0.170351
-3.410458 -2.924596 -0.144064 1533 1.012356 0.054349 0.189963
-3.411380 -2.925376 -0.142729 1535 0.999090 0.043128 0.209171
-3.411683 -2.925630 -0.141357 1533 0.994730 0.039471 0.228912
-3.411944 -2.925842 -0.139986 1527 0.990977 0.036421 0.248639
-3.412303 -2.926153 -0.138614 1529 0.985811 0.031948 0.268380
-3.412901 -2.926649 -0.137260 1531 0.977207 0.024809 0.287862
-3.413211 -2.926911 -0.135889 1525 0.972744 0.021039 0.307589
-3.414183 -2.927741 -0.134544 1521 0.958762 0.009098 0.326941
-3.415001 -2.928428 -0.133190 1513 0.946992 -0.000786 0.346423
-3.415205 -2.928597 -0.131807 1503 0.944055 -0.003218 0.366322
-3.415281 -2.928667 -0.130428 1499 0.942961 -0.004226 0.386164
-3.415648 -2.928971 -0.129066 1499 0.937681 -0.008600 0.405761
-3.415626 -2.928941 -0.127676 1485 0.937997 -0.008168 0.425761
-3.415766 -2.929061 -0.126304 1473 0.935983 -0.009894 0.445502
-3.417021 -2.930118 -0.124958 1469 0.917925 -0.025104 0.464869
-3.418050 -2.931004 -0.123613 1467 0.903119 -0.037852 0.484222
-3.418521 -2.931401 -0.122240 1453 0.896344 -0.043564 0.503977
-3.419501 -2.932224 -0.120895 1447 0.882241 -0.055406 0.523330
-3.420924 -2.933436 -0.119556 1447 0.861768 -0.072843 0.542596
-3.421833 -2.934216 -0.118202 1433 0.848688 -0.084067 0.562078
-3.422757 -2.934997 -0.116846 1419 0.835395 -0.095306 0.581589
-3.424222 -2.936252 -0.115509 1405 0.814314 -0.113364 0.600826
-3.424976 -2.936890 -0.114143 1377 0.803464 -0.122540 0.620481
-3.425779 -2.937563 -0.112779 1353 0.791910 -0.132225 0.640107
-3.427471 -2.939018 -0.111440 1343 0.767567 -0.153161 0.659373
-3.429163 -2.940458 -0.110111 1329 0.743221 -0.173881 0.678495
-3.430748 -2.941806 -0.108762 1293 0.720415 -0.193277 0.697905
-3.431827 -2.942728 -0.107406 1253 0.704889 -0.206543 0.717416
-3.433800 -2.944409 -0.106075 1215 0.676502 -0.230727 0.736567
-3.436436 -2.946659 -0.104761 1177 0.638574 -0.263104 0.755474
-3.438459 -2.948391 -0.103430 1129 0.609466 -0.288023 0.774625
-3.438142 -2.946968 -0.214790 1147 0.614026 -0.267550 -0.827678
-3.435145 -2.944396 -0.213217 1193 0.657150 -0.230542 -0.805045
-3.432205 -2.941866 -0.211652 1231 0.699452 -0.194138 -0.782526
-3.430089 -2.940053 -0.210134 1263 0.729897 -0.168053 -0.760685
-3.428806 -2.938937 -0.208671 1285 0.748356 -0.151994 -0.739634
-3.427247 -2.937600 -0.207191 1309 0.770788 -0.132756 -0.718340
-3.425695 -2.936256 -0.205709 1329 0.793121 -0.113419 -0.697016
-3.424855 -2.935531 -0.204273 1353 0.805206 -0.102987 -0.676354
-3.423846 -2.934663 -0.202829 1375 0.819724 -0.090500 -0.655577
-3.422394 -2.933405 -0.201357 1389 0.840616 -0.072397 -0.634397
-3.421554 -2.932679 -0.199922 1411 0.852701 -0.061951 -0.613749
-3.420545 -2.931811 -0.198478 1429 0.867219 -0.049464 -0.592973
-3.419318 -2.930751 -0.197025 1443 0.884876 -0.034212 -0.572066
-3.418697 -2.930217 -0.195608 1453 0.893809 -0.026528 -0.551678
-3.418083 -2.929677 -0.194181 1463 0.902646 -0.018758 -0.531145
-3.417462 -2.929142 -0.192764 1473 0.911579 -0.011060 -0.510757
-3.416623 -2.928417 -0.191339 1473 0.923651 -0.000628 -0.490253
-3.415783 -2.927691 -0.189905 1479 0.935740 0.009818 -0.469620
-3.415494 -2.927434 -0.188507 1497 0.939897 0.013516 -0.449505
-3.414880 -2.926893 -0.187090 1505 0.948731 0.021300 -0.429116
-3.414195 -2.926309 -0.185672 1509 0.958587 0.029701 -0.408714
-3.413906 -2.926052 -0.184274 1515 0.962745 0.033399 -0.388599
-3.413785 -2.925938 -0.182886 1515 0.964487 0.035042 -0.368627
-3.413115 -2.925354 -0.181469 1517 0.974127 0.043444 -0.348239
-3.412381 -2.924720 -0.180053 1525 0.984689 0.052565 -0.327865
-3.411810 -2.924222 -0.178636 1529 0.992905 0.059732 -0.307476
-3.411294 -2.923780 -0.177229 1521 1.000329 0.066092 -0.287232
-3.410892 -2.923424 -0.175832 1519 1.006113 0.071213 -0.267131
-3.410884 -2.923409 -0.174452 1531 1.006229 0.071430 -0.247275
-3.410813 -2.923344 -0.173063 1535 1.007248 0.072366 -0.227289
-3.410361 -2.922952 -0.171655 1533 1.013752 0.078006 -0.207030
-3.409952 -2.922588 -0.170257 1541 1.019639 0.083241 -0.186915
-3.409556 -2.922239 -0.168859 1543 1.025337 0.088263 -0.166800
-3.409429 -2.922131 -0.167471 1547 1.027162 0.089817 -0.146829
-3.409351 -2.922059 -0.166090 1545 1.028284 0.090853 -0.126958
-3.409851 -2.922469 -0.164728 1545 1.021090 0.084956 -0.107361
-3.410379 -2.922923 -0.163376 1549 1.013495 0.078421 -0.087908
-3.410026 -2.922617 -0.161977 1563 1.018572 0.082826 -0.067778
-3.410181 -2.922736 -0.160597 1555 1.016342 0.081114 -0.047922
-3.410392 -2.922912 -0.159225 1553 1.013306 0.078582 -0.028181
-3.409757 -2.922364 -0.157818 1545 1.022445 0.086465 -0.007937
-3.409629 -2.922242 -0.156429 1541 1.024284 0.088222 0.012049
-3.409784 -2.922362 -0.155058 1545 1.022054 0.086493 0.031776
-3.409593 -2.922204 -0.153669 1543 1.024802 0.088767 0.051761
-3.409578 -2.922182 -0.152290 1553 1.025018 0.089083 0.071603
-3.409669 -2.922251 -0.150909 1551 1.023711 0.088091 0.091473
-3.409930 -2.922463 -0.149547 1543 1.019955 0.085042 0.111071
-3.410134 -2.922632 -0.148166 1537 1.017018 0.082609 0.130941
-3.409724 -2.922269 -0.146768 1535 1.022919 0.087831 0.151056
-3.409646 -2.922197 -0.145389 1539 1.024040 0.088867 0.170898
-3.410301 -2.922750 -0.144035 1539 1.014617 0.080911 0.190380
-3.410773 -2.923146 -0.142673 1533 1.007825 0.075213 0.209977
-3.411477 -2.923748 -0.141319 1535 0.997694 0.066551 0.229459
-3.412126 -2.924294 -0.139965 1537 0.988357 0.058696 0.248941
-3.412492 -2.924598 -0.138593 1531 0.983091 0.054322 0.268682
-3.412583 -2.924668 -0.137222 1531 0.981780 0.053313 0.288409
-3.412660 -2.924738 -0.135843 1519 0.980676 0.052308 0.308251
-3.413202 -2.925191 -0.134479 1511 0.972875 0.045790 0.327876
-3.414287 -2.926120 -0.133133 1517 0.957263 0.032421 0.347243
-3.415097 -2.926800 -0.131778 1513 0.945609 0.022638 0.366740
-3.415520 -2.927161 -0.130417 1513 0.939524 0.017444 0.386322
-3.415830 -2.927409 -0.129045 1505 0.935064 0.013876 0.406063
-3.416076 -2.927621 -0.127674 1487 0.931524 0.010827 0.425790
-3.417062 -2.928450 -0.126318 1487 0.917335 -0.001105 0.445301
-3.417866 -2.929138 -0.124963 1485 0.905768 -0.011002 0.464797
-3.418725 -2.929868 -0.123609 1477 0.893408 -0.021506 0.484279
-3.419091 -2.930172 -0.122236 1463 0.888142 -0.025880 0.504035
-3.419627 -2.930619 -0.120874 1457 0.880430 -0.032312 0.523632
-3.420712 -2.931548 -0.119528 1445 0.864818 -0.045680 0.542999
-3.421564 -2.932271 -0.118173 1435 0.852557 -0.056082 0.562495
-3.423101 -2.933583 -0.116834 1423 0.830445 -0.074959 0.581761
-3.424405 -2.934690 -0.115488 1411 0.811680 -0.090887 0.601128
-3.425045 -2.935228 -0.114124 1389 0.802472 -0.098630 0.620754
-3.426349 -2.936349 -0.112776 1371 0.783711 -0.114757 0.640150
-3.428041 -2.937789 -0.111437 1355 0.759365 -0.135477 0.659416
-3.429070 -2.938661 -0.110080 1331 0.744559 -0.148025 0.678941
-3.430099 -2.939534 -0.108726 1307 0.729753 -0.160584 0.698423
-3.432290 -2.941407 -0.107404 1275 0.698227 -0.187534 0.717445
-3.434314 -2.943124 -0.106073 1235 0.669105 -0.212241 0.736596
-3.435843 -2.944430 -0.104725 1203 0.647106 -0.231033 0.755991
-3.437866 -2.946161 -0.103393 1159 0.617998 -0.255938 0.775157
-3.440051 -2.948028 -0.102060 1095 0.586558 -0.282802 0.794337
-3.439587 -2.946544 -0.216222 1119 0.593233 -0.261447 -0.848282
-3.436477 -2.943871 -0.214639 1171 0.637984 -0.222988 -0.825505
-3.433981 -2.941718 -0.213102 1213 0.673898 -0.192011 -0.803390
-3.431752 -2.939806 -0.211576 1253 0.705969 -0.164499 -0.781433
-3.430250 -2.938512 -0.210094 1281 0.727581 -0.145881 -0.760109
-3.428797 -2.937268 -0.208622 1311 0.748487 -0.127981 -0.738929
-3.426794 -2.935540 -0.207113 1333 0.777306 -0.103117 -0.717217
-3.425398 -2.934339 -0.205650 1343 0.797392 -0.085838 -0.696167
-3.424340 -2.933422 -0.204197 1363 0.812616 -0.072644 -0.675260
-3.423225 -2.932461 -0.202753 1385 0.828661 -0.058816 -0.654483
-3.422223 -2.931601 -0.201309 1401 0.843076 -0.046442 -0.633706
-3.420714 -2.930299 -0.199836 1419 0.864790 -0.027708 -0.612512
-3.419649 -2.929375 -0.198393 1433 0.880114 -0.014411 -0.591750
-3.419204 -2.928990 -0.196975 1445 0.886516 -0.008871 -0.571347
-3.418696 -2.928542 -0.195568 1455 0.893826 -0.002425 -0.551102
-3.418131 -2.928050 -0.194151 1467 0.901953 0.004652 -0.530714
-3.417454 -2.927473 -0.192726 1479 0.911695 0.012954 -0.510210
-3.416332 -2.926506 -0.191282 1481 0.927839 0.026868 -0.489433
-3.415486 -2.925773 -0.189855 1479 0.940011 0.037416 -0.468901
-3.415097 -2.925431 -0.188448 1495 0.945609 0.042336 -0.448656
-3.414864 -2.925217 -0.187050 1507 0.948961 0.045416 -0.428541
-3.414518 -2.924917 -0.185651 1509 0.953938 0.049732 -0.408411
-3.414398 -2.924803 -0.184263 1521 0.955667 0.051371 -0.388440
-3.414270 -2.924695 -0.182872 1523 0.957510 0.052925 -0.368426
-3.413819 -2.924303 -0.181465 1525 0.963997 0.058565 -0.348181
-3.412972 -2.923570 -0.180040 1531 0.976185 0.069114 -0.327678
-3.412246 -2.922930 -0.178625 1529 0.986631 0.078321 -0.307318
-3.411949 -2.922679 -0.177225 1537 0.990905 0.081934 -0.287174
-3.411546 -2.922323 -0.175829 1533 0.996703 0.087055 -0.267088
-3.411595 -2.922350 -0.174448 1539 0.995996 0.086668 -0.247217
-3.411305 -2.922108 -0.173050 1541 1.000171 0.090150 -0.227102
-3.410854 -2.921702 -0.171652 1545 1.006658 0.095992 -0.206987
-3.410339 -2.921260 -0.170244 1551 1.014068 0.102348 -0.186728
-3.410042 -2.920996 -0.168846 1547 1.018342 0.106149 -0.166613
-3.409971 -2.920931 -0.167467 1553 1.019365 0.107083 -0.146771
-3.409843 -2.920809 -0.166078 1555 1.021207 0.108839 -0.126786
-3.410104 -2.921035 -0.164707 1557 1.017450 0.105587 -0.107059
-3.410258 -2.921154 -0.163336 1567 1.015234 0.103875 -0.087332
-3.410131 -2.921033 -0.161947 1569 1.017063 0.105618 -0.067347
-3.410342 -2.921209 -0.160576 1563 1.014027 0.103083 -0.047620
-3.410659 -2.921478 -0.159214 1555 1.009464 0.099213 -0.028023
-3.410192 -2.921072 -0.157806 1545 1.016185 0.105055 -0.007764
-3.409903 -2.920815 -0.156418 1537 1.020342 0.108753 0.012207
-3.410205 -2.921069 -0.155046 1543 1.015999 0.105100 0.031948
-3.410578 -2.921381 -0.153684 1555 1.010631 0.100609 0.051545
-3.410677 -2.921457 -0.152303 1565 1.009207 0.099515 0.071416
-3.410380 -2.921193 -0.150915 1567 1.013481 0.103316 0.091387
-3.409809 -2.920695 -0.149507 1557 1.021694 0.110479 0.111646
-3.409674 -2.920580 -0.148119 1547 1.023639 0.112136 0.131617
-3.410104 -2.920934 -0.146757 1555 1.017450 0.107041 0.151214
-3.410414 -2.921196 -0.145395 1557 1.012991 0.103271 0.170812
-3.410335 -2.921123 -0.144005 1539 1.014126 0.104321 0.190812
-3.410652 -2.921392 -0.142643 1535 1.009567 0.100451 0.210409
-3.411462 -2.922072 -0.141288 1533 0.997910 0.090668 0.229905
-3.412555 -2.922994 -0.139953 1539 0.982185 0.077402 0.249114
-3.413195 -2.923547 -0.138599 1535 0.972978 0.069443 0.268596
-3.413568 -2.923858 -0.137228 1539 0.967609 0.064970 0.288322
-3.413822 -2.924063 -0.135856 1527 0.963955 0.062020 0.308063
-3.413638 -2.923898 -0.134468 1519 0.966600 0.064394 0.328035
-3.413722 -2.923961 -0.133087 1521 0.965393 0.063488 0.347905
-3.414638 -2.924748 -0.131742 1517 0.952213 0.052164 0.367258
-3.415674 -2.925627 -0.130396 1521 0.937307 0.039516 0.386625
-3.416484 -2.926308 -0.129041 1509 0.925651 0.029718 0.406121
-3.416738 -2.926513 -0.127670 1495 0.921997 0.026768 0.425848
-3.416878 -2.926632 -0.126289 1495 0.919984 0.025056 0.445718
-3.417744 -2.927369 -0.124944 1493 0.907524 0.014449 0.465071
-3.418280 -2.927816 -0.123571 1479 0.899812 0.008020 0.484826
-3.418413 -2.927928 -0.122200 1471 0.897898 0.006408 0.504553
-3.418998 -2.928424 -0.120826 1459 0.889480 -0.000727 0.524322
-3.420196 -2.929438 -0.119491 1449 0.872241 -0.015321 0.543531
-3.421887 -2.930879 -0.118162 1451 0.847913 -0.036054 0.562653
-3.422973 -2.931808 -0.116806 1441 0.832287 -0.049420 0.582164
-3.423508 -2.932254 -0.115442 1419 0.824589 -0.055838 0.601790
-3.424649 -2.933225 -0.114086 1399 0.808170 -0.069807 0.621301
-3.426397 -2.934708 -0.112756 1381 0.783018 -0.091148 0.640438
-3.428145 -2.936205 -0.111427 1361 0.757869 -0.112685 0.659560
-3.428674 -2.936645 -0.110054 1339 0.750257 -0.119017 0.679315
-3.429646 -2.937474 -0.108698 1323 0.736271 -0.130945 0.698826
-3.431894 -2.939390 -0.107376 1299 0.703925 -0.158512 0.717848
-3.433642 -2.940887 -0.106037 1265 0.678776 -0.180052 0.737114
-3.435285 -2.942278 -0.104686 1229 0.655133 -0.200066 0.756553
-3.437413 -2.944102 -0.103365 1185 0.624516 -0.226312 0.775560
-3.439492 -2.945875 -0.102024 1133 0.594602 -0.251821 0.794855
-3.441910 -2.947934 -0.100700 1071 0.559810 -0.281447 0.813905
-3.444821 -2.950418 -0.099384 957 0.517927 -0.317189 0.832840
-3.443453 -2.949245 -0.097952 657 0.537608 -0.300311 0.853445
-3.438909 -2.944186 -0.216137 1145 0.602990 -0.227520 -0.847059
-3.435961 -2.941649 -0.214563 1193 0.645408 -0.191016 -0.824411
-3.434241 -2.940163 -0.213072 1241 0.670155 -0.169634 -0.802958
-3.432132 -2.938358 -0.211553 1279 0.700501 -0.143665 -0.781102
-3.429903 -2.936445 -0.210037 1303 0.732573 -0.116139 -0.759289
-3.428451 -2.935187 -0.208555 1327 0.753464 -0.098040 -0.737965
-3.426786 -2.933758 -0.207073 1337 0.777423 -0.077477 -0.716642
-3.425559 -2.932699 -0.205610 1357 0.795076 -0.062239 -0.695591
-3.423993 -2.931355 -0.204139 1375 0.817608 -0.042902 -0.674426
-3.422822 -2.930338 -0.202686 1399 0.834458 -0.028267 -0.653519
-3.422208 -2.929811 -0.201259 1419 0.843292 -0.020686 -0.632987
-3.421531 -2.929221 -0.199833 1433 0.853034 -0.012195 -0.612469
-3.420466 -2.928310 -0.198389 1447 0.868358 0.000913 -0.591692
-3.419189 -2.927201 -0.196935 1449 0.886732 0.016868 -0.570771
-3.418230 -2.926383 -0.195501 1453 0.900529 0.028638 -0.550138
-3.418067 -2.926225 -0.194103 1471 0.902876 0.030912 -0.530023
-3.417883 -2.926060 -0.192713 1483 0.905524 0.033286 -0.510023
-3.416987 -2.925292 -0.191278 1489 0.918416 0.044336 -0.489375
-3.415866 -2.924325 -0.189834 1489 0.934546 0.058250 -0.468598
-3.415019 -2.923592 -0.188410 1499 0.946731 0.068795 -0.448109
-3.414405 -2.923065 -0.186992 1501 0.955564 0.076380 -0.427706
-3.414341 -2.922993 -0.185604 1507 0.956487 0.077416 -0.407735
-3.414270 -2.922928 -0.184213 1517 0.957510 0.078349 -0.387721
-3.413649 -2.922394 -0.182808 1521 0.966443 0.086033 -0.367505
-3.413028 -2.921860 -0.181390 1525 0.975379 0.093717 -0.347102
-3.412576 -2.921454 -0.179983 1523 0.981883 0.099559 -0.326858
-3.412618 -2.921488 -0.178602 1519 0.981279 0.099069 -0.306987
-3.412441 -2.921331 -0.177213 1533 0.983825 0.101330 -0.287001
-3.411870 -2.920832 -0.175808 1533 0.992041 0.108510 -0.266785
-3.411474 -2.920483 -0.174400 1537 0.997739 0.113528 -0.246527
-3.410959 -2.920041 -0.173002 1543 1.005149 0.119889 -0.226411
-3.410719 -2.919820 -0.171604 1557 1.008603 0.123069 -0.206296
-3.410373 -2.919520 -0.170206 1557 1.013581 0.127388 -0.186181
-3.409914 -2.919122 -0.168808 1547 1.020185 0.133113 -0.166066
-3.410061 -2.919248 -0.167436 1557 1.018071 0.131298 -0.146325
-3.410329 -2.919467 -0.166065 1561 1.014212 0.128149 -0.126599
-3.410201 -2.919345 -0.164676 1561 1.016054 0.129906 -0.106613
-3.410130 -2.919280 -0.163297 1573 1.017076 0.130839 -0.086771
-3.409946 -2.919115 -0.161907 1567 1.019725 0.133213 -0.066771
-3.409488 -2.918717 -0.160501 1559 1.026315 0.138941 -0.046541
-3.409360 -2.918594 -0.159120 1551 1.028157 0.140712 -0.026670
-3.409395 -2.918622 -0.157741 1537 1.027653 0.140307 -0.006829
-3.409712 -2.918890 -0.156379 1541 1.023090 0.136451 0.012768
-3.410360 -2.919436 -0.155025 1557 1.013766 0.128595 0.032250
-3.410564 -2.919605 -0.153654 1555 1.010833 0.126163 0.051977
-3.410605 -2.919625 -0.152275 1567 1.010243 0.125875 0.071819
-3.410810 -2.919795 -0.150903 1569 1.007293 0.123429 0.091560
-3.410738 -2.919729 -0.149513 1557 1.008329 0.124379 0.111560
-3.410942 -2.919899 -0.148142 1561 1.005392 0.121933 0.131287
-3.411802 -2.920629 -0.146797 1569 0.993019 0.111429 0.150639
-3.411731 -2.920563 -0.145418 1559 0.994041 0.112379 0.170481
-3.411152 -2.920058 -0.144012 1549 1.002373 0.119645 0.190711
-3.412019 -2.920795 -0.142666 1551 0.989897 0.109041 0.210078
-3.413118 -2.921725 -0.141330 1557 0.974086 0.095659 0.229301
-3.413484 -2.922029 -0.139959 1553 0.968816 0.091285 0.249028
-3.413519 -2.922056 -0.138578 1547 0.968316 0.090898 0.268898
-3.413553 -2.922069 -0.137197 1545 0.967825 0.090709 0.288768
-3.414088 -2.922529 -0.135845 1533 0.960127 0.084091 0.308222
-3.414511 -2.922876 -0.134474 1525 0.954041 0.079100 0.327948
-3.414539 -2.922896 -0.133093 1523 0.953637 0.078812 0.347819
-3.415405 -2.923634 -0.131748 1527 0.941177 0.068191 0.367171
-3.415990 -2.924129 -0.130384 1525 0.932759 0.061069 0.386797
-3.416138 -2.924242 -0.129003 1511 0.930632 0.059443 0.406668
-3.416835 -2.924837 -0.127649 1499 0.920601 0.050881 0.426150
-3.417258 -2.925184 -0.126278 1499 0.914515 0.045890 0.445876
-3.417892 -2.925730 -0.124923 1499 0.905394 0.038034 0.465373
-3.418645 -2.926367 -0.123560 1483 0.894560 0.028868 0.484984
-3.418955 -2.926615 -0.122188 1473 0.890097 0.025300 0.504725
-3.418983 -2.926635 -0.120807 1457 0.889696 0.025012 0.524596
-3.419680 -2.927230 -0.119444 1445 0.879665 0.016453 0.544207
-3.421217 -2.928529 -0.118116 1445 0.857552 -0.002240 0.563315
-3.422133 -2.929315 -0.116760 1433 0.844372 -0.013550 0.582826
-3.422555 -2.929662 -0.115389 1419 0.838300 -0.018542 0.602553
-3.423802 -2.930726 -0.114042 1403 0.820359 -0.033852 0.621934
-3.425832 -2.932450 -0.112720 1385 0.791148 -0.058658 0.640956
-3.427580 -2.933948 -0.111391 1367 0.765996 -0.080212 0.660078
-3.428828 -2.935011 -0.110033 1353 0.748041 -0.095505 0.679617
-3.429962 -2.935976 -0.108688 1341 0.731726 -0.109391 0.698970
-3.430991 -2.936848 -0.107322 1319 0.716920 -0.121937 0.718625
-3.432633 -2.938239 -0.105982 1285 0.693294 -0.141953 0.737905
-3.434268 -2.939637 -0.104643 1245 0.669768 -0.162066 0.757171
-3.435960 -2.941077 -0.103304 1201 0.645421 -0.182786 0.776438
-3.438378 -2.943135 -0.101980 1151 0.610629 -0.212398 0.795488
-3.441514 -2.945818 -0.100673 1111 0.565508 -0.251002 0.814294
-3.443925 -2.947869 -0.099340 1023 0.530819 -0.280514 0.833474
-3.444785 -2.948599 -0.097974 821 0.518442 -0.291018 0.853128
-3.438718 -2.942163 -0.216078 1181 0.605738 -0.198412 -0.846210
-3.435890 -2.939732 -0.214513 1223 0.646430 -0.163435 -0.823692
-3.433598 -2.937770 -0.212988 1261 0.679407 -0.135202 -0.801750
-3.431489 -2.935951 -0.211469 1297 0.709753 -0.109031 -0.779893
-3.429035 -2.933854 -0.209932 1321 0.745063 -0.078860 -0.757778
-3.427484 -2.932510 -0.208450 1337 0.767379 -0.059519 -0.736455
-3.426975 -2.932076 -0.207033 1357 0.774703 -0.053275 -0.716066
-3.425911 -2.931151 -0.205589 1373 0.790013 -0.039965 -0.695289
-3.425022 -2.930390 -0.204145 1391 0.802805 -0.029015 -0.674512
-3.424069 -2.929565 -0.202711 1417 0.816517 -0.017146 -0.653879
-3.422560 -2.928264 -0.201238 1431 0.838228 0.001575 -0.632685
-3.421551 -2.927396 -0.199794 1447 0.852746 0.014062 -0.611908
-3.420775 -2.926720 -0.198368 1467 0.863912 0.023790 -0.591390
-3.419654 -2.925752 -0.196914 1467 0.880042 0.037718 -0.570469
-3.418863 -2.925076 -0.195490 1465 0.891421 0.047444 -0.549980
-3.418475 -2.924734 -0.194082 1477 0.897006 0.052363 -0.529721
-3.418016 -2.924336 -0.192674 1487 0.903610 0.058092 -0.509462
-3.417346 -2.923752 -0.191257 1495 0.913249 0.066493 -0.489073
-3.416887 -2.923353 -0.189850 1495 0.919853 0.072236 -0.468829
-3.416499 -2.923010 -0.188442 1511 0.925438 0.077169 -0.448570
-3.415532 -2.922185 -0.187008 1513 0.939349 0.089042 -0.427936
-3.414806 -2.921559 -0.185592 1511 0.949798 0.098047 -0.407562
-3.414791 -2.921537 -0.184202 1521 0.950011 0.098366 -0.387562
-3.414114 -2.920946 -0.182785 1525 0.959753 0.106870 -0.367174
-3.413218 -2.920177 -0.181360 1529 0.972645 0.117933 -0.346670
-3.412815 -2.919821 -0.179952 1525 0.978442 0.123055 -0.326411
-3.413083 -2.920040 -0.178590 1527 0.974587 0.119906 -0.306814
-3.413181 -2.920117 -0.177211 1541 0.973177 0.118798 -0.286973
-3.412609 -2.919619 -0.175804 1539 0.981406 0.125960 -0.266728
-3.412045 -2.919127 -0.174396 1547 0.989523 0.133041 -0.246469
-3.411466 -2.918636 -0.172981 1555 0.997856 0.140104 -0.226109
-3.411628 -2.918762 -0.171610 1565 0.995523 0.138293 -0.206383
-3.411387 -2.918555 -0.170221 1555 0.998991 0.141271 -0.186397
-3.410774 -2.918015 -0.168813 1549 1.007811 0.149041 -0.166138
-3.410582 -2.917843 -0.167425 1551 1.010572 0.151514 -0.146167
-3.410518 -2.917785 -0.166036 1559 1.011495 0.152351 -0.126181
-3.410102 -2.917428 -0.164638 1557 1.017481 0.157487 -0.106066
-3.410433 -2.917697 -0.163276 1571 1.012716 0.153617 -0.086469
-3.410855 -2.918058 -0.161915 1575 1.006644 0.148423 -0.066886
-3.410283 -2.917559 -0.160507 1567 1.014874 0.155603 -0.046627
-3.409606 -2.916969 -0.159101 1561 1.024617 0.164090 -0.026397
-3.409310 -2.916705 -0.157703 1547 1.028874 0.167891 -0.006282
-3.409450 -2.916824 -0.156332 1555 1.026860 0.166176 0.013445
-3.410162 -2.917420 -0.154978 1567 1.016617 0.157603 0.032927
-3.410584 -2.917781 -0.153616 1561 1.010545 0.152406 0.052524
-3.410626 -2.917801 -0.152244 1557 1.009941 0.152121 0.072265
-3.410491 -2.917686 -0.150856 1559 1.011883 0.153775 0.092236
-3.410526 -2.917713 -0.149475 1555 1.011379 0.153387 0.112107
-3.411294 -2.918351 -0.148132 1563 1.000329 0.144207 0.131430
-3.412160 -2.919088 -0.146787 1571 0.987869 0.133604 0.150783
-3.412308 -2.919215 -0.145406 1561 0.985739 0.131775 0.170653
-3.412456 -2.919327 -0.144035 1549 0.983609 0.130163 0.190380
-3.412934 -2.919731 -0.142673 1553 0.976731 0.124352 0.209977
-3.413025 -2.919801 -0.141292 1559 0.975424 0.123343 0.229848
-3.413335 -2.920062 -0.139930 1561 0.970961 0.119587 0.249445
-3.413645 -2.920324 -0.138559 1555 0.966501 0.115817 0.269171
-3.413792 -2.920436 -0.137178 1549 0.964388 0.114208 0.289042
-3.414271 -2.920840 -0.135814 1537 0.957492 0.108393 0.308668
-3.414807 -2.921286 -0.134462 1531 0.949781 0.101975 0.328121
-3.415229 -2.921647 -0.133091 1535 0.943709 0.096781 0.347848
-3.415757 -2.922086 -0.131727 1543 0.936114 0.090465 0.367474
-3.416067 -2.922347 -0.130356 1533 0.931654 0.086709 0.387200
-3.416158 -2.922417 -0.128984 1515 0.930344 0.085704 0.406941
-3.416806 -2.922963 -0.127620 1507 0.921020 0.077848 0.426567
-3.417278 -2.923359 -0.126259 1509 0.914227 0.072150 0.446150
-3.417863 -2.923855 -0.124895 1501 0.905812 0.065011 0.465776
-3.418892 -2.924728 -0.123550 1485 0.891006 0.052452 0.485128
-3.419589 -2.925323 -0.122186 1481 0.880976 0.043890 0.504754
-3.419729 -2.925428 -0.120805 1471 0.878962 0.042380 0.524625
-3.419990 -2.925640 -0.119434 1459 0.875205 0.039327 0.544351
-3.420793 -2.926328 -0.118080 1453 0.863652 0.029430 0.563833
-3.421822 -2.927200 -0.116724 1443 0.848846 0.016881 0.583344
-3.423125 -2.928306 -0.115387 1431 0.830098 0.000967 0.602581
-3.424380 -2.929378 -0.114040 1413 0.812040 -0.014456 0.621963
-3.425514 -2.930342 -0.112694 1403 0.795725 -0.028325 0.641330
-3.426938 -2.931541 -0.111345 1391 0.775234 -0.045577 0.660740
-3.428742 -2.933081 -0.110016 1373 0.749279 -0.067735 0.679862
-3.430377 -2.934478 -0.108677 1359 0.725753 -0.087838 0.699128
-3.431188 -2.935159 -0.107311 1331 0.714083 -0.097635 0.718783
-3.431765 -2.935647 -0.105938 1293 0.705781 -0.104657 0.738538
-3.433351 -2.936995 -0.104599 1261 0.682961 -0.124053 0.757804
-3.435494 -2.938819 -0.103267 1225 0.652128 -0.150296 0.776970
-3.437961 -2.940927 -0.101944 1191 0.616629 -0.180629 0.796006
-3.440484 -2.943077 -0.100630 1153 0.580328 -0.211565 0.814912
-3.443621 -2.945746 -0.099313 1085 0.535193 -0.249966 0.833862
-3.443619 -2.944546 -0.219112 1081 0.535221 -0.232700 -0.889865
-3.440001 -2.941447 -0.217502 1167 0.587278 -0.188111 -0.866699
-3.437674 -2.939450 -0.215965 1205 0.620760 -0.159377 -0.844584
-3.435058 -2.937204 -0.214411 1235 0.658399 -0.127058 -0.822224
-3.432836 -2.935299 -0.212892 1271 0.690371 -0.099649 -0.800368
-3.431003 -2.933714 -0.211393 1303 0.716745 -0.076843 -0.778800
-3.429549 -2.932470 -0.209921 1321 0.737667 -0.058946 -0.757620
-3.428047 -2.931176 -0.208439 1339 0.759279 -0.040325 -0.736296
-3.426206 -2.929598 -0.206949 1359 0.785766 -0.017622 -0.714857
-3.425480 -2.928971 -0.205513 1377 0.796215 -0.008600 -0.694196
-3.425254 -2.928764 -0.204115 1399 0.799464 -0.005623 -0.674080
-3.424076 -2.927754 -0.202661 1427 0.816414 0.008912 -0.653159
-3.422898 -2.926744 -0.201208 1441 0.833364 0.023444 -0.632253
-3.421889 -2.925876 -0.199762 1453 0.847882 0.035934 -0.611447
-3.420943 -2.925058 -0.198328 1471 0.861494 0.047704 -0.590814
-3.420210 -2.924425 -0.196903 1471 0.872043 0.056812 -0.570311
-3.419370 -2.923699 -0.195476 1465 0.884128 0.067258 -0.549778
-3.418143 -2.922640 -0.194025 1473 0.901781 0.082493 -0.528901
-3.417360 -2.921957 -0.192598 1483 0.913047 0.092321 -0.508368
-3.417063 -2.921707 -0.191200 1493 0.917322 0.095920 -0.488253
-3.416675 -2.921365 -0.189792 1497 0.922903 0.100839 -0.467994
-3.416167 -2.920916 -0.188385 1509 0.930213 0.107299 -0.447749
-3.415545 -2.920382 -0.186968 1517 0.939163 0.114983 -0.427361
-3.415087 -2.919983 -0.185562 1519 0.945753 0.120726 -0.407131
-3.414572 -2.919541 -0.184154 1525 0.953163 0.127086 -0.386872
-3.414070 -2.919100 -0.182747 1527 0.960388 0.133429 -0.366627
-3.413724 -2.918800 -0.181349 1531 0.965365 0.137744 -0.346512
-3.413541 -2.918636 -0.179960 1527 0.967997 0.140104 -0.326526
-3.413702 -2.918762 -0.178579 1539 0.965681 0.138293 -0.306656
-3.413130 -2.918264 -0.177171 1545 0.973911 0.145459 -0.286397
-3.412510 -2.917730 -0.175756 1549 0.982833 0.153140 -0.266037
-3.411881 -2.917189 -0.174349 1557 0.991883 0.160927 -0.245793
-3.411423 -2.916790 -0.172941 1559 0.998473 0.166667 -0.225534
-3.411133 -2.916533 -0.171552 1559 1.002644 0.170365 -0.205548
-3.411119 -2.916511 -0.170173 1557 1.002847 0.170680 -0.185706
-3.411499 -2.916829 -0.168812 1563 0.997379 0.166104 -0.166124
-3.411202 -2.916565 -0.167413 1559 1.001653 0.169905 -0.145994
-3.411025 -2.916407 -0.166023 1561 1.004198 0.172176 -0.125994
-3.411553 -2.916861 -0.164671 1571 0.996603 0.165644 -0.106541
-3.411426 -2.916739 -0.163282 1575 0.998428 0.167401 -0.086555
-3.410636 -2.916063 -0.161865 1571 1.009797 0.177126 -0.066167
-3.410347 -2.915806 -0.160478 1559 1.013955 0.180824 -0.046210
-3.410388 -2.915826 -0.159097 1563 1.013365 0.180536 -0.026339
-3.410035 -2.915519 -0.157699 1565 1.018445 0.184954 -0.006224
-3.410006 -2.915497 -0.156320 1559 1.018860 0.185270 0.013617
-3.410499 -2.915900 -0.154966 1567 1.011766 0.179473 0.033099
-3.410752 -2.916119 -0.153595 1563 1.008126 0.176320 0.052826
-3.410907 -2.916239 -0.152225 1559 1.005897 0.174594 0.072538
-3.411111 -2.916408 -0.150854 1565 1.002960 0.172162 0.092265
-3.411146 -2.916435 -0.149473 1567 1.002459 0.171775 0.112135
-3.411075 -2.916356 -0.148084 1563 1.003478 0.172910 0.132121
-3.411328 -2.916575 -0.146723 1565 0.999838 0.169761 0.151704
-3.412364 -2.917454 -0.145376 1567 0.984933 0.157113 0.171085
-3.413075 -2.918050 -0.144033 1563 0.974703 0.148536 0.190409
-3.412990 -2.917970 -0.142643 1551 0.975924 0.149689 0.210409
-3.413145 -2.918090 -0.141273 1557 0.973695 0.147960 0.230121
-3.413398 -2.918308 -0.139900 1555 0.970055 0.144825 0.249876
-3.413651 -2.918514 -0.138530 1553 0.966415 0.141861 0.269589
-3.413467 -2.918349 -0.137140 1547 0.969063 0.144235 0.289589
-3.414115 -2.918895 -0.135788 1537 0.959739 0.136379 0.309042
-3.415144 -2.919767 -0.134441 1535 0.944933 0.123834 0.328423
-3.415560 -2.920120 -0.133079 1537 0.938947 0.118753 0.348020
-3.416038 -2.920524 -0.131715 1533 0.932069 0.112942 0.367646
-3.416461 -2.920871 -0.130344 1531 0.925983 0.107947 0.387373
-3.416714 -2.921090 -0.128973 1523 0.922344 0.104798 0.407099
-3.417637 -2.921870 -0.127628 1515 0.909061 0.093573 0.426452
-3.418172 -2.922316 -0.126264 1509 0.901366 0.087155 0.446078
-3.418863 -2.922904 -0.124901 1505 0.891421 0.078695 0.465689
-3.419737 -2.923635 -0.123556 1499 0.878845 0.068177 0.485042
-3.420152 -2.923988 -0.122184 1489 0.872876 0.063097 0.504783
-3.420462 -2.924250 -0.120811 1475 0.868417 0.059330 0.524538
-3.421103 -2.924788 -0.119449 1471 0.859192 0.051588 0.544135
-3.421680 -2.925277 -0.118086 1461 0.850890 0.044552 0.563747
-3.422660 -2.926100 -0.116729 1457 0.836787 0.032710 0.583272
-3.423971 -2.927213 -0.115392 1443 0.817927 0.016696 0.602509
-3.424992 -2.928079 -0.114036 1429 0.803234 0.004237 0.622020
-3.426360 -2.929249 -0.112690 1423 0.783553 -0.012600 0.641387
-3.428002 -2.930640 -0.111360 1409 0.759924 -0.032614 0.660524
-3.429306 -2.931746 -0.110014 1393 0.741163 -0.048528 0.679891
-3.429883 -2.932235 -0.108640 1365 0.732861 -0.055564 0.699661
-3.430694 -2.932915 -0.107275 1339 0.721190 -0.065347 0.719301
-3.432216 -2.934214 -0.105938 1311 0.699294 -0.084040 0.738538
-3.433802 -2.935562 -0.104587 1281 0.676474 -0.103432 0.757977
-3.435500 -2.937009 -0.103248 1253 0.652042 -0.124256 0.777243
-3.437805 -2.938968 -0.101927 1215 0.618876 -0.152440 0.796251
-3.440272 -2.941076 -0.100603 1173 0.583378 -0.182773 0.815301
-3.443078 -2.943467 -0.099287 1115 0.543004 -0.217174 0.834236
-3.443766 -2.942919 -0.219072 1127 0.533104 -0.209290 -0.889289
-3.440381 -2.940013 -0.217470 1183 0.581810 -0.167476 -0.866239
-3.437490 -2.937533 -0.215908 1219 0.623408 -0.131792 -0.843764
-3.434704 -2.935145 -0.214342 1255 0.663493 -0.097433 -0.821232
-3.432743 -2.933475 -0.212843 1293 0.691709 -0.073405 -0.799663
-3.431248 -2.932187 -0.211361 1313 0.713221 -0.054874 -0.778340
-3.429964 -2.931085 -0.209898 1331 0.731695 -0.039018 -0.757289
-3.428568 -2.929883 -0.208427 1355 0.751784 -0.021722 -0.736124
-3.427234 -2.928731 -0.206964 1379 0.770977 -0.005146 -0.715073
-3.426169 -2.927821 -0.205509 1395 0.786301 0.007948 -0.694138
-3.425055 -2.926861 -0.204065 1413 0.802328 0.021760 -0.673361
-3.423828 -2.925801 -0.202602 1433 0.819985 0.037011 -0.652311
-3.422706 -2.924834 -0.201158 1449 0.836129 0.050926 -0.631534
-3.421810 -2.924066 -0.199724 1461 0.849021 0.061975 -0.610901
-3.420971 -2.923340 -0.198288 1469 0.861092 0.072421 -0.590239
-3.420237 -2.922706 -0.196863 1477 0.871651 0.081546 -0.569735
-3.419630 -2.922173 -0.195446 1483 0.880385 0.089213 -0.549347
-3.418946 -2.921589 -0.194019 1493 0.890228 0.097618 -0.528814
-3.417937 -2.920721 -0.192585 1497 0.904745 0.110105 -0.508181
-3.417267 -2.920138 -0.191169 1495 0.914385 0.118496 -0.487807
-3.416533 -2.919504 -0.189743 1497 0.924947 0.127617 -0.467289
-3.415905 -2.918963 -0.188328 1515 0.933983 0.135401 -0.446929
-3.415298 -2.918429 -0.186910 1523 0.942717 0.143085 -0.426527
-3.414945 -2.918122 -0.185512 1527 0.947798 0.147500 -0.406411
-3.414655 -2.917866 -0.184114 1535 0.951969 0.151185 -0.386296
-3.414422 -2.917665 -0.182726 1537 0.955321 0.154077 -0.366325
-3.413963 -2.917266 -0.181318 1533 0.961925 0.159819 -0.346066
-3.413342 -2.916733 -0.179910 1533 0.970861 0.167486 -0.325807
-3.413003 -2.916426 -0.178512 1537 0.975739 0.171905 -0.305692
-3.412770 -2.916226 -0.177114 1553 0.979091 0.174783 -0.285577
-3.412579 -2.916054 -0.175726 1559 0.981839 0.177256 -0.265606
-3.412233 -2.915755 -0.174328 1567 0.986816 0.181558 -0.245491
-3.412113 -2.915640 -0.172949 1563 0.988545 0.183212 -0.225649
-3.411767 -2.915340 -0.171550 1565 0.993523 0.187531 -0.205519
-3.411138 -2.914799 -0.170133 1567 1.002572 0.195315 -0.185131
-3.411350 -2.914961 -0.168762 1573 0.999523 0.192982 -0.165404
-3.411843 -2.915379 -0.167410 1575 0.992428 0.186968 -0.145951
-3.412103 -2.915591 -0.166038 1569 0.988689 0.183918 -0.126210
-3.412525 -2.915952 -0.164676 1571 0.982617 0.178725 -0.106613
-3.412405 -2.915837 -0.163297 1581 0.984343 0.180378 -0.086771
-3.411544 -2.915104 -0.161871 1571 0.996730 0.190927 -0.066253
-3.410980 -2.914613 -0.160474 1565 1.004847 0.197990 -0.046152
-3.410958 -2.914583 -0.159095 1575 1.005162 0.198423 -0.026311
-3.410943 -2.914561 -0.157715 1577 1.005379 0.198738 -0.006454
-3.410936 -2.914545 -0.156324 1577 1.005478 0.198968 0.013560
-3.411139 -2.914715 -0.154964 1575 1.002559 0.196522 0.033128
-3.411231 -2.914784 -0.153583 1585 1.001235 0.195531 0.052999
-3.410927 -2.914527 -0.152195 1575 1.005608 0.199229 0.072970
-3.411082 -2.914647 -0.150814 1571 1.003379 0.197500 0.092840
-3.411172 -2.914717 -0.149444 1573 1.002085 0.196495 0.112553
-3.411207 -2.914744 -0.148063 1567 1.001581 0.196107 0.132423
-3.412243 -2.915623 -0.146728 1569 0.986676 0.183459 0.151632
-3.412842 -2.916120 -0.145374 1575 0.978055 0.176306 0.171114
-3.412538 -2.915863 -0.143976 1571 0.982429 0.180004 0.191229
-3.412848 -2.916110 -0.142614 1567 0.977969 0.176450 0.210826
-3.413715 -2.916847 -0.141269 1567 0.965496 0.165847 0.230179
-3.414088 -2.917158 -0.139898 1557 0.960127 0.161373 0.249905
-3.414172 -2.917221 -0.138527 1553 0.958920 0.160464 0.269632
-3.414207 -2.917248 -0.137148 1555 0.958415 0.160077 0.289474
-3.414467 -2.917460 -0.135776 1553 0.954673 0.157027 0.309215
-3.414889 -2.917821 -0.134412 1541 0.948601 0.151833 0.328840
-3.415093 -2.917976 -0.133032 1539 0.945668 0.149603 0.348697
-3.415678 -2.918472 -0.131679 1533 0.937249 0.142465 0.368164
-3.416319 -2.919011 -0.130316 1533 0.928028 0.134708 0.387776
-3.416685 -2.919315 -0.128954 1529 0.922759 0.130334 0.407373
-3.417665 -2.920151 -0.127598 1523 0.908660 0.118307 0.426884
-3.418926 -2.921215 -0.126260 1519 0.890516 0.102997 0.446135
-3.419560 -2.921761 -0.124908 1519 0.881394 0.095141 0.465589
-3.420046 -2.922158 -0.123535 1509 0.874399 0.089429 0.485344
-3.420391 -2.922455 -0.122163 1499 0.869435 0.085155 0.505085
-3.421039 -2.923000 -0.120809 1491 0.860111 0.077313 0.524567
-3.421680 -2.923539 -0.119446 1491 0.850890 0.069560 0.544178
-3.422659 -2.924361 -0.118089 1485 0.836805 0.057732 0.563704
-3.423744 -2.925290 -0.116745 1471 0.821193 0.044363 0.583042
-3.424386 -2.925829 -0.115381 1457 0.811954 0.036610 0.602668
-3.425365 -2.926651 -0.114025 1443 0.797869 0.024782 0.622179
-3.426669 -2.927758 -0.112678 1431 0.779107 0.008854 0.641560
-3.427472 -2.928445 -0.111324 1411 0.767550 -0.001033 0.661042
-3.428670 -2.929460 -0.109968 1393 0.750315 -0.015636 0.680553
-3.429755 -2.930375 -0.108621 1371 0.734703 -0.028802 0.699934
-3.431221 -2.931630 -0.107273 1353 0.713609 -0.046857 0.719330
-3.432976 -2.933120 -0.105934 1331 0.688357 -0.068297 0.738596
-3.434442 -2.934362 -0.104595 1303 0.667263 -0.086167 0.757862
-3.436528 -2.936143 -0.103264 1275 0.637250 -0.111793 0.777013
-3.438777 -2.938045 -0.101930 1247 0.604890 -0.139161 0.796207
-3.440525 -2.939542 -0.100591 1201 0.579738 -0.160701 0.815474
-3.442717 -2.941401 -0.099260 1135 0.548198 -0.187448 0.834625
-3.439498 -2.937548 -0.217376 1199 0.594516 -0.132008 -0.864886
-3.437277 -2.935643 -0.215849 1237 0.626471 -0.104599 -0.842915
-3.435718 -2.934307 -0.214367 1285 0.648903 -0.085378 -0.821591
-3.433489 -2.932395 -0.212839 1313 0.680975 -0.057865 -0.799606
-3.431818 -2.930959 -0.211349 1325 0.705019 -0.037204 -0.778167
-3.430471 -2.929807 -0.209886 1347 0.724401 -0.020627 -0.757116
-3.429250 -2.928754 -0.208423 1365 0.741969 -0.005478 -0.736066
-3.428023 -2.927695 -0.206960 1383 0.759622 0.009760 -0.715016
-3.426063 -2.926024 -0.205461 1397 0.787824 0.033804 -0.693447
-3.424504 -2.924688 -0.203989 1415 0.810256 0.053025 -0.672267
-3.423333 -2.923671 -0.202535 1439 0.827107 0.067659 -0.651347
-3.422825 -2.923236 -0.201118 1457 0.834414 0.073920 -0.630958
-3.422373 -2.922844 -0.199711 1469 0.840918 0.079560 -0.610713
-3.421597 -2.922168 -0.198286 1469 0.852084 0.089285 -0.590210
-3.420757 -2.921443 -0.196850 1471 0.864170 0.099717 -0.569548
-3.420348 -2.921093 -0.195442 1491 0.870056 0.104753 -0.549289
-3.420016 -2.920794 -0.194044 1501 0.874832 0.109055 -0.529174
-3.418556 -2.919542 -0.192583 1499 0.895840 0.127069 -0.508152
-3.417441 -2.918582 -0.191139 1503 0.911884 0.140883 -0.487375
-3.417589 -2.918709 -0.189758 1517 0.909754 0.139055 -0.467505
-3.417469 -2.918594 -0.188368 1531 0.911479 0.140712 -0.447505
-3.416911 -2.918110 -0.186962 1537 0.919510 0.147675 -0.427275
-3.415726 -2.917093 -0.185518 1539 0.936560 0.162306 -0.406498
-3.414886 -2.916367 -0.184093 1539 0.948645 0.172752 -0.385994
-3.415041 -2.916501 -0.182722 1543 0.946415 0.170824 -0.366268
-3.415471 -2.916855 -0.181360 1547 0.940227 0.165730 -0.346670
-3.414906 -2.916363 -0.179952 1555 0.948357 0.172811 -0.326411
-3.413890 -2.915489 -0.178518 1547 0.962978 0.185387 -0.305778
-3.413495 -2.915139 -0.177120 1559 0.968659 0.190423 -0.285663
-3.413149 -2.914840 -0.175722 1567 0.973636 0.194725 -0.265548
-3.412464 -2.914256 -0.174307 1569 0.983496 0.203126 -0.245188
-3.412281 -2.914092 -0.172918 1565 0.986127 0.205486 -0.225203
-3.412273 -2.914076 -0.171537 1565 0.986243 0.205716 -0.205332
-3.412089 -2.913911 -0.170149 1567 0.988888 0.208090 -0.185361
-3.411912 -2.913754 -0.168760 1573 0.991437 0.210350 -0.165375
-3.412060 -2.913866 -0.167389 1577 0.989307 0.208738 -0.145649
-3.412320 -2.914092 -0.166017 1571 0.985568 0.205486 -0.125908
-3.412475 -2.914212 -0.164646 1575 0.983334 0.203760 -0.106181
-3.412298 -2.914054 -0.163257 1583 0.985883 0.206035 -0.086196
-3.411832 -2.913648 -0.161859 1571 0.992586 0.211877 -0.066081
-3.411754 -2.913576 -0.160471 1575 0.993711 0.212913 -0.046109
-3.411577 -2.913419 -0.159082 1579 0.996257 0.215170 -0.026124
-3.411111 -2.913013 -0.157684 1581 1.002960 0.221012 -0.006008
-3.411153 -2.913033 -0.156303 1579 1.002356 0.220724 0.013862
-3.411258 -2.913117 -0.154934 1575 1.000847 0.219517 0.033560
-3.411561 -2.913371 -0.153572 1585 0.996487 0.215860 0.053157
-3.411878 -2.913640 -0.152200 1575 0.991924 0.211990 0.072898
-3.411856 -2.913610 -0.150819 1567 0.992243 0.212422 0.092768
-3.412123 -2.913829 -0.149448 1575 0.988401 0.209270 0.112495
-3.412045 -2.913757 -0.148069 1571 0.989523 0.210306 0.132337
-3.412418 -2.914068 -0.146707 1571 0.984158 0.205832 0.151934
-3.412566 -2.914195 -0.145336 1573 0.982027 0.204004 0.171661
-3.412650 -2.914258 -0.143955 1565 0.980816 0.203098 0.191531
-3.413361 -2.914853 -0.142603 1563 0.970587 0.194536 0.210984
-3.413833 -2.915249 -0.141239 1567 0.963798 0.188838 0.230610
-3.413924 -2.915319 -0.139869 1565 0.962487 0.187833 0.250322
-3.414065 -2.915439 -0.138488 1555 0.960460 0.186107 0.270193
-3.414494 -2.915793 -0.137125 1555 0.954285 0.181013 0.289804
-3.414304 -2.915621 -0.135736 1543 0.957019 0.183486 0.309790
-3.414120 -2.915457 -0.134357 1541 0.959667 0.185846 0.329632
-3.414761 -2.915995 -0.132993 1551 0.950443 0.178107 0.349258
