757
-10.602733 -9.246924 -0.170182 795 0.962703 -0.550798 -0.114809
-10.603002 -9.247137 -0.165860 811 0.958834 -0.553858 -0.052621
-10.602820 -9.246963 -0.161542 825 0.961441 -0.551347 0.009508
-10.602654 -9.246790 -0.157224 827 0.963829 -0.548864 0.071637
-10.603293 -9.247326 -0.152910 815 0.954635 -0.556575 0.133710
-10.603882 -9.247825 -0.148597 797 0.946168 -0.563752 0.195767
-10.603987 -9.247890 -0.144275 761 0.944659 -0.564699 0.257954
-10.605123 -9.248860 -0.139959 689 0.928316 -0.578654 0.320055
-10.604308 -9.242778 -0.183147 785 0.940035 -0.491135 -0.301355
-10.603757 -9.242268 -0.178821 847 0.947966 -0.483794 -0.239111
-10.602596 -9.241239 -0.174478 889 0.964666 -0.468988 -0.176621
-10.601420 -9.240195 -0.170144 935 0.981585 -0.453976 -0.114262
-10.600038 -9.238961 -0.165801 929 1.001482 -0.436220 -0.051773
-10.599751 -9.238697 -0.161483 925 1.005598 -0.432419 0.010357
-10.600297 -9.239141 -0.157171 937 0.997749 -0.438814 0.072400
-10.600885 -9.239641 -0.152858 931 0.989283 -0.446004 0.134458
-10.601424 -9.240091 -0.148544 911 0.981530 -0.452481 0.196530
-10.603065 -9.241490 -0.144244 885 0.957928 -0.472611 0.258400
-10.604422 -9.242649 -0.139938 853 0.938402 -0.489283 0.320357
-10.605509 -9.243584 -0.135631 795 0.922759 -0.502730 0.382328
-10.608146 -9.245852 -0.131345 725 0.884818 -0.535375 0.443997
-10.606927 -9.239624 -0.191806 799 0.902354 -0.445757 -0.425945
-10.604671 -9.237625 -0.187448 869 0.934820 -0.416996 -0.363240
-10.602512 -9.235725 -0.183091 921 0.965873 -0.389662 -0.300550
-10.601015 -9.234408 -0.178750 945 0.987417 -0.370712 -0.238089
-10.599363 -9.232938 -0.174409 983 1.011183 -0.349553 -0.175629
-10.597476 -9.231277 -0.170060 993 1.038339 -0.325663 -0.113053
-10.597239 -9.231048 -0.165742 993 1.041755 -0.322356 -0.050924
-10.597620 -9.231357 -0.161430 1001 1.036267 -0.326802 0.011119
-10.597996 -9.231662 -0.157117 1007 1.030860 -0.331193 0.073177
-10.597368 -9.231102 -0.152801 1001 1.039889 -0.323138 0.135278
-10.597636 -9.231314 -0.148479 993 1.036033 -0.326184 0.197465
-10.599327 -9.232760 -0.144189 961 1.011704 -0.347000 0.259191
-10.600584 -9.233836 -0.139882 943 0.993619 -0.362479 0.321163
-10.602660 -9.235620 -0.135591 921 0.963746 -0.388139 0.382904
-10.604514 -9.237215 -0.131290 871 0.937071 -0.411095 0.444789
-10.607963 -9.240198 -0.127010 805 0.887452 -0.454018 0.506371
-10.610600 -9.242467 -0.122714 697 0.849497 -0.486662 0.568184
-10.609373 -9.236189 -0.196136 815 0.867158 -0.396331 -0.488247
-10.606390 -9.233573 -0.191762 897 0.910080 -0.358691 -0.425312
-10.603842 -9.231330 -0.187408 957 0.946745 -0.326417 -0.362665
-10.601798 -9.229529 -0.183059 985 0.976151 -0.300510 -0.300089
-10.599703 -9.227678 -0.178710 1015 1.006298 -0.273876 -0.237514
-10.598264 -9.226404 -0.174369 1037 1.027004 -0.255544 -0.175053
-10.597373 -9.225613 -0.170045 1045 1.039821 -0.244154 -0.112837
-10.596973 -9.225236 -0.165717 1049 1.045570 -0.238734 -0.050564
-10.596856 -9.225112 -0.161409 1045 1.047258 -0.236950 0.011422
-10.596406 -9.224699 -0.157081 1039 1.053735 -0.231009 0.073695
-10.595998 -9.224330 -0.152763 1039 1.059608 -0.225698 0.135825
-10.597369 -9.225503 -0.148465 1049 1.039876 -0.242576 0.197666
-10.597843 -9.225890 -0.144153 1027 1.033056 -0.248147 0.259709
-10.598660 -9.226574 -0.139848 1009 1.021296 -0.257986 0.321652
-10.600906 -9.228511 -0.135555 987 0.988981 -0.285855 0.383422
-10.603529 -9.230780 -0.131269 951 0.951246 -0.318500 0.445091
-10.606813 -9.233616 -0.126981 903 0.903987 -0.359309 0.506788
-10.609614 -9.236031 -0.122695 833 0.863686 -0.394053 0.568458
-10.612736 -9.238720 -0.118406 735 0.818774 -0.432749 0.630170
-10.610922 -9.231742 -0.200452 849 0.844873 -0.332345 -0.550348
-10.607120 -9.228418 -0.196063 915 0.899582 -0.284524 -0.487197
-10.604471 -9.226091 -0.191709 971 0.937688 -0.251043 -0.424550
-10.601980 -9.223905 -0.187352 1007 0.973530 -0.219578 -0.361859
-10.599217 -9.221478 -0.182988 1041 1.013282 -0.184670 -0.299068
-10.597827 -9.220252 -0.178657 1055 1.033289 -0.167023 -0.236751
-10.596999 -9.219511 -0.174331 1073 1.045200 -0.156361 -0.174506
-10.596272 -9.218852 -0.170007 1085 1.055656 -0.146880 -0.112291
-10.596043 -9.218631 -0.165687 1105 1.058963 -0.143696 -0.050132
-10.595093 -9.217783 -0.161363 1087 1.072630 -0.131497 0.012083
-10.594814 -9.217512 -0.157045 1083 1.076637 -0.127600 0.074213
-10.595894 -9.218439 -0.152738 1085 1.061103 -0.140938 0.136184
-10.596490 -9.218933 -0.148435 1077 1.052527 -0.148046 0.198098
-10.597467 -9.219763 -0.144130 1069 1.038462 -0.159984 0.260040
-10.598605 -9.220733 -0.139833 1063 1.022092 -0.173939 0.321868
-10.599200 -9.221225 -0.135530 1029 1.013529 -0.181020 0.383781
-10.602265 -9.223872 -0.131242 1001 0.969427 -0.219112 0.445479
-10.605287 -9.226478 -0.126954 969 0.925956 -0.256600 0.507177
-10.607852 -9.228688 -0.122670 913 0.889044 -0.288408 0.568817
-10.611692 -9.232001 -0.118388 851 0.833786 -0.336078 0.630429
-10.615639 -9.235421 -0.114105 731 0.777004 -0.385284 0.692055
-10.612963 -9.228091 -0.204782 841 0.815508 -0.279818 -0.612650
-10.609155 -9.224761 -0.200395 923 0.870300 -0.231901 -0.549528
-10.605894 -9.221914 -0.196023 989 0.917215 -0.190941 -0.486622
-10.602305 -9.218772 -0.191644 1021 0.968851 -0.145727 -0.423614
-10.600433 -9.217112 -0.187295 1053 0.995787 -0.121837 -0.361039
-10.599263 -9.216076 -0.182962 1077 1.012624 -0.106935 -0.298693
-10.597932 -9.214905 -0.178630 1099 1.031780 -0.090084 -0.236362
-10.596933 -9.214009 -0.174306 1101 1.046146 -0.077200 -0.174147
-10.596256 -9.213402 -0.169978 1113 1.055889 -0.068459 -0.111873
-10.596254 -9.213375 -0.165670 1125 1.055916 -0.068075 -0.049888
-10.595689 -9.212865 -0.161353 1121 1.064054 -0.060733 0.012227
-10.595737 -9.212887 -0.157033 1117 1.063354 -0.061049 0.074386
-10.596710 -9.213710 -0.152736 1115 1.049357 -0.072891 0.136213
-10.597420 -9.214302 -0.148433 1119 1.039148 -0.081412 0.198127
-10.597729 -9.214556 -0.144120 1107 1.034702 -0.085062 0.260184
-10.598269 -9.215007 -0.139817 1087 1.026922 -0.091553 0.322098
-10.598970 -9.215591 -0.135514 1063 1.016836 -0.099964 0.384012
-10.600327 -9.216751 -0.131215 1047 0.997324 -0.116650 0.445868
-10.603177 -9.219214 -0.126930 1027 0.956309 -0.152094 0.507522
-10.605580 -9.221280 -0.122636 979 0.921730 -0.181816 0.569307
-10.608531 -9.223829 -0.118348 925 0.879274 -0.218494 0.631004
-10.613651 -9.228251 -0.114080 847 0.805601 -0.282123 0.692415
-10.618309 -9.232286 -0.109792 733 0.738583 -0.340180 0.754112
-10.617661 -9.227385 -0.209155 817 0.747900 -0.269650 -0.675571
-10.611983 -9.222420 -0.204738 897 0.829601 -0.198213 -0.612017
-10.608672 -9.219523 -0.200357 965 0.877243 -0.156540 -0.548981
-10.606464 -9.217589 -0.196010 1027 0.909009 -0.128712 -0.486434
-10.603034 -9.214589 -0.191629 1057 0.958367 -0.085543 -0.423398
-10.600499 -9.212358 -0.187274 1071 0.994840 -0.053447 -0.360737
-10.598831 -9.210888 -0.182933 1099 1.018840 -0.032288 -0.298276
-10.598225 -9.210335 -0.178617 1125 1.027567 -0.024329 -0.236175
-10.597490 -9.209684 -0.174291 1135 1.038133 -0.014971 -0.173931
-10.596550 -9.208845 -0.169967 1153 1.051663 -0.002895 -0.111715
-10.595821 -9.208187 -0.165641 1139 1.062146 0.006573 -0.049470
-10.594708 -9.207192 -0.161317 1143 1.078160 0.020885 0.012745
-10.594309 -9.206830 -0.157001 1139 1.083909 0.026099 0.074846
-10.594961 -9.207379 -0.152696 1125 1.074523 0.018195 0.136789
-10.596709 -9.208869 -0.148406 1127 1.049371 -0.003238 0.198515
-10.597858 -9.209852 -0.144109 1119 1.032836 -0.017386 0.260343
-10.597950 -9.209904 -0.139798 1105 1.031519 -0.018127 0.322371
-10.598489 -9.210354 -0.135495 1097 1.023766 -0.024603 0.384285
-10.600784 -9.212327 -0.131202 1079 0.990737 -0.052994 0.446055
-10.604133 -9.215213 -0.126924 1061 0.942560 -0.094517 0.507609
-10.606699 -9.217425 -0.122638 1037 0.905634 -0.126352 0.569278
-10.608391 -9.218872 -0.118339 981 0.881291 -0.147168 0.631134
-10.611846 -9.221848 -0.114049 913 0.831577 -0.189980 0.692860
-10.616845 -9.226178 -0.109781 841 0.759646 -0.252291 0.754271
-10.621483 -9.223453 -0.213506 789 0.692916 -0.213074 -0.738175
-10.616622 -9.219211 -0.209094 895 0.762857 -0.152039 -0.674694
-10.612103 -9.215262 -0.204702 967 0.827872 -0.095230 -0.611499
-10.608286 -9.211939 -0.200313 1023 0.882801 -0.047409 -0.548348
-10.605803 -9.209759 -0.195956 1065 0.918532 -0.016041 -0.485658
-10.603154 -9.207431 -0.191602 1085 0.956638 0.017454 -0.423010
-10.601658 -9.206113 -0.187261 1111 0.978168 0.036418 -0.360550
-10.599998 -9.204650 -0.182922 1113 1.002044 0.057467 -0.298118
-10.598672 -9.203473 -0.178588 1141 1.021131 0.074400 -0.235758
-10.598329 -9.203152 -0.174270 1161 1.026071 0.079025 -0.173629
-10.597765 -9.202641 -0.169954 1165 1.034181 0.086380 -0.111528
-10.596986 -9.201949 -0.165639 1165 1.045392 0.096328 -0.049442
-10.596580 -9.201579 -0.161321 1167 1.051237 0.101652 0.012688
-10.596634 -9.201595 -0.157010 1159 1.050455 0.101419 0.074717
-10.596952 -9.201856 -0.152698 1165 1.045872 0.097673 0.136760
-10.596779 -9.201676 -0.148389 1149 1.048369 0.100252 0.198760
-10.597637 -9.202401 -0.144084 1141 1.036020 0.089824 0.260702
-10.599343 -9.203861 -0.139795 1135 1.011471 0.068815 0.322414
-10.600422 -9.204776 -0.135499 1125 0.995952 0.055656 0.384227
-10.602342 -9.206419 -0.131208 1121 0.968329 0.032013 0.445968
-10.604465 -9.208253 -0.126916 1091 0.937784 0.005626 0.507724
-10.606826 -9.210274 -0.122632 1065 0.903809 -0.023451 0.569364
-10.609563 -9.212626 -0.118337 1019 0.864427 -0.057303 0.631163
-10.611852 -9.214593 -0.114043 969 0.831494 -0.085597 0.692947
-10.615699 -9.217915 -0.109761 905 0.776140 -0.133391 0.754558
-10.622184 -9.223528 -0.105493 797 0.682831 -0.214158 0.815968
-10.628271 -9.224005 -0.217920 711 0.595244 -0.221019 -0.801686
-10.621537 -9.218142 -0.213468 863 0.692134 -0.136657 -0.737629
-10.615524 -9.212902 -0.209043 923 0.778651 -0.061268 -0.673960
-10.611609 -9.209480 -0.204656 983 0.834980 -0.012034 -0.610837
-10.609338 -9.207498 -0.200300 1057 0.867665 0.016494 -0.548161
-10.606582 -9.205079 -0.195945 1079 0.907322 0.051293 -0.485499
-10.604752 -9.203474 -0.191596 1109 0.933654 0.074387 -0.422924
-10.602658 -9.201624 -0.187248 1119 0.963774 0.101007 -0.360363
-10.600600 -9.199823 -0.182910 1137 0.993386 0.126914 -0.297945
-10.599503 -9.198842 -0.178577 1151 1.009180 0.141034 -0.235600
-10.599258 -9.198621 -0.174268 1161 1.012692 0.144218 -0.173600
-10.598488 -9.197920 -0.169942 1163 1.023780 0.154303 -0.111355
-10.597425 -9.196975 -0.165618 1163 1.039066 0.167902 -0.049140
-10.597245 -9.196801 -0.161309 1173 1.041659 0.170399 0.012860
-10.596853 -9.196445 -0.156991 1159 1.047299 0.175517 0.074990
-10.597661 -9.197121 -0.152698 1171 1.035677 0.165802 0.136760
-10.599090 -9.198337 -0.148399 1179 1.015121 0.148307 0.198616
-10.599849 -9.198977 -0.144105 1165 1.004198 0.139086 0.260400
-10.600600 -9.199610 -0.139800 1155 0.993386 0.129988 0.322343
-10.601745 -9.200573 -0.135503 1145 0.976919 0.116129 0.384170
-10.603549 -9.202119 -0.131213 1135 0.950957 0.093885 0.445897
-10.605574 -9.203854 -0.126922 1117 0.921826 0.068925 0.507638
-10.607543 -9.205546 -0.122621 1091 0.893490 0.044569 0.569522
-10.609561 -9.207274 -0.118329 1051 0.864454 0.019705 0.631278
-10.612576 -9.209871 -0.114042 1007 0.821079 -0.017660 0.692961
-10.616251 -9.213037 -0.109760 949 0.768195 -0.063203 0.754573
-10.620695 -9.216878 -0.105485 861 0.704251 -0.118475 0.816084
-10.625587 -9.221102 -0.101197 725 0.633857 -0.179250 0.877781
-10.628659 -9.218884 -0.217891 795 0.589659 -0.147346 -0.801269
-10.621869 -9.212976 -0.213451 899 0.687359 -0.062339 -0.737384
-10.616069 -9.207921 -0.209024 953 0.770816 0.010401 -0.673686
-10.612817 -9.205081 -0.204652 1009 0.817608 0.051265 -0.610780
-10.609996 -9.202613 -0.200288 1055 0.858197 0.086778 -0.547988
-10.607121 -9.200089 -0.195926 1093 0.899555 0.123086 -0.485226
-10.605134 -9.198344 -0.191577 1117 0.928152 0.148197 -0.422650
-10.603638 -9.197027 -0.187246 1139 0.949681 0.167147 -0.360334
-10.602475 -9.195997 -0.182912 1159 0.966408 0.181967 -0.297974
-10.601192 -9.194863 -0.178579 1153 0.984864 0.198282 -0.235629
-10.600081 -9.193882 -0.174257 1175 1.000850 0.212402 -0.173442
-10.599183 -9.193086 -0.169931 1175 1.013776 0.223860 -0.111197
-10.599464 -9.193297 -0.165630 1185 1.009728 0.220813 -0.049312
-10.599555 -9.193363 -0.161319 1187 1.008425 0.219867 0.012717
-10.599170 -9.193000 -0.157001 1181 1.013968 0.225095 0.074846
-10.599095 -9.192918 -0.152692 1179 1.015039 0.226275 0.136846
-10.599512 -9.193263 -0.148389 1173 1.009042 0.221307 0.198760
-10.600393 -9.193995 -0.144094 1175 0.996363 0.210769 0.260558
-10.601749 -9.195154 -0.139796 1177 0.976851 0.194097 0.322400
-10.603065 -9.196272 -0.135499 1173 0.957928 0.178015 0.384227
-10.604428 -9.197439 -0.131212 1135 0.938306 0.161219 0.445911
-10.606667 -9.199355 -0.126918 1117 0.906100 0.133652 0.507695
-10.608692 -9.201090 -0.122627 1103 0.876955 0.108691 0.569436
-10.610825 -9.202917 -0.118335 1061 0.846273 0.082400 0.631191
-10.613184 -9.204939 -0.114042 1025 0.812325 0.053310 0.692961
-10.616462 -9.207767 -0.109752 973 0.765162 0.012624 0.754688
-10.621084 -9.211754 -0.105476 893 0.698652 -0.044747 0.816213
-10.626908 -9.216786 -0.101201 789 0.614852 -0.117158 0.877724
-10.628768 -9.213175 -0.217855 827 0.588095 -0.065193 -0.800751
-10.623032 -9.208181 -0.213439 925 0.670632 0.006655 -0.737211
-10.619217 -9.204858 -0.209050 1007 0.725520 0.054476 -0.674060
-10.615082 -9.201247 -0.204654 1035 0.785018 0.106427 -0.610808
-10.611535 -9.198147 -0.200284 1077 0.836050 0.151037 -0.547931
-10.609335 -9.196219 -0.195928 1119 0.867706 0.178769 -0.485255
-10.606894 -9.194083 -0.191581 1133 0.902835 0.209506 -0.422708
-10.605013 -9.192429 -0.187242 1153 0.929894 0.233314 -0.360276
-10.603517 -9.191112 -0.182901 1175 0.951424 0.252264 -0.297816
-10.602020 -9.189795 -0.178569 1181 0.972954 0.271214 -0.235485
-10.601790 -9.189572 -0.174260 1187 0.976261 0.274411 -0.173485
-10.601611 -9.189398 -0.169942 1191 0.978840 0.276922 -0.111355
-10.600996 -9.188839 -0.165626 1197 0.987691 0.284963 -0.049255
-10.600654 -9.188534 -0.161317 1203 0.992617 0.289354 0.012745
-10.600424 -9.188310 -0.156999 1199 0.995924 0.292579 0.074875
-10.600685 -9.188516 -0.152698 1199 0.992164 0.289615 0.136760
-10.601230 -9.188959 -0.148395 1181 0.984329 0.283234 0.198673
-10.602309 -9.189873 -0.144099 1191 0.968796 0.270089 0.260486
-10.603346 -9.190759 -0.139802 1185 0.953880 0.257341 0.322314
-10.604554 -9.191772 -0.135505 1167 0.936494 0.242755 0.384141
-10.606295 -9.193268 -0.131215 1161 0.911452 0.221239 0.445868
-10.607267 -9.194091 -0.126910 1139 0.897456 0.209397 0.507810
-10.609620 -9.196106 -0.122627 1109 0.863604 0.180402 0.569436
-10.612698 -9.198752 -0.118348 1087 0.819323 0.142324 0.631004
-10.614944 -9.200678 -0.114057 1053 0.786994 0.114619 0.692745
-10.618392 -9.203646 -0.109767 1009 0.737389 0.071917 0.754472
-10.622516 -9.207197 -0.105483 941 0.678056 0.020816 0.816112
-10.628063 -9.211984 -0.101211 855 0.598235 -0.048054 0.877580
-10.630807 -9.214342 -0.096915 691 0.558757 -0.081989 0.939393
-10.628494 -9.207357 -0.217820 867 0.592033 0.018511 -0.800247
-10.622864 -9.202455 -0.213393 955 0.673047 0.089055 -0.736550
-10.619440 -9.199475 -0.209024 1017 0.722309 0.131923 -0.673686
-10.615838 -9.196335 -0.204644 1065 0.774137 0.177109 -0.610665
-10.613026 -9.193873 -0.200280 1097 0.814603 0.212525 -0.547873
-10.611309 -9.192367 -0.195939 1135 0.839302 0.234206 -0.485413
-10.609209 -9.190523 -0.191592 1135 0.869518 0.260730 -0.422866
-10.607549 -9.189059 -0.187251 1167 0.893408 0.281794 -0.360406
-10.606053 -9.187742 -0.182920 1177 0.914924 0.300744 -0.298089
-10.604385 -9.186284 -0.178581 1185 0.938923 0.321724 -0.235657
-10.602997 -9.185059 -0.174258 1183 0.958902 0.339357 -0.173456
-10.602654 -9.184738 -0.169940 1205 0.963829 0.343968 -0.111326
-10.602694 -9.184754 -0.165630 1223 0.963266 0.343734 -0.049312
-10.602528 -9.184581 -0.161321 1211 0.965654 0.346232 0.012688
-10.602846 -9.184842 -0.157020 1209 0.961070 0.342472 0.074573
-10.603996 -9.185812 -0.152723 1221 0.944522 0.328517 0.136400
-10.603432 -9.185302 -0.148406 1199 0.952645 0.335858 0.198515
-10.603245 -9.185122 -0.144098 1187 0.955335 0.338451 0.260501
-10.604616 -9.186281 -0.139810 1189 0.935603 0.321766 0.322199
-10.605639 -9.187153 -0.135503 1173 0.920879 0.309224 0.384170
-10.606895 -9.188213 -0.131206 1163 0.902807 0.293965 0.445997
-10.608479 -9.189569 -0.126916 1141 0.880029 0.274452 0.507724
-10.610839 -9.191593 -0.122634 1123 0.846067 0.245334 0.569335
-10.613577 -9.193945 -0.118348 1105 0.806671 0.211496 0.631004
-10.615872 -9.195904 -0.114055 1071 0.773643 0.183311 0.692774
-10.619391 -9.198929 -0.109775 1031 0.723009 0.139785 0.754357
-10.624113 -9.203001 -0.105497 979 0.655071 0.081193 0.815911
-10.628287 -9.206601 -0.101213 885 0.595010 0.029392 0.877551
-10.632576 -9.210286 -0.096919 739 0.533303 -0.023629 0.939335
-10.630477 -9.203624 -0.217822 891 0.563505 0.072232 -0.800276
-10.625002 -9.198862 -0.213405 973 0.642282 0.140746 -0.736722
-10.620199 -9.194674 -0.209001 1025 0.711386 0.201013 -0.673355
-10.617167 -9.192025 -0.204639 1069 0.755008 0.239118 -0.610593
-10.614731 -9.189895 -0.200282 1109 0.790068 0.269773 -0.547902
-10.612352 -9.187819 -0.195928 1131 0.824290 0.299646 -0.485255
-10.610522 -9.186214 -0.191587 1145 0.850623 0.322726 -0.422794
-10.608585 -9.184519 -0.187238 1169 0.878492 0.347124 -0.360219
-10.606812 -9.182957 -0.182908 1175 0.904015 0.369600 -0.297916
-10.606531 -9.182699 -0.178590 1195 0.908049 0.373305 -0.235787
-10.606580 -9.182708 -0.174281 1209 0.907349 0.373182 -0.173787
-10.606294 -9.182444 -0.169973 1229 0.911466 0.376983 -0.111801
-10.605565 -9.181785 -0.165656 1227 0.921949 0.386465 -0.049686
-10.604887 -9.181177 -0.161330 1225 0.931706 0.395205 0.012558
-10.604871 -9.181151 -0.157031 1215 0.931939 0.395576 0.074414
-10.605580 -9.181743 -0.152726 1213 0.921730 0.387068 0.136357
-10.605507 -9.181660 -0.148418 1191 0.922786 0.388262 0.198343
-10.605882 -9.181964 -0.144115 1185 0.917394 0.383885 0.260256
-10.606357 -9.182352 -0.139812 1175 0.910560 0.378300 0.322170
-10.607785 -9.183567 -0.135514 1183 0.890005 0.360818 0.384012
-10.609597 -9.185105 -0.131223 1185 0.863933 0.338685 0.445753
-10.610518 -9.185879 -0.126928 1149 0.850677 0.327556 0.507551
-10.611649 -9.186843 -0.122632 1119 0.834417 0.313683 0.569364
-10.614343 -9.189152 -0.118346 1099 0.795653 0.280463 0.631033
-10.617634 -9.191980 -0.114057 1079 0.748298 0.239763 0.692745
-10.620484 -9.194431 -0.109771 1031 0.707283 0.204498 0.754414
-10.623940 -9.197394 -0.105491 977 0.657555 0.161864 0.815997
-10.629216 -9.201941 -0.101211 895 0.581645 0.096451 0.877580
-10.636820 -9.208503 -0.096948 779 0.472240 0.002031 0.938918
-10.632514 -9.199707 -0.217826 901 0.534195 0.128588 -0.800334
-10.627481 -9.195324 -0.213414 989 0.606605 0.191654 -0.736852
-10.623226 -9.191621 -0.209029 1035 0.667833 0.244936 -0.673758
-10.620521 -9.189266 -0.204664 1075 0.706762 0.278816 -0.610953
-10.618084 -9.187135 -0.200309 1115 0.741821 0.309484 -0.548290
-10.615706 -9.185046 -0.195953 1143 0.776030 0.339536 -0.485614
-10.613165 -9.182823 -0.191596 1161 0.812599 0.371521 -0.422924
-10.610944 -9.180890 -0.187259 1175 0.844558 0.399336 -0.360521
-10.609938 -9.180000 -0.182925 1193 0.859034 0.412138 -0.298161
-10.609282 -9.179399 -0.178609 1207 0.868475 0.420797 -0.236060
-10.608774 -9.178946 -0.174293 1225 0.875775 0.427315 -0.173960
-10.607719 -9.178006 -0.169969 1229 0.890951 0.440831 -0.111744
-10.606706 -9.177111 -0.165645 1231 0.905538 0.453716 -0.049528
-10.607032 -9.177379 -0.161342 1235 0.900845 0.449860 0.012386
-10.607300 -9.177578 -0.157041 1219 0.896989 0.446992 0.074271
-10.606672 -9.177018 -0.152725 1205 0.906018 0.455047 0.136371
-10.607102 -9.177364 -0.148422 1193 0.899829 0.450066 0.198285
-10.608858 -9.178860 -0.144132 1193 0.874567 0.428550 0.260012
-10.609888 -9.179739 -0.139837 1187 0.859748 0.415898 0.321810
-10.610703 -9.180421 -0.135541 1189 0.848015 0.406087 0.383623
-10.611628 -9.181195 -0.131236 1181 0.834719 0.394945 0.445566
-10.613432 -9.182741 -0.126947 1165 0.808757 0.372701 0.507278
-10.614126 -9.183318 -0.122642 1135 0.798767 0.364400 0.569220
-10.615989 -9.184905 -0.118352 1099 0.771968 0.341566 0.630947
-10.619999 -9.188358 -0.114078 1085 0.714268 0.291879 0.692443
-10.622849 -9.190795 -0.109792 1047 0.673253 0.256820 0.754112
-10.625592 -9.193153 -0.105497 981 0.633789 0.222885 0.815911
-10.630592 -9.197455 -0.101218 903 0.561845 0.160986 0.877479
-10.637698 -9.203583 -0.096957 795 0.459602 0.072822 0.938789
-10.635156 -9.196188 -0.217845 909 0.496185 0.179222 -0.800607
-10.630293 -9.191974 -0.213434 985 0.566153 0.239859 -0.737139
-10.625433 -9.187744 -0.209031 1039 0.636080 0.300716 -0.673787
-10.622286 -9.184996 -0.204660 1085 0.681363 0.340263 -0.610895
-10.619730 -9.182774 -0.200303 1121 0.718137 0.372235 -0.548204
-10.617294 -9.180643 -0.195949 1135 0.753183 0.402890 -0.485557
-10.615137 -9.178758 -0.191600 1159 0.784222 0.430018 -0.422981
-10.613371 -9.177202 -0.187270 1179 0.809635 0.452398 -0.360679
-10.612251 -9.176216 -0.182937 1183 0.825745 0.466587 -0.298334
-10.612080 -9.176048 -0.178628 1213 0.828215 0.469002 -0.236334
-10.610854 -9.174971 -0.174306 1221 0.845847 0.484508 -0.174147
-10.609407 -9.173688 -0.169975 1217 0.866664 0.502964 -0.111830
-10.609902 -9.174097 -0.165672 1247 0.859542 0.497077 -0.049917
-10.610213 -9.174353 -0.161369 1249 0.855069 0.493400 0.011997
-10.609429 -9.173653 -0.157054 1215 0.866348 0.503471 0.074083
-10.609527 -9.173711 -0.152744 1215 0.864948 0.502634 0.136098
-10.609851 -9.173965 -0.148441 1205 0.860283 0.498971 0.198012
-10.610447 -9.174459 -0.144138 1205 0.851707 0.491863 0.259925
-10.611753 -9.175568 -0.139840 1193 0.832908 0.475918 0.321767
-10.612791 -9.176439 -0.135545 1195 0.817978 0.463376 0.383566
-10.613707 -9.177220 -0.131250 1179 0.804805 0.452138 0.445364
-10.615340 -9.178613 -0.126960 1159 0.781299 0.432104 0.507091
-10.618205 -9.181063 -0.122674 1151 0.740079 0.396852 0.568760
-10.620508 -9.183028 -0.118381 1127 0.706940 0.368571 0.630530
-10.622420 -9.184665 -0.114089 1091 0.679428 0.345024 0.692285
-10.625654 -9.187438 -0.109802 1057 0.632897 0.305121 0.753968
-10.629230 -9.190506 -0.105521 993 0.581453 0.260977 0.815566
-10.633455 -9.194141 -0.101236 925 0.520651 0.208669 0.877220
-10.639956 -9.199741 -0.096969 817 0.427109 0.128094 0.938616
-10.637527 -9.192559 -0.217857 917 0.462059 0.231434 -0.800780
-10.632772 -9.188434 -0.213443 987 0.530476 0.290795 -0.737269
-10.628516 -9.184731 -0.209058 1043 0.591717 0.344077 -0.674176
-10.624310 -9.181079 -0.204662 1075 0.652245 0.396619 -0.610924
-10.621269 -9.178422 -0.200300 1109 0.695990 0.434848 -0.548161
-10.619603 -9.176965 -0.195958 1143 0.719962 0.455815 -0.485686
-10.617780 -9.175366 -0.191619 1171 0.746199 0.478813 -0.423255
-10.616284 -9.174048 -0.187288 1179 0.767715 0.497777 -0.360938
-10.615057 -9.172971 -0.182956 1189 0.785375 0.513283 -0.298607
-10.613996 -9.172040 -0.178632 1201 0.800647 0.526675 -0.236391
-10.612941 -9.171102 -0.174308 1213 0.815824 0.540178 -0.174176
-10.612441 -9.170641 -0.169990 1225 0.823014 0.546805 -0.112046
-10.612595 -9.170755 -0.165691 1235 0.820805 0.545159 -0.050190
-10.612465 -9.170630 -0.161380 1231 0.822671 0.546956 0.011839
-10.612512 -9.170639 -0.157071 1219 0.821999 0.546833 0.073839
-10.612610 -9.170712 -0.152761 1213 0.820585 0.545776 0.135853
-10.612658 -9.170721 -0.148460 1197 0.819899 0.545653 0.197738
-10.613417 -9.171361 -0.144155 1195 0.808977 0.536445 0.259681
-10.614005 -9.171847 -0.139852 1187 0.800510 0.529447 0.321594
-10.614935 -9.172627 -0.135556 1181 0.787131 0.518223 0.383407
-10.616078 -9.173591 -0.131261 1165 0.770679 0.504363 0.445206
-10.616944 -9.174323 -0.126966 1159 0.758219 0.493825 0.507004
-10.618906 -9.175994 -0.122674 1141 0.729993 0.469784 0.568760
-10.622261 -9.178871 -0.118394 1121 0.681719 0.428385 0.630342
-10.624721 -9.180979 -0.114101 1091 0.646330 0.398060 0.692112
-10.627798 -9.183611 -0.109823 1051 0.602050 0.360187 0.753666
-10.631318 -9.186637 -0.105533 989 0.551402 0.316647 0.815393
-10.635826 -9.190512 -0.101257 923 0.486539 0.260895 0.876918
-10.641779 -9.195627 -0.096982 813 0.400886 0.187291 0.938429
-10.640617 -9.189553 -0.217872 929 0.417600 0.274686 -0.800996
-10.634640 -9.184376 -0.213447 989 0.503609 0.349182 -0.737327
-10.630824 -9.181053 -0.209060 1037 0.558510 0.396989 -0.674204
-10.627607 -9.178263 -0.204698 1065 0.604794 0.437140 -0.611442
-10.625177 -9.176139 -0.200341 1117 0.639758 0.467698 -0.548751
-10.623183 -9.174400 -0.195993 1141 0.668450 0.492713 -0.486190
-10.621902 -9.173266 -0.191661 1171 0.686879 0.509029 -0.423859
-10.620185 -9.171761 -0.187320 1189 0.711592 0.530696 -0.361398
-10.618140 -9.169973 -0.182983 1191 0.741012 0.556411 -0.298996
-10.617023 -9.168985 -0.178659 1205 0.757080 0.570627 -0.236780
-10.616181 -9.168244 -0.174333 1213 0.769197 0.581289 -0.174535
-10.615795 -9.167881 -0.170017 1221 0.774754 0.586517 -0.112435
-10.616219 -9.168234 -0.165714 1233 0.768661 0.581439 -0.050521
-10.616316 -9.168292 -0.161412 1231 0.767262 0.580602 0.011378
-10.616200 -9.168167 -0.157104 1221 0.768922 0.582400 0.073364
-10.616136 -9.168093 -0.152793 1231 0.769855 0.583470 0.135393
-10.615947 -9.167912 -0.148484 1213 0.772572 0.586077 0.197393
-10.616543 -9.168405 -0.144181 1195 0.763996 0.578983 0.259307
-10.617310 -9.169039 -0.139877 1199 0.752964 0.569858 0.321235
-10.618559 -9.170093 -0.135591 1203 0.734988 0.554695 0.382904
-10.619482 -9.170866 -0.131286 1181 0.721705 0.543567 0.444846
-10.620732 -9.171935 -0.126989 1151 0.703716 0.528185 0.506673
-10.623148 -9.174000 -0.122705 1149 0.668958 0.498477 0.568314
-10.625181 -9.175726 -0.118413 1127 0.639703 0.473640 0.630069
-10.627810 -9.177973 -0.114127 1089 0.601885 0.441311 0.691738
-10.631052 -9.180753 -0.109840 1051 0.555231 0.401312 0.753422
-10.634515 -9.183722 -0.105560 975 0.505406 0.358595 0.815004
-10.639522 -9.188032 -0.101281 907 0.433366 0.296572 0.876573
-10.645744 -9.193373 -0.097005 799 0.343830 0.219729 0.938098
-10.643474 -9.186343 -0.217901 935 0.376502 0.320874 -0.801413
-10.638334 -9.181883 -0.213481 993 0.450450 0.385051 -0.737816
-10.634405 -9.178474 -0.209092 1043 0.506984 0.434093 -0.674665
-10.631807 -9.176212 -0.204738 1087 0.544363 0.466642 -0.612017
-10.629150 -9.173892 -0.200374 1111 0.582592 0.500027 -0.549226
-10.626431 -9.171522 -0.196019 1123 0.621713 0.534126 -0.486564
-10.624771 -9.170072 -0.191678 1161 0.645603 0.554997 -0.424104
-10.623219 -9.168713 -0.187347 1179 0.667943 0.574551 -0.361787
-10.620939 -9.166722 -0.183000 1187 0.700738 0.603189 -0.299240
-10.619272 -9.165265 -0.178661 1185 0.724724 0.624156 -0.236809
-10.618546 -9.164621 -0.174344 1205 0.735180 0.633418 -0.174693
-10.617975 -9.164104 -0.170028 1219 0.743386 0.640855 -0.112593
-10.617638 -9.163791 -0.165719 1225 0.748243 0.645370 -0.050593
-10.617030 -9.163238 -0.161403 1205 0.756984 0.653329 0.011508
-10.617789 -9.163877 -0.157098 1219 0.746062 0.644135 0.073451
-10.618876 -9.164785 -0.152812 1231 0.730419 0.631058 0.135119
-10.619030 -9.164899 -0.148502 1209 0.728209 0.629425 0.197134
-10.618466 -9.164389 -0.144185 1171 0.736319 0.636766 0.259249
-10.619169 -9.164973 -0.139892 1177 0.726206 0.628355 0.321019
-10.620974 -9.166517 -0.135600 1185 0.700244 0.606139 0.382774
-10.622452 -9.167768 -0.131303 1169 0.678975 0.588149 0.444602
-10.624313 -9.169357 -0.127021 1157 0.652190 0.565275 0.506213
-10.626346 -9.171085 -0.122730 1137 0.622948 0.540411 0.567954
-10.628919 -9.173288 -0.118436 1117 0.585927 0.508713 0.629738
-10.631336 -9.175354 -0.114152 1085 0.551141 0.478992 0.691379
-10.633851 -9.177502 -0.109857 1049 0.514957 0.448090 0.753177
-10.637371 -9.180514 -0.105577 981 0.464309 0.404742 0.814760
-10.642326 -9.184773 -0.101299 899 0.393010 0.343460 0.876314
-10.649006 -9.190507 -0.097030 785 0.296901 0.260964 0.937738
-10.648321 -9.184860 -0.217958 915 0.306754 0.342211 -0.802233
-10.642242 -9.179586 -0.213523 989 0.394217 0.418094 -0.738420
-10.638477 -9.176327 -0.209134 1037 0.448392 0.464995 -0.675269
-10.635211 -9.173487 -0.204763 1073 0.495389 0.505859 -0.612377
-10.632219 -9.170878 -0.200401 1105 0.538435 0.543389 -0.549614
-10.630062 -9.168994 -0.196052 1129 0.569474 0.570503 -0.487039
-10.627734 -9.166967 -0.191695 1149 0.602969 0.599662 -0.424348
-10.625733 -9.165223 -0.187358 1165 0.631758 0.624760 -0.361945
-10.623682 -9.163429 -0.183019 1161 0.661274 0.650571 -0.299514
-10.622285 -9.162210 -0.178687 1175 0.681376 0.668107 -0.237183
-10.622339 -9.162226 -0.174377 1189 0.680594 0.667888 -0.175168
-10.622054 -9.161962 -0.170068 1203 0.684697 0.671689 -0.113168
-10.621538 -9.161501 -0.165752 1201 0.692121 0.678316 -0.051067
-10.621373 -9.161326 -0.161443 1217 0.694494 0.680827 0.010933
-10.621414 -9.161343 -0.157132 1211 0.693904 0.680594 0.072961
-10.621789 -9.161647 -0.152829 1199 0.688512 0.676217 0.134875
-10.622548 -9.162272 -0.148526 1207 0.677589 0.667215 0.196789
-10.622866 -9.162535 -0.144223 1187 0.673020 0.663442 0.258702
-10.623077 -9.162691 -0.139922 1171 0.669973 0.661191 0.320587
-10.623993 -9.163456 -0.135617 1175 0.656800 0.650186 0.382530
-10.625414 -9.164666 -0.131330 1161 0.636355 0.632773 0.444213
-10.627446 -9.166393 -0.127038 1141 0.607113 0.607923 0.505968
-10.629799 -9.168409 -0.122754 1133 0.573261 0.578915 0.567609
-10.632386 -9.170613 -0.118461 1109 0.536034 0.547203 0.629379
-10.634356 -9.172292 -0.114169 1067 0.507698 0.523053 0.691134
-10.637268 -9.174777 -0.109882 1033 0.465791 0.487293 0.752817
-10.641115 -9.178083 -0.105600 971 0.410437 0.439719 0.814429
-10.646456 -9.182666 -0.101329 883 0.333594 0.373785 0.875882
-10.653241 -9.188490 -0.097060 769 0.235962 0.289986 0.937307
-10.653298 -9.183686 -0.218013 897 0.235139 0.359103 -0.803024
-10.647212 -9.178421 -0.213577 983 0.322712 0.434862 -0.739197
-10.642502 -9.174339 -0.209174 1021 0.390485 0.493592 -0.675845
-10.638906 -9.171220 -0.204805 1063 0.442230 0.538476 -0.612981
-10.636137 -9.168800 -0.200441 1101 0.482065 0.573289 -0.550190
-10.633261 -9.166305 -0.196077 1115 0.523451 0.609199 -0.487399
-10.630819 -9.164181 -0.191720 1127 0.558579 0.639758 -0.424708
-10.629038 -9.162626 -0.187381 1147 0.584211 0.662124 -0.362276
-10.627706 -9.161457 -0.183059 1155 0.603381 0.678948 -0.300089
-10.627313 -9.161087 -0.178741 1179 0.609034 0.684272 -0.237960
-10.626365 -9.160254 -0.174417 1191 0.622674 0.696265 -0.175744
-10.625245 -9.159267 -0.170093 1191 0.638783 0.710453 -0.113528
-10.624851 -9.158911 -0.165776 1191 0.644451 0.715585 -0.051413
-10.624778 -9.158829 -0.161466 1201 0.645507 0.716765 0.010601
-10.624549 -9.158606 -0.157157 1205 0.648800 0.719976 0.072601
-10.624697 -9.158713 -0.152847 1191 0.646674 0.718426 0.134616
-10.625241 -9.159156 -0.148544 1193 0.638838 0.712059 0.196530
-10.625837 -9.159650 -0.144250 1179 0.630262 0.704951 0.258314
-10.626930 -9.160563 -0.139955 1155 0.614537 0.691805 0.320112
-10.628522 -9.161913 -0.135656 1169 0.591635 0.672388 0.381968
-10.629332 -9.162588 -0.131360 1153 0.579985 0.662673 0.443781
-10.630246 -9.163369 -0.127055 1137 0.566826 0.651435 0.505724
-10.631895 -9.164760 -0.122766 1109 0.543100 0.631428 0.567436
-10.635024 -9.167441 -0.118478 1093 0.498079 0.592842 0.629134
-10.637162 -9.169260 -0.114187 1049 0.467314 0.566675 0.690875
-10.640240 -9.171892 -0.109899 1005 0.423033 0.528802 0.752573
-10.644862 -9.175851 -0.105623 947 0.356523 0.471842 0.814098
-10.649769 -9.180062 -0.101354 865 0.285924 0.411246 0.875522
-10.656446 -9.185795 -0.097076 741 0.189843 0.328764 0.937076
-10.657104 -9.181738 -0.218051 879 0.180389 0.387137 -0.803571
-10.650122 -9.175699 -0.213601 963 0.280847 0.474024 -0.739542
-10.645033 -9.171303 -0.209192 1011 0.354067 0.537282 -0.676103
-10.641097 -9.167889 -0.204814 1045 0.410697 0.586407 -0.613111
-10.638548 -9.165673 -0.200448 1091 0.447376 0.618283 -0.550291
-10.636112 -9.163542 -0.196103 1105 0.482422 0.648951 -0.487773
-10.633835 -9.161566 -0.191745 1119 0.515190 0.677383 -0.425068
-10.632174 -9.160115 -0.187415 1139 0.539094 0.698254 -0.362765
-10.630835 -9.158938 -0.183082 1159 0.558359 0.715187 -0.300420
-10.629665 -9.157902 -0.178750 1175 0.575182 0.730103 -0.238089
-10.628824 -9.157161 -0.174434 1177 0.587285 0.740765 -0.175989
-10.628538 -9.156896 -0.170116 1187 0.591402 0.744579 -0.113859
-10.628037 -9.156434 -0.165799 1179 0.598606 0.751221 -0.051744
-10.628136 -9.156507 -0.161498 1183 0.597192 0.750178 0.010141
-10.628119 -9.156466 -0.157190 1185 0.597426 0.750768 0.072127
-10.627555 -9.155957 -0.152871 1173 0.605549 0.758082 0.134271
-10.628420 -9.156688 -0.148566 1179 0.593103 0.747571 0.196213
-10.629634 -9.157706 -0.144281 1157 0.575635 0.732916 0.257868
-10.629783 -9.157815 -0.139970 1147 0.573494 0.731352 0.319896
-10.630655 -9.158539 -0.135675 1153 0.560939 0.720937 0.381695
-10.632076 -9.159746 -0.131376 1139 0.540493 0.703565 0.443551
-10.634265 -9.161616 -0.127094 1133 0.509001 0.676656 0.505163
-10.636411 -9.163442 -0.122802 1111 0.478127 0.650392 0.566918
-10.638544 -9.165254 -0.118509 1081 0.447431 0.624321 0.628688
-10.641572 -9.167835 -0.114223 1031 0.403864 0.587175 0.690357
-10.645205 -9.170945 -0.109941 985 0.351597 0.542428 0.751968
-10.648830 -9.174048 -0.105651 927 0.299426 0.497777 0.813695
-10.653844 -9.178350 -0.101382 833 0.227290 0.435877 0.875119
-10.661681 -9.185073 -0.097118 681 0.114523 0.339151 0.936472
-10.661013 -9.179653 -0.218093 839 0.124142 0.417133 -0.804175
-10.654814 -9.174302 -0.213659 943 0.213335 0.494127 -0.740377
-10.649661 -9.169842 -0.209247 987 0.287474 0.558304 -0.676895
-10.645953 -9.166623 -0.204870 1029 0.340825 0.604616 -0.613916
-10.643005 -9.164072 -0.200496 1061 0.383240 0.641322 -0.550981
-10.640954 -9.162277 -0.196147 1093 0.412756 0.667147 -0.488406
-10.638513 -9.160154 -0.191802 1105 0.447884 0.697692 -0.425888
-10.636519 -9.158417 -0.187454 1133 0.476563 0.722693 -0.363327
-10.634851 -9.156960 -0.183122 1157 0.500562 0.743660 -0.300996
-10.633235 -9.155552 -0.178783 1153 0.523821 0.763914 -0.238564
-10.632565 -9.154949 -0.174466 1159 0.533468 0.772586 -0.176449
-10.632229 -9.154636 -0.170148 1173 0.538298 0.777087 -0.114319
-10.631997 -9.154413 -0.165839 1181 0.541632 0.780298 -0.052319
-10.631818 -9.154241 -0.161521 1179 0.544212 0.782781 0.009810
-10.631859 -9.154256 -0.157220 1171 0.543622 0.782562 0.071695
-10.631956 -9.154314 -0.152910 1173 0.542222 0.781725 0.133710
-10.631946 -9.154282 -0.148601 1167 0.542373 0.782191 0.195709
-10.633154 -9.155307 -0.144304 1165 0.524987 0.767440 0.257537
-10.633800 -9.155835 -0.139999 1153 0.515698 0.759838 0.319479
-10.634117 -9.156096 -0.135698 1127 0.511128 0.756078 0.381364
-10.635922 -9.157627 -0.131408 1117 0.485153 0.734055 0.443091
-10.638281 -9.159636 -0.127124 1107 0.451218 0.705156 0.504731
-10.640378 -9.161413 -0.122833 1089 0.421044 0.679579 0.566472
-10.642738 -9.163421 -0.118539 1053 0.387082 0.650694 0.628256
-10.645596 -9.165864 -0.114251 1025 0.345971 0.615538 0.689954
-10.649000 -9.168777 -0.109964 957 0.296984 0.573618 0.751638
-10.654576 -9.173549 -0.105701 893 0.216752 0.504967 0.812976
-10.660358 -9.178511 -0.101428 781 0.133556 0.433572 0.874458
-10.669533 -9.186384 -0.097175 599 0.001551 0.320284 0.935652
-10.667525 -9.179700 -0.218179 727 0.030435 0.416461 -0.805413
-10.661882 -9.174826 -0.213752 883 0.111628 0.486593 -0.741715
-10.656502 -9.170170 -0.209342 955 0.189047 0.553584 -0.678262
-10.651520 -9.165865 -0.204931 1003 0.260730 0.615525 -0.614794
-10.647911 -9.162745 -0.200551 1039 0.312654 0.660409 -0.551773
-10.645469 -9.160621 -0.196195 1077 0.347796 0.690982 -0.489096
-10.643198 -9.158638 -0.191848 1097 0.380468 0.719510 -0.426549
-10.640151 -9.156001 -0.187486 1117 0.424310 0.757451 -0.363787
-10.638255 -9.154347 -0.183147 1129 0.451589 0.781245 -0.301355
-10.637535 -9.153697 -0.178821 1143 0.461949 0.790603 -0.239111
-10.636744 -9.153004 -0.174506 1143 0.473338 0.800579 -0.177024
-10.636073 -9.152403 -0.170181 1155 0.482985 0.809224 -0.114794
-10.635515 -9.151899 -0.165862 1157 0.491012 0.816469 -0.052650
-10.635664 -9.152007 -0.161561 1157 0.488871 0.814918 0.009235
-10.636373 -9.152598 -0.157258 1173 0.478676 0.806411 0.071148
-10.636975 -9.153084 -0.152955 1181 0.470004 0.799426 0.133062
-10.636901 -9.153002 -0.148645 1165 0.471074 0.800606 0.195076
-10.637390 -9.153404 -0.144342 1147 0.464035 0.794816 0.256990
-10.637979 -9.153890 -0.140039 1145 0.455568 0.787831 0.318904
-10.638794 -9.154572 -0.135734 1127 0.443836 0.778020 0.380846
-10.640550 -9.156054 -0.131444 1105 0.418574 0.756696 0.442573
-10.642803 -9.157970 -0.127151 1103 0.386149 0.729115 0.504343
-10.645056 -9.159888 -0.122869 1067 0.353738 0.701520 0.565954
-10.647252 -9.161763 -0.118577 1033 0.322136 0.674543 0.627709
-10.650167 -9.164248 -0.114290 995 0.280188 0.638783 0.689393
-10.654070 -9.167583 -0.110008 931 0.224038 0.590798 0.751004
-10.658869 -9.171689 -0.105729 843 0.154989 0.531725 0.812573
-10.666102 -9.177898 -0.101468 725 0.050908 0.442381 0.873882
-10.675760 -9.181220 -0.218307 495 -0.088054 0.394588 -0.807255
-10.668060 -9.174586 -0.213840 805 0.022737 0.490038 -0.742981
-10.661742 -9.169129 -0.209407 891 0.113645 0.568555 -0.679197
-10.657257 -9.165244 -0.205001 957 0.178179 0.624458 -0.615801
-10.653493 -9.161984 -0.200624 1013 0.232340 0.671359 -0.552823
-10.650381 -9.159286 -0.196252 1051 0.277114 0.710192 -0.489917
-10.647996 -9.157218 -0.191905 1085 0.311433 0.739941 -0.427370
-10.646215 -9.155663 -0.187555 1107 0.337052 0.762322 -0.364780
-10.644220 -9.153924 -0.183217 1125 0.365758 0.787337 -0.302363
-10.642548 -9.152459 -0.178876 1131 0.389826 0.808414 -0.239902
-10.641706 -9.151719 -0.174550 1149 0.401929 0.819062 -0.177657
-10.640643 -9.150787 -0.170226 1159 0.417229 0.832469 -0.115442
-10.640585 -9.150720 -0.165918 1159 0.418066 0.833443 -0.053456
-10.640569 -9.150679 -0.161607 1163 0.418299 0.834033 0.008573
-10.640224 -9.150359 -0.157291 1167 0.423253 0.838630 0.070674
-10.640159 -9.150283 -0.152980 1169 0.424200 0.839727 0.132702
-10.640924 -9.150916 -0.148675 1151 0.413181 0.830616 0.194645
-10.642231 -9.152027 -0.144387 1149 0.394382 0.814630 0.256342
-10.642941 -9.152603 -0.140085 1123 0.384159 0.806342 0.318242
-10.644312 -9.153763 -0.135787 1117 0.364441 0.789656 0.380084
-10.646174 -9.155351 -0.131496 1097 0.337642 0.766809 0.441825
-10.648042 -9.156932 -0.127195 1079 0.310774 0.744058 0.503709
-10.650288 -9.158840 -0.122913 1061 0.278459 0.716600 0.565321
-10.652540 -9.160758 -0.118619 1013 0.246048 0.689006 0.627105
-10.655457 -9.163243 -0.114324 969 0.204086 0.653246 0.688904
-10.660091 -9.167201 -0.110048 891 0.137398 0.596300 0.750429
-10.665332 -9.171685 -0.105777 801 0.061996 0.531780 0.811882
-10.672623 -9.177938 -0.101516 617 -0.042908 0.441805 0.873191
-10.676841 -9.176462 -0.213964 607 -0.103601 0.463047 -0.744765
-10.668758 -9.169492 -0.209501 807 0.012693 0.563340 -0.680550
-10.663600 -9.165038 -0.205079 891 0.086915 0.627422 -0.616924
-10.660162 -9.162060 -0.200710 957 0.136382 0.670275 -0.554060
-10.656339 -9.158756 -0.196321 1007 0.191394 0.717808 -0.490909
-10.652452 -9.155391 -0.191943 1033 0.247310 0.766233 -0.427917
-10.650900 -9.154033 -0.187602 1069 0.269650 0.785773 -0.365456
-10.650115 -9.153333 -0.183276 1111 0.280943 0.795845 -0.303211
-10.648504 -9.151932 -0.178947 1117 0.304119 0.816002 -0.240924
-10.647778 -9.151287 -0.174621 1127 0.314575 0.825278 -0.178679
-10.646771 -9.150399 -0.170297 1127 0.329052 0.838053 -0.116463
-10.645809 -9.149552 -0.165973 1129 0.342897 0.850238 -0.054247
-10.645971 -9.149673 -0.161660 1127 0.340565 0.848496 0.007810
-10.646118 -9.149780 -0.157350 1153 0.338451 0.846959 0.069824
-10.645276 -9.149025 -0.153026 1133 0.350568 0.857827 0.132040
-10.644990 -9.148759 -0.148717 1117 0.354685 0.861655 0.194040
-10.645919 -9.149541 -0.144412 1123 0.341319 0.850403 0.255983
-10.647618 -9.150981 -0.140123 1111 0.316867 0.829683 0.317695
-10.648883 -9.152035 -0.135825 1099 0.298672 0.814520 0.379537
-10.650695 -9.153573 -0.131534 1083 0.272600 0.792387 0.441278
-10.652776 -9.155350 -0.127242 1067 0.242659 0.766823 0.503033
-10.654367 -9.156685 -0.122943 1009 0.219757 0.747612 0.564889
-10.657553 -9.159408 -0.118655 973 0.173926 0.708436 0.626587
-10.662801 -9.163898 -0.114385 929 0.098414 0.643819 0.688026
-10.667494 -9.167899 -0.110109 859 0.030888 0.586256 0.749551
-10.672897 -9.172531 -0.105838 715 -0.046860 0.519608 0.811004
-10.675931 -9.169767 -0.209596 703 -0.090510 0.559375 -0.681916
-10.670280 -9.164886 -0.205167 841 -0.009207 0.629603 -0.618190
-10.665399 -9.160679 -0.200765 905 0.061035 0.690145 -0.554852
-10.661406 -9.157223 -0.196378 969 0.118489 0.739873 -0.491729
-10.658073 -9.154348 -0.192008 1001 0.166433 0.781231 -0.428852
-10.655917 -9.152463 -0.187660 1035 0.197459 0.808359 -0.366290
-10.654071 -9.150857 -0.183320 1065 0.224024 0.831467 -0.303845
-10.652632 -9.149598 -0.178979 1091 0.244731 0.849580 -0.241384
-10.652231 -9.149234 -0.174661 1095 0.250494 0.854822 -0.179255
-10.652109 -9.149103 -0.170352 1109 0.252250 0.856701 -0.117255
-10.651211 -9.148319 -0.166017 1115 0.265176 0.867981 -0.054880
-10.650981 -9.148097 -0.161708 1115 0.268483 0.871178 0.007120
-10.651419 -9.148449 -0.157396 1123 0.262185 0.866115 0.069163
-10.651396 -9.148417 -0.153085 1117 0.262514 0.866567 0.131192
-10.651116 -9.148144 -0.148767 1117 0.266535 0.870506 0.193321
-10.651868 -9.148778 -0.144464 1101 0.255722 0.861381 0.255235
-10.653190 -9.149888 -0.140167 1083 0.236703 0.845408 0.317062
-10.654724 -9.151181 -0.135877 1059 0.214625 0.826801 0.378789
-10.656593 -9.152761 -0.131576 1027 0.187730 0.804064 0.440673
-10.658617 -9.154482 -0.127284 1011 0.158612 0.779310 0.502429
-10.661532 -9.156967 -0.122998 977 0.116664 0.743550 0.564098
-10.665286 -9.160168 -0.118716 935 0.062654 0.697500 0.625709
-10.668152 -9.162603 -0.114431 867 0.021420 0.662454 0.687364
-10.673670 -9.167320 -0.110160 755 -0.057975 0.594585 0.748817
-10.678350 -9.166259 -0.205285 719 -0.125322 0.609858 -0.619888
-10.672971 -9.161617 -0.200866 835 -0.047917 0.676642 -0.556305
-10.668430 -9.157690 -0.196471 901 0.017413 0.733149 -0.493068
-10.664479 -9.154289 -0.192085 943 0.074263 0.782082 -0.429960
-10.662144 -9.152258 -0.187728 993 0.107868 0.811309 -0.367269
-10.660535 -9.150857 -0.183387 1037 0.131017 0.831467 -0.304808
-10.658975 -9.149489 -0.179055 1063 0.153466 0.851144 -0.242478
-10.658083 -9.148699 -0.174722 1069 0.166296 0.862520 -0.180132
-10.657512 -9.148195 -0.170404 1093 0.174516 0.869765 -0.118003
-10.656507 -9.147307 -0.166070 1075 0.188978 0.882540 -0.055643
-10.656171 -9.146994 -0.161752 1085 0.193809 0.887054 0.006486
-10.655991 -9.146821 -0.157443 1081 0.196402 0.889538 0.068486
-10.656081 -9.146885 -0.153133 1071 0.195098 0.888619 0.130501
-10.656912 -9.147568 -0.148828 1079 0.183147 0.878794 0.192443
-10.657385 -9.147955 -0.144515 1069 0.176341 0.873223 0.254501
-10.658707 -9.149065 -0.140218 1043 0.157322 0.857250 0.316328
-10.660632 -9.150702 -0.135926 1023 0.129617 0.833690 0.378084
-10.661833 -9.151707 -0.131620 995 0.112341 0.819241 0.440040
-10.663417 -9.153049 -0.127332 967 0.089549 0.799920 0.501738
-10.666452 -9.155625 -0.123044 927 0.045872 0.762857 0.563436
-10.670648 -9.159204 -0.118760 869 -0.014490 0.711372 0.625076
-10.677389 -9.164973 -0.114501 789 -0.111491 0.628355 0.686357
-10.684679 -9.171210 -0.110250 591 -0.216381 0.538613 0.747522
-10.686310 -9.167761 -0.205392 435 -0.239846 0.588246 -0.621427
-10.681876 -9.163924 -0.200988 733 -0.176052 0.643449 -0.558060
-10.675435 -9.158379 -0.196565 843 -0.083374 0.723242 -0.494420
-10.671933 -9.155363 -0.192184 911 -0.032988 0.766631 -0.431384
-10.669157 -9.152951 -0.187820 955 0.006957 0.801333 -0.368593
-10.666658 -9.150785 -0.183465 999 0.042908 0.832496 -0.305931
-10.664649 -9.149048 -0.179116 1023 0.071821 0.857497 -0.243355
-10.663652 -9.148166 -0.174781 1033 0.086160 0.870190 -0.180981
-10.663023 -9.147607 -0.170465 1055 0.095216 0.878231 -0.118881
-10.661463 -9.146240 -0.166124 1041 0.117666 0.897895 -0.056420
-10.661510 -9.146263 -0.161815 1053 0.116979 0.897565 0.005580
-10.662170 -9.146806 -0.157501 1059 0.107484 0.889758 0.067652
-10.661819 -9.146492 -0.153182 1057 0.112534 0.894272 0.129796
-10.661640 -9.146303 -0.148874 1049 0.115113 0.896989 0.191781
-10.662725 -9.147225 -0.144567 1035 0.099498 0.883720 0.253753
-10.664382 -9.148623 -0.140268 1017 0.075663 0.863604 0.315609
-10.666315 -9.150252 -0.135978 997 0.047848 0.840167 0.377335
-10.668341 -9.151973 -0.131686 971 0.018703 0.815412 0.439091
-10.670599 -9.153883 -0.127393 927 -0.013791 0.787927 0.500860
-10.674517 -9.157230 -0.123111 877 -0.070160 0.739763 0.562472
-10.678883 -9.160951 -0.118835 793 -0.132979 0.686234 0.623997
-10.685184 -9.166326 -0.114570 645 -0.223640 0.608897 0.685364
-10.684787 -9.160844 -0.196685 685 -0.217932 0.687771 -0.496147
-10.680231 -9.156919 -0.192291 825 -0.152382 0.744250 -0.432924
-10.676616 -9.153805 -0.187911 881 -0.100362 0.789052 -0.369902
-10.673953 -9.151492 -0.183557 937 -0.062051 0.822328 -0.307255
-10.672059 -9.149852 -0.179208 967 -0.034799 0.845930 -0.244679
-10.671103 -9.149013 -0.174873 995 -0.021036 0.858005 -0.182305
-10.669878 -9.147934 -0.170539 1011 -0.003417 0.873525 -0.119945
-10.668759 -9.146960 -0.166206 1011 0.012679 0.887535 -0.057600
-10.668080 -9.146353 -0.161880 1017 0.022449 0.896275 0.004645
-10.668179 -9.146410 -0.157569 1025 0.021036 0.895452 0.066673
-10.668497 -9.146671 -0.153259 1019 0.016453 0.891692 0.128688
-10.668985 -9.147059 -0.148946 1011 0.009427 0.886108 0.190745
-10.669580 -9.147553 -0.144632 977 0.000864 0.879000 0.252817
-10.670724 -9.148516 -0.140336 947 -0.015588 0.865154 0.314630
-10.673319 -9.150714 -0.136041 943 -0.052925 0.833525 0.376429
-10.676353 -9.153290 -0.131753 903 -0.096589 0.796462 0.438127
-10.679333 -9.155824 -0.127467 841 -0.139456 0.760003 0.499796
-10.683257 -9.159163 -0.123183 753 -0.195922 0.711949 0.561436
-10.686726 -9.162127 -0.118894 561 -0.245828 0.669315 0.623148
-10.692520 -9.161791 -0.192466 571 -0.329203 0.674145 -0.435442
-10.686798 -9.156868 -0.188049 739 -0.246871 0.744977 -0.371888
-10.683013 -9.153602 -0.183669 831 -0.192409 0.791975 -0.308866
-10.680178 -9.151148 -0.179305 877 -0.151614 0.827282 -0.246075
-10.678284 -9.149507 -0.174957 911 -0.124362 0.850897 -0.183514
-10.676994 -9.148380 -0.170614 937 -0.105810 0.867103 -0.121024
-10.676203 -9.147687 -0.166288 957 -0.094421 0.877078 -0.058780
-10.675531 -9.147085 -0.161962 957 -0.084760 0.885737 0.003465
-10.675572 -9.147102 -0.157642 953 -0.085350 0.885490 0.065623
-10.676182 -9.147594 -0.153339 961 -0.094119 0.878410 0.127537
-10.677162 -9.148410 -0.149034 953 -0.108225 0.866677 0.189479
-10.678254 -9.149338 -0.144727 921 -0.123936 0.853326 0.251450
-10.679014 -9.149964 -0.140413 893 -0.134873 0.844311 0.313522
-10.681161 -9.151775 -0.136121 849 -0.165761 0.818253 0.375278
-10.685199 -9.155215 -0.131837 797 -0.223860 0.768758 0.436918
-10.689672 -9.159026 -0.127563 687 -0.288229 0.713925 0.498414
-10.694135 -9.157577 -0.183820 575 -0.352434 0.734782 -0.311039
-10.691857 -9.155600 -0.179452 713 -0.319666 0.763228 -0.248190
-10.689356 -9.153433 -0.175098 791 -0.283674 0.794404 -0.185542
-10.686951 -9.151360 -0.170741 821 -0.249067 0.824235 -0.122852
-10.684502 -9.149243 -0.166385 833 -0.213829 0.854684 -0.060175
-10.684108 -9.148872 -0.162057 847 -0.208162 0.860022 0.002098
-10.685144 -9.149745 -0.157750 855 -0.223077 0.847467 0.064069
-10.685185 -9.149760 -0.153430 865 -0.223668 0.847247 0.126227
-10.685289 -9.149825 -0.149110 827 -0.225163 0.846314 0.188386
-10.687273 -9.151504 -0.144819 791 -0.253705 0.822163 0.250127
-10.688693 -9.152698 -0.140512 743 -0.274137 0.804983 0.312098
-10.691515 -9.155092 -0.136214 659 -0.314740 0.770528 0.373940
-10.692381 -9.155809 -0.131910 425 -0.327199 0.760209 0.435868
-10.697012 -9.154516 -0.166538 583 -0.393833 0.778816 -0.062377
-10.696292 -9.153866 -0.162200 633 -0.383473 0.788174 0.000040
-10.696886 -9.154359 -0.157888 651 -0.392022 0.781080 0.062084
