174
-20.716894 -18.264938 -0.151958 843 0.921318 -0.494429 -0.115326
-20.715509 -18.263678 -0.143476 857 0.941242 -0.476288 0.006718
-20.727747 -18.263157 -0.177484 845 0.765162 -0.468796 -0.482606
-20.714523 -18.251455 -0.168901 961 0.955431 -0.300428 -0.359110
-20.711277 -18.248558 -0.160411 1015 1.002140 -0.258741 -0.236951
-20.710888 -18.248169 -0.151923 1037 1.007739 -0.253142 -0.114822
-20.710606 -18.247885 -0.143445 1051 1.011800 -0.249053 0.007164
-20.711264 -18.248415 -0.134971 1039 1.002332 -0.256682 0.129092
-20.713118 -18.250013 -0.126510 991 0.975657 -0.279680 0.250833
-20.718212 -18.254459 -0.118051 935 0.902354 -0.343652 0.372545
-20.724821 -18.249361 -0.185939 881 0.807261 -0.270295 -0.604261
-20.718391 -18.243660 -0.177407 1019 0.899775 -0.188265 -0.481498
-20.714602 -18.240282 -0.168899 1085 0.954306 -0.139662 -0.359081
-20.710537 -18.236662 -0.160403 1119 1.012788 -0.087573 -0.236836
-20.709381 -18.235600 -0.151919 1127 1.029419 -0.072287 -0.114764
-20.709595 -18.235752 -0.143449 1137 1.026346 -0.074483 0.007106
-20.709755 -18.235846 -0.134967 1139 1.024040 -0.075827 0.129149
-20.711395 -18.237247 -0.126508 1103 1.000439 -0.095999 0.250862
-20.713966 -18.239471 -0.118043 1053 0.963444 -0.127998 0.372660
-20.719831 -18.244589 -0.109590 973 0.879054 -0.201630 0.494286
-20.737877 -18.260443 -0.101184 811 0.619408 -0.429743 0.615236
-20.732969 -18.245129 -0.194470 881 0.690021 -0.209397 -0.727009
-20.721979 -18.235422 -0.185905 1031 0.848153 -0.069735 -0.603771
-20.716383 -18.230444 -0.177388 1113 0.928673 0.001894 -0.481225
-20.713690 -18.228035 -0.168895 1161 0.967424 0.036555 -0.359023
-20.711979 -18.226482 -0.160403 1181 0.992041 0.058895 -0.236836
-20.712139 -18.226593 -0.151933 1185 0.989736 0.057303 -0.114966
-20.711039 -18.225573 -0.143460 1189 1.005571 0.071985 0.006948
-20.710424 -18.224989 -0.134984 1173 1.014408 0.080383 0.128905
-20.711733 -18.226107 -0.126515 1159 0.995581 0.064301 0.250761
-20.714748 -18.228710 -0.118058 1121 0.952192 0.026840 0.372444
-20.719511 -18.232866 -0.109601 1063 0.883665 -0.032960 0.494128
-20.725546 -18.238127 -0.101146 971 0.796833 -0.108650 0.615782
-20.737757 -18.237694 -0.202985 867 0.621137 -0.102421 -0.849527
-20.729361 -18.230278 -0.194434 989 0.741945 0.004281 -0.726491
-20.723043 -18.224674 -0.185901 1099 0.832839 0.084911 -0.603714
-20.718643 -18.220764 -0.177396 1149 0.896152 0.141171 -0.481340
-20.715630 -18.218065 -0.168904 1193 0.939513 0.180004 -0.359153
-20.713640 -18.216282 -0.160415 1219 0.968137 0.205664 -0.237009
-20.712925 -18.215614 -0.151940 1221 0.978429 0.215270 -0.115067
-20.711557 -18.214354 -0.143468 1219 0.998106 0.233410 0.006833
-20.710770 -18.213629 -0.134994 1201 1.009440 0.243839 0.128761
-20.713453 -18.215948 -0.126536 1201 0.970827 0.210467 0.250459
-20.715975 -18.218121 -0.118072 1173 0.934546 0.179208 0.372243
-20.719372 -18.221056 -0.109613 1125 0.885668 0.136972 0.493955
-20.725018 -18.225988 -0.101159 1071 0.804435 0.066002 0.615595
-20.732206 -18.232258 -0.092708 933 0.700999 -0.024205 0.737193
-20.741301 -18.229362 -0.203004 893 0.570146 0.017454 -0.849800
-20.731791 -18.220959 -0.194438 1049 0.706981 0.138372 -0.726548
-20.725100 -18.215029 -0.185918 1129 0.803254 0.223695 -0.603959
-20.720583 -18.211018 -0.177405 1175 0.868242 0.281409 -0.481469
-20.718390 -18.209045 -0.168918 1209 0.899802 0.309786 -0.359354
-20.717131 -18.207899 -0.160445 1231 0.917915 0.326280 -0.237441
-20.715414 -18.206350 -0.151956 1251 0.942614 0.348565 -0.115297
-20.715189 -18.206112 -0.143487 1235 0.945853 0.351995 0.006559
-20.716125 -18.206888 -0.135020 1223 0.932378 0.340825 0.128387
-20.717037 -18.207655 -0.126556 1217 0.919260 0.329793 0.250171
-20.718798 -18.209148 -0.118096 1197 0.893929 0.308304 0.371897
-20.723120 -18.212915 -0.109641 1165 0.831741 0.254103 0.493552
-20.728708 -18.217773 -0.101188 1083 0.751331 0.184203 0.615178
-20.735569 -18.223764 -0.092738 995 0.652615 0.098002 0.736761
-20.743137 -18.219950 -0.203010 943 0.543718 0.152890 -0.849887
-20.734781 -18.212574 -0.194459 1051 0.663949 0.259015 -0.726851
-20.728464 -18.206985 -0.185935 1121 0.754844 0.339426 -0.604203
-20.724607 -18.203554 -0.177428 1185 0.810335 0.388797 -0.481800
-20.722418 -18.201586 -0.168941 1225 0.841841 0.417119 -0.359685
-20.720444 -18.199800 -0.160462 1245 0.870245 0.442807 -0.237685
-20.719606 -18.199026 -0.151988 1241 0.882293 0.453949 -0.115757
-20.720043 -18.199366 -0.143525 1257 0.876008 0.449064 0.006013
-20.720133 -18.199406 -0.135055 1251 0.874718 0.448488 0.127883
-20.721508 -18.200577 -0.126586 1231 0.854931 0.431637 0.249739
-20.723751 -18.202505 -0.118135 1205 0.822657 0.403891 0.371336
-20.726381 -18.204767 -0.109668 1177 0.784812 0.371343 0.493164
-20.731371 -18.209108 -0.101220 1121 0.713019 0.308881 0.614718
-20.738951 -18.215723 -0.092765 1027 0.603957 0.213705 0.736372
-20.747599 -18.212652 -0.203033 989 0.479527 0.257890 -0.850218
-20.740131 -18.206053 -0.194495 1085 0.586969 0.352846 -0.727369
-20.734789 -18.201328 -0.185977 1143 0.663840 0.420824 -0.604807
-20.729786 -18.196892 -0.177466 1191 0.735825 0.484659 -0.482347
-20.726864 -18.194286 -0.168973 1231 0.777869 0.522147 -0.360146
-20.725496 -18.193041 -0.160491 1257 0.797546 0.540068 -0.238103
-20.724451 -18.192078 -0.152019 1279 0.812585 0.553927 -0.116203
-20.724220 -18.191828 -0.143550 1269 0.815906 0.557522 0.005653
-20.725100 -18.192562 -0.135083 1265 0.803254 0.546956 0.127480
-20.726231 -18.193521 -0.126618 1223 0.786980 0.533152 0.249279
-20.728212 -18.195219 -0.118156 1215 0.758466 0.508727 0.371034
-20.732370 -18.198820 -0.109712 1185 0.698638 0.456913 0.492531
-20.736771 -18.202637 -0.101256 1137 0.635325 0.401998 0.614200
-20.741697 -18.206913 -0.092797 1055 0.564438 0.340469 0.735912
-20.752338 -18.205793 -0.203061 981 0.411329 0.356578 -0.850620
-20.744644 -18.198999 -0.194516 1075 0.522037 0.454333 -0.727671
-20.739422 -18.194380 -0.186008 1149 0.597179 0.520802 -0.605254
-20.735081 -18.190527 -0.177503 1213 0.659641 0.576239 -0.482880
-20.731611 -18.187437 -0.169004 1223 0.709561 0.620698 -0.360592
-20.729965 -18.185946 -0.160523 1237 0.733245 0.642159 -0.238563
-20.729134 -18.185179 -0.152047 1261 0.745211 0.653191 -0.116606
-20.728682 -18.184742 -0.143581 1251 0.751715 0.659476 0.005207
-20.730392 -18.186197 -0.135120 1247 0.727098 0.638536 0.126948
-20.732138 -18.187691 -0.126660 1237 0.701987 0.617048 0.248674
-20.733067 -18.188459 -0.118196 1211 0.688621 0.605988 0.370459
-20.736568 -18.191488 -0.109735 1179 0.638235 0.562407 0.492200
-20.741732 -18.195982 -0.101285 1127 0.563944 0.497749 0.613782
-20.748102 -18.201517 -0.092837 1047 0.472281 0.418107 0.735336
-20.762091 -18.203796 -0.203130 967 0.271008 0.385312 -0.851613
-20.752958 -18.195740 -0.194583 1073 0.402409 0.501235 -0.728635
-20.746193 -18.189766 -0.186051 1141 0.499753 0.587189 -0.605872
-20.741901 -18.185961 -0.177547 1199 0.561502 0.641939 -0.483512
-20.738773 -18.183180 -0.169046 1227 0.606509 0.681953 -0.361196
-20.737282 -18.181828 -0.160575 1245 0.627971 0.701410 -0.239311
-20.736446 -18.181055 -0.152099 1243 0.639991 0.712525 -0.117354
-20.736008 -18.180632 -0.143622 1229 0.646303 0.718618 0.004617
-20.736162 -18.180721 -0.135152 1229 0.644080 0.717328 0.126487
-20.737480 -18.181833 -0.126693 1225 0.625116 0.701328 0.248200
-20.739887 -18.183893 -0.118230 1201 0.590482 0.671689 0.369969
-20.742460 -18.186117 -0.109775 1153 0.553460 0.639689 0.491624
-20.747953 -18.190884 -0.101323 1121 0.474422 0.571107 0.613236
-20.754694 -18.196753 -0.092874 1031 0.377435 0.486662 0.734804
-20.769411 -18.198994 -0.203185 913 0.165679 0.454416 -0.852405
-20.761047 -18.191626 -0.194635 1049 0.286020 0.560431 -0.729383
-20.755444 -18.186668 -0.186116 1115 0.366650 0.631758 -0.606807
-20.750538 -18.182329 -0.177606 1165 0.437236 0.694193 -0.484361
-20.745638 -18.177998 -0.169093 1185 0.507739 0.756518 -0.361872
-20.743984 -18.176502 -0.160613 1213 0.531533 0.778034 -0.239858
-20.743212 -18.175776 -0.152139 1211 0.542648 0.788490 -0.117930
-20.742996 -18.175541 -0.143670 1215 0.545749 0.791865 0.003926
-20.743866 -18.176270 -0.135205 1231 0.533234 0.781382 0.125725
-20.744572 -18.176847 -0.126741 1203 0.523080 0.773066 0.247509
-20.746811 -18.178770 -0.118278 1191 0.490861 0.745403 0.369279
-20.751097 -18.182470 -0.109822 1139 0.429195 0.692162 0.490948
-20.754606 -18.185505 -0.101363 1085 0.378698 0.648499 0.612660
-20.761255 -18.191286 -0.092914 971 0.283029 0.565316 0.734228
-20.771282 -18.188940 -0.194705 991 0.138756 0.599072 -0.730390
-20.763250 -18.181856 -0.186172 1077 0.254322 0.700999 -0.607613
-20.758297 -18.177483 -0.177651 1137 0.325594 0.763927 -0.485009
-20.755375 -18.174877 -0.169158 1165 0.367638 0.801416 -0.362807
-20.753067 -18.172819 -0.160672 1201 0.400845 0.831028 -0.240707
-20.751846 -18.171707 -0.152198 1199 0.418409 0.847027 -0.118779
-20.751629 -18.171473 -0.143720 1195 0.421538 0.850403 0.003207
-20.751617 -18.171413 -0.135251 1201 0.421702 0.851254 0.125063
-20.753035 -18.172611 -0.126792 1183 0.401312 0.834019 0.246775
-20.755508 -18.174734 -0.118327 1149 0.365717 0.803474 0.368574
-20.759176 -18.177910 -0.109866 1099 0.312942 0.757780 0.490315
-20.764891 -18.182869 -0.101413 1037 0.230721 0.686426 0.611941
-20.769888 -18.187204 -0.092954 895 0.158818 0.624046 0.733653
-20.773319 -18.179241 -0.186244 1003 0.109446 0.738624 -0.608649
-20.767651 -18.174236 -0.177716 1075 0.191009 0.810637 -0.485944
-20.764893 -18.171778 -0.169223 1127 0.230693 0.846012 -0.363743
-20.761703 -18.168949 -0.160731 1163 0.276579 0.886711 -0.241556
-20.760817 -18.168125 -0.152246 1161 0.289341 0.898567 -0.119469
-20.761581 -18.168747 -0.143783 1179 0.278336 0.889620 0.002300
-20.761465 -18.168612 -0.135312 1169 0.280010 0.891569 0.124185
-20.762726 -18.169670 -0.126845 1127 0.261869 0.876338 0.246013
-20.766291 -18.172747 -0.118384 1099 0.210577 0.832071 0.367754
-20.769703 -18.175682 -0.109925 1047 0.161480 0.789834 0.489466
-20.775896 -18.181068 -0.101480 953 0.072369 0.712333 0.610977
-20.782511 -18.175861 -0.186299 835 -0.022806 0.787255 -0.609441
-20.780909 -18.174419 -0.177808 987 0.000247 0.808002 -0.487268
-20.777941 -18.171780 -0.169316 1061 0.042950 0.845985 -0.365081
-20.774416 -18.168648 -0.160817 1109 0.093666 0.891047 -0.242793
-20.772589 -18.167011 -0.152328 1111 0.119957 0.914594 -0.120649
-20.771866 -18.166334 -0.143851 1113 0.130358 0.924337 0.001322
-20.771528 -18.165997 -0.135373 1113 0.135216 0.929194 0.123308
-20.773067 -18.167299 -0.126905 1087 0.113069 0.910450 0.245149
-20.777681 -18.171295 -0.118447 1031 0.046682 0.852955 0.366847
-20.783348 -18.176203 -0.109996 971 -0.034854 0.782342 0.488444
-20.790447 -18.171703 -0.169400 925 -0.137000 0.847082 -0.366290
-20.787634 -18.169201 -0.160897 1001 -0.096520 0.883089 -0.243944
-20.784821 -18.166698 -0.152404 1007 -0.056040 0.919095 -0.121743
-20.783649 -18.165640 -0.143920 1029 -0.039190 0.934326 0.000329
-20.785255 -18.166990 -0.135451 1019 -0.062298 0.914896 0.122185
-20.787334 -18.168772 -0.126979 985 -0.092211 0.889264 0.244085
-20.791954 -18.172758 -0.118522 907 -0.158680 0.831906 0.365768
-20.798075 -18.167105 -0.152484 823 -0.246748 0.913249 -0.122894
-20.797630 -18.166672 -0.144008 835 -0.240353 0.919479 -0.000937
