208
-19.093710 -16.280800 -0.155324 899 0.825594 -0.318212 -0.104524
-19.093267 -16.280392 -0.147606 917 0.831961 -0.312339 0.006527
-19.094707 -16.281584 -0.139918 901 0.811241 -0.329491 0.117145
-19.099186 -16.275320 -0.178475 901 0.746802 -0.239365 -0.437632
-19.094175 -16.271004 -0.170735 987 0.818897 -0.177260 -0.326265
-19.091715 -16.268877 -0.163008 1031 0.854300 -0.146660 -0.215085
-19.089546 -16.266987 -0.155291 1059 0.885504 -0.119463 -0.104049
-19.088524 -16.266079 -0.147576 1055 0.900214 -0.106400 0.006958
-19.089912 -16.267223 -0.139889 1043 0.880235 -0.122866 0.117563
-19.091351 -16.268415 -0.132191 1033 0.859542 -0.140019 0.228325
-19.094509 -16.271069 -0.124502 981 0.814095 -0.178193 0.338958
-19.098568 -16.274483 -0.116820 889 0.755694 -0.227318 0.449491
-19.101833 -16.267727 -0.186190 947 0.708710 -0.130111 -0.548639
-19.096373 -16.263042 -0.178440 1039 0.787282 -0.062709 -0.437128
-19.091743 -16.259066 -0.170708 1087 0.853888 -0.005489 -0.325876
-19.089462 -16.257082 -0.162992 1117 0.886711 0.023053 -0.214855
-19.088840 -16.256514 -0.155285 1129 0.895658 0.031231 -0.103963
-19.088446 -16.256136 -0.147578 1135 0.901339 0.036665 0.006930
-19.089380 -16.256901 -0.139881 1127 0.887891 0.025660 0.117678
-19.090090 -16.257467 -0.132187 1101 0.877682 0.017509 0.228383
-19.092482 -16.259459 -0.124504 1083 0.843268 -0.011142 0.338930
-19.096699 -16.263012 -0.116820 1027 0.782589 -0.062270 0.449491
-19.101805 -16.267330 -0.109141 941 0.709122 -0.124403 0.559980
-19.105585 -16.261095 -0.193918 935 0.654728 -0.034689 -0.659833
-19.099070 -16.255514 -0.186165 1047 0.748477 0.045612 -0.548279
-19.095501 -16.252438 -0.178427 1115 0.799824 0.089879 -0.436941
-19.092155 -16.249548 -0.170707 1147 0.847961 0.131456 -0.325862
-19.090036 -16.247705 -0.162987 1155 0.878451 0.157967 -0.214783
-19.089195 -16.246956 -0.155283 1167 0.890553 0.168752 -0.103934
-19.089409 -16.247105 -0.147591 1187 0.887480 0.166612 0.006743
-19.088573 -16.246346 -0.139887 1175 0.899500 0.177534 0.117591
-19.089672 -16.247242 -0.132191 1159 0.883692 0.164636 0.228325
-19.093111 -16.250134 -0.124510 1141 0.834211 0.123031 0.338843
-19.096104 -16.252644 -0.116823 1091 0.791152 0.086915 0.449448
-19.099491 -16.255487 -0.109144 1031 0.742411 0.045996 0.559937
-19.105598 -16.260651 -0.101470 921 0.654536 -0.028295 0.670354
-19.112694 -16.256725 -0.201681 887 0.552445 0.028185 -0.771531
-19.104446 -16.249672 -0.193898 1017 0.671112 0.129672 -0.659545
-19.099211 -16.245184 -0.186148 1099 0.746446 0.194248 -0.548034
-19.095863 -16.242292 -0.178427 1155 0.794610 0.235853 -0.436941
-19.092808 -16.239653 -0.170707 1175 0.838575 0.273835 -0.325862
-19.090847 -16.237946 -0.162987 1191 0.866787 0.298397 -0.214783
-19.090668 -16.237761 -0.155288 1207 0.869367 0.301059 -0.104006
-19.090559 -16.237627 -0.147599 1209 0.870931 0.302980 0.006627
-19.090654 -16.237675 -0.139899 1201 0.869559 0.302294 0.117419
-19.091488 -16.238344 -0.132203 1191 0.857566 0.292661 0.228153
-19.092926 -16.239523 -0.124516 1163 0.836873 0.275701 0.338757
-19.097088 -16.243023 -0.116841 1135 0.776991 0.225342 0.449189
-19.102314 -16.247427 -0.109162 1091 0.701795 0.161974 0.559678
-19.107809 -16.252077 -0.101490 1015 0.622729 0.095066 0.670066
-19.109409 -16.253395 -0.093790 853 0.599703 0.076102 0.780858
-19.113951 -16.247337 -0.201679 965 0.534360 0.163264 -0.771502
-19.106428 -16.240902 -0.193899 1069 0.642598 0.255859 -0.659560
-19.101528 -16.236700 -0.186159 1135 0.713101 0.316318 -0.548193
-19.096172 -16.232109 -0.178419 1167 0.790164 0.382375 -0.436826
-19.093777 -16.230030 -0.170702 1201 0.824633 0.412289 -0.325790
-19.093498 -16.229752 -0.163004 1217 0.828640 0.416296 -0.215027
-19.093370 -16.229614 -0.155306 1229 0.830479 0.418272 -0.104265
-19.093317 -16.229521 -0.147617 1241 0.831247 0.419617 0.006368
-19.093363 -16.229521 -0.139916 1229 0.830589 0.419617 0.117174
-19.094793 -16.230707 -0.132227 1217 0.810006 0.402547 0.227807
-19.095903 -16.231609 -0.124542 1191 0.794033 0.389566 0.338383
-19.097790 -16.233173 -0.116850 1157 0.766891 0.367062 0.449059
-19.102510 -16.237152 -0.109173 1125 0.698968 0.309814 0.559520
-19.108295 -16.242023 -0.101501 1067 0.615731 0.239722 0.669908
-19.114685 -16.247427 -0.093825 949 0.523794 0.161974 0.780354
-19.117149 -16.240189 -0.201689 999 0.488336 0.266123 -0.771646
-19.109787 -16.233891 -0.193920 1085 0.594269 0.356743 -0.659862
-19.104605 -16.229446 -0.186180 1147 0.668834 0.420687 -0.548495
-19.100748 -16.226137 -0.178454 1195 0.724326 0.468302 -0.437329
-19.098644 -16.224308 -0.170735 1219 0.754597 0.494621 -0.326265
-19.096964 -16.222843 -0.163025 1233 0.778775 0.515698 -0.215329
-19.095503 -16.221571 -0.155324 1235 0.799797 0.534003 -0.104524
-19.094387 -16.220573 -0.147620 1239 0.815851 0.548356 0.006325
-19.094873 -16.220955 -0.139928 1239 0.808853 0.542867 0.117002
-19.096817 -16.222572 -0.132246 1223 0.780888 0.519595 0.227534
-19.098372 -16.223850 -0.124558 1211 0.758521 0.501207 0.338153
-19.100641 -16.225737 -0.116875 1179 0.725863 0.474065 0.448699
-19.104858 -16.229290 -0.109200 1157 0.665184 0.422937 0.559131
-19.110535 -16.234070 -0.101517 1083 0.583511 0.354163 0.669678
-19.116426 -16.239038 -0.093844 995 0.498737 0.282672 0.780081
-19.120214 -16.232733 -0.201712 1025 0.444234 0.373401 -0.771977
-19.112402 -16.226065 -0.193938 1101 0.556644 0.469345 -0.660121
-19.108112 -16.222385 -0.186201 1163 0.618365 0.522284 -0.548797
-19.104874 -16.219599 -0.178471 1205 0.664965 0.562380 -0.437574
-19.102259 -16.217335 -0.170756 1221 0.702590 0.594956 -0.326567
-19.101299 -16.216490 -0.163052 1245 0.716395 0.607113 -0.215718
-19.100401 -16.215683 -0.155356 1269 0.729321 0.618722 -0.104984
-19.098108 -16.213705 -0.147650 1247 0.762308 0.647181 0.005894
-19.098602 -16.214075 -0.139959 1239 0.755200 0.641857 0.116556
-19.101938 -16.216873 -0.132279 1251 0.707201 0.601597 0.227059
-19.104326 -16.218857 -0.124594 1237 0.672841 0.573055 0.337635
-19.105547 -16.219858 -0.116907 1193 0.655277 0.558647 0.448239
-19.108479 -16.222309 -0.109221 1175 0.613096 0.523382 0.558829
-19.113758 -16.226765 -0.101551 1107 0.537131 0.459273 0.669189
-19.119492 -16.231583 -0.093869 1009 0.454635 0.389950 0.779721
-19.123163 -16.225180 -0.201727 1035 0.401806 0.482079 -0.772193
-19.117033 -16.219934 -0.193962 1113 0.490010 0.557550 -0.660466
-19.112293 -16.215883 -0.186229 1173 0.558208 0.615840 -0.549200
-19.109562 -16.213524 -0.178505 1219 0.597508 0.649788 -0.438063
-19.106932 -16.211262 -0.170790 1243 0.635353 0.682337 -0.327056
-19.104694 -16.209324 -0.163073 1271 0.667545 0.710220 -0.216020
-19.103069 -16.207907 -0.155373 1259 0.690927 0.730611 -0.105229
-19.103237 -16.208010 -0.147681 1267 0.688512 0.729129 0.005448
-19.104439 -16.208990 -0.139995 1239 0.671222 0.715022 0.116038
-19.105726 -16.210037 -0.132307 1235 0.652697 0.699956 0.226656
-19.107224 -16.211271 -0.124619 1219 0.631154 0.682200 0.337275
-19.108822 -16.212587 -0.116930 1185 0.608156 0.663263 0.447908
-19.111601 -16.214907 -0.109244 1161 0.568170 0.629892 0.558498
-19.117212 -16.219639 -0.101573 1119 0.487430 0.561803 0.668872
-19.124454 -16.225742 -0.093901 1023 0.383226 0.473983 0.779261
-19.129864 -16.221012 -0.201767 1057 0.305395 0.542044 -0.772768
-19.122896 -16.215067 -0.194008 1115 0.405648 0.627586 -0.661128
-19.117924 -16.210823 -0.186266 1169 0.477194 0.688649 -0.549732
-19.113966 -16.207417 -0.178530 1199 0.534140 0.737664 -0.438423
-19.111677 -16.205435 -0.170823 1217 0.567073 0.766178 -0.327531
-19.110609 -16.204502 -0.163119 1251 0.582441 0.779598 -0.216682
-19.109154 -16.203222 -0.155407 1263 0.603381 0.798013 -0.105718
-19.108034 -16.202232 -0.147713 1247 0.619490 0.812256 0.004987
-19.109140 -16.203136 -0.140028 1241 0.603573 0.799248 0.115563
-19.111193 -16.204845 -0.132345 1229 0.574043 0.774658 0.226109
-19.112633 -16.206024 -0.124657 1217 0.553323 0.757698 0.336728
-19.114901 -16.207912 -0.116965 1183 0.520692 0.730528 0.447404
-19.119188 -16.211504 -0.109289 1161 0.458999 0.678851 0.557850
-19.123861 -16.215424 -0.101614 1097 0.391761 0.622454 0.668282
-19.129364 -16.220049 -0.093931 1005 0.312586 0.555903 0.778829
-19.138103 -16.217751 -0.201834 1019 0.186838 0.588973 -0.773732
-19.130676 -16.211418 -0.194065 1095 0.293704 0.680086 -0.661948
-19.124990 -16.206564 -0.186318 1157 0.375514 0.749931 -0.550480
-19.121582 -16.203638 -0.178587 1205 0.424557 0.792030 -0.439243
-19.118792 -16.201235 -0.170864 1209 0.464707 0.826609 -0.328121
-19.116655 -16.199394 -0.163157 1231 0.495444 0.853093 -0.217229
-19.115376 -16.198267 -0.155453 1241 0.513859 0.869312 -0.106380
-19.114202 -16.197227 -0.147751 1221 0.530737 0.884269 0.004440
-19.115917 -16.198643 -0.140070 1233 0.506065 0.863905 0.114958
-19.115852 -16.198553 -0.132372 1221 0.506998 0.865195 0.225721
-19.117292 -16.199732 -0.124684 1213 0.486278 0.848235 0.336340
-19.120962 -16.202805 -0.117013 1175 0.433476 0.804023 0.446714
-19.124407 -16.205688 -0.109322 1133 0.383912 0.762528 0.557376
-19.130527 -16.210838 -0.101658 1077 0.295845 0.688429 0.667649
-19.135874 -16.215326 -0.093977 985 0.218920 0.623854 0.778167
-19.143490 -16.212177 -0.201874 981 0.109336 0.669164 -0.774308
-19.135679 -16.205521 -0.194100 1059 0.221719 0.764943 -0.662452
-19.130709 -16.201279 -0.186358 1119 0.293238 0.825978 -0.551056
-19.127752 -16.198734 -0.178635 1169 0.335776 0.862588 -0.439934
-19.125290 -16.196613 -0.170918 1203 0.371206 0.893106 -0.328898
-19.122606 -16.194304 -0.163193 1205 0.409819 0.926340 -0.217747
-19.122040 -16.193789 -0.155497 1213 0.417970 0.933750 -0.107013
-19.122650 -16.194260 -0.147805 1219 0.409188 0.926971 0.003663
-19.122753 -16.194315 -0.140114 1213 0.407706 0.926176 0.114325
-19.123074 -16.194551 -0.132422 1189 0.403095 0.922773 0.225002
-19.124514 -16.195730 -0.124733 1171 0.382375 0.905812 0.335635
-19.127686 -16.198381 -0.117045 1147 0.336736 0.867665 0.446253
-19.131575 -16.201637 -0.109373 1107 0.280778 0.820819 0.556642
-19.136919 -16.206127 -0.101692 1043 0.203880 0.756216 0.667160
-19.143265 -16.211462 -0.094018 923 0.112575 0.679455 0.777577
-19.151121 -16.208828 -0.201929 883 -0.000467 0.717355 -0.775099
-19.145706 -16.204214 -0.194170 1017 0.077447 0.783742 -0.663459
-19.140072 -16.199404 -0.186423 1085 0.158516 0.852955 -0.551991
-19.135593 -16.195585 -0.178688 1137 0.222954 0.907898 -0.440696
-19.132574 -16.192991 -0.170965 1171 0.266398 0.945222 -0.329574
-19.129992 -16.190765 -0.163252 1195 0.303557 0.977249 -0.218596
-19.129274 -16.190117 -0.155545 1199 0.313875 0.986580 -0.107703
-19.129660 -16.190403 -0.147854 1201 0.308332 0.982463 0.002958
-19.129982 -16.190638 -0.140162 1197 0.303694 0.979087 0.113635
-19.131086 -16.191542 -0.132466 1183 0.287804 0.966079 0.224368
-19.132524 -16.192719 -0.124777 1149 0.267111 0.949146 0.335002
-19.135532 -16.195227 -0.117100 1135 0.223832 0.913057 0.445462
-19.139704 -16.198725 -0.109417 1071 0.163812 0.862725 0.556009
-19.144327 -16.202593 -0.101731 989 0.097289 0.807069 0.666599
-19.145975 -16.203957 -0.094041 845 0.073577 0.787447 0.777246
-19.154730 -16.201462 -0.194243 927 -0.052390 0.823343 -0.664509
-19.149536 -16.197031 -0.186493 1045 0.022339 0.887096 -0.552998
-19.144741 -16.192938 -0.178749 1101 0.091333 0.945990 -0.441574
-19.141375 -16.190056 -0.171028 1129 0.139772 0.987458 -0.330481
-19.139370 -16.188322 -0.163311 1165 0.168615 1.012404 -0.219445
-19.137745 -16.186905 -0.155600 1169 0.191997 1.032795 -0.108495
-19.137905 -16.187004 -0.147909 1179 0.189692 1.031368 0.002167
-19.139410 -16.188231 -0.140221 1165 0.168039 1.013721 0.112786
-19.139729 -16.188465 -0.132519 1153 0.163456 1.010346 0.223606
-19.141003 -16.189499 -0.124832 1121 0.145123 0.995471 0.334210
-19.144455 -16.192392 -0.117152 1079 0.095450 0.953839 0.444714
-19.148403 -16.195690 -0.109471 1021 0.038641 0.906389 0.555232
-19.154196 -16.200552 -0.101786 913 -0.044706 0.836434 0.665807
-19.160677 -16.196798 -0.186577 939 -0.137960 0.890444 -0.554207
-19.154858 -16.191841 -0.178831 1037 -0.054229 0.961770 -0.442754
-19.150221 -16.187883 -0.171088 1071 0.012487 1.018716 -0.331344
-19.147366 -16.185432 -0.163365 1097 0.053570 1.053982 -0.220222
-19.146749 -16.184872 -0.155667 1101 0.062435 1.062050 -0.109459
-19.146961 -16.185019 -0.147967 1123 0.059389 1.059937 0.001333
-19.147903 -16.185774 -0.140270 1115 0.045831 1.049069 0.112081
-19.149399 -16.186995 -0.132582 1097 0.024315 1.031505 0.222699
-19.151119 -16.188414 -0.124893 1055 -0.000439 1.011087 0.333332
-19.155411 -16.192009 -0.117209 1019 -0.062188 0.959355 0.443894
-19.160036 -16.195871 -0.109532 925 -0.128739 0.903781 0.554354
-19.166203 -16.191799 -0.178916 923 -0.217465 0.962374 -0.443977
-19.162510 -16.188633 -0.171175 999 -0.164334 1.007931 -0.332596
-19.159208 -16.185814 -0.163454 1047 -0.116829 1.048493 -0.221502
-19.157810 -16.184593 -0.155743 1067 -0.096712 1.066057 -0.110552
-19.158314 -16.184969 -0.148039 1073 -0.103957 1.060650 0.000297
-19.158800 -16.185350 -0.140337 1065 -0.110956 1.055162 0.111117
-19.159523 -16.185917 -0.132643 1039 -0.121357 1.047011 0.221822
-19.162636 -16.188513 -0.124956 993 -0.166145 1.009660 0.332426
-19.166819 -16.192003 -0.117272 933 -0.226330 0.959438 0.442987
-19.173332 -16.187819 -0.163556 881 -0.320050 1.019649 -0.222970
-19.173096 -16.187578 -0.155846 947 -0.316647 1.023107 -0.112034
-19.171526 -16.186218 -0.148125 943 -0.294061 1.042675 -0.000941
-19.171066 -16.185793 -0.140417 939 -0.287447 1.048795 0.109966
