90
-27.621408 -23.295761 -0.182287 1053 0.876447 -0.090729 -0.313419
-27.618515 -23.293261 -0.171173 1093 0.918080 -0.054751 -0.153506
-27.618465 -23.293165 -0.160083 1103 0.918793 -0.053378 0.006063
-27.619524 -23.294004 -0.148987 1089 0.903562 -0.065454 0.165717
-27.634918 -23.292542 -0.204569 1015 0.682062 -0.044404 -0.634024
-27.624197 -23.283445 -0.193411 1097 0.836324 0.086476 -0.473477
-27.620562 -23.280327 -0.182292 1165 0.888632 0.131346 -0.313491
-27.617943 -23.278057 -0.171188 1175 0.926313 0.164005 -0.153721
-27.618664 -23.278620 -0.160102 1171 0.915939 0.155909 0.005789
-27.620853 -23.280403 -0.149011 1159 0.884433 0.130249 0.165372
-27.623032 -23.282188 -0.137928 1113 0.853093 0.104561 0.324840
-27.628773 -23.286972 -0.126855 1047 0.770487 0.035732 0.484163
-27.646317 -23.288023 -0.215738 947 0.518058 0.020610 -0.794729
-27.632675 -23.276478 -0.204558 1091 0.714336 0.186728 -0.633865
-27.625740 -23.270578 -0.193419 1157 0.814122 0.271612 -0.473592
-27.622396 -23.267710 -0.182318 1199 0.862231 0.312888 -0.313865
-27.620773 -23.266294 -0.171219 1233 0.885586 0.333251 -0.154168
-27.621223 -23.266617 -0.160125 1215 0.879109 0.328613 0.005458
-27.622065 -23.267265 -0.149042 1221 0.867007 0.319282 0.164926
-27.624411 -23.269180 -0.137957 1181 0.833251 0.291728 0.324422
-27.629379 -23.273323 -0.126878 1125 0.761759 0.232120 0.483833
-27.637882 -23.280424 -0.115808 1015 0.639415 0.129947 0.643113
-27.643492 -23.271496 -0.215722 997 0.558702 0.258411 -0.794498
-27.634716 -23.264053 -0.204574 1133 0.684971 0.365497 -0.634096
-27.628910 -23.259111 -0.193448 1181 0.768511 0.436604 -0.474009
-27.625095 -23.255854 -0.182341 1225 0.823398 0.483479 -0.314196
-27.622761 -23.253820 -0.171234 1233 0.856990 0.512734 -0.154383
-27.622709 -23.253727 -0.160144 1247 0.857731 0.514078 0.005185
-27.624544 -23.255215 -0.149064 1237 0.831330 0.492672 0.164609
-27.626722 -23.257000 -0.137992 1207 0.799989 0.466985 0.323919
-27.630423 -23.260056 -0.126910 1151 0.746748 0.423020 0.483372
-27.638758 -23.267014 -0.115842 1071 0.626818 0.322905 0.642624
-27.656590 -23.268145 -0.226905 929 0.370245 0.306630 -0.955405
-27.647417 -23.260366 -0.215748 1045 0.502223 0.418546 -0.794873
-27.640871 -23.254808 -0.204616 1145 0.596410 0.498518 -0.634700
-27.633718 -23.248734 -0.193489 1213 0.699325 0.585927 -0.474599
-27.629126 -23.244808 -0.182366 1253 0.765409 0.642406 -0.314556
-27.629129 -23.244764 -0.171286 1265 0.765355 0.643037 -0.155132
-27.629141 -23.244713 -0.160196 1267 0.765190 0.643778 0.004437
-27.630243 -23.245596 -0.149109 1261 0.749327 0.631072 0.163962
-27.633547 -23.248318 -0.138030 1223 0.701795 0.591909 0.323372
-27.637470 -23.251554 -0.126958 1171 0.645342 0.545337 0.482681
-27.642660 -23.255863 -0.115878 1103 0.570668 0.483341 0.642106
-27.656460 -23.253830 -0.215814 1067 0.372111 0.512597 -0.795822
-27.647568 -23.246292 -0.204666 1159 0.500055 0.621055 -0.635419
-27.642643 -23.242098 -0.193545 1207 0.570915 0.681404 -0.475405
-27.639282 -23.239227 -0.182434 1243 0.619271 0.722707 -0.315534
-27.638741 -23.238707 -0.171337 1259 0.627065 0.730199 -0.155865
-27.637783 -23.237852 -0.160252 1269 0.640842 0.742494 0.003631
-27.637724 -23.237749 -0.149163 1239 0.641692 0.743976 0.163185
-27.640524 -23.240038 -0.138076 1227 0.601405 0.711043 0.322710
-27.644821 -23.243603 -0.127002 1175 0.539574 0.659751 0.482048
-27.651703 -23.249327 -0.115932 1081 0.440556 0.577392 0.641329
-27.661749 -23.244139 -0.215850 1041 0.296010 0.652039 -0.796340
-27.655140 -23.238522 -0.204709 1125 0.391103 0.732861 -0.636038
-27.649939 -23.234106 -0.193589 1193 0.465942 0.796394 -0.476038
-27.645746 -23.230520 -0.182474 1223 0.526264 0.847988 -0.316110
-27.644012 -23.229013 -0.171384 1241 0.551210 0.869669 -0.156542
-27.643570 -23.228577 -0.160287 1237 0.557577 0.875953 0.003128
-27.645124 -23.229828 -0.149208 1219 0.535210 0.857950 0.162538
-27.647593 -23.231846 -0.138124 1195 0.499698 0.828915 0.322019
-27.651901 -23.235418 -0.127048 1141 0.437702 0.777512 0.481386
-27.659168 -23.241467 -0.115976 1067 0.333141 0.690488 0.640696
-27.674717 -23.240616 -0.215933 961 0.109419 0.702728 -0.797534
-27.665373 -23.232708 -0.204777 1091 0.243866 0.816510 -0.637016
-27.660624 -23.228662 -0.193657 1155 0.312201 0.874718 -0.477016
-27.655407 -23.224236 -0.182536 1195 0.387260 0.938416 -0.317002
-27.652559 -23.221788 -0.171432 1211 0.428234 0.973626 -0.157232
-27.652624 -23.221788 -0.160342 1219 0.427301 0.973626 0.002336
-27.654922 -23.223660 -0.149269 1191 0.394231 0.946704 0.161660
-27.657259 -23.225565 -0.138186 1169 0.360612 0.919287 0.321128
-27.662409 -23.229837 -0.127105 1121 0.286514 0.857813 0.480566
-27.671202 -23.237156 -0.116045 1023 0.159998 0.752511 0.639703
-27.680004 -23.230297 -0.204874 1007 0.033344 0.851199 -0.638412
-27.671158 -23.222816 -0.193725 1103 0.160629 0.958834 -0.477995
-27.666801 -23.219101 -0.182610 1147 0.223311 1.012294 -0.318067
-27.664558 -23.217159 -0.171504 1169 0.255585 1.040232 -0.158268
-27.664337 -23.216928 -0.160416 1183 0.258768 1.043553 0.001271
-27.667246 -23.219307 -0.149338 1153 0.216916 1.009331 0.160667
-27.669706 -23.221317 -0.138255 1115 0.181514 0.980405 0.320135
-27.673512 -23.224459 -0.127172 1055 0.126763 0.935205 0.479602
-27.689085 -23.223444 -0.193829 991 -0.097316 0.949805 -0.479491
-27.683651 -23.218824 -0.182711 1073 -0.019128 1.016274 -0.319520
-27.681917 -23.217321 -0.171602 1109 0.005818 1.037899 -0.159678
-27.680691 -23.216227 -0.160499 1115 0.023465 1.053652 0.000077
-27.682592 -23.217764 -0.149418 1099 -0.003897 1.031533 0.159516
-27.686678 -23.221142 -0.138335 1049 -0.062682 0.982929 0.318983
-27.706543 -23.223608 -0.182837 893 -0.348510 0.947445 -0.321333
-27.699781 -23.217890 -0.171697 967 -0.251221 1.029721 -0.161045
-27.696976 -23.215485 -0.160593 989 -0.210851 1.064328 -0.001275
