763
-5.003127 -4.151391 -0.169550 1675 1.051100 -0.056891 -0.150282
-5.002890 -4.151177 -0.167542 1673 1.054510 -0.053811 -0.121390
-5.003319 -4.151525 -0.165558 1689 1.048342 -0.058819 -0.092843
-5.003598 -4.151742 -0.163567 1699 1.044321 -0.061941 -0.064195
-5.003690 -4.151807 -0.161578 1703 1.043004 -0.062874 -0.035577
-5.003510 -4.151649 -0.159567 1701 1.045591 -0.060603 -0.006641
-5.003386 -4.151533 -0.157568 1693 1.047374 -0.058936 0.022121
-5.003019 -4.151223 -0.155560 1681 1.052657 -0.054476 0.051013
-5.003119 -4.151294 -0.153559 1683 1.051217 -0.055498 0.079805
-5.003720 -4.151782 -0.151587 1677 1.042572 -0.062517 0.108179
-5.003648 -4.151713 -0.149588 1669 1.043608 -0.061522 0.136941
-5.003798 -4.151833 -0.147587 1665 1.041447 -0.063251 0.165733
-5.004622 -4.152507 -0.145611 1667 1.029591 -0.072946 0.194164
-5.005216 -4.152987 -0.143629 1665 1.021042 -0.079855 0.222682
-5.005538 -4.153245 -0.141648 1657 1.016411 -0.083567 0.251186
-5.005917 -4.153546 -0.139654 1659 1.010957 -0.087896 0.279877
-5.005952 -4.153568 -0.137654 1655 1.010456 -0.088211 0.308653
-5.006884 -4.154333 -0.135680 1643 0.997042 -0.099223 0.337056
-5.008382 -4.155561 -0.133721 1635 0.975492 -0.116890 0.365244
-5.009213 -4.156242 -0.131737 1623 0.963534 -0.126688 0.393790
-5.010367 -4.157194 -0.129771 1609 0.946930 -0.140389 0.422078
-5.011471 -4.158097 -0.127795 1589 0.931047 -0.153377 0.450510
-5.012352 -4.158812 -0.125820 1567 0.918368 -0.163668 0.478927
-5.014017 -4.160186 -0.123850 1555 0.894409 -0.183435 0.507272
-5.015514 -4.161415 -0.121882 1535 0.872873 -0.201122 0.535589
-5.016661 -4.162360 -0.119906 1515 0.856365 -0.214721 0.564020
-5.018102 -4.163547 -0.117937 1485 0.835631 -0.231798 0.592351
-5.020268 -4.165336 -0.115986 1451 0.804469 -0.257540 0.620423
-5.022950 -4.167542 -0.114031 1423 0.765876 -0.289279 0.648553
-5.025905 -4.169983 -0.112086 1379 0.723359 -0.324400 0.676538
-5.028751 -4.172334 -0.110140 1315 0.682412 -0.358232 0.704538
-5.031713 -4.174783 -0.108195 1217 0.639792 -0.393470 0.732524
-5.034052 -4.176711 -0.106230 999 0.606139 -0.421208 0.760797
-5.033728 -4.174400 -0.214716 1145 0.610798 -0.387953 -0.800152
-5.030456 -4.171686 -0.212574 1299 0.657878 -0.348908 -0.769332
-5.027363 -4.169102 -0.210442 1367 0.702385 -0.311728 -0.738656
-5.024040 -4.166338 -0.208300 1415 0.750192 -0.271955 -0.707836
-5.021327 -4.164080 -0.206185 1463 0.789231 -0.239468 -0.677404
-5.019189 -4.162294 -0.204096 1491 0.819995 -0.213767 -0.647347
-5.017603 -4.160972 -0.202036 1517 0.842815 -0.194749 -0.617706
-5.016081 -4.159698 -0.199974 1547 0.864715 -0.176416 -0.588037
-5.014272 -4.158188 -0.197903 1575 0.890739 -0.154687 -0.558239
-5.012743 -4.156908 -0.195843 1593 0.912742 -0.136273 -0.528598
-5.011559 -4.155919 -0.193798 1603 0.929778 -0.122043 -0.499174
-5.010195 -4.154784 -0.191746 1609 0.949407 -0.105714 -0.469649
-5.009232 -4.153967 -0.189711 1623 0.963259 -0.093954 -0.440368
-5.009274 -4.153997 -0.187712 1647 0.962655 -0.094386 -0.411605
-5.008707 -4.153521 -0.185694 1657 0.970813 -0.087539 -0.382569
-5.007457 -4.152470 -0.183651 1661 0.988802 -0.072417 -0.353174
-5.006940 -4.152027 -0.181633 1675 0.996240 -0.066044 -0.324138
-5.006143 -4.151357 -0.179608 1689 1.007704 -0.056404 -0.295001
-5.005123 -4.150500 -0.177574 1689 1.022380 -0.044068 -0.265735
-5.004828 -4.150245 -0.175566 1691 1.026627 -0.040404 -0.236843
-5.004246 -4.149755 -0.173550 1689 1.034997 -0.033351 -0.207836
-5.003843 -4.149410 -0.171532 1697 1.040802 -0.028384 -0.178800
-5.003599 -4.149204 -0.169533 1691 1.044308 -0.025420 -0.150037
-5.003196 -4.148859 -0.167515 1689 1.050112 -0.020459 -0.121001
-5.003518 -4.149118 -0.165533 1701 1.045474 -0.024185 -0.092483
-5.003847 -4.149369 -0.163542 1705 1.040740 -0.027794 -0.063836
-5.003602 -4.149162 -0.161543 1705 1.044267 -0.024816 -0.035073
-5.003422 -4.149005 -0.159533 1699 1.046860 -0.022559 -0.006152
-5.003685 -4.149208 -0.157542 1695 1.043073 -0.025482 0.022495
-5.003836 -4.149328 -0.155552 1691 1.040898 -0.027211 0.051128
-5.003490 -4.149024 -0.153544 1687 1.045879 -0.022833 0.080021
-5.003862 -4.149332 -0.151562 1687 1.040527 -0.027265 0.108538
-5.004521 -4.149860 -0.149578 1685 1.031045 -0.034861 0.137085
-5.004557 -4.149883 -0.147587 1685 1.030524 -0.035190 0.165733
-5.004821 -4.150085 -0.145596 1675 1.026730 -0.038099 0.194380
-5.005258 -4.150441 -0.143605 1671 1.020438 -0.043224 0.223028
-5.005177 -4.150366 -0.141604 1673 1.021605 -0.042140 0.251819
-5.005270 -4.150431 -0.139614 1665 1.020267 -0.043080 0.280452
-5.006030 -4.151056 -0.137640 1661 1.009331 -0.052068 0.308855
-5.006861 -4.151738 -0.135655 1661 0.997372 -0.061886 0.337416
-5.007800 -4.152495 -0.133681 1659 0.983863 -0.072774 0.365819
-5.009176 -4.153634 -0.131722 1643 0.964069 -0.089165 0.394006
-5.010345 -4.154584 -0.129746 1631 0.947246 -0.102832 0.422438
-5.011326 -4.155397 -0.127772 1613 0.933133 -0.114530 0.450841
-5.012545 -4.156397 -0.125803 1595 0.915589 -0.128918 0.479172
-5.013649 -4.157300 -0.123827 1569 0.899706 -0.141912 0.507603
-5.015082 -4.158480 -0.121861 1559 0.879089 -0.158893 0.535891
-5.016983 -4.160041 -0.119900 1537 0.851734 -0.181349 0.564107
-5.018129 -4.160985 -0.117924 1513 0.835247 -0.194934 0.592538
-5.019284 -4.161937 -0.115937 1483 0.818630 -0.208635 0.621128
-5.021793 -4.164004 -0.113993 1451 0.782528 -0.238371 0.649100
-5.025099 -4.166729 -0.112055 1425 0.734960 -0.277581 0.676984
-5.028054 -4.169170 -0.110110 1369 0.692436 -0.312702 0.704970
-5.030564 -4.171238 -0.108156 1291 0.656327 -0.342458 0.733085
-5.033518 -4.173679 -0.106200 1193 0.613823 -0.377580 0.761229
-5.034845 -4.174769 -0.104222 915 0.594729 -0.393264 0.789690
-5.032764 -4.170966 -0.214638 1277 0.624670 -0.338548 -0.799030
-5.029111 -4.167924 -0.212479 1355 0.677232 -0.294775 -0.767965
-5.026571 -4.165805 -0.210371 1413 0.713781 -0.264284 -0.737634
-5.023808 -4.163512 -0.208247 1457 0.753533 -0.231297 -0.707073
-5.021218 -4.161345 -0.206141 1493 0.790802 -0.200114 -0.676771
-5.018734 -4.159281 -0.204045 1523 0.826541 -0.170413 -0.646613
-5.016933 -4.157779 -0.201966 1547 0.852454 -0.148807 -0.616699
-5.015454 -4.156547 -0.199913 1569 0.873737 -0.131079 -0.587159
-5.013824 -4.155183 -0.197842 1593 0.897188 -0.111450 -0.557361
-5.012741 -4.154277 -0.195797 1613 0.912769 -0.098414 -0.527936
-5.011950 -4.153614 -0.193772 1621 0.924152 -0.088877 -0.498800
-5.010708 -4.152568 -0.191729 1631 0.942024 -0.073824 -0.469404
-5.009789 -4.151794 -0.189694 1647 0.955245 -0.062689 -0.440123
-5.009616 -4.151643 -0.187685 1663 0.957736 -0.060514 -0.411217
-5.008761 -4.150931 -0.185660 1667 0.970038 -0.050270 -0.382080
-5.007843 -4.150156 -0.183625 1677 0.983245 -0.039121 -0.352800
-5.007110 -4.149535 -0.181599 1689 0.993790 -0.030188 -0.323649
-5.006248 -4.148816 -0.179573 1693 1.006195 -0.019842 -0.294498
-5.005451 -4.148145 -0.177548 1689 1.017660 -0.010189 -0.265361
-5.004983 -4.147753 -0.175532 1697 1.024397 -0.004542 -0.236354
-5.004581 -4.147408 -0.173523 1703 1.030181 0.000419 -0.207447
-5.004235 -4.147104 -0.171515 1697 1.035162 0.004796 -0.178555
-5.004449 -4.147273 -0.169524 1703 1.032081 0.002360 -0.149908
-5.004205 -4.147067 -0.167515 1703 1.035587 0.005324 -0.121001
-5.003465 -4.146438 -0.165499 1707 1.046236 0.014374 -0.091994
-5.003507 -4.146468 -0.163498 1713 1.045632 0.013941 -0.063203
-5.003994 -4.146858 -0.161516 1719 1.038627 0.008329 -0.034685
-5.004028 -4.146881 -0.159527 1711 1.038140 0.008000 -0.006066
-5.004365 -4.147139 -0.157534 1707 1.033289 0.004288 0.022610
-5.004507 -4.147251 -0.155545 1707 1.031244 0.002676 0.051229
-5.004542 -4.147274 -0.153544 1705 1.030744 0.002346 0.080021
-5.004649 -4.147352 -0.151552 1701 1.029200 0.001221 0.108682
-5.004741 -4.147416 -0.149563 1695 1.027876 0.000302 0.137301
-5.005063 -4.147675 -0.147570 1693 1.023245 -0.003424 0.165977
-5.005550 -4.148064 -0.145588 1689 1.016240 -0.009022 0.194495
-5.006044 -4.148461 -0.143605 1697 1.009132 -0.014730 0.223028
-5.006179 -4.148567 -0.141604 1693 1.007190 -0.016260 0.251819
-5.006214 -4.148590 -0.139614 1679 1.006682 -0.016590 0.280452
-5.006486 -4.148799 -0.137623 1671 1.002771 -0.019595 0.309100
-5.007023 -4.149238 -0.135639 1663 0.995046 -0.025914 0.337646
-5.008242 -4.150238 -0.133673 1663 0.977502 -0.040301 0.365934
-5.009295 -4.151092 -0.131697 1657 0.962353 -0.052589 0.394366
-5.010564 -4.152141 -0.129731 1647 0.944096 -0.067683 0.422654
-5.011496 -4.152905 -0.127756 1633 0.930683 -0.078675 0.451071
-5.012442 -4.153669 -0.125771 1619 0.917071 -0.089666 0.479632
-5.013703 -4.154710 -0.123804 1607 0.898931 -0.104643 0.507934
-5.015029 -4.155800 -0.121836 1589 0.879850 -0.120328 0.536251
-5.016578 -4.157078 -0.119868 1561 0.857559 -0.138715 0.564567
-5.017854 -4.158119 -0.117892 1533 0.839199 -0.153699 0.592999
-5.019511 -4.159486 -0.115933 1515 0.815357 -0.173363 0.621186
-5.021798 -4.161366 -0.113970 1485 0.782452 -0.200416 0.649431
-5.023971 -4.163163 -0.112017 1453 0.751187 -0.226275 0.677531
-5.026473 -4.165223 -0.110064 1405 0.715187 -0.255914 0.705632
-5.029320 -4.167574 -0.108109 1343 0.674227 -0.289739 0.733761
-5.032281 -4.170008 -0.106161 1269 0.631621 -0.324764 0.761790
-5.036757 -4.173711 -0.104237 1115 0.567217 -0.378039 0.789474
-5.036550 -4.171464 -0.216753 1253 0.570194 -0.345710 -0.829462
-5.032159 -4.167821 -0.214567 1349 0.633377 -0.293293 -0.798008
-5.027875 -4.164253 -0.212382 1403 0.695016 -0.241959 -0.766570
-5.024488 -4.161440 -0.210240 1435 0.743749 -0.201479 -0.735749
-5.022012 -4.159384 -0.208134 1477 0.779372 -0.171895 -0.705447
-5.020483 -4.158103 -0.206072 1515 0.801375 -0.153466 -0.675778
-5.018617 -4.156553 -0.203991 1539 0.828222 -0.131161 -0.645836
-5.016816 -4.155051 -0.201922 1557 0.854135 -0.109556 -0.616066
-5.015401 -4.153867 -0.199869 1579 0.874499 -0.092513 -0.586526
-5.014094 -4.152774 -0.197817 1607 0.893305 -0.076788 -0.557001
-5.013082 -4.151923 -0.195772 1623 0.907864 -0.064548 -0.527577
-5.011955 -4.150975 -0.193739 1643 0.924083 -0.050908 -0.498325
-5.010641 -4.149889 -0.191685 1651 0.942985 -0.035279 -0.468771
-5.009507 -4.148934 -0.189642 1665 0.959300 -0.021537 -0.439375
-5.009104 -4.148590 -0.187634 1677 0.965105 -0.016590 -0.410483
-5.008530 -4.148107 -0.185606 1687 0.973358 -0.009640 -0.381303
-5.008011 -4.147665 -0.183590 1695 0.980830 -0.003280 -0.352296
-5.007667 -4.147376 -0.181582 1709 0.985777 0.000878 -0.323404
-5.006640 -4.146511 -0.179547 1703 1.000555 0.013324 -0.294123
-5.005671 -4.145702 -0.177523 1699 1.014497 0.024967 -0.265001
-5.005325 -4.145398 -0.175514 1713 1.019478 0.029337 -0.236095
-5.004923 -4.145054 -0.173497 1709 1.025262 0.034291 -0.207073
-5.004850 -4.144987 -0.171498 1709 1.026311 0.035252 -0.178311
-5.005013 -4.145106 -0.169506 1713 1.023965 0.033543 -0.149649
-5.004654 -4.144803 -0.167498 1713 1.029131 0.037900 -0.120757
-5.004302 -4.144507 -0.165491 1719 1.034195 0.042161 -0.091879
-5.004064 -4.144294 -0.163492 1717 1.037618 0.045227 -0.063116
-5.004163 -4.144365 -0.161492 1723 1.036198 0.044205 -0.034339
-5.003918 -4.144159 -0.159493 1725 1.039718 0.047169 -0.005577
-5.003731 -4.143995 -0.157494 1717 1.042414 0.049529 0.023186
-5.004282 -4.144433 -0.155510 1721 1.034483 0.043224 0.051733
-5.004382 -4.144504 -0.153509 1723 1.033042 0.042202 0.080524
-5.004360 -4.144485 -0.151520 1717 1.033358 0.042476 0.109143
-5.004796 -4.144826 -0.149538 1711 1.027087 0.037571 0.137661
-5.005455 -4.145369 -0.147555 1707 1.017605 0.029756 0.166193
-5.005720 -4.145572 -0.145563 1707 1.013790 0.026833 0.194855
-5.006034 -4.145823 -0.143582 1709 1.009276 0.023224 0.223359
-5.006349 -4.146075 -0.141590 1699 1.004740 0.019602 0.252020
-5.006893 -4.146520 -0.139607 1703 0.996912 0.013194 0.280553
-5.007495 -4.147007 -0.137623 1695 0.988254 0.006189 0.309100
-5.007702 -4.147169 -0.135632 1671 0.985276 0.003856 0.337747
-5.008239 -4.147607 -0.133650 1663 0.977551 -0.002443 0.366265
-5.008948 -4.148184 -0.131665 1665 0.967348 -0.010744 0.394826
-5.009551 -4.148671 -0.129683 1653 0.958669 -0.017756 0.423344
-5.010934 -4.149803 -0.127714 1641 0.938772 -0.034044 0.451675
-5.012324 -4.150940 -0.125748 1627 0.918773 -0.050401 0.479963
-5.013428 -4.151844 -0.123781 1619 0.902883 -0.063409 0.508265
-5.014912 -4.153072 -0.121813 1603 0.881531 -0.081076 0.536582
-5.016475 -4.154349 -0.119845 1579 0.859041 -0.099450 0.564898
-5.017629 -4.155301 -0.117869 1553 0.842438 -0.113151 0.593330
-5.019070 -4.156474 -0.115900 1529 0.821704 -0.130029 0.621661
-5.021185 -4.158215 -0.113940 1503 0.791275 -0.155078 0.649862
-5.023415 -4.160053 -0.111986 1481 0.759187 -0.181521 0.677977
-5.026147 -4.162307 -0.110041 1447 0.719880 -0.213952 0.705963
-5.028872 -4.164555 -0.108086 1399 0.680670 -0.246302 0.734092
-5.031325 -4.166580 -0.106123 1327 0.645377 -0.275440 0.762337
-5.034681 -4.169340 -0.104185 1229 0.597089 -0.315152 0.790222
-5.037899 -4.170082 -0.218781 1165 0.550785 -0.325827 -0.858641
-5.034233 -4.167041 -0.216622 1315 0.603532 -0.282068 -0.827577
-5.030229 -4.163716 -0.214443 1387 0.661143 -0.234227 -0.796224
-5.027021 -4.161049 -0.212311 1439 0.707304 -0.195853 -0.765548
-5.023921 -4.158473 -0.210177 1467 0.751907 -0.158790 -0.734843
-5.021890 -4.156776 -0.208088 1503 0.781128 -0.134372 -0.704785
-5.020469 -4.155600 -0.206036 1535 0.801574 -0.117453 -0.675260
-5.018437 -4.153903 -0.203947 1561 0.830815 -0.093035 -0.645203
-5.017081 -4.152776 -0.201895 1585 0.850328 -0.076815 -0.615677
-5.015781 -4.151690 -0.199843 1605 0.869031 -0.061193 -0.586152
-5.014302 -4.150457 -0.197781 1619 0.890313 -0.043451 -0.556483
-5.013125 -4.149461 -0.195736 1635 0.907246 -0.029118 -0.527059
-5.011983 -4.148513 -0.193693 1653 0.923678 -0.015478 -0.497663
-5.010792 -4.147517 -0.191649 1663 0.940817 -0.001153 -0.468253
-5.009657 -4.146563 -0.189616 1675 0.957146 0.012576 -0.439001
-5.008917 -4.145947 -0.187590 1687 0.967794 0.021441 -0.409850
-5.008343 -4.145464 -0.185574 1691 0.976048 0.028391 -0.380843
-5.007775 -4.144974 -0.183556 1695 0.984226 0.035437 -0.351807
-5.007365 -4.144636 -0.181538 1699 0.990120 0.040301 -0.322771
-5.006683 -4.144049 -0.179522 1709 0.999938 0.048747 -0.293764
-5.005893 -4.143385 -0.177496 1715 1.011300 0.058304 -0.264613
-5.005254 -4.142854 -0.175480 1713 1.020500 0.065941 -0.235605
-5.004959 -4.142599 -0.173472 1721 1.024740 0.069611 -0.206713
-5.004778 -4.142442 -0.171463 1721 1.027347 0.071869 -0.177807
-5.004432 -4.142138 -0.169455 1723 1.032322 0.076246 -0.148915
-5.004640 -4.142300 -0.167473 1731 1.029330 0.073913 -0.120397
-5.004847 -4.142461 -0.165482 1735 1.026353 0.071601 -0.091749
-5.004322 -4.142026 -0.163466 1723 1.033906 0.077858 -0.062742
-5.004372 -4.142049 -0.161475 1725 1.033186 0.077529 -0.034095
-5.004470 -4.142120 -0.159474 1731 1.031780 0.076507 -0.005303
-5.004226 -4.141913 -0.157477 1727 1.035285 0.079484 0.023430
-5.004548 -4.142172 -0.155484 1733 1.030654 0.075759 0.052107
-5.004640 -4.142237 -0.153494 1727 1.029330 0.074819 0.080740
-5.004173 -4.141843 -0.151486 1721 1.036054 0.080493 0.109632
-5.004502 -4.142095 -0.149494 1721 1.031320 0.076863 0.138294
-5.005154 -4.142630 -0.147520 1713 1.021934 0.069165 0.166697
-5.005361 -4.142791 -0.145529 1705 1.018956 0.066853 0.195344
-5.005740 -4.143092 -0.143547 1707 1.013502 0.062517 0.223862
-5.006621 -4.143807 -0.141573 1719 1.000830 0.052233 0.252265
-5.007496 -4.144529 -0.139599 1711 0.988240 0.041845 0.280668
-5.008263 -4.145148 -0.137625 1705 0.977201 0.032940 0.309071
-5.008642 -4.145448 -0.135632 1697 0.971746 0.028617 0.337747
-5.008677 -4.145471 -0.133631 1687 0.971245 0.028288 0.366538
-5.009386 -4.146048 -0.131659 1677 0.961043 0.019986 0.394913
-5.010145 -4.146673 -0.129673 1669 0.950120 0.010991 0.423488
-5.010912 -4.147293 -0.127699 1659 0.939088 0.002072 0.451891
-5.012303 -4.148430 -0.125733 1649 0.919074 -0.014285 0.480179
-5.013349 -4.149292 -0.123757 1633 0.904022 -0.026689 0.508610
-5.014396 -4.150139 -0.121781 1613 0.888955 -0.038874 0.537042
-5.015779 -4.151285 -0.119812 1585 0.869058 -0.055368 0.565373
-5.017564 -4.152749 -0.117853 1571 0.843377 -0.076431 0.593560
-5.019959 -4.154718 -0.115900 1555 0.808915 -0.104760 0.621661
-5.022182 -4.156550 -0.113949 1525 0.776929 -0.131120 0.649733
-5.023738 -4.157820 -0.111981 1499 0.754542 -0.149398 0.678049
-5.025739 -4.159478 -0.110009 1467 0.725746 -0.173253 0.706423
-5.028808 -4.162003 -0.108073 1425 0.681589 -0.209582 0.734279
-5.031769 -4.164437 -0.106125 1367 0.638989 -0.244600 0.762308
-5.034502 -4.166691 -0.104172 1291 0.599662 -0.277032 0.790409
-5.037513 -4.169174 -0.102215 1173 0.556342 -0.312764 0.818567
-5.036465 -4.168302 -0.100189 837 0.571416 -0.300215 0.847718
-5.041085 -4.170253 -0.220879 933 0.504947 -0.328284 -0.888829
-5.037763 -4.167489 -0.218737 1267 0.552740 -0.288517 -0.858008
-5.033479 -4.163935 -0.216551 1347 0.614379 -0.237383 -0.826555
-5.030257 -4.161268 -0.214407 1411 0.660739 -0.199009 -0.795706
-5.027272 -4.158789 -0.212275 1457 0.703688 -0.163339 -0.765030
-5.024344 -4.156351 -0.210150 1489 0.745821 -0.128259 -0.734454
-5.021797 -4.154239 -0.208044 1517 0.782466 -0.097872 -0.704152
-5.019766 -4.152542 -0.205965 1545 0.811693 -0.073454 -0.674239
-5.018251 -4.151276 -0.203903 1573 0.833491 -0.055238 -0.644570
-5.017167 -4.150370 -0.201859 1599 0.849086 -0.042202 -0.615159
-5.015702 -4.149152 -0.199797 1617 0.870170 -0.024672 -0.585490
-5.014446 -4.148108 -0.197754 1631 0.888241 -0.009653 -0.556095
-5.013370 -4.147208 -0.195710 1641 0.903720 0.003293 -0.526685
-5.012012 -4.146066 -0.193657 1655 0.923260 0.019725 -0.497145
-5.011158 -4.145354 -0.191632 1671 0.935548 0.029976 -0.468008
-5.010138 -4.144496 -0.189598 1685 0.950223 0.042318 -0.438742
-5.009348 -4.143833 -0.187573 1699 0.961592 0.051855 -0.409605
-5.008773 -4.143349 -0.185545 1697 0.969866 0.058819 -0.380426
-5.008027 -4.142728 -0.183529 1697 0.980597 0.067759 -0.351418
-5.007617 -4.142376 -0.181511 1703 0.986497 0.072822 -0.322382
-5.007106 -4.141941 -0.179505 1715 0.993852 0.079080 -0.293519
-5.006589 -4.141500 -0.177487 1711 1.001289 0.085426 -0.264483
-5.005842 -4.140877 -0.175461 1707 1.012034 0.094393 -0.235332
-5.005440 -4.140533 -0.173455 1727 1.017817 0.099340 -0.206469
-5.005202 -4.140320 -0.171446 1731 1.021248 0.102407 -0.177562
-5.005129 -4.140253 -0.169455 1731 1.022298 0.103367 -0.148915
-5.005737 -4.140747 -0.167473 1739 1.013550 0.096259 -0.120397
-5.005443 -4.140491 -0.165465 1733 1.017776 0.099944 -0.091505
-5.004860 -4.140001 -0.163458 1731 1.026167 0.106997 -0.062627
-5.004960 -4.140072 -0.161457 1733 1.024727 0.105974 -0.033836
-5.005224 -4.140289 -0.159476 1735 1.020926 0.102853 -0.005332
-5.005317 -4.140353 -0.157484 1737 1.019588 0.101927 0.023330
-5.005474 -4.140466 -0.155484 1739 1.017330 0.100300 0.052107
-5.005466 -4.140448 -0.153494 1731 1.017447 0.100561 0.080740
-5.005156 -4.140193 -0.151486 1729 1.021907 0.104232 0.109632
-5.005363 -4.140354 -0.149494 1731 1.018929 0.101913 0.138294
-5.005570 -4.140515 -0.147503 1721 1.015951 0.099601 0.166941
-5.006057 -4.140905 -0.145521 1711 1.008946 0.093988 0.195459
-5.006831 -4.141531 -0.143547 1717 0.997804 0.084980 0.223862
-5.007267 -4.141886 -0.141564 1717 0.991533 0.079869 0.252395
-5.007468 -4.142040 -0.139572 1707 0.988638 0.077659 0.281056
-5.008241 -4.142666 -0.137598 1705 0.977516 0.068651 0.309459
-5.009230 -4.143472 -0.135624 1705 0.963287 0.057049 0.337862
-5.009545 -4.143723 -0.133633 1697 0.958758 0.053440 0.366510
-5.009867 -4.143981 -0.131651 1689 0.954120 0.049728 0.395028
-5.010239 -4.144274 -0.129658 1683 0.948769 0.045509 0.423704
-5.010827 -4.144762 -0.127674 1665 0.940309 0.038490 0.452251
-5.011815 -4.145567 -0.125700 1651 0.926093 0.026909 0.480654
-5.012696 -4.146283 -0.123724 1637 0.913421 0.016604 0.509085
-5.014195 -4.147511 -0.121756 1617 0.891850 -0.001063 0.537402
-5.016145 -4.149121 -0.119797 1599 0.863789 -0.024226 0.565589
-5.017923 -4.150578 -0.117836 1589 0.838211 -0.045193 0.593805
-5.020319 -4.152548 -0.115893 1573 0.803735 -0.073536 0.621761
-5.021766 -4.153728 -0.113915 1551 0.782912 -0.090517 0.650222
-5.022913 -4.154672 -0.111939 1519 0.766411 -0.104101 0.678654
-5.024642 -4.156096 -0.109970 1485 0.741533 -0.124588 0.706984
-5.027258 -4.158252 -0.108025 1447 0.703894 -0.155607 0.734970
-5.030500 -4.160915 -0.106077 1397 0.657246 -0.193925 0.762999
-5.033978 -4.163779 -0.104140 1333 0.607202 -0.235132 0.790869
-5.037714 -4.166864 -0.102209 1243 0.553447 -0.279523 0.818654
-5.040676 -4.169299 -0.100252 1055 0.510826 -0.314562 0.846812
-5.040580 -4.167191 -0.220818 1143 0.512212 -0.284229 -0.887951
-5.037029 -4.164248 -0.218657 1313 0.563306 -0.241883 -0.856857
-5.033082 -4.160964 -0.216488 1375 0.620094 -0.194632 -0.825649
-5.029752 -4.158207 -0.214337 1433 0.668011 -0.154962 -0.794699
-5.026710 -4.155686 -0.212214 1469 0.711777 -0.118688 -0.764152
-5.023330 -4.152881 -0.210072 1497 0.760408 -0.078332 -0.733332
-5.020840 -4.150810 -0.207966 1523 0.796236 -0.048528 -0.703030
-5.019821 -4.149952 -0.205921 1559 0.810898 -0.036185 -0.673605
-5.019081 -4.149338 -0.203894 1583 0.821546 -0.027348 -0.644440
-5.017609 -4.148113 -0.201832 1613 0.842726 -0.009722 -0.614771
-5.015980 -4.146749 -0.199772 1623 0.866170 0.009900 -0.585131
-5.014730 -4.145711 -0.197718 1639 0.884152 0.024837 -0.555577
-5.013367 -4.144577 -0.195677 1647 0.903761 0.041152 -0.526210
-5.012404 -4.143760 -0.193642 1655 0.917620 0.052905 -0.496929
-5.011550 -4.143049 -0.191607 1673 0.929908 0.063141 -0.467649
-5.010530 -4.142191 -0.189572 1685 0.944584 0.075484 -0.438368
-5.010070 -4.141804 -0.187554 1699 0.951204 0.081049 -0.409332
-5.009445 -4.141273 -0.185538 1701 0.960192 0.088692 -0.380325
-5.008246 -4.140284 -0.183495 1697 0.977448 0.102921 -0.350929
-5.007837 -4.139932 -0.181486 1705 0.983334 0.107985 -0.322023
-5.007269 -4.139455 -0.179470 1713 0.991506 0.114853 -0.293016
-5.006694 -4.138958 -0.177452 1717 0.999780 0.122002 -0.263980
-5.006851 -4.139085 -0.175461 1721 0.997516 0.120177 -0.235332
-5.006893 -4.139115 -0.173472 1737 0.996912 0.119744 -0.206713
-5.006145 -4.138479 -0.171446 1729 1.007677 0.128890 -0.177562
-5.005456 -4.137898 -0.169430 1729 1.017591 0.137254 -0.148555
-5.005563 -4.137977 -0.167439 1733 1.016054 0.136115 -0.119908
-5.005605 -4.138006 -0.165440 1731 1.015444 0.135696 -0.091145
-5.005411 -4.137835 -0.163441 1737 1.018236 0.138159 -0.062382
-5.005007 -4.137490 -0.161433 1739 1.024054 0.143127 -0.033490
-5.004935 -4.137423 -0.159432 1737 1.025090 0.144087 -0.004699
-5.004862 -4.137355 -0.157433 1735 1.026140 0.145068 0.024064
-5.005299 -4.137696 -0.155451 1739 1.019848 0.140163 0.052582
-5.006066 -4.138330 -0.153477 1735 1.008816 0.131038 0.080984
-5.006394 -4.138581 -0.151495 1743 1.004096 0.127429 0.109503
-5.006832 -4.138937 -0.149512 1749 0.997790 0.122304 0.138035
-5.006579 -4.138723 -0.147503 1733 1.001433 0.125384 0.166941
-5.006392 -4.138558 -0.145504 1725 1.004123 0.127758 0.195704
-5.007223 -4.139225 -0.143530 1721 0.992164 0.118160 0.224107
-5.007982 -4.139851 -0.141556 1721 0.981249 0.109151 0.252510
-5.008533 -4.140289 -0.139572 1717 0.973317 0.102853 0.281056
-5.009135 -4.140777 -0.137591 1717 0.964659 0.095827 0.309560
-5.009565 -4.141125 -0.135607 1707 0.958470 0.090819 0.338107
-5.009830 -4.141328 -0.133616 1699 0.954655 0.087903 0.366754
-5.010137 -4.141572 -0.131624 1691 0.950237 0.084390 0.395416
-5.010115 -4.141554 -0.129635 1681 0.950553 0.084651 0.424035
-5.010709 -4.142034 -0.127651 1665 0.942011 0.077742 0.452581
-5.012322 -4.143359 -0.125693 1655 0.918800 0.058675 0.480754
-5.013885 -4.144636 -0.123724 1649 0.896310 0.040301 0.509085
-5.015046 -4.145580 -0.121758 1637 0.879603 0.026723 0.537373
-5.016308 -4.146622 -0.119782 1617 0.861449 0.011725 0.565805
-5.017519 -4.147614 -0.117815 1601 0.844022 -0.002545 0.594107
-5.019361 -4.149120 -0.115855 1583 0.817518 -0.024212 0.622308
-5.021140 -4.150578 -0.113884 1565 0.791920 -0.045193 0.650668
-5.022573 -4.151757 -0.111918 1535 0.771303 -0.062153 0.678956
-5.024581 -4.153408 -0.109955 1499 0.742411 -0.085913 0.707200
-5.027428 -4.155746 -0.108010 1467 0.701445 -0.119552 0.735186
-5.030217 -4.158041 -0.106055 1417 0.661315 -0.152574 0.763315
-5.033129 -4.160441 -0.104109 1361 0.619415 -0.187105 0.791315
-5.036478 -4.163194 -0.102171 1299 0.571230 -0.226721 0.819200
-5.040565 -4.166564 -0.100230 1193 0.512425 -0.275207 0.847128
-5.040642 -4.164595 -0.220772 1267 0.511320 -0.246878 -0.887289
-5.036581 -4.161228 -0.218596 1351 0.569748 -0.198433 -0.855980
-5.032792 -4.158097 -0.216425 1405 0.624266 -0.153377 -0.824742
-5.029247 -4.155146 -0.214276 1459 0.675277 -0.110921 -0.793821
-5.026206 -4.152626 -0.212141 1483 0.719029 -0.074661 -0.763102
-5.023830 -4.150652 -0.210045 1519 0.753217 -0.046257 -0.732944
-5.022251 -4.149336 -0.207983 1553 0.775934 -0.027320 -0.703275
-5.020945 -4.148257 -0.205931 1577 0.794726 -0.011794 -0.673749
-5.019358 -4.146935 -0.203860 1591 0.817560 0.007225 -0.643951
-5.017836 -4.145662 -0.201798 1615 0.839460 0.025543 -0.614282
-5.016250 -4.144340 -0.199736 1621 0.862279 0.044562 -0.584613
-5.014951 -4.143267 -0.197693 1643 0.880969 0.059999 -0.555217
-5.014039 -4.142500 -0.195658 1665 0.894094 0.071038 -0.525936
-5.013349 -4.141920 -0.193632 1681 0.904022 0.079381 -0.496785
-5.012559 -4.141256 -0.191607 1689 0.915390 0.088939 -0.467649
-5.011762 -4.140586 -0.189581 1699 0.926855 0.098578 -0.438498
-5.010907 -4.139874 -0.187546 1701 0.939157 0.108822 -0.409217
-5.010447 -4.139474 -0.185538 1713 0.945777 0.114578 -0.380325
-5.009815 -4.138948 -0.183512 1713 0.954868 0.122146 -0.351174
-5.008910 -4.138188 -0.181486 1721 0.967890 0.133082 -0.322023
-5.008049 -4.137470 -0.179461 1725 0.980281 0.143415 -0.292886
-5.007926 -4.137353 -0.177462 1729 0.982051 0.145096 -0.264123
-5.007408 -4.136925 -0.175444 1729 0.989502 0.151250 -0.235088
-5.007063 -4.136622 -0.173437 1731 0.994470 0.155614 -0.206210
-5.006652 -4.136271 -0.171429 1733 1.000384 0.160663 -0.177318
-5.006013 -4.135739 -0.169413 1733 1.009578 0.168320 -0.148311
-5.005381 -4.135200 -0.167397 1731 1.018668 0.176073 -0.119303
-5.004979 -4.134855 -0.165388 1731 1.024452 0.181040 -0.090397
-5.005630 -4.135391 -0.163414 1743 1.015087 0.173322 -0.061994
-5.005845 -4.135559 -0.161423 1751 1.011993 0.170907 -0.033346
-5.006001 -4.135672 -0.159432 1755 1.009749 0.169281 -0.004699
-5.005871 -4.135562 -0.157433 1751 1.011622 0.170866 0.024064
-5.005519 -4.135253 -0.155436 1741 1.016685 0.175311 0.052797
-5.005949 -4.135601 -0.153452 1743 1.010497 0.170303 0.081344
-5.006270 -4.135859 -0.151461 1745 1.005879 0.166591 0.109992
-5.006255 -4.135834 -0.149472 1747 1.006092 0.166948 0.138610
-5.006749 -4.136231 -0.147488 1743 0.998984 0.161240 0.167157
-5.007007 -4.136440 -0.145497 1737 0.995272 0.158234 0.195805
-5.007214 -4.136601 -0.143505 1729 0.992295 0.155915 0.224466
-5.007808 -4.137082 -0.141524 1729 0.983746 0.148993 0.252970
-5.008919 -4.137991 -0.139557 1731 0.967767 0.135916 0.281272
-5.009635 -4.138562 -0.137583 1735 0.957462 0.127696 0.309675
-5.009785 -4.138681 -0.135592 1715 0.955300 0.125988 0.338323
-5.009992 -4.138843 -0.133601 1703 0.952323 0.123655 0.366970
-5.010866 -4.139551 -0.131626 1705 0.939747 0.113467 0.395387
-5.011691 -4.140225 -0.129652 1697 0.927877 0.103772 0.423790
-5.012901 -4.141218 -0.127676 1679 0.910471 0.089481 0.452222
-5.014070 -4.142169 -0.125710 1683 0.893648 0.075800 0.480510
-5.014887 -4.142837 -0.123734 1669 0.881895 0.066188 0.508941
-5.016385 -4.144065 -0.121767 1651 0.860338 0.048521 0.537243
-5.017546 -4.145010 -0.119789 1635 0.843631 0.034922 0.565704
-5.018650 -4.145912 -0.117813 1625 0.827748 0.021941 0.594136
-5.019811 -4.146856 -0.115837 1603 0.811042 0.008364 0.622567
-5.021080 -4.147904 -0.113871 1575 0.792785 -0.006717 0.650855
-5.022571 -4.149126 -0.111903 1553 0.771330 -0.024302 0.679172
-5.024521 -4.150722 -0.109932 1525 0.743276 -0.047265 0.707531
-5.026916 -4.152692 -0.107979 1491 0.708813 -0.075608 0.735632
-5.029426 -4.154759 -0.106026 1455 0.672697 -0.105350 0.763733
-5.032115 -4.156957 -0.104071 1405 0.634008 -0.136979 0.791862
-5.035457 -4.159718 -0.102133 1347 0.585920 -0.176704 0.819747
-5.039888 -4.163364 -0.100209 1259 0.522168 -0.229163 0.847431
-5.041437 -4.164627 -0.098231 1099 0.499876 -0.247338 0.875891
-5.043632 -4.164436 -0.222863 1153 0.468295 -0.244587 -0.917375
-5.040410 -4.161769 -0.220721 1327 0.514655 -0.206213 -0.886555
-5.036126 -4.158216 -0.218533 1381 0.576294 -0.155092 -0.855073
-5.031957 -4.154759 -0.216347 1437 0.636279 -0.105350 -0.823620
-5.028908 -4.152231 -0.214213 1477 0.680155 -0.068980 -0.792915
-5.026367 -4.150125 -0.212107 1505 0.716710 -0.038675 -0.762613
-5.024114 -4.148256 -0.210018 1533 0.749128 -0.011780 -0.732555
-5.022528 -4.146934 -0.207947 1571 0.771948 0.007238 -0.702757
-5.020885 -4.145571 -0.205887 1589 0.795591 0.026847 -0.673116
-5.019240 -4.144207 -0.203816 1605 0.819261 0.046476 -0.643318
-5.017776 -4.142990 -0.201763 1627 0.840324 0.063985 -0.613778
-5.016584 -4.141993 -0.199711 1643 0.857477 0.078332 -0.584253
-5.015277 -4.140899 -0.197668 1661 0.876283 0.094071 -0.554857
-5.014086 -4.139903 -0.195624 1681 0.893421 0.108403 -0.525447
-5.013232 -4.139191 -0.193589 1687 0.905702 0.118647 -0.496167
-5.012205 -4.138341 -0.191553 1695 0.920481 0.130880 -0.466872
-5.011357 -4.137622 -0.189530 1707 0.932687 0.141226 -0.437764
-5.010840 -4.137194 -0.187512 1707 0.940124 0.147380 -0.408728
-5.010545 -4.136940 -0.185503 1723 0.944371 0.151037 -0.379821
-5.010150 -4.136602 -0.183495 1725 0.950052 0.155902 -0.350929
-5.009518 -4.136063 -0.181469 1729 0.959143 0.163655 -0.321778
-5.008548 -4.135254 -0.179444 1743 0.973105 0.175298 -0.292641
-5.007916 -4.134729 -0.177428 1745 0.982195 0.182852 -0.263634
-5.007455 -4.134329 -0.175410 1739 0.988830 0.188608 -0.234598
-5.007383 -4.134262 -0.173420 1739 0.989866 0.189569 -0.205965
-5.007030 -4.133965 -0.171412 1747 0.994943 0.193843 -0.177073
-5.006125 -4.133205 -0.169388 1749 1.007965 0.204779 -0.147951
-5.005715 -4.132853 -0.167380 1739 1.013866 0.209843 -0.119059
-5.005923 -4.133015 -0.165388 1741 1.010874 0.207510 -0.090397
-5.005965 -4.133044 -0.163399 1749 1.010264 0.207098 -0.061778
-5.006344 -4.133344 -0.161417 1751 1.004816 0.202776 -0.033260
-5.006558 -4.133512 -0.159426 1761 1.001735 0.200361 -0.004613
-5.006084 -4.133112 -0.157418 1755 1.008555 0.206117 0.024279
-5.005904 -4.132955 -0.155419 1751 1.011142 0.208374 0.053042
-5.005882 -4.132922 -0.153420 1745 1.011464 0.208848 0.081805
-5.006376 -4.133318 -0.151436 1739 1.004356 0.203153 0.110351
-5.006361 -4.133293 -0.149447 1747 1.004569 0.203510 0.138970
-5.006173 -4.133129 -0.147448 1741 1.007272 0.205870 0.167733
-5.007277 -4.134031 -0.145481 1743 0.991389 0.192896 0.196035
-5.007936 -4.134574 -0.143498 1737 0.981907 0.185081 0.224567
-5.007977 -4.134590 -0.141508 1733 0.981317 0.184848 0.253200
-5.008859 -4.135305 -0.139532 1735 0.968624 0.174564 0.281632
-5.009733 -4.136027 -0.137558 1739 0.956048 0.164176 0.310035
-5.010220 -4.136418 -0.135577 1725 0.949043 0.158550 0.338539
-5.011052 -4.137085 -0.133601 1711 0.937071 0.148952 0.366970
-5.011983 -4.137849 -0.131626 1715 0.923678 0.137960 0.395387
-5.012915 -4.138614 -0.129650 1703 0.910265 0.126948 0.423819
-5.013243 -4.138864 -0.127669 1689 0.905545 0.123353 0.452323
-5.013838 -4.139345 -0.125687 1685 0.896989 0.116431 0.480841
-5.015107 -4.140393 -0.123709 1671 0.878725 0.101357 0.509301
-5.016383 -4.141434 -0.121743 1659 0.860365 0.086373 0.537589
-5.017479 -4.142330 -0.119767 1651 0.844599 0.073481 0.566020
-5.019099 -4.143649 -0.117808 1631 0.821285 0.054504 0.594208
-5.020927 -4.145154 -0.115847 1615 0.794987 0.032850 0.622423
-5.021579 -4.145676 -0.113863 1595 0.785608 0.025338 0.650970
-5.022626 -4.146537 -0.111878 1573 0.770541 0.012954 0.679531
-5.024856 -4.148361 -0.109927 1541 0.738453 -0.013297 0.707603
-5.027194 -4.150290 -0.107973 1509 0.704813 -0.041049 0.735718
-5.029488 -4.152162 -0.106011 1477 0.671805 -0.067985 0.763948
-5.032327 -4.154507 -0.104065 1425 0.630955 -0.101728 0.791948
-5.035518 -4.157121 -0.102118 1375 0.585041 -0.139339 0.819963
-5.038989 -4.159978 -0.100180 1309 0.535100 -0.180443 0.847848
-5.042338 -4.162731 -0.098231 1197 0.486916 -0.220059 0.875891
-5.044505 -4.162554 -0.222853 1247 0.455733 -0.217506 -0.917231
-5.040222 -4.159014 -0.220667 1349 0.517358 -0.166577 -0.885778
-5.035601 -4.155190 -0.218462 1399 0.583848 -0.111552 -0.854052
-5.031877 -4.152107 -0.216303 1451 0.637432 -0.067189 -0.822987
-5.029107 -4.149808 -0.214176 1489 0.677287 -0.034113 -0.792382
-5.027183 -4.148216 -0.212097 1517 0.704971 -0.011204 -0.762469
-5.024758 -4.146208 -0.210001 1545 0.739866 0.017688 -0.732311
-5.022447 -4.144283 -0.207903 1571 0.773114 0.045385 -0.702123
-5.020911 -4.143010 -0.205841 1589 0.795213 0.063697 -0.672454
-5.019726 -4.142021 -0.203799 1609 0.812270 0.077927 -0.643073
-5.018305 -4.140844 -0.201737 1635 0.832716 0.094867 -0.613404
-5.016948 -4.139716 -0.199684 1651 0.852235 0.111093 -0.583864
-5.015757 -4.138720 -0.197640 1667 0.869374 0.125425 -0.554454
-5.014393 -4.137586 -0.195597 1685 0.889003 0.141741 -0.525059
-5.013546 -4.136867 -0.193562 1687 0.901188 0.152087 -0.495778
-5.012634 -4.136113 -0.191538 1693 0.914313 0.162934 -0.466656
-5.011779 -4.135401 -0.189503 1709 0.926615 0.173185 -0.437375
-5.011326 -4.135008 -0.187495 1725 0.933133 0.178838 -0.408483
-5.010464 -4.134289 -0.185459 1721 0.945530 0.189184 -0.379188
-5.010005 -4.133903 -0.183451 1717 0.952137 0.194735 -0.350296
-5.009594 -4.133550 -0.181444 1723 0.958052 0.199812 -0.321418
-5.008690 -4.132790 -0.179409 1731 0.971060 0.210748 -0.292138
-5.007771 -4.132030 -0.177384 1735 0.984281 0.221685 -0.263001
-5.007360 -4.131678 -0.175377 1739 0.990195 0.226748 -0.234123
-5.007690 -4.131944 -0.173395 1741 0.985447 0.222920 -0.205605
-5.007682 -4.131924 -0.171395 1751 0.985564 0.223208 -0.176829
-5.007444 -4.131711 -0.169396 1753 0.988988 0.226275 -0.148066
-5.007536 -4.131790 -0.167406 1763 0.987664 0.225136 -0.119433
-5.006904 -4.131251 -0.165388 1761 0.996754 0.232896 -0.090397
-5.005820 -4.130345 -0.163365 1753 1.012356 0.245931 -0.061289
-5.006199 -4.130645 -0.161373 1747 1.006902 0.241616 -0.032627
-5.006751 -4.131098 -0.159399 1759 0.998957 0.235098 -0.004224
-5.006620 -4.130974 -0.157400 1761 1.000844 0.236882 0.024538
-5.006713 -4.131039 -0.155411 1761 0.999506 0.235942 0.053157
-5.006189 -4.130604 -0.153403 1747 1.007046 0.242206 0.082049
-5.006116 -4.130537 -0.151404 1737 1.008096 0.243166 0.110812
-5.006890 -4.131162 -0.149430 1747 0.996960 0.234172 0.139215
-5.007491 -4.131649 -0.147455 1745 0.988308 0.227167 0.167632
-5.007870 -4.131949 -0.145464 1745 0.982854 0.222851 0.196279
-5.007905 -4.131972 -0.143473 1741 0.982353 0.222522 0.224927
-5.008679 -4.132597 -0.141499 1739 0.971218 0.213527 0.253330
-5.009496 -4.133265 -0.139525 1733 0.959458 0.203915 0.281733
-5.009932 -4.133605 -0.137543 1735 0.953187 0.199023 0.310251
-5.010642 -4.134183 -0.135569 1727 0.942971 0.190707 0.338653
-5.011358 -4.134767 -0.133585 1721 0.932673 0.182303 0.367200
-5.012347 -4.135572 -0.131619 1719 0.918436 0.170721 0.395488
-5.013056 -4.136149 -0.129635 1707 0.908241 0.162420 0.424035
-5.013708 -4.136671 -0.127651 1697 0.898855 0.154907 0.452581
-5.014876 -4.137622 -0.125687 1691 0.882053 0.141226 0.480841
-5.015865 -4.138428 -0.123711 1679 0.867823 0.129624 0.509272
-5.016632 -4.139061 -0.121727 1671 0.856784 0.120520 0.537819
-5.017678 -4.139908 -0.119751 1657 0.841738 0.108335 0.566251
-5.019463 -4.141372 -0.117802 1637 0.816050 0.087265 0.594294
-5.021177 -4.142781 -0.115832 1623 0.791392 0.066997 0.622639
-5.022847 -4.144148 -0.113873 1607 0.767358 0.047327 0.650826
-5.024288 -4.145320 -0.111895 1585 0.746624 0.030463 0.679287
-5.025449 -4.146265 -0.109919 1561 0.729924 0.016864 0.707718
-5.027285 -4.147778 -0.107958 1527 0.703503 -0.004906 0.735934
-5.029622 -4.149692 -0.105995 1487 0.669877 -0.032446 0.764179
-5.032189 -4.151800 -0.104042 1437 0.632945 -0.062778 0.792279
-5.035100 -4.154186 -0.102097 1393 0.591059 -0.097103 0.820265
-5.038736 -4.157175 -0.100157 1331 0.538744 -0.140115 0.848179
-5.042594 -4.160350 -0.098215 1233 0.483232 -0.185795 0.876121
-5.044150 -4.161620 -0.096237 991 0.460844 -0.204073 0.904582
-5.043236 -4.159060 -0.222756 1291 0.473997 -0.167236 -0.915836
-5.038593 -4.155230 -0.220551 1355 0.540802 -0.112129 -0.884109
-5.035213 -4.152424 -0.218409 1415 0.589432 -0.071752 -0.853289
-5.032000 -4.149765 -0.216267 1463 0.635662 -0.033495 -0.822469
-5.029402 -4.147618 -0.214150 1499 0.673047 -0.002600 -0.792008
-5.027479 -4.146026 -0.212071 1527 0.700710 0.020302 -0.762095
-5.025333 -4.144246 -0.209982 1559 0.731592 0.045914 -0.732037
-5.023352 -4.142598 -0.207903 1581 0.760092 0.069625 -0.702123
-5.021887 -4.141380 -0.205841 1599 0.781176 0.087155 -0.672454
-5.020351 -4.140107 -0.203779 1623 0.803275 0.105467 -0.642785
-5.019052 -4.139021 -0.201727 1647 0.821964 0.121096 -0.613260
-5.017516 -4.137748 -0.199675 1665 0.844064 0.139415 -0.583735
-5.016389 -4.136800 -0.197632 1677 0.860283 0.153054 -0.554339
-5.015642 -4.136178 -0.195607 1693 0.871027 0.162001 -0.525203
-5.014852 -4.135515 -0.193581 1699 0.882396 0.171538 -0.496052
-5.013603 -4.134477 -0.191536 1701 0.900365 0.186474 -0.466627
-5.012519 -4.133571 -0.189493 1711 0.915966 0.199510 -0.437231
-5.012568 -4.133607 -0.187502 1721 0.915260 0.198995 -0.408584
-5.011879 -4.133027 -0.185477 1711 0.925174 0.207338 -0.379447
-5.010909 -4.132218 -0.183451 1715 0.939129 0.218981 -0.350296
-5.010399 -4.131783 -0.181435 1727 0.946470 0.225239 -0.321289
-5.009767 -4.131258 -0.179417 1735 0.955561 0.232793 -0.292253
-5.009134 -4.130720 -0.177401 1747 0.964672 0.240532 -0.263246
-5.008839 -4.130465 -0.175392 1751 0.968913 0.244202 -0.234339
-5.008602 -4.130266 -0.173394 1755 0.972322 0.247063 -0.205591
-5.008307 -4.130011 -0.171385 1759 0.976569 0.250734 -0.176685
-5.007904 -4.129667 -0.169379 1759 0.982367 0.255688 -0.147821
-5.007322 -4.129176 -0.167372 1761 0.990744 0.262748 -0.118944
-5.007034 -4.128929 -0.165364 1765 0.994888 0.266302 -0.090051
-5.006782 -4.128716 -0.163365 1763 0.998511 0.269368 -0.061289
-5.006602 -4.128559 -0.161366 1757 1.001104 0.271626 -0.032526
-5.006981 -4.128858 -0.159384 1755 0.995650 0.267324 -0.004008
-5.007690 -4.129436 -0.157410 1767 0.985447 0.259008 0.024395
-5.007345 -4.129132 -0.155402 1763 0.990408 0.263386 0.053287
-5.006820 -4.128698 -0.153395 1749 0.997962 0.269629 0.082164
-5.007365 -4.129129 -0.151411 1753 0.990120 0.263427 0.110711
-5.008017 -4.129665 -0.149437 1759 0.980741 0.255715 0.139114
-5.008180 -4.129785 -0.147446 1751 0.978394 0.253986 0.167761
-5.008890 -4.130361 -0.145474 1751 0.968178 0.245698 0.196136
-5.009269 -4.130661 -0.143490 1751 0.962724 0.241383 0.224682
-5.008967 -4.130400 -0.141484 1739 0.967074 0.245135 0.253546
-5.009059 -4.130464 -0.139492 1729 0.965750 0.244216 0.282207
-5.009998 -4.131235 -0.137516 1735 0.952240 0.233122 0.310639
-5.011669 -4.132602 -0.135569 1735 0.928193 0.213452 0.338653
-5.012607 -4.133359 -0.133593 1735 0.914697 0.202563 0.367085
-5.012922 -4.133611 -0.131611 1735 0.910169 0.198934 0.395603
-5.013746 -4.134285 -0.129637 1725 0.898313 0.189239 0.424006
-5.014512 -4.134903 -0.127653 1711 0.887288 0.180347 0.452553
-5.015164 -4.135439 -0.125670 1695 0.877909 0.172636 0.481085
-5.015644 -4.135822 -0.123686 1679 0.871000 0.167126 0.509632
-5.016410 -4.136440 -0.121702 1669 0.859981 0.158234 0.538179
-5.017514 -4.137343 -0.119736 1657 0.844091 0.145240 0.566466
-5.019357 -4.138849 -0.117777 1645 0.817573 0.123573 0.594654
-5.021249 -4.140403 -0.115816 1625 0.790356 0.101213 0.622869
-5.022740 -4.141624 -0.113848 1607 0.768902 0.083642 0.651186
-5.024411 -4.142991 -0.111889 1593 0.744854 0.063972 0.679373
-5.025909 -4.144206 -0.109911 1577 0.723304 0.046490 0.707833
-5.028081 -4.145988 -0.107958 1539 0.692052 0.020850 0.735934
-5.030082 -4.147633 -0.105997 1505 0.663256 -0.002820 0.764150
-5.031975 -4.149187 -0.104027 1461 0.636025 -0.025180 0.792495
-5.034771 -4.151475 -0.102072 1413 0.595793 -0.058099 0.820625
-5.038744 -4.154748 -0.100142 1367 0.538627 -0.105192 0.848395
-5.042839 -4.158110 -0.098208 1289 0.479705 -0.153569 0.876222
-5.046934 -4.161473 -0.096276 1123 0.420783 -0.201953 0.904020
-5.042842 -4.156315 -0.222702 1325 0.479664 -0.127737 -0.915059
-5.038774 -4.152956 -0.220515 1377 0.538195 -0.079409 -0.883591
-5.035502 -4.150240 -0.218373 1439 0.585275 -0.040329 -0.852771
-5.032115 -4.147443 -0.216231 1477 0.634008 -0.000082 -0.821951
-5.029905 -4.145615 -0.214133 1515 0.665809 0.026216 -0.791764
-5.027874 -4.143932 -0.212044 1543 0.695030 0.050435 -0.761706
-5.025620 -4.142063 -0.209955 1577 0.727461 0.077323 -0.731649
-5.023755 -4.140512 -0.207876 1597 0.754295 0.099642 -0.701735
-5.021939 -4.139010 -0.205805 1613 0.780428 0.121254 -0.671936
-5.020467 -4.137786 -0.203743 1627 0.801608 0.138866 -0.642267
-5.019326 -4.136838 -0.201700 1651 0.818019 0.152506 -0.612872
-5.018206 -4.135897 -0.199656 1677 0.834136 0.166042 -0.583462
-5.017014 -4.134901 -0.197613 1687 0.851288 0.180375 -0.554066
-5.015987 -4.134050 -0.195578 1693 0.866067 0.192622 -0.524785
-5.015412 -4.133567 -0.193562 1701 0.874341 0.199572 -0.495778
-5.014953 -4.133181 -0.191544 1715 0.880941 0.205122 -0.466742
-5.013768 -4.132191 -0.189511 1715 0.897991 0.219366 -0.437490
-5.012684 -4.131285 -0.187466 1723 0.913593 0.232402 -0.408066
-5.012045 -4.130754 -0.185450 1723 0.922786 0.240045 -0.379059
-5.011535 -4.130319 -0.183443 1741 0.930121 0.246302 -0.350181
-5.011577 -4.130348 -0.181443 1749 0.929517 0.245883 -0.321404
-5.010557 -4.129491 -0.179407 1741 0.944192 0.258219 -0.292109
-5.009695 -4.128772 -0.177393 1751 0.956597 0.268566 -0.263131
-5.009737 -4.128802 -0.175392 1751 0.955993 0.268133 -0.234339
-5.009105 -4.128263 -0.173376 1755 0.965084 0.275886 -0.205332
-5.008358 -4.127642 -0.171360 1759 0.975835 0.284819 -0.176325
-5.007956 -4.127296 -0.169352 1767 0.981619 0.289800 -0.147433
-5.008327 -4.127604 -0.167370 1761 0.976281 0.285368 -0.118915
-5.008377 -4.127626 -0.165381 1773 0.975561 0.285053 -0.090296
-5.007687 -4.127046 -0.163365 1769 0.985489 0.293396 -0.061289
-5.007500 -4.126881 -0.161366 1773 0.988178 0.295769 -0.032526
-5.008001 -4.127285 -0.159382 1765 0.980974 0.289958 -0.003980
-5.008488 -4.127675 -0.157400 1767 0.973962 0.284346 0.024538
-5.008071 -4.127330 -0.155392 1765 0.979966 0.289313 0.053430
-5.007661 -4.126979 -0.153395 1757 0.985866 0.294363 0.082164
-5.008090 -4.127327 -0.151411 1761 0.979691 0.289354 0.110711
-5.008305 -4.127482 -0.149420 1765 0.976597 0.287125 0.139359
-5.008569 -4.127698 -0.147429 1767 0.972803 0.284017 0.168006
-5.009400 -4.128366 -0.145464 1759 0.960844 0.274404 0.196279
-5.010224 -4.129039 -0.143490 1759 0.948988 0.264724 0.224682
-5.010152 -4.128973 -0.141491 1755 0.950024 0.265670 0.253445
-5.010581 -4.129307 -0.139508 1747 0.943849 0.260868 0.281977
-5.011864 -4.130355 -0.137551 1739 0.925387 0.245787 0.310136
-5.012623 -4.130980 -0.135567 1735 0.914471 0.236793 0.338682
-5.013060 -4.131322 -0.133585 1737 0.908179 0.231873 0.367200
-5.014107 -4.132183 -0.131619 1737 0.893113 0.219482 0.395488
-5.014651 -4.132614 -0.129637 1727 0.885291 0.213280 0.424006
-5.014908 -4.132824 -0.127646 1715 0.881593 0.210261 0.452654
-5.015223 -4.133062 -0.125653 1693 0.877058 0.206838 0.481330
-5.015365 -4.133174 -0.123663 1677 0.875013 0.205225 0.509963
-5.016583 -4.134174 -0.121697 1677 0.857490 0.190838 0.538251
-5.018764 -4.135950 -0.119744 1673 0.826108 0.165281 0.566351
-5.020039 -4.136992 -0.117777 1655 0.807762 0.150289 0.594654
-5.021028 -4.137797 -0.115792 1635 0.793532 0.138708 0.623215
-5.022691 -4.139157 -0.113833 1621 0.769608 0.119141 0.651402
-5.024189 -4.140386 -0.111864 1607 0.748051 0.101453 0.679733
-5.026254 -4.142078 -0.109904 1587 0.718336 0.077110 0.707934
-5.028484 -4.143902 -0.107950 1551 0.686254 0.050867 0.736049
-5.030600 -4.145644 -0.105990 1521 0.655805 0.025797 0.764251
-5.032608 -4.147281 -0.104019 1475 0.626914 0.002244 0.792610
-5.035052 -4.149285 -0.102066 1427 0.591752 -0.026586 0.820711
-5.038415 -4.152052 -0.100127 1383 0.543361 -0.066400 0.848610
-5.042001 -4.154992 -0.098177 1309 0.491767 -0.108705 0.876668
-5.047050 -4.159138 -0.096260 1195 0.419116 -0.168361 0.904251
-5.042215 -4.153164 -0.222632 1339 0.488686 -0.082400 -0.914052
-5.038089 -4.149763 -0.220444 1389 0.548054 -0.033468 -0.882569
-5.035205 -4.147381 -0.218319 1445 0.589549 0.000810 -0.851994
-5.032271 -4.144950 -0.216194 1495 0.631765 0.035787 -0.821418
-5.030010 -4.143074 -0.214098 1529 0.664293 0.062778 -0.791260
-5.028087 -4.141481 -0.212008 1553 0.691963 0.085700 -0.761188
-5.025884 -4.139661 -0.209919 1581 0.723660 0.111889 -0.731131
-5.024412 -4.138436 -0.207857 1613 0.744840 0.129514 -0.701462
-5.022776 -4.137079 -0.205797 1627 0.768380 0.149041 -0.671821
-5.020903 -4.135521 -0.203728 1635 0.795330 0.171456 -0.642052
-5.019438 -4.134304 -0.201666 1659 0.816414 0.188965 -0.612382
-5.018297 -4.133356 -0.199621 1675 0.832825 0.202604 -0.582958
-5.017837 -4.132970 -0.197604 1691 0.839446 0.208162 -0.553936
-5.016932 -4.132209 -0.195580 1695 0.852468 0.219112 -0.524814
-5.015733 -4.131220 -0.193535 1701 0.869724 0.233341 -0.495390
-5.014936 -4.130549 -0.191510 1715 0.881188 0.242995 -0.466253
-5.014304 -4.130025 -0.189493 1719 0.890279 0.250535 -0.437231
-5.013284 -4.129167 -0.187458 1729 0.904955 0.262878 -0.407951
-5.012150 -4.128226 -0.185416 1737 0.921277 0.276421 -0.378569
-5.011740 -4.127875 -0.183407 1737 0.927170 0.281471 -0.349663
-5.011617 -4.127759 -0.181408 1747 0.928941 0.283138 -0.320900
-5.010877 -4.127144 -0.179392 1757 0.939589 0.291989 -0.291893
-5.010525 -4.126849 -0.177384 1767 0.944652 0.296229 -0.263001
-5.010797 -4.127059 -0.175392 1765 0.940741 0.293210 -0.234339
-5.010386 -4.126707 -0.173384 1765 0.946656 0.298274 -0.205447
-5.009138 -4.125669 -0.171351 1765 0.964611 0.313210 -0.176195
-5.008842 -4.125414 -0.169344 1761 0.968871 0.316881 -0.147318
-5.009609 -4.126047 -0.167380 1761 0.957832 0.307769 -0.119059
-5.009601 -4.126028 -0.165379 1775 0.957949 0.308044 -0.090267
-5.008855 -4.125406 -0.163363 1775 0.968686 0.316997 -0.061260
-5.008609 -4.125185 -0.161364 1779 0.972226 0.320174 -0.032498
-5.009110 -4.125590 -0.159382 1779 0.965016 0.314349 -0.003980
-5.009375 -4.125793 -0.157400 1779 0.961201 0.311426 0.024538
-5.009073 -4.125546 -0.155392 1775 0.965551 0.314980 0.053430
-5.008491 -4.125055 -0.153385 1767 0.973921 0.322047 0.082308
-5.008368 -4.124939 -0.151387 1761 0.975691 0.323714 0.111056
-5.008511 -4.125052 -0.149395 1759 0.973633 0.322088 0.139718
-5.009005 -4.125449 -0.147423 1755 0.966525 0.316373 0.168092
-5.009219 -4.125603 -0.145432 1749 0.963444 0.314157 0.196740
-5.009017 -4.125439 -0.143433 1753 0.966353 0.316517 0.225502
-5.009791 -4.126064 -0.141459 1755 0.955218 0.307529 0.253905
-5.010736 -4.126829 -0.139494 1751 0.941620 0.296517 0.282179
-5.011388 -4.127350 -0.137511 1739 0.932241 0.289025 0.310711
-5.012499 -4.128259 -0.135544 1741 0.916255 0.275941 0.339013
-5.013660 -4.129204 -0.133578 1735 0.899548 0.262350 0.367301
-5.014427 -4.129823 -0.131604 1729 0.888509 0.253437 0.395704
-5.014921 -4.130219 -0.129620 1725 0.881401 0.247743 0.424251
-5.015680 -4.130845 -0.127636 1715 0.870485 0.238734 0.452797
-5.016619 -4.131602 -0.125662 1697 0.856969 0.227846 0.481200
-5.017328 -4.132179 -0.123688 1687 0.846774 0.219544 0.509603
-5.018439 -4.133075 -0.121712 1685 0.830788 0.206645 0.538035
-5.019930 -4.134296 -0.119753 1683 0.809333 0.189081 0.566222
-5.021091 -4.135241 -0.117777 1659 0.792627 0.175483 0.594654
-5.022195 -4.136143 -0.115801 1649 0.776744 0.162502 0.623085
-5.023299 -4.137046 -0.113825 1633 0.760854 0.149514 0.651517
-5.024962 -4.138406 -0.111866 1613 0.736930 0.129947 0.679704
-5.027199 -4.140237 -0.109904 1589 0.704745 0.103601 0.707934
-5.029091 -4.141778 -0.107943 1563 0.677520 0.081426 0.736150
-5.030984 -4.143332 -0.105984 1533 0.650282 0.059066 0.764337
-5.033494 -4.145385 -0.104029 1491 0.614166 0.029530 0.792466
-5.036169 -4.147583 -0.102076 1449 0.575676 -0.002099 0.820567
-5.038686 -4.149643 -0.100111 1395 0.539464 -0.031739 0.848841
