466
-13.271915 -11.530753 -0.169767 749 0.785636 -0.420769 -0.459422
-13.270463 -11.529469 -0.164347 813 0.806534 -0.402286 -0.381436
-13.269465 -11.528583 -0.158943 853 0.820887 -0.389538 -0.303681
-13.268021 -11.527292 -0.153521 867 0.841676 -0.370972 -0.225667
-13.266907 -11.526293 -0.148117 879 0.857703 -0.356592 -0.147911
-13.267005 -11.526359 -0.142717 859 0.856290 -0.357539 -0.070213
-13.269089 -11.528138 -0.137344 821 0.826307 -0.383144 0.007096
-13.271395 -11.530119 -0.131962 773 0.793128 -0.411644 0.084535
-13.272072 -11.524296 -0.180548 757 0.783385 -0.327858 -0.614544
-13.270793 -11.523165 -0.175135 869 0.801786 -0.311584 -0.536659
-13.267966 -11.520687 -0.169701 921 0.842458 -0.275934 -0.458472
-13.265920 -11.518883 -0.164284 953 0.871905 -0.249972 -0.380530
-13.265200 -11.518225 -0.158878 975 0.882265 -0.240504 -0.302746
-13.264245 -11.517365 -0.153473 983 0.896001 -0.228141 -0.224976
-13.263517 -11.516712 -0.148068 977 0.906471 -0.218741 -0.147206
-13.264282 -11.517341 -0.142683 965 0.895466 -0.227784 -0.069724
-13.265311 -11.518210 -0.137297 941 0.880660 -0.240298 0.007772
-13.267841 -11.520381 -0.131924 923 0.844256 -0.271530 0.085082
-13.270691 -11.522834 -0.126557 865 0.803254 -0.306822 0.162305
-13.272330 -11.524226 -0.121166 793 0.779666 -0.326856 0.239873
-13.273774 -11.519472 -0.185946 819 0.758891 -0.258453 -0.692213
-13.269670 -11.515896 -0.180500 913 0.817951 -0.206995 -0.613854
-13.266741 -11.513320 -0.175068 967 0.860091 -0.169932 -0.535695
-13.264359 -11.511231 -0.169642 1001 0.894354 -0.139881 -0.457623
-13.262974 -11.509997 -0.164240 1027 0.914292 -0.122125 -0.379897
-13.262031 -11.509151 -0.158835 1049 0.927863 -0.109954 -0.302127
-13.260745 -11.508013 -0.153433 1047 0.946361 -0.093570 -0.224400
-13.260012 -11.507357 -0.148026 1049 0.956913 -0.084129 -0.146602
-13.260554 -11.507795 -0.142643 1037 0.949105 -0.090441 -0.069149
-13.262035 -11.509048 -0.137264 1013 0.927795 -0.108472 0.008247
-13.264945 -11.511558 -0.131899 1005 0.885929 -0.144574 0.085441
-13.267301 -11.513574 -0.126524 971 0.852036 -0.173582 0.162779
-13.270272 -11.516117 -0.121147 929 0.809278 -0.210179 0.240146
-13.274946 -11.520157 -0.115791 851 0.742027 -0.268305 0.317211
-13.276718 -11.514544 -0.191355 851 0.716532 -0.187538 -0.770041
-13.272901 -11.511204 -0.185917 943 0.771461 -0.139483 -0.691796
-13.269198 -11.507962 -0.180470 1001 0.824729 -0.092843 -0.613422
-13.266536 -11.505630 -0.175045 1039 0.863041 -0.059279 -0.535364
-13.264053 -11.503443 -0.169628 1065 0.898759 -0.027814 -0.457422
-13.262166 -11.501778 -0.164209 1079 0.925915 -0.003856 -0.379451
-13.260441 -11.500257 -0.158800 1095 0.950738 0.018031 -0.301624
-13.259270 -11.499218 -0.153397 1089 0.967588 0.032974 -0.223882
-13.260372 -11.500143 -0.148020 1089 0.951726 0.019664 -0.146516
-13.260965 -11.500632 -0.142637 1073 0.943191 0.012624 -0.069062
-13.261944 -11.501453 -0.137251 1061 0.929112 0.000810 0.008434
-13.264136 -11.503324 -0.131878 1067 0.897565 -0.026099 0.085743
-13.266558 -11.505403 -0.126505 1045 0.862725 -0.056013 0.163053
-13.269250 -11.507704 -0.121140 1015 0.823988 -0.089124 0.240247
-13.273369 -11.511249 -0.115776 959 0.764723 -0.140128 0.317427
-13.277605 -11.514905 -0.110401 871 0.703770 -0.192738 0.394765
-13.279422 -11.509662 -0.196764 867 0.677630 -0.117295 -0.847868
-13.275004 -11.505808 -0.191309 959 0.741190 -0.061845 -0.769379
-13.271517 -11.502760 -0.185869 1023 0.791371 -0.017989 -0.691105
-13.267699 -11.499420 -0.180431 1069 0.846300 0.030065 -0.612861
-13.264650 -11.496755 -0.175009 1091 0.890169 0.068418 -0.534846
-13.262490 -11.494854 -0.169592 1105 0.921249 0.095765 -0.456904
-13.260766 -11.493334 -0.164183 1127 0.946059 0.117638 -0.379077
-13.259595 -11.492293 -0.158779 1131 0.962909 0.132609 -0.301321
-13.259319 -11.492024 -0.153391 1127 0.966875 0.136478 -0.223796
-13.259196 -11.491887 -0.147991 1121 0.968645 0.138454 -0.146098
-13.259847 -11.492433 -0.142618 1115 0.959287 0.130605 -0.068789
-13.261600 -11.493919 -0.137238 1117 0.934066 0.109213 0.008621
-13.263684 -11.495700 -0.131865 1095 0.904070 0.083594 0.085931
-13.266105 -11.497766 -0.126501 1095 0.869243 0.053872 0.163110
-13.267858 -11.499253 -0.121122 1065 0.844022 0.032466 0.240506
-13.270709 -11.501708 -0.115746 1023 0.802994 -0.002854 0.317859
-13.274951 -11.505357 -0.110380 961 0.741959 -0.055354 0.395067
-13.279572 -11.509332 -0.105024 879 0.675476 -0.112547 0.472132
-13.284704 -11.507166 -0.202217 817 0.601624 -0.081385 -0.926328
-13.279288 -11.502443 -0.196737 935 0.679551 -0.013434 -0.847480
-13.274425 -11.498199 -0.191286 1011 0.749533 0.047629 -0.769048
-13.270385 -11.494672 -0.185839 1051 0.807659 0.098386 -0.690674
-13.266397 -11.491195 -0.180393 1087 0.865031 0.148416 -0.612314
-13.264465 -11.489489 -0.174984 1123 0.892831 0.172965 -0.534487
-13.263130 -11.488315 -0.169582 1137 0.912042 0.189857 -0.456760
-13.261693 -11.487032 -0.164169 1155 0.932721 0.208313 -0.378875
-13.260686 -11.486138 -0.158775 1153 0.947211 0.221170 -0.301264
-13.260783 -11.486201 -0.153385 1159 0.945812 0.220264 -0.223710
-13.261163 -11.486496 -0.148003 1169 0.940350 0.216024 -0.146271
-13.260650 -11.486025 -0.142607 1155 0.947733 0.222803 -0.068631
-13.261580 -11.486798 -0.137232 1161 0.934340 0.211675 0.008707
-13.264110 -11.488969 -0.131867 1141 0.897950 0.180443 0.085902
-13.265697 -11.490311 -0.126488 1131 0.875116 0.161137 0.163297
-13.267050 -11.491466 -0.121109 1105 0.855645 0.144519 0.240693
-13.269856 -11.493864 -0.115744 1071 0.815261 0.110009 0.317887
-13.273433 -11.496935 -0.110373 1011 0.763804 0.065824 0.395168
-13.277840 -11.500717 -0.105007 949 0.700395 0.011403 0.472377
-13.283730 -11.505796 -0.099653 847 0.615648 -0.061680 0.549413
-13.289546 -11.504271 -0.207651 745 0.531958 -0.039725 -1.004516
-13.283077 -11.498653 -0.202170 901 0.625034 0.041097 -0.925652
-13.277325 -11.493648 -0.196694 983 0.707805 0.113124 -0.846861
-13.273845 -11.490606 -0.191254 1039 0.757876 0.156883 -0.768588
-13.271076 -11.488184 -0.185829 1081 0.797711 0.191737 -0.690530
-13.268420 -11.485859 -0.180405 1131 0.835926 0.225191 -0.612487
-13.265930 -11.483665 -0.174978 1149 0.871754 0.256751 -0.534400
-13.265476 -11.483251 -0.169592 1185 0.878286 0.262720 -0.456904
-13.264148 -11.482071 -0.164189 1181 0.897401 0.279694 -0.379163
-13.263025 -11.481080 -0.158785 1181 0.913551 0.293951 -0.301408
-13.262858 -11.480902 -0.153397 1189 0.915953 0.296517 -0.223882
-13.262670 -11.480716 -0.148008 1191 0.918670 0.299193 -0.146343
-13.262711 -11.480725 -0.142618 1181 0.918080 0.299056 -0.068789
-13.263145 -11.481074 -0.137236 1167 0.911822 0.294034 0.008650
-13.264684 -11.482368 -0.131867 1171 0.889689 0.275413 0.085902
-13.266331 -11.483767 -0.126488 1147 0.865991 0.255297 0.163297
-13.268298 -11.485449 -0.121115 1127 0.837683 0.231091 0.240607
-13.270555 -11.487368 -0.115742 1095 0.805217 0.203483 0.317916
-13.273629 -11.490009 -0.110375 1051 0.760977 0.165473 0.395139
-13.277755 -11.493547 -0.105011 1003 0.701616 0.114564 0.472319
-13.283867 -11.498814 -0.099655 917 0.613672 0.038792 0.549384
-13.288540 -11.502838 -0.094290 777 0.546435 -0.019115 0.626578
-13.297487 -11.504076 -0.213139 769 0.417696 -0.036926 -1.083480
-13.292789 -11.499977 -0.207676 851 0.485290 0.022051 -1.004875
-13.284886 -11.493110 -0.202162 951 0.599004 0.120863 -0.925537
-13.279622 -11.488535 -0.196703 1025 0.674749 0.186687 -0.846990
-13.275805 -11.485208 -0.191256 1073 0.729664 0.234563 -0.768616
-13.272598 -11.482405 -0.185824 1111 0.775811 0.274891 -0.690458
-13.269777 -11.479932 -0.180399 1153 0.816400 0.310472 -0.612400
-13.267165 -11.477650 -0.174975 1167 0.853984 0.343309 -0.534357
-13.265722 -11.476373 -0.169573 1191 0.874746 0.361683 -0.456631
-13.264716 -11.475479 -0.164179 1197 0.889222 0.374540 -0.379019
-13.263837 -11.474681 -0.158785 1193 0.901874 0.386025 -0.301408
-13.263878 -11.474690 -0.153395 1207 0.901284 0.385888 -0.223854
-13.264242 -11.474984 -0.148012 1213 0.896042 0.381662 -0.146400
-13.263967 -11.474715 -0.142624 1215 0.900008 0.385531 -0.068875
-13.264330 -11.475010 -0.137241 1199 0.894780 0.381291 0.008578
-13.266149 -11.476544 -0.131870 1193 0.868612 0.359213 0.085859
-13.267292 -11.477513 -0.126495 1177 0.852159 0.345271 0.163197
-13.268932 -11.478905 -0.121115 1145 0.828558 0.325251 0.240607
-13.272241 -11.481733 -0.115757 1129 0.780956 0.284552 0.317700
-13.274820 -11.483937 -0.110382 1095 0.743839 0.252840 0.395038
-13.278439 -11.487052 -0.105011 1041 0.691778 0.208025 0.472319
-13.284286 -11.492076 -0.099657 959 0.607648 0.135737 0.549355
-13.290672 -11.497580 -0.094299 853 0.515753 0.056548 0.626448
-13.299250 -11.498219 -0.213135 715 0.392338 0.047354 -1.083422
-13.292614 -11.492456 -0.207644 891 0.487815 0.130262 -1.004415
-13.286030 -11.486741 -0.202150 975 0.582551 0.212498 -0.925364
-13.281496 -11.482789 -0.196697 1051 0.647785 0.269362 -0.846904
-13.276907 -11.478797 -0.191244 1099 0.713815 0.326802 -0.768444
-13.272638 -11.475077 -0.185799 1131 0.775234 0.380331 -0.690098
-13.270757 -11.473417 -0.180390 1157 0.802308 0.404207 -0.612271
-13.269814 -11.472586 -0.174994 1185 0.815879 0.416173 -0.534631
-13.268035 -11.471010 -0.169584 1209 0.841470 0.438841 -0.456789
-13.266533 -11.469692 -0.164183 1207 0.863082 0.457805 -0.379077
-13.266302 -11.469465 -0.158795 1211 0.866403 0.461071 -0.301551
-13.266185 -11.469337 -0.153406 1215 0.868091 0.462909 -0.224012
-13.265896 -11.469052 -0.148018 1215 0.872248 0.467012 -0.146487
-13.266388 -11.469457 -0.142635 1217 0.865168 0.461194 -0.069034
-13.267080 -11.470030 -0.137251 1205 0.855206 0.452947 0.008434
-13.268291 -11.471045 -0.131884 1197 0.837779 0.438347 0.085657
-13.270438 -11.472876 -0.126511 1185 0.806891 0.412001 0.162967
-13.271805 -11.474030 -0.121134 1171 0.787227 0.395397 0.240333
-13.273443 -11.475420 -0.115755 1145 0.763653 0.375391 0.317729
-13.276689 -11.478200 -0.110396 1111 0.716957 0.335391 0.394837
-13.279984 -11.481016 -0.105026 1061 0.669534 0.294871 0.472103
-13.284333 -11.484755 -0.099661 1001 0.606962 0.241081 0.549297
-13.290518 -11.490064 -0.094307 903 0.517976 0.164691 0.626333
-13.297791 -11.496330 -0.088944 741 0.413332 0.074524 0.703499
-13.301316 -11.492480 -0.213139 789 0.362602 0.129919 -1.083480
-13.292912 -11.485196 -0.207617 925 0.483533 0.234727 -1.004026
-13.286205 -11.479376 -0.202126 995 0.580026 0.318472 -0.925019
-13.281283 -11.475091 -0.196674 1041 0.650845 0.380125 -0.846573
-13.277354 -11.471669 -0.191227 1093 0.707379 0.429359 -0.768199
-13.275193 -11.469782 -0.185808 1141 0.738473 0.456515 -0.690228
-13.273533 -11.468310 -0.180399 1165 0.762363 0.477688 -0.612400
-13.272141 -11.467083 -0.174997 1187 0.782383 0.495348 -0.534674
-13.270590 -11.465715 -0.169596 1197 0.804709 0.515025 -0.456962
-13.268968 -11.464295 -0.164185 1215 0.828050 0.535457 -0.379105
-13.268634 -11.463969 -0.158796 1233 0.832853 0.540150 -0.301566
-13.268962 -11.464230 -0.153416 1239 0.828132 0.536404 -0.224156
-13.268837 -11.464092 -0.148037 1239 0.829930 0.538380 -0.146760
-13.268498 -11.463774 -0.142649 1229 0.834801 0.542963 -0.069235
-13.269534 -11.464637 -0.137272 1231 0.819899 0.530545 0.008132
-13.270951 -11.465841 -0.131895 1215 0.799508 0.513214 0.085499
-13.271717 -11.466470 -0.126511 1195 0.788490 0.504171 0.162967
-13.272696 -11.467289 -0.121134 1169 0.774411 0.492384 0.240333
-13.275496 -11.469681 -0.115769 1165 0.734123 0.457970 0.317528
-13.278469 -11.472225 -0.110401 1111 0.691338 0.421359 0.394765
-13.281764 -11.475039 -0.105032 1069 0.643929 0.380880 0.472017
-13.285784 -11.478487 -0.099669 1021 0.586091 0.331261 0.549182
-13.291131 -11.483082 -0.094309 939 0.509152 0.265149 0.626305
-13.299400 -11.490203 -0.088961 795 0.390169 0.162687 0.703254
-13.301699 -11.485764 -0.213120 849 0.357100 0.226563 -1.083206
-13.295056 -11.480005 -0.207617 943 0.452673 0.309416 -1.004026
-13.289190 -11.474917 -0.202141 1017 0.537076 0.382622 -0.925235
-13.284599 -11.470924 -0.196688 1083 0.603134 0.440076 -0.846774
-13.281163 -11.467925 -0.191258 1121 0.652574 0.483232 -0.768645
-13.278902 -11.465940 -0.185841 1161 0.685109 0.511787 -0.690702
-13.276461 -11.463808 -0.180414 1191 0.720237 0.542469 -0.612616
-13.273900 -11.461576 -0.174999 1205 0.757080 0.574578 -0.534703
-13.272629 -11.460451 -0.169598 1209 0.775372 0.590770 -0.456990
-13.272231 -11.460078 -0.164209 1231 0.781094 0.596136 -0.379451
-13.271892 -11.459761 -0.158821 1245 0.785979 0.600705 -0.301926
-13.271602 -11.459477 -0.153433 1243 0.790150 0.604780 -0.224400
-13.271200 -11.459111 -0.148045 1239 0.795927 0.610050 -0.146875
-13.271805 -11.459599 -0.142662 1245 0.787227 0.603038 -0.069422
-13.272340 -11.460032 -0.137289 1237 0.779529 0.596794 0.007887
-13.272991 -11.460576 -0.131905 1205 0.770157 0.588973 0.085355
-13.274967 -11.462252 -0.126534 1207 0.741725 0.564863 0.162636
-13.276993 -11.463977 -0.121163 1187 0.712580 0.540040 0.239916
-13.278869 -11.465569 -0.115791 1169 0.685589 0.517138 0.317211
-13.280335 -11.466806 -0.110413 1135 0.664485 0.499327 0.394592
-13.282749 -11.468865 -0.105040 1085 0.629754 0.469702 0.471902
-13.287772 -11.473174 -0.099680 1039 0.557481 0.407706 0.549024
-13.293835 -11.478377 -0.094326 963 0.470251 0.332839 0.626060
-13.300292 -11.483922 -0.088968 829 0.377339 0.253060 0.703154
-13.303601 -11.482121 -0.213122 903 0.329724 0.278967 -1.083235
-13.297790 -11.477070 -0.207644 963 0.413346 0.351652 -1.004415
-13.290870 -11.471070 -0.202154 1031 0.512912 0.437977 -0.925422
-13.286551 -11.467316 -0.196699 1079 0.575045 0.492000 -0.846933
-13.283273 -11.464469 -0.191267 1131 0.622221 0.532960 -0.768775
-13.280345 -11.461906 -0.185835 1161 0.664347 0.569831 -0.690616
-13.278184 -11.460019 -0.180428 1177 0.695441 0.596986 -0.612818
-13.276297 -11.458355 -0.175018 1207 0.722597 0.620931 -0.534976
-13.275571 -11.457704 -0.169623 1225 0.733039 0.630303 -0.457350
-13.274507 -11.456769 -0.164229 1235 0.748353 0.643751 -0.379739
-13.274388 -11.456637 -0.158840 1259 0.750055 0.645644 -0.302199
-13.274545 -11.456745 -0.153458 1253 0.747804 0.644094 -0.224760
-13.274427 -11.456614 -0.148070 1241 0.749492 0.645987 -0.147235
-13.274302 -11.456477 -0.142679 1247 0.751303 0.647950 -0.069667
-13.273905 -11.456102 -0.137293 1219 0.757012 0.653342 0.007830
-13.275106 -11.457113 -0.131916 1213 0.739722 0.638797 0.085197
-13.276582 -11.458358 -0.126547 1209 0.718494 0.620890 0.162449
-13.278285 -11.459811 -0.121168 1183 0.693987 0.599978 0.239844
-13.280426 -11.461619 -0.115805 1173 0.663181 0.573961 0.317010
-13.282668 -11.463539 -0.110432 1131 0.630921 0.546339 0.394319
-13.285367 -11.465833 -0.105057 1101 0.592088 0.513337 0.471657
-13.289888 -11.469710 -0.099701 1057 0.527032 0.457544 0.548722
-13.295615 -11.474630 -0.094338 967 0.444632 0.386753 0.625887
-13.302567 -11.480599 -0.088987 851 0.344613 0.300867 0.702880
-13.309536 -11.478709 -0.213179 867 0.244333 0.328064 -1.084055
-13.302007 -11.472189 -0.207672 957 0.352667 0.421881 -1.004818
-13.296183 -11.467140 -0.202196 1033 0.436467 0.494525 -0.926026
-13.291477 -11.463052 -0.196734 1087 0.504171 0.553351 -0.847436
-13.287884 -11.459928 -0.191303 1135 0.555875 0.598304 -0.769292
-13.284719 -11.457163 -0.185871 1155 0.601405 0.638084 -0.691134
-13.282113 -11.454902 -0.180447 1181 0.638907 0.670618 -0.613091
-13.280340 -11.453335 -0.175038 1197 0.664416 0.693163 -0.535264
-13.279613 -11.452682 -0.169651 1223 0.674886 0.702563 -0.457753
-13.278937 -11.452081 -0.164255 1233 0.684601 0.711208 -0.380113
-13.278160 -11.451381 -0.158859 1241 0.695784 0.721280 -0.302472
-13.278308 -11.451481 -0.153479 1241 0.693657 0.719839 -0.225062
-13.278306 -11.451447 -0.148089 1235 0.693685 0.720333 -0.147508
-13.279014 -11.452033 -0.142716 1237 0.683503 0.711894 -0.070199
-13.279720 -11.452618 -0.137331 1247 0.673335 0.703482 0.007283
-13.280026 -11.452856 -0.131949 1209 0.668930 0.700052 0.084722
-13.280956 -11.453629 -0.126574 1183 0.655552 0.688937 0.162060
-13.282387 -11.454833 -0.121195 1165 0.634969 0.671606 0.239456
-13.284247 -11.456410 -0.115826 1157 0.608197 0.648910 0.316707
-13.285995 -11.457891 -0.110455 1137 0.583059 0.627600 0.393988
-13.290029 -11.461340 -0.105091 1105 0.525015 0.577982 0.471168
-13.295152 -11.465732 -0.099733 1051 0.451301 0.514792 0.548261
-13.300003 -11.469887 -0.094364 979 0.381497 0.455006 0.625513
-13.306954 -11.475856 -0.089014 855 0.281478 0.369120 0.702492
-13.313139 -11.474862 -0.213200 865 0.192491 0.383418 -1.084357
-13.305946 -11.468626 -0.207703 971 0.295982 0.473146 -1.005264
-13.299570 -11.463113 -0.202219 1033 0.387727 0.552472 -0.926357
-13.295145 -11.459268 -0.196764 1085 0.451397 0.607799 -0.847868
-13.292204 -11.456706 -0.191330 1127 0.493715 0.644656 -0.769681
-13.289648 -11.454477 -0.185915 1171 0.530490 0.676725 -0.691767
-13.286664 -11.451875 -0.180483 1189 0.573426 0.714172 -0.613609
-13.284437 -11.449924 -0.175076 1201 0.605467 0.742233 -0.535810
-13.283267 -11.448898 -0.169672 1225 0.622303 0.756998 -0.458055
-13.282319 -11.448047 -0.164278 1227 0.635943 0.769252 -0.380444
-13.281591 -11.447395 -0.158882 1243 0.646413 0.778624 -0.302803
-13.281474 -11.447265 -0.153494 1245 0.648101 0.780504 -0.225278
-13.281623 -11.447364 -0.148111 1227 0.645960 0.779076 -0.147825
-13.281942 -11.447616 -0.142731 1235 0.641363 0.775454 -0.070415
-13.281703 -11.447382 -0.137343 1209 0.644807 0.778816 0.007110
-13.281908 -11.447537 -0.131960 1195 0.641857 0.776579 0.084564
-13.282509 -11.448018 -0.126577 1185 0.633212 0.769663 0.162017
-13.284929 -11.450083 -0.121214 1175 0.598386 0.739955 0.239182
-13.288295 -11.452952 -0.115854 1155 0.549961 0.698666 0.316305
-13.290380 -11.454720 -0.110483 1129 0.519965 0.673239 0.393585
-13.293624 -11.457499 -0.105114 1093 0.473283 0.633253 0.470837
-13.298532 -11.461698 -0.099756 1039 0.402670 0.572836 0.547930
-13.302832 -11.465373 -0.094391 959 0.340798 0.519951 0.625125
-13.309345 -11.470960 -0.089033 845 0.247077 0.439568 0.702218
-13.315225 -11.469851 -0.213200 821 0.162481 0.455527 -1.084357
-13.310742 -11.465964 -0.207747 969 0.226974 0.511444 -1.005897
-13.304099 -11.460206 -0.202253 1033 0.322561 0.594297 -0.926846
-13.299051 -11.455839 -0.196793 1069 0.395192 0.657130 -0.848285
-13.295171 -11.452465 -0.191345 1115 0.451026 0.705678 -0.769897
-13.292565 -11.450188 -0.185930 1145 0.488515 0.738446 -0.691983
-13.290404 -11.448301 -0.180514 1175 0.519608 0.765588 -0.614055
-13.287627 -11.445886 -0.175089 1189 0.559567 0.800345 -0.535998
-13.285913 -11.444373 -0.169689 1205 0.584225 0.822108 -0.458300
-13.285070 -11.443625 -0.164293 1211 0.596355 0.832866 -0.380659
-13.284723 -11.443301 -0.158905 1231 0.601350 0.837532 -0.303134
-13.285209 -11.443699 -0.153523 1237 0.594366 0.831810 -0.225695
-13.285480 -11.443902 -0.148142 1233 0.590468 0.828887 -0.148271
-13.285419 -11.443814 -0.142752 1227 0.591333 0.830149 -0.070717
-13.285731 -11.444058 -0.137371 1207 0.586846 0.826637 0.006707
-13.286777 -11.444930 -0.131994 1197 0.571807 0.814095 0.084074
-13.288136 -11.446076 -0.126627 1187 0.552253 0.797601 0.161297
-13.289681 -11.447377 -0.121248 1169 0.530010 0.778884 0.238693
-13.291772 -11.449151 -0.115875 1147 0.499931 0.753362 0.316002
-13.295017 -11.451918 -0.110508 1119 0.453235 0.713554 0.393225
-13.298205 -11.454641 -0.105139 1091 0.407363 0.674364 0.470477
-13.302180 -11.458033 -0.099775 1043 0.350170 0.625569 0.547657
-13.307807 -11.462855 -0.094423 949 0.269211 0.556177 0.624664
-13.314930 -11.468963 -0.089064 839 0.166721 0.468302 0.701772
-13.321956 -11.468423 -0.213276 785 0.065632 0.476069 -1.085451
-13.316648 -11.463820 -0.207796 947 0.142008 0.542291 -1.006602
-13.309713 -11.457834 -0.202305 1007 0.241780 0.628423 -0.927595
-13.304235 -11.453078 -0.196837 1053 0.320599 0.696855 -0.848918
-13.300682 -11.449995 -0.191399 1109 0.371727 0.741218 -0.770674
-13.298235 -11.447873 -0.185982 1145 0.406938 0.771749 -0.692731
-13.295795 -11.445742 -0.180555 1165 0.442038 0.802417 -0.614645
-13.292631 -11.442993 -0.175135 1175 0.487568 0.841964 -0.536659
-13.290687 -11.441286 -0.169726 1177 0.515547 0.866526 -0.458832
-13.289796 -11.440490 -0.164332 1199 0.528363 0.877984 -0.381221
-13.289506 -11.440221 -0.158941 1213 0.532534 0.881854 -0.303652
-13.290048 -11.440660 -0.153559 1223 0.524740 0.875528 -0.226213
-13.290261 -11.440807 -0.148178 1223 0.521667 0.873415 -0.148789
-13.289640 -11.440248 -0.142782 1199 0.530600 0.881469 -0.071149
-13.289681 -11.440256 -0.137402 1189 0.530010 0.881346 0.006261
-13.291004 -11.441369 -0.132025 1193 0.510977 0.865333 0.083628
-13.292423 -11.442559 -0.126656 1185 0.490559 0.848208 0.160880
-13.293853 -11.443762 -0.121277 1145 0.469990 0.830904 0.238276
-13.296539 -11.446056 -0.115912 1133 0.431335 0.797889 0.315470
-13.299355 -11.448447 -0.110537 1115 0.390828 0.763488 0.392808
-13.302491 -11.451123 -0.105169 1063 0.345697 0.724985 0.470046
-13.308182 -11.455995 -0.099815 1019 0.263818 0.654893 0.547082
-13.313583 -11.460614 -0.094456 929 0.186097 0.588424 0.624189
-13.320492 -11.466526 -0.089096 787 0.086695 0.503362 0.701312
-13.321177 -11.460355 -0.207834 919 0.076843 0.592156 -1.007149
-13.314851 -11.454890 -0.202351 995 0.167860 0.670783 -0.928257
-13.310024 -11.450711 -0.196890 1041 0.237307 0.730912 -0.849681
-13.305312 -11.446628 -0.191437 1091 0.305107 0.789670 -0.771221
-13.302039 -11.443789 -0.186005 1121 0.352201 0.830520 -0.693062
-13.299880 -11.441902 -0.180588 1149 0.383267 0.857662 -0.615120
-13.297827 -11.440104 -0.175179 1159 0.412811 0.883542 -0.537293
-13.296821 -11.439210 -0.169775 1183 0.427287 0.896399 -0.459537
-13.295592 -11.438129 -0.164372 1197 0.444961 0.911946 -0.381796
-13.294586 -11.437234 -0.158978 1193 0.459438 0.924831 -0.304185
-13.294182 -11.436868 -0.153591 1195 0.465256 0.930100 -0.226674
-13.294173 -11.436828 -0.148201 1197 0.465379 0.930676 -0.149120
-13.294779 -11.437317 -0.142828 1197 0.456666 0.923637 -0.071811
-13.295530 -11.437943 -0.137444 1203 0.445853 0.914622 0.005657
-13.296242 -11.438521 -0.132059 1185 0.435616 0.906306 0.083139
-13.297609 -11.439676 -0.126692 1161 0.415939 0.889689 0.160362
-13.299485 -11.441254 -0.121321 1129 0.388948 0.866993 0.237643
-13.301627 -11.443077 -0.115948 1127 0.358129 0.840757 0.314952
-13.303940 -11.445037 -0.110575 1085 0.324853 0.812558 0.392262
-13.307406 -11.447991 -0.105206 1039 0.274974 0.770047 0.469513
-13.313046 -11.452814 -0.099854 983 0.193822 0.700656 0.546520
-13.319782 -11.458587 -0.094494 899 0.096904 0.617597 0.623643
-13.323965 -11.455538 -0.207844 843 0.036720 0.661466 -1.007293
-13.321137 -11.453074 -0.202410 959 0.077405 0.696910 -0.929105
-13.315206 -11.447948 -0.196934 1011 0.162756 0.770665 -0.850314
-13.310766 -11.444102 -0.191488 1061 0.226631 0.826005 -0.771954
-13.307044 -11.440883 -0.186051 1099 0.280188 0.872331 -0.693724
-13.304439 -11.438604 -0.180626 1121 0.317676 0.905112 -0.615667
-13.302492 -11.436912 -0.175217 1141 0.345683 0.929469 -0.537839
-13.301538 -11.436068 -0.169811 1161 0.359405 0.941613 -0.460055
-13.300703 -11.435311 -0.164417 1187 0.371425 0.952494 -0.382444
-13.299920 -11.434619 -0.159021 1185 0.382691 0.962456 -0.304803
-13.299185 -11.433961 -0.153626 1181 0.393271 0.971924 -0.227177
-13.298797 -11.433595 -0.148237 1177 0.398855 0.977194 -0.149638
-13.300392 -11.434944 -0.142868 1183 0.375899 0.957777 -0.072386
-13.301157 -11.435572 -0.137484 1189 0.364894 0.948748 0.005082
-13.300416 -11.434906 -0.132090 1159 0.375556 0.958326 0.082693
-13.301396 -11.435729 -0.126713 1139 0.361449 0.946484 0.160060
-13.304038 -11.437965 -0.121348 1113 0.323440 0.914306 0.237254
-13.307190 -11.440641 -0.115980 1095 0.278089 0.875802 0.314492
-13.310599 -11.443554 -0.110621 1053 0.229033 0.833896 0.391600
-13.315070 -11.447370 -0.105255 1015 0.164704 0.778994 0.468808
-13.319878 -11.451469 -0.099888 943 0.095532 0.720004 0.546031
-13.325295 -11.456104 -0.094526 839 0.017578 0.653315 0.623182
-13.327482 -11.451312 -0.202477 887 -0.013887 0.722268 -0.930069
-13.323206 -11.447611 -0.197022 973 0.047643 0.775522 -0.851580
-13.318494 -11.443528 -0.191559 1031 0.115443 0.834266 -0.772976
-13.314772 -11.440309 -0.186119 1075 0.168999 0.880591 -0.694703
-13.311335 -11.437323 -0.180689 1109 0.218453 0.923555 -0.616573
-13.308550 -11.434915 -0.175266 1135 0.258521 0.958203 -0.538544
-13.306269 -11.432923 -0.169850 1147 0.291344 0.986854 -0.460616
-13.305815 -11.432508 -0.164461 1149 0.297876 0.992823 -0.383077
-13.305812 -11.432476 -0.159071 1167 0.297917 0.993290 -0.305523
-13.304806 -11.431581 -0.153668 1167 0.312394 1.006174 -0.227782
-13.304066 -11.430916 -0.148281 1163 0.323042 1.015739 -0.150271
-13.305231 -11.431891 -0.142904 1165 0.306274 1.001701 -0.072904
-13.306763 -11.433178 -0.137526 1167 0.284236 0.983190 0.004477
-13.307420 -11.433715 -0.132143 1157 0.274782 0.975465 0.081930
-13.308786 -11.434869 -0.126764 1137 0.255118 0.958861 0.159326
-13.310596 -11.436399 -0.121395 1115 0.229074 0.936837 0.236578
-13.312974 -11.438408 -0.116020 1077 0.194865 0.907939 0.313916
-13.316055 -11.441030 -0.110653 1027 0.150530 0.870218 0.391139
-13.321135 -11.445365 -0.105295 979 0.077447 0.807838 0.468233
-13.326659 -11.450089 -0.099934 889 -0.002045 0.739859 0.545369
-13.330528 -11.453378 -0.094561 751 -0.057714 0.692546 0.622679
-13.330147 -11.446499 -0.197085 915 -0.052226 0.791522 -0.852487
-13.325602 -11.442562 -0.191631 991 0.013173 0.848166 -0.774012
-13.321485 -11.439002 -0.186184 1027 0.072411 0.899390 -0.695638
-13.317717 -11.435738 -0.180746 1067 0.126626 0.946361 -0.617393
-13.315485 -11.433795 -0.175329 1101 0.158735 0.974312 -0.539451
-13.313935 -11.432428 -0.169918 1127 0.181033 0.993976 -0.461595
-13.312528 -11.431202 -0.164517 1129 0.201287 1.011622 -0.383882
-13.311578 -11.430364 -0.159123 1143 0.214954 1.023684 -0.306271
-13.310794 -11.429656 -0.153717 1143 0.226234 1.033865 -0.228487
-13.311056 -11.429852 -0.148335 1143 0.222460 1.031052 -0.151048
-13.311441 -11.430154 -0.142952 1147 0.216916 1.026702 -0.073595
-13.311983 -11.430592 -0.137570 1139 0.209122 1.020404 0.003844
-13.312749 -11.431220 -0.132185 1113 0.198104 1.011361 0.081326
-13.314116 -11.432375 -0.126808 1091 0.178440 0.994744 0.158693
-13.316757 -11.434613 -0.121443 1071 0.140430 0.962539 0.235887
-13.319621 -11.437053 -0.116066 1025 0.099223 0.927438 0.313254
-13.323325 -11.440192 -0.110705 975 0.045927 0.882265 0.390391
-13.328464 -11.444585 -0.105347 915 -0.028006 0.819062 0.467484
-13.334044 -11.449351 -0.099983 795 -0.108307 0.750480 0.544664
-13.333930 -11.442502 -0.191717 903 -0.106661 0.849031 -0.775249
-13.330710 -11.439713 -0.186285 971 -0.060335 0.889168 -0.697091
-13.326707 -11.436248 -0.180840 1015 -0.002731 0.939019 -0.618746
-13.323206 -11.433214 -0.175400 1061 0.047643 0.982669 -0.540472
-13.321312 -11.431572 -0.169991 1093 0.074894 1.006298 -0.462645
-13.320306 -11.430677 -0.164585 1103 0.089371 1.019169 -0.384861
-13.318804 -11.429358 -0.159184 1107 0.110983 1.038160 -0.307149
-13.318350 -11.428945 -0.153788 1119 0.117515 1.044102 -0.229508
-13.318956 -11.429432 -0.148403 1119 0.108787 1.037090 -0.152026
-13.318545 -11.429059 -0.143005 1109 0.114702 1.042455 -0.074357
-13.318872 -11.429304 -0.137625 1097 0.109995 1.038929 0.003053
-13.320305 -11.430508 -0.132246 1085 0.089385 1.021612 0.080448
-13.322618 -11.432468 -0.126873 1065 0.056109 0.993399 0.157758
-13.324429 -11.433998 -0.121493 1021 0.030051 0.971389 0.235168
-13.327637 -11.436715 -0.116125 983 -0.016110 0.932296 0.312405
-13.332767 -11.441100 -0.110766 933 -0.089920 0.869202 0.389513
-13.337683 -11.445291 -0.105408 851 -0.160656 0.808908 0.466607
-13.339502 -11.439908 -0.186371 891 -0.186838 0.886355 -0.698328
-13.335342 -11.436304 -0.180924 965 -0.126983 0.938210 -0.619954
-13.330616 -11.432222 -0.175472 1005 -0.058977 0.996940 -0.541508
-13.327509 -11.429528 -0.170040 1031 -0.014271 1.035704 -0.463350
-13.326109 -11.428308 -0.164637 1045 0.005873 1.053268 -0.385609
-13.325598 -11.427839 -0.159241 1065 0.013228 1.060006 -0.307969
-13.325415 -11.427659 -0.153841 1071 0.015863 1.062599 -0.230271
-13.325956 -11.428066 -0.143068 1067 0.008068 1.056740 -0.075264
-13.326384 -11.428410 -0.137676 1057 0.001921 1.051800 0.002319
-13.328094 -11.429840 -0.132307 1043 -0.022682 1.031217 0.079571
-13.330406 -11.431801 -0.126934 1009 -0.055958 1.003005 0.156880
-13.333115 -11.434090 -0.121557 979 -0.094928 0.970072 0.234247
-13.337419 -11.437757 -0.116194 945 -0.156855 0.917311 0.311413
-13.341008 -11.440815 -0.110823 853 -0.208505 0.873305 0.388693
-13.344453 -11.436905 -0.181017 867 -0.258068 0.929565 -0.621292
-13.340779 -11.433732 -0.175577 933 -0.205212 0.975218 -0.543019
-13.337402 -11.430804 -0.170138 971 -0.156622 1.017344 -0.464760
-13.336108 -11.429672 -0.164724 989 -0.138001 1.033632 -0.386861
-13.335490 -11.429112 -0.159329 1017 -0.129110 1.041687 -0.309235
-13.335259 -11.428885 -0.153929 1021 -0.125789 1.044953 -0.231537
-13.335192 -11.428803 -0.148541 1031 -0.124815 1.046133 -0.154012
-13.334845 -11.428480 -0.143141 1021 -0.119820 1.050784 -0.076314
-13.335945 -11.429390 -0.137756 997 -0.135655 1.037694 0.001168
-13.337378 -11.430594 -0.132378 973 -0.156265 1.020363 0.078549
-13.339632 -11.432500 -0.126995 947 -0.188704 0.992947 0.156003
-13.343170 -11.435508 -0.121634 885 -0.239612 0.949668 0.233139
-13.347205 -11.438941 -0.116261 797 -0.297670 0.900269 0.310449
-13.348506 -11.433110 -0.170248 839 -0.316387 0.984164 -0.466343
-13.346827 -11.431649 -0.164827 897 -0.292222 1.005186 -0.388343
-13.345102 -11.430142 -0.159416 935 -0.267413 1.026867 -0.310487
-13.343653 -11.428874 -0.154005 931 -0.246556 1.045117 -0.232631
-13.343865 -11.429023 -0.148615 935 -0.249616 1.042977 -0.155077
-13.345683 -11.430558 -0.143234 933 -0.275770 1.020884 -0.077652
-13.346784 -11.431469 -0.137848 907 -0.291605 1.007780 -0.000156
-13.348373 -11.432813 -0.132458 867 -0.314479 0.988446 0.077398
-13.350922 -11.434959 -0.127085 807 -0.351144 0.957558 0.154708
-13.356602 -11.432919 -0.159525 725 -0.432872 0.986923 -0.312055
-13.356586 -11.432872 -0.154125 759 -0.432653 0.987595 -0.234357
-13.355860 -11.432221 -0.148718 759 -0.422196 0.996953 -0.156559
-13.356122 -11.432417 -0.143318 741 -0.425970 0.994140 -0.078861
