622
-11.813854 -10.169745 -0.148141 637 0.772943 -0.504295 0.007063
-11.811615 -10.161792 -0.172021 793 0.805162 -0.389854 -0.336534
-11.810767 -10.161037 -0.167226 841 0.817361 -0.379000 -0.267541
-11.810593 -10.160870 -0.162437 873 0.819872 -0.376585 -0.198635
-11.810533 -10.160785 -0.157657 879 0.820736 -0.375363 -0.129858
-11.809571 -10.159934 -0.152864 881 0.834568 -0.363124 -0.060894
-11.810342 -10.160574 -0.148090 867 0.823481 -0.372331 0.007797
-11.812380 -10.162305 -0.143318 835 0.794157 -0.397236 0.076459
-11.814534 -10.164132 -0.138555 785 0.763159 -0.423527 0.144991
-11.816236 -10.165578 -0.133785 719 0.738679 -0.444330 0.213624
-11.812564 -10.156256 -0.181585 869 0.791508 -0.310198 -0.474146
-11.809561 -10.153646 -0.176761 907 0.834719 -0.272655 -0.404735
-11.808063 -10.152329 -0.171960 939 0.856276 -0.253705 -0.335656
-11.806943 -10.151340 -0.167158 955 0.872386 -0.239461 -0.266563
-11.805602 -10.150164 -0.162364 975 0.891679 -0.222542 -0.197584
-11.804747 -10.149404 -0.157569 977 0.903987 -0.211606 -0.128592
-11.804624 -10.149284 -0.152792 985 0.905757 -0.209891 -0.059858
-11.805337 -10.149867 -0.148017 987 0.895493 -0.218275 0.008847
-11.806437 -10.150785 -0.143239 955 0.879672 -0.231489 0.077595
-11.807753 -10.151896 -0.138473 923 0.860736 -0.247475 0.146171
-11.810629 -10.154344 -0.133726 897 0.819350 -0.282686 0.214473
-11.814006 -10.157222 -0.128967 851 0.770761 -0.324098 0.282948
-11.817870 -10.160518 -0.124225 765 0.715160 -0.371521 0.351178
-11.816349 -10.153155 -0.191183 829 0.737046 -0.265588 -0.612246
-11.812952 -10.150218 -0.186351 903 0.785924 -0.223324 -0.542721
-11.810224 -10.147845 -0.181528 961 0.825182 -0.189184 -0.473325
-11.807836 -10.145763 -0.176721 989 0.859542 -0.159229 -0.404160
-11.805657 -10.143870 -0.171903 1009 0.890883 -0.131991 -0.334836
-11.804323 -10.142701 -0.167112 1029 0.910080 -0.115168 -0.265901
-11.803025 -10.141565 -0.162309 1031 0.928755 -0.098825 -0.196793
-11.802850 -10.141383 -0.157529 1043 0.931280 -0.096204 -0.128016
-11.803894 -10.142259 -0.152763 1043 0.916255 -0.108801 -0.059440
-11.804886 -10.143085 -0.147998 1039 0.901984 -0.120684 0.009121
-11.805428 -10.143529 -0.143224 1025 0.894190 -0.127079 0.077811
-11.805805 -10.143827 -0.138443 1001 0.888756 -0.131374 0.146603
-11.808116 -10.145795 -0.133689 981 0.855508 -0.159682 0.215006
-11.811041 -10.148276 -0.128932 939 0.813422 -0.195387 0.283452
-11.813918 -10.150723 -0.124177 889 0.772023 -0.230597 0.351869
-11.817682 -10.153936 -0.119424 821 0.717863 -0.276826 0.420257
-11.817569 -10.147827 -0.195964 861 0.719496 -0.188924 -0.681038
-11.813514 -10.144320 -0.191118 933 0.777842 -0.138454 -0.611311
-11.810060 -10.141328 -0.186286 979 0.827542 -0.095409 -0.541786
-11.807609 -10.139197 -0.181470 1025 0.862808 -0.064754 -0.472491
-11.806546 -10.138265 -0.176677 1063 0.878094 -0.051334 -0.403527
-11.804482 -10.136468 -0.171869 1077 0.907788 -0.025482 -0.334347
-11.803363 -10.135479 -0.167076 1085 0.923898 -0.011252 -0.265383
-11.802803 -10.134977 -0.162288 1077 0.931953 -0.004034 -0.196491
-11.802449 -10.134649 -0.157510 1087 0.937043 0.000686 -0.127743
-11.803221 -10.135288 -0.152746 1101 0.925942 -0.008508 -0.059196
-11.803705 -10.135676 -0.147964 1091 0.918972 -0.014092 0.009610
-11.804304 -10.136176 -0.143199 1077 0.910354 -0.021283 0.078171
-11.805346 -10.137036 -0.138425 1053 0.895370 -0.033660 0.146862
-11.807113 -10.138532 -0.133665 1039 0.869943 -0.055176 0.215351
-11.809981 -10.140972 -0.128917 1021 0.828668 -0.090290 0.283668
-11.812357 -10.142988 -0.124155 975 0.794486 -0.119298 0.352185
-11.815112 -10.145330 -0.119400 907 0.754844 -0.153000 0.420603
-11.818869 -10.148537 -0.114648 823 0.700793 -0.199133 0.488977
-11.821004 -10.144652 -0.200771 863 0.670069 -0.143243 -0.750203
-11.815331 -10.139754 -0.195903 937 0.751687 -0.072767 -0.680160
-11.811549 -10.136483 -0.191066 995 0.806109 -0.025701 -0.610563
-11.809032 -10.134305 -0.186250 1033 0.842321 0.005640 -0.541268
-11.806646 -10.132225 -0.181434 1067 0.876653 0.035567 -0.471973
-11.805584 -10.131290 -0.176641 1095 0.891939 0.049015 -0.403009
-11.805246 -10.130977 -0.171861 1123 0.896797 0.053529 -0.334232
-11.804119 -10.129994 -0.167068 1127 0.913016 0.067663 -0.265268
-11.803164 -10.129151 -0.162284 1111 0.926766 0.079793 -0.196433
-11.803327 -10.129254 -0.157503 1123 0.924419 0.078311 -0.127642
-11.803475 -10.129358 -0.152732 1119 0.922279 0.076815 -0.058994
-11.803572 -10.129427 -0.147953 1117 0.920893 0.075827 0.009768
-11.803671 -10.129480 -0.143182 1113 0.919466 0.075059 0.078416
-11.804097 -10.129827 -0.138408 1081 0.913332 0.070078 0.147106
-11.806028 -10.131454 -0.133647 1069 0.885545 0.046655 0.215610
-11.808130 -10.133233 -0.128887 1047 0.855302 0.021063 0.284099
-11.810278 -10.135055 -0.124134 1027 0.824400 -0.005146 0.352488
-11.813598 -10.137878 -0.119375 985 0.776634 -0.045776 0.420962
-11.818357 -10.141946 -0.114637 923 0.708148 -0.104300 0.489135
-11.823116 -10.146001 -0.109891 841 0.639675 -0.162646 0.557423
-11.825265 -10.142294 -0.205595 831 0.608760 -0.109309 -0.819613
-11.819528 -10.137362 -0.200727 921 0.691311 -0.038339 -0.749570
-11.815079 -10.133513 -0.195873 991 0.755324 0.017029 -0.679728
-11.811848 -10.130723 -0.191051 1039 0.801814 0.057179 -0.610347
-11.809454 -10.128649 -0.186235 1075 0.836256 0.087024 -0.541052
-11.807618 -10.127047 -0.181425 1099 0.862670 0.110077 -0.471843
-11.805998 -10.125628 -0.176624 1117 0.885984 0.130482 -0.402764
-11.805323 -10.125028 -0.171838 1139 0.895699 0.139127 -0.333901
-11.804532 -10.124331 -0.167053 1141 0.907075 0.149144 -0.265052
-11.803299 -10.123244 -0.162260 1139 0.924817 0.164787 -0.196088
-11.802681 -10.122687 -0.157484 1141 0.933709 0.172800 -0.127368
-11.802951 -10.122895 -0.152711 1145 0.929826 0.169809 -0.058692
-11.803213 -10.123096 -0.147941 1135 0.926052 0.166914 0.009941
-11.803978 -10.123727 -0.143167 1133 0.915047 0.157843 0.078631
-11.805126 -10.124693 -0.138410 1115 0.898526 0.143943 0.147077
-11.807009 -10.126285 -0.133649 1107 0.871439 0.121041 0.215581
-11.808322 -10.127381 -0.128881 1083 0.852544 0.105261 0.284185
-11.810419 -10.129154 -0.124120 1055 0.822369 0.079752 0.352689
-11.813738 -10.131977 -0.119371 1035 0.774617 0.039135 0.421020
-11.817051 -10.134793 -0.114622 991 0.726947 -0.001386 0.489351
-11.821367 -10.138472 -0.109878 909 0.664841 -0.054311 0.557610
-11.827027 -10.143305 -0.105134 801 0.583402 -0.123854 0.625869
-11.831130 -10.141328 -0.210447 793 0.524370 -0.095409 -0.889426
-11.824183 -10.135344 -0.205556 901 0.624321 -0.009303 -0.819052
-11.818215 -10.130216 -0.200681 965 0.710192 0.064479 -0.748908
-11.814883 -10.127328 -0.195850 1035 0.758137 0.106029 -0.679397
-11.811988 -10.124824 -0.191026 1065 0.799797 0.142063 -0.609987
-11.809366 -10.122554 -0.186212 1099 0.837518 0.174721 -0.540721
-11.807530 -10.120953 -0.181402 1121 0.863933 0.197760 -0.471512
-11.806683 -10.120200 -0.176616 1141 0.876132 0.208587 -0.402649
-11.805951 -10.119559 -0.171831 1161 0.886656 0.217808 -0.333800
-11.805168 -10.118855 -0.167045 1167 0.897922 0.227935 -0.264937
-11.804658 -10.118402 -0.162269 1169 0.905263 0.234467 -0.196217
-11.804763 -10.118464 -0.157487 1169 0.903754 0.233561 -0.127412
-11.804918 -10.118574 -0.152717 1169 0.901517 0.231983 -0.058779
-11.804515 -10.118196 -0.147939 1161 0.907322 0.237431 0.009970
-11.804721 -10.118356 -0.143169 1167 0.904358 0.235125 0.078603
-11.805147 -10.118703 -0.138397 1135 0.898224 0.230131 0.147265
-11.807693 -10.120857 -0.133642 1147 0.861600 0.199133 0.215682
-11.809739 -10.122581 -0.128891 1127 0.832153 0.174337 0.284041
-11.810611 -10.123303 -0.124115 1081 0.819611 0.163936 0.352761
-11.813035 -10.125367 -0.119361 1063 0.784730 0.134242 0.421164
-11.817358 -10.129040 -0.114616 1027 0.722528 0.081399 0.489437
-11.821121 -10.132237 -0.109865 971 0.668382 0.035389 0.557797
-11.825157 -10.135673 -0.105112 877 0.610310 -0.014038 0.626185
-11.830540 -10.140262 -0.100372 729 0.532864 -0.080067 0.694387
-11.835786 -10.138949 -0.215280 681 0.457379 -0.061186 -0.958966
-11.829556 -10.133592 -0.210395 861 0.547011 0.015904 -0.888678
-11.823323 -10.128234 -0.205511 941 0.636698 0.092994 -0.818405
-11.818981 -10.124491 -0.200666 1005 0.699174 0.146852 -0.748692
-11.815421 -10.121408 -0.195825 1057 0.750398 0.191201 -0.679038
-11.812912 -10.119236 -0.191011 1095 0.786500 0.222460 -0.609771
-11.810963 -10.117538 -0.186212 1125 0.814548 0.246885 -0.540721
-11.809613 -10.116368 -0.181409 1151 0.833964 0.263722 -0.471613
-11.808331 -10.115247 -0.176616 1175 0.852420 0.279859 -0.402649
-11.807434 -10.114447 -0.171831 1185 0.865319 0.291372 -0.333800
-11.806594 -10.113701 -0.167047 1175 0.877408 0.302102 -0.264966
-11.805969 -10.113151 -0.162260 1177 0.886396 0.310020 -0.196088
-11.805349 -10.112592 -0.157484 1167 0.895315 0.318061 -0.127368
-11.805664 -10.112842 -0.152711 1185 0.890787 0.314466 -0.058692
-11.806040 -10.113140 -0.147939 1185 0.885380 0.310171 0.009970
-11.806589 -10.113577 -0.143177 1181 0.877476 0.303886 0.078488
-11.807467 -10.114305 -0.138402 1167 0.864839 0.293416 0.147193
-11.808954 -10.115557 -0.133644 1151 0.843446 0.275399 0.215653
-11.811165 -10.117427 -0.128891 1143 0.811639 0.248490 0.284041
-11.812037 -10.118149 -0.124126 1103 0.799083 0.238103 0.352603
-11.813350 -10.119246 -0.119358 1087 0.780202 0.222323 0.421207
-11.816721 -10.122117 -0.114608 1045 0.731695 0.181006 0.489552
-11.820707 -10.125504 -0.109867 1007 0.674337 0.132279 0.557768
-11.825702 -10.129760 -0.105117 933 0.602475 0.071038 0.626113
-11.832072 -10.135199 -0.100381 829 0.510813 -0.007218 0.694257
-11.841949 -10.137979 -0.220142 615 0.368695 -0.047217 -1.028923
-11.837951 -10.134527 -0.215286 789 0.426231 0.002443 -0.959052
-11.830601 -10.128209 -0.210376 909 0.531986 0.093350 -0.888404
-11.824972 -10.123366 -0.205509 991 0.612972 0.163030 -0.818376
-11.820352 -10.119394 -0.200656 1039 0.679455 0.220182 -0.748548
-11.817399 -10.116847 -0.195833 1095 0.721938 0.256833 -0.679153
-11.815228 -10.114961 -0.191024 1121 0.753169 0.283975 -0.609959
-11.812941 -10.112975 -0.186208 1131 0.786088 0.312544 -0.540663
-11.810991 -10.111279 -0.181409 1151 0.814136 0.336956 -0.471613
-11.809364 -10.109865 -0.176609 1171 0.837546 0.357292 -0.402548
-11.807744 -10.108459 -0.171817 1177 0.860859 0.377518 -0.333599
-11.806731 -10.107561 -0.167024 1189 0.875432 0.390444 -0.264635
-11.806673 -10.107490 -0.162254 1183 0.876269 0.391473 -0.196002
-11.806769 -10.107545 -0.157484 1201 0.874883 0.390677 -0.127368
-11.806317 -10.107132 -0.152706 1185 0.881387 0.396619 -0.058620
-11.806299 -10.107103 -0.147926 1187 0.881648 0.397030 0.010157
-11.807794 -10.108347 -0.143167 1193 0.860146 0.379137 0.078631
-11.809216 -10.109550 -0.138410 1185 0.839686 0.361820 0.147077
-11.810159 -10.110327 -0.133644 1169 0.826115 0.350650 0.215653
-11.811302 -10.111287 -0.128889 1173 0.809663 0.336832 0.284070
-11.812846 -10.112578 -0.124120 1131 0.787447 0.318253 0.352689
-11.815772 -10.115061 -0.119373 1115 0.745348 0.282535 0.420991
-11.818484 -10.117362 -0.114618 1085 0.706323 0.249424 0.489408
-11.820466 -10.119038 -0.109855 1037 0.677809 0.225314 0.557941
-11.824787 -10.122708 -0.105112 979 0.615635 0.172498 0.626185
-11.830943 -10.127952 -0.100376 887 0.527059 0.097055 0.694329
-11.835536 -10.131859 -0.095621 735 0.460975 0.040836 0.762747
-11.845151 -10.134453 -0.220163 645 0.322630 0.003513 -1.029225
-11.838582 -10.128810 -0.215271 821 0.417147 0.084705 -0.958836
-11.831564 -10.122786 -0.210371 933 0.518126 0.171387 -0.888333
-11.826170 -10.118145 -0.205501 1011 0.595738 0.238158 -0.818261
-11.822436 -10.114923 -0.200662 1059 0.649459 0.284524 -0.748635
-11.819206 -10.112132 -0.195831 1107 0.695935 0.324675 -0.679124
-11.816862 -10.110106 -0.191024 1135 0.729664 0.353820 -0.609959
-11.814919 -10.108416 -0.186214 1145 0.757615 0.378149 -0.540750
-11.813127 -10.106871 -0.181415 1165 0.783413 0.400379 -0.471700
-11.811277 -10.105255 -0.176616 1189 0.810019 0.423624 -0.402649
-11.809607 -10.103800 -0.171815 1189 0.834060 0.444563 -0.333570
-11.808931 -10.103201 -0.167039 1209 0.843775 0.453181 -0.264851
-11.808522 -10.102830 -0.162261 1225 0.849662 0.458518 -0.196102
-11.809134 -10.103332 -0.157499 1227 0.840866 0.451301 -0.127584
-11.809347 -10.103482 -0.152727 1223 0.837793 0.449133 -0.058922
-11.809108 -10.103251 -0.147949 1215 0.841237 0.452453 0.009826
-11.809371 -10.103452 -0.143177 1209 0.837450 0.449572 0.078488
-11.810249 -10.104181 -0.138412 1199 0.824812 0.439074 0.147049
-11.812008 -10.105669 -0.133651 1183 0.799508 0.417668 0.215552
-11.813832 -10.107205 -0.128902 1181 0.773258 0.395562 0.283883
-11.816550 -10.109498 -0.124147 1157 0.734151 0.362575 0.352301
-11.818030 -10.110743 -0.119388 1119 0.712854 0.344667 0.420775
-11.819460 -10.111938 -0.114620 1093 0.692285 0.327460 0.489380
-11.823332 -10.115228 -0.109878 1057 0.636574 0.280133 0.557610
-11.827152 -10.118481 -0.105127 1001 0.581604 0.233328 0.625970
-11.831639 -10.122284 -0.100381 919 0.517042 0.178605 0.694257
-11.838517 -10.128145 -0.095642 791 0.418080 0.094270 0.762444
-11.845209 -10.128179 -0.220130 719 0.321793 0.093789 -1.028750
-11.839142 -10.122968 -0.215246 869 0.409092 0.168766 -0.958477
-11.831859 -10.116713 -0.210336 957 0.513886 0.258768 -0.887829
-11.827115 -10.112636 -0.205484 1015 0.582139 0.317429 -0.818016
-11.823383 -10.109428 -0.200645 1067 0.635833 0.363576 -0.748390
-11.820653 -10.107069 -0.195831 1103 0.675119 0.397524 -0.679124
-11.818418 -10.105134 -0.191013 1127 0.707283 0.425366 -0.609800
-11.816189 -10.103206 -0.186206 1161 0.739351 0.453112 -0.540635
-11.813902 -10.101222 -0.181400 1179 0.772257 0.481654 -0.471484
-11.812453 -10.099956 -0.176607 1187 0.793100 0.499876 -0.402520
-11.812543 -10.100017 -0.171836 1219 0.791810 0.498998 -0.333872
-11.812428 -10.099891 -0.167068 1223 0.793457 0.500809 -0.265268
-11.812089 -10.099576 -0.162290 1241 0.798342 0.505338 -0.196520
-11.812078 -10.099541 -0.157510 1235 0.798493 0.505845 -0.127743
-11.812013 -10.099463 -0.152740 1229 0.799440 0.506957 -0.059110
-11.811100 -10.098661 -0.147954 1217 0.812572 0.518497 0.009754
-11.810920 -10.098486 -0.143177 1201 0.815165 0.521022 0.078488
-11.811854 -10.099257 -0.138422 1189 0.801718 0.509921 0.146905
-11.813457 -10.100605 -0.133663 1187 0.778665 0.490532 0.215380
-11.815494 -10.102323 -0.128910 1183 0.749355 0.465818 0.283768
-11.816817 -10.103427 -0.124143 1163 0.730309 0.449928 0.352358
-11.819026 -10.105297 -0.119390 1145 0.698529 0.423020 0.420747
-11.821737 -10.107584 -0.114635 1115 0.659517 0.390115 0.489164
-11.824550 -10.109968 -0.109880 1063 0.619051 0.355810 0.557581
-11.827927 -10.112833 -0.105131 1013 0.570462 0.314589 0.625912
-11.832586 -10.116790 -0.100383 941 0.503417 0.257657 0.694229
-11.839298 -10.122506 -0.095645 837 0.406842 0.175407 0.762401
-11.847111 -10.123711 -0.220136 797 0.294432 0.158077 -1.028836
-11.840371 -10.117929 -0.215234 877 0.391404 0.241259 -0.958304
-11.833680 -10.112196 -0.210344 973 0.487677 0.323755 -0.887944
-11.828897 -10.108077 -0.205480 1025 0.556493 0.383020 -0.817958
-11.825550 -10.105189 -0.200649 1091 0.604657 0.424570 -0.748448
-11.822992 -10.102983 -0.195835 1119 0.641459 0.456309 -0.679181
-11.820698 -10.101007 -0.191026 1135 0.674474 0.484741 -0.609987
-11.818463 -10.099072 -0.186220 1165 0.706625 0.512583 -0.540836
-11.816741 -10.097568 -0.181419 1185 0.731406 0.534236 -0.471757
-11.815673 -10.096628 -0.176635 1213 0.746775 0.547752 -0.402922
-11.814603 -10.095702 -0.171842 1221 0.762171 0.561076 -0.333958
-11.814593 -10.095666 -0.167072 1225 0.762308 0.561598 -0.265325
-11.814478 -10.095539 -0.162292 1243 0.763969 0.563423 -0.196548
-11.813522 -10.094696 -0.157518 1241 0.777718 0.575553 -0.127858
-11.813622 -10.094765 -0.152738 1235 0.776277 0.574565 -0.059081
-11.812995 -10.094200 -0.147962 1221 0.785306 0.582688 0.009639
-11.813315 -10.094457 -0.143190 1213 0.780696 0.578997 0.078301
-11.814802 -10.095694 -0.138441 1199 0.759303 0.561200 0.146631
-11.816791 -10.097376 -0.133680 1199 0.730693 0.536994 0.215135
-11.818721 -10.099002 -0.128929 1195 0.702920 0.513598 0.283495
-11.819656 -10.099773 -0.124164 1169 0.689458 0.502497 0.352056
-11.821308 -10.101156 -0.119405 1147 0.665692 0.482600 0.420531
-11.823790 -10.103263 -0.114650 1119 0.629988 0.452289 0.488948
-11.826775 -10.105785 -0.109893 1077 0.587038 0.415994 0.557394
-11.830659 -10.109075 -0.105142 1025 0.531149 0.368667 0.625754
-11.835032 -10.112795 -0.100397 971 0.468220 0.315138 0.694027
-11.841359 -10.118176 -0.095661 867 0.377188 0.237705 0.762171
-11.849025 -10.119213 -0.220132 933 0.266892 0.222789 -1.028779
-11.842737 -10.113815 -0.215238 901 0.357360 0.300455 -0.958361
-11.836385 -10.108367 -0.210355 989 0.448762 0.378849 -0.888102
-11.831535 -10.104199 -0.205503 1041 0.518538 0.438814 -0.818289
-11.828024 -10.101179 -0.200662 1085 0.569062 0.482271 -0.748635
-11.825846 -10.099300 -0.195856 1129 0.600403 0.509303 -0.679484
-11.823889 -10.097609 -0.191045 1159 0.628561 0.533646 -0.610261
-11.821216 -10.095291 -0.186231 1165 0.667023 0.566990 -0.540994
-11.819309 -10.093649 -0.181432 1179 0.694453 0.590619 -0.471944
-11.818634 -10.093050 -0.176656 1217 0.704168 0.599237 -0.403225
-11.818574 -10.092964 -0.171876 1243 0.705033 0.600472 -0.334448
-11.817677 -10.092178 -0.167093 1255 0.717945 0.611779 -0.265627
-11.816164 -10.090861 -0.162300 1239 0.739708 0.630729 -0.196664
-11.816269 -10.090923 -0.157529 1259 0.738199 0.629837 -0.128016
-11.815079 -10.089892 -0.152748 1233 0.755324 0.644670 -0.059225
-11.814725 -10.089565 -0.147970 1215 0.760415 0.649377 0.009523
-11.816055 -10.090676 -0.143211 1215 0.741273 0.633391 0.077998
-11.817269 -10.091691 -0.138454 1195 0.723805 0.618791 0.146444
-11.818871 -10.093024 -0.133695 1191 0.700765 0.599607 0.214919
-11.819792 -10.093796 -0.128931 1173 0.687510 0.588506 0.283466
-11.821286 -10.095040 -0.124172 1165 0.666008 0.570599 0.351941
-11.824219 -10.097528 -0.119424 1161 0.623813 0.534799 0.420257
-11.827317 -10.100150 -0.114667 1141 0.579230 0.497077 0.488703
-11.829577 -10.102054 -0.109914 1083 0.546709 0.469688 0.557092
-11.833233 -10.105147 -0.105165 1029 0.494113 0.425174 0.625423
-11.837505 -10.108770 -0.100410 979 0.432639 0.373044 0.693840
-11.842887 -10.113346 -0.095670 875 0.355206 0.307207 0.762042
-11.851004 -10.114638 -0.220140 823 0.238419 0.288613 -1.028894
-11.845932 -10.110283 -0.215269 909 0.311392 0.351281 -0.958807
-11.839637 -10.104890 -0.210374 983 0.401970 0.428879 -0.888376
-11.834057 -10.100111 -0.205507 1045 0.482257 0.497640 -0.818347
-11.830546 -10.097092 -0.200675 1087 0.532768 0.541083 -0.748822
-11.828870 -10.095629 -0.195877 1135 0.556891 0.562133 -0.679786
-11.827091 -10.094085 -0.191076 1159 0.582482 0.584348 -0.610707
-11.824633 -10.091961 -0.186260 1181 0.617857 0.614907 -0.541412
-11.823063 -10.090604 -0.181468 1187 0.640444 0.634434 -0.472462
-11.822559 -10.090143 -0.176683 1227 0.647689 0.641061 -0.403613
-11.821276 -10.089023 -0.171890 1241 0.666159 0.657185 -0.334649
-11.820371 -10.088229 -0.167104 1243 0.679181 0.668601 -0.265786
-11.820355 -10.088199 -0.162334 1251 0.679400 0.669040 -0.197153
-11.819571 -10.087496 -0.157548 1241 0.690693 0.679153 -0.128289
-11.818833 -10.086847 -0.152774 1227 0.701301 0.688484 -0.059599
-11.819095 -10.087049 -0.148002 1219 0.697541 0.685589 0.009063
-11.819808 -10.087630 -0.143238 1231 0.687277 0.677219 0.077610
-11.820457 -10.088165 -0.138475 1207 0.677932 0.669521 0.146142
-11.821286 -10.088846 -0.133710 1195 0.666008 0.659723 0.214703
-11.822270 -10.089665 -0.128944 1187 0.651847 0.647936 0.283279
-11.824145 -10.091236 -0.124193 1161 0.624869 0.625336 0.351639
-11.826798 -10.093482 -0.119438 1159 0.586695 0.593021 0.420056
-11.829352 -10.095629 -0.114685 1123 0.549948 0.562133 0.488444
-11.832000 -10.097868 -0.109930 1087 0.511856 0.529914 0.556862
-11.836435 -10.101623 -0.105184 1041 0.448035 0.475890 0.625149
-11.840708 -10.105246 -0.100429 977 0.386561 0.423761 0.693567
-11.845975 -10.109723 -0.095689 873 0.310774 0.359336 0.761768
-11.852030 -10.114868 -0.090946 729 0.223654 0.285306 0.830013
-11.854980 -10.111894 -0.220174 783 0.181198 0.328105 -1.029383
-11.849295 -10.107024 -0.215288 925 0.263008 0.398169 -0.959081
-11.843270 -10.101869 -0.210411 993 0.349690 0.472350 -0.888908
-11.838036 -10.097367 -0.205541 1043 0.425009 0.537118 -0.818836
-11.834524 -10.094346 -0.200712 1083 0.475534 0.580589 -0.749354
-11.832173 -10.092328 -0.195894 1127 0.509358 0.609624 -0.680030
-11.830274 -10.090678 -0.191095 1145 0.536692 0.633363 -0.610980
-11.828497 -10.089133 -0.186296 1185 0.562256 0.655593 -0.541930
-11.825751 -10.086775 -0.181482 1187 0.601762 0.689527 -0.472664
-11.824353 -10.085557 -0.176689 1193 0.621878 0.707050 -0.403699
-11.823569 -10.084867 -0.171903 1217 0.633157 0.716985 -0.334836
-11.822502 -10.083925 -0.167120 1241 0.648512 0.730528 -0.266016
-11.821541 -10.083091 -0.162336 1221 0.662344 0.742535 -0.197182
-11.821481 -10.083006 -0.157556 1239 0.663208 0.743756 -0.128404
-11.821522 -10.083018 -0.152786 1229 0.662618 0.743578 -0.059771
-11.822234 -10.083602 -0.148021 1239 0.652368 0.735180 0.008790
-11.823049 -10.084282 -0.143257 1213 0.640650 0.725396 0.077336
-11.823934 -10.085005 -0.138502 1201 0.627916 0.714995 0.145754
-11.824855 -10.085775 -0.133737 1195 0.614660 0.703908 0.214315
-11.826070 -10.086775 -0.128971 1183 0.597179 0.689527 0.282890
-11.827728 -10.088165 -0.124210 1163 0.573316 0.669521 0.351394
-11.830047 -10.090126 -0.119457 1137 0.539958 0.641308 0.419783
-11.831978 -10.091752 -0.114696 1117 0.512171 0.617912 0.488286
-11.834302 -10.093704 -0.109943 1085 0.478731 0.589824 0.556675
-11.837900 -10.096758 -0.105194 1037 0.426958 0.545886 0.625006
-11.842452 -10.100609 -0.100446 977 0.361463 0.490477 0.693322
-11.848499 -10.105748 -0.095703 879 0.274452 0.416529 0.761567
-11.854611 -10.110935 -0.090959 729 0.186509 0.341896 0.829826
-11.857948 -10.108294 -0.220195 785 0.138495 0.379905 -1.029685
-11.852763 -10.103855 -0.215314 941 0.213102 0.443767 -0.959455
-11.846746 -10.098692 -0.210439 995 0.299673 0.518058 -0.889311
-11.842228 -10.094818 -0.205585 1047 0.364688 0.573796 -0.819469
-11.838264 -10.091414 -0.200746 1091 0.421716 0.622770 -0.749843
-11.834582 -10.088256 -0.195907 1111 0.474697 0.668217 -0.680217
-11.832576 -10.086516 -0.191099 1141 0.503568 0.693246 -0.611038
-11.830226 -10.084498 -0.186292 1167 0.537378 0.722281 -0.541872
-11.828047 -10.082618 -0.181486 1183 0.568733 0.749341 -0.472721
-11.827314 -10.081964 -0.176710 1187 0.579271 0.758754 -0.404002
-11.826975 -10.081649 -0.171932 1209 0.584156 0.763283 -0.335253
-11.826136 -10.080905 -0.167146 1219 0.596232 0.773986 -0.266390
-11.826119 -10.080874 -0.162376 1235 0.596465 0.774425 -0.197757
-11.825672 -10.080470 -0.157598 1243 0.602901 0.780243 -0.129009
-11.824876 -10.079766 -0.152814 1223 0.614358 0.790370 -0.060174
-11.825195 -10.080009 -0.148042 1211 0.609762 0.786871 0.008488
-11.826189 -10.080834 -0.143285 1199 0.595463 0.775001 0.076934
-11.827733 -10.082129 -0.138528 1205 0.573247 0.756380 0.145380
-11.828331 -10.082614 -0.133754 1197 0.564644 0.749396 0.214070
-11.829038 -10.083190 -0.128990 1167 0.554476 0.741108 0.282617
-11.831306 -10.085101 -0.124237 1155 0.521831 0.713609 0.351006
-11.833465 -10.086923 -0.119485 1131 0.490779 0.687400 0.419380
-11.835396 -10.088534 -0.114725 1107 0.462992 0.664210 0.487869
-11.838042 -10.090773 -0.109970 1077 0.424913 0.632005 0.556286
-11.841985 -10.094104 -0.105217 1027 0.368187 0.584074 0.624675
-11.846702 -10.098102 -0.100471 965 0.300318 0.526552 0.692962
-11.852648 -10.103143 -0.095737 863 0.214762 0.454018 0.761077
-11.856468 -10.100875 -0.215351 901 0.159792 0.486648 -0.959987
-11.850889 -10.096095 -0.210472 983 0.240065 0.555423 -0.889786
-11.846483 -10.092316 -0.205627 1041 0.303461 0.609803 -0.820074
-11.842629 -10.089019 -0.200778 1069 0.358911 0.657239 -0.750304
-11.839392 -10.086235 -0.195959 1119 0.405497 0.697294 -0.680966
-11.836654 -10.083869 -0.191143 1141 0.444892 0.731338 -0.611671
-11.834476 -10.081990 -0.186336 1163 0.476220 0.758370 -0.542505
-11.832576 -10.080355 -0.181528 1169 0.503568 0.781903 -0.473325
-11.832007 -10.079845 -0.176750 1207 0.511746 0.789231 -0.404577
-11.830781 -10.078779 -0.171957 1213 0.529392 0.804572 -0.335613
-11.829375 -10.077555 -0.167165 1207 0.549618 0.822191 -0.266663
-11.829703 -10.077804 -0.162403 1221 0.544898 0.818609 -0.198146
-11.829750 -10.077824 -0.157623 1221 0.544226 0.818321 -0.129368
-11.829791 -10.077836 -0.152853 1215 0.543636 0.818143 -0.060735
-11.829603 -10.077655 -0.148084 1219 0.546339 0.820750 0.007883
-11.829759 -10.077765 -0.143314 1207 0.544102 0.819158 0.076516
-11.830693 -10.078536 -0.138547 1207 0.530655 0.808071 0.145106
-11.832354 -10.079926 -0.133789 1189 0.506765 0.788078 0.213567
-11.833503 -10.080877 -0.129022 1169 0.490230 0.774384 0.282157
-11.834997 -10.082121 -0.124263 1149 0.468727 0.756490 0.350631
-11.837042 -10.083845 -0.119512 1109 0.439308 0.731681 0.418991
-11.839480 -10.085896 -0.114748 1097 0.404221 0.702179 0.487538
-11.843087 -10.088940 -0.110008 1061 0.352324 0.658378 0.555739
-11.846679 -10.091985 -0.105258 1011 0.300648 0.614564 0.624085
-11.850901 -10.095559 -0.100503 943 0.239901 0.563134 0.692502
-11.857285 -10.100968 -0.095767 839 0.148046 0.485304 0.760646
-11.862172 -10.099598 -0.215415 883 0.077721 0.505022 -0.960908
-11.855474 -10.093872 -0.210523 971 0.174090 0.587408 -0.890520
-11.850340 -10.089482 -0.205654 1023 0.247969 0.650571 -0.820462
-11.846493 -10.086178 -0.200815 1057 0.303323 0.698117 -0.750836
-11.843470 -10.083590 -0.195991 1099 0.346822 0.735358 -0.681426
-11.840238 -10.080812 -0.191171 1131 0.393325 0.775317 -0.612074
-11.838338 -10.079162 -0.186361 1163 0.420660 0.799069 -0.542865
-11.837491 -10.078425 -0.181575 1179 0.432845 0.809663 -0.474002
-11.835585 -10.076781 -0.176776 1185 0.460275 0.833319 -0.404951
-11.833628 -10.075090 -0.171978 1185 0.488432 0.857648 -0.335915
-11.832673 -10.074247 -0.167194 1183 0.502168 0.869778 -0.267081
-11.832829 -10.074357 -0.162424 1197 0.499917 0.868200 -0.198448
-11.832482 -10.074037 -0.157644 1195 0.504912 0.872811 -0.129671
-11.832480 -10.074007 -0.152875 1197 0.504940 0.873236 -0.061052
-11.833301 -10.074681 -0.148111 1209 0.493139 0.863535 0.007495
-11.833672 -10.074971 -0.143339 1201 0.487801 0.859363 0.076157
-11.834664 -10.075798 -0.138572 1201 0.473516 0.847467 0.144746
-11.836266 -10.077132 -0.133813 1177 0.450477 0.828270 0.213221
-11.837423 -10.078105 -0.129056 1159 0.433819 0.814273 0.281667
-11.838688 -10.079153 -0.124290 1141 0.415624 0.799193 0.350243
-11.840618 -10.080767 -0.119529 1105 0.387850 0.775975 0.418747
-11.843953 -10.083590 -0.114780 1073 0.339865 0.735358 0.487077
-11.847437 -10.086530 -0.110031 1047 0.289739 0.693054 0.555408
-11.851044 -10.089575 -0.105279 993 0.237842 0.649240 0.623783
-11.855823 -10.093621 -0.100534 913 0.169082 0.591017 0.692056
-11.862206 -10.099030 -0.095796 789 0.077227 0.513200 0.760229
-11.868147 -10.098557 -0.215490 845 -0.008247 0.519993 -0.961987
-11.861177 -10.092609 -0.210588 959 0.092033 0.605576 -0.891455
-11.855091 -10.087406 -0.205703 1001 0.179606 0.680443 -0.821167
-11.850125 -10.083155 -0.200841 1037 0.251056 0.741616 -0.751210
-11.847046 -10.080510 -0.196020 1077 0.295365 0.779666 -0.681843
-11.845540 -10.079202 -0.191217 1125 0.317032 0.798493 -0.612736
-11.843698 -10.077607 -0.186418 1141 0.343542 0.821436 -0.543685
-11.842185 -10.076307 -0.181617 1165 0.365305 0.840139 -0.474606
-11.840006 -10.074427 -0.176818 1169 0.396660 0.867199 -0.405556
-11.837992 -10.072680 -0.172010 1177 0.425641 0.892324 -0.336376
-11.837639 -10.072366 -0.167232 1187 0.430718 0.896852 -0.267628
-11.837358 -10.072093 -0.162454 1193 0.434752 0.900776 -0.198879
-11.837062 -10.071821 -0.157686 1195 0.439020 0.904687 -0.130275
-11.837275 -10.071972 -0.152915 1199 0.435960 0.902519 -0.061628
-11.836540 -10.071332 -0.148130 1195 0.446525 0.911726 0.007221
-11.837363 -10.072006 -0.143363 1183 0.434683 0.902025 0.075811
-11.839242 -10.073584 -0.138614 1175 0.407651 0.879329 0.144142
-11.839835 -10.074062 -0.133840 1147 0.399116 0.872440 0.212833
-11.840885 -10.074929 -0.129076 1131 0.384008 0.859967 0.281380
-11.842658 -10.076417 -0.124324 1121 0.358499 0.838561 0.349754
-11.844810 -10.078218 -0.119562 1087 0.327543 0.812640 0.418272
-11.847916 -10.080845 -0.114814 1065 0.282850 0.774850 0.486588
-11.851415 -10.083786 -0.110065 1023 0.232504 0.732532 0.554919
-11.855680 -10.087400 -0.105312 967 0.171126 0.680526 0.623308
-11.861240 -10.092108 -0.100570 893 0.091127 0.612794 0.691538
-11.866742 -10.096760 -0.095829 755 0.011966 0.545859 0.759754
-11.873971 -10.097385 -0.215553 737 -0.092047 0.536857 -0.962894
-11.867274 -10.091660 -0.210651 905 0.004309 0.619243 -0.892361
-11.860406 -10.085794 -0.205760 975 0.103134 0.703633 -0.821987
-11.855658 -10.081739 -0.200908 1019 0.171456 0.761979 -0.752174
-11.852534 -10.079053 -0.196075 1071 0.216395 0.800634 -0.682635
-11.850018 -10.076888 -0.191259 1103 0.252607 0.831782 -0.613340
-11.847332 -10.074586 -0.186445 1125 0.291248 0.864907 -0.544074
-11.845088 -10.072659 -0.181638 1141 0.323536 0.892639 -0.474908
-11.843919 -10.071633 -0.176843 1149 0.340359 0.907390 -0.405915
-11.842793 -10.070653 -0.172061 1157 0.356551 0.921496 -0.337110
-11.842167 -10.070102 -0.167274 1171 0.365566 0.929428 -0.268232
-11.841707 -10.069683 -0.162496 1187 0.372180 0.935452 -0.199484
-11.841704 -10.069654 -0.157716 1185 0.372221 0.935863 -0.130707
-11.842189 -10.070043 -0.152954 1185 0.365250 0.930278 -0.062189
-11.841450 -10.069394 -0.148168 1175 0.375885 0.939609 0.006675
-11.841713 -10.069595 -0.143398 1167 0.372098 0.936714 0.075308
-11.843385 -10.070985 -0.138649 1157 0.348043 0.916721 0.143639
-11.844758 -10.072139 -0.133880 1147 0.328284 0.900118 0.212257
-11.845685 -10.072903 -0.129114 1115 0.314946 0.889126 0.280833
-11.847344 -10.074278 -0.124355 1101 0.291070 0.869339 0.349308
-11.850120 -10.076613 -0.119600 1077 0.251139 0.835734 0.417725
-11.852724 -10.078811 -0.114845 1047 0.213664 0.804119 0.486142
-11.856330 -10.081856 -0.110094 1011 0.161782 0.760305 0.554502
-11.861668 -10.086361 -0.105354 937 0.084980 0.695482 0.622703
-11.867386 -10.091208 -0.100612 839 0.002703 0.625734 0.690934
-11.872502 -10.095525 -0.095863 691 -0.070915 0.563628 0.759265
-11.881296 -10.097365 -0.215641 509 -0.197445 0.537145 -0.964160
-11.873255 -10.090500 -0.210725 829 -0.081742 0.635929 -0.893426
-11.866329 -10.084593 -0.205825 915 0.017907 0.720923 -0.822923
-11.861416 -10.080391 -0.200963 979 0.088603 0.781382 -0.752966
-11.857168 -10.076765 -0.196126 1031 0.149720 0.833553 -0.683369
-11.854768 -10.074699 -0.191310 1069 0.184258 0.863274 -0.614074
-11.852646 -10.072863 -0.186502 1113 0.214789 0.889703 -0.544894
-11.850066 -10.070649 -0.181688 1119 0.251907 0.921551 -0.475627
-11.848496 -10.069291 -0.176885 1143 0.274494 0.941091 -0.406520
-11.847657 -10.068560 -0.172101 1161 0.286569 0.951616 -0.337685
-11.846194 -10.067293 -0.167308 1157 0.307618 0.969839 -0.268721
-11.846019 -10.067111 -0.162530 1153 0.310143 0.972460 -0.199973
-11.847184 -10.068076 -0.157773 1173 0.293375 0.958573 -0.131527
-11.846774 -10.067707 -0.152986 1177 0.299275 0.963883 -0.062649
-11.846313 -10.067287 -0.148208 1157 0.305903 0.969921 0.006099
-11.846748 -10.067642 -0.143436 1153 0.299646 0.964817 0.074761
-11.847969 -10.068649 -0.138679 1147 0.282082 0.950326 0.143207
-11.849171 -10.069650 -0.133913 1135 0.264792 0.935932 0.211783
-11.850163 -10.070462 -0.129148 1121 0.250508 0.924241 0.280344
-11.852266 -10.072228 -0.124395 1081 0.220251 0.898828 0.348732
-11.855484 -10.074938 -0.119648 1055 0.173953 0.859844 0.417034
-11.858425 -10.077419 -0.114891 1017 0.131635 0.824139 0.485480
-11.861480 -10.079986 -0.110134 973 0.087683 0.787214 0.553926
-11.865916 -10.083740 -0.105388 887 0.023849 0.733190 0.622214
-11.872937 -10.089671 -0.100648 787 -0.077172 0.647854 0.690416
-11.880697 -10.090691 -0.210811 697 -0.188828 0.633185 -0.894664
-11.872927 -10.084074 -0.205905 851 -0.077021 0.728388 -0.824074
-11.868172 -10.080011 -0.201042 931 -0.008604 0.786843 -0.754102
-11.864432 -10.076812 -0.196203 995 0.045200 0.832880 -0.684476
-11.860242 -10.073228 -0.191366 1031 0.105494 0.884447 -0.614879
-11.857340 -10.070729 -0.186544 1069 0.147250 0.920399 -0.545498
-11.855433 -10.069087 -0.181734 1099 0.174680 0.944028 -0.476289
-11.853919 -10.067785 -0.176942 1119 0.196471 0.962758 -0.407340
-11.853245 -10.067186 -0.172157 1137 0.206172 0.971376 -0.338491
-11.852283 -10.066350 -0.167371 1147 0.220017 0.983410 -0.269628
-11.851494 -10.065654 -0.162576 1151 0.231366 0.993427 -0.200635
-11.850811 -10.065047 -0.157800 1149 0.241190 1.002154 -0.131915
-11.851467 -10.065575 -0.153026 1151 0.231750 0.994566 -0.063225
-11.852516 -10.066443 -0.148271 1145 0.216656 0.982065 0.005193
-11.853117 -10.066928 -0.143497 1147 0.208011 0.975094 0.073883
-11.853049 -10.066852 -0.138717 1129 0.208985 0.976192 0.142660
-11.853756 -10.067427 -0.133955 1109 0.198817 0.967918 0.211178
-11.856030 -10.069331 -0.129192 1099 0.166090 0.940515 0.279711
-11.858413 -10.071341 -0.124437 1065 0.131813 0.911603 0.348128
-11.861023 -10.073530 -0.119684 1023 0.094256 0.880097 0.416516
-11.864407 -10.076372 -0.114934 985 0.045571 0.839206 0.484862
-11.868678 -10.079981 -0.110189 923 -0.015890 0.787282 0.553135
-11.874082 -10.084549 -0.105440 825 -0.093638 0.721554 0.621466
-11.882218 -10.091425 -0.100713 659 -0.210714 0.622619 0.689480
-11.882706 -10.086368 -0.206035 763 -0.217726 0.695386 -0.825944
-11.876554 -10.081130 -0.201150 885 -0.129206 0.770747 -0.755656
-11.870751 -10.076176 -0.196273 951 -0.045721 0.842033 -0.685484
-11.866218 -10.072301 -0.191429 995 0.019513 0.897785 -0.615786
-11.862801 -10.069386 -0.186599 1031 0.068678 0.939733 -0.546289
-11.860960 -10.067792 -0.181789 1065 0.095162 0.962662 -0.477081
-11.859611 -10.066623 -0.176998 1089 0.114578 0.979485 -0.408146
-11.858262 -10.065453 -0.172204 1107 0.133981 0.996322 -0.339167
-11.857415 -10.064714 -0.167409 1123 0.146166 1.006943 -0.270174
-11.856397 -10.063823 -0.162626 1129 0.160821 1.019773 -0.201354
-11.856221 -10.063655 -0.157846 1131 0.163346 1.022188 -0.132577
-11.856435 -10.063807 -0.153076 1121 0.160272 1.020006 -0.063944
-11.857033 -10.064292 -0.148302 1125 0.151669 1.013022 0.004747
-11.857131 -10.064361 -0.143531 1113 0.150255 1.012034 0.073394
-11.857787 -10.064888 -0.138757 1107 0.140814 1.004445 0.142085
-11.859554 -10.066368 -0.133998 1079 0.115388 0.983149 0.210559
-11.861498 -10.067994 -0.129236 1065 0.087422 0.959753 0.279078
-11.863773 -10.069899 -0.124485 1039 0.054682 0.932350 0.347437
-11.866599 -10.072269 -0.119728 989 0.014024 0.898238 0.415883
-11.870376 -10.075454 -0.114976 941 -0.040315 0.852420 0.484257
-11.874999 -10.079347 -0.110231 865 -0.106839 0.796407 0.552531
-11.882234 -10.085473 -0.105499 741 -0.210934 0.708258 0.620617
-11.883698 -10.081309 -0.201236 769 -0.232010 0.768167 -0.756894
-11.878784 -10.077122 -0.196374 881 -0.161301 0.828421 -0.686937
-11.874867 -10.073775 -0.191535 949 -0.104945 0.876571 -0.617311
-11.871456 -10.070853 -0.186695 1005 -0.055862 0.918615 -0.547671
-11.868663 -10.068460 -0.181880 1017 -0.015670 0.953043 -0.478390
-11.866369 -10.066483 -0.177064 1049 0.017331 0.981502 -0.409095
-11.864342 -10.064751 -0.172266 1083 0.046504 1.006421 -0.340059
-11.863386 -10.063907 -0.167470 1079 0.060253 1.018565 -0.271052
-11.862425 -10.063071 -0.162687 1091 0.074085 1.030586 -0.202232
-11.861856 -10.062563 -0.157899 1107 0.082263 1.037899 -0.133340
-11.861848 -10.062527 -0.153120 1095 0.082386 1.038421 -0.064577
-11.862160 -10.062777 -0.148349 1089 0.077899 1.034826 0.004070
-11.862874 -10.063360 -0.143575 1075 0.067622 1.026428 0.072761
-11.863923 -10.064227 -0.138809 1055 0.052528 1.013955 0.141337
-11.865870 -10.065854 -0.134048 1047 0.024507 0.990545 0.209840
-11.867806 -10.067472 -0.129287 1019 -0.003348 0.967259 0.278344
-11.870747 -10.069940 -0.124540 999 -0.045653 0.931760 0.346646
-11.874202 -10.072840 -0.119791 955 -0.095367 0.890032 0.414977
-11.877972 -10.076015 -0.115039 877 -0.149610 0.844338 0.483351
-11.883820 -10.080960 -0.110296 781 -0.233753 0.773190 0.551595
-11.888771 -10.085132 -0.105548 501 -0.304997 0.713170 0.619912
-11.888051 -10.079225 -0.196487 767 -0.294637 0.798164 -0.688563
-11.882901 -10.074835 -0.191625 875 -0.220539 0.861326 -0.618606
-11.877701 -10.070396 -0.186765 941 -0.145713 0.925188 -0.548678
-11.874843 -10.067954 -0.181942 995 -0.104589 0.960329 -0.479282
-11.872213 -10.065707 -0.177125 1013 -0.066757 0.992658 -0.409973
-11.870307 -10.064063 -0.172327 1033 -0.039327 1.016315 -0.340937
-11.869352 -10.063221 -0.167533 1039 -0.025591 1.028431 -0.271958
-11.868505 -10.062483 -0.162738 1049 -0.013393 1.039052 -0.202966
-11.868652 -10.062585 -0.157966 1071 -0.015520 1.037584 -0.134304
-11.868251 -10.062223 -0.153179 1067 -0.009743 1.042785 -0.065426
-11.868075 -10.062055 -0.148401 1053 -0.007218 1.045213 0.003322
-11.869284 -10.063048 -0.143632 1043 -0.024603 1.030915 0.071941
-11.870669 -10.064201 -0.138866 1019 -0.044541 1.014325 0.140516
-11.871884 -10.065202 -0.134099 997 -0.062023 0.999931 0.209106
-11.874051 -10.067016 -0.129346 979 -0.093199 0.973832 0.277495
-11.877550 -10.069957 -0.124597 939 -0.143545 0.931513 0.345826
-11.881886 -10.073614 -0.119852 881 -0.205925 0.878890 0.414099
-11.887124 -10.078035 -0.115102 783 -0.281300 0.815275 0.482444
-11.892749 -10.082777 -0.110361 569 -0.362232 0.747049 0.550660
-11.891346 -10.075873 -0.191724 747 -0.342047 0.846383 -0.620030
-11.885753 -10.071109 -0.186857 859 -0.261567 0.914937 -0.550002
-11.882335 -10.068192 -0.182025 925 -0.212388 0.956913 -0.480476
-11.879419 -10.065695 -0.177204 951 -0.170440 0.992837 -0.411110
-11.878015 -10.064485 -0.172401 973 -0.150228 1.010250 -0.342002
-11.877002 -10.063600 -0.167606 991 -0.135655 1.022984 -0.273009
-11.876434 -10.063090 -0.162820 1019 -0.127490 1.030311 -0.204145
-11.875858 -10.062589 -0.158033 1023 -0.119202 1.037529 -0.135268
-11.875849 -10.062552 -0.153253 1017 -0.119065 1.038051 -0.066491
-11.876112 -10.062753 -0.148471 1017 -0.122852 1.035169 0.002315
-11.876490 -10.063051 -0.143699 999 -0.128286 1.030874 0.070977
-11.878213 -10.064490 -0.138940 975 -0.153082 1.010167 0.139452
-11.880322 -10.066248 -0.134178 951 -0.183435 0.984878 0.207970
-11.882924 -10.068431 -0.129413 923 -0.220868 0.953469 0.276531
-11.885601 -10.070667 -0.124658 859 -0.259386 0.921291 0.344948
-11.890782 -10.075034 -0.119918 765 -0.333937 0.858458 0.413149
-11.896292 -10.079679 -0.115179 551 -0.413209 0.791632 0.481336
-11.896325 -10.073588 -0.186986 627 -0.413689 0.879260 -0.551858
-11.892629 -10.070430 -0.182148 777 -0.360503 0.924707 -0.482246
-11.888538 -10.066944 -0.177301 851 -0.301649 0.974861 -0.412505
-11.887198 -10.065781 -0.172508 895 -0.282370 0.991602 -0.343541
-11.886522 -10.065182 -0.167713 937 -0.272641 1.000219 -0.274548
-11.885274 -10.064109 -0.162910 947 -0.254679 1.015656 -0.205440
-11.884478 -10.063406 -0.158124 961 -0.243221 1.025769 -0.136577
-11.883966 -10.062953 -0.153327 953 -0.235866 1.032287 -0.067556
-11.884286 -10.063194 -0.148555 939 -0.240463 1.028816 0.001106
-11.885567 -10.064259 -0.143777 917 -0.258892 1.013502 0.069854
-11.887561 -10.065919 -0.139017 893 -0.287584 0.989612 0.138344
-11.889613 -10.067635 -0.134256 853 -0.317114 0.964926 0.206847
-11.893678 -10.071055 -0.129512 781 -0.375597 0.915706 0.275106
-11.898021 -10.074706 -0.124757 661 -0.438086 0.863178 0.343524
-11.901812 -10.071337 -0.177457 509 -0.492631 0.911658 -0.414750
-11.900020 -10.069791 -0.172647 679 -0.466848 0.933901 -0.345541
-11.898228 -10.068247 -0.167839 759 -0.441064 0.956117 -0.276361
-11.897038 -10.067216 -0.163034 793 -0.423953 0.970950 -0.207225
-11.896239 -10.066525 -0.158239 815 -0.412454 0.980885 -0.138232
-11.896288 -10.066532 -0.153459 807 -0.413154 0.980789 -0.069455
-11.897281 -10.067359 -0.148683 801 -0.427438 0.968892 -0.000735
-11.898561 -10.068407 -0.143907 775 -0.445853 0.953812 0.067984
-11.901121 -10.070548 -0.139143 705 -0.482696 0.923006 0.136531
-11.903731 -10.072737 -0.134387 553 -0.520253 0.891514 0.204962
