90
-26.781755 -22.768480 -0.168059 963 0.956693 -0.412838 0.006775
-26.782194 -22.768812 -0.157268 963 0.950381 -0.417613 0.162042
-26.783157 -22.755413 -0.189660 1037 0.936522 -0.224820 -0.304030
-26.779087 -22.751902 -0.178845 1115 0.995087 -0.174296 -0.148419
-26.774906 -22.748299 -0.168040 1135 1.055244 -0.122455 0.007049
-26.774019 -22.747494 -0.157245 1131 1.068005 -0.110873 0.162373
-26.775856 -22.748999 -0.146464 1111 1.041577 -0.132526 0.317495
-26.787050 -22.744400 -0.200486 1049 0.880509 -0.066359 -0.459800
-26.781387 -22.739544 -0.189660 1135 0.961990 0.003513 -0.304030
-26.778936 -22.737402 -0.178855 1189 0.997255 0.034332 -0.148563
-26.777216 -22.735889 -0.168065 1205 1.022009 0.056095 0.006689
-26.777033 -22.735683 -0.157275 1201 1.024644 0.059059 0.161941
-26.778042 -22.736485 -0.146491 1173 1.010126 0.047533 0.317106
-26.780045 -22.738134 -0.135709 1145 0.981310 0.023794 0.472243
-26.784719 -22.742056 -0.124942 1059 0.914045 -0.032631 0.627164
-26.795731 -22.737741 -0.211333 1005 0.755612 0.029447 -0.615872
-26.787868 -22.731016 -0.200488 1115 0.868736 0.126214 -0.459829
-26.783653 -22.727383 -0.189683 1173 0.929386 0.178495 -0.304361
-26.779974 -22.724199 -0.178876 1205 0.982326 0.224299 -0.148865
-26.778910 -22.723255 -0.168082 1215 0.997639 0.237883 0.006445
-26.779299 -22.723524 -0.157300 1225 0.992041 0.234014 0.161581
-26.779743 -22.723843 -0.146518 1207 0.985646 0.229431 0.316718
-26.782536 -22.726156 -0.135741 1189 0.945469 0.196141 0.471783
-26.787193 -22.730064 -0.124963 1135 0.878451 0.139909 0.626862
-26.795490 -22.737053 -0.114205 1025 0.759070 0.039355 0.781653
-26.798830 -22.726288 -0.211350 1065 0.711016 0.194248 -0.616117
-26.792574 -22.720936 -0.200528 1169 0.801032 0.271255 -0.460404
-26.788740 -22.717623 -0.189721 1211 0.856194 0.318925 -0.304908
-26.784388 -22.713886 -0.178906 1235 0.918821 0.372688 -0.149296
-26.782501 -22.712227 -0.168119 1253 0.945963 0.396564 0.005912
-26.783838 -22.713314 -0.157340 1257 0.926724 0.380921 0.161006
-26.784794 -22.714062 -0.146554 1233 0.912975 0.370163 0.316200
-26.787022 -22.715897 -0.135781 1193 0.880921 0.343762 0.471207
-26.791471 -22.719620 -0.125005 1155 0.816894 0.290191 0.626257
-26.798271 -22.725327 -0.114236 1069 0.719057 0.208079 0.781207
-26.804811 -22.717283 -0.211394 1069 0.624952 0.323810 -0.616750
-26.797682 -22.711184 -0.200566 1171 0.727537 0.411576 -0.460951
-26.793169 -22.707310 -0.189752 1215 0.792469 0.467314 -0.305354
-26.789555 -22.704189 -0.178943 1235 0.844475 0.512212 -0.149829
-26.788879 -22.703556 -0.168157 1267 0.854190 0.521324 0.005365
-26.789322 -22.703892 -0.157374 1265 0.847823 0.516494 0.160517
-26.789440 -22.703928 -0.146594 1233 0.846122 0.515972 0.315624
-26.791544 -22.705658 -0.135812 1211 0.815851 0.491081 0.470761
-26.796391 -22.709717 -0.125043 1171 0.746116 0.432680 0.625711
-26.803915 -22.716040 -0.114280 1093 0.637850 0.341704 0.780574
-26.811209 -22.708628 -0.211433 1077 0.532905 0.448350 -0.617311
-26.804802 -22.703146 -0.200610 1169 0.625089 0.527224 -0.461584
-26.799898 -22.698942 -0.189790 1207 0.695647 0.587710 -0.305901
-26.796551 -22.696062 -0.178989 1233 0.743811 0.629151 -0.150491
-26.795212 -22.694870 -0.168197 1257 0.763077 0.646303 0.004790
-26.796160 -22.695614 -0.157422 1277 0.749437 0.635600 0.159826
-26.797501 -22.696701 -0.146644 1233 0.730144 0.619957 0.314905
-26.798882 -22.697813 -0.135865 1219 0.710275 0.603957 0.469999
-26.803961 -22.702065 -0.125096 1157 0.637192 0.542785 0.624948
-26.810534 -22.707569 -0.114327 1093 0.542620 0.463582 0.779898
-26.822571 -22.703905 -0.211515 1059 0.369422 0.516301 -0.618491
-26.815109 -22.697531 -0.200679 1135 0.476782 0.608019 -0.462577
-26.808804 -22.692148 -0.189857 1197 0.567512 0.685465 -0.306865
-26.805405 -22.689219 -0.179046 1229 0.616417 0.727619 -0.151311
-26.804508 -22.688402 -0.168262 1237 0.629315 0.739365 0.003855
-26.803734 -22.687693 -0.157466 1231 0.640458 0.749574 0.159193
-26.805964 -22.689526 -0.146693 1211 0.608376 0.723201 0.314200
-26.809364 -22.692350 -0.135922 1195 0.559443 0.682556 0.469178
-26.813089 -22.695452 -0.125152 1129 0.505845 0.637933 0.624142
-26.818949 -22.700348 -0.114377 1059 0.421538 0.567484 0.779178
-26.834883 -22.700247 -0.211591 1007 0.192272 0.568939 -0.619584
-26.823105 -22.690229 -0.200728 1099 0.361738 0.713074 -0.463282
-26.817627 -22.685551 -0.189912 1159 0.440556 0.780394 -0.307656
-26.814341 -22.682714 -0.179101 1191 0.487842 0.821203 -0.152102
-26.813017 -22.681536 -0.168309 1227 0.506888 0.838163 0.003178
-26.813622 -22.681995 -0.157535 1223 0.498188 0.831549 0.158200
-26.814676 -22.682837 -0.146749 1195 0.483012 0.819446 0.313394
-26.816071 -22.683964 -0.135970 1181 0.462951 0.803227 0.468488
-26.821539 -22.688530 -0.125199 1109 0.384269 0.737526 0.623466
-26.830175 -22.695784 -0.114438 1013 0.260003 0.633157 0.778301
-26.838032 -22.689798 -0.200822 1027 0.146962 0.719276 -0.464635
-26.830540 -22.683413 -0.189986 1109 0.254761 0.811158 -0.308721
-26.827581 -22.680861 -0.179183 1151 0.297327 0.847878 -0.153282
-26.826311 -22.679731 -0.168391 1173 0.315604 0.864125 0.001998
-26.825747 -22.679205 -0.157596 1173 0.323728 0.871700 0.157322
-26.826530 -22.679819 -0.146810 1163 0.312448 0.862863 0.312517
-26.829655 -22.682409 -0.136033 1129 0.267495 0.825594 0.467581
-26.835606 -22.687391 -0.125268 1035 0.181870 0.753910 0.622473
-26.848364 -22.683971 -0.190091 1001 -0.001702 0.803117 -0.310232
-26.839947 -22.676800 -0.179261 1071 0.119408 0.906306 -0.154404
-26.838053 -22.675146 -0.168462 1093 0.146660 0.930100 0.000977
-26.838768 -22.675697 -0.157668 1107 0.136369 0.922169 0.156286
-26.841013 -22.677532 -0.146895 1095 0.104067 0.895768 0.311293
-26.844179 -22.680162 -0.136107 1041 0.058510 0.857923 0.466517
-26.857590 -22.677546 -0.157765 969 -0.134448 0.895576 0.154891
