556
-12.149940 -10.524333 -0.161620 855 0.915816 -0.512802 -0.062606
-12.148886 -10.523388 -0.156666 875 0.930978 -0.499204 0.008675
-12.149047 -10.523504 -0.151736 877 0.928659 -0.500878 0.079610
-12.150460 -10.524703 -0.146817 859 0.908323 -0.518126 0.150387
-12.151442 -10.525537 -0.141892 823 0.894203 -0.530119 0.221250
-12.153041 -10.526890 -0.136961 769 0.871192 -0.549591 0.292200
-12.150299 -10.518337 -0.176417 883 0.910642 -0.426533 -0.275512
-12.147140 -10.515585 -0.171435 931 0.956103 -0.386931 -0.203829
-12.146029 -10.514600 -0.166491 951 0.972075 -0.372756 -0.132692
-12.145083 -10.513746 -0.161547 977 0.985688 -0.360475 -0.061556
-12.144295 -10.513046 -0.156601 979 0.997036 -0.350403 0.009610
-12.144841 -10.513497 -0.151678 979 0.989173 -0.356894 0.080445
-12.145276 -10.513837 -0.146746 973 0.982916 -0.361779 0.151409
-12.145865 -10.514330 -0.141823 953 0.974436 -0.368873 0.222243
-12.146399 -10.514769 -0.136889 925 0.966765 -0.375185 0.293236
-12.148654 -10.516691 -0.131976 895 0.934313 -0.402849 0.363927
-12.152067 -10.519620 -0.127077 829 0.885202 -0.444989 0.434416
-12.149913 -10.511794 -0.181326 927 0.916200 -0.332386 -0.346145
-12.146639 -10.508946 -0.176346 959 0.963307 -0.291413 -0.274491
-12.145021 -10.507521 -0.171395 1003 0.986580 -0.270898 -0.203253
-12.143920 -10.506541 -0.166441 1025 1.002428 -0.256806 -0.131973
-12.142917 -10.505647 -0.161507 1035 1.016864 -0.243935 -0.060980
-12.142793 -10.505511 -0.156569 1045 1.018648 -0.241986 0.010070
-12.143104 -10.505759 -0.151646 1035 1.014174 -0.245554 0.080905
-12.143929 -10.506441 -0.146721 1035 1.002305 -0.255365 0.151768
-12.143635 -10.506166 -0.141783 1013 1.006531 -0.251413 0.222819
-12.144503 -10.506890 -0.136858 985 0.994044 -0.261828 0.293682
-12.147144 -10.509149 -0.131953 971 0.956034 -0.294322 0.364257
-12.149613 -10.511268 -0.127039 937 0.920508 -0.324812 0.434963
-12.152369 -10.513624 -0.122134 881 0.880866 -0.358719 0.505538
-12.157881 -10.518366 -0.117241 795 0.801553 -0.426944 0.575941
-12.155077 -10.509695 -0.191237 899 0.841895 -0.302184 -0.488750
-12.151088 -10.506216 -0.186251 969 0.899294 -0.252127 -0.417009
-12.147484 -10.503076 -0.181271 1001 0.951149 -0.206940 -0.345354
-12.144767 -10.500701 -0.176297 1033 0.990243 -0.172773 -0.273786
-12.143484 -10.499576 -0.171355 1059 1.008699 -0.156581 -0.202678
-12.142648 -10.498828 -0.166409 1079 1.020733 -0.145823 -0.131512
-12.141809 -10.498077 -0.161475 1083 1.032795 -0.135024 -0.060520
-12.141027 -10.497371 -0.156529 1095 1.044047 -0.124856 0.010646
-12.141181 -10.497480 -0.151608 1089 1.041838 -0.126434 0.081452
-12.142109 -10.498260 -0.146683 1087 1.028486 -0.137645 0.152315
-12.142920 -10.498941 -0.141768 1071 1.016823 -0.147456 0.223035
-12.144132 -10.499957 -0.136851 1067 0.999382 -0.162070 0.293783
-12.144821 -10.500534 -0.131928 1031 0.989461 -0.170372 0.364617
-12.147528 -10.502842 -0.127022 1015 0.950518 -0.203579 0.435207
-12.150876 -10.505722 -0.122113 973 0.902341 -0.245019 0.505840
-12.153737 -10.508167 -0.117205 919 0.861175 -0.280202 0.576459
-12.157593 -10.511473 -0.112303 833 0.805697 -0.327762 0.646991
-12.158458 -10.506021 -0.196198 915 0.793251 -0.249314 -0.560131
-12.153034 -10.501309 -0.191189 981 0.871288 -0.181527 -0.488059
-12.149216 -10.497987 -0.186201 1027 0.926230 -0.133720 -0.416289
-12.146885 -10.495948 -0.181235 1065 0.959767 -0.104383 -0.344836
-12.145325 -10.494577 -0.176285 1083 0.982216 -0.084664 -0.273613
-12.143549 -10.493026 -0.171336 1103 1.007766 -0.062339 -0.202404
-12.142434 -10.492034 -0.166392 1125 1.023807 -0.048068 -0.131268
-12.141867 -10.491522 -0.161456 1123 1.031972 -0.040699 -0.060246
-12.141306 -10.491003 -0.156517 1133 1.040040 -0.033235 0.010819
-12.141018 -10.490736 -0.151591 1121 1.044184 -0.029392 0.081696
-12.141895 -10.491467 -0.146675 1123 1.031560 -0.039917 0.152430
-12.142820 -10.492246 -0.141749 1111 1.018250 -0.051114 0.223308
-12.143360 -10.492676 -0.136826 1093 1.010483 -0.057303 0.294142
-12.144058 -10.493260 -0.131903 1061 1.000439 -0.065714 0.364977
-12.145928 -10.494849 -0.126992 1051 0.973530 -0.088575 0.435639
-12.148289 -10.496861 -0.122088 1025 0.939568 -0.117528 0.506200
-12.151808 -10.499881 -0.117188 977 0.888934 -0.160972 0.576704
-12.155999 -10.503472 -0.112284 915 0.828626 -0.212649 0.647265
-12.161948 -10.508597 -0.107399 813 0.743029 -0.286390 0.717552
-12.161942 -10.502576 -0.201157 879 0.743125 -0.199750 -0.631484
-12.156908 -10.498204 -0.196146 961 0.815549 -0.136849 -0.559383
-12.152258 -10.494163 -0.191153 1027 0.882457 -0.078695 -0.487541
-12.149211 -10.491494 -0.186182 1061 0.926299 -0.040301 -0.416016
-12.147158 -10.489699 -0.181223 1089 0.955842 -0.014477 -0.344663
-12.145155 -10.487954 -0.176266 1117 0.984658 0.010634 -0.273340
-12.143823 -10.486779 -0.171322 1135 1.003828 0.027540 -0.202203
-12.142814 -10.485877 -0.166378 1151 1.018346 0.040521 -0.131066
-12.142196 -10.485315 -0.161442 1149 1.027238 0.048603 -0.060045
-12.142629 -10.485670 -0.156519 1157 1.021008 0.043499 0.010790
-12.143284 -10.486211 -0.151596 1149 1.011581 0.035718 0.081624
-12.143381 -10.486265 -0.146675 1155 1.010181 0.034936 0.152430
-12.143308 -10.486178 -0.141747 1143 1.011238 0.036185 0.223337
-12.143798 -10.486574 -0.136824 1133 1.004185 0.030490 0.294171
-12.145051 -10.487633 -0.131907 1123 0.986154 0.015259 0.364919
-12.147579 -10.489792 -0.127001 1109 0.949777 -0.015808 0.435509
-12.149998 -10.491863 -0.122097 1073 0.914979 -0.045612 0.506070
-12.152638 -10.494109 -0.117182 1027 0.876982 -0.077927 0.576790
-12.155822 -10.496840 -0.112275 985 0.831179 -0.117213 0.647394
-12.160564 -10.500913 -0.107376 909 0.762939 -0.175819 0.717883
-12.167741 -10.507086 -0.102494 787 0.659682 -0.264641 0.788128
-12.166154 -10.499742 -0.206133 869 0.682515 -0.158969 -0.703081
-12.159679 -10.494129 -0.201100 953 0.775673 -0.078215 -0.630663
-12.155960 -10.490904 -0.196112 1013 0.829189 -0.031807 -0.558894
-12.153136 -10.488439 -0.191138 1057 0.869820 0.003664 -0.487325
-12.150420 -10.486064 -0.186175 1099 0.908900 0.037831 -0.415915
-12.148088 -10.484024 -0.181208 1121 0.942450 0.067183 -0.344448
-12.146642 -10.482752 -0.176266 1151 0.963266 0.085488 -0.273340
-12.145310 -10.481578 -0.171315 1161 0.982422 0.102379 -0.202102
-12.144751 -10.481073 -0.166388 1181 0.990477 0.109638 -0.131210
-12.143956 -10.480367 -0.161452 1175 1.001907 0.119806 -0.060188
-12.143723 -10.480140 -0.156514 1165 1.005269 0.123072 0.010862
-12.143278 -10.479733 -0.151587 1165 1.011663 0.128918 0.081754
-12.142876 -10.479354 -0.146658 1155 1.017454 0.134379 0.152675
-12.143917 -10.480232 -0.141743 1173 1.002470 0.121741 0.223394
-12.145443 -10.481527 -0.136834 1163 0.980514 0.103107 0.294027
-12.147418 -10.483207 -0.131922 1157 0.952096 0.078942 0.364703
-12.148182 -10.483839 -0.126997 1129 0.941105 0.069845 0.435567
-12.149657 -10.485086 -0.122090 1105 0.919877 0.051896 0.506171
-12.152355 -10.487387 -0.117175 1067 0.881058 0.018799 0.576891
-12.155381 -10.489980 -0.112276 1029 0.837518 -0.018511 0.647380
-12.160236 -10.494136 -0.107378 969 0.767660 -0.078311 0.717855
-12.165356 -10.498534 -0.102478 883 0.694000 -0.141597 0.788358
-12.166206 -10.493305 -0.206101 929 0.681760 -0.066359 -0.702620
-12.160666 -10.488496 -0.201084 985 0.761471 0.002840 -0.630433
-12.156006 -10.484461 -0.196082 1047 0.828530 0.060898 -0.558462
-12.152187 -10.481137 -0.191103 1079 0.883473 0.108719 -0.486822
-12.149693 -10.478966 -0.186139 1111 0.919370 0.139964 -0.415397
-12.148140 -10.477602 -0.181187 1151 0.941709 0.159586 -0.344145
-12.146572 -10.476225 -0.176236 1155 0.964268 0.179401 -0.272908
-12.146184 -10.475861 -0.171309 1171 0.969853 0.184642 -0.202016
-12.145182 -10.474966 -0.166375 1189 0.984274 0.197514 -0.131023
-12.144172 -10.474077 -0.161431 1187 0.998806 0.210302 -0.059886
-12.144547 -10.474375 -0.156508 1199 0.993399 0.206021 0.010948
-12.144209 -10.474058 -0.151581 1197 0.998271 0.210577 0.081840
-12.144250 -10.474071 -0.146660 1189 0.997681 0.210398 0.152646
-12.144568 -10.474312 -0.141739 1187 0.993097 0.206927 0.223452
-12.145273 -10.474903 -0.136814 1183 0.982957 0.198419 0.294315
-12.146699 -10.476100 -0.131907 1177 0.962443 0.181198 0.364919
-12.148561 -10.477683 -0.126995 1161 0.935657 0.158420 0.435596
-12.150315 -10.479173 -0.122086 1127 0.910409 0.136986 0.506229
-12.152292 -10.480853 -0.117175 1091 0.881963 0.112808 0.576891
-12.155482 -10.483579 -0.112265 1057 0.836064 0.073591 0.647538
-12.159060 -10.486639 -0.107365 1009 0.784593 0.029557 0.718042
-12.163587 -10.490517 -0.102469 951 0.719455 -0.026236 0.788488
-12.169485 -10.495580 -0.097575 837 0.634584 -0.099086 0.858905
-12.173340 -10.492991 -0.211119 849 0.579120 -0.061845 -0.774822
-12.165914 -10.486576 -0.206072 939 0.685973 0.030463 -0.702203
-12.160882 -10.482206 -0.201062 1001 0.758370 0.093337 -0.630117
-12.157551 -10.479316 -0.196082 1059 0.806301 0.134928 -0.558462
-12.154383 -10.476559 -0.191111 1105 0.851885 0.174598 -0.486937
-12.151952 -10.474435 -0.186144 1119 0.886862 0.205157 -0.415469
-12.150606 -10.473260 -0.181202 1153 0.906224 0.222062 -0.344361
-12.148667 -10.471561 -0.176243 1173 0.934121 0.246501 -0.273009
-12.147222 -10.470289 -0.171301 1179 0.954923 0.264806 -0.201901
-12.146655 -10.469777 -0.166375 1189 0.963074 0.272175 -0.131023
-12.146203 -10.469364 -0.161438 1197 0.969578 0.278116 -0.059987
-12.146085 -10.469236 -0.156519 1227 0.971280 0.279955 0.010790
-12.145303 -10.468529 -0.151583 1209 0.982532 0.290137 0.081811
-12.145115 -10.468346 -0.146654 1185 0.985235 0.292771 0.152732
-12.146106 -10.469173 -0.141739 1191 0.970978 0.280861 0.223452
-12.147474 -10.470330 -0.136832 1199 0.951287 0.264216 0.294056
-12.149009 -10.471633 -0.131922 1201 0.929208 0.245472 0.364703
-12.150322 -10.472733 -0.127005 1169 0.910313 0.229650 0.435452
-12.152246 -10.474362 -0.122094 1143 0.882622 0.206199 0.506114
-12.154609 -10.476377 -0.117190 1123 0.848633 0.177219 0.576675
-12.157520 -10.478859 -0.112282 1101 0.806740 0.141501 0.647293
-12.160769 -10.481640 -0.107375 1043 0.759989 0.101487 0.717898
-12.164788 -10.485078 -0.102471 977 0.702165 0.052020 0.788459
-12.169758 -10.489331 -0.097573 885 0.630660 -0.009180 0.858934
-12.172399 -10.485697 -0.211075 903 0.592664 0.043114 -0.774188
-12.166402 -10.480511 -0.206049 975 0.678948 0.117734 -0.701872
-12.162913 -10.477480 -0.201060 1039 0.729142 0.161342 -0.630088
-12.159473 -10.474499 -0.196080 1099 0.778637 0.204237 -0.558433
-12.156592 -10.471992 -0.191117 1121 0.820091 0.240312 -0.487023
-12.154540 -10.470195 -0.186159 1153 0.849621 0.266164 -0.415685
-12.152822 -10.468686 -0.181210 1167 0.874348 0.287872 -0.344476
-12.150869 -10.466990 -0.176251 1183 0.902437 0.312270 -0.273124
-12.148815 -10.465193 -0.171303 1197 0.931994 0.338136 -0.201930
-12.148364 -10.464779 -0.166375 1203 0.938484 0.344091 -0.131023
-12.148304 -10.464694 -0.161446 1207 0.939349 0.345312 -0.060102
-12.147902 -10.464329 -0.156517 1229 0.945139 0.350568 0.010819
-12.147891 -10.464291 -0.151598 1217 0.945290 0.351117 0.081596
-12.148712 -10.464980 -0.146683 1205 0.933476 0.341196 0.152315
-12.148972 -10.465179 -0.141762 1199 0.929743 0.338328 0.223121
-12.149563 -10.465660 -0.136839 1191 0.921236 0.331412 0.293955
-12.151039 -10.466907 -0.131930 1195 0.899994 0.313478 0.364589
-12.152916 -10.468502 -0.127018 1171 0.872989 0.290521 0.435265
-12.154449 -10.469790 -0.122111 1155 0.850924 0.271982 0.505869
-12.156311 -10.471373 -0.117199 1135 0.824139 0.249218 0.576545
-12.159566 -10.474147 -0.112292 1113 0.777306 0.209301 0.647150
-12.162471 -10.476635 -0.107384 1067 0.735509 0.173500 0.717768
-12.166504 -10.480072 -0.102480 1007 0.677479 0.124046 0.788329
-12.172565 -10.485282 -0.097596 923 0.590263 0.049083 0.858603
-12.174593 -10.481117 -0.211083 913 0.561090 0.109007 -0.774304
-12.168275 -10.475657 -0.206049 987 0.651998 0.187565 -0.701872
-12.164171 -10.472097 -0.201052 1043 0.711043 0.238789 -0.629973
-12.161397 -10.469681 -0.196089 1103 0.750960 0.273560 -0.558563
-12.158572 -10.467230 -0.191115 1133 0.791605 0.308826 -0.486994
-12.156300 -10.465246 -0.186158 1175 0.824304 0.337367 -0.415671
-12.154517 -10.463688 -0.181208 1181 0.849950 0.359789 -0.344448
-12.152793 -10.462173 -0.176258 1185 0.874759 0.381580 -0.273224
-12.151126 -10.460712 -0.171318 1211 0.898745 0.402602 -0.202145
-12.150502 -10.460158 -0.166382 1205 0.907720 0.410574 -0.131124
-12.150221 -10.459884 -0.161454 1235 0.911768 0.414526 -0.060217
-12.150218 -10.459854 -0.156535 1239 0.911809 0.414951 0.010560
-12.150414 -10.460004 -0.151614 1221 0.908982 0.412797 0.081365
-12.150347 -10.459926 -0.146683 1225 0.909956 0.413922 0.152315
-12.151618 -10.460984 -0.141775 1221 0.891665 0.398691 0.222934
-12.153214 -10.462336 -0.136868 1195 0.868694 0.379247 0.293538
-12.153685 -10.462725 -0.131945 1193 0.861929 0.373648 0.364373
-12.154010 -10.462974 -0.127022 1179 0.857250 0.370067 0.435207
-12.155373 -10.464122 -0.122105 1159 0.837642 0.353546 0.505955
-12.157898 -10.466269 -0.117199 1137 0.801306 0.322658 0.576545
-12.160489 -10.468478 -0.112296 1115 0.764023 0.290864 0.647092
-12.164186 -10.471630 -0.107394 1071 0.710837 0.245513 0.717624
-12.168642 -10.475451 -0.102497 1023 0.646715 0.190529 0.788085
-12.173496 -10.479607 -0.097599 947 0.576870 0.130743 0.858560
-12.179853 -10.485046 -0.092703 819 0.485400 0.052473 0.929006
-12.176641 -10.476156 -0.211081 935 0.531615 0.180389 -0.774275
-12.171381 -10.471604 -0.206072 1009 0.607305 0.245883 -0.702203
-12.167057 -10.467855 -0.201077 1077 0.669521 0.299824 -0.630332
-12.163453 -10.464727 -0.196087 1117 0.721376 0.344832 -0.558534
-12.160457 -10.462123 -0.191115 1141 0.764490 0.382307 -0.486994
-12.158841 -10.460712 -0.186165 1175 0.787735 0.402602 -0.415771
-12.157787 -10.459781 -0.181231 1199 0.802898 0.416008 -0.344779
-12.155892 -10.458126 -0.176281 1211 0.830163 0.439815 -0.273556
-12.154339 -10.456763 -0.171332 1209 0.852516 0.459424 -0.202347
-12.153280 -10.455826 -0.166397 1223 0.867748 0.472913 -0.131340
-12.152985 -10.455552 -0.161469 1237 0.872001 0.476851 -0.060433
-12.153923 -10.456330 -0.156554 1269 0.858499 0.465654 0.010286
-12.153464 -10.455911 -0.151627 1251 0.865099 0.471691 0.081178
-12.152954 -10.455455 -0.146700 1235 0.872440 0.478251 0.152071
-12.153167 -10.455606 -0.141777 1223 0.869380 0.476069 0.222905
-12.153363 -10.455756 -0.136856 1185 0.866554 0.473914 0.293711
-12.154569 -10.456767 -0.131939 1183 0.849209 0.459369 0.364459
-12.156272 -10.458208 -0.127030 1177 0.824702 0.438635 0.435092
-12.158308 -10.459929 -0.122128 1181 0.795406 0.413867 0.505624
-12.159898 -10.461274 -0.117209 1143 0.772531 0.394519 0.576401
-12.162366 -10.463379 -0.112305 1121 0.737019 0.364235 0.646963
-12.165671 -10.466187 -0.107407 1083 0.689458 0.323838 0.717437
-12.169419 -10.469387 -0.102505 1031 0.635531 0.277787 0.787970
-12.173996 -10.473300 -0.097597 959 0.569680 0.221486 0.858588
-12.179415 -10.477937 -0.092707 853 0.491712 0.154770 0.928948
-12.179300 -10.471832 -0.211096 953 0.493358 0.242604 -0.774491
-12.173590 -10.466898 -0.206070 1015 0.575525 0.313601 -0.702174
-12.169650 -10.463484 -0.201083 1073 0.632211 0.362726 -0.630419
-12.165826 -10.460168 -0.196095 1107 0.687236 0.410437 -0.558649
-12.163430 -10.458094 -0.191138 1143 0.721705 0.440282 -0.487325
-12.161762 -10.456632 -0.186188 1167 0.745705 0.461318 -0.416102
-12.159711 -10.454838 -0.181231 1207 0.775221 0.487129 -0.344779
-12.158657 -10.453907 -0.176297 1207 0.790383 0.500521 -0.273786
-12.157482 -10.452872 -0.171353 1225 0.807289 0.515410 -0.202649
-12.156309 -10.451838 -0.166420 1235 0.824167 0.530298 -0.131671
-12.156250 -10.451766 -0.161490 1251 0.825018 0.531327 -0.060735
-12.156060 -10.451582 -0.156561 1261 0.827748 0.533975 0.010186
-12.156273 -10.451734 -0.151640 1229 0.824688 0.531793 0.080991
-12.156270 -10.451704 -0.146721 1235 0.824729 0.532219 0.151768
-12.155974 -10.451428 -0.141793 1213 0.828983 0.536185 0.222675
-12.157343 -10.452584 -0.136885 1211 0.809292 0.519554 0.293293
-12.158826 -10.453838 -0.131976 1205 0.787955 0.501509 0.363927
-12.160195 -10.454980 -0.127058 1183 0.768250 0.485084 0.434689
-12.161843 -10.456381 -0.122149 1173 0.744538 0.464927 0.505322
-12.164048 -10.458241 -0.117245 1157 0.712813 0.438155 0.575883
-12.166288 -10.460151 -0.112334 1127 0.680580 0.410684 0.646545
-12.168829 -10.462311 -0.107428 1081 0.644025 0.379604 0.717135
-12.172463 -10.465413 -0.102517 1043 0.591731 0.334966 0.787797
-12.177546 -10.469750 -0.097628 977 0.518607 0.272559 0.858142
-12.183288 -10.474661 -0.092724 863 0.435987 0.201905 0.928704
-12.182104 -10.468017 -0.211108 955 0.453016 0.297505 -0.774663
-12.175779 -10.462564 -0.206086 1013 0.544020 0.375954 -0.702404
-12.171454 -10.458816 -0.201081 1059 0.606249 0.429894 -0.630390
-12.169280 -10.456931 -0.196123 1099 0.637535 0.457009 -0.559052
-12.167392 -10.455282 -0.191174 1149 0.664704 0.480734 -0.487843
-12.165282 -10.453444 -0.186217 1177 0.695057 0.507190 -0.416519
-12.163172 -10.451607 -0.181258 1203 0.725424 0.533619 -0.345167
-12.161669 -10.450294 -0.176318 1213 0.747049 0.552514 -0.274088
-12.161331 -10.449978 -0.171389 1229 0.751907 0.557056 -0.203167
-12.159772 -10.448607 -0.166438 1241 0.774342 0.576774 -0.131930
-12.157811 -10.446903 -0.161490 1243 0.802555 0.601295 -0.060735
-12.158073 -10.447104 -0.156578 1243 0.798781 0.598400 0.009941
-12.159020 -10.447889 -0.151663 1223 0.785155 0.587107 0.080660
-12.159781 -10.448523 -0.146748 1219 0.774205 0.577995 0.151380
-12.160215 -10.448861 -0.141825 1221 0.767962 0.573124 0.222214
-12.160685 -10.449249 -0.136902 1209 0.761211 0.567539 0.293049
-12.161896 -10.450267 -0.131997 1185 0.743784 0.552898 0.363624
-12.163208 -10.451366 -0.127079 1191 0.724902 0.537076 0.434387
-12.164248 -10.452229 -0.122162 1179 0.709932 0.524672 0.505135
-12.166503 -10.454140 -0.117260 1159 0.677493 0.497173 0.575668
-12.168865 -10.456153 -0.112345 1129 0.643504 0.468206 0.646387
-12.171456 -10.458348 -0.107441 1081 0.606221 0.436618 0.716948
-12.175197 -10.461542 -0.102539 1035 0.552404 0.390663 0.787480
-12.180395 -10.465977 -0.097639 967 0.477606 0.326856 0.857984
-12.186855 -10.471506 -0.092753 863 0.384653 0.247297 0.928286
-12.184940 -10.464371 -0.211129 957 0.412207 0.349964 -0.774965
-12.179779 -10.459916 -0.206118 1017 0.486470 0.414059 -0.702865
-12.176119 -10.456746 -0.201130 1059 0.539135 0.459671 -0.631095
-12.173394 -10.454378 -0.196156 1117 0.578338 0.493743 -0.559527
-12.170733 -10.452074 -0.191191 1147 0.616623 0.526895 -0.488088
-12.167903 -10.449616 -0.186228 1179 0.657349 0.562256 -0.416678
-12.165342 -10.447395 -0.181263 1185 0.694193 0.594215 -0.345239
-12.164454 -10.446597 -0.176327 1201 0.706968 0.605700 -0.274217
-12.164223 -10.446372 -0.171399 1225 0.710302 0.608938 -0.203311
-12.163492 -10.445728 -0.166474 1233 0.720813 0.618201 -0.132448
-12.162153 -10.444547 -0.161532 1235 0.740079 0.635202 -0.061340
-12.160866 -10.443416 -0.156590 1239 0.758603 0.651476 0.009768
-12.161348 -10.443816 -0.151677 1245 0.751660 0.645713 0.080459
-12.161509 -10.443918 -0.146756 1219 0.749355 0.644245 0.151265
-12.162322 -10.444601 -0.141840 1209 0.737650 0.634420 0.221999
-12.163527 -10.445610 -0.136923 1213 0.720319 0.619902 0.292747
-12.164346 -10.446285 -0.132010 1213 0.708532 0.610187 0.363437
-12.165942 -10.447636 -0.127100 1195 0.685561 0.590757 0.434085
-12.167255 -10.448736 -0.122183 1179 0.666666 0.574922 0.504833
-12.169174 -10.450360 -0.117272 1145 0.639058 0.551553 0.575495
-12.171986 -10.452743 -0.112376 1107 0.598606 0.517276 0.645941
-12.175512 -10.455754 -0.107464 1087 0.547862 0.473942 0.716617
-12.179212 -10.458907 -0.102564 1033 0.494635 0.428577 0.787121
-12.183179 -10.462280 -0.097660 965 0.437551 0.380043 0.857682
-12.189198 -10.467435 -0.092766 849 0.350952 0.305876 0.928099
-12.190573 -10.462869 -0.211186 969 0.331165 0.371576 -0.775786
-12.184754 -10.457843 -0.206169 1009 0.414883 0.443891 -0.703599
-12.179973 -10.453717 -0.201157 1053 0.483684 0.503252 -0.631484
-12.176363 -10.450597 -0.196177 1111 0.535622 0.548150 -0.559829
-12.173251 -10.447907 -0.191206 1123 0.580397 0.586846 -0.488304
-12.171085 -10.446014 -0.186249 1159 0.611559 0.614084 -0.416980
-12.168975 -10.444178 -0.181290 1177 0.641926 0.640512 -0.345627
-12.167966 -10.443291 -0.176356 1197 0.656444 0.653274 -0.274635
-12.167735 -10.443065 -0.171427 1217 0.659764 0.656526 -0.203714
-12.166725 -10.442175 -0.166493 1215 0.674296 0.669328 -0.132721
-12.165829 -10.441384 -0.161559 1231 0.687194 0.680704 -0.061728
-12.165599 -10.441160 -0.156630 1237 0.690501 0.683929 0.009193
-12.165253 -10.440837 -0.151703 1231 0.695482 0.688580 0.080085
-12.164635 -10.440275 -0.146777 1217 0.704374 0.696663 0.150962
-12.165283 -10.440811 -0.141852 1207 0.695043 0.688951 0.221826
-12.166316 -10.441681 -0.136946 1197 0.680182 0.676436 0.292416
-12.167579 -10.442733 -0.132029 1197 0.662015 0.661301 0.363164
-12.169511 -10.444369 -0.127118 1179 0.634214 0.637754 0.433826
-12.171488 -10.446035 -0.122218 1163 0.605768 0.613782 0.504330
-12.173578 -10.447812 -0.117304 1137 0.575690 0.588218 0.575035
-12.175781 -10.449672 -0.112393 1109 0.543992 0.561460 0.645696
-12.177867 -10.451442 -0.107479 1065 0.513982 0.535992 0.716401
-12.181893 -10.454872 -0.102587 1013 0.456048 0.486635 0.786790
-12.186812 -10.459063 -0.097689 939 0.385271 0.426340 0.857265
-12.193610 -10.464879 -0.092799 847 0.287461 0.342650 0.927624
-12.194647 -10.460012 -0.211220 949 0.272545 0.412673 -0.776275
-12.188659 -10.454848 -0.206194 989 0.358705 0.486978 -0.703958
-12.183554 -10.450450 -0.201186 1039 0.432159 0.550263 -0.631901
-12.180101 -10.447469 -0.196205 1079 0.481832 0.593158 -0.560232
-12.178212 -10.445820 -0.191256 1109 0.509015 0.616883 -0.489023
-12.176604 -10.444416 -0.186304 1157 0.532150 0.637082 -0.417771
-12.174044 -10.442195 -0.181340 1175 0.568994 0.669040 -0.346347
-12.172040 -10.440448 -0.176392 1203 0.597823 0.694179 -0.275153
-12.171030 -10.439560 -0.171448 1225 0.612355 0.706954 -0.204016
-12.170357 -10.438958 -0.166521 1227 0.622043 0.715613 -0.133124
-12.169569 -10.438258 -0.161585 1217 0.633377 0.725684 -0.062102
-12.169124 -10.437851 -0.156659 1215 0.639785 0.731544 0.008775
-12.169220 -10.437904 -0.151728 1217 0.638399 0.730775 0.079725
-12.169982 -10.438538 -0.146815 1223 0.627435 0.721664 0.150416
-12.170194 -10.438689 -0.141892 1203 0.624389 0.719482 0.221250
-12.170898 -10.439280 -0.136979 1189 0.614249 0.710988 0.291941
-12.172604 -10.440708 -0.132069 1193 0.589714 0.690433 0.362588
-12.173807 -10.441717 -0.127152 1173 0.572397 0.675915 0.433337
-12.174677 -10.442440 -0.122237 1151 0.559882 0.665514 0.504056
-12.176374 -10.443876 -0.117327 1119 0.535457 0.644849 0.574704
-12.179686 -10.446691 -0.112418 1091 0.487815 0.604355 0.645337
-12.182449 -10.449027 -0.107512 1059 0.448049 0.570736 0.715927
-12.185697 -10.451795 -0.102614 1003 0.401325 0.530915 0.786401
-12.191388 -10.456656 -0.097710 935 0.319433 0.460961 0.856963
-12.198856 -10.463029 -0.092827 817 0.211976 0.369271 0.927222
-12.198666 -10.457129 -0.211256 925 0.214721 0.454169 -0.776793
-12.193505 -10.452678 -0.206246 999 0.288970 0.518209 -0.704707
-12.189009 -10.448803 -0.201243 1049 0.353669 0.573961 -0.632721
-12.184848 -10.445199 -0.196257 1089 0.413538 0.625816 -0.560980
-12.182010 -10.442749 -0.191283 1123 0.454374 0.661068 -0.489412
-12.179564 -10.440625 -0.186316 1139 0.489557 0.691627 -0.417944
-12.177676 -10.438977 -0.181368 1175 0.516727 0.715338 -0.346750
-12.176216 -10.437705 -0.176426 1183 0.537735 0.733643 -0.275642
-12.175214 -10.436824 -0.171482 1197 0.552157 0.746322 -0.204505
-12.174261 -10.435977 -0.166548 1201 0.565865 0.758507 -0.133512
-12.173751 -10.435522 -0.161621 1213 0.573206 0.765053 -0.062620
-12.173241 -10.435053 -0.156683 1209 0.580548 0.771804 0.008430
-12.172789 -10.434638 -0.151757 1211 0.587052 0.777773 0.079308
-12.172942 -10.434748 -0.146836 1193 0.584843 0.776195 0.150114
-12.173034 -10.434809 -0.141915 1191 0.583525 0.775317 0.220919
-12.173523 -10.435203 -0.136992 1165 0.576486 0.769650 0.291754
-12.175392 -10.436778 -0.132082 1159 0.549591 0.746981 0.362401
-12.177762 -10.438786 -0.127179 1159 0.515492 0.718096 0.432948
-12.179574 -10.440318 -0.122267 1141 0.489420 0.696045 0.503624
-12.182164 -10.442513 -0.117363 1121 0.452151 0.664457 0.574186
-12.184925 -10.444848 -0.112456 1091 0.412426 0.630866 0.644790
-12.187789 -10.447282 -0.107550 1043 0.371219 0.595847 0.715380
-12.191544 -10.450475 -0.102648 973 0.317196 0.549906 0.785912
-12.196126 -10.454377 -0.097742 893 0.251262 0.493756 0.856502
-12.205449 -10.456641 -0.211335 883 0.117117 0.461180 -0.777930
-12.199231 -10.451295 -0.206301 967 0.206584 0.538106 -0.705498
-12.194057 -10.446842 -0.201290 1019 0.281025 0.602173 -0.633397
-12.190111 -10.443436 -0.196305 1061 0.337807 0.651188 -0.561671
-12.186885 -10.440649 -0.191332 1091 0.384228 0.691284 -0.490117
-12.184169 -10.438288 -0.186358 1125 0.423308 0.725259 -0.418548
-12.181667 -10.436124 -0.181403 1139 0.459301 0.756394 -0.347253
-12.179993 -10.434670 -0.176453 1163 0.483396 0.777306 -0.276030
-12.178432 -10.433300 -0.171502 1175 0.505845 0.797025 -0.204793
-12.177359 -10.432363 -0.166567 1183 0.521296 0.810513 -0.133786
-12.176749 -10.431810 -0.161631 1179 0.530065 0.818458 -0.062764
-12.176510 -10.431578 -0.156714 1191 0.533509 0.821807 0.007984
-12.176335 -10.431408 -0.151783 1189 0.536020 0.824249 0.078934
-12.176762 -10.431754 -0.146862 1187 0.529886 0.819268 0.149740
-12.177803 -10.432618 -0.141945 1181 0.514902 0.806836 0.220488
-12.178785 -10.433438 -0.137030 1173 0.500768 0.795035 0.291207
-12.179933 -10.434392 -0.132124 1157 0.484261 0.781313 0.361797
-12.181367 -10.435597 -0.127205 1137 0.463623 0.763969 0.432574
-12.183243 -10.437179 -0.122294 1111 0.436632 0.741218 0.503236
-12.186047 -10.439554 -0.117388 1101 0.396289 0.707036 0.573826
-12.188522 -10.441651 -0.112484 1053 0.360667 0.676862 0.644387
-12.192057 -10.444656 -0.107584 1007 0.309814 0.633624 0.714891
-12.196484 -10.448422 -0.102679 953 0.246117 0.579436 0.785466
-12.201345 -10.452557 -0.097781 855 0.176162 0.519951 0.855941
-12.204184 -10.449660 -0.206358 921 0.135326 0.561625 -0.706318
-12.199844 -10.445925 -0.201353 995 0.197760 0.615374 -0.634304
-12.195735 -10.442386 -0.196368 1043 0.256888 0.666296 -0.562577
-12.191789 -10.438979 -0.191380 1077 0.313670 0.715311 -0.490807
-12.189557 -10.437051 -0.186413 1117 0.345779 0.743056 -0.419340
-12.187612 -10.435361 -0.181466 1139 0.373772 0.767372 -0.348160
-12.185658 -10.433662 -0.176506 1157 0.401874 0.791810 -0.276793
-12.184492 -10.432635 -0.171563 1169 0.418656 0.806589 -0.205671
-12.182976 -10.431322 -0.166621 1187 0.440474 0.825484 -0.134563
-12.181521 -10.430042 -0.161681 1183 0.461400 0.843899 -0.063483
-12.181512 -10.430019 -0.156750 1179 0.461537 0.844228 0.007466
-12.182281 -10.430645 -0.151835 1181 0.450477 0.835227 0.078186
-12.182216 -10.430567 -0.146906 1173 0.451410 0.836352 0.149106
-12.182641 -10.430913 -0.141983 1173 0.445290 0.831371 0.219941
-12.184345 -10.432341 -0.137083 1167 0.420769 0.810829 0.290445
-12.184886 -10.432785 -0.132161 1165 0.412989 0.804435 0.361265
-12.185090 -10.432942 -0.127230 1129 0.410053 0.802170 0.432214
-12.187459 -10.434937 -0.122326 1095 0.375967 0.773478 0.502775
-12.190615 -10.437613 -0.117428 1065 0.330561 0.734974 0.573250
-12.193311 -10.439899 -0.112522 1041 0.291769 0.702069 0.643840
-12.197118 -10.443141 -0.107621 983 0.236991 0.655428 0.714358
-12.201821 -10.447136 -0.102713 909 0.169315 0.597947 0.784977
-12.207684 -10.452136 -0.097819 813 0.084966 0.526003 0.855394
-12.211194 -10.448679 -0.206431 839 0.034456 0.575745 -0.707368
-12.205397 -10.443703 -0.201414 929 0.117871 0.647346 -0.635181
-12.201622 -10.440450 -0.196427 993 0.172183 0.694151 -0.563426
-12.197506 -10.436904 -0.191429 1053 0.231407 0.745170 -0.491512
-12.193954 -10.433839 -0.186451 1079 0.282507 0.789272 -0.419886
-12.192492 -10.432566 -0.181500 1111 0.303557 0.807591 -0.348649
-12.191712 -10.431873 -0.176564 1139 0.314767 0.817553 -0.277627
-12.191323 -10.431509 -0.171637 1163 0.320366 0.822795 -0.206735
-12.189092 -10.429581 -0.166680 1159 0.352475 0.850540 -0.135411
-12.187197 -10.427925 -0.161730 1163 0.379741 0.874362 -0.064189
-12.187016 -10.427748 -0.156802 1155 0.382348 0.876914 0.006718
-12.186891 -10.427613 -0.151871 1161 0.384145 0.878849 0.077668
-12.187211 -10.427870 -0.146950 1163 0.379535 0.875157 0.148473
-12.188858 -10.429256 -0.142041 1159 0.355837 0.855206 0.219106
-12.189855 -10.430077 -0.137125 1141 0.341498 0.843405 0.289840
-12.190781 -10.430842 -0.132199 1121 0.328174 0.832386 0.360718
-12.192044 -10.431908 -0.127293 1115 0.309992 0.817059 0.431308
-12.194126 -10.433663 -0.122380 1087 0.280037 0.791797 0.501998
-12.197231 -10.436290 -0.117472 1051 0.235359 0.754007 0.572617
-12.199815 -10.438479 -0.112568 1013 0.198186 0.722501 0.643178
-12.203691 -10.441762 -0.107666 961 0.142420 0.675270 0.713711
-12.209667 -10.446858 -0.102770 871 0.056425 0.601940 0.784157
-12.213598 -10.444137 -0.201508 875 -0.000137 0.641102 -0.636534
-12.208153 -10.439447 -0.196490 951 0.078215 0.708573 -0.564332
-12.202822 -10.434869 -0.191479 1001 0.154921 0.774452 -0.492232
-12.199420 -10.431937 -0.186499 1039 0.203867 0.816633 -0.420577
-12.198252 -10.430908 -0.181557 1083 0.220676 0.831439 -0.349469
-12.196849 -10.429692 -0.176615 1111 0.240861 0.848935 -0.278361
-12.195730 -10.428699 -0.171671 1141 0.256957 0.863233 -0.207225
-12.194508 -10.427629 -0.166727 1143 0.274548 0.878615 -0.136088
-12.192334 -10.425743 -0.161770 1135 0.305821 0.905757 -0.064764
-12.191980 -10.425428 -0.156844 1133 0.310912 0.910286 0.006114
-12.193421 -10.426625 -0.151924 1149 0.290178 0.893065 0.076905
-12.194076 -10.427168 -0.147011 1147 0.280764 0.885257 0.147596
-12.194338 -10.427368 -0.142079 1141 0.276991 0.882375 0.218560
-12.195548 -10.428369 -0.137173 1135 0.259578 0.867981 0.289150
-12.196532 -10.429191 -0.132246 1103 0.245417 0.856153 0.360042
-12.197460 -10.429955 -0.127331 1083 0.232065 0.845161 0.430761
-12.199327 -10.431530 -0.122422 1049 0.205198 0.822493 0.501394
-12.202089 -10.433864 -0.117504 1007 0.165459 0.788915 0.572157
-12.205730 -10.436961 -0.112604 955 0.113069 0.744346 0.642660
-12.210999 -10.441437 -0.107714 903 0.037269 0.679949 0.713020
-12.217147 -10.446673 -0.102818 793 -0.051197 0.604602 0.783466
-12.223143 -10.445703 -0.201622 739 -0.137466 0.618571 -0.638174
-12.217304 -10.440685 -0.196597 887 -0.053461 0.690762 -0.565872
-12.210909 -10.435191 -0.191573 937 0.038559 0.769814 -0.493584
-12.207119 -10.431937 -0.186585 995 0.093090 0.816633 -0.421814
-12.204830 -10.429954 -0.181628 1043 0.126022 0.845175 -0.350491
-12.202664 -10.428077 -0.176661 1065 0.157185 0.872180 -0.279023
-12.200710 -10.426377 -0.171713 1087 0.185301 0.896632 -0.207829
-12.200315 -10.426020 -0.166775 1109 0.190982 0.901778 -0.136779
-12.199863 -10.425607 -0.161847 1115 0.197486 0.907720 -0.065872
-12.199288 -10.425087 -0.156910 1111 0.205760 0.915198 0.005164
-12.199944 -10.425630 -0.151987 1117 0.196333 0.907390 0.075998
-12.200099 -10.425740 -0.147057 1115 0.194097 0.905798 0.146934
-12.200039 -10.425653 -0.142126 1101 0.194961 0.907047 0.217883
-12.200750 -10.426238 -0.137213 1079 0.184725 0.898636 0.288574
-12.202232 -10.427476 -0.132294 1049 0.163401 0.880825 0.359351
-12.204316 -10.429232 -0.127383 1031 0.133418 0.855563 0.430013
-12.206864 -10.431385 -0.122477 1017 0.096753 0.824578 0.500603
-12.209790 -10.433867 -0.117571 955 0.054654 0.788860 0.571193
-12.214003 -10.437437 -0.112667 911 -0.005955 0.737499 0.641754
-12.218979 -10.441668 -0.107767 809 -0.077556 0.676629 0.712258
-12.223519 -10.445517 -0.102862 577 -0.142886 0.621247 0.782833
-12.225213 -10.440988 -0.196690 737 -0.167257 0.686412 -0.567210
-12.218989 -10.435648 -0.191666 877 -0.077707 0.763241 -0.494922
-12.215587 -10.432717 -0.186676 939 -0.028747 0.805409 -0.423124
-12.212477 -10.430028 -0.181704 977 0.016000 0.844105 -0.351584
-12.209638 -10.427576 -0.176730 1015 0.056850 0.879384 -0.280016
-12.207899 -10.426075 -0.171780 1051 0.081865 0.900982 -0.208793
-12.207005 -10.425285 -0.166836 1063 0.094736 0.912344 -0.137656
-12.206216 -10.424584 -0.161900 1055 0.106084 0.922430 -0.066635
-12.206762 -10.425022 -0.156977 1067 0.098222 0.916131 0.004200
-12.207082 -10.425279 -0.152056 1073 0.093625 0.912440 0.075006
-12.206016 -10.424334 -0.147112 1059 0.108966 0.926038 0.146142
-12.206440 -10.424679 -0.142180 1057 0.102860 0.921071 0.217106
-12.208209 -10.426157 -0.137268 1055 0.077405 0.899802 0.287783
-12.209750 -10.427452 -0.132349 1017 0.055231 0.881168 0.358560
-12.211290 -10.428747 -0.127442 979 0.033070 0.862533 0.429164
-12.214331 -10.431313 -0.122534 945 -0.010676 0.825621 0.499783
-12.218700 -10.435021 -0.117638 911 -0.073550 0.772257 0.570229
-12.223133 -10.438779 -0.112734 815 -0.137329 0.718192 0.640790
-12.229232 -10.443968 -0.107838 597 -0.225081 0.643531 0.711236
-12.230686 -10.439288 -0.191807 703 -0.246007 0.710865 -0.496951
-12.225847 -10.435135 -0.186797 849 -0.176382 0.770624 -0.424865
-12.221330 -10.431253 -0.181801 921 -0.111381 0.826472 -0.352980
-12.218542 -10.428852 -0.176829 973 -0.071272 0.861024 -0.281440
-12.216253 -10.426868 -0.171872 999 -0.038339 0.889565 -0.210117
-12.213629 -10.424612 -0.166907 1013 -0.000576 0.922032 -0.138678
-12.213061 -10.424101 -0.161970 1023 0.007588 0.929386 -0.067642
-12.213502 -10.424447 -0.157036 1031 0.001249 0.924405 0.003351
-12.213427 -10.424361 -0.152108 1041 0.002333 0.925640 0.074258
-12.213583 -10.424471 -0.147177 1039 0.000082 0.924062 0.145207
-12.214016 -10.424810 -0.142254 1021 -0.006147 0.919177 0.216042
-12.215671 -10.426203 -0.137335 997 -0.029955 0.899143 0.286819
-12.218219 -10.428357 -0.132429 977 -0.066620 0.868146 0.357409
-12.220209 -10.430022 -0.127509 933 -0.095258 0.844187 0.428200
-12.223521 -10.432824 -0.122599 885 -0.142914 0.803872 0.498847
-12.228739 -10.437251 -0.117710 791 -0.217987 0.740175 0.569193
-12.233222 -10.441058 -0.112805 567 -0.282493 0.685397 0.639768
-12.233460 -10.435555 -0.186879 537 -0.285924 0.764572 -0.426045
-12.231344 -10.433724 -0.181912 763 -0.255475 0.790918 -0.354577
-12.227441 -10.430374 -0.176924 847 -0.199311 0.839124 -0.282807
-12.224817 -10.428104 -0.171959 899 -0.161562 0.871782 -0.211368
-12.223473 -10.426930 -0.167006 945 -0.142214 0.888674 -0.140102
-12.221625 -10.425338 -0.162047 947 -0.115635 0.911589 -0.068750
-12.221501 -10.425201 -0.157118 953 -0.113851 0.913551 0.002171
-12.221606 -10.425264 -0.152188 959 -0.115360 0.912646 0.073106
-12.221654 -10.425282 -0.147248 961 -0.116046 0.912399 0.144186
-12.222852 -10.426285 -0.142331 941 -0.133281 0.897963 0.214934
-12.224848 -10.427955 -0.137419 919 -0.162001 0.873936 0.285610
-12.226896 -10.429677 -0.132498 883 -0.191476 0.849154 0.356416
-12.229437 -10.431823 -0.127583 823 -0.228031 0.818280 0.427135
-12.233700 -10.435442 -0.122689 711 -0.289368 0.766205 0.497552
-12.237568 -10.432802 -0.177044 619 -0.345024 0.804188 -0.284534
-12.234386 -10.430072 -0.172062 757 -0.299248 0.843473 -0.212850
-12.232771 -10.428660 -0.167101 819 -0.276003 0.863782 -0.141469
-12.231981 -10.427974 -0.162156 857 -0.264641 0.873662 -0.070318
-12.230965 -10.427079 -0.157212 863 -0.250014 0.886533 0.000819
-12.229892 -10.426143 -0.152258 871 -0.234576 0.900008 0.072099
-12.229832 -10.426057 -0.147328 863 -0.233712 0.901243 0.143034
-12.232215 -10.428062 -0.142414 839 -0.268003 0.872386 0.213739
-12.234704 -10.430160 -0.137501 801 -0.303817 0.842211 0.284430
-12.237752 -10.432732 -0.132594 713 -0.347673 0.805203 0.355034
-12.239013 -10.433783 -0.127665 513 -0.365813 0.790081 0.425955
-12.244217 -10.432322 -0.162283 489 -0.440694 0.811103 -0.072145
-12.242764 -10.431056 -0.157332 571 -0.419795 0.829312 -0.000908
-12.242312 -10.430643 -0.152384 581 -0.413291 0.835254 0.070286
-12.242795 -10.431031 -0.147452 543 -0.420234 0.829669 0.141250
