104
-25.450600 -21.979187 -0.185061 983 0.879878 -0.223722 -0.439611
-25.445831 -21.975029 -0.174708 1059 0.948487 -0.163895 -0.290647
-25.443901 -21.973301 -0.164370 1079 0.976261 -0.139031 -0.141899
-25.443504 -21.972921 -0.154054 1073 0.981969 -0.133569 0.006532
-25.445158 -21.974291 -0.143733 1057 0.958175 -0.153274 0.155036
-25.454540 -21.969069 -0.195420 1047 0.823179 -0.078133 -0.588662
-25.448389 -21.963711 -0.185058 1117 0.911685 -0.001043 -0.439568
-25.444847 -21.960598 -0.174718 1153 0.962648 0.043746 -0.290792
-25.442402 -21.958443 -0.164382 1167 0.997832 0.074757 -0.142072
-25.442902 -21.958815 -0.154059 1163 0.990641 0.069406 0.006460
-25.446323 -21.961727 -0.143750 1143 0.941407 0.027499 0.154791
-25.449879 -21.964741 -0.133449 1105 0.890252 -0.015863 0.303007
-25.454126 -21.968351 -0.123134 1015 0.829134 -0.067814 0.451424
-25.461733 -21.961756 -0.205792 1009 0.719688 0.027087 -0.737899
-25.452213 -21.953491 -0.195407 1103 0.856660 0.146001 -0.588475
-25.447454 -21.949341 -0.185056 1151 0.925133 0.205719 -0.439540
-25.446556 -21.948517 -0.174731 1189 0.938059 0.217575 -0.290979
-25.446123 -21.948095 -0.164414 1221 0.944289 0.223640 -0.142532
-25.446178 -21.948093 -0.154094 1207 0.943493 0.223668 0.005957
-25.446892 -21.948652 -0.143769 1193 0.933229 0.215626 0.154518
-25.448652 -21.950113 -0.133458 1151 0.907898 0.194604 0.302878
-25.455132 -21.955658 -0.123160 1097 0.814671 0.114825 0.451050
-25.464655 -21.963823 -0.112866 997 0.677644 -0.002662 0.599165
-25.474087 -21.958891 -0.216203 947 0.541934 0.068308 -0.887698
-25.461845 -21.948280 -0.205794 1081 0.718069 0.220978 -0.737928
-25.455196 -21.942501 -0.195422 1145 0.813738 0.304133 -0.588691
-25.451548 -21.939310 -0.185084 1199 0.866238 0.350047 -0.439943
-25.449381 -21.937386 -0.174758 1223 0.897414 0.377737 -0.291367
-25.448769 -21.936808 -0.164431 1243 0.906224 0.386053 -0.142777
-25.449112 -21.937050 -0.154118 1253 0.901284 0.382567 0.005611
-25.449873 -21.937658 -0.143805 1225 0.890334 0.373813 0.154000
-25.452539 -21.939898 -0.133489 1191 0.851967 0.341594 0.302432
-25.457842 -21.944416 -0.123189 1151 0.775673 0.276579 0.450633
-25.464264 -21.949902 -0.112891 1067 0.683270 0.197651 0.598806
-25.475578 -21.946877 -0.216205 991 0.520473 0.241177 -0.887727
-25.466539 -21.939039 -0.205817 1103 0.650529 0.353944 -0.738259
-25.461342 -21.934507 -0.195468 1179 0.725314 0.419150 -0.589352
-25.457466 -21.931110 -0.185121 1219 0.781080 0.468028 -0.440475
-25.455196 -21.929113 -0.174794 1249 0.813738 0.496761 -0.291885
-25.453695 -21.927761 -0.164464 1277 0.835336 0.516219 -0.143252
-25.453461 -21.927517 -0.154145 1267 0.838712 0.519732 0.005223
-25.454847 -21.928659 -0.143838 1249 0.818760 0.503293 0.153525
-25.457994 -21.931322 -0.133529 1219 0.773478 0.464981 0.301856
-25.460754 -21.933634 -0.123223 1163 0.733767 0.431719 0.450144
-25.465641 -21.937794 -0.112914 1097 0.663455 0.371864 0.598475
-25.483522 -21.953150 -0.102639 943 0.406169 0.150914 0.746316
-25.482033 -21.938362 -0.216243 1007 0.427603 0.363686 -0.888273
-25.473949 -21.931347 -0.205871 1115 0.543910 0.464625 -0.739036
-25.467514 -21.925760 -0.195508 1183 0.636506 0.545008 -0.589928
-25.462696 -21.921555 -0.185157 1215 0.705829 0.605521 -0.440993
-25.461313 -21.920313 -0.174834 1263 0.725726 0.623387 -0.292460
-25.459318 -21.918537 -0.164506 1279 0.754432 0.648938 -0.143856
-25.459082 -21.918295 -0.154189 1269 0.757835 0.652423 0.004590
-25.461123 -21.920000 -0.143876 1227 0.728470 0.627888 0.152978
-25.463573 -21.922056 -0.133572 1219 0.693205 0.598304 0.301237
-25.467718 -21.925570 -0.123269 1177 0.633569 0.547752 0.449482
-25.474192 -21.931093 -0.112960 1101 0.540425 0.468275 0.597813
-25.479841 -21.935905 -0.102658 955 0.459136 0.399034 0.746043
-25.489798 -21.930679 -0.216296 1003 0.315879 0.474230 -0.889036
-25.480980 -21.923040 -0.205918 1115 0.442752 0.584143 -0.739712
-25.474180 -21.917130 -0.195548 1167 0.540589 0.669191 -0.590504
-25.469505 -21.913061 -0.185204 1203 0.607854 0.727729 -0.441669
-25.468346 -21.912008 -0.174882 1247 0.624540 0.742878 -0.293151
-25.467670 -21.911381 -0.164555 1243 0.634255 0.751907 -0.144561
-25.467737 -21.911386 -0.154246 1267 0.633295 0.751825 0.003770
-25.468277 -21.911797 -0.143922 1233 0.625528 0.745924 0.152316
-25.470661 -21.913805 -0.133618 1207 0.591223 0.717026 0.300575
-25.475143 -21.917601 -0.123313 1171 0.526730 0.662413 0.448849
-25.480968 -21.922571 -0.113009 1081 0.442917 0.590894 0.597108
-25.490774 -21.930946 -0.102712 955 0.301828 0.470388 0.745266
-25.500559 -21.926111 -0.216369 965 0.161041 0.539958 -0.890086
-25.490656 -21.917538 -0.205975 1083 0.303529 0.663318 -0.740532
-25.484100 -21.911861 -0.195615 1159 0.397854 0.744991 -0.591468
-25.480160 -21.908417 -0.185267 1193 0.454553 0.794555 -0.442576
-25.476946 -21.905603 -0.174935 1209 0.500796 0.835034 -0.293914
-25.475061 -21.903921 -0.164607 1211 0.527910 0.859240 -0.145309
-25.475998 -21.904686 -0.154292 1227 0.514435 0.848235 0.003108
-25.478228 -21.906544 -0.143989 1209 0.482353 0.821505 0.151352
-25.479656 -21.907728 -0.133670 1181 0.461798 0.804462 0.299827
-25.484310 -21.911674 -0.123364 1145 0.394835 0.747681 0.448115
-25.492903 -21.919008 -0.113074 1061 0.271200 0.642159 0.596173
-25.503176 -21.914753 -0.206056 1013 0.123388 0.703386 -0.741698
-25.495134 -21.907791 -0.195683 1099 0.239091 0.803556 -0.592446
-25.490257 -21.903542 -0.185330 1163 0.309265 0.864701 -0.443482
-25.488197 -21.901733 -0.175004 1181 0.338904 0.890718 -0.294907
-25.486986 -21.900631 -0.164681 1197 0.356331 0.906581 -0.146374
-25.487144 -21.900713 -0.154359 1199 0.354053 0.905401 0.002144
-25.488811 -21.902096 -0.144040 1183 0.330067 0.885504 0.150619
-25.490902 -21.903849 -0.133729 1135 0.299989 0.860283 0.298978
-25.495451 -21.907696 -0.123422 1083 0.234535 0.804929 0.447281
-25.501434 -21.912790 -0.113116 983 0.148444 0.731626 0.595568
-25.507708 -21.905058 -0.195762 1029 0.058181 0.842883 -0.593583
-25.502110 -21.900194 -0.185405 1097 0.138729 0.912865 -0.444561
-25.500107 -21.898426 -0.175076 1141 0.167545 0.938306 -0.295942
-25.499779 -21.898094 -0.164748 1165 0.172265 0.943081 -0.147338
-25.498499 -21.896942 -0.154416 1165 0.190680 0.959657 0.001324
-25.498114 -21.896553 -0.144099 1133 0.196224 0.965256 0.149770
-25.502035 -21.899879 -0.133796 1095 0.139799 0.917394 0.298014
-25.509310 -21.906065 -0.123494 1001 0.035128 0.828393 0.446245
-25.512819 -21.895533 -0.175147 1055 -0.015369 0.979938 -0.296964
-25.511436 -21.894295 -0.164815 1087 0.004528 0.997749 -0.148302
-25.511364 -21.894184 -0.154496 1081 0.005571 0.999341 0.000173
-25.513592 -21.896038 -0.144174 1049 -0.026483 0.972665 0.148691
-25.518362 -21.900087 -0.133876 1003 -0.095120 0.914402 0.296863
