331
-15.726338 -13.302867 -0.175543 779 0.702439 -0.480213 -0.267090
-15.720298 -13.297729 -0.169157 851 0.789354 -0.406279 -0.175205
-15.718172 -13.295904 -0.162810 899 0.819940 -0.380029 -0.083881
-15.718001 -13.295722 -0.156491 913 0.822397 -0.377408 0.007040
-15.717881 -13.295588 -0.150162 903 0.824126 -0.375473 0.098104
-15.718480 -13.296062 -0.143849 861 0.815508 -0.382307 0.188939
-15.723434 -13.300227 -0.137560 797 0.744223 -0.442230 0.279428
-15.730036 -13.297655 -0.188214 787 0.649240 -0.405222 -0.449407
-15.719929 -13.289072 -0.181780 913 0.794665 -0.281725 -0.356831
-15.715969 -13.285693 -0.175423 969 0.851638 -0.233108 -0.265363
-15.714553 -13.284472 -0.169091 995 0.872015 -0.215544 -0.174255
-15.713992 -13.283961 -0.162764 1021 0.880084 -0.208189 -0.083219
-15.713758 -13.283731 -0.156447 1035 0.883446 -0.204882 0.007673
-15.713754 -13.283693 -0.150126 1025 0.883514 -0.204333 0.098622
-15.714018 -13.283894 -0.143805 1003 0.879713 -0.207215 0.189572
-15.716022 -13.285545 -0.137503 971 0.850883 -0.230981 0.280248
-15.718904 -13.287958 -0.131207 935 0.809416 -0.265698 0.370838
-15.723916 -13.292163 -0.124918 855 0.737293 -0.326198 0.461327
-15.728792 -13.288397 -0.194510 847 0.667133 -0.272010 -0.539996
-15.720354 -13.281240 -0.188097 949 0.788545 -0.169040 -0.447723
-15.716385 -13.277854 -0.181731 1017 0.845655 -0.120314 -0.356126
-15.714767 -13.276454 -0.175400 1051 0.868928 -0.100170 -0.265032
-15.713414 -13.275278 -0.169068 1075 0.888399 -0.083251 -0.173924
-15.712071 -13.274112 -0.162735 1089 0.907720 -0.066469 -0.082802
-15.712234 -13.274218 -0.156424 1091 0.905387 -0.067992 0.008004
-15.712340 -13.274267 -0.150105 1089 0.903850 -0.068706 0.098924
-15.712490 -13.274373 -0.143794 1067 0.901696 -0.070229 0.189730
-15.714710 -13.276217 -0.137492 1055 0.869751 -0.096767 0.280406
-15.716157 -13.277396 -0.131182 1021 0.848935 -0.113727 0.371198
-15.718821 -13.279618 -0.124888 981 0.810609 -0.145699 0.461759
-15.724442 -13.284344 -0.118596 893 0.729732 -0.213692 0.552291
-15.730363 -13.281358 -0.200833 881 0.644533 -0.170728 -0.630975
-15.723830 -13.275810 -0.194439 981 0.738528 -0.090908 -0.538975
-15.720466 -13.272940 -0.188078 1027 0.786939 -0.049605 -0.447450
-15.716388 -13.269464 -0.181721 1079 0.845614 0.000412 -0.355982
-15.712863 -13.266456 -0.175372 1115 0.896330 0.043691 -0.264630
-15.711128 -13.264960 -0.169041 1119 0.921291 0.065207 -0.173536
-15.711009 -13.264824 -0.162722 1141 0.923006 0.067169 -0.082615
-15.711280 -13.265019 -0.156411 1133 0.919109 0.064356 0.008190
-15.711778 -13.265412 -0.150099 1143 0.911946 0.058702 0.099011
-15.712043 -13.265599 -0.143788 1121 0.908131 0.056013 0.189817
-15.712982 -13.266370 -0.137482 1101 0.894615 0.044926 0.280550
-15.715480 -13.268446 -0.131178 1087 0.858677 0.015053 0.371255
-15.717983 -13.270530 -0.124884 1047 0.822657 -0.014929 0.461816
-15.721713 -13.273646 -0.118582 993 0.768991 -0.059773 0.552493
-15.727616 -13.278598 -0.112299 911 0.684052 -0.131017 0.642896
-15.735868 -13.277804 -0.207201 843 0.565316 -0.119600 -0.722601
-15.726480 -13.269847 -0.200764 963 0.700409 -0.005105 -0.629982
-15.722179 -13.266188 -0.194399 1043 0.762281 0.047546 -0.538399
-15.718377 -13.262945 -0.188040 1083 0.816990 0.094201 -0.446903
-15.715468 -13.260464 -0.181696 1117 0.858842 0.129906 -0.355622
-15.713849 -13.259064 -0.175366 1139 0.882142 0.150049 -0.264543
-15.713222 -13.258506 -0.169051 1173 0.891171 0.158077 -0.173680
-15.712494 -13.257851 -0.162724 1169 0.901641 0.167504 -0.082644
-15.711417 -13.256922 -0.156401 1165 0.917133 0.180869 0.008335
-15.710966 -13.256501 -0.150084 1167 0.923623 0.186920 0.099227
-15.712129 -13.257455 -0.143776 1165 0.906896 0.173198 0.189989
-15.713902 -13.258915 -0.137476 1139 0.881373 0.152190 0.280637
-15.716182 -13.260814 -0.131184 1129 0.848578 0.124870 0.371169
-15.718571 -13.262789 -0.124880 1097 0.814205 0.096451 0.461874
-15.721690 -13.265398 -0.118582 1041 0.769320 0.058908 0.552493
-15.726369 -13.269303 -0.112296 977 0.702000 0.002717 0.642939
-15.734505 -13.276143 -0.106020 873 0.584939 -0.095697 0.733241
-15.743895 -13.276371 -0.213597 743 0.449832 -0.098976 -0.814630
-15.733439 -13.267529 -0.207146 915 0.600266 0.028253 -0.721809
-15.728139 -13.263021 -0.200766 1021 0.676532 0.093103 -0.630011
-15.723882 -13.259404 -0.194399 1091 0.737787 0.145151 -0.538399
-15.719132 -13.255363 -0.188036 1109 0.806122 0.203290 -0.446845
-15.715824 -13.252544 -0.181685 1143 0.853724 0.243852 -0.355464
-15.714987 -13.251802 -0.175360 1161 0.865772 0.254528 -0.264457
-15.714760 -13.251578 -0.169051 1181 0.869037 0.257753 -0.173680
-15.713916 -13.250841 -0.162726 1183 0.881181 0.268360 -0.082673
-15.713181 -13.250181 -0.156411 1179 0.891761 0.277855 0.008190
-15.712664 -13.249725 -0.150094 1175 0.899198 0.284414 0.099083
-15.713658 -13.250522 -0.143788 1183 0.884886 0.272957 0.189817
-15.715605 -13.252132 -0.137488 1173 0.856880 0.249780 0.280464
-15.717269 -13.253504 -0.131188 1165 0.832935 0.230048 0.371111
-15.719266 -13.255164 -0.124886 1119 0.804201 0.206158 0.461788
-15.722329 -13.257707 -0.118590 1089 0.760126 0.169576 0.552378
-15.726391 -13.261109 -0.112296 1033 0.701685 0.120616 0.642939
-15.731860 -13.265678 -0.106015 941 0.622989 0.054874 0.733313
-15.745699 -13.277316 -0.099757 779 0.423871 -0.112575 0.823356
-15.743905 -13.268305 -0.213576 845 0.449681 0.017084 -0.814327
-15.735235 -13.260972 -0.207154 965 0.574428 0.122592 -0.721925
-15.728586 -13.255327 -0.200753 1057 0.670097 0.203812 -0.629824
-15.724061 -13.251484 -0.194388 1105 0.735207 0.259111 -0.538241
-15.721536 -13.249324 -0.188042 1151 0.771543 0.290191 -0.446932
-15.719909 -13.247930 -0.181712 1171 0.794953 0.310253 -0.355853
-15.718449 -13.246667 -0.175389 1193 0.815961 0.328421 -0.264874
-15.716771 -13.245225 -0.169058 1207 0.840098 0.349168 -0.173781
-15.714913 -13.243627 -0.162730 1189 0.866828 0.372166 -0.082730
-15.714243 -13.243026 -0.156415 1201 0.876475 0.380811 0.008133
-15.714508 -13.243215 -0.150103 1203 0.872660 0.378094 0.098953
-15.715005 -13.243608 -0.143799 1183 0.865511 0.372427 0.189658
-15.716501 -13.244835 -0.137492 1179 0.843981 0.354781 0.280406
-15.717775 -13.245878 -0.131194 1175 0.825649 0.339769 0.371025
-15.719829 -13.247578 -0.124892 1149 0.796105 0.315316 0.461701
-15.723618 -13.250737 -0.118601 1125 0.741588 0.269856 0.552219
-15.728237 -13.254599 -0.112315 1077 0.675119 0.214295 0.642665
-15.733357 -13.258880 -0.106026 1005 0.601446 0.152698 0.733155
-15.740057 -13.264487 -0.099738 881 0.505049 0.072013 0.823629
-15.743397 -13.259818 -0.213547 911 0.456995 0.139195 -0.813910
-15.735849 -13.253435 -0.207140 997 0.565591 0.231036 -0.721723
-15.731040 -13.249350 -0.200768 1077 0.634790 0.289821 -0.630040
-15.727233 -13.246116 -0.194409 1133 0.689568 0.336352 -0.538543
-15.723440 -13.242882 -0.188050 1161 0.744140 0.382883 -0.447047
-15.721197 -13.240961 -0.181714 1187 0.776414 0.410519 -0.355881
-15.720020 -13.239937 -0.175389 1223 0.793347 0.425256 -0.264874
-15.718110 -13.238303 -0.169060 1215 0.820832 0.448762 -0.173809
-15.717202 -13.237508 -0.162735 1217 0.833896 0.460206 -0.082802
-15.717198 -13.237469 -0.156426 1229 0.833950 0.460769 0.007975
-15.717137 -13.237389 -0.150116 1217 0.834829 0.461921 0.098766
-15.717627 -13.237761 -0.143815 1201 0.827789 0.456570 0.189428
-15.719848 -13.239605 -0.137520 1193 0.795831 0.430032 0.280004
-15.720729 -13.240318 -0.131217 1171 0.783152 0.419768 0.370694
-15.723061 -13.242253 -0.124913 1159 0.749602 0.391926 0.461399
-15.726172 -13.244842 -0.118626 1139 0.704827 0.354685 0.551860
-15.729018 -13.247206 -0.112320 1105 0.663881 0.320668 0.642594
-15.734320 -13.251629 -0.106040 1025 0.587601 0.257026 0.732953
-15.740838 -13.257094 -0.099753 937 0.493811 0.178385 0.823414
-15.744059 -13.251995 -0.213534 941 0.447472 0.251756 -0.813723
-15.736670 -13.245749 -0.207127 1031 0.553790 0.341621 -0.721536
-15.732146 -13.241906 -0.200762 1093 0.618873 0.396921 -0.629953
-15.729352 -13.239520 -0.194407 1143 0.659078 0.431253 -0.538514
-15.727001 -13.237510 -0.188071 1169 0.692903 0.460179 -0.447349
-15.724309 -13.235208 -0.181736 1197 0.731640 0.493303 -0.356198
-15.722625 -13.233759 -0.175406 1213 0.755873 0.514147 -0.265119
-15.722063 -13.233262 -0.169089 1239 0.763955 0.521296 -0.174227
-15.721105 -13.232416 -0.162764 1239 0.777745 0.533468 -0.083219
-15.720535 -13.231912 -0.156449 1229 0.785937 0.540726 0.007644
-15.721033 -13.232292 -0.150145 1231 0.778775 0.535251 0.098349
-15.721297 -13.232493 -0.143834 1241 0.774974 0.532356 0.189155
-15.721794 -13.232872 -0.137532 1199 0.767824 0.526909 0.279831
-15.723625 -13.234388 -0.131230 1191 0.741478 0.505091 0.370507
-15.726129 -13.236457 -0.124938 1187 0.705458 0.475328 0.461039
-15.728683 -13.238574 -0.118643 1161 0.668697 0.444865 0.551615
-15.732361 -13.241643 -0.112341 1121 0.615785 0.400708 0.642291
-15.737656 -13.246059 -0.106062 1057 0.539601 0.337162 0.732637
-15.742906 -13.250449 -0.099772 967 0.464062 0.274000 0.823140
-15.755803 -13.261279 -0.093510 805 0.278487 0.118173 0.913241
-15.748693 -13.247514 -0.213570 955 0.380784 0.316236 -0.814241
-15.741746 -13.241644 -0.207169 1039 0.480748 0.400694 -0.722140
-15.736831 -13.237473 -0.200787 1101 0.551471 0.460714 -0.630313
-15.732862 -13.234101 -0.194428 1147 0.608568 0.509221 -0.538817
-15.729216 -13.231004 -0.188080 1167 0.661040 0.553790 -0.447478
-15.726530 -13.228706 -0.181735 1187 0.699681 0.586846 -0.356183
-15.725686 -13.227969 -0.175419 1219 0.711825 0.597453 -0.265306
-15.724951 -13.227323 -0.169104 1247 0.722405 0.606756 -0.174442
-15.722825 -13.225498 -0.162776 1239 0.752991 0.633006 -0.083392
-15.721973 -13.224755 -0.156451 1223 0.765245 0.643696 0.007615
-15.723528 -13.226024 -0.150162 1231 0.742878 0.625446 0.098104
-15.724134 -13.226507 -0.143849 1233 0.734151 0.618489 0.188939
-15.724406 -13.226700 -0.137547 1199 0.730240 0.615717 0.279615
-15.726237 -13.228215 -0.131247 1201 0.703894 0.593913 0.370263
-15.729182 -13.230661 -0.124960 1191 0.661521 0.558716 0.460723
-15.732636 -13.233531 -0.118660 1171 0.611820 0.517427 0.551370
-15.735431 -13.235847 -0.112366 1125 0.571615 0.484096 0.641932
-15.739435 -13.239184 -0.106072 1069 0.513996 0.436083 0.732493
-15.745852 -13.244552 -0.099787 991 0.421661 0.358856 0.822924
-15.756240 -13.253259 -0.093518 841 0.272202 0.233575 0.913126
-15.751512 -13.241661 -0.213583 959 0.340235 0.400447 -0.814428
-15.746080 -13.237071 -0.207194 1041 0.418382 0.466491 -0.722500
-15.741158 -13.232894 -0.200821 1109 0.489214 0.526593 -0.630802
-15.737066 -13.229433 -0.194464 1147 0.548081 0.576390 -0.539335
-15.733433 -13.226336 -0.188105 1171 0.600362 0.620959 -0.447838
-15.731459 -13.224656 -0.181777 1201 0.628766 0.645123 -0.356788
-15.730348 -13.223680 -0.175454 1225 0.644752 0.659174 -0.265809
-15.728488 -13.222094 -0.169123 1235 0.671510 0.681994 -0.174716
-15.727196 -13.220973 -0.162800 1227 0.690103 0.698117 -0.083737
-15.727301 -13.221025 -0.156491 1247 0.688594 0.697362 0.007040
-15.727792 -13.221412 -0.150187 1247 0.681527 0.691805 0.097745
-15.727902 -13.221469 -0.143877 1213 0.679936 0.690982 0.188536
-15.729451 -13.222744 -0.137579 1211 0.657651 0.672635 0.279155
-15.731012 -13.224020 -0.131279 1187 0.635188 0.654275 0.369802
-15.733119 -13.225754 -0.124978 1175 0.604877 0.629329 0.460464
-15.736629 -13.228679 -0.118689 1159 0.554380 0.587244 0.550953
-15.739468 -13.231037 -0.112393 1119 0.513530 0.553310 0.641543
-15.743936 -13.234755 -0.106108 1063 0.449242 0.499821 0.731975
-15.750678 -13.240390 -0.099820 987 0.352228 0.418739 0.822450
-15.759560 -13.247824 -0.093539 833 0.224436 0.311776 0.912824
-15.757063 -13.238115 -0.213622 961 0.260360 0.451465 -0.814989
-15.750965 -13.232965 -0.207236 1049 0.348098 0.525564 -0.723104
-15.745920 -13.228699 -0.200856 1097 0.420687 0.586956 -0.631306
-15.741220 -13.224718 -0.194491 1141 0.488309 0.644231 -0.539723
-15.739094 -13.222894 -0.188155 1175 0.518909 0.670481 -0.448558
-15.736409 -13.220611 -0.181809 1195 0.557536 0.703331 -0.357248
-15.732870 -13.217601 -0.175469 1199 0.608458 0.746638 -0.266025
-15.731801 -13.216681 -0.169144 1221 0.623840 0.759879 -0.175018
-15.732466 -13.217204 -0.162842 1237 0.614276 0.752346 -0.084342
-15.732018 -13.216788 -0.156523 1247 0.620712 0.758329 0.006579
-15.731887 -13.216656 -0.150216 1249 0.622605 0.760236 0.097327
-15.731535 -13.216330 -0.143906 1209 0.627669 0.764929 0.188119
-15.733149 -13.217652 -0.137608 1199 0.604451 0.745897 0.278737
-15.736115 -13.220105 -0.131312 1195 0.561762 0.710604 0.369327
-15.737829 -13.221510 -0.125012 1171 0.537104 0.690392 0.459975
-15.740000 -13.223306 -0.118720 1149 0.505873 0.664553 0.550507
-15.743505 -13.226225 -0.112420 1119 0.455445 0.622550 0.641155
-15.747807 -13.229799 -0.106125 1063 0.393545 0.571121 0.731730
-15.752483 -13.233704 -0.099839 977 0.326253 0.514943 0.822176
-15.763046 -13.242547 -0.093569 829 0.174269 0.387699 0.912392
-15.762339 -13.234338 -0.213662 953 0.184450 0.505818 -0.815565
-15.756516 -13.229421 -0.207276 1041 0.268223 0.576568 -0.723680
-15.751252 -13.224960 -0.200896 1087 0.343968 0.640746 -0.631881
-15.746613 -13.221035 -0.194531 1129 0.410725 0.697225 -0.540299
-15.742689 -13.217706 -0.188174 1155 0.467177 0.745128 -0.448831
-15.740388 -13.215744 -0.181836 1183 0.500288 0.773354 -0.357637
-15.739378 -13.214863 -0.175513 1213 0.514819 0.786033 -0.266658
-15.737462 -13.213224 -0.169182 1223 0.542387 0.809608 -0.175565
-15.736227 -13.212158 -0.162871 1231 0.560157 0.824949 -0.084759
-15.736055 -13.211976 -0.156552 1229 0.562627 0.827570 0.006162
-15.736597 -13.212411 -0.150248 1229 0.554833 0.821313 0.096867
-15.737318 -13.212976 -0.143944 1199 0.544459 0.813175 0.187572
-15.737808 -13.213362 -0.137631 1187 0.537406 0.807632 0.278406
-15.739646 -13.214869 -0.131340 1185 0.510964 0.785951 0.368924
-15.741599 -13.216474 -0.125041 1167 0.482861 0.762857 0.459558
-15.744494 -13.218872 -0.118744 1139 0.441201 0.728346 0.550162
-15.748505 -13.222214 -0.112452 1095 0.383501 0.680265 0.640694
-15.753307 -13.226206 -0.106165 1057 0.314397 0.622825 0.731155
-15.759781 -13.231614 -0.099879 967 0.221252 0.545008 0.821601
-15.772083 -13.241910 -0.093619 791 0.044240 0.396866 0.911673
-15.769879 -13.232299 -0.213742 941 0.075951 0.535155 -0.816716
-15.762376 -13.225972 -0.207324 1011 0.183915 0.626187 -0.724371
-15.755996 -13.220581 -0.200930 1063 0.275715 0.703757 -0.632371
-15.750949 -13.216315 -0.194558 1105 0.348331 0.765135 -0.540687
-15.747983 -13.213792 -0.188214 1153 0.391006 0.801443 -0.449407
-15.745616 -13.211782 -0.181878 1159 0.425064 0.830355 -0.358241
-15.744216 -13.210574 -0.175557 1187 0.445208 0.847741 -0.267291
-15.742372 -13.208989 -0.169226 1199 0.471746 0.870547 -0.176198
-15.741121 -13.207911 -0.162903 1213 0.489736 0.886066 -0.085219
-15.741169 -13.207919 -0.156594 1211 0.489050 0.885943 0.005558
-15.741891 -13.208497 -0.150290 1205 0.478662 0.877627 0.096263
-15.743452 -13.209774 -0.143990 1211 0.456199 0.859254 0.186910
-15.744442 -13.210578 -0.137684 1197 0.441956 0.847686 0.277644
-15.746902 -13.212605 -0.131392 1179 0.406553 0.818513 0.368176
-15.749349 -13.214620 -0.125088 1167 0.371357 0.789533 0.458881
-15.750903 -13.215901 -0.118788 1129 0.348990 0.771090 0.549529
-15.754799 -13.219135 -0.112498 1077 0.292936 0.724559 0.640032
-15.759441 -13.222990 -0.106202 1019 0.226137 0.669095 0.730622
-15.764798 -13.227454 -0.099911 921 0.149061 0.604863 0.821140
-15.782546 -13.234488 -0.213871 843 -0.106304 0.503664 -0.818572
-15.768370 -13.222569 -0.207371 983 0.097673 0.675147 -0.725047
-15.761648 -13.216899 -0.200978 1039 0.194385 0.756737 -0.633061
-15.757116 -13.213061 -0.194615 1097 0.259592 0.811954 -0.541507
-15.753469 -13.209978 -0.188256 1123 0.312064 0.856317 -0.450011
-15.751444 -13.208250 -0.181927 1155 0.341210 0.881181 -0.358946
-15.749927 -13.206946 -0.175595 1183 0.363041 0.899939 -0.267838
-15.748807 -13.205976 -0.169272 1195 0.379151 0.913908 -0.176860
-15.748631 -13.205789 -0.162962 1199 0.381689 0.916598 -0.086068
-15.748062 -13.205285 -0.156645 1201 0.389868 0.923843 0.004824
-15.747262 -13.204590 -0.150321 1193 0.401380 0.933846 0.095816
-15.747817 -13.205025 -0.144017 1183 0.393394 0.927589 0.186522
-15.749044 -13.206012 -0.137711 1169 0.375734 0.913387 0.277255
-15.750768 -13.207424 -0.131411 1147 0.350938 0.893065 0.367903
-15.753380 -13.209581 -0.125117 1135 0.313354 0.862026 0.458464
-15.756499 -13.212178 -0.118828 1101 0.268470 0.824661 0.548953
-15.760011 -13.215089 -0.112528 1059 0.217945 0.782781 0.639601
-15.765037 -13.219266 -0.106242 983 0.145631 0.722679 0.730047
-15.773713 -13.226509 -0.099963 867 0.020789 0.618461 0.820392
-15.781764 -13.225169 -0.207509 897 -0.095052 0.637741 -0.727032
-15.771282 -13.216343 -0.201067 1001 0.055766 0.764737 -0.634342
-15.765787 -13.211707 -0.194687 1069 0.134832 0.831439 -0.542543
-15.761581 -13.208152 -0.188332 1107 0.195345 0.882595 -0.451104
-15.758216 -13.205307 -0.181981 1129 0.243770 0.923527 -0.359723
-15.755864 -13.203298 -0.175644 1151 0.277608 0.952439 -0.268543
-15.754898 -13.202458 -0.169320 1163 0.291509 0.964515 -0.177550
-15.754330 -13.201956 -0.163002 1171 0.299687 0.971746 -0.086644
-15.754101 -13.201733 -0.156683 1167 0.302980 0.974957 0.004277
-15.753983 -13.201598 -0.150376 1167 0.304682 0.976892 0.095025
-15.754414 -13.201929 -0.144063 1167 0.298479 0.972130 0.185860
-15.756142 -13.203348 -0.137763 1149 0.273615 0.951712 0.276507
-15.758321 -13.205137 -0.131461 1133 0.242261 0.925970 0.367183
-15.760150 -13.206638 -0.125161 1113 0.215942 0.904371 0.457831
-15.763154 -13.209126 -0.118865 1073 0.172718 0.868571 0.548421
-15.767014 -13.212324 -0.112572 1009 0.117185 0.822561 0.638968
-15.772648 -13.217021 -0.106291 919 0.036116 0.754981 0.729342
-15.781419 -13.216319 -0.201163 919 -0.090084 0.765080 -0.635723
-15.774583 -13.210552 -0.194771 1005 0.008274 0.848057 -0.543752
-15.770203 -13.206859 -0.188405 1055 0.071299 0.901202 -0.452155
-15.767344 -13.204427 -0.182051 1093 0.112424 0.936193 -0.360730
-15.764429 -13.201952 -0.175707 1133 0.154372 0.971801 -0.269450
-15.761338 -13.199342 -0.169365 1139 0.198845 1.009358 -0.178198
-15.759980 -13.198174 -0.163043 1139 0.218385 1.026154 -0.087234
-15.760592 -13.198647 -0.156729 1147 0.209575 1.019361 0.003615
-15.761031 -13.198987 -0.150427 1149 0.203263 1.014462 0.094291
-15.761855 -13.199646 -0.144112 1139 0.191407 1.004981 0.185155
-15.762794 -13.200401 -0.137806 1117 0.177905 0.994113 0.275888
-15.764921 -13.202143 -0.131506 1109 0.147291 0.969057 0.366536
-15.767816 -13.204540 -0.125220 1073 0.105645 0.934560 0.456982
-15.771507 -13.207594 -0.118918 1019 0.052528 0.890622 0.547658
-15.776083 -13.211401 -0.112633 961 -0.013310 0.835844 0.638090
-15.784023 -13.218015 -0.106349 851 -0.127559 0.740682 0.728507
-15.784625 -13.210756 -0.194865 923 -0.136218 0.845120 -0.545104
-15.779798 -13.206680 -0.188490 993 -0.066757 0.903768 -0.453378
-15.775983 -13.203468 -0.182133 1045 -0.011869 0.949983 -0.361910
-15.773283 -13.201171 -0.175787 1083 0.026977 0.983039 -0.270601
-15.770926 -13.199169 -0.169451 1107 0.060884 1.011842 -0.179435
-15.769343 -13.197817 -0.163121 1097 0.083663 1.031299 -0.088356
-15.768825 -13.197347 -0.156794 1105 0.091127 1.038064 0.002680
-15.768988 -13.197453 -0.150483 1107 0.088781 1.036541 0.093486
-15.770552 -13.198729 -0.144183 1103 0.066277 1.018181 0.184133
-15.772228 -13.200100 -0.137875 1079 0.042154 0.998449 0.274896
-15.774791 -13.202210 -0.131581 1045 0.005283 0.968082 0.365457
-15.777635 -13.204558 -0.125285 1021 -0.035636 0.934299 0.456047
-15.780538 -13.206950 -0.118977 951 -0.077405 0.899884 0.546809
-15.786462 -13.211880 -0.112694 847 -0.162646 0.828956 0.637212
-15.788829 -13.206368 -0.188569 907 -0.196704 0.908255 -0.454514
-15.784622 -13.202812 -0.182202 969 -0.136176 0.959424 -0.362903
-15.781982 -13.200571 -0.175856 1015 -0.098194 0.991670 -0.271594
-15.779457 -13.198424 -0.169510 1051 -0.061858 1.022558 -0.180284
-15.778433 -13.197545 -0.163187 1067 -0.047121 1.035210 -0.089306
-15.778314 -13.197412 -0.156868 1061 -0.045406 1.037131 0.001615
-15.779093 -13.198030 -0.150563 1075 -0.056617 1.028226 0.092334
-15.779423 -13.198278 -0.144242 1063 -0.061364 1.024658 0.183284
-15.780869 -13.199446 -0.137934 1031 -0.082167 1.007862 0.274047
-15.783373 -13.201514 -0.131640 989 -0.118201 0.978099 0.364608
-15.785666 -13.203399 -0.125336 947 -0.151202 0.950985 0.455313
-15.791424 -13.208184 -0.119044 863 -0.234041 0.882128 0.545845
-15.797493 -13.205894 -0.182326 827 -0.321368 0.915075 -0.364687
-15.792446 -13.201640 -0.175946 925 -0.248751 0.976288 -0.272889
-15.790298 -13.199822 -0.169608 963 -0.217849 1.002442 -0.181694
-15.789122 -13.198800 -0.163273 987 -0.200917 1.017152 -0.090543
-15.788040 -13.197865 -0.156950 991 -0.185356 1.030613 0.000435
-15.788319 -13.198066 -0.150628 993 -0.189363 1.027718 0.091399
-15.789584 -13.199101 -0.144322 973 -0.207572 1.012816 0.182133
-15.792333 -13.201363 -0.138016 941 -0.247118 0.980281 0.272867
-15.795910 -13.204321 -0.131726 889 -0.298589 0.937716 0.363371
-15.802855 -13.210092 -0.125447 769 -0.398512 0.854684 0.453716
-15.802781 -13.201829 -0.163388 817 -0.397456 0.973571 -0.092198
-15.801490 -13.200710 -0.157055 851 -0.378876 0.989667 -0.001076
-15.801377 -13.200582 -0.150727 847 -0.377257 0.991519 0.089975
-15.803266 -13.202139 -0.144425 815 -0.404427 0.969112 0.180651
