765
-3.775617 -3.268303 -0.136451 1637 0.962762 0.082253 0.247473
-3.776033 -3.268654 -0.134929 1637 0.956775 0.077200 0.269372
-3.776019 -3.268631 -0.133399 1623 0.956974 0.077532 0.291387
-3.776492 -3.269024 -0.131877 1611 0.950168 0.071879 0.313286
-3.777736 -3.270103 -0.130380 1609 0.932272 0.056353 0.334825
-3.778818 -3.271034 -0.128885 1615 0.916704 0.042957 0.356336
-3.779079 -3.271244 -0.127353 1597 0.912948 0.039934 0.378379
-3.779114 -3.271270 -0.125821 1585 0.912443 0.039560 0.400423
-3.780351 -3.272328 -0.124326 1579 0.894646 0.024339 0.421933
-3.781766 -3.273549 -0.122827 1577 0.874286 0.006768 0.443502
-3.782402 -3.274090 -0.121314 1559 0.865134 -0.001015 0.465272
-3.782762 -3.274399 -0.119781 1539 0.859954 -0.005461 0.487329
-3.783568 -3.275083 -0.118266 1529 0.848359 -0.015303 0.509128
-3.784862 -3.276197 -0.116769 1521 0.829738 -0.031331 0.530667
-3.786057 -3.277227 -0.115262 1503 0.812544 -0.046150 0.552351
-3.787358 -3.278334 -0.113765 1489 0.793824 -0.062078 0.573890
-3.789479 -3.280163 -0.112283 1481 0.763306 -0.088397 0.595214
-3.791438 -3.281857 -0.110793 1465 0.735118 -0.112770 0.616653
-3.792464 -3.282731 -0.109277 1441 0.720357 -0.125346 0.638466
-3.793758 -3.283846 -0.107770 1409 0.701740 -0.141387 0.660149
-3.795554 -3.285391 -0.106279 1371 0.675898 -0.163620 0.681602
-3.797569 -3.287128 -0.104787 1335 0.646903 -0.188611 0.703070
-3.800130 -3.289338 -0.103303 1297 0.610057 -0.220412 0.724423
-3.802697 -3.291555 -0.101829 1245 0.573121 -0.252309 0.745631
-3.805045 -3.293581 -0.100335 1173 0.539337 -0.281461 0.767128
-3.804370 -3.291538 -0.217840 1197 0.549049 -0.252065 -0.923592
-3.801391 -3.288948 -0.216127 1261 0.591913 -0.214800 -0.898944
-3.799338 -3.287171 -0.214469 1317 0.621449 -0.189229 -0.875088
-3.797018 -3.285154 -0.212793 1359 0.654831 -0.160210 -0.850973
-3.794477 -3.282946 -0.211116 1385 0.691393 -0.128441 -0.826844
-3.792765 -3.281452 -0.209485 1411 0.716028 -0.106942 -0.803376
-3.791321 -3.280198 -0.207864 1437 0.736803 -0.088901 -0.780052
-3.789665 -3.278761 -0.206233 1463 0.760631 -0.068222 -0.756584
-3.787994 -3.277309 -0.204603 1477 0.784675 -0.047330 -0.733131
-3.786728 -3.276205 -0.203000 1495 0.802891 -0.031447 -0.710066
-3.785956 -3.275523 -0.201425 1515 0.813999 -0.021633 -0.687405
-3.785007 -3.274694 -0.199830 1539 0.827652 -0.009705 -0.664455
-3.784165 -3.273956 -0.198255 1557 0.839769 0.000913 -0.641793
-3.783160 -3.273085 -0.196660 1565 0.854228 0.013444 -0.618843
-3.781667 -3.271782 -0.195049 1573 0.875710 0.032195 -0.595664
-3.780442 -3.270719 -0.193456 1581 0.893336 0.047488 -0.572743
-3.779606 -3.269988 -0.191871 1587 0.905363 0.058006 -0.549937
-3.778835 -3.269307 -0.190296 1593 0.916457 0.067807 -0.527275
-3.777992 -3.268570 -0.188720 1599 0.928587 0.078411 -0.504599
-3.777044 -3.267740 -0.187145 1605 0.942227 0.090352 -0.481937
-3.776753 -3.267483 -0.185586 1613 0.946415 0.094050 -0.459505
-3.776356 -3.267135 -0.184039 1619 0.952127 0.099059 -0.437246
-3.775910 -3.266737 -0.182481 1627 0.958546 0.104784 -0.414829
-3.775725 -3.266572 -0.180932 1631 0.961208 0.107158 -0.392541
-3.775385 -3.266266 -0.179386 1643 0.966100 0.111559 -0.370297
-3.774818 -3.265776 -0.177829 1645 0.974257 0.118612 -0.347894
-3.774196 -3.265229 -0.176261 1645 0.983207 0.126482 -0.325333
-3.774025 -3.265064 -0.174722 1657 0.985667 0.128856 -0.303189
-3.773621 -3.264709 -0.173166 1659 0.991478 0.133964 -0.280800
-3.773055 -3.264219 -0.171607 1651 0.999622 0.141013 -0.258369
-3.772602 -3.263813 -0.170060 1649 1.006140 0.146856 -0.236110
-3.772636 -3.263839 -0.168521 1655 1.005653 0.146482 -0.213966
-3.772791 -3.263958 -0.166999 1665 1.003423 0.144770 -0.192067
-3.772776 -3.263934 -0.165460 1667 1.003639 0.145116 -0.169923
-3.773037 -3.264158 -0.163938 1663 0.999883 0.141892 -0.148023
-3.772966 -3.264092 -0.162408 1655 1.000905 0.142842 -0.126009
-3.772845 -3.263977 -0.160869 1659 1.002644 0.144495 -0.103865
-3.772880 -3.264002 -0.159330 1655 1.002140 0.144135 -0.081721
-3.772356 -3.263541 -0.157783 1649 1.009680 0.150770 -0.059462
-3.771966 -3.263185 -0.156234 1655 1.015293 0.155891 -0.037174
-3.772277 -3.263459 -0.154712 1663 1.010816 0.151950 -0.015275
-3.772425 -3.263569 -0.153182 1661 1.008689 0.150365 0.006739
-3.772573 -3.263695 -0.151651 1651 1.006559 0.148554 0.028768
-3.772551 -3.263664 -0.150121 1651 1.006874 0.149000 0.050782
-3.772366 -3.263499 -0.148582 1655 1.009536 0.151374 0.072926
-3.772465 -3.263575 -0.147052 1651 1.008113 0.150279 0.094941
-3.772500 -3.263601 -0.145522 1655 1.007608 0.149905 0.116955
-3.772541 -3.263620 -0.143981 1657 1.007018 0.149634 0.139128
-3.773227 -3.264211 -0.142478 1661 0.997149 0.141130 0.160754
-3.773764 -3.264668 -0.140964 1661 0.989423 0.134554 0.182538
-3.774131 -3.264970 -0.139442 1647 0.984140 0.130207 0.204437
-3.775107 -3.265809 -0.137937 1633 0.970100 0.118136 0.226092
-3.776132 -3.266697 -0.136442 1643 0.955348 0.105360 0.247602
-3.776443 -3.266957 -0.134919 1639 0.950875 0.101618 0.269516
-3.776484 -3.266976 -0.133390 1627 0.950285 0.101343 0.291516
-3.777121 -3.267518 -0.131875 1621 0.941119 0.093546 0.313315
-3.777870 -3.268159 -0.130361 1619 0.930344 0.084325 0.335099
-3.777848 -3.268142 -0.128822 1609 0.930659 0.084568 0.357243
-3.778265 -3.268493 -0.127300 1597 0.924659 0.079519 0.379142
-3.779580 -3.269615 -0.125812 1597 0.905737 0.063375 0.400552
-3.780761 -3.270631 -0.124305 1591 0.888746 0.048754 0.422236
-3.781842 -3.271562 -0.122810 1585 0.873192 0.035358 0.443746
-3.782698 -3.272294 -0.121293 1569 0.860876 0.024826 0.465574
-3.783228 -3.272744 -0.119771 1559 0.853250 0.018353 0.487473
-3.784090 -3.273484 -0.118257 1545 0.840846 0.007705 0.509257
-3.784832 -3.274118 -0.116742 1529 0.830170 -0.001417 0.531056
-3.785419 -3.274611 -0.115218 1503 0.821724 -0.008511 0.552984
-3.786883 -3.275867 -0.113731 1497 0.800658 -0.026583 0.574380
-3.789224 -3.277886 -0.112247 1497 0.766977 -0.055632 0.595732
-3.791310 -3.279679 -0.110767 1479 0.736960 -0.081433 0.617027
-3.792760 -3.280935 -0.109268 1449 0.716100 -0.099505 0.638595
-3.793834 -3.281859 -0.107751 1423 0.700645 -0.112798 0.660423
-3.795249 -3.283065 -0.106254 1395 0.680285 -0.130153 0.681962
-3.797483 -3.284992 -0.104760 1365 0.648142 -0.157878 0.703459
-3.800107 -3.287251 -0.103286 1331 0.610386 -0.190382 0.724667
-3.802505 -3.289313 -0.101802 1285 0.575882 -0.220052 0.746020
-3.804075 -3.290675 -0.100293 1223 0.553292 -0.239647 0.767732
-3.806699 -3.292934 -0.098810 1125 0.515536 -0.272151 0.789070
-3.805069 -3.290060 -0.217819 1237 0.538991 -0.230799 -0.923290
-3.802033 -3.287427 -0.216106 1295 0.582674 -0.192913 -0.898642
-3.799981 -3.285650 -0.214448 1343 0.612197 -0.167346 -0.874786
-3.797554 -3.283541 -0.212781 1381 0.647119 -0.137000 -0.850800
-3.794950 -3.281284 -0.211097 1403 0.684587 -0.104527 -0.826570
-3.793068 -3.279649 -0.209447 1423 0.711667 -0.081001 -0.802829
-3.791355 -3.278154 -0.207816 1447 0.736315 -0.059488 -0.779362
-3.789366 -3.276428 -0.206168 1467 0.764933 -0.034655 -0.755649
-3.787760 -3.275025 -0.204547 1483 0.788040 -0.014466 -0.732326
-3.786699 -3.274111 -0.202953 1503 0.803306 -0.001317 -0.709390
-3.785261 -3.272850 -0.201341 1521 0.823999 0.016827 -0.686196
-3.783705 -3.271497 -0.199720 1533 0.846386 0.036295 -0.662872
-3.783315 -3.271156 -0.198163 1551 0.851998 0.041200 -0.640469
-3.782868 -3.270758 -0.196605 1565 0.858430 0.046929 -0.618052
-3.781474 -3.269554 -0.194993 1571 0.878485 0.064253 -0.594858
-3.780476 -3.268675 -0.193408 1587 0.892845 0.076898 -0.572052
-3.779860 -3.268135 -0.191842 1595 0.901709 0.084668 -0.549520
-3.779294 -3.267645 -0.190275 1601 0.909853 0.091721 -0.526973
-3.779173 -3.267530 -0.188735 1615 0.911596 0.093374 -0.504815
-3.778450 -3.266899 -0.187169 1617 0.921997 0.102451 -0.482282
-3.777162 -3.265772 -0.185567 1617 0.940529 0.118667 -0.459232
-3.776221 -3.264950 -0.183994 1623 0.954069 0.130496 -0.436599
-3.775541 -3.264361 -0.182426 1627 0.963853 0.138972 -0.414038
-3.775257 -3.264097 -0.180879 1625 0.967938 0.142770 -0.391779
-3.775349 -3.264180 -0.179347 1639 0.966618 0.141576 -0.369736
-3.775447 -3.264255 -0.177818 1649 0.965208 0.140495 -0.347736
-3.774937 -3.263808 -0.176259 1651 0.972545 0.146928 -0.325304
-3.774427 -3.263360 -0.174703 1657 0.979883 0.153373 -0.302916
-3.774037 -3.263004 -0.173145 1655 0.985496 0.158495 -0.280498
-3.773853 -3.262839 -0.171605 1649 0.988140 0.160869 -0.258340
-3.774058 -3.263007 -0.170085 1655 0.985190 0.158454 -0.236469
-3.773491 -3.262516 -0.168529 1657 0.993351 0.165517 -0.214081
-3.772755 -3.261871 -0.166963 1657 1.003941 0.174797 -0.191549
-3.772804 -3.261897 -0.165433 1667 1.003235 0.174423 -0.169534
-3.773284 -3.262312 -0.163919 1665 0.996329 0.168454 -0.147750
-3.773489 -3.262479 -0.162389 1663 0.993379 0.166049 -0.125736
-3.773304 -3.262315 -0.160850 1655 0.996041 0.168409 -0.103592
-3.773572 -3.262532 -0.159328 1661 0.992185 0.165288 -0.081692
-3.773218 -3.262225 -0.157781 1661 0.997279 0.169706 -0.059434
-3.772319 -3.261431 -0.156215 1661 1.010212 0.181130 -0.036901
-3.772467 -3.261556 -0.154683 1663 1.008085 0.179332 -0.014858
-3.772891 -3.261914 -0.153161 1663 1.001982 0.174179 0.007041
-3.772706 -3.261750 -0.151622 1647 1.004644 0.176540 0.029185
-3.772578 -3.261627 -0.150094 1653 1.006487 0.178310 0.051171
-3.772393 -3.261462 -0.148546 1661 1.009149 0.180684 0.073444
-3.772761 -3.261764 -0.147033 1663 1.003852 0.176337 0.095214
-3.773128 -3.262080 -0.145511 1659 0.998572 0.171792 0.117113
-3.773226 -3.262155 -0.143979 1655 0.997163 0.170711 0.139156
-3.773530 -3.262408 -0.142459 1653 0.992789 0.167071 0.161027
-3.774343 -3.263112 -0.140954 1657 0.981091 0.156941 0.182682
-3.774816 -3.263506 -0.139442 1651 0.974285 0.151274 0.204437
-3.775021 -3.263673 -0.137910 1639 0.971334 0.148869 0.226480
-3.775268 -3.263883 -0.136388 1643 0.967780 0.145847 0.248379
-3.775366 -3.263958 -0.134858 1635 0.966371 0.144770 0.270394
-3.776066 -3.264550 -0.133344 1625 0.956299 0.136252 0.292178
-3.777254 -3.265573 -0.131847 1629 0.939205 0.121532 0.313718
-3.777508 -3.265790 -0.130327 1625 0.935551 0.118410 0.335588
-3.777656 -3.265901 -0.128795 1611 0.933421 0.116811 0.357631
-3.778738 -3.266832 -0.127290 1599 0.917853 0.103415 0.379286
-3.779876 -3.267804 -0.125793 1597 0.901480 0.089433 0.400826
-3.780788 -3.268594 -0.124288 1601 0.888358 0.078064 0.422480
-3.781424 -3.269136 -0.122764 1589 0.879205 0.070267 0.444408
-3.782279 -3.269869 -0.121259 1575 0.866904 0.059718 0.466063
-3.783481 -3.270892 -0.119752 1567 0.849611 0.045001 0.487746
-3.784500 -3.271773 -0.118247 1555 0.834949 0.032322 0.509401
-3.785631 -3.272739 -0.116741 1537 0.818675 0.018425 0.531070
-3.786111 -3.273139 -0.115218 1517 0.811766 0.012669 0.552984
-3.787186 -3.274063 -0.113712 1509 0.796301 -0.000628 0.574653
-3.789371 -3.275941 -0.112239 1501 0.764861 -0.027646 0.595847
-3.791387 -3.277678 -0.110748 1489 0.735852 -0.052641 0.617300
-3.792850 -3.278934 -0.109250 1463 0.714803 -0.070713 0.638854
-3.793812 -3.279758 -0.107734 1437 0.700961 -0.082568 0.660667
-3.795106 -3.280873 -0.106227 1409 0.682344 -0.098613 0.682351
-3.797015 -3.282517 -0.104736 1381 0.654876 -0.122266 0.703804
-3.799250 -3.284444 -0.103244 1353 0.622718 -0.149994 0.725272
-3.801768 -3.286612 -0.101770 1313 0.586486 -0.181188 0.746480
-3.803890 -3.288426 -0.100278 1251 0.555954 -0.207287 0.767948
-3.806506 -3.290693 -0.098792 1173 0.518315 -0.239907 0.789329
-3.806993 -3.289743 -0.219430 1197 0.511307 -0.226237 -0.946469
-3.804502 -3.287585 -0.217744 1277 0.547148 -0.195188 -0.922210
-3.801530 -3.285002 -0.216031 1311 0.589913 -0.158022 -0.897563
-3.798374 -3.282264 -0.214319 1353 0.635322 -0.118626 -0.872930
-3.796103 -3.280296 -0.212652 1393 0.667997 -0.090311 -0.848944
-3.794333 -3.278759 -0.211011 1413 0.693465 -0.068195 -0.825333
-3.792890 -3.277506 -0.209400 1433 0.714227 -0.050167 -0.802153
-3.791672 -3.276450 -0.207788 1465 0.731753 -0.034970 -0.778959
-3.789847 -3.274857 -0.206148 1487 0.758013 -0.012051 -0.755361
-3.787795 -3.273081 -0.204509 1499 0.787536 0.013502 -0.731779
-3.786244 -3.271735 -0.202888 1509 0.809855 0.032871 -0.708455
-3.784751 -3.270432 -0.201267 1527 0.831336 0.051618 -0.685131
-3.783746 -3.269560 -0.199682 1539 0.845796 0.064164 -0.662326
-3.782578 -3.268539 -0.198089 1553 0.862602 0.078857 -0.639405
-3.782075 -3.268099 -0.196521 1563 0.869840 0.085186 -0.616844
-3.781735 -3.267792 -0.194963 1579 0.874732 0.089604 -0.594426
-3.781232 -3.267352 -0.193406 1601 0.881967 0.095933 -0.572023
-3.780892 -3.267046 -0.191848 1611 0.886862 0.100338 -0.549606
-3.779830 -3.266132 -0.190265 1615 0.902142 0.113487 -0.526829
-3.778945 -3.265352 -0.188690 1621 0.914876 0.124712 -0.504167
-3.778591 -3.265046 -0.187131 1625 0.919970 0.129117 -0.481736
-3.777869 -3.264414 -0.185565 1627 0.930357 0.138207 -0.459203
-3.776581 -3.263288 -0.183973 1633 0.948889 0.154409 -0.436297
-3.775469 -3.262324 -0.182378 1627 0.964889 0.168279 -0.413347
-3.775292 -3.262152 -0.180841 1633 0.967437 0.170756 -0.391232
-3.775560 -3.262383 -0.179319 1645 0.963582 0.167432 -0.369333
-3.775658 -3.262459 -0.177787 1651 0.962172 0.166337 -0.347290
-3.775424 -3.262244 -0.176240 1661 0.965537 0.169432 -0.325031
-3.775183 -3.262037 -0.174701 1665 0.969005 0.172409 -0.302887
-3.775013 -3.261872 -0.173152 1665 0.971451 0.174783 -0.280599
-3.774991 -3.261856 -0.171623 1665 0.971767 0.175013 -0.258599
-3.774708 -3.261592 -0.170074 1669 0.975839 0.178814 -0.236311
-3.774197 -3.261145 -0.168516 1669 0.983190 0.185243 -0.213894
-3.773730 -3.260739 -0.166969 1667 0.989911 0.191085 -0.191635
-3.773107 -3.260193 -0.165412 1663 0.998874 0.198941 -0.169232
-3.772823 -3.259943 -0.163864 1663 1.002960 0.202539 -0.146959
-3.773134 -3.260202 -0.162343 1665 0.998487 0.198814 -0.125074
-3.773508 -3.260511 -0.160821 1663 0.993104 0.194368 -0.103175
-3.773550 -3.260544 -0.159290 1667 0.992501 0.193891 -0.081146
-3.773309 -3.260323 -0.157752 1677 0.995969 0.197071 -0.059016
-3.773018 -3.260066 -0.156204 1669 1.000157 0.200769 -0.036743
-3.772996 -3.260036 -0.154674 1665 1.000473 0.201201 -0.014728
-3.772819 -3.259878 -0.153135 1657 1.003018 0.203476 0.007415
-3.772578 -3.259657 -0.151595 1651 1.006487 0.206656 0.029574
-3.772393 -3.259491 -0.150047 1653 1.009149 0.209043 0.051847
-3.773044 -3.260048 -0.148544 1665 0.999780 0.201030 0.073473
-3.773630 -3.260540 -0.147029 1669 0.991351 0.193949 0.095272
-3.773828 -3.260715 -0.145509 1659 0.988501 0.191431 0.117142
-3.774032 -3.260882 -0.143977 1655 0.985564 0.189030 0.139185
-3.774293 -3.261092 -0.142455 1651 0.981811 0.186008 0.161085
-3.775092 -3.261782 -0.140952 1649 0.970316 0.176080 0.182710
-3.775862 -3.262431 -0.139448 1649 0.959235 0.166742 0.204351
-3.775664 -3.262252 -0.137908 1643 0.962082 0.169315 0.226509
-3.775811 -3.262377 -0.136379 1633 0.959969 0.167517 0.248509
-3.776511 -3.262968 -0.134864 1641 0.949897 0.159013 0.270307
-3.777310 -3.263659 -0.133359 1637 0.938402 0.149072 0.291962
-3.777960 -3.264215 -0.131845 1629 0.929047 0.141072 0.313746
-3.778717 -3.264849 -0.130332 1633 0.918155 0.131950 0.335516
-3.778964 -3.265059 -0.128810 1625 0.914601 0.128928 0.357415
-3.779104 -3.265177 -0.127279 1611 0.912587 0.127230 0.379444
-3.780356 -3.266248 -0.125781 1605 0.894574 0.111820 0.400998
-3.781494 -3.267222 -0.124286 1605 0.878200 0.097807 0.422509
-3.782130 -3.267764 -0.122762 1603 0.869048 0.090006 0.444437
-3.782490 -3.268072 -0.121240 1591 0.863868 0.085577 0.466336
-3.782971 -3.268473 -0.119718 1575 0.856948 0.079807 0.488236
-3.784102 -3.269439 -0.118221 1571 0.840674 0.065906 0.509775
-3.785842 -3.270943 -0.116731 1557 0.815639 0.044267 0.531214
-3.787143 -3.272050 -0.115234 1541 0.796918 0.028339 0.552754
-3.788394 -3.273122 -0.113727 1529 0.778919 0.012912 0.574437
-3.789908 -3.274428 -0.112228 1513 0.757135 -0.005876 0.596005
-3.791541 -3.275825 -0.110740 1501 0.733636 -0.025979 0.617415
-3.792941 -3.277031 -0.109231 1483 0.713492 -0.043330 0.639128
-3.794193 -3.278103 -0.107725 1459 0.695479 -0.058757 0.660797
-3.795706 -3.279409 -0.106225 1431 0.673709 -0.077546 0.682379
-3.796837 -3.280375 -0.104709 1395 0.657435 -0.091446 0.704192
-3.798520 -3.281821 -0.103210 1363 0.633219 -0.112252 0.725761
-3.801032 -3.283982 -0.101735 1329 0.597076 -0.143346 0.746984
-3.803938 -3.286482 -0.100259 1281 0.555265 -0.179318 0.768221
-3.806498 -3.288692 -0.098775 1205 0.518428 -0.211115 0.789574
-3.809405 -3.291191 -0.097299 1111 0.476600 -0.247074 0.810811
-3.807041 -3.287784 -0.219383 1243 0.510617 -0.198052 -0.945793
-3.803836 -3.285011 -0.217660 1299 0.556730 -0.158152 -0.921002
-3.800694 -3.282286 -0.215938 1325 0.601940 -0.118942 -0.896225
-3.798309 -3.280220 -0.214271 1365 0.636255 -0.089217 -0.872239
-3.796590 -3.278733 -0.212631 1409 0.660989 -0.067821 -0.848642
-3.794276 -3.276722 -0.210964 1427 0.694285 -0.038885 -0.824656
-3.792655 -3.275320 -0.209333 1449 0.717609 -0.018713 -0.801189
-3.791664 -3.274449 -0.207740 1477 0.731870 -0.006182 -0.778268
-3.789612 -3.272672 -0.206090 1497 0.761392 0.019389 -0.754527
-3.787673 -3.270994 -0.204452 1511 0.789292 0.043533 -0.730959
-3.786448 -3.269931 -0.202848 1529 0.806918 0.058826 -0.707880
-3.785061 -3.268720 -0.201248 1539 0.826877 0.076253 -0.684858
-3.783950 -3.267756 -0.199653 1551 0.842859 0.090122 -0.661908
-3.782683 -3.266652 -0.198051 1559 0.861092 0.106005 -0.638858
-3.782173 -3.266204 -0.196483 1571 0.868430 0.112451 -0.616297
-3.782059 -3.266096 -0.194944 1585 0.870070 0.114005 -0.594153
-3.781161 -3.265316 -0.193359 1597 0.882989 0.125230 -0.571347
-3.780262 -3.264536 -0.191783 1605 0.895926 0.136454 -0.548671
-3.779879 -3.264187 -0.190227 1617 0.901435 0.141473 -0.526282
-3.779475 -3.263831 -0.188669 1623 0.907250 0.146598 -0.503865
-3.779298 -3.263674 -0.187129 1627 0.909795 0.148856 -0.481707
-3.778738 -3.263176 -0.185563 1639 0.917853 0.156022 -0.459174
-3.777506 -3.262106 -0.183969 1643 0.935579 0.171418 -0.436239
-3.776444 -3.261192 -0.182386 1635 0.950861 0.184567 -0.413462
-3.775821 -3.260646 -0.180829 1641 0.959825 0.192423 -0.391059
-3.775920 -3.260721 -0.179298 1655 0.958402 0.191345 -0.369031
-3.775693 -3.260514 -0.177749 1661 0.961667 0.194323 -0.346743
-3.775345 -3.260201 -0.176202 1663 0.966672 0.198827 -0.324484
-3.775168 -3.260043 -0.174663 1661 0.969221 0.201102 -0.302340
-3.774934 -3.259829 -0.173114 1661 0.972587 0.204179 -0.280052
-3.775039 -3.259911 -0.171584 1671 0.971077 0.202999 -0.258038
-3.775011 -3.259888 -0.170053 1673 0.971479 0.203332 -0.236009
-3.774281 -3.259249 -0.168489 1669 0.981983 0.212525 -0.213505
-3.773326 -3.258413 -0.166913 1667 0.995725 0.224553 -0.190829
-3.773148 -3.258255 -0.165374 1671 0.998284 0.226827 -0.168685
-3.773303 -3.258373 -0.163854 1675 0.996055 0.225129 -0.146815
-3.773119 -3.258208 -0.162305 1665 0.998703 0.227503 -0.124527
-3.773153 -3.258234 -0.160774 1667 0.998212 0.227129 -0.102498
-3.773301 -3.258359 -0.159253 1673 0.996085 0.225331 -0.080613
-3.773237 -3.258286 -0.157714 1675 0.997005 0.226381 -0.058469
-3.773604 -3.258602 -0.156202 1673 0.991725 0.221836 -0.036714
-3.774134 -3.259052 -0.154689 1671 0.984099 0.215359 -0.014944
-3.774013 -3.258937 -0.153150 1669 0.985839 0.217016 0.007200
-3.773610 -3.258581 -0.151601 1663 0.991636 0.222138 0.029487
-3.772866 -3.257929 -0.150035 1659 1.002343 0.231516 0.052020
-3.773184 -3.258195 -0.148515 1667 0.997766 0.227691 0.073890
-3.774110 -3.258984 -0.147020 1663 0.984442 0.216337 0.095401
-3.774583 -3.259392 -0.145507 1657 0.977636 0.210467 0.117171
-3.774894 -3.259651 -0.143985 1655 0.973163 0.206741 0.139070
-3.775268 -3.259960 -0.142463 1655 0.967780 0.202296 0.160969
-3.776018 -3.260601 -0.140958 1659 0.956992 0.193071 0.182624
-3.776385 -3.260917 -0.139436 1661 0.951709 0.188526 0.204523
-3.776695 -3.261176 -0.137914 1653 0.947249 0.184797 0.226423
-3.776844 -3.261287 -0.136384 1647 0.945105 0.183202 0.248437
-3.777091 -3.261497 -0.134862 1647 0.941551 0.180179 0.270336
-3.777578 -3.261905 -0.133340 1637 0.934543 0.174310 0.292236
-3.778660 -3.262836 -0.131843 1639 0.918975 0.160914 0.313775
-3.779798 -3.263809 -0.130348 1647 0.902601 0.146914 0.335286
-3.779550 -3.263594 -0.128808 1633 0.906169 0.150008 0.357444
-3.779698 -3.263705 -0.127279 1619 0.904042 0.148410 0.379444
-3.780454 -3.264353 -0.125764 1617 0.893164 0.139086 0.401243
-3.781140 -3.264945 -0.124250 1613 0.883291 0.130568 0.423027
-3.782165 -3.265819 -0.122745 1613 0.868543 0.117991 0.444682
-3.782914 -3.266460 -0.121230 1599 0.857768 0.108770 0.466480
-3.783501 -3.266953 -0.119716 1583 0.849322 0.101676 0.488264
-3.784363 -3.267692 -0.118202 1579 0.836918 0.091042 0.510049
-3.785827 -3.268948 -0.116702 1561 0.815855 0.072970 0.531631
-3.787461 -3.270346 -0.115215 1547 0.792342 0.052857 0.553027
-3.788818 -3.271510 -0.113717 1537 0.772819 0.036109 0.574581
-3.790112 -3.272624 -0.112220 1521 0.754199 0.020079 0.596121
-3.791250 -3.273597 -0.110702 1503 0.737825 0.006079 0.617962
-3.792551 -3.274705 -0.109205 1491 0.719105 -0.009863 0.639502
-3.794567 -3.276441 -0.107715 1467 0.690097 -0.034843 0.660941
-3.796299 -3.277937 -0.106223 1445 0.665178 -0.056366 0.682408
-3.797381 -3.278854 -0.104709 1415 0.649610 -0.069560 0.704192
-3.799008 -3.280258 -0.103210 1381 0.626200 -0.089762 0.725761
-3.801136 -3.282079 -0.101716 1343 0.595580 -0.115964 0.747257
-3.803980 -3.284530 -0.100240 1297 0.554658 -0.151229 0.768495
-3.806993 -3.287122 -0.098764 1239 0.511307 -0.188526 0.789732
-3.809836 -3.289572 -0.097287 1167 0.470402 -0.223777 0.810984
-3.806651 -3.285457 -0.219316 1251 0.516226 -0.164567 -0.944829
-3.803601 -3.282825 -0.217603 1307 0.560112 -0.126698 -0.920182
-3.800452 -3.280094 -0.215881 1339 0.605422 -0.087402 -0.895405
-3.797905 -3.277893 -0.214197 1375 0.642070 -0.055735 -0.871174
-3.796242 -3.276448 -0.212566 1413 0.665997 -0.034943 -0.847707
-3.794473 -3.274912 -0.210925 1433 0.691452 -0.012844 -0.824095
-3.792372 -3.273086 -0.209277 1447 0.721681 0.013430 -0.800383
-3.790758 -3.271691 -0.207647 1471 0.744905 0.033502 -0.776930
-3.789378 -3.270487 -0.206035 1487 0.764761 0.050826 -0.753736
-3.787934 -3.269233 -0.204423 1507 0.785536 0.068870 -0.730541
-3.786822 -3.268269 -0.202829 1533 0.801536 0.082740 -0.707606
-3.786037 -3.267588 -0.201253 1545 0.812832 0.092541 -0.684930
-3.784656 -3.266384 -0.199642 1549 0.832702 0.109865 -0.661750
-3.783382 -3.265272 -0.198037 1555 0.851034 0.125864 -0.638656
-3.783205 -3.265114 -0.196489 1573 0.853580 0.128135 -0.616383
-3.782808 -3.264766 -0.194942 1589 0.859291 0.133144 -0.594124
-3.781534 -3.263653 -0.193338 1587 0.877624 0.149157 -0.571045
-3.780473 -3.262739 -0.191755 1593 0.892890 0.162310 -0.548268
-3.780352 -3.262624 -0.190206 1613 0.894629 0.163963 -0.525980
-3.780004 -3.262311 -0.188657 1623 0.899637 0.168468 -0.503693
-3.778943 -3.261396 -0.187074 1627 0.914903 0.181634 -0.480916
-3.778277 -3.260807 -0.185508 1637 0.924488 0.190107 -0.458383
-3.777986 -3.260550 -0.183959 1647 0.928673 0.193805 -0.436095
-3.777533 -3.260145 -0.182401 1647 0.935191 0.199634 -0.413678
-3.777136 -3.259797 -0.180843 1653 0.940903 0.204639 -0.391261
-3.776895 -3.259589 -0.179305 1655 0.944371 0.207633 -0.369131
-3.776505 -3.259234 -0.177747 1665 0.949983 0.212741 -0.346714
-3.776045 -3.258836 -0.176200 1659 0.956601 0.218467 -0.324455
-3.775811 -3.258621 -0.174651 1661 0.959969 0.221561 -0.302167
-3.775464 -3.258322 -0.173103 1665 0.964961 0.225863 -0.279894
-3.775173 -3.258065 -0.171554 1671 0.969149 0.229561 -0.257606
-3.774550 -3.257519 -0.169998 1679 0.978113 0.237417 -0.235218
-3.774266 -3.257255 -0.168451 1675 0.982199 0.241214 -0.212959
-3.774471 -3.257422 -0.166929 1671 0.979249 0.238813 -0.191059
-3.774074 -3.257074 -0.165382 1671 0.984960 0.243818 -0.168800
-3.773613 -3.256676 -0.163823 1665 0.991595 0.249547 -0.146369
-3.773202 -3.256313 -0.162277 1665 0.997509 0.254768 -0.124124
-3.773301 -3.256388 -0.160756 1663 0.996085 0.253691 -0.102239
-3.773569 -3.256605 -0.159225 1673 0.992226 0.250569 -0.080210
-3.773767 -3.256779 -0.157703 1679 0.989379 0.248065 -0.058311
-3.774191 -3.257138 -0.156190 1679 0.983279 0.242899 -0.036541
-3.774395 -3.257305 -0.154659 1683 0.980343 0.240497 -0.014513
-3.774217 -3.257133 -0.153121 1677 0.982905 0.242971 0.007617
-3.773920 -3.256870 -0.151582 1677 0.987176 0.246755 0.029761
-3.773629 -3.256613 -0.150033 1671 0.991365 0.250453 0.052049
-3.774209 -3.257113 -0.148530 1671 0.983019 0.243259 0.073674
-3.775248 -3.258001 -0.147035 1669 0.968069 0.230480 0.095185
-3.775509 -3.258211 -0.145513 1665 0.964312 0.227462 0.117085
-3.775431 -3.258138 -0.143974 1655 0.965437 0.228511 0.139228
-3.775522 -3.258207 -0.142444 1653 0.964127 0.227517 0.161243
-3.776165 -3.258755 -0.140930 1665 0.954875 0.219633 0.183027
-3.777028 -3.259495 -0.139434 1671 0.942457 0.208985 0.204552
-3.777183 -3.259613 -0.137904 1671 0.940227 0.207287 0.226566
-3.777260 -3.259682 -0.136373 1657 0.939119 0.206296 0.248595
-3.778023 -3.260323 -0.134870 1649 0.928141 0.197071 0.270221
-3.778270 -3.260533 -0.133338 1643 0.924587 0.194049 0.292264
-3.778581 -3.260792 -0.131816 1645 0.920114 0.190323 0.314164
-3.779224 -3.261341 -0.130302 1639 0.910862 0.182423 0.335948
-3.779704 -3.261742 -0.128780 1629 0.903953 0.176653 0.357847
-3.780616 -3.262531 -0.127275 1625 0.890831 0.165301 0.379502
-3.781429 -3.263221 -0.125770 1621 0.879133 0.155373 0.401156
-3.782016 -3.263714 -0.124257 1621 0.870687 0.148279 0.422926
-3.782482 -3.264115 -0.122733 1615 0.863984 0.142509 0.444854
-3.783337 -3.264847 -0.121219 1599 0.851679 0.131978 0.466638
-3.784313 -3.265672 -0.119714 1585 0.837638 0.120108 0.488293
-3.785232 -3.266454 -0.118209 1577 0.824414 0.108856 0.509948
-3.786031 -3.267145 -0.116695 1559 0.812918 0.098915 0.531732
-3.787112 -3.268061 -0.115188 1541 0.797364 0.085735 0.553415
-3.788577 -3.269318 -0.113691 1533 0.776284 0.067646 0.574955
-3.790047 -3.270580 -0.112192 1519 0.755135 0.049488 0.596523
-3.791511 -3.271836 -0.110694 1509 0.734069 0.031416 0.618077
-3.793024 -3.273142 -0.109195 1501 0.712299 0.012624 0.639646
-3.794438 -3.274348 -0.107698 1473 0.691956 -0.004727 0.661185
-3.796340 -3.275986 -0.106206 1451 0.664587 -0.028295 0.682653
-3.797479 -3.276959 -0.104690 1423 0.648200 -0.042294 0.704466
-3.798893 -3.278165 -0.103181 1391 0.627854 -0.059649 0.726178
-3.801008 -3.279986 -0.101690 1359 0.597422 -0.085848 0.747631
-3.803250 -3.281907 -0.100208 1313 0.565162 -0.113491 0.768955
-3.806199 -3.284449 -0.098731 1269 0.522730 -0.150066 0.790207
-3.809000 -3.286857 -0.097255 1203 0.482429 -0.184711 0.811444
-3.809006 -3.285516 -0.220945 1221 0.482343 -0.165418 -0.968268
-3.806084 -3.282982 -0.219232 1281 0.524387 -0.128959 -0.943620
-3.803487 -3.280732 -0.217546 1325 0.561752 -0.096582 -0.919362
-3.800501 -3.278149 -0.215833 1357 0.604715 -0.059416 -0.894714
-3.797890 -3.275899 -0.214149 1391 0.642286 -0.027042 -0.870484
-3.796234 -3.274461 -0.212518 1423 0.666114 -0.006353 -0.847016
-3.794408 -3.272868 -0.210878 1437 0.692385 0.016569 -0.823419
-3.792688 -3.271381 -0.209247 1451 0.717136 0.037965 -0.799951
-3.791301 -3.270184 -0.207635 1477 0.737091 0.055186 -0.776757
-3.789306 -3.268450 -0.205987 1495 0.765797 0.080136 -0.753045
-3.787975 -3.267295 -0.204383 1513 0.784946 0.096757 -0.729966
-3.786921 -3.266374 -0.202791 1531 0.800112 0.110005 -0.707059
-3.785526 -3.265170 -0.201179 1543 0.820184 0.127329 -0.683865
-3.785363 -3.265012 -0.199628 1563 0.822530 0.129604 -0.661549
-3.785235 -3.264904 -0.198089 1567 0.824373 0.131158 -0.639405
-3.784570 -3.264315 -0.196523 1583 0.833940 0.139634 -0.616872
-3.783126 -3.263061 -0.194911 1597 0.854715 0.157675 -0.593678
-3.781505 -3.261659 -0.193290 1597 0.878039 0.177850 -0.570354
-3.780840 -3.261070 -0.191724 1605 0.887610 0.186323 -0.547822
-3.780881 -3.261103 -0.190194 1623 0.887020 0.185850 -0.525807
-3.780265 -3.260564 -0.188629 1631 0.895881 0.193603 -0.503290
-3.779366 -3.259784 -0.187053 1639 0.908817 0.204827 -0.480613
-3.778920 -3.259386 -0.185495 1649 0.915236 0.210553 -0.458196
-3.778410 -3.258938 -0.183938 1655 0.922574 0.216999 -0.435793
-3.777454 -3.258115 -0.182353 1655 0.936330 0.228841 -0.412988
-3.777001 -3.257710 -0.180806 1653 0.942848 0.234669 -0.390728
-3.777042 -3.257744 -0.179277 1661 0.942258 0.234178 -0.368728
-3.777530 -3.258151 -0.177764 1675 0.935236 0.228323 -0.346959
-3.777628 -3.258227 -0.176233 1671 0.933826 0.227228 -0.324930
-3.776836 -3.257539 -0.174657 1673 0.945222 0.237129 -0.302254
-3.775781 -3.256618 -0.173084 1669 0.960401 0.250381 -0.279621
-3.774988 -3.255930 -0.171518 1667 0.971811 0.260281 -0.257088
-3.774860 -3.255807 -0.169978 1669 0.973653 0.262051 -0.234930
-3.774520 -3.255501 -0.168430 1671 0.978545 0.266452 -0.212657
-3.774229 -3.255244 -0.166883 1671 0.982731 0.270151 -0.190398
-3.774327 -3.255320 -0.165351 1673 0.981321 0.269056 -0.168354
-3.774306 -3.255303 -0.163822 1663 0.981622 0.269303 -0.146354
-3.773958 -3.254990 -0.162275 1671 0.986631 0.273804 -0.124095
-3.774382 -3.255348 -0.160762 1687 0.980528 0.268655 -0.102326
-3.774877 -3.255763 -0.159250 1689 0.973406 0.262682 -0.080570
-3.774466 -3.255401 -0.157701 1683 0.979321 0.267893 -0.058282
-3.774833 -3.255716 -0.156179 1689 0.974041 0.263358 -0.036383
-3.774649 -3.255551 -0.154640 1681 0.976689 0.265732 -0.014239
-3.773863 -3.254857 -0.153085 1669 0.987996 0.275718 0.008135
-3.773728 -3.254741 -0.151546 1667 0.989941 0.277389 0.030279
-3.773713 -3.254718 -0.150016 1669 0.990154 0.277718 0.052293
-3.774526 -3.255408 -0.148511 1679 0.978460 0.267790 0.073948
-3.775339 -3.256099 -0.147006 1677 0.966762 0.257849 0.095602
-3.774871 -3.255693 -0.145459 1669 0.973492 0.263691 0.117862
-3.774963 -3.255762 -0.143928 1665 0.972171 0.262696 0.139890
-3.775945 -3.256608 -0.142433 1665 0.958041 0.250525 0.161401
-3.776702 -3.257242 -0.140930 1667 0.947150 0.241403 0.183027
-3.777126 -3.257600 -0.139406 1669 0.941047 0.236251 0.204955
-3.777599 -3.258008 -0.137893 1675 0.934241 0.230381 0.226725
-3.778122 -3.258451 -0.136371 1671 0.926718 0.224007 0.248624
-3.778659 -3.258908 -0.134858 1661 0.918989 0.217431 0.270394
-3.779076 -3.259259 -0.133346 1657 0.912989 0.212381 0.292149
-3.779556 -3.259660 -0.131822 1653 0.906083 0.206611 0.314077
-3.780044 -3.260068 -0.130300 1639 0.899061 0.200742 0.335977
-3.780291 -3.260278 -0.128778 1633 0.895507 0.197719 0.357876
-3.780651 -3.260586 -0.127256 1627 0.890327 0.193287 0.379775
-3.781676 -3.261461 -0.125751 1625 0.875579 0.180697 0.401430
-3.782545 -3.262193 -0.124246 1627 0.863075 0.170166 0.423084
-3.783238 -3.262792 -0.122732 1619 0.853106 0.161545 0.444869
-3.783995 -3.263426 -0.121217 1603 0.842215 0.152423 0.466667
-3.784574 -3.263926 -0.119705 1589 0.833882 0.145230 0.488423
-3.785599 -3.264800 -0.118198 1583 0.819134 0.132653 0.510106
-3.786567 -3.265631 -0.116683 1571 0.805206 0.120698 0.531905
-3.787430 -3.266357 -0.115178 1561 0.792788 0.110252 0.553559
-3.788399 -3.267189 -0.113662 1547 0.778847 0.098280 0.575372
-3.789416 -3.268056 -0.112157 1523 0.764212 0.085807 0.597027
-3.791489 -3.269835 -0.110675 1517 0.734388 0.060208 0.618351
-3.793568 -3.271621 -0.109193 1513 0.704474 0.034511 0.639674
-3.795039 -3.272884 -0.107686 1489 0.683308 0.016339 0.661358
-3.796389 -3.274041 -0.106187 1461 0.663881 -0.000309 0.682926
-3.797959 -3.275389 -0.104678 1437 0.641291 -0.019705 0.704638
-3.799423 -3.276645 -0.103181 1409 0.620228 -0.037776 0.726178
-3.801057 -3.278042 -0.101682 1377 0.596715 -0.057879 0.747746
-3.803405 -3.280054 -0.100189 1331 0.562932 -0.086829 0.769228
-3.806142 -3.282413 -0.098712 1283 0.523550 -0.120770 0.790480
-3.809147 -3.284997 -0.097236 1225 0.480316 -0.157950 0.811718
-3.811998 -3.287440 -0.095760 1133 0.439294 -0.193102 0.832955
-3.809720 -3.284136 -0.220933 1249 0.472069 -0.145562 -0.968095
-3.806175 -3.281080 -0.219194 1293 0.523077 -0.101590 -0.943074
-3.803253 -3.278547 -0.217491 1333 0.565121 -0.065145 -0.918570
-3.800648 -3.276289 -0.215795 1371 0.602602 -0.032655 -0.894167
-3.798872 -3.274760 -0.214155 1403 0.628156 -0.010655 -0.870570
-3.796884 -3.273033 -0.212507 1435 0.656759 0.014195 -0.846858
-3.794726 -3.271164 -0.210847 1449 0.687812 0.041087 -0.822973
-3.793282 -3.269910 -0.209236 1465 0.708587 0.059128 -0.799793
-3.791894 -3.268713 -0.207624 1491 0.728559 0.076352 -0.776599
-3.790118 -3.267169 -0.205983 1513 0.754113 0.098568 -0.752987
-3.788618 -3.265874 -0.204372 1533 0.775694 0.117202 -0.729808
-3.787287 -3.264719 -0.202760 1543 0.794846 0.133820 -0.706613
-3.786558 -3.264081 -0.201185 1559 0.805337 0.143000 -0.683951
-3.786119 -3.263690 -0.199626 1579 0.811652 0.148626 -0.661520
-3.785446 -3.263107 -0.198060 1587 0.821337 0.157013 -0.638988
-3.784497 -3.262278 -0.196475 1605 0.834990 0.168941 -0.616182
-3.783054 -3.261024 -0.194864 1613 0.855751 0.186985 -0.593002
-3.781384 -3.259573 -0.193244 1609 0.879782 0.207863 -0.569692
-3.781093 -3.259316 -0.191696 1609 0.883970 0.211561 -0.547419
-3.781199 -3.259399 -0.190164 1619 0.882444 0.210368 -0.525376
-3.780964 -3.259198 -0.188627 1635 0.885826 0.213259 -0.503261
-3.780624 -3.258892 -0.187068 1647 0.890718 0.217661 -0.480829
-3.779506 -3.257921 -0.185483 1655 0.906804 0.231633 -0.458023
-3.778663 -3.257184 -0.183910 1657 0.918934 0.242237 -0.435390
-3.778323 -3.256892 -0.182361 1655 0.923826 0.246439 -0.413103
-3.778089 -3.256678 -0.180812 1651 0.927191 0.249516 -0.390815
-3.777912 -3.256520 -0.179273 1669 0.929740 0.251791 -0.368671
-3.777791 -3.256404 -0.177734 1675 0.931479 0.253461 -0.346527
-3.777833 -3.256438 -0.176204 1679 0.930875 0.252971 -0.324513
-3.776934 -3.255643 -0.174629 1675 0.943812 0.264411 -0.301851
-3.776254 -3.255054 -0.173063 1673 0.953595 0.272885 -0.279318
-3.776076 -3.254897 -0.171523 1669 0.956155 0.275142 -0.257160
-3.775064 -3.254018 -0.169950 1667 0.970717 0.287790 -0.234527
-3.774887 -3.253846 -0.168411 1669 0.973262 0.290267 -0.212383
-3.775594 -3.254459 -0.166906 1683 0.963091 0.281447 -0.190728
-3.775572 -3.254428 -0.165376 1685 0.963407 0.281893 -0.168714
-3.775231 -3.254122 -0.163829 1673 0.968316 0.286294 -0.146455
-3.774820 -3.253759 -0.162280 1679 0.974226 0.291519 -0.124167
-3.775089 -3.253990 -0.160760 1701 0.970357 0.288195 -0.102297
-3.775569 -3.254391 -0.159246 1711 0.963451 0.282425 -0.080513
-3.775554 -3.254367 -0.157707 1693 0.963667 0.282768 -0.058369
-3.775143 -3.254005 -0.156160 1693 0.969581 0.287979 -0.036110
-3.775015 -3.253896 -0.154630 1687 0.971420 0.289546 -0.014095
-3.775446 -3.254262 -0.153108 1681 0.965221 0.284281 0.007804
-3.775757 -3.254521 -0.151586 1679 0.960745 0.280555 0.029703
-3.775962 -3.254689 -0.150064 1677 0.957794 0.278137 0.051602
-3.775898 -3.254616 -0.148534 1675 0.958717 0.279186 0.073617
-3.775649 -3.254401 -0.146987 1673 0.962299 0.282281 0.095876
-3.775132 -3.253947 -0.145439 1673 0.969739 0.288812 0.118149
-3.775499 -3.254248 -0.143916 1685 0.964456 0.284483 0.140063
-3.776808 -3.255377 -0.142431 1687 0.945623 0.268236 0.161430
-3.777946 -3.256350 -0.140943 1675 0.929249 0.254237 0.182840
-3.778150 -3.256518 -0.139413 1659 0.926313 0.251821 0.204854
-3.778298 -3.256629 -0.137891 1669 0.924186 0.250223 0.226754
-3.778114 -3.256464 -0.136352 1667 0.926831 0.252597 0.248897
-3.778531 -3.256815 -0.134830 1655 0.920831 0.247547 0.270797
-3.779669 -3.257788 -0.133334 1663 0.904457 0.233547 0.292322
-3.780149 -3.258203 -0.131822 1663 0.897552 0.227575 0.314077
-3.780736 -3.258696 -0.130298 1651 0.889106 0.220481 0.336005
-3.780933 -3.258856 -0.128778 1641 0.886272 0.218179 0.357876
-3.781293 -3.259165 -0.127256 1635 0.881092 0.213733 0.379775
-3.782319 -3.260039 -0.125749 1625 0.866327 0.201157 0.401459
-3.782849 -3.260489 -0.124227 1615 0.858701 0.194683 0.423358
-3.783499 -3.261031 -0.122712 1603 0.849350 0.186886 0.445156
-3.784467 -3.261863 -0.121208 1599 0.835422 0.174913 0.466797
-3.785443 -3.262701 -0.119701 1601 0.821378 0.162855 0.488480
-3.786299 -3.263420 -0.118196 1595 0.809062 0.152509 0.510135
-3.787047 -3.264061 -0.116683 1581 0.798301 0.143288 0.531905
-3.787796 -3.264702 -0.115157 1569 0.787522 0.134063 0.553861
-3.788822 -3.265577 -0.113653 1557 0.772761 0.121473 0.575502
-3.789847 -3.266451 -0.112148 1539 0.758013 0.108901 0.597156
-3.791530 -3.267897 -0.110658 1519 0.733797 0.088095 0.618595
-3.794055 -3.270058 -0.109184 1519 0.697465 0.057001 0.639804
-3.795236 -3.271073 -0.107677 1499 0.680471 0.042394 0.661487
-3.796317 -3.271990 -0.106160 1467 0.664917 0.029200 0.683315
-3.798163 -3.273585 -0.104671 1447 0.638358 0.006250 0.704739
-3.799747 -3.274933 -0.103172 1419 0.615566 -0.013146 0.726308
-3.801650 -3.276571 -0.101671 1387 0.588184 -0.036713 0.747905
-3.803778 -3.278392 -0.100189 1351 0.557567 -0.062915 0.769228
-3.806183 -3.280460 -0.098695 1307 0.522960 -0.092668 0.790725
-3.808970 -3.282855 -0.097219 1255 0.482861 -0.127130 0.811962
-3.811544 -3.285064 -0.095735 1177 0.445826 -0.158914 0.833315
-3.805870 -3.278867 -0.219127 1299 0.527464 -0.069749 -0.942110
-3.802884 -3.276284 -0.217424 1339 0.570428 -0.032583 -0.917606
-3.801001 -3.274648 -0.215774 1385 0.597522 -0.009043 -0.893865
-3.798949 -3.272872 -0.214116 1413 0.627048 0.016511 -0.870009
-3.797124 -3.271293 -0.212476 1439 0.653308 0.039231 -0.846412
-3.795630 -3.270004 -0.210855 1461 0.674803 0.057776 -0.823088
-3.794186 -3.268750 -0.209234 1481 0.695579 0.075821 -0.799764
-3.792523 -3.267306 -0.207612 1505 0.719510 0.096596 -0.776426
-3.790803 -3.265818 -0.205982 1523 0.744257 0.118005 -0.752973
-3.790025 -3.265145 -0.204397 1537 0.755451 0.127689 -0.730167
-3.789189 -3.264414 -0.202821 1547 0.767478 0.138207 -0.707491
-3.787682 -3.263111 -0.201200 1565 0.789162 0.156955 -0.684167
-3.786132 -3.261765 -0.199588 1577 0.811464 0.176323 -0.660973
-3.785403 -3.261127 -0.198013 1589 0.821954 0.185503 -0.638311
-3.785346 -3.261075 -0.196473 1611 0.822774 0.186251 -0.616153
-3.784453 -3.260288 -0.194898 1615 0.835625 0.197575 -0.593491
-3.783229 -3.259226 -0.193296 1615 0.853233 0.212855 -0.570441
-3.782549 -3.258637 -0.191728 1617 0.863020 0.221331 -0.547879
-3.782096 -3.258246 -0.190172 1629 0.869538 0.226957 -0.525491
-3.781367 -3.257607 -0.188606 1633 0.880025 0.236151 -0.502959
-3.780588 -3.256919 -0.187030 1635 0.891236 0.246051 -0.480282
-3.779851 -3.256288 -0.185464 1643 0.901840 0.255128 -0.457750
-3.779073 -3.255600 -0.183889 1647 0.913033 0.265029 -0.435088
-3.778718 -3.255294 -0.182340 1653 0.918141 0.269430 -0.412800
-3.778767 -3.255320 -0.180810 1659 0.917435 0.269056 -0.390786
-3.778922 -3.255452 -0.179279 1667 0.915205 0.267159 -0.368757
-3.778582 -3.255145 -0.177732 1675 0.920097 0.271574 -0.346498
-3.777959 -3.254598 -0.176175 1671 0.929061 0.279447 -0.324095
-3.777449 -3.254151 -0.174617 1673 0.936402 0.285876 -0.301678
-3.776989 -3.253753 -0.173061 1675 0.943019 0.291605 -0.279290
-3.776698 -3.253496 -0.171522 1677 0.947204 0.295303 -0.257146
-3.776577 -3.253381 -0.169982 1675 0.948947 0.296956 -0.234987
-3.776781 -3.253548 -0.168451 1679 0.946011 0.294555 -0.212959
-3.776321 -3.253150 -0.166904 1683 0.952631 0.300280 -0.190700
-3.775981 -3.252844 -0.165357 1697 0.957523 0.304682 -0.168441
-3.775853 -3.252721 -0.163818 1693 0.959365 0.306452 -0.146297
-3.775343 -3.252274 -0.162269 1681 0.966703 0.312884 -0.124009
-3.775264 -3.252201 -0.160730 1685 0.967839 0.313934 -0.101865
-3.775250 -3.252177 -0.159200 1697 0.968041 0.314280 -0.079851
-3.774789 -3.251779 -0.157653 1695 0.974672 0.320006 -0.057592
-3.775496 -3.252378 -0.156148 1699 0.964501 0.311388 -0.035937
-3.776536 -3.253267 -0.154653 1701 0.949537 0.298596 -0.014426
-3.776344 -3.253095 -0.153114 1697 0.952299 0.301073 0.007718
-3.776216 -3.252972 -0.151574 1695 0.954141 0.302843 0.029876
-3.776420 -3.253139 -0.150054 1689 0.951204 0.300438 0.051746
-3.776455 -3.253166 -0.148523 1677 0.950704 0.300051 0.073775
-3.776108 -3.252852 -0.146976 1675 0.955695 0.304569 0.096034
-3.776143 -3.252878 -0.145446 1685 0.955191 0.304195 0.118049
-3.776673 -3.253329 -0.143932 1683 0.947565 0.297704 0.139833
-3.777379 -3.253927 -0.142429 1681 0.937407 0.289101 0.161459
-3.778023 -3.254476 -0.140914 1681 0.928141 0.281200 0.183257
-3.778772 -3.255117 -0.139411 1675 0.917363 0.271979 0.204883
-3.779641 -3.255850 -0.137906 1679 0.904862 0.261430 0.226538
-3.779619 -3.255834 -0.136377 1667 0.905178 0.261660 0.248538
-3.779874 -3.256037 -0.134845 1661 0.901507 0.258741 0.270581
-3.780630 -3.256684 -0.133340 1669 0.890629 0.249430 0.292236
-3.780608 -3.256654 -0.131811 1663 0.890948 0.249863 0.314236
-3.781244 -3.257196 -0.130296 1653 0.881795 0.242065 0.336034
-3.782000 -3.257844 -0.128784 1647 0.870917 0.232741 0.357790
-3.781873 -3.257722 -0.127244 1643 0.872746 0.234498 0.379948
-3.782070 -3.257882 -0.125722 1631 0.869912 0.232192 0.401847
-3.782926 -3.258615 -0.124208 1619 0.857593 0.221647 0.423631
-3.784234 -3.259730 -0.122720 1613 0.838774 0.205603 0.445041
-3.785152 -3.260512 -0.121206 1613 0.825566 0.194351 0.466826
-3.786404 -3.261584 -0.119708 1609 0.807553 0.178927 0.488379
-3.787811 -3.262783 -0.118221 1605 0.787306 0.161675 0.509775
-3.788341 -3.263233 -0.116697 1593 0.779680 0.155202 0.531703
-3.788652 -3.263493 -0.115165 1575 0.775207 0.151459 0.553746
-3.789338 -3.264084 -0.113651 1559 0.765334 0.142955 0.575531
-3.790532 -3.265100 -0.112144 1547 0.748154 0.128338 0.597214
-3.791883 -3.266257 -0.110647 1527 0.728717 0.111690 0.618754
-3.793233 -3.267414 -0.109140 1517 0.709294 0.095042 0.640437
-3.794436 -3.268436 -0.107633 1493 0.691983 0.080338 0.662120
-3.796451 -3.270173 -0.106151 1473 0.662989 0.055344 0.683444
-3.798523 -3.271937 -0.104659 1453 0.633178 0.029965 0.704912
-3.799767 -3.273002 -0.103153 1429 0.615278 0.014641 0.726581
-3.801613 -3.274583 -0.101652 1399 0.588715 -0.008110 0.748178
-3.804081 -3.276702 -0.100179 1357 0.553207 -0.038596 0.769372
-3.806097 -3.278438 -0.098678 1317 0.524198 -0.063577 0.790969
-3.808388 -3.280394 -0.097194 1271 0.491235 -0.091721 0.812322
-3.811232 -3.282844 -0.095708 1205 0.450313 -0.126972 0.833703
-3.808685 -3.279314 -0.220783 1261 0.486961 -0.076181 -0.965937
-3.805798 -3.276815 -0.219079 1297 0.528500 -0.040222 -0.941419
-3.803371 -3.274721 -0.217403 1345 0.563423 -0.010092 -0.917304
-3.801092 -3.272760 -0.215726 1387 0.596215 0.018123 -0.893175
-3.799323 -3.271223 -0.214095 1417 0.621665 0.040236 -0.869707
-3.797766 -3.269871 -0.212465 1451 0.644070 0.059690 -0.846254
-3.795884 -3.268250 -0.210826 1471 0.671150 0.083014 -0.822671
-3.794723 -3.267237 -0.209222 1493 0.687853 0.097590 -0.799592
-3.793060 -3.265792 -0.207591 1505 0.711781 0.118383 -0.776124
-3.791276 -3.264255 -0.205961 1521 0.737451 0.140495 -0.752671
-3.790668 -3.263723 -0.204395 1535 0.746199 0.148152 -0.730138
-3.789387 -3.262618 -0.202783 1549 0.764631 0.164049 -0.706944
-3.787943 -3.261364 -0.201169 1563 0.785409 0.182093 -0.683721
-3.786945 -3.260500 -0.199586 1577 0.799766 0.194526 -0.660944
-3.785883 -3.259571 -0.197992 1591 0.815049 0.207891 -0.638009
-3.784991 -3.258798 -0.196416 1601 0.827882 0.219016 -0.615333
-3.784368 -3.258251 -0.194850 1613 0.836846 0.226885 -0.592800
-3.783695 -3.257670 -0.193284 1623 0.846530 0.235245 -0.570268
-3.783029 -3.257081 -0.191709 1631 0.856111 0.243719 -0.547606
-3.782300 -3.256442 -0.190143 1633 0.866602 0.252912 -0.525074
-3.781182 -3.255471 -0.188548 1629 0.882687 0.266885 -0.502124
-3.780672 -3.255024 -0.186992 1635 0.890025 0.273317 -0.479736
-3.780388 -3.254774 -0.185443 1645 0.894111 0.276912 -0.457448
-3.779538 -3.254044 -0.183877 1643 0.906344 0.287416 -0.434916
-3.778640 -3.253264 -0.182304 1653 0.919263 0.298641 -0.412282
-3.778582 -3.253198 -0.180763 1661 0.920097 0.299591 -0.390110
-3.779289 -3.253797 -0.179260 1677 0.909925 0.290970 -0.368484
-3.779331 -3.253830 -0.177730 1687 0.909322 0.290497 -0.346469
-3.778375 -3.252993 -0.176154 1679 0.923078 0.302538 -0.323793
-3.777590 -3.252312 -0.174589 1675 0.934371 0.312339 -0.301275
-3.777681 -3.252381 -0.173059 1681 0.933061 0.311344 -0.279261
-3.777170 -3.251933 -0.171501 1679 0.940416 0.317790 -0.256843
-3.776321 -3.251203 -0.169937 1675 0.952631 0.328294 -0.234340
-3.776370 -3.251229 -0.168405 1677 0.951925 0.327920 -0.212297
-3.776907 -3.251686 -0.166892 1685 0.944199 0.321344 -0.190527
-3.777062 -3.251818 -0.165372 1701 0.941970 0.319447 -0.168656
-3.776601 -3.251406 -0.163814 1705 0.948601 0.325374 -0.146239
-3.776141 -3.251008 -0.162267 1691 0.955221 0.331100 -0.123980
-3.775518 -3.250461 -0.160711 1687 0.964185 0.338969 -0.101592
-3.775836 -3.250727 -0.159189 1691 0.959609 0.335144 -0.079692
-3.776712 -3.251467 -0.157693 1707 0.947005 0.324496 -0.058167
-3.777242 -3.251918 -0.156181 1713 0.939380 0.318006 -0.036412
-3.777277 -3.251944 -0.154651 1711 0.938875 0.317632 -0.014398
-3.776541 -3.251298 -0.153095 1695 0.949465 0.326928 0.007991
-3.776746 -3.251466 -0.151563 1691 0.946515 0.324510 0.030034
-3.776837 -3.251534 -0.150043 1689 0.945204 0.323532 0.051905
-3.776433 -3.251179 -0.148496 1681 0.951019 0.328640 0.074164
-3.776744 -3.251438 -0.146974 1677 0.946546 0.324915 0.096063
-3.776721 -3.251421 -0.145435 1679 0.946875 0.325158 0.118207
-3.776594 -3.251299 -0.143905 1673 0.948704 0.326915 0.140221
-3.777123 -3.251749 -0.142392 1671 0.941091 0.320438 0.161991
-3.778050 -3.252538 -0.140888 1681 0.927754 0.309087 0.183631
-3.779082 -3.253420 -0.139390 1689 0.912903 0.296394 0.205185
-3.779562 -3.253821 -0.137878 1681 0.905997 0.290627 0.226941
-3.779541 -3.253790 -0.136348 1669 0.906299 0.291073 0.248955
-3.779681 -3.253908 -0.134818 1661 0.904286 0.289375 0.270969
-3.779879 -3.254068 -0.133287 1659 0.901435 0.287073 0.292998
-3.780197 -3.254335 -0.131765 1653 0.896862 0.283231 0.314898
-3.781060 -3.255075 -0.130260 1651 0.884444 0.272583 0.336552
-3.781759 -3.255666 -0.128757 1653 0.874386 0.264079 0.358178
-3.782565 -3.256350 -0.127241 1651 0.862787 0.254237 0.379991
-3.783314 -3.256990 -0.125738 1645 0.852012 0.245029 0.401617
-3.784127 -3.257681 -0.124223 1639 0.840314 0.235088 0.423415
-3.784487 -3.257976 -0.122701 1631 0.835134 0.230841 0.445315
-3.785130 -3.258525 -0.121187 1617 0.825882 0.222944 0.467099
-3.786318 -3.259547 -0.119691 1615 0.808788 0.208237 0.488624
-3.787294 -3.260372 -0.118175 1607 0.794747 0.196368 0.510437
-3.788206 -3.261147 -0.116670 1591 0.781622 0.185215 0.532092
-3.788955 -3.261788 -0.115156 1575 0.770847 0.175994 0.553876
-3.789980 -3.262662 -0.113651 1567 0.756099 0.163418 0.575531
-3.791677 -3.264109 -0.112161 1561 0.731681 0.142598 0.596969
-3.793134 -3.265358 -0.110662 1547 0.710717 0.124626 0.618538
-3.793883 -3.265999 -0.109138 1527 0.699939 0.115401 0.640466
-3.795347 -3.267255 -0.107641 1505 0.678875 0.097330 0.662005
-3.797483 -3.269083 -0.106159 1487 0.648142 0.071028 0.683329
-3.798890 -3.270283 -0.104650 1465 0.627895 0.053763 0.705041
-3.800191 -3.271390 -0.103143 1443 0.609178 0.037835 0.726725
-3.802200 -3.273119 -0.101652 1411 0.580270 0.012957 0.748178
-3.804165 -3.274806 -0.100160 1373 0.551999 -0.011317 0.769646
-3.806139 -3.276486 -0.098668 1331 0.523595 -0.035488 0.791113
-3.808373 -3.278399 -0.097177 1291 0.491451 -0.063015 0.812567
-3.810948 -3.280609 -0.095691 1223 0.454402 -0.094812 0.833948
-3.814506 -3.283675 -0.094222 1131 0.403205 -0.138928 0.855084
-3.808153 -3.276789 -0.220708 1265 0.494617 -0.039848 -0.964858
-3.805436 -3.274447 -0.219003 1303 0.533711 -0.006151 -0.940326
-3.803065 -3.272394 -0.217338 1349 0.567824 0.023389 -0.916369
-3.800957 -3.270574 -0.215679 1395 0.598156 0.049574 -0.892498
-3.799449 -3.269272 -0.214048 1431 0.619854 0.068308 -0.869031
-3.798062 -3.268075 -0.212436 1457 0.639809 0.085532 -0.845836
-3.796406 -3.266637 -0.210805 1475 0.663637 0.106221 -0.822369
-3.794799 -3.265249 -0.209174 1489 0.686759 0.126194 -0.798901
-3.793242 -3.263896 -0.207553 1497 0.709163 0.145662 -0.775577
-3.791742 -3.262601 -0.205942 1521 0.730744 0.164296 -0.752398
-3.791303 -3.262209 -0.204374 1543 0.737063 0.169936 -0.729836
-3.790241 -3.261295 -0.202779 1565 0.752343 0.183085 -0.706887
-3.788790 -3.260034 -0.201167 1573 0.773221 0.201229 -0.683693
-3.787899 -3.259261 -0.199594 1589 0.786040 0.212354 -0.661059
-3.786844 -3.258340 -0.197999 1595 0.801220 0.225606 -0.638110
-3.785280 -3.256995 -0.196388 1595 0.823724 0.244957 -0.614930
