133
-23.964661 -20.634443 -0.167087 951 0.915116 -0.312119 -0.272789
-23.963043 -20.633001 -0.157376 983 0.938388 -0.291372 -0.133062
-23.964487 -20.634193 -0.147668 971 0.917613 -0.308524 0.006621
-23.985508 -20.639763 -0.196363 829 0.615154 -0.388660 -0.694026
-23.967363 -20.624107 -0.186540 965 0.876228 -0.163401 -0.552688
-23.963266 -20.620527 -0.176803 1047 0.935177 -0.111889 -0.412587
-23.961378 -20.618862 -0.167085 1109 0.962347 -0.087930 -0.272760
-23.960155 -20.617756 -0.157371 1113 0.979938 -0.072013 -0.132990
-23.960203 -20.617746 -0.147662 1113 0.979252 -0.071875 0.006708
-23.960299 -20.617783 -0.137950 1073 0.977880 -0.072397 0.146449
-23.963898 -20.620831 -0.128261 1033 0.926093 -0.116252 0.285859
-23.970650 -20.626596 -0.118571 939 0.828942 -0.199215 0.425283
-23.991898 -20.632811 -0.206122 821 0.523217 -0.288627 -0.834443
-23.975143 -20.618353 -0.196300 971 0.764284 -0.080603 -0.693120
-23.967394 -20.611631 -0.186536 1077 0.875789 0.016110 -0.552630
-23.963282 -20.608051 -0.176810 1135 0.934958 0.067622 -0.412688
-23.961775 -20.606712 -0.167089 1165 0.956638 0.086887 -0.272818
-23.961889 -20.606754 -0.157388 1175 0.954992 0.086284 -0.133235
-23.961334 -20.606234 -0.147681 1165 0.962978 0.093776 0.006434
-23.962269 -20.606981 -0.137977 1157 0.949530 0.083018 0.146060
-23.965256 -20.609509 -0.128289 1127 0.906553 0.046655 0.285456
-23.969679 -20.613255 -0.118594 1055 0.842911 -0.007245 0.424952
-23.979097 -20.621304 -0.108909 951 0.707393 -0.123058 0.564305
-23.987432 -20.616232 -0.206086 921 0.587463 -0.050085 -0.833925
-23.977060 -20.607262 -0.196307 1059 0.736703 0.078983 -0.693220
-23.971186 -20.602167 -0.186563 1133 0.821230 0.152286 -0.553019
-23.966917 -20.598446 -0.176837 1193 0.882650 0.205829 -0.413076
-23.964027 -20.595919 -0.167115 1199 0.924227 0.242192 -0.273192
-23.962692 -20.594717 -0.157403 1215 0.943438 0.259482 -0.133451
-23.961580 -20.593714 -0.147698 1187 0.959438 0.273917 0.006190
-23.962841 -20.594748 -0.138001 1189 0.941297 0.259043 0.145715
-23.966660 -20.597982 -0.128310 1183 0.886355 0.212498 0.285154
-23.971207 -20.601847 -0.118623 1133 0.820928 0.156897 0.424535
-23.977121 -20.606871 -0.108928 1053 0.735825 0.084609 0.564031
-23.989363 -20.617348 -0.099246 883 0.559690 -0.066140 0.703341
-23.995483 -20.610933 -0.215856 779 0.471623 0.026154 -0.974501
-23.985943 -20.602697 -0.206080 985 0.608897 0.144657 -0.833839
-23.976851 -20.594833 -0.196305 1097 0.739722 0.257808 -0.693192
-23.970797 -20.589579 -0.186570 1173 0.826829 0.333416 -0.553120
-23.968798 -20.587824 -0.176852 1203 0.855590 0.358664 -0.413292
-23.967361 -20.586538 -0.167140 1239 0.876255 0.377161 -0.273551
-23.966021 -20.585333 -0.157428 1247 0.895548 0.394506 -0.133810
-23.965801 -20.585091 -0.147729 1235 0.898704 0.397991 0.005744
-23.966515 -20.585655 -0.138026 1213 0.888440 0.389868 0.145355
-23.969212 -20.587934 -0.128341 1193 0.849635 0.357072 0.284708
-23.973146 -20.591263 -0.118648 1157 0.793018 0.309183 0.424175
-23.977688 -20.595104 -0.108951 1085 0.727674 0.253911 0.563700
-23.986549 -20.602676 -0.099269 957 0.600170 0.144958 0.703010
-23.999254 -20.601461 -0.215882 869 0.417366 0.162440 -0.974875
-23.990118 -20.593573 -0.206105 1035 0.548822 0.275948 -0.834199
-23.981802 -20.586372 -0.196343 1127 0.668478 0.379549 -0.693738
-23.975912 -20.581276 -0.186599 1195 0.753224 0.452879 -0.553537
-23.973190 -20.578892 -0.176885 1219 0.792387 0.487184 -0.413767
-23.971308 -20.577219 -0.167165 1263 0.819474 0.511252 -0.273911
-23.970467 -20.576456 -0.157460 1261 0.831577 0.522229 -0.134271
-23.970686 -20.576595 -0.147759 1267 0.828421 0.520226 0.005312
-23.971672 -20.577393 -0.138064 1215 0.814232 0.508754 0.144808
-23.973717 -20.579100 -0.128371 1205 0.784812 0.484192 0.284276
-23.977207 -20.582041 -0.118682 1181 0.734590 0.441874 0.423686
-23.983294 -20.587217 -0.108996 1123 0.647017 0.367391 0.563053
-23.991838 -20.594500 -0.099307 1001 0.524068 0.262610 0.702463
-24.003212 -20.591599 -0.215911 903 0.360420 0.304352 -0.975292
-23.994431 -20.584024 -0.206132 1043 0.486772 0.413332 -0.834587
-23.986446 -20.577118 -0.196378 1137 0.601652 0.512706 -0.694242
-23.981516 -20.572844 -0.186637 1173 0.672594 0.574208 -0.554084
-23.979174 -20.570786 -0.176921 1229 0.706295 0.603820 -0.414285
-23.977348 -20.569168 -0.167212 1257 0.732559 0.627092 -0.274587
-23.976234 -20.568169 -0.157498 1273 0.748586 0.641473 -0.134818
-23.975512 -20.567499 -0.147803 1253 0.758988 0.651106 0.004679
-23.976385 -20.568201 -0.138099 1233 0.746418 0.641006 0.144305
-23.979040 -20.570425 -0.128413 1203 0.708216 0.609007 0.283672
-23.983145 -20.573893 -0.118718 1183 0.649157 0.559114 0.423168
-23.988678 -20.578592 -0.109036 1123 0.569543 0.491492 0.562477
-23.996599 -20.585340 -0.099351 1013 0.455568 0.394396 0.701830
-24.006151 -20.581648 -0.215920 847 0.318129 0.447527 -0.975422
-23.999777 -20.576122 -0.206168 1039 0.409847 0.527032 -0.835105
-23.994286 -20.571367 -0.196429 1127 0.488858 0.595450 -0.694976
-23.990728 -20.568277 -0.186700 1181 0.540040 0.639909 -0.554990
-23.986624 -20.564703 -0.176974 1225 0.599100 0.691338 -0.415048
-23.983173 -20.561703 -0.167245 1253 0.648746 0.734508 -0.275062
-23.982117 -20.560743 -0.157542 1259 0.663949 0.748312 -0.135451
-23.982489 -20.561014 -0.147840 1253 0.658598 0.744415 0.004147
-23.983093 -20.561487 -0.138146 1239 0.649898 0.737609 0.143629
-23.984320 -20.562489 -0.128449 1209 0.632252 0.723201 0.283154
-23.988253 -20.565802 -0.118756 1173 0.575662 0.675531 0.422621
-23.995232 -20.571741 -0.109075 1117 0.475245 0.590071 0.561916
-24.004314 -20.579485 -0.099393 1023 0.344558 0.478648 0.701226
-24.017824 -20.579166 -0.216010 813 0.150173 0.483232 -0.976717
-24.011879 -20.574030 -0.206254 1037 0.235715 0.557138 -0.836343
-24.003166 -20.566507 -0.196485 1117 0.361079 0.665377 -0.695782
-23.996668 -20.560890 -0.186732 1161 0.454580 0.746199 -0.555451
-23.992893 -20.557610 -0.177014 1197 0.508892 0.793402 -0.415623
-23.990486 -20.555500 -0.167300 1223 0.543526 0.823755 -0.275854
-23.989332 -20.554461 -0.157586 1233 0.560129 0.838712 -0.136084
-23.989832 -20.554840 -0.147893 1225 0.552939 0.833251 0.003384
-23.991867 -20.556540 -0.138192 1229 0.523656 0.808798 0.142967
-23.993862 -20.558195 -0.128501 1187 0.494950 0.784977 0.282406
-23.996805 -20.560667 -0.118804 1141 0.452604 0.749410 0.421931
-24.002394 -20.565407 -0.109120 1087 0.372194 0.681212 0.561269
-24.012831 -20.574301 -0.099441 969 0.222021 0.553241 0.700535
-24.023273 -20.571060 -0.206326 951 0.071766 0.599868 -0.837379
-24.012009 -20.561373 -0.196542 1067 0.233849 0.739255 -0.696602
-24.006285 -20.556419 -0.186795 1127 0.316208 0.810527 -0.556357
-24.003340 -20.553850 -0.177073 1177 0.358582 0.847494 -0.416472
-24.000277 -20.551182 -0.167361 1197 0.402656 0.885888 -0.276731
-23.998560 -20.549656 -0.157641 1205 0.427356 0.907843 -0.136875
-23.999325 -20.550266 -0.147946 1201 0.416351 0.899061 0.002621
-24.000816 -20.551495 -0.138248 1197 0.394890 0.881387 0.142161
-24.003149 -20.553436 -0.128554 1161 0.361326 0.853449 0.281643
-24.007235 -20.556894 -0.118861 1103 0.302541 0.803694 0.421111
-24.012953 -20.561733 -0.109178 1039 0.220264 0.734069 0.560434
-24.034615 -20.580233 -0.099521 887 -0.091416 0.467890 0.699384
-24.025169 -20.559908 -0.196633 983 0.044487 0.760332 -0.697911
-24.017895 -20.553648 -0.186875 1077 0.149157 0.850403 -0.557508
-24.013510 -20.549843 -0.177142 1139 0.212251 0.905154 -0.417465
-24.009615 -20.546455 -0.167415 1165 0.268291 0.953894 -0.277508
-24.008553 -20.545504 -0.157701 1181 0.283577 0.967588 -0.137738
-24.008713 -20.545591 -0.148000 1161 0.281272 0.966326 0.001844
-24.009771 -20.546442 -0.138305 1143 0.266041 0.954086 0.141341
-24.012764 -20.548950 -0.128608 1117 0.222981 0.917997 0.280866
-24.017475 -20.552942 -0.118920 1059 0.155195 0.860557 0.420262
-24.025124 -20.559427 -0.109235 953 0.045145 0.767248 0.559614
-24.033731 -20.554480 -0.186973 985 -0.078709 0.838438 -0.558918
-24.026405 -20.548166 -0.177226 1053 0.026703 0.929277 -0.418674
-24.023014 -20.545210 -0.167495 1099 0.075498 0.971815 -0.278659
-24.022118 -20.544401 -0.157781 1125 0.088397 0.983451 -0.138890
-24.021948 -20.544197 -0.148072 1111 0.090839 0.986387 0.000808
-24.022718 -20.544815 -0.138368 1091 0.079752 0.977496 0.140434
-24.026602 -20.548082 -0.128675 1039 0.023876 0.930484 0.279902
-24.033646 -20.554056 -0.118995 969 -0.077474 0.844530 0.419182
-24.039700 -20.546515 -0.167588 985 -0.164581 0.953043 -0.279997
-24.037638 -20.544716 -0.157870 1023 -0.134914 0.978923 -0.140170
-24.037968 -20.544945 -0.148158 1021 -0.139662 0.975629 -0.000429
