192
-19.795200 -16.985336 -0.178088 787 1.036280 -0.320407 -0.337981
-19.800428 -16.989775 -0.170119 929 0.961057 -0.384269 -0.223320
-19.798756 -16.988304 -0.162098 983 0.985125 -0.363110 -0.107910
-19.797419 -16.987114 -0.154076 1007 1.004363 -0.345985 0.007515
-19.797703 -16.987312 -0.146063 1005 1.000274 -0.348839 0.122810
-19.798683 -16.988115 -0.138058 979 0.986168 -0.360393 0.237990
-19.800953 -16.990030 -0.130055 937 0.953510 -0.387946 0.353141
-19.802050 -16.990929 -0.122050 843 0.937729 -0.400873 0.468321
-19.806580 -16.985041 -0.186184 891 0.872550 -0.316153 -0.454471
-19.802694 -16.981668 -0.178147 1009 0.928453 -0.267633 -0.338831
-19.798143 -16.977718 -0.170104 1067 0.993934 -0.210796 -0.223104
-19.795479 -16.975403 -0.162068 1085 1.032274 -0.177479 -0.107478
-19.794970 -16.974928 -0.154061 1099 1.039601 -0.170646 0.007731
-19.794685 -16.974636 -0.146054 1101 1.043690 -0.166447 0.122939
-19.794401 -16.974361 -0.138035 1087 1.047779 -0.162495 0.238321
-19.797554 -16.977013 -0.130047 1071 1.002415 -0.200642 0.353256
-19.801100 -16.980015 -0.122056 1015 0.951396 -0.243839 0.468234
-19.804022 -16.982487 -0.114060 933 0.909352 -0.279406 0.583285
-19.809824 -16.977360 -0.194220 891 0.825868 -0.205637 -0.570097
-19.804712 -16.972942 -0.186158 1023 0.899418 -0.142077 -0.454097
-19.800489 -16.969284 -0.178122 1085 0.960178 -0.089440 -0.338471
-19.798220 -16.967295 -0.170096 1137 0.992837 -0.060816 -0.222989
-19.796215 -16.965544 -0.162077 1153 1.021680 -0.035622 -0.107607
-19.794550 -16.964079 -0.154057 1161 1.045639 -0.014545 0.007788
-19.794819 -16.964266 -0.146056 1161 1.041769 -0.017235 0.122911
-19.795755 -16.965025 -0.138051 1149 1.028294 -0.028157 0.238090
-19.797020 -16.966068 -0.130053 1123 1.010099 -0.043169 0.353170
-19.799454 -16.968115 -0.122059 1113 0.975081 -0.072616 0.468191
-19.803154 -16.971252 -0.114068 1037 0.921839 -0.117762 0.583170
-19.808977 -16.976194 -0.106085 941 0.838053 -0.188869 0.698033
-19.818003 -16.973696 -0.202286 857 0.708189 -0.152917 -0.686154
-19.812725 -16.969149 -0.194228 1013 0.784126 -0.087491 -0.570212
-19.806231 -16.963541 -0.186165 1103 0.877572 -0.006806 -0.454197
-19.801226 -16.959211 -0.178124 1137 0.949585 0.055491 -0.338499
-19.798506 -16.956848 -0.170090 1171 0.988720 0.089494 -0.222903
-19.796165 -16.954803 -0.162074 1191 1.022394 0.118914 -0.107564
-19.794607 -16.953424 -0.154051 1187 1.044815 0.138756 0.007874
-19.795658 -16.954285 -0.146056 1197 1.029694 0.126379 0.122911
-19.798088 -16.956322 -0.138072 1205 0.994730 0.097069 0.237788
-19.798357 -16.956524 -0.130062 1173 0.990861 0.094160 0.353040
-19.800024 -16.957897 -0.122071 1147 0.966875 0.074400 0.468018
-19.804062 -16.961321 -0.114079 1093 0.908776 0.025139 0.583011
-19.807648 -16.964361 -0.106087 1037 0.857182 -0.018607 0.698004
-19.815357 -16.970921 -0.098103 913 0.746254 -0.112986 0.812882
-19.819538 -16.964922 -0.202290 939 0.686097 -0.026675 -0.686212
-19.811432 -16.957947 -0.194207 1049 0.802733 0.073687 -0.569910
-19.806881 -16.954016 -0.186163 1123 0.868214 0.130249 -0.454169
-19.804157 -16.951643 -0.178137 1167 0.907404 0.164389 -0.338687
-19.801426 -16.949266 -0.170113 1199 0.946704 0.198584 -0.223233
-19.799875 -16.947897 -0.162093 1217 0.969015 0.218289 -0.107838
-19.798691 -16.946854 -0.154081 1233 0.986058 0.233300 0.007443
-19.799082 -16.947144 -0.146079 1235 0.980432 0.229129 0.122580
-19.798740 -16.946812 -0.138079 1225 0.985345 0.233904 0.237687
-19.799341 -16.947289 -0.130076 1201 0.976700 0.227043 0.352838
-19.802050 -16.949568 -0.122092 1181 0.937729 0.194248 0.467716
-19.805138 -16.952175 -0.114092 1145 0.893298 0.156732 0.582824
-19.810682 -16.956875 -0.106112 1087 0.813519 0.089110 0.697644
-19.817282 -16.962481 -0.098134 1003 0.718563 0.008453 0.812436
-19.821657 -16.956253 -0.202302 997 0.655607 0.098057 -0.686384
-19.814766 -16.950319 -0.194232 1095 0.754761 0.183435 -0.570269
-19.810266 -16.946438 -0.186186 1153 0.819501 0.239283 -0.454500
-19.806995 -16.943596 -0.178156 1177 0.866567 0.280174 -0.338960
-19.803553 -16.940601 -0.170126 1221 0.916104 0.323261 -0.223421
-19.801823 -16.939087 -0.162106 1221 0.940995 0.345052 -0.108025
-19.801485 -16.938765 -0.154097 1247 0.945853 0.349690 0.007213
-19.801533 -16.938765 -0.146098 1249 0.945167 0.349690 0.122306
-19.802401 -16.939468 -0.138102 1245 0.932680 0.339563 0.237357
-19.803850 -16.940664 -0.130105 1227 0.911822 0.322356 0.352421
-19.806227 -16.942654 -0.122111 1215 0.877627 0.293732 0.467443
-19.808933 -16.944937 -0.114125 1183 0.838685 0.260881 0.582349
-19.811974 -16.947493 -0.106127 1119 0.794939 0.224107 0.697428
-19.817516 -16.952192 -0.098147 1037 0.715187 0.156485 0.812249
-19.825172 -16.948771 -0.202315 1015 0.605027 0.205719 -0.686572
-19.817837 -16.942467 -0.194247 1091 0.710577 0.296421 -0.570485
-19.813559 -16.938766 -0.186202 1159 0.772133 0.349662 -0.454730
-19.810106 -16.935781 -0.178172 1195 0.821807 0.392612 -0.339190
-19.807615 -16.933603 -0.170146 1213 0.857648 0.423953 -0.223708
-19.806776 -16.932852 -0.162140 1253 0.869724 0.434766 -0.108514
-19.805441 -16.931662 -0.154128 1271 0.888934 0.451891 0.006767
-19.805372 -16.931566 -0.146128 1251 0.889922 0.453263 0.121875
-19.805258 -16.931425 -0.138119 1227 0.891569 0.455294 0.237112
-19.806471 -16.932423 -0.130124 1225 0.874115 0.440941 0.352148
-19.809345 -16.934849 -0.122136 1203 0.832757 0.406032 0.467083
-19.812557 -16.937557 -0.114148 1185 0.786541 0.367062 0.582018
-19.816093 -16.940536 -0.106158 1141 0.735660 0.324194 0.696982
-19.821701 -16.945284 -0.098176 1067 0.654975 0.255887 0.811831
-19.827122 -16.949881 -0.090186 911 0.576980 0.189747 0.926795
-19.828514 -16.941151 -0.202340 1027 0.556946 0.315357 -0.686931
-19.822741 -16.936167 -0.194274 1105 0.640018 0.387068 -0.570874
-19.817572 -16.931705 -0.186223 1165 0.714391 0.451259 -0.455032
-19.813789 -16.928446 -0.178195 1191 0.768812 0.498161 -0.339521
-19.812122 -16.926979 -0.170174 1235 0.792798 0.519265 -0.224111
-19.810955 -16.925938 -0.162171 1247 0.809594 0.534250 -0.108960
-19.809891 -16.924995 -0.154156 1255 0.824908 0.547807 0.006364
-19.809708 -16.924803 -0.146159 1247 0.827542 0.550579 0.121429
-19.810482 -16.925419 -0.138154 1237 0.816400 0.541714 0.236608
-19.811914 -16.926600 -0.130166 1217 0.795790 0.524727 0.351544
-19.813803 -16.928173 -0.122164 1207 0.768620 0.502086 0.466680
-19.816790 -16.930683 -0.114178 1185 0.725643 0.465969 0.581587
-19.821436 -16.934616 -0.106190 1151 0.658790 0.409380 0.696522
-19.827318 -16.939600 -0.098208 1061 0.574153 0.337669 0.811371
-19.833746 -16.945055 -0.090220 923 0.481667 0.259180 0.926306
-19.834999 -16.935802 -0.202378 1037 0.463637 0.392310 -0.687478
-19.829052 -16.930679 -0.194323 1119 0.549207 0.466024 -0.571579
-19.823942 -16.926277 -0.186273 1169 0.622729 0.529365 -0.455751
-19.820330 -16.923151 -0.178234 1201 0.674707 0.574345 -0.340082
-19.817492 -16.920683 -0.170208 1243 0.715544 0.609858 -0.224600
-19.814878 -16.918419 -0.162194 1235 0.753142 0.642433 -0.109291
-19.814367 -16.917940 -0.154187 1245 0.760497 0.649322 0.005918
-19.815199 -16.918612 -0.146193 1243 0.748531 0.639662 0.120939
-19.815470 -16.918798 -0.138192 1239 0.744634 0.636972 0.236062
-19.814789 -16.918182 -0.130185 1219 0.754432 0.645836 0.351270
-19.817057 -16.920082 -0.122193 1197 0.721801 0.618502 0.466263
-19.822054 -16.924299 -0.114214 1183 0.649898 0.557824 0.581069
-19.826977 -16.928473 -0.106236 1139 0.579066 0.497777 0.695860
-19.832363 -16.933022 -0.098244 1059 0.501564 0.432323 0.810853
-19.838467 -16.938190 -0.090260 921 0.413744 0.357950 0.925731
-19.843002 -16.931732 -0.202439 1019 0.348482 0.450875 -0.688356
-19.834934 -16.924807 -0.194356 1103 0.464570 0.550524 -0.572053
-19.828878 -16.919594 -0.186301 1141 0.551704 0.625528 -0.456154
-19.826197 -16.917280 -0.178275 1177 0.590290 0.658817 -0.340672
-19.824532 -16.915813 -0.170254 1219 0.614249 0.679922 -0.225262
-19.823139 -16.914585 -0.162243 1237 0.634283 0.697596 -0.109996
-19.822300 -16.913830 -0.154238 1249 0.646358 0.708463 0.005184
-19.821411 -16.913029 -0.146233 1245 0.659147 0.719990 0.120364
-19.822071 -16.913548 -0.138230 1229 0.649651 0.712525 0.235515
-19.823786 -16.914970 -0.130240 1221 0.624979 0.692052 0.350479
-19.825544 -16.916433 -0.122250 1199 0.599676 0.671003 0.465443
-19.827690 -16.918234 -0.114247 1165 0.568802 0.645096 0.580594
-19.832636 -16.922413 -0.106268 1115 0.497640 0.584966 0.695400
-19.838573 -16.927437 -0.098286 1039 0.412207 0.512679 0.810249
-19.851404 -16.928419 -0.202504 993 0.227592 0.498545 -0.689291
-19.844276 -16.922302 -0.194426 1077 0.330150 0.586558 -0.573061
-19.838661 -16.917471 -0.186377 1135 0.410944 0.656073 -0.457248
-19.834482 -16.913868 -0.178332 1169 0.471074 0.707915 -0.341492
-19.830868 -16.910751 -0.170303 1193 0.523080 0.752758 -0.225967
-19.828915 -16.909052 -0.162283 1207 0.551183 0.777210 -0.110572
-19.828751 -16.908863 -0.154284 1229 0.553543 0.779927 0.004522
-19.828690 -16.908775 -0.146275 1217 0.554421 0.781190 0.119759
-19.829231 -16.909197 -0.138281 1205 0.546627 0.775125 0.234781
-19.830782 -16.910473 -0.130284 1199 0.524315 0.756765 0.349846
-19.833158 -16.912462 -0.122290 1177 0.490120 0.728141 0.464867
-19.835817 -16.914700 -0.114295 1135 0.451863 0.695949 0.579903
-19.840919 -16.919003 -0.106316 1085 0.378451 0.634036 0.694709
-19.847477 -16.924553 -0.098328 987 0.284099 0.554174 0.809644
-19.858557 -16.923630 -0.202549 885 0.124677 0.567457 -0.689938
-19.853827 -16.919567 -0.194497 1011 0.192738 0.625912 -0.574082
-19.846426 -16.913214 -0.186429 1081 0.299220 0.717328 -0.457996
-19.842033 -16.909435 -0.178385 1127 0.362424 0.771694 -0.342255
-19.839855 -16.907532 -0.170367 1173 0.393765 0.799083 -0.226888
-19.837019 -16.905079 -0.162343 1183 0.434574 0.834376 -0.111435
-19.835562 -16.903799 -0.154323 1189 0.455541 0.852791 0.003961
-19.836729 -16.904755 -0.146325 1197 0.438745 0.839041 0.119040
-19.837114 -16.905037 -0.138323 1187 0.433201 0.834980 0.234177
-19.837822 -16.905603 -0.130330 1165 0.423020 0.826829 0.349184
-19.840359 -16.907732 -0.122334 1147 0.386519 0.796201 0.464234
-19.843409 -16.910288 -0.114348 1103 0.342637 0.759427 0.579141
-19.848637 -16.914700 -0.106358 1043 0.267413 0.695949 0.694105
-19.854408 -16.919577 -0.098374 945 0.184368 0.625775 0.808982
-19.861874 -16.915539 -0.194559 923 0.076953 0.683874 -0.574974
-19.857141 -16.911459 -0.186505 1033 0.145041 0.742576 -0.459090
-19.853079 -16.907969 -0.178467 1089 0.203496 0.792798 -0.343435
-19.849838 -16.905170 -0.170435 1133 0.250123 0.833059 -0.227866
-19.847124 -16.902807 -0.162411 1155 0.289176 0.867061 -0.112413
-19.844772 -16.900766 -0.154385 1161 0.323014 0.896426 0.003069
-19.844824 -16.900774 -0.146387 1165 0.322273 0.896317 0.118148
-19.846483 -16.902140 -0.138386 1157 0.298397 0.876667 0.233270
-19.848429 -16.903759 -0.130394 1137 0.270404 0.853367 0.348263
-19.851030 -16.905937 -0.122401 1097 0.232971 0.822026 0.463270
-19.854687 -16.909018 -0.114409 1045 0.180361 0.777704 0.578263
-19.860970 -16.914320 -0.106423 971 0.089961 0.701410 0.693170
-19.867846 -16.910511 -0.186585 929 -0.008974 0.756216 -0.460240
-19.863386 -16.906685 -0.178540 1025 0.055190 0.811268 -0.344485
-19.859879 -16.903656 -0.170500 1077 0.105659 0.854849 -0.228802
-19.857601 -16.901670 -0.162484 1109 0.138427 0.883418 -0.113464
-19.855806 -16.900110 -0.154463 1107 0.164252 0.905867 0.001947
-19.854687 -16.899113 -0.146439 1113 0.180361 0.920220 0.117400
-19.856014 -16.900208 -0.138442 1113 0.161260 0.904467 0.232465
-19.858522 -16.902294 -0.130448 1071 0.125171 0.874444 0.347486
-19.861956 -16.905176 -0.122458 1027 0.075773 0.832976 0.462450
-19.867338 -16.909721 -0.114478 963 -0.001674 0.767577 0.577270
-19.873999 -16.905729 -0.178620 905 -0.097508 0.825018 -0.345636
-19.871096 -16.903229 -0.170586 987 -0.055738 0.860996 -0.230039
-19.869257 -16.901625 -0.162556 1043 -0.029283 0.884077 -0.114499
-19.868254 -16.900726 -0.154543 1055 -0.014847 0.897003 0.000795
-19.867413 -16.899971 -0.146529 1055 -0.002744 0.907871 0.116105
-19.868177 -16.900581 -0.138524 1037 -0.013749 0.899089 0.231285
-19.869335 -16.901533 -0.130517 989 -0.030408 0.885394 0.346493
-19.872948 -16.904560 -0.122527 935 -0.082386 0.841841 0.461457
-19.880739 -16.900429 -0.162638 835 -0.194495 0.901284 -0.115679
-19.881340 -16.900906 -0.154625 875 -0.203139 0.894423 -0.000384
-19.881277 -16.900814 -0.146615 885 -0.202234 0.895740 0.114867
