768
-2.335737 -1.861315 -0.123948 1381 0.802637 0.197716 0.585242
-2.336559 -1.861971 -0.123075 1379 0.790809 0.188277 0.597804
-2.336873 -1.862216 -0.122172 1377 0.786291 0.184752 0.610796
-2.336615 -1.862001 -0.121234 1365 0.790003 0.187846 0.624293
-2.337401 -1.862622 -0.120360 1359 0.778696 0.178910 0.636868
-2.338280 -1.863319 -0.119475 1349 0.766047 0.168881 0.649602
-2.338308 -1.863341 -0.118554 1335 0.765643 0.168565 0.662854
-2.338801 -1.863718 -0.117661 1337 0.758552 0.163140 0.675703
-2.339744 -1.864464 -0.116788 1339 0.744981 0.152406 0.688264
-2.340223 -1.864841 -0.115886 1333 0.738089 0.146982 0.701242
-2.340487 -1.865051 -0.114984 1317 0.734291 0.143960 0.714221
-2.341201 -1.865616 -0.114089 1299 0.724017 0.135832 0.727099
-2.341908 -1.866174 -0.113206 1287 0.713846 0.127803 0.739804
-2.342394 -1.866558 -0.112304 1283 0.706851 0.122278 0.752782
-2.343337 -1.867304 -0.111419 1279 0.693283 0.111544 0.765516
-2.343988 -1.867820 -0.110526 1269 0.683918 0.104119 0.778365
-2.344824 -1.868475 -0.109641 1255 0.671888 0.094695 0.791099
-2.346339 -1.869680 -0.108783 1241 0.650090 0.077356 0.803444
-2.347746 -1.870794 -0.107926 1229 0.629847 0.061327 0.815775
-2.348969 -1.871770 -0.107049 1215 0.612249 0.047284 0.828394
-2.349683 -1.872334 -0.106154 1203 0.601974 0.039169 0.841271
-2.350175 -1.872712 -0.105252 1185 0.594897 0.033730 0.854250
-2.351405 -1.873694 -0.104377 1165 0.577199 0.019602 0.866840
-2.353206 -1.875121 -0.103526 1145 0.551286 -0.000931 0.879084
-2.354606 -1.876229 -0.102660 1123 0.531142 -0.016875 0.891545
-2.356293 -1.877573 -0.101800 1095 0.506868 -0.036212 0.903919
-2.357694 -1.878680 -0.100923 1073 0.486710 -0.052140 0.916537
-2.358580 -1.879384 -0.100028 1041 0.473959 -0.062270 0.929415
-2.360031 -1.880540 -0.099160 1005 0.453084 -0.078903 0.941904
-2.364205 -1.883854 -0.097459 913 0.393027 -0.126587 0.966379
-2.366070 -1.885330 -0.096599 851 0.366190 -0.147823 0.978753
-2.366949 -1.886027 -0.095704 737 0.353542 -0.157852 0.991631
-2.357704 -1.878092 -0.221589 1047 0.486566 -0.043680 -0.819664
-2.356331 -1.876987 -0.220536 1077 0.506319 -0.027780 -0.804513
-2.353914 -1.875061 -0.219388 1101 0.541097 -0.000069 -0.787995
-2.351790 -1.873364 -0.218270 1123 0.571659 0.024350 -0.771909
-2.350124 -1.872030 -0.217189 1141 0.595631 0.043543 -0.756355
-2.348973 -1.871112 -0.216165 1155 0.612190 0.056752 -0.741621
-2.347550 -1.869973 -0.215112 1169 0.632667 0.073141 -0.726470
-2.346162 -1.868868 -0.214070 1175 0.652636 0.089040 -0.711477
-2.345125 -1.868034 -0.213046 1189 0.667558 0.101040 -0.696743
-2.343974 -1.867117 -0.212022 1209 0.684117 0.114233 -0.682009
-2.343623 -1.866826 -0.211074 1233 0.689170 0.118420 -0.668369
-2.343044 -1.866368 -0.210095 1249 0.697500 0.125010 -0.654283
-2.342407 -1.865855 -0.209119 1261 0.706666 0.132393 -0.640240
-2.341435 -1.865070 -0.208116 1273 0.720652 0.143688 -0.625808
-2.340219 -1.864104 -0.207082 1281 0.738147 0.157586 -0.610930
-2.339697 -1.863674 -0.206115 1285 0.745660 0.163773 -0.597017
-2.339696 -1.863668 -0.205194 1301 0.745674 0.163860 -0.583765
-2.339510 -1.863524 -0.204255 1315 0.748350 0.165932 -0.570254
-2.338537 -1.862739 -0.203250 1315 0.762349 0.177227 -0.555794
-2.337207 -1.861675 -0.202216 1319 0.781485 0.192536 -0.540916
-2.336234 -1.860891 -0.201222 1337 0.795484 0.203817 -0.526614
-2.335541 -1.860335 -0.200246 1337 0.805457 0.211817 -0.512571
-2.335590 -1.860379 -0.199325 1347 0.804754 0.211184 -0.499319
-2.335640 -1.860408 -0.198405 1357 0.804033 0.210767 -0.486081
-2.334946 -1.859853 -0.197429 1361 0.814019 0.218752 -0.472038
-2.334474 -1.859471 -0.196471 1359 0.820808 0.224249 -0.458254
-2.333894 -1.858999 -0.195504 1355 0.829155 0.231040 -0.444340
-2.333143 -1.858402 -0.194528 1361 0.839961 0.239630 -0.430297
-2.333071 -1.858341 -0.193599 1369 0.840997 0.240508 -0.416930
-2.332942 -1.858238 -0.192670 1383 0.842853 0.241990 -0.403563
-2.332763 -1.858087 -0.191741 1397 0.845429 0.244163 -0.390196
-2.332691 -1.858026 -0.190810 1401 0.846465 0.245039 -0.376801
-2.332291 -1.857700 -0.189862 1397 0.852221 0.249731 -0.363160
-2.331990 -1.857458 -0.188914 1399 0.856551 0.253213 -0.349520
-2.331117 -1.856756 -0.187930 1393 0.869113 0.263314 -0.335362
-2.330538 -1.856285 -0.186973 1391 0.877442 0.270091 -0.321592
-2.331038 -1.856683 -0.186090 1403 0.870248 0.264363 -0.308887
-2.330909 -1.856580 -0.185161 1415 0.872104 0.265845 -0.295520
-2.330222 -1.856018 -0.184194 1413 0.881991 0.273933 -0.281606
-2.329628 -1.855546 -0.183227 1413 0.890536 0.280723 -0.267693
-2.328534 -1.854671 -0.182233 1409 0.906279 0.293313 -0.253391
-2.327833 -1.854109 -0.181256 1407 0.916364 0.301399 -0.239333
-2.328562 -1.854688 -0.180392 1411 0.905874 0.293068 -0.226901
-2.329112 -1.855121 -0.179521 1425 0.897960 0.286838 -0.214369
-2.328411 -1.854558 -0.178554 1427 0.908045 0.294939 -0.200455
-2.327767 -1.854038 -0.177587 1423 0.917315 0.302421 -0.186542
-2.328053 -1.854255 -0.176686 1423 0.913198 0.299299 -0.173578
-2.327631 -1.853922 -0.175748 1431 0.919270 0.304090 -0.160081
-2.327787 -1.854042 -0.174836 1441 0.917026 0.302363 -0.146959
-2.328058 -1.854245 -0.173936 1445 0.913126 0.299443 -0.134009
-2.327701 -1.853962 -0.172997 1441 0.918261 0.303515 -0.120499
-2.327915 -1.854123 -0.172095 1451 0.915184 0.301198 -0.107520
-2.327843 -1.854062 -0.171176 1453 0.916220 0.302076 -0.094297
-2.326970 -1.853360 -0.170192 1447 0.928779 0.312176 -0.080139
-2.326605 -1.853070 -0.169253 1449 0.934031 0.316349 -0.066628
-2.326819 -1.853231 -0.168351 1443 0.930954 0.314033 -0.053650
-2.326862 -1.853268 -0.167441 1439 0.930333 0.313500 -0.040556
-2.326783 -1.853199 -0.166522 1445 0.931472 0.314493 -0.027333
-2.326139 -1.852679 -0.165555 1445 0.940738 0.321975 -0.013419
-2.325838 -1.852437 -0.164628 1443 0.945067 0.325457 -0.000081
-2.326217 -1.852731 -0.163735 1443 0.939616 0.321227 0.012768
-2.326667 -1.853080 -0.162843 1443 0.933139 0.316205 0.025602
-2.326874 -1.853248 -0.161942 1439 0.930162 0.313788 0.038566
-2.326973 -1.853312 -0.161031 1443 0.928738 0.312867 0.051674
-2.326952 -1.853300 -0.160111 1443 0.929040 0.313040 0.064912
-2.327444 -1.853677 -0.159228 1449 0.921960 0.307615 0.077617
-2.327537 -1.853748 -0.158319 1461 0.920622 0.306594 0.090696
-2.327072 -1.853374 -0.157371 1457 0.927315 0.311975 0.104336
-2.326356 -1.852798 -0.156415 1459 0.937616 0.320263 0.118091
-2.326628 -1.853015 -0.155513 1453 0.933702 0.317141 0.131070
-2.327464 -1.853670 -0.154649 1453 0.921671 0.307716 0.143501
-2.327099 -1.853380 -0.153710 1449 0.926923 0.311889 0.157012
-2.326791 -1.853131 -0.152781 1445 0.931356 0.315471 0.170379
-2.327570 -1.853744 -0.151908 1447 0.920148 0.306651 0.182940
-2.328012 -1.854086 -0.151015 1453 0.913788 0.301730 0.195789
-2.327983 -1.854067 -0.150105 1455 0.914207 0.302004 0.208883
-2.327676 -1.853818 -0.149167 1447 0.918622 0.305586 0.222379
-2.327368 -1.853569 -0.148229 1439 0.923054 0.309169 0.235876
-2.328497 -1.854454 -0.147384 1449 0.906811 0.296435 0.248034
-2.328654 -1.854574 -0.146483 1441 0.904550 0.294709 0.260998
-2.328339 -1.854318 -0.145545 1439 0.909081 0.298392 0.274494
-2.329003 -1.854848 -0.144671 1441 0.899528 0.290766 0.287070
-2.329496 -1.855239 -0.143779 1437 0.892437 0.285140 0.299904
-2.329931 -1.855574 -0.142886 1433 0.886176 0.280320 0.312753
-2.330131 -1.855736 -0.141984 1437 0.883298 0.277989 0.325732
-2.329716 -1.855396 -0.141038 1437 0.889270 0.282881 0.339343
-2.329237 -1.855008 -0.140100 1427 0.896162 0.288464 0.352840
-2.329723 -1.855392 -0.139207 1423 0.889171 0.282939 0.365688
-2.330609 -1.856097 -0.138343 1431 0.876420 0.272795 0.378120
-2.331044 -1.856432 -0.137450 1425 0.870163 0.267976 0.390969
-2.330508 -1.856002 -0.136502 1415 0.877874 0.274163 0.404609
-2.330364 -1.855885 -0.135573 1421 0.879946 0.275845 0.417976
-2.330800 -1.856220 -0.134681 1423 0.873672 0.271025 0.430811
-2.331922 -1.857112 -0.133826 1419 0.857528 0.258190 0.443113
-2.332701 -1.857726 -0.132951 1419 0.846321 0.249357 0.455703
-2.332900 -1.857887 -0.132041 1411 0.843456 0.247039 0.468796
-2.332878 -1.857861 -0.131120 1405 0.843772 0.247413 0.482048
-2.333028 -1.857974 -0.130219 1401 0.841614 0.245787 0.495012
-2.333800 -1.858580 -0.129336 1409 0.830506 0.237069 0.507717
-2.334171 -1.858881 -0.128434 1403 0.825168 0.232738 0.520696
-2.334714 -1.859307 -0.127551 1395 0.817357 0.226607 0.533401
-2.335028 -1.859552 -0.126649 1389 0.812839 0.223083 0.546379
-2.335471 -1.859894 -0.125747 1389 0.806465 0.218162 0.559358
-2.335892 -1.860229 -0.124854 1383 0.800407 0.213342 0.572206
-2.336207 -1.860474 -0.123954 1373 0.795876 0.209817 0.585156
-2.336185 -1.860448 -0.123033 1371 0.796191 0.210191 0.598408
-2.336098 -1.860373 -0.122104 1373 0.797443 0.211270 0.611775
-2.336420 -1.860624 -0.121202 1363 0.792809 0.207659 0.624753
-2.337013 -1.861099 -0.120309 1357 0.784277 0.200824 0.637602
-2.337956 -1.861845 -0.119433 1347 0.770710 0.190090 0.650207
-2.338727 -1.862452 -0.118560 1341 0.759615 0.181356 0.662768
-2.339163 -1.862801 -0.117658 1339 0.753341 0.176335 0.675746
-2.339992 -1.863449 -0.116773 1343 0.741413 0.167011 0.688480
-2.341164 -1.864376 -0.115907 1333 0.724549 0.153674 0.700940
-2.342443 -1.865393 -0.115041 1325 0.706148 0.139039 0.713401
-2.342936 -1.865784 -0.114148 1315 0.699054 0.133413 0.726250
-2.342735 -1.865611 -0.113219 1303 0.701945 0.135904 0.739617
-2.343443 -1.866169 -0.112325 1293 0.691760 0.127875 0.752480
-2.344328 -1.866873 -0.111442 1283 0.679026 0.117744 0.765185
-2.344650 -1.867125 -0.110539 1271 0.674392 0.114118 0.778178
-2.345879 -1.868093 -0.109662 1263 0.656708 0.100191 0.790796
-2.347337 -1.869257 -0.108806 1251 0.635730 0.083443 0.803113
-2.348166 -1.869905 -0.107921 1241 0.623802 0.074119 0.815847
-2.348537 -1.870205 -0.107009 1225 0.618465 0.069802 0.828969
-2.349301 -1.870805 -0.106124 1213 0.607470 0.061169 0.841703
-2.350881 -1.872059 -0.105266 1199 0.584736 0.043126 0.854048
-2.352453 -1.873305 -0.104398 1175 0.562119 0.025199 0.866537
-2.353111 -1.873828 -0.103505 1153 0.552651 0.017672 0.879386
-2.353768 -1.874337 -0.102601 1133 0.543196 0.010350 0.892394
-2.355111 -1.875403 -0.101733 1105 0.523876 -0.004990 0.904883
-2.356969 -1.876886 -0.100875 1087 0.497139 -0.026327 0.917228
-2.358770 -1.878313 -0.100024 1055 0.471228 -0.046859 0.929473
-2.360515 -1.879699 -0.099166 1023 0.446117 -0.066802 0.941818
-2.362201 -1.881029 -0.098296 981 0.421860 -0.085939 0.954336
-2.364409 -1.882783 -0.097455 933 0.390091 -0.111177 0.966437
-2.367419 -1.885177 -0.096629 869 0.346781 -0.145622 0.978322
-2.364623 -1.882460 -0.224959 961 0.387010 -0.106529 -0.868153
-2.357237 -1.876563 -0.221498 1039 0.493283 -0.021679 -0.818355
-2.353684 -1.873720 -0.219317 1099 0.544407 0.019226 -0.786973
-2.351782 -1.872211 -0.218226 1131 0.571772 0.040939 -0.771276
-2.350859 -1.871461 -0.217212 1143 0.585055 0.051730 -0.756686
-2.350173 -1.870913 -0.216226 1163 0.594925 0.059615 -0.742499
-2.348506 -1.869578 -0.215154 1181 0.618911 0.078824 -0.727074
-2.347183 -1.868522 -0.214112 1191 0.637946 0.094018 -0.712081
-2.345975 -1.867563 -0.213078 1205 0.655329 0.107817 -0.697204
-2.344766 -1.866590 -0.212045 1225 0.672725 0.121816 -0.682340
-2.343901 -1.865896 -0.211049 1243 0.685170 0.131803 -0.668009
-2.343207 -1.865340 -0.210063 1255 0.695157 0.139802 -0.653822
-2.342456 -1.864743 -0.209077 1269 0.705959 0.148392 -0.639635
-2.341355 -1.863861 -0.208062 1281 0.721801 0.161083 -0.625031
-2.340153 -1.862895 -0.207038 1281 0.739098 0.174982 -0.610297
-2.339574 -1.862438 -0.206061 1287 0.747427 0.181558 -0.596240
-2.339395 -1.862286 -0.205123 1303 0.750003 0.183745 -0.582743
-2.339273 -1.862176 -0.204192 1315 0.751760 0.185328 -0.569347
-2.338814 -1.861808 -0.203235 1321 0.758363 0.190623 -0.555578
-2.338114 -1.861246 -0.202249 1327 0.768435 0.198709 -0.541391
-2.337248 -1.860552 -0.201264 1335 0.780895 0.208695 -0.527218
-2.336619 -1.860045 -0.200288 1349 0.789948 0.215990 -0.513175
-2.336425 -1.859894 -0.199347 1355 0.792737 0.218162 -0.499635
-2.336368 -1.859846 -0.198428 1357 0.793557 0.218853 -0.486412
-2.335838 -1.859409 -0.197461 1355 0.801183 0.225141 -0.472498
-2.334859 -1.858632 -0.196465 1353 0.815271 0.236321 -0.458168
-2.334165 -1.858076 -0.195491 1357 0.825254 0.244321 -0.444153
-2.333635 -1.857653 -0.194522 1361 0.832880 0.250406 -0.430211
-2.333284 -1.857362 -0.193574 1365 0.837933 0.254593 -0.416570
-2.333220 -1.857308 -0.192655 1377 0.838853 0.255370 -0.403347
-2.333377 -1.857428 -0.191745 1387 0.836595 0.253645 -0.390254
-2.332855 -1.857012 -0.190787 1391 0.844105 0.259629 -0.376470
-2.332039 -1.856352 -0.189801 1393 0.855844 0.269127 -0.362283
-2.331402 -1.855839 -0.188834 1389 0.865010 0.276507 -0.348369
-2.330644 -1.855235 -0.187858 1383 0.875919 0.285198 -0.334326
-2.330301 -1.854951 -0.186910 1383 0.880852 0.289284 -0.320686
-2.330908 -1.855440 -0.186038 1397 0.872118 0.282248 -0.308139
-2.330900 -1.855427 -0.185117 1409 0.872235 0.282435 -0.294887
-2.330199 -1.854865 -0.184152 1417 0.882320 0.290522 -0.281002
-2.330306 -1.854936 -0.183240 1419 0.880780 0.289500 -0.267880
-2.330177 -1.854833 -0.182311 1417 0.882636 0.290982 -0.254513
-2.329819 -1.854549 -0.181373 1417 0.887788 0.295068 -0.241017
-2.329969 -1.854662 -0.180463 1423 0.885631 0.293444 -0.227923
-2.329790 -1.854510 -0.179534 1419 0.888204 0.295630 -0.214556
-2.329611 -1.854359 -0.178605 1431 0.890780 0.297802 -0.201189
-2.328731 -1.853665 -0.177619 1431 0.903442 0.307788 -0.187002
-2.328259 -1.853283 -0.176671 1423 0.910234 0.313284 -0.173362
-2.328187 -1.853222 -0.175752 1421 0.911270 0.314162 -0.160139
-2.328058 -1.853105 -0.174823 1431 0.913126 0.315846 -0.146772
-2.327821 -1.852912 -0.173884 1437 0.916536 0.318623 -0.133261
-2.327571 -1.852718 -0.172956 1431 0.920134 0.321414 -0.119909
-2.327906 -1.852970 -0.172063 1447 0.915315 0.317788 -0.107060
-2.327999 -1.853041 -0.171153 1451 0.913973 0.316766 -0.093966
-2.327863 -1.852931 -0.170224 1451 0.915932 0.318349 -0.080599
-2.327962 -1.853009 -0.169312 1457 0.914509 0.317227 -0.067477
-2.327154 -1.852357 -0.168338 1445 0.926134 0.326608 -0.053463
-2.327247 -1.852428 -0.167438 1441 0.924797 0.325587 -0.040513
-2.327689 -1.852770 -0.166545 1443 0.918436 0.320666 -0.027664
-2.327617 -1.852709 -0.165626 1447 0.919472 0.321543 -0.014441
-2.327817 -1.852870 -0.164723 1445 0.916594 0.319227 -0.001448
-2.327410 -1.852538 -0.163775 1441 0.922450 0.324004 0.012192
-2.326587 -1.851871 -0.162810 1445 0.934292 0.333601 0.026077
-2.327087 -1.852270 -0.161927 1453 0.927098 0.327860 0.038782
-2.327472 -1.852570 -0.161036 1453 0.921558 0.323543 0.051602
-2.327101 -1.852273 -0.160098 1451 0.926896 0.327817 0.065099
-2.327429 -1.852531 -0.159196 1449 0.922176 0.324105 0.078077
-2.327299 -1.852414 -0.158277 1451 0.924045 0.325788 0.091300
-2.327335 -1.852444 -0.157357 1455 0.923531 0.325356 0.104537
-2.328007 -1.852967 -0.156484 1461 0.913860 0.317831 0.117099
-2.328378 -1.853268 -0.155591 1461 0.908522 0.313500 0.129948
-2.328478 -1.853346 -0.154681 1451 0.907081 0.312378 0.143041
-2.328348 -1.853229 -0.153762 1445 0.908955 0.314061 0.156264
-2.328098 -1.853021 -0.152833 1451 0.912550 0.317054 0.169631
-2.327954 -1.852905 -0.151904 1457 0.914622 0.318723 0.182998
-2.327933 -1.852892 -0.150983 1459 0.914924 0.318910 0.196250
-2.327918 -1.852873 -0.150073 1451 0.915140 0.319184 0.209343
-2.327724 -1.852707 -0.149144 1439 0.917932 0.321572 0.222710
-2.328160 -1.853056 -0.148252 1437 0.911658 0.316551 0.235545
-2.328996 -1.853712 -0.147388 1441 0.899630 0.307112 0.247976
-2.329088 -1.853783 -0.146478 1443 0.898306 0.306090 0.261070
-2.329117 -1.853805 -0.145556 1439 0.897888 0.305774 0.274336
-2.329395 -1.854015 -0.144656 1437 0.893888 0.302752 0.287286
-2.329766 -1.854302 -0.143764 1433 0.888550 0.298622 0.300120
-2.330030 -1.854512 -0.142863 1437 0.884753 0.295601 0.313084
-2.329830 -1.854354 -0.141932 1435 0.887631 0.297874 0.326480
-2.329637 -1.854188 -0.141004 1431 0.890406 0.300263 0.339832
-2.329901 -1.854398 -0.140103 1429 0.886608 0.297241 0.352796
-2.330679 -1.855012 -0.139239 1435 0.875415 0.288406 0.365228
-2.331458 -1.855626 -0.138366 1447 0.864204 0.279572 0.377789
-2.331436 -1.855599 -0.137444 1433 0.864523 0.279960 0.391055
-2.331007 -1.855260 -0.136508 1419 0.870694 0.284838 0.404523
-2.331042 -1.855275 -0.135587 1417 0.870190 0.284622 0.417775
-2.331077 -1.855304 -0.134677 1411 0.869686 0.284205 0.430868
-2.331792 -1.855869 -0.133794 1411 0.859398 0.276075 0.443573
-2.332278 -1.856253 -0.132901 1413 0.852406 0.270550 0.456422
-2.332141 -1.856129 -0.131982 1403 0.854379 0.272334 0.469645
-2.332513 -1.856430 -0.131080 1399 0.849024 0.268003 0.482624
-2.333013 -1.856814 -0.130187 1401 0.841830 0.262478 0.495473
-2.333212 -1.856976 -0.129285 1405 0.838969 0.260147 0.508451
-2.333762 -1.857408 -0.128392 1395 0.831055 0.253931 0.521300
-2.334298 -1.857827 -0.127500 1387 0.823343 0.247904 0.534135
-2.334562 -1.858037 -0.126599 1385 0.819542 0.244882 0.547099
-2.334362 -1.857865 -0.125670 1385 0.822421 0.247357 0.560465
-2.334969 -1.858353 -0.124787 1375 0.813687 0.240335 0.573170
-2.336141 -1.859280 -0.123921 1369 0.796822 0.226997 0.585631
-2.336512 -1.859566 -0.123019 1367 0.791485 0.222882 0.598609
-2.336540 -1.859589 -0.122108 1361 0.791083 0.222551 0.611717
-2.336347 -1.859423 -0.121179 1361 0.793858 0.224938 0.625084
-2.336890 -1.859849 -0.120286 1349 0.786047 0.218810 0.637933
-2.338341 -1.861005 -0.119439 1343 0.765169 0.202177 0.650120
-2.339520 -1.861939 -0.118573 1349 0.748206 0.188738 0.662581
-2.340227 -1.862497 -0.117679 1339 0.738034 0.180709 0.675444
-2.340898 -1.863020 -0.116796 1333 0.728377 0.173185 0.688149
-2.341320 -1.863355 -0.115893 1329 0.722305 0.168363 0.701142
-2.341634 -1.863600 -0.114991 1329 0.717787 0.164838 0.714120
-2.342463 -1.864248 -0.114108 1317 0.705860 0.155514 0.726825
-2.343406 -1.864994 -0.113223 1303 0.692292 0.144780 0.739559
-2.343727 -1.865246 -0.112321 1295 0.687671 0.141154 0.752537
-2.344613 -1.865950 -0.111436 1291 0.674924 0.131026 0.765271
-2.345950 -1.867009 -0.110570 1283 0.655689 0.115787 0.777732
-2.346721 -1.867615 -0.109685 1267 0.644595 0.107069 0.790466
-2.347436 -1.868180 -0.108792 1253 0.634307 0.098939 0.803314
-2.348264 -1.868842 -0.107907 1239 0.622393 0.089414 0.816048
-2.348865 -1.869310 -0.107003 1227 0.613744 0.082680 0.829055
-2.350101 -1.870285 -0.106137 1215 0.595961 0.068651 0.841516
-2.351044 -1.871031 -0.105252 1197 0.582393 0.057917 0.854250
-2.352387 -1.872097 -0.104375 1183 0.563069 0.042579 0.866868
-2.353674 -1.873121 -0.103509 1165 0.544551 0.027845 0.879329
-2.354209 -1.873539 -0.102605 1143 0.536853 0.021832 0.892336
-2.355096 -1.874243 -0.101710 1123 0.524089 0.011701 0.905214
-2.357068 -1.875810 -0.100862 1095 0.495715 -0.010845 0.917415
-2.359169 -1.877473 -0.100020 1067 0.465486 -0.034773 0.929530
-2.360963 -1.878894 -0.099160 1027 0.439671 -0.055219 0.941904
-2.363000 -1.880509 -0.098310 981 0.410365 -0.078457 0.954135
-2.364572 -1.881755 -0.097442 935 0.387744 -0.096385 0.966624
-2.366717 -1.883461 -0.096591 875 0.356880 -0.120931 0.978868
-2.367545 -1.884109 -0.095696 781 0.344969 -0.130255 0.991746
-2.356915 -1.875202 -0.221427 1043 0.497917 -0.002096 -0.817333
-2.354791 -1.873506 -0.220307 1073 0.528480 0.022307 -0.801218
-2.353468 -1.872450 -0.219254 1099 0.547515 0.037500 -0.786067
-2.351345 -1.870753 -0.218137 1123 0.578060 0.061917 -0.769995
-2.349965 -1.869655 -0.217093 1147 0.597916 0.077716 -0.754973
-2.349164 -1.869009 -0.216088 1173 0.609442 0.087011 -0.740513
-2.348012 -1.868092 -0.215064 1187 0.626019 0.100206 -0.725779
-2.347261 -1.867481 -0.214078 1199 0.636825 0.108997 -0.711592
-2.346224 -1.866662 -0.213054 1217 0.651744 0.120780 -0.696858
-2.345473 -1.866050 -0.212068 1239 0.662550 0.129587 -0.682671
-2.344379 -1.865175 -0.211053 1251 0.678292 0.142176 -0.668067
-2.342942 -1.864035 -0.210000 1257 0.698968 0.158579 -0.652916
-2.341962 -1.863243 -0.208995 1271 0.713067 0.169975 -0.638455
-2.341604 -1.862960 -0.208037 1281 0.718220 0.174047 -0.624671
-2.340682 -1.862224 -0.207042 1281 0.731485 0.184637 -0.610355
-2.339881 -1.861578 -0.206046 1289 0.743012 0.193932 -0.596024
-2.339701 -1.861426 -0.205108 1301 0.745602 0.196119 -0.582527
-2.339637 -1.861372 -0.204188 1317 0.746521 0.196896 -0.569290
-2.339007 -1.860865 -0.203212 1325 0.755588 0.204191 -0.555247
-2.338141 -1.860171 -0.202216 1329 0.768047 0.214177 -0.540916
-2.337612 -1.859748 -0.201249 1339 0.775660 0.220263 -0.527002
-2.337255 -1.859464 -0.200301 1353 0.780795 0.224348 -0.513362
-2.336446 -1.858811 -0.199315 1355 0.792435 0.233745 -0.499175
-2.335874 -1.858346 -0.198348 1355 0.800664 0.240436 -0.485261
-2.335580 -1.858111 -0.197398 1355 0.804894 0.243816 -0.471592
-2.335394 -1.857967 -0.196469 1357 0.807573 0.245888 -0.458225
-2.334979 -1.857627 -0.195512 1365 0.813543 0.250780 -0.444455
-2.334407 -1.857162 -0.194545 1369 0.821772 0.257471 -0.430542
-2.333541 -1.856468 -0.193561 1373 0.834235 0.267458 -0.416383
-2.333348 -1.856316 -0.192620 1377 0.837010 0.269645 -0.402844
-2.333462 -1.856394 -0.191710 1391 0.835371 0.268521 -0.389750
-2.332818 -1.855888 -0.190743 1393 0.844636 0.275802 -0.375837
-2.332639 -1.855736 -0.189815 1393 0.847213 0.277989 -0.362484
-2.332452 -1.855577 -0.188876 1387 0.849902 0.280277 -0.348973
-2.331694 -1.854974 -0.187900 1385 0.860811 0.288953 -0.334930
-2.331058 -1.854460 -0.186933 1393 0.869960 0.296349 -0.321016
-2.331222 -1.854587 -0.186032 1403 0.867600 0.294522 -0.308052
-2.331315 -1.854658 -0.185122 1413 0.866262 0.293500 -0.294959
-2.331135 -1.854506 -0.184182 1419 0.868852 0.295687 -0.281434
-2.330941 -1.854355 -0.183253 1423 0.871645 0.297860 -0.268067
-2.330591 -1.854064 -0.182305 1429 0.876681 0.302047 -0.254427
-2.330462 -1.853961 -0.181386 1431 0.878536 0.303529 -0.241203
-2.329990 -1.853580 -0.180429 1425 0.885329 0.309011 -0.227434
-2.329289 -1.853017 -0.179461 1421 0.895414 0.317112 -0.213506
-2.329109 -1.852866 -0.178533 1429 0.898004 0.319284 -0.200153
-2.328980 -1.852763 -0.177604 1433 0.899860 0.320766 -0.186786
-2.328801 -1.852611 -0.176675 1427 0.902437 0.322954 -0.173420
-2.328836 -1.852640 -0.175756 1431 0.901932 0.322536 -0.160196
-2.328765 -1.852579 -0.174834 1437 0.902955 0.323414 -0.146930
-2.328400 -1.852289 -0.173898 1441 0.908207 0.327587 -0.133463
-2.327584 -1.851629 -0.172921 1443 0.919946 0.337083 -0.119405
-2.327348 -1.851435 -0.171983 1449 0.923342 0.339875 -0.105909
-2.327562 -1.851597 -0.171082 1453 0.920261 0.337544 -0.092945
-2.327026 -1.851167 -0.170135 1459 0.927977 0.343731 -0.079319
-2.326789 -1.850974 -0.169196 1463 0.931386 0.346508 -0.065808
-2.327389 -1.851455 -0.168323 1449 0.922752 0.339587 -0.053247
-2.327775 -1.851756 -0.167441 1449 0.917198 0.335256 -0.040556
-2.327825 -1.851785 -0.166520 1453 0.916478 0.334839 -0.027304
-2.327860 -1.851814 -0.165610 1449 0.915973 0.334421 -0.014211
-2.327902 -1.851837 -0.164701 1445 0.915370 0.334090 -0.001132
-2.327538 -1.851546 -0.163753 1447 0.920608 0.338277 0.012509
-2.326772 -1.850935 -0.162786 1447 0.931630 0.347069 0.026422
-2.327558 -1.851556 -0.161922 1459 0.920320 0.338134 0.038854
-2.328458 -1.852260 -0.161067 1463 0.907370 0.328004 0.051156
-2.327865 -1.851788 -0.160110 1457 0.915905 0.334795 0.064926
-2.327221 -1.851268 -0.159154 1451 0.925170 0.342276 0.078681
-2.326570 -1.850741 -0.158196 1443 0.934536 0.349860 0.092465
-2.326898 -1.850999 -0.157306 1449 0.929815 0.346148 0.105271
-2.327956 -1.851843 -0.156449 1457 0.914594 0.334004 0.117602
-2.328406 -1.852192 -0.155568 1461 0.908118 0.328982 0.130278
-2.328441 -1.852221 -0.154656 1451 0.907617 0.328565 0.143401
-2.327962 -1.851833 -0.153710 1443 0.914509 0.334148 0.157012
-2.327768 -1.851668 -0.152781 1451 0.917297 0.336522 0.170379
-2.328662 -1.852379 -0.151916 1469 0.904437 0.326292 0.182825
-2.329333 -1.852902 -0.151042 1461 0.894780 0.318766 0.195401
-2.329132 -1.852744 -0.150113 1449 0.897672 0.321040 0.208768
-2.328596 -1.852314 -0.149167 1445 0.905383 0.327227 0.222379
-2.329031 -1.852649 -0.148274 1451 0.899126 0.322407 0.235228
-2.329303 -1.852866 -0.147372 1445 0.895212 0.319284 0.248206
-2.329166 -1.852756 -0.146453 1447 0.897185 0.320867 0.261430
-2.329430 -1.852952 -0.145553 1449 0.893384 0.318047 0.274379
-2.329859 -1.853295 -0.144660 1445 0.887212 0.313112 0.287228
-2.329844 -1.853275 -0.143741 1439 0.887428 0.313400 0.300451
-2.329872 -1.853298 -0.142829 1435 0.887027 0.313069 0.313573
-2.329743 -1.853181 -0.141900 1431 0.888883 0.314752 0.326940
-2.329829 -1.853245 -0.140990 1433 0.887644 0.313831 0.340034
-2.330322 -1.853636 -0.140107 1437 0.880550 0.308205 0.352739
-2.330929 -1.854110 -0.139224 1443 0.871816 0.301385 0.365444
-2.331593 -1.854641 -0.138341 1443 0.862262 0.293745 0.378149
-2.331564 -1.854607 -0.137422 1431 0.862681 0.294234 0.391372
-2.331492 -1.854546 -0.136502 1427 0.863717 0.295112 0.404609
-2.331635 -1.854652 -0.135591 1415 0.861658 0.293586 0.417717
-2.332063 -1.854994 -0.134698 1413 0.855501 0.288665 0.430566
-2.332506 -1.855337 -0.133805 1415 0.849127 0.283730 0.443415
-2.332591 -1.855400 -0.132895 1413 0.847902 0.282824 0.456509
-2.332677 -1.855464 -0.131986 1403 0.846667 0.281903 0.469588
-2.332705 -1.855487 -0.131064 1411 0.846262 0.281572 0.482854
-2.332976 -1.855690 -0.130164 1403 0.842362 0.278651 0.495804
-2.333341 -1.855984 -0.129262 1399 0.837113 0.274422 0.508782
-2.333884 -1.856410 -0.128379 1399 0.829299 0.268291 0.521487
-2.335120 -1.857385 -0.127522 1405 0.811515 0.254262 0.533818
-2.335498 -1.857678 -0.126620 1405 0.806074 0.250046 0.546797
-2.335355 -1.857562 -0.125701 1393 0.808133 0.251717 0.560019
-2.335555 -1.857723 -0.124789 1377 0.805254 0.249400 0.573142
-2.336047 -1.858100 -0.123899 1377 0.798177 0.243974 0.585948
-2.336533 -1.858484 -0.123006 1373 0.791183 0.238449 0.598796
-2.336790 -1.858687 -0.122094 1361 0.787485 0.235528 0.611919
-2.336989 -1.858835 -0.121182 1355 0.784624 0.233400 0.625041
-2.338004 -1.859636 -0.120317 1345 0.770017 0.221875 0.637487
-2.339119 -1.860521 -0.119452 1349 0.753976 0.209141 0.649933
-2.339826 -1.861079 -0.118567 1347 0.743801 0.201112 0.662667
-2.340197 -1.861366 -0.117665 1337 0.738463 0.196982 0.675645
-2.340690 -1.861756 -0.116763 1331 0.731372 0.191371 0.688624
-2.340655 -1.861730 -0.115844 1329 0.731873 0.191745 0.701847
-2.340919 -1.861926 -0.114932 1327 0.728075 0.188925 0.714969
-2.342655 -1.863305 -0.114093 1319 0.703098 0.169083 0.727041
-2.343941 -1.864329 -0.113227 1309 0.684594 0.154349 0.739501
-2.344713 -1.864936 -0.112342 1301 0.673486 0.145615 0.752235
-2.345549 -1.865591 -0.111459 1291 0.661455 0.136190 0.764940
-2.346142 -1.866066 -0.110564 1285 0.652924 0.129357 0.777818
-2.347078 -1.866804 -0.109679 1271 0.639456 0.118738 0.790552
-2.347971 -1.867501 -0.108796 1261 0.626609 0.108709 0.803257
-2.347942 -1.867482 -0.107875 1239 0.627024 0.108983 0.816509
-2.348542 -1.867949 -0.106973 1221 0.618393 0.102263 0.829487
-2.349657 -1.868834 -0.106097 1207 0.602348 0.089529 0.842091
-2.350950 -1.869851 -0.105229 1201 0.583745 0.074896 0.854581
-2.352001 -1.870687 -0.104344 1187 0.568623 0.062867 0.867314
-2.352658 -1.871211 -0.103450 1175 0.559169 0.055327 0.880178
-2.354008 -1.872269 -0.102574 1155 0.539745 0.040104 0.892782
-2.355860 -1.873745 -0.101724 1133 0.513097 0.018868 0.905012
-2.357610 -1.875124 -0.100865 1111 0.487918 -0.000974 0.917372
-2.358668 -1.875967 -0.099978 1077 0.472693 -0.013104 0.930135
-2.360476 -1.877401 -0.099130 1031 0.446680 -0.033737 0.942336
-2.362856 -1.879280 -0.098287 989 0.412437 -0.060773 0.954466
-2.364707 -1.880756 -0.097428 947 0.385802 -0.082011 0.966825
-2.366230 -1.881954 -0.096559 889 0.363889 -0.099247 0.979329
-2.367802 -1.883201 -0.095681 813 0.341271 -0.117190 0.991962
-2.357185 -1.874265 -0.221402 1051 0.494034 0.011386 -0.816973
-2.355469 -1.872896 -0.220321 1087 0.518723 0.031084 -0.801419
-2.354203 -1.871881 -0.219277 1113 0.536939 0.045687 -0.786398
-2.352880 -1.870825 -0.218234 1133 0.555975 0.060881 -0.771391
-2.350814 -1.869184 -0.217116 1151 0.585700 0.084493 -0.755304
-2.349084 -1.867801 -0.216044 1167 0.610595 0.104393 -0.739880
-2.348225 -1.867113 -0.215039 1187 0.622952 0.114292 -0.725419
-2.347882 -1.866829 -0.214082 1205 0.627888 0.118377 -0.711650
-2.347066 -1.866183 -0.213086 1219 0.639631 0.127672 -0.697319
-2.346030 -1.865350 -0.212071 1237 0.654536 0.139658 -0.682714
-2.344535 -1.864154 -0.211019 1247 0.676045 0.156867 -0.667578
-2.342862 -1.862827 -0.209947 1249 0.700120 0.175961 -0.652153
-2.342111 -1.862230 -0.208962 1257 0.710923 0.184551 -0.637980
-2.341767 -1.861946 -0.208013 1263 0.715873 0.188637 -0.624326
-2.341131 -1.861432 -0.207036 1277 0.725026 0.196033 -0.610268
-2.340437 -1.860877 -0.206050 1293 0.735012 0.204018 -0.596081
-2.340257 -1.860725 -0.205112 1303 0.737602 0.206205 -0.582585
-2.339964 -1.860490 -0.204173 1319 0.741818 0.209587 -0.569074
-2.339442 -1.860074 -0.203206 1335 0.749327 0.215572 -0.555160
-2.338634 -1.859421 -0.202210 1333 0.760953 0.224968 -0.540829
-2.337990 -1.858915 -0.201243 1341 0.770219 0.232249 -0.526916
-2.337589 -1.858590 -0.200286 1351 0.775989 0.236925 -0.513146
-2.337117 -1.858208 -0.199328 1357 0.782781 0.242422 -0.499362
-2.336373 -1.857604 -0.198342 1353 0.793485 0.251111 -0.485175
-2.335729 -1.857098 -0.197375 1355 0.802754 0.258393 -0.471261
-2.335543 -1.856939 -0.196437 1361 0.805429 0.260681 -0.457765
-2.335428 -1.856850 -0.195506 1365 0.807083 0.261960 -0.444369
-2.335070 -1.856552 -0.194558 1373 0.812235 0.266248 -0.430729
-2.334770 -1.856310 -0.193620 1387 0.816551 0.269730 -0.417232
-2.334248 -1.855894 -0.192653 1389 0.824060 0.275717 -0.403319
-2.333947 -1.855652 -0.191714 1389 0.828393 0.279198 -0.389808
-2.333767 -1.855500 -0.190776 1393 0.830983 0.281385 -0.376312
-2.333474 -1.855265 -0.189837 1399 0.835199 0.284766 -0.362801
-2.332830 -1.854745 -0.188870 1393 0.844465 0.292248 -0.348887
-2.332365 -1.854371 -0.187913 1395 0.851154 0.297630 -0.335117
-2.332179 -1.854212 -0.186984 1403 0.853830 0.299917 -0.321750
-2.331535 -1.853705 -0.186017 1411 0.863096 0.307212 -0.307837
-2.331242 -1.853471 -0.185079 1419 0.867312 0.310579 -0.294340
-2.332035 -1.854084 -0.184215 1427 0.855902 0.301759 -0.281909
-2.332134 -1.854162 -0.183305 1431 0.854478 0.300637 -0.268815
-2.331491 -1.853641 -0.182338 1427 0.863730 0.308133 -0.254901
-2.330668 -1.852989 -0.181361 1429 0.875573 0.317515 -0.240844
-2.329867 -1.852343 -0.180387 1425 0.887099 0.326810 -0.226830
-2.329273 -1.851872 -0.179420 1417 0.895644 0.333587 -0.212916
-2.329208 -1.851817 -0.178500 1423 0.896581 0.334378 -0.199678
-2.329479 -1.852021 -0.177598 1437 0.892680 0.331443 -0.186700
-2.329629 -1.852133 -0.176698 1445 0.890523 0.329831 -0.173750
-2.330129 -1.852532 -0.175815 1453 0.883329 0.324090 -0.161045
-2.329714 -1.852192 -0.174867 1447 0.889298 0.328982 -0.147405
-2.328613 -1.851324 -0.173873 1441 0.905140 0.341472 -0.133103
-2.327690 -1.850573 -0.172887 1439 0.918423 0.352278 -0.118916
-2.327611 -1.850506 -0.171968 1439 0.919558 0.353242 -0.105693
-2.327883 -1.850723 -0.171077 1453 0.915644 0.350119 -0.092873
-2.327075 -1.850070 -0.170100 1455 0.927270 0.359515 -0.078815
-2.326817 -1.849870 -0.169173 1459 0.930982 0.362393 -0.065477
-2.327324 -1.850261 -0.168290 1453 0.923688 0.356767 -0.052772
-2.328217 -1.850972 -0.167436 1455 0.910838 0.346535 -0.040484
-2.328717 -1.851356 -0.166553 1457 0.903644 0.341011 -0.027779
-2.328416 -1.851114 -0.165614 1459 0.907973 0.344493 -0.014268
-2.327815 -1.850635 -0.164657 1453 0.916622 0.351384 -0.000498
-2.328087 -1.850852 -0.163756 1459 0.912708 0.348263 0.012466
-2.328301 -1.851014 -0.162854 1455 0.909630 0.345932 0.025444
-2.328450 -1.851127 -0.161954 1465 0.907486 0.344306 0.038394
-2.328607 -1.851247 -0.161042 1461 0.905226 0.342580 0.051516
-2.327785 -1.850594 -0.160077 1455 0.917054 0.351974 0.065401
-2.326512 -1.849573 -0.159074 1451 0.935369 0.366665 0.079832
-2.326605 -1.849644 -0.158164 1441 0.934031 0.365645 0.092926
-2.327155 -1.850077 -0.157290 1443 0.926117 0.359413 0.105502
-2.327997 -1.850739 -0.156426 1453 0.914004 0.349889 0.117933
-2.329298 -1.851763 -0.155589 1461 0.895284 0.335155 0.129976
-2.329105 -1.851612 -0.154660 1461 0.898063 0.337328 0.143343
-2.328518 -1.851133 -0.153714 1451 0.906509 0.344220 0.156955
-2.328553 -1.851162 -0.152793 1459 0.906004 0.343803 0.170206
-2.329161 -1.851637 -0.151919 1465 0.897257 0.336968 0.182782
-2.329646 -1.852021 -0.151029 1453 0.890276 0.331443 0.195588
-2.328838 -1.851368 -0.150062 1447 0.901901 0.340839 0.209502
-2.328637 -1.851210 -0.149142 1453 0.904797 0.343112 0.222739
-2.329424 -1.851830 -0.148269 1457 0.893473 0.334191 0.235300
-2.329859 -1.852165 -0.147376 1445 0.887212 0.329371 0.248149
-2.329780 -1.852098 -0.146457 1445 0.888348 0.330335 0.261372
-2.329980 -1.852259 -0.145556 1453 0.885473 0.328018 0.274336
-2.330022 -1.852281 -0.144647 1455 0.884866 0.327702 0.287415
-2.329307 -1.851719 -0.143680 1439 0.895154 0.335788 0.301329
-2.329171 -1.851595 -0.142760 1433 0.897113 0.337572 0.314566
-2.329599 -1.851938 -0.141868 1433 0.890955 0.332637 0.327401
-2.330149 -1.852371 -0.140985 1437 0.883041 0.326407 0.340106
-2.331564 -1.853492 -0.140147 1441 0.862681 0.310277 0.352163
-2.332507 -1.854238 -0.139283 1439 0.849113 0.299543 0.364595
-2.332200 -1.853989 -0.138354 1441 0.853528 0.303126 0.377962
-2.331606 -1.853503 -0.137397 1427 0.862077 0.310119 0.391732
-2.331698 -1.853574 -0.136487 1419 0.860753 0.309097 0.404825
-2.331727 -1.853597 -0.135577 1407 0.860334 0.308766 0.417919
-2.331812 -1.853661 -0.134667 1401 0.859113 0.307846 0.431012
-2.332769 -1.854406 -0.133792 1407 0.845343 0.297126 0.443602
-2.333827 -1.855250 -0.132936 1413 0.830119 0.284982 0.455919
-2.333519 -1.855000 -0.131997 1417 0.834551 0.288579 0.469429
-2.332975 -1.854564 -0.131061 1417 0.842379 0.294853 0.482897
-2.333232 -1.854767 -0.130149 1401 0.838681 0.291932 0.496019
-2.333496 -1.854963 -0.129249 1397 0.834880 0.289113 0.508969
-2.334046 -1.855396 -0.128354 1403 0.826969 0.282881 0.521847
-2.334933 -1.856100 -0.127490 1409 0.814205 0.272753 0.534278
-2.335368 -1.856435 -0.126588 1407 0.807947 0.267933 0.547257
-2.336254 -1.857139 -0.125714 1399 0.795200 0.257803 0.559832
-2.336861 -1.857614 -0.124829 1395 0.786466 0.250967 0.572566
-2.337111 -1.857810 -0.123929 1393 0.782867 0.248147 0.585516
-2.337540 -1.858153 -0.123027 1379 0.776696 0.243213 0.598494
-2.337746 -1.858307 -0.122115 1367 0.773732 0.240997 0.611617
-2.338232 -1.858691 -0.121222 1363 0.766737 0.235472 0.624466
-2.338832 -1.859158 -0.120330 1359 0.758106 0.228751 0.637300
-2.339032 -1.859320 -0.119418 1347 0.755228 0.226420 0.650422
-2.339754 -1.859878 -0.118535 1347 0.744837 0.218393 0.663127
-2.340468 -1.860443 -0.117652 1341 0.734566 0.210263 0.675832
-2.340897 -1.860785 -0.116750 1333 0.728391 0.205342 0.688811
-2.341039 -1.860891 -0.115838 1327 0.726350 0.203817 0.701933
-2.341353 -1.861135 -0.114936 1325 0.721832 0.200306 0.714912
-2.343097 -1.862521 -0.114087 1321 0.696738 0.180363 0.727127
-2.344619 -1.863719 -0.113240 1315 0.674838 0.163126 0.739314
-2.344469 -1.863595 -0.112309 1305 0.676996 0.164910 0.752710
-2.344947 -1.863972 -0.111407 1295 0.670117 0.159487 0.765689
-2.346012 -1.864808 -0.110532 1279 0.654794 0.147458 0.778278
-2.346326 -1.865053 -0.109632 1265 0.650276 0.143931 0.791228
-2.346411 -1.865117 -0.108710 1255 0.649054 0.143012 0.804494
-2.347297 -1.865821 -0.107825 1237 0.636307 0.132881 0.817228
-2.348755 -1.866970 -0.106969 1219 0.615329 0.116350 0.829545
-2.350156 -1.868078 -0.106101 1211 0.595168 0.100407 0.842034
-2.351049 -1.868789 -0.105216 1203 0.582321 0.090177 0.854768
-2.351821 -1.869395 -0.104321 1189 0.571213 0.081457 0.867645
-2.353164 -1.870461 -0.103456 1173 0.551889 0.066119 0.880091
-2.354107 -1.871207 -0.102559 1157 0.538322 0.055385 0.892998
-2.355858 -1.872585 -0.101710 1139 0.513125 0.035557 0.905214
-2.357481 -1.873881 -0.100842 1113 0.489774 0.016911 0.917703
-2.358945 -1.875037 -0.099975 1081 0.468710 0.000278 0.930178
-2.360690 -1.876422 -0.099116 1047 0.443599 -0.019652 0.942537
-2.364470 -1.879409 -0.097405 959 0.389212 -0.062629 0.967156
-2.366843 -1.881295 -0.096562 909 0.355069 -0.089765 0.979286
-2.368765 -1.882813 -0.095702 847 0.327412 -0.111607 0.991660
-2.369416 -1.883329 -0.094800 741 0.318047 -0.119033 1.004638
-2.361259 -1.876331 -0.223578 1005 0.435414 -0.018341 -0.848283
-2.358628 -1.874238 -0.222411 1035 0.473269 0.011773 -0.831491
-2.355467 -1.871721 -0.220269 1101 0.518751 0.047989 -0.800671
-2.353801 -1.870387 -0.219197 1129 0.542723 0.067184 -0.785247
-2.352192 -1.869108 -0.218125 1147 0.565875 0.085587 -0.769822
-2.350526 -1.867773 -0.217044 1155 0.589844 0.104794 -0.754268
-2.349032 -1.866592 -0.215993 1171 0.611343 0.121787 -0.739146
-2.348567 -1.866217 -0.215024 1189 0.618032 0.127183 -0.725204
-2.348044 -1.865787 -0.214047 1207 0.625559 0.133370 -0.711146
-2.347865 -1.865649 -0.213109 1225 0.628132 0.135357 -0.697650
-2.346828 -1.864816 -0.212094 1239 0.643054 0.147343 -0.683045
-2.345048 -1.863398 -0.211013 1245 0.668666 0.167745 -0.667491
-2.343725 -1.862341 -0.209981 1247 0.687702 0.182953 -0.652642
-2.342459 -1.861327 -0.208947 1249 0.705918 0.197543 -0.637765
-2.341365 -1.860452 -0.207932 1261 0.721657 0.210133 -0.623160
-2.341122 -1.860265 -0.206994 1275 0.725156 0.212824 -0.609664
-2.340835 -1.860023 -0.206046 1293 0.729283 0.216306 -0.596024
-2.339913 -1.859287 -0.205041 1303 0.742552 0.226896 -0.581563
-2.339505 -1.858954 -0.204082 1323 0.748422 0.231688 -0.567765
-2.339547 -1.858991 -0.203172 1329 0.747818 0.231155 -0.554671
-2.339432 -1.858887 -0.202233 1331 0.749471 0.232652 -0.541160
-2.338682 -1.858291 -0.201257 1341 0.760264 0.241226 -0.527117
-2.338095 -1.857826 -0.200290 1357 0.768710 0.247918 -0.513204
-2.337687 -1.857493 -0.199332 1363 0.774579 0.252708 -0.499419
-2.336700 -1.856709 -0.198327 1361 0.788781 0.263989 -0.484959
-2.335956 -1.856105 -0.197351 1361 0.799484 0.272681 -0.470916
-2.335949 -1.856092 -0.196431 1361 0.799587 0.272868 -0.457678
-2.336106 -1.856212 -0.195519 1367 0.797327 0.271140 -0.444556
-2.335812 -1.855977 -0.194581 1379 0.801556 0.274521 -0.431060
-2.335805 -1.855964 -0.193652 1387 0.801659 0.274710 -0.417693
-2.335733 -1.855903 -0.192733 1389 0.802695 0.275586 -0.404470
-2.334346 -1.854798 -0.191699 1393 0.822650 0.291486 -0.389592
-2.333823 -1.854382 -0.190742 1399 0.830177 0.297471 -0.375822
-2.334037 -1.854543 -0.189841 1399 0.827096 0.295155 -0.362858
-2.333343 -1.853988 -0.188865 1397 0.837083 0.303140 -0.348815
-2.333164 -1.853836 -0.187936 1405 0.839659 0.305327 -0.335448
-2.333378 -1.854012 -0.187036 1419 0.836578 0.302795 -0.322498
-2.332963 -1.853673 -0.186088 1427 0.842551 0.307673 -0.308858
-2.332898 -1.853618 -0.185157 1431 0.843487 0.308464 -0.295463
-2.332133 -1.853008 -0.184182 1429 0.854492 0.317241 -0.281434
-2.331210 -1.852271 -0.183196 1433 0.867775 0.327846 -0.267247
-2.330795 -1.851932 -0.182248 1435 0.873744 0.332723 -0.253606
-2.330952 -1.852052 -0.181348 1433 0.871487 0.330997 -0.240657
-2.331174 -1.852220 -0.180446 1435 0.868293 0.328579 -0.227678
-2.330701 -1.851839 -0.179488 1429 0.875096 0.334062 -0.213894
-2.330172 -1.851416 -0.178531 1429 0.882708 0.340148 -0.200125
-2.330729 -1.851856 -0.177659 1447 0.874694 0.333817 -0.187578
-2.330829 -1.851933 -0.176747 1457 0.873257 0.332709 -0.174455
-2.330642 -1.851775 -0.175818 1465 0.875946 0.334982 -0.161088
-2.330106 -1.851345 -0.174863 1463 0.883658 0.341170 -0.147347
-2.329348 -1.850741 -0.173886 1449 0.894564 0.349860 -0.133290
-2.328818 -1.850318 -0.172938 1439 0.902190 0.355947 -0.119650
-2.328925 -1.850389 -0.172029 1449 0.900653 0.354925 -0.106571
-2.329132 -1.850558 -0.171126 1461 0.897672 0.352492 -0.093578
-2.328431 -1.849995 -0.170161 1461 0.907761 0.360594 -0.079693
-2.327852 -1.849524 -0.169204 1459 0.916090 0.367370 -0.065923
-2.327944 -1.849595 -0.168294 1453 0.914766 0.366350 -0.052829
-2.328501 -1.850035 -0.167420 1453 0.906752 0.360019 -0.040254
-2.328944 -1.850377 -0.166528 1467 0.900378 0.355098 -0.027419
-2.328236 -1.849808 -0.165563 1471 0.910563 0.363285 -0.013535
-2.328050 -1.849663 -0.164643 1469 0.913243 0.365370 -0.000297
-2.328714 -1.850179 -0.163770 1471 0.903689 0.357947 0.012264
-2.329271 -1.850619 -0.162887 1475 0.895672 0.351616 0.024969
-2.329535 -1.850830 -0.161984 1473 0.891874 0.348580 0.037962
-2.329177 -1.850532 -0.161048 1467 0.897027 0.352866 0.051430
-2.328069 -1.849657 -0.160064 1451 0.912968 0.365456 0.065588
-2.327425 -1.849136 -0.159106 1449 0.922234 0.372954 0.079372
-2.327739 -1.849381 -0.158204 1451 0.917716 0.369429 0.092350
-2.328125 -1.849682 -0.157323 1451 0.912162 0.365098 0.105027
-2.328225 -1.849760 -0.156411 1453 0.910725 0.363974 0.118149
-2.328717 -1.850137 -0.155520 1457 0.903644 0.358551 0.130969
-2.329504 -1.850757 -0.154656 1465 0.892320 0.349630 0.143401
-2.329196 -1.850508 -0.153718 1461 0.896752 0.353213 0.156897
-2.329002 -1.850357 -0.152799 1457 0.899545 0.355384 0.170120
-2.328866 -1.850247 -0.151868 1453 0.901500 0.356968 0.183516
-2.328215 -1.849720 -0.150912 1439 0.910869 0.364551 0.197271
-2.328022 -1.849568 -0.149983 1443 0.913644 0.366738 0.210638
-2.328800 -1.850182 -0.149119 1449 0.902450 0.357902 0.223070
-2.329930 -1.851067 -0.148273 1451 0.886190 0.345170 0.235242
-2.330187 -1.851270 -0.147372 1451 0.882492 0.342249 0.248206
-2.329771 -1.850931 -0.146434 1445 0.888478 0.347125 0.261703
-2.330600 -1.851593 -0.145560 1457 0.876550 0.337601 0.274278
-2.331558 -1.852339 -0.144704 1463 0.862767 0.326867 0.286595
-2.330792 -1.851728 -0.143739 1441 0.873789 0.335659 0.300480
-2.329791 -1.850929 -0.142764 1429 0.888190 0.347155 0.314509
-2.330055 -1.851140 -0.141862 1429 0.884392 0.344119 0.327487
-2.331292 -1.852115 -0.141017 1441 0.866595 0.330090 0.339645
-2.332235 -1.852861 -0.140161 1441 0.853024 0.319356 0.351962
-2.332448 -1.853022 -0.139251 1439 0.849961 0.317040 0.365056
-2.332827 -1.853316 -0.138358 1439 0.844506 0.312810 0.377904
-2.332748 -1.853248 -0.137439 1431 0.845645 0.313788 0.391127
-2.332090 -1.852727 -0.136481 1421 0.855113 0.321284 0.404912
-2.331668 -1.852381 -0.135545 1419 0.861185 0.326263 0.418379
-2.331467 -1.852222 -0.134616 1407 0.864077 0.328551 0.431746
-2.332196 -1.852787 -0.133742 1411 0.853587 0.320421 0.444322
-2.333189 -1.853582 -0.132876 1419 0.839299 0.308982 0.456782
-2.333796 -1.854056 -0.131993 1425 0.830565 0.302162 0.469487
-2.333603 -1.853891 -0.131064 1423 0.833343 0.304536 0.482854
-2.333745 -1.854011 -0.130153 1411 0.831299 0.302809 0.495962
-2.334010 -1.854207 -0.129252 1407 0.827487 0.299989 0.508926
-2.334438 -1.854549 -0.128360 1405 0.821326 0.295068 0.521760
-2.335446 -1.855343 -0.127484 1409 0.806826 0.283644 0.534365
-2.335989 -1.855769 -0.126601 1407 0.799011 0.277514 0.547070
-2.336703 -1.856334 -0.125718 1407 0.788737 0.269386 0.559775
-2.337596 -1.857031 -0.124843 1403 0.775890 0.259357 0.572365
-2.338253 -1.857554 -0.123960 1399 0.766435 0.251832 0.585070
-2.338396 -1.857660 -0.123050 1383 0.764377 0.250305 0.598163
-2.338603 -1.857815 -0.122138 1371 0.761399 0.248075 0.611286
-2.339095 -1.858205 -0.121245 1369 0.754319 0.242465 0.624135
-2.339403 -1.858443 -0.120334 1367 0.749890 0.239039 0.637242
-2.339259 -1.858327 -0.119414 1355 0.751962 0.240708 0.650480
-2.339516 -1.858530 -0.118503 1347 0.748264 0.237787 0.663588
-2.340745 -1.859498 -0.117646 1349 0.730580 0.223860 0.675919
-2.341688 -1.860244 -0.116761 1345 0.717012 0.213126 0.688653
-2.341545 -1.860127 -0.115842 1331 0.719067 0.214810 0.701876
-2.341923 -1.860421 -0.114942 1325 0.713630 0.210580 0.714825
-2.343088 -1.861340 -0.114074 1321 0.696868 0.197356 0.727314
-2.344267 -1.862274 -0.113198 1315 0.679905 0.183917 0.739919
-2.345096 -1.862922 -0.112313 1307 0.667973 0.174594 0.752653
-2.345517 -1.863258 -0.111411 1297 0.661919 0.169759 0.765631
-2.346061 -1.863683 -0.110518 1285 0.654090 0.163644 0.778480
-2.346953 -1.864380 -0.109635 1277 0.641257 0.153615 0.791185
-2.347546 -1.864855 -0.108741 1261 0.632722 0.146780 0.804048
-2.348496 -1.865607 -0.107856 1239 0.619055 0.135960 0.816782
-2.349840 -1.866659 -0.106990 1229 0.599717 0.120823 0.829242
-2.350554 -1.867224 -0.106095 1223 0.589443 0.112695 0.842120
-2.351562 -1.868018 -0.105210 1213 0.574939 0.101270 0.854854
-2.352391 -1.868681 -0.104325 1197 0.563011 0.091731 0.867588
-2.353276 -1.869370 -0.103431 1177 0.550277 0.081817 0.880451
-2.354963 -1.870714 -0.102582 1155 0.526003 0.062479 0.892667
-2.356650 -1.872044 -0.101724 1137 0.501729 0.043342 0.905012
-2.358172 -1.873242 -0.100856 1117 0.479832 0.026104 0.917502
-2.359859 -1.874586 -0.099998 1091 0.455558 0.006767 0.929847
-2.361660 -1.876013 -0.099137 1053 0.429644 -0.013767 0.942235
-2.365447 -1.879007 -0.097417 971 0.375154 -0.056845 0.966984
-2.366848 -1.880114 -0.096551 925 0.354997 -0.072773 0.979444
-2.370629 -1.883101 -0.094821 765 0.300593 -0.115751 1.004336
-2.358575 -1.873000 -0.222360 1051 0.474031 0.029586 -0.830758
-2.356445 -1.871311 -0.221240 1087 0.504679 0.053889 -0.814642
-2.355079 -1.870213 -0.220187 1115 0.524336 0.069687 -0.799491
-2.353756 -1.869156 -0.219144 1135 0.543371 0.084896 -0.784484
-2.352941 -1.868511 -0.218139 1151 0.555097 0.094177 -0.770024
-2.351511 -1.867364 -0.217086 1169 0.575673 0.110679 -0.754873
-2.349609 -1.865856 -0.215997 1183 0.603041 0.132377 -0.739204
-2.347771 -1.864396 -0.214906 1193 0.629487 0.153385 -0.723506
-2.347020 -1.863785 -0.213920 1207 0.640293 0.162176 -0.709319
-2.346956 -1.863730 -0.212981 1221 0.641212 0.162969 -0.695808
-2.346147 -1.863092 -0.211995 1235 0.652852 0.172149 -0.681621
-2.345046 -1.862209 -0.210971 1245 0.668694 0.184853 -0.666887
-2.343845 -1.861244 -0.209947 1249 0.685977 0.198738 -0.652153
-2.342865 -1.860466 -0.208941 1259 0.700076 0.209932 -0.637678
-2.342507 -1.860182 -0.207984 1277 0.705228 0.214018 -0.623909
-2.341770 -1.859585 -0.206998 1291 0.715832 0.222607 -0.609722
-2.340841 -1.858842 -0.206002 1301 0.729197 0.233299 -0.595391
-2.340433 -1.858523 -0.205045 1311 0.735070 0.237889 -0.581621
-2.339796 -1.858010 -0.204068 1319 0.744233 0.245269 -0.567563
-2.339102 -1.857455 -0.203092 1325 0.754219 0.253255 -0.553520
-2.339031 -1.857393 -0.202163 1331 0.755241 0.254147 -0.540153
-2.338916 -1.857290 -0.201232 1347 0.756895 0.255629 -0.526758
-2.338386 -1.856867 -0.200265 1365 0.764521 0.261717 -0.512844
-2.337750 -1.856354 -0.199288 1367 0.773673 0.269097 -0.498786
-2.336827 -1.855618 -0.198293 1365 0.786953 0.279687 -0.484470
-2.336476 -1.855341 -0.197345 1367 0.792002 0.283674 -0.470830
-2.336061 -1.855001 -0.196397 1365 0.797975 0.288565 -0.457189
-2.336061 -1.854996 -0.195477 1367 0.797975 0.288637 -0.443952
-2.336046 -1.854976 -0.194558 1381 0.798191 0.288924 -0.430729
-2.335459 -1.854511 -0.193591 1385 0.806637 0.295615 -0.416815
-2.335052 -1.854179 -0.192634 1381 0.812493 0.300392 -0.403045
-2.335266 -1.854354 -0.191731 1397 0.809412 0.297874 -0.390053
-2.334972 -1.854105 -0.190793 1401 0.813645 0.301457 -0.376556
-2.334671 -1.853863 -0.189845 1399 0.817975 0.304939 -0.362916
-2.334206 -1.853489 -0.188897 1401 0.824664 0.310320 -0.349275
-2.333563 -1.852983 -0.187930 1409 0.833916 0.317601 -0.335362
-2.333040 -1.852552 -0.186963 1417 0.841443 0.323802 -0.321448
-2.332847 -1.852401 -0.186034 1419 0.844218 0.325975 -0.308081
-2.332546 -1.852159 -0.185096 1423 0.848551 0.329457 -0.294585
-2.331681 -1.851464 -0.184112 1433 0.860996 0.339457 -0.280427
-2.330808 -1.850763 -0.183125 1431 0.873559 0.349544 -0.266225
-2.330451 -1.850479 -0.182187 1431 0.878694 0.353630 -0.252729
-2.330786 -1.850745 -0.181296 1435 0.873874 0.349803 -0.239909
-2.331401 -1.851227 -0.180423 1443 0.865024 0.342867 -0.227348
-2.331050 -1.850936 -0.179475 1439 0.870077 0.347053 -0.213707
-2.329942 -1.850061 -0.178479 1439 0.886018 0.359643 -0.199376
-2.329698 -1.849860 -0.177541 1451 0.889528 0.362537 -0.185880
-2.329683 -1.849841 -0.176631 1457 0.889744 0.362810 -0.172786
-2.329783 -1.849919 -0.175721 1459 0.888306 0.361688 -0.159693
-2.330004 -1.850087 -0.174819 1457 0.885126 0.359269 -0.146714
-2.329475 -1.849664 -0.173862 1445 0.892739 0.365357 -0.132945
-2.329517 -1.849687 -0.172952 1439 0.892135 0.365026 -0.119851
