221
-19.534264 -16.580402 -0.159486 789 0.746336 -0.542044 -0.107250
-19.530241 -16.576948 -0.151599 817 0.804215 -0.492343 0.006232
-19.529232 -16.576054 -0.143726 813 0.818733 -0.479472 0.119513
-19.545582 -16.580059 -0.183183 707 0.583484 -0.537104 -0.448214
-19.529577 -16.566448 -0.175183 865 0.813766 -0.341264 -0.333106
-19.525620 -16.563046 -0.167287 949 0.870712 -0.292305 -0.219495
-19.523100 -16.560865 -0.159412 999 0.906965 -0.260936 -0.106185
-19.521585 -16.559547 -0.151540 1011 0.928755 -0.241973 0.007081
-19.522810 -16.560543 -0.143684 1005 0.911136 -0.256298 0.120117
-19.524590 -16.562014 -0.135833 985 0.885531 -0.277457 0.233081
-19.526363 -16.563477 -0.127982 919 0.860008 -0.298507 0.346045
-19.533823 -16.569775 -0.120151 809 0.752675 -0.389127 0.458721
-19.556021 -16.588562 -0.112384 655 0.433284 -0.659449 0.570477
-19.547472 -16.571432 -0.191054 791 0.556287 -0.412975 -0.561466
-19.531630 -16.557957 -0.183055 955 0.784236 -0.219084 -0.446372
-19.525545 -16.552767 -0.175149 1027 0.871782 -0.144410 -0.332617
-19.522020 -16.549744 -0.167260 1065 0.922498 -0.100911 -0.219106
-19.521009 -16.548838 -0.159396 1097 0.937043 -0.087875 -0.105955
-19.520679 -16.548521 -0.151538 1103 0.941791 -0.083320 0.007110
-19.520657 -16.548468 -0.143678 1103 0.942120 -0.082551 0.120203
-19.521379 -16.549046 -0.135823 1081 0.931719 -0.090867 0.233225
-19.522980 -16.550356 -0.127965 1047 0.908694 -0.109721 0.346290
-19.526100 -16.552959 -0.120128 1001 0.863796 -0.147181 0.459052
-19.532394 -16.558260 -0.112291 889 0.773231 -0.223448 0.571815
-19.554644 -16.577082 -0.104514 693 0.453098 -0.494264 0.683714
-19.560781 -16.572287 -0.199031 755 0.364784 -0.425270 -0.676243
-19.534273 -16.549782 -0.190932 961 0.746199 -0.101460 -0.559710
-19.528912 -16.545210 -0.183034 1065 0.823343 -0.035677 -0.446070
-19.524954 -16.541817 -0.175136 1113 0.880289 0.013146 -0.332430
-19.520927 -16.538363 -0.167249 1133 0.938223 0.062846 -0.218948
-19.519299 -16.536949 -0.159379 1145 0.961661 0.083182 -0.105710
-19.520414 -16.537855 -0.151532 1159 0.945606 0.070147 0.007196
-19.521193 -16.538467 -0.143678 1155 0.934409 0.061337 0.120203
-19.521961 -16.539083 -0.135823 1145 0.923349 0.052473 0.233225
-19.523518 -16.540356 -0.127975 1139 0.900955 0.034168 0.346146
-19.524788 -16.541391 -0.120128 1097 0.882677 0.019266 0.459052
-19.527901 -16.543987 -0.112281 1029 0.837889 -0.018086 0.571959
-19.536255 -16.551025 -0.104453 925 0.717685 -0.119353 0.684592
-19.555738 -16.557783 -0.206853 767 0.437345 -0.216587 -0.788789
-19.541998 -16.546116 -0.198852 941 0.635051 -0.048713 -0.673667
-19.534245 -16.539505 -0.190927 1057 0.746610 0.046408 -0.559638
-19.529058 -16.535082 -0.183026 1119 0.821230 0.110050 -0.445955
-19.525599 -16.532110 -0.175136 1147 0.871013 0.152807 -0.332430
-19.523193 -16.530031 -0.167260 1167 0.905620 0.182721 -0.219106
-19.521128 -16.528244 -0.159391 1185 0.935342 0.208436 -0.105883
-19.521225 -16.528292 -0.151540 1203 0.933942 0.207750 0.007081
-19.521561 -16.528540 -0.143689 1197 0.929112 0.204182 0.120045
-19.520927 -16.527964 -0.135823 1177 0.938223 0.212470 0.233225
-19.523100 -16.529762 -0.127980 1169 0.906965 0.186591 0.346074
-19.526768 -16.532816 -0.120149 1145 0.854190 0.142653 0.458750
-19.530218 -16.535707 -0.112300 1093 0.804544 0.101048 0.571685
-19.535118 -16.539808 -0.104463 1017 0.734041 0.042044 0.684448
-19.544691 -16.547884 -0.096637 871 0.596300 -0.074153 0.797052
-19.551800 -16.544205 -0.206798 857 0.494017 -0.021214 -0.787998
-19.541246 -16.535236 -0.198838 1003 0.645864 0.107827 -0.673466
-19.534210 -16.529236 -0.190919 1081 0.747104 0.194165 -0.559523
-19.530142 -16.525753 -0.183023 1141 0.805642 0.244278 -0.445912
-19.526791 -16.522884 -0.175141 1177 0.853861 0.285553 -0.332502
-19.524385 -16.520803 -0.167266 1207 0.888468 0.315495 -0.219192
-19.523037 -16.519629 -0.159402 1221 0.907871 0.332400 -0.106041
-19.522593 -16.519203 -0.151546 1233 0.914265 0.338520 0.006995
-19.522697 -16.519257 -0.143695 1221 0.912756 0.337752 0.119959
-19.523573 -16.519966 -0.135850 1197 0.900159 0.327543 0.232837
-19.525238 -16.521326 -0.128001 1187 0.876200 0.307975 0.345772
-19.528801 -16.524305 -0.120160 1167 0.824935 0.265108 0.458592
-19.532202 -16.527136 -0.112321 1137 0.776003 0.224381 0.571383
-19.536144 -16.530437 -0.104478 1075 0.719276 0.176876 0.684232
-19.544113 -16.537140 -0.096654 961 0.604616 0.080438 0.796808
-19.552546 -16.534376 -0.206788 895 0.483286 0.120204 -0.787854
-19.542767 -16.526072 -0.198844 1031 0.623991 0.239695 -0.673552
-19.537912 -16.521927 -0.190942 1103 0.693836 0.299330 -0.559854
-19.534170 -16.518726 -0.183053 1167 0.747681 0.345381 -0.446343
-19.529982 -16.515142 -0.175157 1193 0.807947 0.396948 -0.332732
-19.527634 -16.513117 -0.167291 1207 0.841731 0.426093 -0.219552
-19.526966 -16.512505 -0.159434 1233 0.851336 0.434903 -0.106502
-19.526903 -16.512417 -0.151574 1233 0.852242 0.436165 0.006592
-19.526834 -16.512321 -0.143726 1221 0.853230 0.437538 0.119513
-19.526878 -16.512321 -0.135875 1229 0.852599 0.437538 0.232477
-19.528496 -16.513647 -0.128026 1211 0.829326 0.418464 0.345412
-19.531389 -16.516048 -0.120189 1183 0.787694 0.383912 0.458175
-19.535336 -16.519354 -0.112348 1155 0.730912 0.336352 0.570995
-19.540506 -16.523685 -0.104518 1103 0.656512 0.274027 0.683657
-19.545736 -16.528074 -0.096677 1013 0.581261 0.210879 0.796477
-19.565664 -16.544884 -0.088874 845 0.294528 -0.030984 0.908750
-19.553015 -16.524719 -0.206786 947 0.476535 0.259152 -0.787825
-19.546322 -16.519037 -0.198865 1061 0.572836 0.340908 -0.673854
-19.541403 -16.514841 -0.190963 1121 0.643614 0.401284 -0.560156
-19.537277 -16.511303 -0.183066 1175 0.702975 0.452193 -0.446530
-19.534260 -16.508722 -0.175193 1209 0.746391 0.489324 -0.333250
-19.531523 -16.506369 -0.167319 1239 0.785773 0.523190 -0.219955
-19.529284 -16.504431 -0.159442 1235 0.817992 0.551073 -0.106617
-19.528940 -16.504103 -0.151595 1249 0.822932 0.555793 0.006290
-19.528654 -16.503828 -0.143737 1243 0.827048 0.559745 0.119354
-19.529421 -16.504433 -0.135892 1221 0.816016 0.551045 0.232232
-19.533106 -16.507504 -0.128060 1209 0.762994 0.506861 0.344923
-19.537056 -16.510813 -0.120219 1203 0.706158 0.459246 0.457743
-19.539511 -16.512838 -0.112374 1161 0.670838 0.430100 0.570621
-19.543396 -16.516085 -0.104543 1109 0.614935 0.383391 0.683297
-19.548914 -16.520708 -0.096702 1037 0.535540 0.316867 0.796117
-19.562805 -16.532415 -0.088882 891 0.335666 0.148416 0.908635
-19.557301 -16.518656 -0.206811 975 0.414869 0.346396 -0.788185
-19.550379 -16.512766 -0.198890 1071 0.514463 0.431143 -0.674214
-19.544907 -16.508102 -0.190982 1137 0.593199 0.498243 -0.560430
-19.541492 -16.505184 -0.183091 1181 0.642324 0.540232 -0.446890
-19.539206 -16.503216 -0.175225 1215 0.675229 0.568555 -0.333710
-19.536459 -16.500853 -0.167350 1245 0.714748 0.602558 -0.220401
-19.533442 -16.498272 -0.159478 1255 0.758164 0.639689 -0.107135
-19.533039 -16.497887 -0.151620 1251 0.763955 0.645233 0.005930
-19.533983 -16.498640 -0.143775 1233 0.750370 0.634392 0.118808
-19.534477 -16.499027 -0.135923 1237 0.743262 0.628821 0.231786
-19.536036 -16.500298 -0.128083 1223 0.720841 0.610544 0.344592
-19.539095 -16.502846 -0.120237 1199 0.676821 0.573879 0.457484
-19.541536 -16.504873 -0.112403 1173 0.641692 0.544706 0.570203
-19.545992 -16.508593 -0.104556 1115 0.577584 0.491190 0.683110
-19.552956 -16.514437 -0.096727 1041 0.477386 0.407102 0.795757
-19.563564 -16.523355 -0.088906 903 0.324743 0.278775 0.908290
-19.563175 -16.514303 -0.206855 979 0.330342 0.409023 -0.788818
-19.555014 -16.507378 -0.198920 1077 0.447774 0.508672 -0.674645
-19.549763 -16.502905 -0.191011 1133 0.523327 0.573028 -0.560847
-19.546461 -16.500084 -0.183129 1181 0.570832 0.613617 -0.447437
-19.544067 -16.498026 -0.175254 1225 0.605274 0.643229 -0.334128
-19.541595 -16.495897 -0.167379 1233 0.640842 0.673857 -0.220818
-19.539083 -16.493742 -0.159513 1251 0.676985 0.704868 -0.107638
-19.538126 -16.492897 -0.151649 1249 0.690762 0.717026 0.005513
-19.537899 -16.492664 -0.143800 1249 0.694028 0.720374 0.118448
-19.538109 -16.492809 -0.135947 1229 0.691009 0.718288 0.231441
-19.541279 -16.495447 -0.128110 1217 0.645397 0.680333 0.344203
-19.544674 -16.498283 -0.120280 1199 0.596547 0.639524 0.456865
-19.546782 -16.500021 -0.112430 1173 0.566222 0.614523 0.569815
-19.550623 -16.503227 -0.104587 1119 0.510950 0.568390 0.682664
-19.555576 -16.507366 -0.096749 1045 0.439678 0.508837 0.795441
-19.567911 -16.517748 -0.088939 901 0.262199 0.359460 0.907815
-19.569492 -16.508526 -0.206897 967 0.239448 0.492151 -0.789423
-19.560993 -16.501318 -0.198955 1061 0.361738 0.595861 -0.675149
-19.556023 -16.497087 -0.191053 1123 0.433256 0.656732 -0.561451
-19.552052 -16.493696 -0.183166 1159 0.490394 0.705527 -0.447969
-19.549255 -16.491302 -0.175292 1197 0.530627 0.739969 -0.334674
-19.547235 -16.489559 -0.167424 1215 0.559690 0.765053 -0.221466
-19.544996 -16.487635 -0.159547 1219 0.591909 0.792744 -0.108128
-19.543888 -16.486647 -0.151693 1223 0.607854 0.806959 0.004880
-19.544209 -16.486879 -0.143842 1233 0.603244 0.803611 0.117844
-19.546139 -16.488482 -0.136001 1221 0.575470 0.780558 0.230664
-19.548485 -16.490416 -0.128158 1215 0.541714 0.752730 0.343513
-19.550817 -16.492340 -0.120315 1179 0.508151 0.725039 0.456362
-19.553720 -16.494749 -0.112477 1145 0.466381 0.690378 0.569139
-19.556997 -16.497475 -0.104629 1089 0.419232 0.651161 0.682059
-19.563404 -16.502846 -0.096803 1017 0.327049 0.573879 0.794664
-19.581511 -16.518074 -0.089000 839 0.066524 0.354767 0.906937
-19.577932 -16.505207 -0.206962 911 0.118009 0.539903 -0.790358
-19.570494 -16.498898 -0.199035 1045 0.225040 0.630687 -0.676300
-19.563955 -16.493345 -0.191112 1105 0.319117 0.710577 -0.562300
-19.560265 -16.490191 -0.183223 1145 0.372221 0.755969 -0.448789
-19.556351 -16.486855 -0.175336 1185 0.428536 0.803968 -0.335307
-19.553099 -16.484081 -0.167464 1193 0.475328 0.843871 -0.222041
-19.552546 -16.483566 -0.159608 1209 0.483286 0.851281 -0.109005
-19.552137 -16.483189 -0.151750 1219 0.489159 0.856715 0.004060
-19.553247 -16.484089 -0.143903 1225 0.473187 0.843762 0.116966
-19.553698 -16.484417 -0.136050 1211 0.466710 0.839041 0.229959
-19.553679 -16.484371 -0.128190 1191 0.466985 0.839700 0.343052
-19.556688 -16.486870 -0.120355 1159 0.423678 0.803748 0.455786
-19.559635 -16.489307 -0.112517 1139 0.381278 0.768675 0.568563
-19.562979 -16.492096 -0.104669 1073 0.333169 0.728552 0.681484
-19.568495 -16.496702 -0.096837 977 0.253801 0.662275 0.794175
-19.595940 -16.519798 -0.089061 799 -0.141089 0.329958 0.906060
-19.594303 -16.508375 -0.207105 775 -0.117542 0.494319 -0.792415
-19.579700 -16.496031 -0.199107 989 0.092568 0.671936 -0.677336
-19.572157 -16.489634 -0.191180 1073 0.201109 0.763982 -0.563279
-19.566841 -16.485113 -0.183271 1113 0.277595 0.829024 -0.449480
-19.563101 -16.481932 -0.175382 1137 0.331412 0.874801 -0.335969
-19.561417 -16.480467 -0.167522 1173 0.355645 0.895878 -0.222876
-19.560741 -16.479864 -0.159656 1189 0.365360 0.904550 -0.109696
-19.560064 -16.479244 -0.151799 1199 0.375103 0.913469 0.003355
-19.560394 -16.479486 -0.143947 1203 0.370355 0.909984 0.116333
-19.560829 -16.479816 -0.136096 1203 0.364098 0.905236 0.229297
-19.562105 -16.480846 -0.128247 1173 0.345738 0.890416 0.342232
-19.564552 -16.482878 -0.120404 1145 0.310527 0.861188 0.455081
-19.567781 -16.485556 -0.112556 1105 0.264065 0.822657 0.568002
-19.572250 -16.489277 -0.104720 1027 0.199764 0.769114 0.680750
-19.580500 -16.496191 -0.096894 919 0.081069 0.669630 0.793354
-19.596117 -16.499935 -0.199235 871 -0.143641 0.615758 -0.679178
-19.581795 -16.487837 -0.191245 989 0.062435 0.789834 -0.564214
-19.576933 -16.483700 -0.183343 1081 0.132389 0.849360 -0.450516
-19.573185 -16.480505 -0.175454 1119 0.186316 0.895329 -0.337005
-19.570377 -16.478109 -0.167581 1141 0.226714 0.929798 -0.223725
-19.569643 -16.477451 -0.159715 1159 0.237280 0.939266 -0.110545
-19.569254 -16.477079 -0.151858 1169 0.242878 0.944618 0.002506
-19.568680 -16.476557 -0.144000 1179 0.251139 0.952137 0.115570
-19.569231 -16.476984 -0.136148 1149 0.243208 0.945990 0.228549
-19.571129 -16.478550 -0.128297 1125 0.215901 0.923459 0.341513
-19.573019 -16.480095 -0.120456 1113 0.188704 0.901229 0.454333
-19.576246 -16.482773 -0.112609 1059 0.142269 0.862698 0.567239
-19.583290 -16.488665 -0.104777 963 0.040919 0.777924 0.679930
-19.609228 -16.510469 -0.097011 795 -0.332290 0.464186 0.791671
-19.596626 -16.489985 -0.191365 897 -0.150969 0.758933 -0.565941
-19.586445 -16.481369 -0.183423 1007 -0.004473 0.882897 -0.451667
-19.582357 -16.477894 -0.175527 1083 0.054339 0.932899 -0.338056
-19.579338 -16.475315 -0.167644 1115 0.097782 0.970003 -0.224631
-19.577988 -16.474138 -0.159770 1129 0.117213 0.986936 -0.111336
-19.577032 -16.473297 -0.151906 1135 0.130962 0.999039 0.001815
-19.576521 -16.472822 -0.144050 1131 0.138317 1.005873 0.114851
-19.577461 -16.473576 -0.136193 1113 0.124787 0.995032 0.227901
-19.579967 -16.475651 -0.128350 1095 0.088726 0.965173 0.340750
-19.581516 -16.476915 -0.120502 1037 0.066442 0.946978 0.453671
-19.585541 -16.480251 -0.112659 993 0.008535 0.898979 0.566520
-19.596893 -16.489767 -0.104844 889 -0.154811 0.762061 0.678966
-19.607388 -16.488758 -0.183576 865 -0.305807 0.776579 -0.453869
-19.594839 -16.478170 -0.175618 977 -0.125254 0.928920 -0.339365
-19.590469 -16.474457 -0.167722 1035 -0.062380 0.982353 -0.225753
-19.589621 -16.473701 -0.159858 1067 -0.050167 0.993221 -0.112602
-19.589060 -16.473194 -0.151990 1073 -0.042099 1.000521 0.000606
-19.588999 -16.473104 -0.144132 1069 -0.041221 1.001811 0.113671
-19.589890 -16.473814 -0.136275 1047 -0.054037 0.991602 0.226721
-19.592169 -16.475687 -0.128423 1005 -0.086832 0.964652 0.339700
-19.595129 -16.478138 -0.120576 945 -0.129425 0.929386 0.452606
-19.608044 -16.488958 -0.112773 843 -0.315248 0.773697 0.564880
-19.634092 -16.500946 -0.175918 741 -0.690049 0.601213 -0.343681
-19.608223 -16.479162 -0.167844 871 -0.317827 0.914649 -0.227509
-19.603060 -16.474787 -0.159944 941 -0.243537 0.977605 -0.113840
-19.601654 -16.473558 -0.152072 965 -0.223311 0.995279 -0.000574
-19.601990 -16.473808 -0.144210 951 -0.228141 0.991684 0.112549
-19.603655 -16.475166 -0.136361 925 -0.252099 0.972144 0.225484
