301
-16.483643 -13.959771 -0.171887 873 0.877518 -0.496871 -0.279020
-16.478775 -13.955620 -0.165215 919 0.947554 -0.437140 -0.183020
-16.475750 -13.953023 -0.158553 943 0.991080 -0.399775 -0.087164
-16.476196 -13.953366 -0.151931 947 0.984658 -0.404715 0.008116
-16.478699 -13.955451 -0.145316 939 0.948652 -0.434711 0.103296
-16.480310 -13.956789 -0.138697 901 0.925462 -0.453963 0.198534
-16.483585 -13.959524 -0.132089 831 0.878341 -0.493317 0.293613
-16.485138 -13.952639 -0.185161 867 0.856002 -0.394245 -0.470013
-16.480843 -13.948959 -0.178485 963 0.917805 -0.341306 -0.373956
-16.477983 -13.946506 -0.171832 1017 0.958944 -0.305999 -0.278229
-16.474854 -13.943835 -0.165170 1033 1.003979 -0.267578 -0.182373
-16.473387 -13.942561 -0.158528 1039 1.025083 -0.249245 -0.086805
-16.473825 -13.942898 -0.151906 1045 1.018771 -0.254089 0.008476
-16.474936 -13.943803 -0.145289 1043 1.002799 -0.267111 0.103685
-16.475260 -13.944045 -0.138657 1017 0.998133 -0.270597 0.199109
-16.477261 -13.945696 -0.132047 983 0.969345 -0.294349 0.294217
-16.481092 -13.948919 -0.125434 913 0.914210 -0.340729 0.389368
-16.488569 -13.955205 -0.118852 839 0.806630 -0.431171 0.484073
-16.487009 -13.945604 -0.191792 925 0.829079 -0.293032 -0.565423
-16.481472 -13.940890 -0.185103 1003 0.908749 -0.225204 -0.469179
-16.477509 -13.937498 -0.178437 1055 0.965777 -0.176395 -0.373265
-16.474710 -13.935101 -0.171792 1079 1.006037 -0.141899 -0.277653
-16.473917 -13.934395 -0.165158 1097 1.017454 -0.131744 -0.182200
-16.473631 -13.934115 -0.158528 1113 1.021570 -0.127724 -0.086805
-16.473230 -13.933754 -0.151902 1103 1.027334 -0.122523 0.008534
-16.473553 -13.933994 -0.145270 1083 1.022696 -0.125981 0.103958
-16.474663 -13.934898 -0.138654 1085 1.006723 -0.138989 0.199152
-16.476824 -13.936689 -0.132041 1069 0.975629 -0.164759 0.294303
-16.479609 -13.939013 -0.125436 1027 0.935561 -0.198186 0.389339
-16.483383 -13.942166 -0.118823 965 0.881250 -0.243564 0.484490
-16.491531 -13.949036 -0.112237 853 0.764010 -0.342403 0.579253
-16.491491 -13.940784 -0.198459 913 0.764586 -0.223681 -0.661351
-16.484892 -13.935171 -0.191756 1005 0.859542 -0.142914 -0.564905
-16.480646 -13.931554 -0.185092 1071 0.920632 -0.090867 -0.469020
-16.477348 -13.928738 -0.178429 1113 0.968082 -0.050346 -0.373150
-16.474890 -13.926620 -0.171784 1125 1.003458 -0.019869 -0.277538
-16.474148 -13.925964 -0.165149 1145 1.014133 -0.010442 -0.182071
-16.472748 -13.924739 -0.158517 1125 1.034277 0.007190 -0.086646
-16.472677 -13.924649 -0.151887 1125 1.035292 0.008480 0.008749
-16.473675 -13.925460 -0.145272 1131 1.020939 -0.003183 0.103929
-16.474161 -13.925844 -0.138648 1135 1.013941 -0.008713 0.199239
-16.475382 -13.926839 -0.132031 1103 0.996377 -0.023025 0.294447
-16.477266 -13.928395 -0.125420 1081 0.969262 -0.045420 0.389570
-16.481224 -13.931706 -0.118819 1025 0.912316 -0.093062 0.484548
-16.488129 -13.937521 -0.112229 973 0.812970 -0.176725 0.579368
-16.496386 -13.944463 -0.105632 851 0.694165 -0.276607 0.674289
-16.499437 -13.939229 -0.205153 879 0.650255 -0.201301 -0.757668
-16.490501 -13.931636 -0.198424 995 0.778829 -0.092047 -0.660848
-16.484741 -13.926737 -0.191739 1059 0.861710 -0.021557 -0.564661
-16.481276 -13.923777 -0.185078 1119 0.911575 0.021036 -0.468819
-16.477465 -13.920528 -0.178420 1143 0.966408 0.067773 -0.373020
-16.475449 -13.918790 -0.171771 1155 0.995416 0.092788 -0.277351
-16.475342 -13.918666 -0.165152 1169 0.996953 0.094572 -0.182114
-16.474600 -13.918010 -0.158526 1183 1.007629 0.104012 -0.086776
-16.474648 -13.918017 -0.151896 1181 1.006943 0.103902 0.008620
-16.475803 -13.918965 -0.145280 1179 0.990312 0.090263 0.103814
-16.477079 -13.920014 -0.138673 1179 0.971952 0.075169 0.198879
-16.477127 -13.920009 -0.132043 1151 0.971266 0.075251 0.294275
-16.478390 -13.921044 -0.125424 1127 0.953098 0.060349 0.389512
-16.483078 -13.924979 -0.118829 1099 0.885641 0.003732 0.484404
-16.488317 -13.929367 -0.112229 1043 0.810253 -0.059402 0.579368
-16.494221 -13.934328 -0.105636 959 0.725314 -0.130784 0.674231
-16.503475 -13.934372 -0.211821 805 0.592156 -0.131415 -0.853610
-16.496202 -13.928204 -0.205102 949 0.696800 -0.042661 -0.756934
-16.489719 -13.922703 -0.198409 1039 0.790081 0.036487 -0.660632
-16.485298 -13.918932 -0.191735 1091 0.853696 0.090743 -0.564603
-16.481668 -13.915829 -0.185077 1137 0.905922 0.135394 -0.468804
-16.479370 -13.913863 -0.178429 1171 0.938992 0.163675 -0.373150
-16.477743 -13.912453 -0.171788 1179 0.962401 0.183970 -0.277596
-16.475843 -13.910808 -0.165151 1183 0.989736 0.207640 -0.182099
-16.474709 -13.909822 -0.158517 1193 1.006065 0.221815 -0.086646
-16.473860 -13.909078 -0.151891 1191 1.018277 0.232532 0.008692
-16.473856 -13.909038 -0.145270 1181 1.018332 0.233108 0.103958
-16.475582 -13.910455 -0.138661 1189 0.993495 0.212717 0.199052
-16.478352 -13.912766 -0.132056 1173 0.953647 0.179455 0.294088
-16.479963 -13.914089 -0.125436 1157 0.930457 0.160423 0.389339
-16.482239 -13.915989 -0.118834 1127 0.897716 0.133089 0.484332
-16.487926 -13.920746 -0.112231 1077 0.815879 0.064644 0.579339
-16.493338 -13.925284 -0.105630 1011 0.738020 -0.000659 0.674318
-16.498510 -13.929623 -0.099030 899 0.663593 -0.063080 0.769282
-16.505045 -13.927056 -0.211816 861 0.569570 -0.026154 -0.853538
-16.496651 -13.919950 -0.205092 983 0.690350 0.076102 -0.756790
-16.491346 -13.915442 -0.198403 1073 0.766672 0.140952 -0.660546
-16.486420 -13.911248 -0.191731 1121 0.837559 0.201301 -0.564546
-16.482565 -13.907960 -0.185063 1157 0.893023 0.248614 -0.468603
-16.479982 -13.905754 -0.178418 1177 0.930182 0.280353 -0.372992
-16.478973 -13.904871 -0.171784 1187 0.944700 0.293059 -0.277538
-16.478521 -13.904447 -0.165168 1203 0.951204 0.299166 -0.182344
-16.477901 -13.903892 -0.158540 1219 0.960124 0.307152 -0.086977
-16.477219 -13.903292 -0.151904 1225 0.969949 0.315783 0.008505
-16.477482 -13.903479 -0.145293 1207 0.966161 0.313093 0.103627
-16.478434 -13.904244 -0.138678 1197 0.952467 0.302075 0.198807
-16.480204 -13.905705 -0.132068 1189 0.926999 0.281053 0.293915
-16.481974 -13.907166 -0.125457 1163 0.901531 0.260044 0.389037
-16.484373 -13.909155 -0.118844 1137 0.867007 0.231420 0.484188
-16.488539 -13.912637 -0.112241 1111 0.807069 0.181322 0.579195
-16.494120 -13.917319 -0.105649 1049 0.726768 0.113947 0.674044
-16.500362 -13.922548 -0.099044 953 0.636945 0.038710 0.769080
-16.505833 -13.919097 -0.211802 913 0.558236 0.088369 -0.853337
-16.497496 -13.912033 -0.205081 1025 0.678193 0.190008 -0.756632
-16.492743 -13.907990 -0.198407 1097 0.746583 0.248175 -0.660603
-16.488989 -13.904798 -0.191739 1141 0.800592 0.294116 -0.564661
-16.485184 -13.901557 -0.185080 1157 0.855343 0.340743 -0.468848
-16.482618 -13.899352 -0.178435 1187 0.892255 0.372468 -0.373236
-16.482550 -13.899263 -0.171805 1209 0.893243 0.373744 -0.277840
-16.481705 -13.898524 -0.165181 1239 0.905401 0.384379 -0.182531
-16.480471 -13.897443 -0.158547 1229 0.923157 0.399939 -0.087078
-16.480743 -13.897635 -0.151936 1229 0.919232 0.397168 0.008044
-16.480501 -13.897410 -0.145308 1221 0.922718 0.400406 0.103411
-16.480547 -13.897405 -0.138688 1207 0.922059 0.400488 0.198663
-16.482325 -13.898872 -0.132077 1189 0.896481 0.379370 0.293786
-16.485107 -13.901196 -0.125472 1179 0.856441 0.345944 0.388821
-16.487494 -13.903171 -0.118869 1159 0.822108 0.317526 0.483829
-16.491392 -13.906426 -0.112265 1123 0.766013 0.270679 0.578850
-16.497021 -13.911143 -0.105664 1067 0.685026 0.202810 0.673829
-16.502600 -13.915811 -0.099063 985 0.604753 0.135655 0.768807
-16.507219 -13.919668 -0.092456 815 0.538284 0.080150 0.863872
-16.514402 -13.917555 -0.218518 873 0.434930 0.110558 -0.949970
-16.508041 -13.912155 -0.211814 941 0.526456 0.188251 -0.853510
-16.501436 -13.906564 -0.205111 1039 0.621494 0.268703 -0.757063
-16.496344 -13.902241 -0.198420 1097 0.694769 0.330904 -0.660790
-16.491873 -13.898438 -0.191756 1131 0.759097 0.385614 -0.564905
-16.489189 -13.896136 -0.185101 1155 0.797711 0.418739 -0.469150
-16.487673 -13.894828 -0.178470 1205 0.819529 0.437565 -0.373740
-16.485317 -13.892807 -0.171824 1225 0.853422 0.466642 -0.278114
-16.483683 -13.891403 -0.165192 1235 0.876941 0.486840 -0.182689
-16.483622 -13.891322 -0.158574 1241 0.877819 0.488007 -0.087466
-16.484285 -13.891846 -0.151950 1249 0.868269 0.480473 0.007843
-16.484671 -13.892133 -0.145337 1241 0.862725 0.476343 0.102994
-16.484711 -13.892134 -0.138718 1219 0.862149 0.476329 0.198232
-16.486258 -13.893410 -0.132110 1195 0.839892 0.457970 0.293311
-16.489157 -13.895817 -0.125502 1191 0.798177 0.423335 0.388390
-16.492445 -13.898551 -0.118903 1167 0.750864 0.383995 0.483339
-16.495216 -13.900861 -0.112288 1141 0.710988 0.350760 0.578519
-16.498730 -13.903782 -0.105689 1075 0.660437 0.308730 0.673469
-16.504135 -13.908313 -0.099078 985 0.582661 0.243537 0.768591
-16.511219 -13.914241 -0.092486 861 0.480734 0.158241 0.863440
-16.519335 -13.912738 -0.218554 805 0.363961 0.179867 -0.950488
-16.513012 -13.907387 -0.211841 963 0.454937 0.256861 -0.853898
-16.506523 -13.901892 -0.205148 1035 0.548301 0.335927 -0.757596
-16.501486 -13.897609 -0.198466 1097 0.620780 0.397552 -0.661452
-16.496725 -13.893573 -0.191792 1139 0.689280 0.455623 -0.565423
-16.493038 -13.890430 -0.185124 1177 0.742329 0.500837 -0.469481
-16.490797 -13.888505 -0.178487 1205 0.774576 0.528541 -0.373984
-16.489216 -13.887149 -0.171845 1229 0.797327 0.548054 -0.278416
-16.488539 -13.886540 -0.165219 1253 0.807069 0.556809 -0.183078
-16.487812 -13.885898 -0.158595 1235 0.817525 0.566057 -0.087768
-16.487408 -13.885520 -0.151976 1231 0.823343 0.571491 0.007469
-16.488005 -13.885994 -0.145364 1239 0.814753 0.564671 0.102606
-16.489456 -13.887179 -0.138745 1223 0.793869 0.547615 0.197843
-16.491003 -13.888457 -0.132136 1203 0.771612 0.529227 0.292936
-16.492729 -13.889877 -0.125527 1185 0.746775 0.508796 0.388030
-16.494999 -13.891755 -0.118914 1165 0.714117 0.481777 0.483181
-16.497740 -13.894024 -0.112307 1119 0.674680 0.449133 0.578246
-16.501797 -13.897418 -0.105704 1077 0.616307 0.400296 0.673253
-16.507990 -13.902598 -0.099110 995 0.527197 0.325759 0.768131
-16.515755 -13.909101 -0.092515 867 0.415473 0.232203 0.863023
-16.517403 -13.902619 -0.211877 969 0.391761 0.325457 -0.854416
-16.510029 -13.896371 -0.205169 1029 0.497859 0.415363 -0.757898
-16.504530 -13.891718 -0.198480 1103 0.576980 0.482312 -0.661653
-16.500002 -13.887876 -0.191806 1139 0.642132 0.537598 -0.565625
-16.497478 -13.885710 -0.185161 1177 0.678440 0.568760 -0.470013
-16.494955 -13.883559 -0.178515 1201 0.714748 0.599703 -0.374387
-16.492933 -13.881827 -0.171876 1217 0.743839 0.624622 -0.278862
-16.492262 -13.881225 -0.165250 1233 0.753499 0.633295 -0.183524
-16.491520 -13.880569 -0.158624 1237 0.764174 0.642722 -0.088186
-16.491459 -13.880486 -0.152005 1239 0.765053 0.643929 0.007052
-16.491781 -13.880728 -0.145383 1231 0.760415 0.640444 0.102332
-16.492277 -13.881106 -0.138770 1209 0.753279 0.634996 0.197483
-16.493656 -13.882238 -0.132151 1195 0.733437 0.618708 0.292721
-16.495840 -13.884033 -0.125550 1189 0.702014 0.592884 0.387699
-16.499006 -13.886665 -0.118943 1169 0.656457 0.555011 0.482764
-16.501333 -13.888598 -0.112340 1123 0.622976 0.527197 0.577771
-16.506353 -13.892795 -0.105740 1067 0.550744 0.466820 0.672735
-16.513393 -13.898682 -0.099141 1003 0.449448 0.382115 0.767685
-16.519587 -13.903862 -0.092536 857 0.360338 0.307577 0.862721
-16.524055 -13.899610 -0.211930 961 0.296037 0.368763 -0.855179
-16.515327 -13.892229 -0.205201 1043 0.421620 0.474957 -0.758358
-16.510168 -13.887857 -0.198520 1091 0.495856 0.537859 -0.662229
-16.506531 -13.884762 -0.191861 1133 0.548191 0.582400 -0.566416
-16.503386 -13.882092 -0.185199 1167 0.593446 0.620808 -0.470560
-16.500696 -13.879797 -0.178553 1191 0.632142 0.653836 -0.374934
-16.498514 -13.877926 -0.171916 1207 0.663538 0.680759 -0.279438
-16.498171 -13.877605 -0.165288 1221 0.668478 0.685369 -0.184071
-16.497660 -13.877140 -0.158662 1235 0.675833 0.692066 -0.088733
-16.496807 -13.876394 -0.152036 1229 0.688100 0.702796 0.006606
-16.496803 -13.876353 -0.145417 1233 0.688155 0.703386 0.101843
-16.497459 -13.876869 -0.138802 1205 0.678714 0.695963 0.197023
-16.499693 -13.878713 -0.132201 1193 0.646577 0.669438 0.292001
-16.502136 -13.880743 -0.125586 1187 0.611422 0.640224 0.387181
-16.503971 -13.882252 -0.118976 1149 0.585021 0.618516 0.482289
-16.507254 -13.884978 -0.112368 1107 0.537790 0.579285 0.577368
-16.512276 -13.889160 -0.105769 1057 0.465530 0.519114 0.672318
-16.517570 -13.893588 -0.099170 989 0.389346 0.455404 0.767267
-16.523880 -13.898865 -0.092563 827 0.298562 0.379480 0.862332
-16.529146 -13.894916 -0.211966 933 0.222789 0.436303 -0.855696
-16.521751 -13.888674 -0.205258 1029 0.329189 0.526113 -0.759179
-16.515934 -13.883748 -0.198562 1067 0.412893 0.596986 -0.662833
-16.512291 -13.880645 -0.191903 1121 0.465311 0.641638 -0.567020
-16.509037 -13.877883 -0.185241 1159 0.512130 0.681376 -0.471164
-16.505957 -13.875261 -0.178588 1171 0.556452 0.719098 -0.375438
-16.503933 -13.873528 -0.171950 1197 0.585570 0.744044 -0.279927
-16.503422 -13.873063 -0.165324 1207 0.592925 0.750727 -0.184589
-16.502964 -13.872647 -0.158706 1203 0.599511 0.756710 -0.089366
-16.502619 -13.872325 -0.152078 1205 0.604479 0.761348 0.006001
-16.502216 -13.871948 -0.145450 1189 0.610269 0.766768 0.101368
-16.503096 -13.872663 -0.138835 1189 0.597618 0.756490 0.196548
-16.505339 -13.874514 -0.132233 1181 0.565344 0.729856 0.291541
-16.507729 -13.876480 -0.125628 1169 0.530956 0.701561 0.386577
-16.509224 -13.877708 -0.119010 1129 0.509440 0.683887 0.481800
-16.512848 -13.880718 -0.112410 1089 0.457297 0.640581 0.576764
-16.518656 -13.885577 -0.105807 1037 0.373731 0.570668 0.671771
-16.524849 -13.890743 -0.099212 961 0.284620 0.496336 0.766663
-16.537727 -13.893345 -0.212041 861 0.099319 0.458903 -0.856776
-16.529667 -13.886542 -0.205327 991 0.215297 0.556781 -0.760171
-16.523502 -13.881328 -0.198632 1061 0.303996 0.631813 -0.663841
-16.518793 -13.877340 -0.191949 1103 0.371755 0.689184 -0.567682
-16.515656 -13.874677 -0.185296 1135 0.416900 0.727509 -0.471956
-16.511902 -13.871485 -0.178637 1157 0.470909 0.773437 -0.376143
-16.509937 -13.869808 -0.172000 1177 0.499176 0.797560 -0.280646
-16.509426 -13.869342 -0.165372 1183 0.506531 0.804270 -0.185279
-16.509531 -13.869390 -0.158751 1199 0.505022 0.803584 -0.090013
-16.509520 -13.869357 -0.152121 1197 0.505187 0.804050 0.005382
-16.508610 -13.868556 -0.145497 1191 0.518277 0.815577 0.100692
-16.509272 -13.869077 -0.138884 1169 0.508754 0.808085 0.195843
-16.510653 -13.870209 -0.132266 1149 0.488885 0.791797 0.291066
-16.512667 -13.871861 -0.125655 1139 0.459904 0.768017 0.386188
-16.515783 -13.874446 -0.119058 1101 0.415061 0.730830 0.481109
-16.519806 -13.877791 -0.112454 1059 0.357182 0.682694 0.576131
-16.524992 -13.882115 -0.105855 1001 0.282562 0.620478 0.671080
-16.531527 -13.887576 -0.099248 891 0.188539 0.541907 0.766145
-16.538759 -13.885389 -0.205399 897 0.084472 0.573371 -0.761208
-16.532206 -13.879847 -0.198706 1015 0.178769 0.653123 -0.664905
-16.526424 -13.874969 -0.192019 1071 0.261952 0.723311 -0.568689
-16.522331 -13.871496 -0.185351 1115 0.320846 0.773272 -0.472747
-16.519648 -13.869208 -0.178698 1137 0.359460 0.806191 -0.377020
-16.517118 -13.867050 -0.172051 1155 0.395850 0.837244 -0.281380
-16.516100 -13.866161 -0.165418 1167 0.410505 0.850033 -0.185941
-16.515924 -13.865984 -0.158799 1183 0.413030 0.852585 -0.090704
-16.515913 -13.865937 -0.152169 1167 0.413195 0.853257 0.004692
-16.515511 -13.865575 -0.145541 1171 0.418985 0.858472 0.100059
-16.515732 -13.865719 -0.138921 1157 0.415802 0.856400 0.195311
-16.517786 -13.867421 -0.132319 1149 0.386245 0.831906 0.290303
-16.520292 -13.869483 -0.125705 1121 0.350184 0.802239 0.385469
-16.522236 -13.871080 -0.119094 1085 0.322218 0.779255 0.480591
-16.525412 -13.873720 -0.112485 1027 0.276524 0.741273 0.575685
-16.532234 -13.879416 -0.105897 961 0.178358 0.659311 0.670476
-16.538658 -13.884774 -0.099290 819 0.085927 0.582222 0.765541
-16.539249 -13.877485 -0.198756 937 0.077419 0.687098 -0.665625
-16.532854 -13.872093 -0.192063 1011 0.169438 0.764682 -0.569323
-16.529831 -13.869524 -0.185410 1077 0.212937 0.801649 -0.473596
-16.527418 -13.867462 -0.178754 1113 0.247653 0.831316 -0.377826
-16.524612 -13.865071 -0.172110 1133 0.288023 0.865717 -0.282229
-16.522814 -13.863524 -0.165469 1147 0.313903 0.887974 -0.186675
-16.521732 -13.862587 -0.158835 1147 0.329464 0.901462 -0.091222
-16.522293 -13.863027 -0.152213 1157 0.321395 0.895137 0.004059
-16.522280 -13.862979 -0.145593 1141 0.321587 0.895823 0.099311
-16.522604 -13.863220 -0.138972 1133 0.316922 0.892351 0.194577
-16.525213 -13.865380 -0.132367 1117 0.279379 0.861271 0.289613
-16.527672 -13.867409 -0.125752 1101 0.244003 0.832084 0.384793
-16.529736 -13.869109 -0.119141 1047 0.214309 0.807618 0.479915
-16.534473 -13.873050 -0.112544 981 0.146139 0.750919 0.574836
-16.540848 -13.878360 -0.105939 901 0.054421 0.674515 0.669872
-16.548199 -13.876718 -0.198836 827 -0.051347 0.698144 -0.666776
-16.543598 -13.872834 -0.192162 951 0.014847 0.754020 -0.570747
-16.538441 -13.868478 -0.185481 1031 0.089055 0.816702 -0.474617
-16.535583 -13.866037 -0.178828 1067 0.130166 0.851816 -0.378891
-16.532829 -13.863695 -0.172173 1087 0.169795 0.885517 -0.283135
-16.531248 -13.862341 -0.165532 1107 0.192546 0.905003 -0.187581
-16.530340 -13.861553 -0.158898 1121 0.205609 0.916337 -0.092128
-16.529606 -13.860903 -0.152272 1117 0.216175 0.925695 0.003210
-16.530050 -13.861232 -0.145650 1099 0.209781 0.920961 0.098490
-16.531712 -13.862604 -0.139029 1089 0.185877 0.901215 0.193757
-16.533953 -13.864442 -0.132417 1071 0.153631 0.874773 0.288893
-16.535664 -13.865847 -0.125808 1039 0.129014 0.854561 0.383987
-16.538677 -13.868335 -0.119201 991 0.085652 0.818760 0.479052
-16.544388 -13.873098 -0.112597 909 0.003485 0.750219 0.574073
-16.550982 -13.870404 -0.192222 797 -0.091388 0.788984 -0.571610
-16.549356 -13.869021 -0.185572 931 -0.068006 0.808881 -0.475927
-16.544746 -13.865117 -0.178899 1001 -0.001674 0.865058 -0.379912
-16.542168 -13.862926 -0.172242 1037 0.035430 0.896591 -0.284128
-16.540312 -13.861338 -0.165603 1059 0.062133 0.919438 -0.188603
-16.538677 -13.859933 -0.158963 1063 0.085652 0.939651 -0.093063
-16.538834 -13.860029 -0.152331 1079 0.083402 0.938265 0.002361
-16.539495 -13.860551 -0.145709 1065 0.073879 0.930759 0.097642
-16.540319 -13.861212 -0.139094 1051 0.062023 0.921249 0.192821
-16.542160 -13.862725 -0.132474 1017 0.035540 0.899473 0.288073
-16.545176 -13.865213 -0.125867 981 -0.007849 0.863672 0.383138
-16.549709 -13.868976 -0.119260 901 -0.073083 0.809539 0.478203
-16.556137 -13.865890 -0.178996 847 -0.165569 0.853943 -0.381308
-16.553839 -13.863925 -0.172339 929 -0.132499 0.882210 -0.285524
-16.551302 -13.861774 -0.165685 973 -0.095999 0.913153 -0.189783
-16.549719 -13.860419 -0.159043 995 -0.073220 0.932652 -0.094215
-16.549549 -13.860235 -0.152415 997 -0.070778 0.935301 0.001152
-16.550543 -13.861043 -0.145789 991 -0.085076 0.923678 0.096490
-16.552046 -13.862264 -0.139171 963 -0.106702 0.906114 0.191713
-16.555618 -13.865225 -0.132560 925 -0.158104 0.863508 0.286836
-16.560154 -13.868988 -0.125964 841 -0.223366 0.809361 0.381742
-16.565918 -13.865362 -0.159173 785 -0.306301 0.861532 -0.096085
-16.565002 -13.864567 -0.152530 813 -0.293128 0.872976 -0.000502
-16.564102 -13.863773 -0.145884 791 -0.280174 0.884392 0.095123
