180
-28.931547 -28.226442 -0.660478 283 0.694443 0.719548 0.000000
-28.933317 -28.228174 -0.648101 303 0.694443 0.719548 0.000000
-28.935144 -28.229954 -0.635723 341 0.694443 0.719548 0.000000
-28.934071 -28.228909 -0.623283 301 0.694443 0.719548 0.000000
-28.930548 -28.225464 -0.610797 291 0.694443 0.719548 0.000000
-28.928635 -28.223602 -0.598345 307 0.694443 0.719548 0.000000
-28.932123 -28.226999 -0.586001 341 0.694443 0.719548 0.000000
-28.933764 -28.228596 -0.573615 371 0.694443 0.719548 0.000000
-28.929596 -28.224539 -0.561115 399 0.694443 0.719548 0.000000
-28.928619 -28.223577 -0.548684 359 0.694443 0.719548 0.000000
-28.931360 -28.226250 -0.536317 367 0.694443 0.719548 0.000000
-28.933413 -28.228258 -0.523947 359 0.694443 0.719548 0.000000
-28.930077 -28.224998 -0.511469 323 0.694443 0.719548 0.000000
-28.929598 -28.224535 -0.499043 371 0.694443 0.719548 0.000000
-28.931757 -28.226637 -0.486672 367 0.694443 0.719548 0.000000
-28.929508 -28.224440 -0.474213 375 0.694443 0.719548 0.000000
-28.930599 -28.225502 -0.461823 341 0.694443 0.719548 0.000000
-28.929338 -28.224276 -0.449385 353 0.694443 0.719548 0.000000
-28.928503 -28.223459 -0.436962 365 0.694443 0.719548 0.000000
-28.931067 -28.225954 -0.424587 385 0.694443 0.719548 0.000000
-28.929844 -28.224758 -0.412159 369 0.694443 0.719548 0.000000
-28.929935 -28.224846 -0.399748 341 0.694443 0.719548 0.000000
-28.932690 -28.227541 -0.387371 335 0.694442 0.719548 0.000000
-28.934235 -28.229042 -0.374976 367 0.694443 0.719548 0.000000
-28.930758 -28.225649 -0.362519 335 0.694443 0.719548 0.000000
-28.929167 -28.224087 -0.350084 293 0.694443 0.719548 0.000000
-28.929089 -28.224020 -0.337664 279 0.694443 0.719548 0.000000
-28.930462 -28.225361 -0.325271 309 0.694443 0.719548 0.000000
-28.933634 -28.228451 -0.312890 321 0.694443 0.719548 0.000000
-28.931339 -28.226202 -0.300452 307 0.694443 0.719548 0.000000
-28.939411 -28.216524 -0.660464 347 0.694443 0.719548 0.000000
-28.942898 -28.219934 -0.648130 355 0.694443 0.719548 0.000000
-28.942411 -28.219452 -0.635705 309 0.694443 0.719548 0.000000
-28.937622 -28.214775 -0.623180 361 0.694443 0.719548 0.000000
-28.933422 -28.210680 -0.610680 325 0.694442 0.719548 0.000000
-28.939568 -28.216679 -0.598391 347 0.694443 0.719548 0.000000
-28.942215 -28.219257 -0.586026 355 0.694443 0.719548 0.000000
-28.940252 -28.217342 -0.573574 363 0.694443 0.719548 0.000000
-28.943995 -28.220982 -0.561228 351 0.694443 0.719548 0.000000
-28.943739 -28.220736 -0.548810 333 0.694443 0.719548 0.000000
-28.941561 -28.218613 -0.536351 343 0.694443 0.719548 0.000000
-28.940580 -28.217659 -0.523920 319 0.694443 0.719548 0.000000
-28.938595 -28.215714 -0.511468 323 0.694443 0.719548 0.000000
-28.940229 -28.217304 -0.499083 337 0.694443 0.719548 0.000000
-28.940020 -28.217110 -0.486664 325 0.694443 0.719548 0.000000
-28.938089 -28.215221 -0.474222 323 0.694443 0.719548 0.000000
-28.938766 -28.215883 -0.461816 339 0.694443 0.719548 0.000000
-28.938828 -28.215931 -0.449405 337 0.694443 0.719548 0.000000
-28.936874 -28.214024 -0.436963 395 0.694443 0.719548 0.000000
-28.939852 -28.216936 -0.424594 343 0.694443 0.719548 0.000000
-28.942507 -28.219521 -0.412219 333 0.694443 0.719548 0.000000
-28.941177 -28.218222 -0.399781 365 0.694443 0.719548 0.000000
-28.940338 -28.217402 -0.387359 345 0.694443 0.719548 0.000000
-28.940777 -28.217834 -0.374954 329 0.694443 0.719548 0.000000
-28.944263 -28.221230 -0.362581 343 0.694443 0.719548 0.000000
-28.944456 -28.221416 -0.350169 359 0.694443 0.719548 0.000000
-28.942276 -28.219290 -0.337729 307 0.694443 0.719548 0.000000
-28.938206 -28.215317 -0.325268 287 0.694443 0.719548 0.000000
-28.936447 -28.213600 -0.312834 321 0.694443 0.719548 0.000000
-28.939703 -28.216772 -0.300453 327 0.694443 0.719548 0.000000
-28.952408 -28.210943 -0.660564 319 0.694443 0.719548 0.000000
-28.951033 -28.209602 -0.648117 323 0.694443 0.719548 0.000000
-28.950739 -28.209324 -0.635690 255 0.694443 0.719548 0.000000
-28.953880 -28.212374 -0.623339 327 0.694443 0.719548 0.000000
-28.951708 -28.210255 -0.610880 337 0.694443 0.719548 0.000000
-28.948689 -28.207317 -0.598398 319 0.694443 0.719548 0.000000
-28.947197 -28.205866 -0.585952 361 0.694443 0.719548 0.000000
-28.946331 -28.205009 -0.573520 301 0.694443 0.719548 0.000000
-28.947828 -28.206472 -0.561136 303 0.694443 0.719548 0.000000
-28.951765 -28.210314 -0.548798 351 0.694443 0.719548 0.000000
-28.953209 -28.211714 -0.536404 333 0.694443 0.719548 0.000000
-28.949745 -28.208332 -0.523927 355 0.694443 0.719548 0.000000
-28.948666 -28.207285 -0.511497 351 0.694443 0.719548 0.000000
-28.946371 -28.205050 -0.499038 299 0.694443 0.719548 0.000000
-28.947475 -28.206125 -0.486647 333 0.694443 0.719548 0.000000
-28.948624 -28.207237 -0.474256 335 0.694443 0.719548 0.000000
-28.948895 -28.207502 -0.461843 365 0.694443 0.719548 0.000000
-28.946899 -28.205549 -0.449392 313 0.694443 0.719548 0.000000
-28.941813 -28.200594 -0.436910 349 0.694443 0.719548 0.000000
-28.945522 -28.204205 -0.424555 323 0.694443 0.719548 0.000000
-28.946764 -28.205423 -0.412152 329 0.694443 0.719548 0.000000
-28.948572 -28.207186 -0.399765 345 0.694443 0.719548 0.000000
-28.951172 -28.209711 -0.387390 403 0.694443 0.719548 0.000000
-28.949789 -28.208366 -0.374953 359 0.694443 0.719548 0.000000
-28.951183 -28.209726 -0.362559 359 0.694443 0.719548 0.000000
-28.949268 -28.207853 -0.350127 355 0.694443 0.719548 0.000000
-28.950241 -28.208803 -0.337718 301 0.694443 0.719548 0.000000
-28.950994 -28.209532 -0.325320 317 0.694443 0.719548 0.000000
-28.949923 -28.208488 -0.312890 327 0.694442 0.719548 0.000000
-28.949821 -28.208384 -0.300471 305 0.694443 0.719548 0.000000
-28.963617 -28.204252 -0.660618 337 0.694443 0.719548 0.000000
-28.962072 -28.202757 -0.648173 329 0.694443 0.719548 0.000000
-28.959385 -28.200134 -0.635698 325 0.694443 0.719548 0.000000
-28.959684 -28.200424 -0.623285 337 0.694443 0.719548 0.000000
-28.959667 -28.200407 -0.610865 309 0.694443 0.719548 0.000000
-28.959009 -28.199768 -0.598441 267 0.694443 0.719548 0.000000
-28.958355 -28.199131 -0.586007 359 0.694443 0.719548 0.000000
-28.956917 -28.197725 -0.573560 347 0.694443 0.719548 0.000000
-28.957825 -28.198610 -0.561171 345 0.694443 0.719548 0.000000
-28.958529 -28.199291 -0.548764 347 0.694443 0.719548 0.000000
-28.960424 -28.201132 -0.536386 335 0.694443 0.719548 0.000000
-28.964359 -28.204973 -0.524038 359 0.694443 0.719548 0.000000
-28.960661 -28.201365 -0.511563 329 0.694443 0.719548 0.000000
-28.958530 -28.199282 -0.499103 315 0.694443 0.719548 0.000000
-28.958315 -28.199081 -0.486685 379 0.694443 0.719548 0.000000
-28.957897 -28.198671 -0.474269 357 0.694443 0.719548 0.000000
-28.959610 -28.200340 -0.461882 347 0.694443 0.719548 0.000000
-28.957739 -28.198503 -0.449439 339 0.694443 0.719548 0.000000
-28.954998 -28.195839 -0.436985 349 0.694443 0.719548 0.000000
-28.959457 -28.200176 -0.424633 383 0.694443 0.719548 0.000000
-28.961479 -28.202145 -0.412243 377 0.694443 0.719548 0.000000
-28.956802 -28.197592 -0.399767 323 0.694443 0.719548 0.000000
-28.956884 -28.197670 -0.387356 323 0.694443 0.719548 0.000000
-28.958275 -28.199028 -0.374963 355 0.694443 0.719548 0.000000
-28.958981 -28.199715 -0.362556 365 0.694443 0.719548 0.000000
-28.963789 -28.204386 -0.350200 381 0.694443 0.719548 0.000000
-28.966639 -28.207161 -0.337812 301 0.694443 0.719548 0.000000
-28.962685 -28.203312 -0.325360 315 0.694443 0.719548 0.000000
-28.958876 -28.199598 -0.312896 297 0.694443 0.719548 0.000000
-28.959785 -28.200483 -0.300497 323 0.694443 0.719548 0.000000
-28.964184 -28.187918 -0.660450 279 0.694443 0.719548 0.000000
-28.968428 -28.192045 -0.648129 307 0.694443 0.719548 0.000000
-28.966936 -28.190596 -0.635683 271 0.694443 0.719548 0.000000
-28.968235 -28.191862 -0.623291 267 0.694443 0.719548 0.000000
-28.971296 -28.194845 -0.610941 295 0.694443 0.719548 0.000000
-28.969976 -28.193554 -0.598493 327 0.694443 0.719548 0.000000
-28.966486 -28.190161 -0.586006 341 0.694443 0.719548 0.000000
-28.967913 -28.191549 -0.573622 353 0.694443 0.719548 0.000000
-28.965380 -28.189074 -0.561156 367 0.694443 0.719548 0.000000
-28.966236 -28.189911 -0.548758 313 0.694443 0.719548 0.000000
-28.967506 -28.191143 -0.536366 297 0.694443 0.719548 0.000000
-28.967937 -28.191555 -0.523961 273 0.694443 0.719548 0.000000
-28.968634 -28.192234 -0.511554 315 0.694443 0.719548 0.000000
-28.965073 -28.188768 -0.499078 359 0.694443 0.719548 0.000000
-28.965488 -28.189169 -0.486674 337 0.694443 0.719548 0.000000
-28.967272 -28.190912 -0.474286 341 0.694443 0.719548 0.000000
-28.966490 -28.190140 -0.461863 321 0.694443 0.719548 0.000000
-28.966595 -28.190241 -0.449452 361 0.694443 0.719548 0.000000
-28.968517 -28.192114 -0.437064 383 0.694443 0.719548 0.000000
-28.970823 -28.194351 -0.424681 375 0.694443 0.719548 0.000000
-28.966084 -28.189745 -0.412196 329 0.694443 0.719548 0.000000
-28.965658 -28.189329 -0.399780 337 0.694443 0.719548 0.000000
-28.965334 -28.189009 -0.387363 321 0.694443 0.719548 0.000000
-28.965733 -28.189398 -0.374959 349 0.694443 0.719548 0.000000
-28.970533 -28.194061 -0.362603 369 0.694443 0.719548 0.000000
-28.969397 -28.192965 -0.350173 297 0.694443 0.719548 0.000000
-28.965500 -28.189161 -0.337710 345 0.694443 0.719548 0.000000
-28.963890 -28.187599 -0.325285 361 0.694443 0.719548 0.000000
-28.965895 -28.189543 -0.312886 315 0.694442 0.719548 0.000000
-28.969109 -28.192678 -0.300515 391 0.694443 0.719548 0.000000
-28.974955 -28.180830 -0.660498 327 0.694443 0.719548 0.000000
-28.979523 -28.185272 -0.648184 367 0.694443 0.719548 0.000000
-28.980757 -28.186472 -0.635802 317 0.694443 0.719548 0.000000
-28.977386 -28.183191 -0.623304 317 0.694443 0.719548 0.000000
-28.974852 -28.180729 -0.610838 345 0.694443 0.719548 0.000000
-28.975452 -28.181313 -0.598432 355 0.694442 0.719548 0.000000
-28.976154 -28.181993 -0.586035 365 0.694443 0.719548 0.000000
-28.971836 -28.177784 -0.573536 371 0.694443 0.719548 0.000000
-28.971582 -28.177540 -0.561118 327 0.694443 0.719548 0.000000
-28.972761 -28.178692 -0.548726 377 0.694443 0.719548 0.000000
-28.969147 -28.175167 -0.536240 339 0.694443 0.719548 0.000000
-28.971117 -28.177080 -0.523861 347 0.694443 0.719548 0.000000
-28.975576 -28.181419 -0.511529 359 0.694443 0.719548 0.000000
-28.975473 -28.181314 -0.499119 325 0.694443 0.719548 0.000000
-28.971653 -28.177603 -0.486636 357 0.694443 0.719548 0.000000
-28.969551 -28.175558 -0.474185 349 0.694442 0.719548 0.000000
-28.971594 -28.177547 -0.461805 341 0.694443 0.719548 0.000000
-28.976110 -28.181932 -0.449462 351 0.694443 0.719548 0.000000
-28.979141 -28.184875 -0.437103 381 0.694443 0.719548 0.000000
-28.977720 -28.183496 -0.424666 351 0.694443 0.719548 0.000000
-28.973465 -28.179352 -0.412187 341 0.694443 0.719548 0.000000
-28.974083 -28.179953 -0.399780 333 0.694442 0.719548 0.000000
-28.975271 -28.181110 -0.387389 351 0.694443 0.719548 0.000000
-28.979237 -28.184963 -0.375021 337 0.694443 0.719548 0.000000
-28.977114 -28.182899 -0.362581 329 0.694443 0.719548 0.000000
-28.974619 -28.180468 -0.350134 323 0.694443 0.719548 0.000000
-28.978987 -28.184715 -0.337772 375 0.694443 0.719548 0.000000
-28.979898 -28.185600 -0.325373 367 0.694443 0.719548 0.000000
-28.977402 -28.183168 -0.312927 401 0.694443 0.719548 0.000000
-28.975843 -28.181662 -0.300491 383 0.694443 0.719548 0.000000
