180
-28.768253 -28.380363 -0.660220 1163 0.694443 0.719548 0.000000
-28.767139 -28.379274 -0.647780 1165 0.694443 0.719548 0.000000
-28.766451 -28.378595 -0.635356 1165 0.694443 0.719548 0.000000
-28.767231 -28.379356 -0.622959 1179 0.694443 0.719548 0.000000
-28.767826 -28.379950 -0.610553 1175 0.694443 0.719548 0.000000
-28.767019 -28.379145 -0.598130 1153 0.694443 0.719548 0.000000
-28.766832 -28.378969 -0.585712 1171 0.694443 0.719548 0.000000
-28.767017 -28.379148 -0.573300 1167 0.694443 0.719548 0.000000
-28.766783 -28.378908 -0.560882 1167 0.694443 0.719548 0.000000
-28.767054 -28.379187 -0.548479 1159 0.694443 0.719548 0.000000
-28.766651 -28.378788 -0.536062 1165 0.694443 0.719548 0.000000
-28.767183 -28.379301 -0.523657 1163 0.694443 0.719548 0.000000
-28.768293 -28.380396 -0.511266 1167 0.694443 0.719548 0.000000
-28.768085 -28.380190 -0.498848 1179 0.694443 0.719548 0.000000
-28.767303 -28.379417 -0.486425 1155 0.694443 0.719548 0.000000
-28.767092 -28.379210 -0.474007 1167 0.694443 0.719548 0.000000
-28.768600 -28.380707 -0.461622 1159 0.694443 0.719548 0.000000
-28.767973 -28.380077 -0.449208 1173 0.694443 0.719548 0.000000
-28.766769 -28.378899 -0.436769 1169 0.694443 0.719548 0.000000
-28.765930 -28.378067 -0.424347 1157 0.694443 0.719548 0.000000
-28.765976 -28.378103 -0.411936 1163 0.694443 0.719548 0.000000
-28.766371 -28.378498 -0.399532 1177 0.694443 0.719548 0.000000
-28.764898 -28.377039 -0.387106 1167 0.694443 0.719548 0.000000
-28.765612 -28.377743 -0.374709 1147 0.694443 0.719548 0.000000
-28.766529 -28.378649 -0.362309 1155 0.694443 0.719548 0.000000
-28.766962 -28.379076 -0.349905 1171 0.694443 0.719548 0.000000
-28.766100 -28.378225 -0.337483 1153 0.694443 0.719548 0.000000
-28.765707 -28.377836 -0.325067 1169 0.694442 0.719548 0.000000
-28.766825 -28.378935 -0.312665 1147 0.694443 0.719548 0.000000
-28.767042 -28.379158 -0.300263 1145 0.694443 0.719548 0.000000
-28.775194 -28.369167 -0.660176 1159 0.694443 0.719548 0.000000
-28.776377 -28.370335 -0.647795 1167 0.694443 0.719548 0.000000
-28.776783 -28.370743 -0.635390 1177 0.694443 0.719548 0.000000
-28.777231 -28.371183 -0.622986 1175 0.694442 0.719548 0.000000
-28.775393 -28.369358 -0.610533 1167 0.694442 0.719548 0.000000
-28.775311 -28.369289 -0.598114 1173 0.694443 0.719548 0.000000
-28.776423 -28.370382 -0.585733 1165 0.694443 0.719548 0.000000
-28.775156 -28.369137 -0.573295 1171 0.694443 0.719548 0.000000
-28.774641 -28.368620 -0.560869 1151 0.694443 0.719548 0.000000
-28.775494 -28.369469 -0.548471 1169 0.694443 0.719548 0.000000
-28.776196 -28.370150 -0.536074 1181 0.694443 0.719548 0.000000
-28.777132 -28.371082 -0.523685 1181 0.694443 0.719548 0.000000
-28.777822 -28.371758 -0.511278 1191 0.694443 0.719548 0.000000
-28.776215 -28.370169 -0.498843 1151 0.694443 0.719548 0.000000
-28.775179 -28.369144 -0.486412 1153 0.694443 0.719548 0.000000
-28.775808 -28.369766 -0.474016 1169 0.694443 0.719548 0.000000
-28.774921 -28.368893 -0.461584 1151 0.694443 0.719548 0.000000
-28.774752 -28.368731 -0.449176 1137 0.694443 0.719548 0.000000
-28.776058 -28.370018 -0.436783 1169 0.694443 0.719548 0.000000
-28.776411 -28.370365 -0.424379 1177 0.694443 0.719548 0.000000
-28.775297 -28.369263 -0.411950 1173 0.694443 0.719548 0.000000
-28.776230 -28.370178 -0.399550 1165 0.694443 0.719548 0.000000
-28.777248 -28.371183 -0.387160 1185 0.694443 0.719548 0.000000
-28.775990 -28.369944 -0.374732 1179 0.694443 0.719548 0.000000
-28.776012 -28.369972 -0.362322 1161 0.694443 0.719548 0.000000
-28.775665 -28.369619 -0.349905 1151 0.694443 0.719548 0.000000
-28.776054 -28.370003 -0.337501 1147 0.694443 0.719548 0.000000
-28.777067 -28.370998 -0.325101 1165 0.694443 0.719548 0.000000
-28.775265 -28.369217 -0.312668 1151 0.694443 0.719548 0.000000
-28.775480 -28.369438 -0.300265 1151 0.694443 0.719548 0.000000
-28.784060 -28.360912 -0.660189 1149 0.694443 0.719548 0.000000
-28.784628 -28.361467 -0.647793 1171 0.694443 0.719548 0.000000
-28.784916 -28.361761 -0.635390 1153 0.694443 0.719548 0.000000
-28.784000 -28.360851 -0.622949 1169 0.694443 0.719548 0.000000
-28.784657 -28.361494 -0.610552 1171 0.694442 0.719548 0.000000
-28.784487 -28.361334 -0.598143 1165 0.694443 0.719548 0.000000
-28.784346 -28.361197 -0.585724 1159 0.694443 0.719548 0.000000
-28.784794 -28.361639 -0.573320 1145 0.694443 0.719548 0.000000
-28.784134 -28.360985 -0.560896 1165 0.694443 0.719548 0.000000
-28.785294 -28.362122 -0.548505 1157 0.694443 0.719548 0.000000
-28.785839 -28.362658 -0.536109 1161 0.694443 0.719548 0.000000
-28.785957 -28.362780 -0.523698 1165 0.694443 0.719548 0.000000
-28.785639 -28.362469 -0.511280 1173 0.694443 0.719548 0.000000
-28.783829 -28.360683 -0.498837 1163 0.694443 0.719548 0.000000
-28.783209 -28.360062 -0.486413 1157 0.694443 0.719548 0.000000
-28.783316 -28.360174 -0.474002 1147 0.694443 0.719548 0.000000
-28.784243 -28.361088 -0.461603 1171 0.694443 0.719548 0.000000
-28.785393 -28.362215 -0.449211 1163 0.694443 0.719548 0.000000
-28.784504 -28.361341 -0.436790 1145 0.694442 0.719548 0.000000
-28.785437 -28.362257 -0.424390 1143 0.694443 0.719548 0.000000
-28.786819 -28.363623 -0.411997 1145 0.694443 0.719548 0.000000
-28.785345 -28.362173 -0.399571 1169 0.694442 0.719548 0.000000
-28.783447 -28.360304 -0.387128 1149 0.694443 0.719548 0.000000
-28.783850 -28.360691 -0.374724 1173 0.694443 0.719548 0.000000
-28.784721 -28.361557 -0.362326 1145 0.694443 0.719548 0.000000
-28.784597 -28.361420 -0.349917 1139 0.694443 0.719548 0.000000
-28.784718 -28.361547 -0.337505 1163 0.694443 0.719548 0.000000
-28.783838 -28.360680 -0.325083 1145 0.694443 0.719548 0.000000
-28.783976 -28.360819 -0.312682 1149 0.694443 0.719548 0.000000
-28.784182 -28.361017 -0.300269 1157 0.694443 0.719548 0.000000
-28.793003 -28.353167 -0.660209 1141 0.694443 0.719548 0.000000
-28.793098 -28.353258 -0.647797 1155 0.694443 0.719548 0.000000
-28.793711 -28.353865 -0.635401 1159 0.694443 0.719548 0.000000
-28.793901 -28.354048 -0.622999 1147 0.694443 0.719548 0.000000
-28.792938 -28.353096 -0.610558 1161 0.694443 0.719548 0.000000
-28.793236 -28.353386 -0.598155 1157 0.694443 0.719548 0.000000
-28.794247 -28.354383 -0.585765 1169 0.694443 0.719548 0.000000
-28.793179 -28.353329 -0.573325 1147 0.694443 0.719548 0.000000
-28.792677 -28.352835 -0.560910 1145 0.694443 0.719548 0.000000
-28.792328 -28.352497 -0.548493 1153 0.694442 0.719548 0.000000
-28.791616 -28.351797 -0.536059 1157 0.694443 0.719548 0.000000
-28.792521 -28.352678 -0.523670 1171 0.694443 0.719548 0.000000
-28.793770 -28.353916 -0.511278 1171 0.694443 0.719548 0.000000
-28.793358 -28.353514 -0.498861 1155 0.694443 0.719548 0.000000
-28.793144 -28.353300 -0.486443 1155 0.694443 0.719548 0.000000
-28.794245 -28.354374 -0.474052 1159 0.694443 0.719548 0.000000
-28.793354 -28.353498 -0.461631 1155 0.694443 0.719548 0.000000
-28.793825 -28.353958 -0.449226 1151 0.694443 0.719548 0.000000
-28.794283 -28.354422 -0.436821 1173 0.694443 0.719548 0.000000
-28.793339 -28.353487 -0.424390 1163 0.694443 0.719548 0.000000
-28.793547 -28.353685 -0.411988 1161 0.694443 0.719548 0.000000
-28.792782 -28.352942 -0.399565 1147 0.694443 0.719548 0.000000
-28.791628 -28.351807 -0.387135 1169 0.694443 0.719548 0.000000
-28.792234 -28.352394 -0.374729 1155 0.694443 0.719548 0.000000
-28.793303 -28.353453 -0.362339 1165 0.694443 0.719548 0.000000
-28.793386 -28.353533 -0.349928 1155 0.694443 0.719548 0.000000
-28.793661 -28.353802 -0.337525 1155 0.694443 0.719548 0.000000
-28.793314 -28.353464 -0.325108 1137 0.694443 0.719548 0.000000
-28.792711 -28.352871 -0.312693 1147 0.694443 0.719548 0.000000
-28.792833 -28.352985 -0.300282 1141 0.694443 0.719548 0.000000
-28.800007 -28.345325 -0.660208 1143 0.694443 0.719548 0.000000
-28.800192 -28.345518 -0.647805 1149 0.694443 0.719548 0.000000
-28.799660 -28.344999 -0.635380 1139 0.694443 0.719548 0.000000
-28.798868 -28.344219 -0.622947 1139 0.694443 0.719548 0.000000
-28.798567 -28.343935 -0.610530 1155 0.694443 0.719548 0.000000
-28.800484 -28.345829 -0.598161 1147 0.694443 0.719548 0.000000
-28.803736 -28.349039 -0.585810 1157 0.694443 0.719548 0.000000
-28.801983 -28.347313 -0.573366 1161 0.694443 0.719548 0.000000
-28.799547 -28.344921 -0.560899 1139 0.694443 0.719548 0.000000
-28.799864 -28.345251 -0.548496 1143 0.694443 0.719548 0.000000
-28.800652 -28.346031 -0.536098 1163 0.694443 0.719548 0.000000
-28.801805 -28.347176 -0.523707 1151 0.694443 0.719548 0.000000
-28.801556 -28.346935 -0.511289 1149 0.694443 0.719548 0.000000
-28.800306 -28.345716 -0.498860 1143 0.694443 0.719548 0.000000
-28.801456 -28.346842 -0.486469 1157 0.694443 0.719548 0.000000
-28.802235 -28.347618 -0.474071 1155 0.694443 0.719548 0.000000
-28.800974 -28.346390 -0.461633 1161 0.694443 0.719548 0.000000
-28.801300 -28.346712 -0.449230 1155 0.694443 0.719548 0.000000
-28.801178 -28.346605 -0.436820 1171 0.694442 0.719548 0.000000
-28.801157 -28.346584 -0.424410 1159 0.694443 0.719548 0.000000
-28.801189 -28.346636 -0.411990 1157 0.694443 0.719548 0.000000
-28.800859 -28.346312 -0.399583 1173 0.694443 0.719548 0.000000
-28.802149 -28.347584 -0.387190 1173 0.694443 0.719548 0.000000
-28.801914 -28.347355 -0.374772 1181 0.694443 0.719548 0.000000
-28.800117 -28.345608 -0.362339 1155 0.694443 0.719548 0.000000
-28.800764 -28.346243 -0.349932 1129 0.694443 0.719548 0.000000
-28.800985 -28.346470 -0.337530 1123 0.694443 0.719548 0.000000
-28.800169 -28.345680 -0.325107 1137 0.694443 0.719548 0.000000
-28.800245 -28.345755 -0.312696 1145 0.694443 0.719548 0.000000
-28.800150 -28.345673 -0.300287 1143 0.694443 0.719548 0.000000
-28.812307 -28.337423 -0.660273 1133 0.694443 0.719548 0.000000
-28.812038 -28.337164 -0.647855 1137 0.694443 0.719548 0.000000
-28.811287 -28.336420 -0.635422 1153 0.694443 0.719548 0.000000
-28.810745 -28.335892 -0.622997 1127 0.694443 0.719548 0.000000
-28.810102 -28.335253 -0.610573 1149 0.694443 0.719548 0.000000
-28.810076 -28.335228 -0.598153 1145 0.694443 0.719548 0.000000
-28.810518 -28.335663 -0.585758 1129 0.694443 0.719548 0.000000
-28.810385 -28.335533 -0.573339 1137 0.694443 0.719548 0.000000
-28.810760 -28.335899 -0.560935 1125 0.694443 0.719548 0.000000
-28.811363 -28.336487 -0.548529 1155 0.694443 0.719548 0.000000
-28.811842 -28.336966 -0.536134 1143 0.694443 0.719548 0.000000
-28.812328 -28.337440 -0.523730 1149 0.694443 0.719548 0.000000
-28.811190 -28.336315 -0.511290 1131 0.694443 0.719548 0.000000
-28.810726 -28.335867 -0.498874 1139 0.694443 0.719548 0.000000
-28.811058 -28.336182 -0.486471 1163 0.694443 0.719548 0.000000
-28.811874 -28.336990 -0.474073 1167 0.694443 0.719548 0.000000
-28.810421 -28.335558 -0.461636 1143 0.694442 0.719548 0.000000
-28.808643 -28.333813 -0.449193 1133 0.694443 0.719548 0.000000
-28.809362 -28.334524 -0.436796 1157 0.694443 0.719548 0.000000
-28.809723 -28.334877 -0.424392 1155 0.694443 0.719548 0.000000
-28.810650 -28.335777 -0.411993 1137 0.694443 0.719548 0.000000
-28.811676 -28.336784 -0.399593 1145 0.694443 0.719548 0.000000
-28.811821 -28.336933 -0.387191 1145 0.694443 0.719548 0.000000
-28.810591 -28.335716 -0.374763 1141 0.694443 0.719548 0.000000
-28.809364 -28.334517 -0.362334 1119 0.694443 0.719548 0.000000
-28.809292 -28.334440 -0.349925 1121 0.694443 0.719548 0.000000
-28.810085 -28.335226 -0.337527 1143 0.694443 0.719548 0.000000
-28.811153 -28.336269 -0.325126 1131 0.694443 0.719548 0.000000
-28.812319 -28.337425 -0.312725 1151 0.694443 0.719548 0.000000
-28.812557 -28.337646 -0.300322 1125 0.694443 0.719548 0.000000
