95
-29.161768 -28.013086 -0.672052 617 -0.252766 0.967527 0.000000
-29.163610 -28.014851 -0.659664 619 -0.252766 0.967527 0.000000
-29.164234 -28.015455 -0.647258 613 -0.252766 0.967527 0.000000
-29.162260 -28.013563 -0.634796 575 -0.252766 0.967527 0.000000
-29.162086 -28.013391 -0.622367 587 -0.252766 0.967527 0.000000
-29.162321 -28.013622 -0.609955 597 -0.252766 0.967527 0.000000
-29.164030 -28.015268 -0.597568 573 -0.252766 0.967527 0.000000
-29.162321 -28.013620 -0.585114 567 -0.252766 0.967527 0.000000
-29.160126 -28.011515 -0.572645 583 -0.252766 0.967527 0.000000
-29.161938 -28.013258 -0.560267 599 -0.252766 0.967527 0.000000
-29.165489 -28.016659 -0.547913 589 -0.252766 0.967527 0.000000
-29.163338 -28.014606 -0.535443 597 -0.252766 0.967527 0.000000
-29.157980 -28.009449 -0.522934 601 -0.252766 0.967527 0.000000
-29.160192 -28.011585 -0.510553 603 -0.252766 0.967527 0.000000
-29.159096 -28.010523 -0.498113 613 -0.252766 0.967527 0.000000
-29.155516 -28.007093 -0.485637 597 -0.252766 0.967527 0.000000
-29.157515 -28.009016 -0.473247 597 -0.252766 0.967527 0.000000
-29.159832 -28.011240 -0.460865 597 -0.252766 0.967527 0.000000
-29.161573 -28.012913 -0.448478 579 -0.252766 0.967527 0.000000
-29.161411 -28.012753 -0.436059 605 -0.252766 0.967527 0.000000
-29.160707 -28.012077 -0.423626 611 -0.252766 0.967527 0.000000
-29.157175 -28.008686 -0.411159 593 -0.252766 0.967527 0.000000
-29.158463 -28.009930 -0.398756 583 -0.252766 0.967527 0.000000
-29.161352 -28.012707 -0.386379 593 -0.252766 0.967527 0.000000
-29.160122 -28.011518 -0.373940 561 -0.252766 0.967527 0.000000
-29.162294 -28.013609 -0.361549 571 -0.252766 0.967527 0.000000
-29.160479 -28.011858 -0.349116 555 -0.252766 0.967527 0.000000
-29.155388 -28.006975 -0.336634 563 -0.252766 0.967527 0.000000
-29.157097 -28.008619 -0.324238 539 -0.252766 0.967527 0.000000
-29.160324 -28.011726 -0.311857 545 -0.252766 0.967527 0.000000
-29.158930 -28.010378 -0.299420 553 -0.252766 0.967527 0.000000
-29.159988 -28.011393 -0.287019 541 -0.252766 0.967527 0.000000
-29.191328 -28.024340 -0.672537 619 -0.252766 0.967527 0.000000
-29.189793 -28.022861 -0.660072 607 -0.252766 0.967527 0.000000
-29.186493 -28.019701 -0.647573 595 -0.252766 0.967527 0.000000
-29.185797 -28.019033 -0.635129 583 -0.252766 0.967527 0.000000
-29.189262 -28.022350 -0.622776 567 -0.252766 0.967527 0.000000
-29.187494 -28.020655 -0.610302 573 -0.252766 0.967527 0.000000
-29.184565 -28.017853 -0.597820 567 -0.252766 0.967527 0.000000
-29.186226 -28.019445 -0.585424 561 -0.252766 0.967527 0.000000
-29.187935 -28.021090 -0.573027 579 -0.252766 0.967527 0.000000
-29.188532 -28.021660 -0.560611 589 -0.252766 0.967527 0.000000
-29.188766 -28.021891 -0.548189 597 -0.252766 0.967527 0.000000
-29.187733 -28.020889 -0.535748 585 -0.252766 0.967527 0.000000
-29.185049 -28.018320 -0.523263 595 -0.252766 0.967527 0.000000
-29.187328 -28.020500 -0.510882 629 -0.252766 0.967527 0.000000
-29.187397 -28.020567 -0.498461 607 -0.252766 0.967527 0.000000
-29.186855 -28.020052 -0.486015 613 -0.252766 0.967527 0.000000
-29.186548 -28.019760 -0.473588 573 -0.252766 0.967527 0.000000
-29.182116 -28.015507 -0.461090 563 -0.252766 0.967527 0.000000
-29.181049 -28.014481 -0.448650 561 -0.252766 0.967527 0.000000
-29.184525 -28.017820 -0.436276 563 -0.252766 0.967527 0.000000
-29.187515 -28.020693 -0.423898 557 -0.252766 0.967527 0.000000
-29.185396 -28.018652 -0.411438 567 -0.252766 0.967527 0.000000
-29.182634 -28.016005 -0.398974 539 -0.252766 0.967527 0.000000
-29.184093 -28.017416 -0.386569 545 -0.252766 0.967527 0.000000
-29.184818 -28.018103 -0.374152 549 -0.252766 0.967527 0.000000
-29.186586 -28.019808 -0.361755 571 -0.252766 0.967527 0.000000
-29.185972 -28.019209 -0.349321 557 -0.252766 0.967527 0.000000
-29.185781 -28.019035 -0.336892 511 -0.252766 0.967527 0.000000
-29.187664 -28.020838 -0.324484 535 -0.252766 0.967527 0.000000
-29.185036 -28.018312 -0.312039 537 -0.252766 0.967527 0.000000
-29.182407 -28.015800 -0.299583 525 -0.252766 0.967527 0.000000
-29.182045 -28.015448 -0.287156 539 -0.252766 0.967527 0.000000
-29.214190 -28.028799 -0.672869 579 -0.252766 0.967527 0.000000
-29.215067 -28.029638 -0.648010 545 -0.252766 0.967527 0.000000
-29.214840 -28.029421 -0.635572 531 -0.252766 0.967527 0.000000
-29.212822 -28.027491 -0.623091 535 -0.252766 0.967527 0.000000
-29.210638 -28.025400 -0.610611 549 -0.252766 0.967527 0.000000
-29.213097 -28.027754 -0.598227 551 -0.252766 0.967527 0.000000
-29.212324 -28.027008 -0.585774 543 -0.252766 0.967527 0.000000
-29.210234 -28.025005 -0.573304 571 -0.252766 0.967527 0.000000
-29.209152 -28.023968 -0.560844 555 -0.252766 0.967527 0.000000
-29.210276 -28.025049 -0.548433 569 -0.252766 0.967527 0.000000
-29.211878 -28.026590 -0.536027 565 -0.252766 0.967527 0.000000
-29.211882 -28.026594 -0.523597 555 -0.252766 0.967527 0.000000
-29.212889 -28.027569 -0.511177 559 -0.252766 0.967527 0.000000
-29.212847 -28.027517 -0.498747 563 -0.252766 0.967527 0.000000
-29.213219 -28.027874 -0.486324 569 -0.252766 0.967527 0.000000
-29.212215 -28.026913 -0.473873 567 -0.252766 0.967527 0.000000
-29.211941 -28.026659 -0.461435 563 -0.252766 0.967527 0.000000
-29.209509 -28.024321 -0.448958 553 -0.252766 0.967527 0.000000
-29.208881 -28.023722 -0.436513 559 -0.252766 0.967527 0.000000
-29.209604 -28.024408 -0.424096 539 -0.252766 0.967527 0.000000
-29.209700 -28.024511 -0.411665 537 -0.252766 0.967527 0.000000
-29.211367 -28.026108 -0.399259 555 -0.252766 0.967527 0.000000
-29.209036 -28.023867 -0.386791 565 -0.252766 0.967527 0.000000
-29.208637 -28.023497 -0.374354 545 -0.252766 0.967527 0.000000
-29.208931 -28.023777 -0.361931 537 -0.252766 0.967527 0.000000
-29.207106 -28.022018 -0.349478 527 -0.252766 0.967527 0.000000
-29.209286 -28.024117 -0.337067 497 -0.252766 0.967527 0.000000
-29.210154 -28.024948 -0.324649 471 -0.252766 0.967527 0.000000
-29.208490 -28.023352 -0.312194 489 -0.252766 0.967527 0.000000
-29.208715 -28.023575 -0.299772 497 -0.252766 0.967527 0.000000
-29.209988 -28.024794 -0.287349 481 -0.252766 0.967527 0.000000
