103
-28.828201 -28.233532 -0.671278 935 -0.094930 0.995484 0.000000
-28.828556 -28.233881 -0.658894 941 -0.094930 0.995484 0.000000
-28.828281 -28.233608 -0.646486 941 -0.094930 0.995484 0.000000
-28.826651 -28.232014 -0.634062 933 -0.094930 0.995484 0.000000
-28.827517 -28.232857 -0.621683 939 -0.094930 0.995484 0.000000
-28.827080 -28.232437 -0.609277 951 -0.094930 0.995484 0.000000
-28.825542 -28.230934 -0.596851 947 -0.094930 0.995484 0.000000
-28.826441 -28.231817 -0.584482 923 -0.094930 0.995484 0.000000
-28.827469 -28.232822 -0.572102 943 -0.094930 0.995484 0.000000
-28.827688 -28.233046 -0.559720 941 -0.094930 0.995484 0.000000
-28.828033 -28.233374 -0.547326 931 -0.094930 0.995484 0.000000
-28.827364 -28.232718 -0.534922 927 -0.094930 0.995484 0.000000
-28.823559 -28.228994 -0.522458 935 -0.094930 0.995484 0.000000
-28.825132 -28.230539 -0.510093 935 -0.094930 0.995484 0.000000
-28.826595 -28.231976 -0.497729 949 -0.094930 0.995484 0.000000
-28.824764 -28.230186 -0.485306 935 -0.094930 0.995484 0.000000
-28.826391 -28.231773 -0.472940 941 -0.094930 0.995484 0.000000
-28.827530 -28.232897 -0.460569 939 -0.094930 0.995484 0.000000
-28.826536 -28.231916 -0.448158 945 -0.094930 0.995484 0.000000
-28.825695 -28.231091 -0.435756 953 -0.094930 0.995484 0.000000
-28.826515 -28.231909 -0.423378 945 -0.094930 0.995484 0.000000
-28.825459 -28.230862 -0.410968 941 -0.094930 0.995484 0.000000
-28.825232 -28.230644 -0.398569 953 -0.094930 0.995484 0.000000
-28.825275 -28.230692 -0.386179 927 -0.094930 0.995484 0.000000
-28.824669 -28.230103 -0.373784 951 -0.094930 0.995484 0.000000
-28.826157 -28.231560 -0.361410 943 -0.094930 0.995484 0.000000
-28.825773 -28.231184 -0.349013 937 -0.094930 0.995484 0.000000
-28.827627 -28.233000 -0.336645 921 -0.094930 0.995484 0.000000
-28.827013 -28.232403 -0.324241 923 -0.094930 0.995484 0.000000
-28.825094 -28.230516 -0.311829 919 -0.094930 0.995484 0.000000
-28.825272 -28.230701 -0.299447 925 -0.094930 0.995484 0.000000
-28.849195 -28.236141 -0.671558 927 -0.094930 0.995484 0.000000
-28.848976 -28.235929 -0.659160 941 -0.094930 0.995484 0.000000
-28.850742 -28.237646 -0.646792 931 -0.094930 0.995484 0.000000
-28.849630 -28.236567 -0.634373 935 -0.094930 0.995484 0.000000
-28.847101 -28.234085 -0.621917 939 -0.094930 0.995484 0.000000
-28.846718 -28.233709 -0.609510 931 -0.094930 0.995484 0.000000
-28.844854 -28.231895 -0.597078 943 -0.094930 0.995484 0.000000
-28.846823 -28.233822 -0.584718 945 -0.094930 0.995484 0.000000
-28.849606 -28.236547 -0.572371 939 -0.094930 0.995484 0.000000
-28.848633 -28.235600 -0.559951 937 -0.094930 0.995484 0.000000
-28.847702 -28.234684 -0.547539 953 -0.094930 0.995484 0.000000
-28.847250 -28.234249 -0.535133 963 -0.094930 0.995484 0.000000
-28.848202 -28.235180 -0.522754 949 -0.094930 0.995484 0.000000
-28.849665 -28.236618 -0.510379 969 -0.094930 0.995484 0.000000
-28.848949 -28.235909 -0.497966 943 -0.094930 0.995484 0.000000
-28.848173 -28.235149 -0.485553 943 -0.094930 0.995484 0.000000
-28.847223 -28.234234 -0.473142 943 -0.094930 0.995484 0.000000
-28.846546 -28.233557 -0.460738 937 -0.094930 0.995484 0.000000
-28.846375 -28.233398 -0.448329 943 -0.094930 0.995484 0.000000
-28.844959 -28.232012 -0.435913 931 -0.094930 0.995484 0.000000
-28.846207 -28.233240 -0.423540 929 -0.094930 0.995484 0.000000
-28.847921 -28.234913 -0.411164 925 -0.094930 0.995484 0.000000
-28.846390 -28.233416 -0.398748 911 -0.094930 0.995484 0.000000
-28.845320 -28.232370 -0.386338 931 -0.094930 0.995484 0.000000
-28.846968 -28.233990 -0.373962 945 -0.094930 0.995484 0.000000
-28.849192 -28.236170 -0.361590 949 -0.094930 0.995484 0.000000
-28.848183 -28.235176 -0.349180 943 -0.094930 0.995484 0.000000
-28.846163 -28.233202 -0.336759 937 -0.094930 0.995484 0.000000
-28.843670 -28.230766 -0.324332 935 -0.094930 0.995484 0.000000
-28.844669 -28.231749 -0.311952 921 -0.094930 0.995484 0.000000
-28.845047 -28.232119 -0.299559 927 -0.094930 0.995484 0.000000
-28.867718 -28.237000 -0.671798 937 -0.094930 0.995484 0.000000
-28.868221 -28.237497 -0.659403 929 -0.094930 0.995484 0.000000
-28.868940 -28.238205 -0.647016 937 -0.094930 0.995484 0.000000
-28.868666 -28.237932 -0.634608 911 -0.094930 0.995484 0.000000
-28.867493 -28.236790 -0.622179 923 -0.094930 0.995484 0.000000
-28.866730 -28.236042 -0.609756 943 -0.094930 0.995484 0.000000
-28.866861 -28.236176 -0.597355 941 -0.094930 0.995484 0.000000
-28.866789 -28.236101 -0.584955 917 -0.094930 0.995484 0.000000
-28.866125 -28.235451 -0.572531 919 -0.094930 0.995484 0.000000
-28.865149 -28.234497 -0.560110 933 -0.094930 0.995484 0.000000
-28.866528 -28.235849 -0.547737 961 -0.094930 0.995484 0.000000
-28.866446 -28.235765 -0.535337 945 -0.094930 0.995484 0.000000
-28.865925 -28.235260 -0.522922 953 -0.094930 0.995484 0.000000
-28.867880 -28.237175 -0.510553 937 -0.094930 0.995484 0.000000
-28.867821 -28.237125 -0.498153 943 -0.094930 0.995484 0.000000
-28.866896 -28.236214 -0.485732 935 -0.094930 0.995484 0.000000
-28.865847 -28.235186 -0.473311 927 -0.094930 0.995484 0.000000
-28.865940 -28.235291 -0.460910 953 -0.094930 0.995484 0.000000
-28.866302 -28.235647 -0.448516 941 -0.094930 0.995484 0.000000
-28.866190 -28.235537 -0.436107 939 -0.094930 0.995484 0.000000
-28.867537 -28.236851 -0.423724 927 -0.094930 0.995484 0.000000
-28.867266 -28.236580 -0.411326 901 -0.094930 0.995484 0.000000
-28.865107 -28.234478 -0.398887 927 -0.094930 0.995484 0.000000
-28.864561 -28.233938 -0.386481 939 -0.094930 0.995484 0.000000
-28.864273 -28.233669 -0.374074 937 -0.094930 0.995484 0.000000
-28.862936 -28.232361 -0.361656 931 -0.094930 0.995484 0.000000
-28.864285 -28.233675 -0.349273 921 -0.094930 0.995484 0.000000
-28.866556 -28.235893 -0.336901 931 -0.094930 0.995484 0.000000
-28.864948 -28.234331 -0.324486 941 -0.094930 0.995484 0.000000
-28.864960 -28.234341 -0.312086 915 -0.094930 0.995484 0.000000
-28.866821 -28.236164 -0.299698 897 -0.094930 0.995484 0.000000
-28.885630 -28.237259 -0.547942 927 -0.094930 0.995484 0.000000
-28.884518 -28.236185 -0.485891 911 -0.094930 0.995484 0.000000
-28.885216 -28.236866 -0.423863 917 -0.094930 0.995484 0.000000
-28.883310 -28.235016 -0.411430 925 -0.094930 0.995484 0.000000
-28.885077 -28.236732 -0.399053 919 -0.094930 0.995484 0.000000
-28.884932 -28.236595 -0.374234 913 -0.094930 0.995484 0.000000
-28.884491 -28.236172 -0.361828 907 -0.094930 0.995484 0.000000
-28.884092 -28.235783 -0.349421 909 -0.094930 0.995484 0.000000
-28.884439 -28.236126 -0.337018 923 -0.094930 0.995484 0.000000
-28.884623 -28.236303 -0.324616 917 -0.094930 0.995484 0.000000
