635
-14.587276 -14.092213 -0.649236 1059 0.295722 0.955274 0.000000
-14.587261 -14.092194 -0.643006 1073 0.295722 0.955274 0.000000
-14.587350 -14.092285 -0.636775 1067 0.295722 0.955274 0.000000
-14.587118 -14.092060 -0.630527 1075 0.295722 0.955274 0.000000
-14.587316 -14.092251 -0.611835 1057 0.295722 0.955274 0.000000
-14.593937 -14.090035 -0.674297 1063 0.295722 0.955274 0.000000
-14.593712 -14.089816 -0.668049 1061 0.295722 0.955274 0.000000
-14.593652 -14.089759 -0.661810 1059 0.295722 0.955274 0.000000
-14.593225 -14.089348 -0.655553 1047 0.295722 0.955274 0.000000
-14.593369 -14.089483 -0.649322 1049 0.295722 0.955274 0.000000
-14.594037 -14.090131 -0.643115 1059 0.295722 0.955274 0.000000
-14.593281 -14.089395 -0.636842 1055 0.295722 0.955274 0.000000
-14.592318 -14.088466 -0.630571 1067 0.295722 0.955274 0.000000
-14.591931 -14.088100 -0.624315 1059 0.295722 0.955274 0.000000
-14.592067 -14.088230 -0.618084 1039 0.295722 0.955274 0.000000
-14.593205 -14.089328 -0.611903 1045 0.295722 0.955274 0.000000
-14.593383 -14.089505 -0.605671 1047 0.295722 0.955274 0.000000
-14.592884 -14.089022 -0.599415 1047 0.295722 0.955274 0.000000
-14.593341 -14.089455 -0.593201 1049 0.295722 0.955274 0.000000
-14.592937 -14.089075 -0.586955 1045 0.295722 0.955274 0.000000
-14.592391 -14.088539 -0.580690 1047 0.295722 0.955274 0.000000
-14.592999 -14.089122 -0.574484 1057 0.295722 0.955274 0.000000
-14.593275 -14.089394 -0.568261 1055 0.295722 0.955274 0.000000
-14.592611 -14.088750 -0.561997 1059 0.295722 0.955274 0.000000
-14.592051 -14.088215 -0.555742 1057 0.295722 0.955274 0.000000
-14.592172 -14.088332 -0.549521 1069 0.295722 0.955274 0.000000
-14.592981 -14.089108 -0.543313 1055 0.295722 0.955274 0.000000
-14.593510 -14.089626 -0.537098 1065 0.295722 0.955274 0.000000
-14.592525 -14.088678 -0.530827 1053 0.295722 0.955274 0.000000
-14.592175 -14.088329 -0.524580 1049 0.295722 0.955274 0.000000
-14.592233 -14.088395 -0.518350 1053 0.295722 0.955274 0.000000
-14.593288 -14.089411 -0.512159 1063 0.295722 0.955274 0.000000
-14.593564 -14.089669 -0.505937 1055 0.295722 0.955274 0.000000
-14.592783 -14.088915 -0.499674 1059 0.295722 0.955274 0.000000
-14.592895 -14.089025 -0.493443 1059 0.295722 0.955274 0.000000
-14.592946 -14.089086 -0.487212 1067 0.295722 0.955274 0.000000
-14.592362 -14.088519 -0.480958 1067 0.295722 0.955274 0.000000
-14.592467 -14.088623 -0.474726 1075 0.295722 0.955274 0.000000
-14.591732 -14.087907 -0.468473 1085 0.295722 0.955274 0.000000
-14.591155 -14.087346 -0.462229 1081 0.295722 0.955274 0.000000
-14.591887 -14.088058 -0.456011 1075 0.295722 0.955274 0.000000
-14.591780 -14.087948 -0.449782 1059 0.295722 0.955274 0.000000
-14.591926 -14.088099 -0.443551 1065 0.295722 0.955274 0.000000
-14.591819 -14.087991 -0.437322 1059 0.295722 0.955274 0.000000
-14.591962 -14.088126 -0.431090 1061 0.295722 0.955274 0.000000
-14.592742 -14.088877 -0.424883 1069 0.295722 0.955274 0.000000
-14.592832 -14.088968 -0.418652 1065 0.295722 0.955274 0.000000
-14.591558 -14.087744 -0.412384 1069 0.295722 0.955274 0.000000
-14.591702 -14.087880 -0.406152 1059 0.295722 0.955274 0.000000
-14.593626 -14.089741 -0.399974 1057 0.295722 0.955274 0.000000
-14.593251 -14.089373 -0.393737 1071 0.295722 0.955274 0.000000
-14.592855 -14.089001 -0.387491 1069 0.295722 0.955274 0.000000
-14.593045 -14.089175 -0.381269 1077 0.295722 0.955274 0.000000
-14.591653 -14.087839 -0.375002 1057 0.295722 0.955274 0.000000
-14.590794 -14.087008 -0.368750 1039 0.295722 0.955274 0.000000
-14.591032 -14.087234 -0.362527 1059 0.295722 0.955274 0.000000
-14.590895 -14.087101 -0.356289 1053 0.295722 0.955274 0.000000
-14.590670 -14.086882 -0.350051 1051 0.295722 0.955274 0.000000
-14.590846 -14.087057 -0.343829 1065 0.295722 0.955274 0.000000
-14.590708 -14.086924 -0.337590 1075 0.295722 0.955274 0.000000
-14.590154 -14.086382 -0.331355 1045 0.295722 0.955274 0.000000
-14.590430 -14.086654 -0.325132 1049 0.295722 0.955274 0.000000
-14.590772 -14.086978 -0.318909 1049 0.295722 0.955274 0.000000
-14.591159 -14.087354 -0.312685 1039 0.295722 0.955274 0.000000
-14.591749 -14.087923 -0.306469 1049 0.295722 0.955274 0.000000
-14.591926 -14.088099 -0.300237 1041 0.295722 0.955274 0.000000
-14.591772 -14.087952 -0.294009 1041 0.295722 0.955274 0.000000
-14.590789 -14.087004 -0.287758 1039 0.295722 0.955274 0.000000
-14.601847 -14.088891 -0.674456 1063 0.295722 0.955274 0.000000
-14.602266 -14.089293 -0.668242 1067 0.295722 0.955274 0.000000
-14.601836 -14.088867 -0.661976 1059 0.295722 0.955274 0.000000
-14.601088 -14.088153 -0.655713 1059 0.295722 0.955274 0.000000
-14.600543 -14.087630 -0.649448 1063 0.295722 0.955274 0.000000
-14.601000 -14.088063 -0.643234 1065 0.295722 0.955274 0.000000
-14.601199 -14.088259 -0.637002 1073 0.295722 0.955274 0.000000
-14.601124 -14.088188 -0.630762 1075 0.295722 0.955274 0.000000
-14.600843 -14.087912 -0.624515 1061 0.295722 0.955274 0.000000
-14.599711 -14.086828 -0.618225 1041 0.295722 0.955274 0.000000
-14.599847 -14.086958 -0.611994 1063 0.295722 0.955274 0.000000
-14.601048 -14.088109 -0.605813 1075 0.295722 0.955274 0.000000
-14.600536 -14.087626 -0.599557 1059 0.295722 0.955274 0.000000
-14.599778 -14.086890 -0.593284 1053 0.295722 0.955274 0.000000
-14.600283 -14.087376 -0.587069 1063 0.295722 0.955274 0.000000
-14.600035 -14.087138 -0.580832 1069 0.295722 0.955274 0.000000
-14.599952 -14.087062 -0.574592 1071 0.295722 0.955274 0.000000
-14.600400 -14.087489 -0.568368 1069 0.295722 0.955274 0.000000
-14.600202 -14.087304 -0.562129 1061 0.295722 0.955274 0.000000
-14.599858 -14.086962 -0.555883 1057 0.295722 0.955274 0.000000
-14.600191 -14.087293 -0.549659 1065 0.295722 0.955274 0.000000
-14.600577 -14.087654 -0.543436 1073 0.295722 0.955274 0.000000
-14.600479 -14.087565 -0.537196 1079 0.295722 0.955274 0.000000
-14.599807 -14.086913 -0.530933 1061 0.295722 0.955274 0.000000
-14.599082 -14.086218 -0.524679 1049 0.295722 0.955274 0.000000
-14.599406 -14.086529 -0.518456 1057 0.295722 0.955274 0.000000
-14.599417 -14.086543 -0.512216 1057 0.295722 0.955274 0.000000
-14.599475 -14.086596 -0.505985 1057 0.295722 0.955274 0.000000
-14.599276 -14.086411 -0.499747 1077 0.295722 0.955274 0.000000
-14.599386 -14.086507 -0.493516 1083 0.295722 0.955274 0.000000
-14.599178 -14.086314 -0.487277 1067 0.295722 0.955274 0.000000
-14.599072 -14.086205 -0.481038 1057 0.295722 0.955274 0.000000
-14.600124 -14.087221 -0.474838 1057 0.295722 0.955274 0.000000
-14.599275 -14.086409 -0.468576 1067 0.295722 0.955274 0.000000
-14.598439 -14.085597 -0.462314 1065 0.295722 0.955274 0.000000
-14.598488 -14.085642 -0.456083 1063 0.295722 0.955274 0.000000
-14.598853 -14.085999 -0.449870 1081 0.295722 0.955274 0.000000
-14.599207 -14.086334 -0.443646 1063 0.295722 0.955274 0.000000
-14.598835 -14.085981 -0.437400 1041 0.295722 0.955274 0.000000
-14.599253 -14.086383 -0.431175 1053 0.295722 0.955274 0.000000
-14.599234 -14.086372 -0.424945 1067 0.295722 0.955274 0.000000
-14.598749 -14.085900 -0.418700 1051 0.295722 0.955274 0.000000
-14.598157 -14.085326 -0.412445 1041 0.295722 0.955274 0.000000
-14.597463 -14.084657 -0.406202 1041 0.295722 0.955274 0.000000
-14.597701 -14.084884 -0.399969 1061 0.295722 0.955274 0.000000
-14.598895 -14.086040 -0.393768 1065 0.295722 0.955274 0.000000
-14.599189 -14.086326 -0.387545 1057 0.295722 0.955274 0.000000
-14.598754 -14.085908 -0.381309 1063 0.295722 0.955274 0.000000
-14.598255 -14.085424 -0.375064 1055 0.295722 0.955274 0.000000
-14.598178 -14.085355 -0.368824 1051 0.295722 0.955274 0.000000
-14.597899 -14.085078 -0.362587 1057 0.295722 0.955274 0.000000
-14.597598 -14.084796 -0.356349 1051 0.295722 0.955274 0.000000
-14.598901 -14.086042 -0.350147 1055 0.295722 0.955274 0.000000
-14.599186 -14.086321 -0.343924 1059 0.295722 0.955274 0.000000
-14.598571 -14.085728 -0.337680 1061 0.295722 0.955274 0.000000
-14.598331 -14.085497 -0.331442 1047 0.295722 0.955274 0.000000
-14.598507 -14.085672 -0.325210 1049 0.295722 0.955274 0.000000
-14.598470 -14.085634 -0.318980 1039 0.295722 0.955274 0.000000
-14.598066 -14.085242 -0.312744 1031 0.295722 0.955274 0.000000
-14.597606 -14.084804 -0.306498 1057 0.295722 0.955274 0.000000
-14.598258 -14.085423 -0.300282 1053 0.295722 0.955274 0.000000
-14.598482 -14.085639 -0.294060 1033 0.295722 0.955274 0.000000
-14.597858 -14.085039 -0.287815 1047 0.295722 0.955274 0.000000
-14.608637 -14.086814 -0.674576 1063 0.295722 0.955274 0.000000
-14.608311 -14.086498 -0.668319 1047 0.295722 0.955274 0.000000
-14.607405 -14.085627 -0.662037 1049 0.295722 0.955274 0.000000
-14.607392 -14.085608 -0.655797 1043 0.295722 0.955274 0.000000
-14.607065 -14.085294 -0.649550 1045 0.295722 0.955274 0.000000
-14.606622 -14.084869 -0.643294 1051 0.295722 0.955274 0.000000
-14.605865 -14.084147 -0.637021 1051 0.295722 0.955274 0.000000
-14.606221 -14.084484 -0.630798 1051 0.295722 0.955274 0.000000
-14.607360 -14.085583 -0.624607 1049 0.295722 0.955274 0.000000
-14.607763 -14.085972 -0.618393 1057 0.295722 0.955274 0.000000
-14.607265 -14.085487 -0.612127 1051 0.295722 0.955274 0.000000
-14.606132 -14.084405 -0.605848 1037 0.295722 0.955274 0.000000
-14.606688 -14.084933 -0.599632 1059 0.295722 0.955274 0.000000
-14.607141 -14.085375 -0.593418 1061 0.295722 0.955274 0.000000
-14.605905 -14.084182 -0.587130 1057 0.295722 0.955274 0.000000
-14.606034 -14.084305 -0.580898 1063 0.295722 0.955274 0.000000
-14.607157 -14.085391 -0.574707 1069 0.295722 0.955274 0.000000
-14.606542 -14.084798 -0.568443 1069 0.295722 0.955274 0.000000
-14.605665 -14.083953 -0.562171 1067 0.295722 0.955274 0.000000
-14.605944 -14.084226 -0.555948 1055 0.295722 0.955274 0.000000
-14.605915 -14.084194 -0.549709 1057 0.295722 0.955274 0.000000
-14.605933 -14.084214 -0.543478 1055 0.295722 0.955274 0.000000
-14.606784 -14.085036 -0.537270 1055 0.295722 0.955274 0.000000
-14.606482 -14.084740 -0.531023 1061 0.295722 0.955274 0.000000
-14.606501 -14.084762 -0.524792 1079 0.295722 0.955274 0.000000
-14.607138 -14.085368 -0.518576 1075 0.295722 0.955274 0.000000
-14.607093 -14.085323 -0.512337 1067 0.295722 0.955274 0.000000
-14.606408 -14.084674 -0.506083 1057 0.295722 0.955274 0.000000
-14.605947 -14.084222 -0.499827 1057 0.295722 0.955274 0.000000
-14.606749 -14.084991 -0.493619 1069 0.295722 0.955274 0.000000
-14.606008 -14.084282 -0.487366 1061 0.295722 0.955274 0.000000
-14.604961 -14.083270 -0.481096 1047 0.295722 0.955274 0.000000
-14.606062 -14.084336 -0.474895 1051 0.295722 0.955274 0.000000
-14.606698 -14.084943 -0.468679 1065 0.295722 0.955274 0.000000
-14.607063 -14.085300 -0.462456 1065 0.295722 0.955274 0.000000
-14.607105 -14.085340 -0.456225 1065 0.295722 0.955274 0.000000
-14.606207 -14.084476 -0.449963 1061 0.295722 0.955274 0.000000
-14.605520 -14.083812 -0.443710 1049 0.295722 0.955274 0.000000
-14.605509 -14.083808 -0.437470 1043 0.295722 0.955274 0.000000
-14.605652 -14.083943 -0.431238 1051 0.295722 0.955274 0.000000
-14.604958 -14.083273 -0.424985 1051 0.295722 0.955274 0.000000
-14.604583 -14.082906 -0.418748 1039 0.295722 0.955274 0.000000
-14.604463 -14.082799 -0.412509 1047 0.295722 0.955274 0.000000
-14.604448 -14.082780 -0.406279 1041 0.295722 0.955274 0.000000
-14.604592 -14.082916 -0.400048 1057 0.295722 0.955274 0.000000
-14.604832 -14.083156 -0.393815 1055 0.295722 0.955274 0.000000
-14.604811 -14.083131 -0.387585 1057 0.295722 0.955274 0.000000
-14.604633 -14.082964 -0.381347 1067 0.295722 0.955274 0.000000
-14.605138 -14.083449 -0.375132 1067 0.295722 0.955274 0.000000
-14.605494 -14.083785 -0.368908 1053 0.295722 0.955274 0.000000
-14.604723 -14.083053 -0.362656 1061 0.295722 0.955274 0.000000
-14.604491 -14.082828 -0.356418 1053 0.295722 0.955274 0.000000
-14.605457 -14.083757 -0.350208 1065 0.295722 0.955274 0.000000
-14.605484 -14.083784 -0.343978 1065 0.295722 0.955274 0.000000
-14.605039 -14.083346 -0.337732 1051 0.295722 0.955274 0.000000
-14.605207 -14.083516 -0.331500 1049 0.295722 0.955274 0.000000
-14.605343 -14.083645 -0.325269 1045 0.295722 0.955274 0.000000
-14.604987 -14.083305 -0.319032 1035 0.295722 0.955274 0.000000
-14.604800 -14.083117 -0.312794 1033 0.295722 0.955274 0.000000
-14.604868 -14.083191 -0.306563 1043 0.295722 0.955274 0.000000
-14.604353 -14.082694 -0.300328 1045 0.295722 0.955274 0.000000
-14.603838 -14.082199 -0.294082 1039 0.295722 0.955274 0.000000
-14.603370 -14.081740 -0.287837 1051 0.295722 0.955274 0.000000
-14.613333 -14.082571 -0.674596 1047 0.295722 0.955274 0.000000
-14.614111 -14.083321 -0.668388 1049 0.295722 0.955274 0.000000
-14.614790 -14.083974 -0.662181 1055 0.295722 0.955274 0.000000
-14.615249 -14.084422 -0.655957 1047 0.295722 0.955274 0.000000
-14.614914 -14.084101 -0.649710 1051 0.295722 0.955274 0.000000
-14.614588 -14.083785 -0.643453 1073 0.295722 0.955274 0.000000
-14.614048 -14.083254 -0.637188 1063 0.295722 0.955274 0.000000
-14.614193 -14.083391 -0.630956 1055 0.295722 0.955274 0.000000
-14.613851 -14.083063 -0.624699 1055 0.295722 0.955274 0.000000
-14.613713 -14.082942 -0.618461 1057 0.295722 0.955274 0.000000
-14.613120 -14.082369 -0.612196 1047 0.295722 0.955274 0.000000
-14.612623 -14.081885 -0.605941 1049 0.295722 0.955274 0.000000
-14.614552 -14.083738 -0.599782 1057 0.295722 0.955274 0.000000
-14.615253 -14.084425 -0.593565 1061 0.295722 0.955274 0.000000
-14.613809 -14.083032 -0.587269 1059 0.295722 0.955274 0.000000
-14.613739 -14.082954 -0.581030 1061 0.295722 0.955274 0.000000
-14.613601 -14.082820 -0.574791 1067 0.295722 0.955274 0.000000
-14.612719 -14.081983 -0.568519 1061 0.295722 0.955274 0.000000
-14.612580 -14.081848 -0.562270 1047 0.295722 0.955274 0.000000
-14.613132 -14.082372 -0.556055 1057 0.295722 0.955274 0.000000
-14.612775 -14.082031 -0.549808 1055 0.295722 0.955274 0.000000
-14.612001 -14.081283 -0.543545 1049 0.295722 0.955274 0.000000
-14.612436 -14.081711 -0.537321 1061 0.295722 0.955274 0.000000
-14.612878 -14.082131 -0.531107 1081 0.295722 0.955274 0.000000
-14.612882 -14.082139 -0.524866 1077 0.295722 0.955274 0.000000
-14.612250 -14.081533 -0.518602 1051 0.295722 0.955274 0.000000
-14.612745 -14.081998 -0.512387 1053 0.295722 0.955274 0.000000
-14.614018 -14.083233 -0.506195 1081 0.295722 0.955274 0.000000
-14.613498 -14.082731 -0.499940 1061 0.295722 0.955274 0.000000
-14.613445 -14.082680 -0.493700 1057 0.295722 0.955274 0.000000
-14.614028 -14.083241 -0.487485 1069 0.295722 0.955274 0.000000
-14.614030 -14.083236 -0.481254 1045 0.295722 0.955274 0.000000
-14.614136 -14.083342 -0.475013 1049 0.295722 0.955274 0.000000
-14.613661 -14.082891 -0.468768 1057 0.295722 0.955274 0.000000
-14.612864 -14.082123 -0.462505 1063 0.295722 0.955274 0.000000
-14.612547 -14.081815 -0.456258 1057 0.295722 0.955274 0.000000
-14.613013 -14.082269 -0.450043 1071 0.295722 0.955274 0.000000
-14.612850 -14.082100 -0.443795 1069 0.295722 0.955274 0.000000
-14.612320 -14.081592 -0.437550 1053 0.295722 0.955274 0.000000
-14.612198 -14.081484 -0.431311 1043 0.295722 0.955274 0.000000
-14.611974 -14.081265 -0.425073 1057 0.295722 0.955274 0.000000
-14.612916 -14.082162 -0.418864 1041 0.295722 0.955274 0.000000
-14.613750 -14.082971 -0.412646 1059 0.295722 0.955274 0.000000
-14.613635 -14.082855 -0.406406 1055 0.295722 0.955274 0.000000
-14.613239 -14.082481 -0.400170 1071 0.295722 0.955274 0.000000
-14.612271 -14.081548 -0.393909 1053 0.295722 0.955274 0.000000
-14.612149 -14.081426 -0.387670 1043 0.295722 0.955274 0.000000
-14.612599 -14.081866 -0.381446 1063 0.295722 0.955274 0.000000
-14.611999 -14.081286 -0.375191 1061 0.295722 0.955274 0.000000
-14.611506 -14.080810 -0.368946 1065 0.295722 0.955274 0.000000
-14.611752 -14.081042 -0.362723 1063 0.295722 0.955274 0.000000
-14.612556 -14.081826 -0.356505 1051 0.295722 0.955274 0.000000
-14.613060 -14.082310 -0.350281 1051 0.295722 0.955274 0.000000
-14.611982 -14.081271 -0.344031 1055 0.295722 0.955274 0.000000
-14.611375 -14.080686 -0.337776 1047 0.295722 0.955274 0.000000
-14.612232 -14.081513 -0.331568 1055 0.295722 0.955274 0.000000
-14.612045 -14.081326 -0.325330 1043 0.295722 0.955274 0.000000
-14.612213 -14.081496 -0.319098 1051 0.295722 0.955274 0.000000
-14.612232 -14.081517 -0.312868 1043 0.295722 0.955274 0.000000
-14.612415 -14.081685 -0.306636 1057 0.295722 0.955274 0.000000
-14.612010 -14.081292 -0.300389 1031 0.295722 0.955274 0.000000
-14.611129 -14.080441 -0.294138 1025 0.295722 0.955274 0.000000
-14.611343 -14.080649 -0.287915 1039 0.295722 0.955274 0.000000
-14.621859 -14.081831 -0.674780 1041 0.295722 0.955274 0.000000
-14.621322 -14.081316 -0.668515 1039 0.295722 0.955274 0.000000
-14.621425 -14.081407 -0.662284 1049 0.295722 0.955274 0.000000
-14.621563 -14.081551 -0.656042 1055 0.295722 0.955274 0.000000
-14.622238 -14.082190 -0.649836 1053 0.295722 0.955274 0.000000
-14.622170 -14.082127 -0.643596 1051 0.295722 0.955274 0.000000
-14.620835 -14.080851 -0.637289 1051 0.295722 0.955274 0.000000
-14.621393 -14.081379 -0.631073 1057 0.295722 0.955274 0.000000
-14.621694 -14.081671 -0.624850 1051 0.295722 0.955274 0.000000
-14.622049 -14.082007 -0.618627 1045 0.295722 0.955274 0.000000
-14.622281 -14.082242 -0.612395 1043 0.295722 0.955274 0.000000
-14.621414 -14.081404 -0.606123 1041 0.295722 0.955274 0.000000
-14.620595 -14.080618 -0.599850 1039 0.295722 0.955274 0.000000
-14.620525 -14.080540 -0.593601 1045 0.295722 0.955274 0.000000
-14.619815 -14.079856 -0.587337 1065 0.295722 0.955274 0.000000
-14.619412 -14.079478 -0.581081 1057 0.295722 0.955274 0.000000
-14.620387 -14.080415 -0.574882 1065 0.295722 0.955274 0.000000
-14.620774 -14.080791 -0.568658 1063 0.295722 0.955274 0.000000
-14.621168 -14.081159 -0.562434 1065 0.295722 0.955274 0.000000
-14.620968 -14.080973 -0.556186 1055 0.295722 0.955274 0.000000
-14.621246 -14.081246 -0.549963 1071 0.295722 0.955274 0.000000
-14.620684 -14.080697 -0.543698 1061 0.295722 0.955274 0.000000
-14.619918 -14.079955 -0.537435 1067 0.295722 0.955274 0.000000
-14.620925 -14.080932 -0.531236 1063 0.295722 0.955274 0.000000
-14.620928 -14.080939 -0.524995 1073 0.295722 0.955274 0.000000
-14.620312 -14.080346 -0.518741 1071 0.295722 0.955274 0.000000
-14.620378 -14.080406 -0.512500 1055 0.295722 0.955274 0.000000
-14.620437 -14.080460 -0.506270 1059 0.295722 0.955274 0.000000
-14.620280 -14.080310 -0.500021 1069 0.295722 0.955274 0.000000
-14.620552 -14.080577 -0.493798 1067 0.295722 0.955274 0.000000
-14.620500 -14.080526 -0.487559 1055 0.295722 0.955274 0.000000
-14.620399 -14.080422 -0.481319 1049 0.295722 0.955274 0.000000
-14.620396 -14.080424 -0.475079 1041 0.295722 0.955274 0.000000
-14.620345 -14.080375 -0.468840 1049 0.295722 0.955274 0.000000
-14.621082 -14.081078 -0.462622 1049 0.295722 0.955274 0.000000
-14.620234 -14.080267 -0.456360 1049 0.295722 0.955274 0.000000
-14.619962 -14.080010 -0.450123 1065 0.295722 0.955274 0.000000
-14.620701 -14.080715 -0.443906 1067 0.295722 0.955274 0.000000
-14.620687 -14.080709 -0.437666 1071 0.295722 0.955274 0.000000
-14.619626 -14.079684 -0.431395 1051 0.295722 0.955274 0.000000
-14.618923 -14.079007 -0.425142 1047 0.295722 0.955274 0.000000
-14.619334 -14.079402 -0.418918 1047 0.295722 0.955274 0.000000
-14.620270 -14.080306 -0.412709 1053 0.295722 0.955274 0.000000
-14.619835 -14.079888 -0.406463 1049 0.295722 0.955274 0.000000
-14.619084 -14.079161 -0.400210 1069 0.295722 0.955274 0.000000
-14.619534 -14.079600 -0.393985 1049 0.295722 0.955274 0.000000
-14.619781 -14.079834 -0.387753 1053 0.295722 0.955274 0.000000
-14.619391 -14.079453 -0.381507 1061 0.295722 0.955274 0.000000
-14.619426 -14.079486 -0.375276 1053 0.295722 0.955274 0.000000
-14.618874 -14.078959 -0.369021 1067 0.295722 0.955274 0.000000
-14.618429 -14.078534 -0.362775 1055 0.295722 0.955274 0.000000
-14.619246 -14.079315 -0.356567 1055 0.295722 0.955274 0.000000
-14.618905 -14.078988 -0.350320 1051 0.295722 0.955274 0.000000
-14.618822 -14.078912 -0.344081 1045 0.295722 0.955274 0.000000
-14.619687 -14.079745 -0.337873 1063 0.295722 0.955274 0.000000
-14.619502 -14.079558 -0.331634 1051 0.295722 0.955274 0.000000
-14.618934 -14.079019 -0.325380 1051 0.295722 0.955274 0.000000
-14.619116 -14.079186 -0.319158 1039 0.295722 0.955274 0.000000
-14.619292 -14.079362 -0.312926 1037 0.295722 0.955274 0.000000
-14.619146 -14.079221 -0.306687 1049 0.295722 0.955274 0.000000
-14.619055 -14.079138 -0.300448 1045 0.295722 0.955274 0.000000
-14.617797 -14.077927 -0.294190 1035 0.295722 0.955274 0.000000
-14.617869 -14.077991 -0.287959 1041 0.295722 0.955274 0.000000
-14.628188 -14.079477 -0.674883 1051 0.295722 0.955274 0.000000
-14.628340 -14.079620 -0.668651 1045 0.295722 0.955274 0.000000
-14.628383 -14.079660 -0.662411 1049 0.295722 0.955274 0.000000
-14.628739 -14.080009 -0.656177 1033 0.295722 0.955274 0.000000
-14.628774 -14.080043 -0.649937 1041 0.295722 0.955274 0.000000
-14.628918 -14.080180 -0.643705 1039 0.295722 0.955274 0.000000
-14.628636 -14.079902 -0.637448 1041 0.295722 0.955274 0.000000
-14.627989 -14.079284 -0.631184 1043 0.295722 0.955274 0.000000
-14.628236 -14.079518 -0.624951 1051 0.295722 0.955274 0.000000
-14.628270 -14.079551 -0.618711 1035 0.295722 0.955274 0.000000
-14.627089 -14.078415 -0.612422 1033 0.295722 0.955274 0.000000
-14.626848 -14.078184 -0.606174 1037 0.295722 0.955274 0.000000
-14.627723 -14.079024 -0.599966 1031 0.295722 0.955274 0.000000
-14.628643 -14.079917 -0.593767 1045 0.295722 0.955274 0.000000
-14.628301 -14.079588 -0.587510 1053 0.295722 0.955274 0.000000
-14.627904 -14.079203 -0.581253 1057 0.295722 0.955274 0.000000
-14.628402 -14.079681 -0.575038 1051 0.295722 0.955274 0.000000
-14.627525 -14.078835 -0.568757 1051 0.295722 0.955274 0.000000
-14.626541 -14.077888 -0.562486 1045 0.295722 0.955274 0.000000
-14.627564 -14.078877 -0.556286 1047 0.295722 0.955274 0.000000
-14.628420 -14.079704 -0.550078 1065 0.295722 0.955274 0.000000
-14.627498 -14.078808 -0.543796 1069 0.295722 0.955274 0.000000
-14.626554 -14.077907 -0.537525 1053 0.295722 0.955274 0.000000
-14.626777 -14.078120 -0.531293 1041 0.295722 0.955274 0.000000
-14.627579 -14.078889 -0.525085 1055 0.295722 0.955274 0.000000
-14.627064 -14.078392 -0.518830 1051 0.295722 0.955274 0.000000
-14.626918 -14.078251 -0.512581 1055 0.295722 0.955274 0.000000
-14.626813 -14.078156 -0.506342 1051 0.295722 0.955274 0.000000
-14.626563 -14.077905 -0.500094 1053 0.295722 0.955274 0.000000
-14.627092 -14.078424 -0.493879 1051 0.295722 0.955274 0.000000
-14.626837 -14.078178 -0.487631 1043 0.295722 0.955274 0.000000
-14.627412 -14.078722 -0.481406 1063 0.295722 0.955274 0.000000
-14.628104 -14.079388 -0.475199 1065 0.295722 0.955274 0.000000
-14.627677 -14.078990 -0.468943 1059 0.295722 0.955274 0.000000
-14.627829 -14.079132 -0.462711 1061 0.295722 0.955274 0.000000
-14.627728 -14.079028 -0.456472 1053 0.295722 0.955274 0.000000
-14.627505 -14.078824 -0.450224 1029 0.295722 0.955274 0.000000
-14.627342 -14.078656 -0.443985 1061 0.295722 0.955274 0.000000
-14.626964 -14.078297 -0.437729 1059 0.295722 0.955274 0.000000
-14.627005 -14.078336 -0.431498 1051 0.295722 0.955274 0.000000
-14.627103 -14.078435 -0.425257 1047 0.295722 0.955274 0.000000
-14.626878 -14.078217 -0.419019 1055 0.295722 0.955274 0.000000
-14.626919 -14.078256 -0.412779 1039 0.295722 0.955274 0.000000
-14.626429 -14.077779 -0.406533 1045 0.295722 0.955274 0.000000
-14.626204 -14.077559 -0.400285 1039 0.295722 0.955274 0.000000
-14.626445 -14.077801 -0.394063 1041 0.295722 0.955274 0.000000
-14.626220 -14.077582 -0.387815 1031 0.295722 0.955274 0.000000
-14.626041 -14.077415 -0.381576 1035 0.295722 0.955274 0.000000
-14.625646 -14.077030 -0.375330 1039 0.295722 0.955274 0.000000
-14.626101 -14.077462 -0.369105 1035 0.295722 0.955274 0.000000
-14.626544 -14.077897 -0.362881 1053 0.295722 0.955274 0.000000
-14.626266 -14.077621 -0.356634 1057 0.295722 0.955274 0.000000
-14.626770 -14.078105 -0.350409 1053 0.295722 0.955274 0.000000
-14.626420 -14.077770 -0.344162 1045 0.295722 0.955274 0.000000
-14.626078 -14.077441 -0.337925 1051 0.295722 0.955274 0.000000
-14.626089 -14.077456 -0.331685 1057 0.295722 0.955274 0.000000
-14.626060 -14.077425 -0.325455 1053 0.295722 0.955274 0.000000
-14.626126 -14.077497 -0.319214 1041 0.295722 0.955274 0.000000
-14.626725 -14.078073 -0.312998 1041 0.295722 0.955274 0.000000
-14.626478 -14.077835 -0.306750 1049 0.295722 0.955274 0.000000
-14.625597 -14.076985 -0.300499 1035 0.295722 0.955274 0.000000
-14.625874 -14.077257 -0.294266 1037 0.295722 0.955274 0.000000
-14.626198 -14.077567 -0.288043 1043 0.295722 0.955274 0.000000
-14.635442 -14.077858 -0.675018 1037 0.295722 0.955274 0.000000
-14.634480 -14.076929 -0.668737 1047 0.295722 0.955274 0.000000
-14.634358 -14.076821 -0.662488 1035 0.295722 0.955274 0.000000
-14.635089 -14.077518 -0.656280 1041 0.295722 0.955274 0.000000
-14.635500 -14.077913 -0.650056 1039 0.295722 0.955274 0.000000
-14.635111 -14.077534 -0.643790 1039 0.295722 0.955274 0.000000
-14.634832 -14.077271 -0.637542 1047 0.295722 0.955274 0.000000
-14.634819 -14.077250 -0.631293 1051 0.295722 0.955274 0.000000
-14.634853 -14.077284 -0.625052 1047 0.295722 0.955274 0.000000
-14.634724 -14.077169 -0.618803 1033 0.295722 0.955274 0.000000
-14.634273 -14.076739 -0.612547 1033 0.295722 0.955274 0.000000
-14.634410 -14.076870 -0.606306 1025 0.295722 0.955274 0.000000
-14.634499 -14.076948 -0.600075 1041 0.295722 0.955274 0.000000
-14.634313 -14.076774 -0.593826 1043 0.295722 0.955274 0.000000
-14.634551 -14.077001 -0.587594 1043 0.295722 0.955274 0.000000
-14.634091 -14.076563 -0.581328 1035 0.295722 0.955274 0.000000
-14.634432 -14.076887 -0.575105 1035 0.295722 0.955274 0.000000
-14.634928 -14.077365 -0.568880 1035 0.295722 0.955274 0.000000
-14.634948 -14.077386 -0.562640 1041 0.295722 0.955274 0.000000
-14.634393 -14.076844 -0.556385 1047 0.295722 0.955274 0.000000
-14.634036 -14.076504 -0.550128 1047 0.295722 0.955274 0.000000
-14.634893 -14.077331 -0.543920 1059 0.295722 0.955274 0.000000
-14.634112 -14.076576 -0.537647 1045 0.295722 0.955274 0.000000
-14.633762 -14.076241 -0.531400 1053 0.295722 0.955274 0.000000
-14.633775 -14.076257 -0.525160 1057 0.295722 0.955274 0.000000
-14.633471 -14.075959 -0.518903 1049 0.295722 0.955274 0.000000
-14.633742 -14.076227 -0.512680 1053 0.295722 0.955274 0.000000
-14.633744 -14.076221 -0.506440 1037 0.295722 0.955274 0.000000
-14.633597 -14.076080 -0.500191 1041 0.295722 0.955274 0.000000
-14.633711 -14.076191 -0.493960 1043 0.295722 0.955274 0.000000
-14.633071 -14.075578 -0.487696 1035 0.295722 0.955274 0.000000
-14.632972 -14.075476 -0.481457 1053 0.295722 0.955274 0.000000
-14.633554 -14.076037 -0.475231 1065 0.295722 0.955274 0.000000
-14.633292 -14.075788 -0.468983 1053 0.295722 0.955274 0.000000
-14.632495 -14.075021 -0.462721 1047 0.295722 0.955274 0.000000
-14.632803 -14.075318 -0.456498 1045 0.295722 0.955274 0.000000
-14.633488 -14.075978 -0.450281 1043 0.295722 0.955274 0.000000
-14.633162 -14.075663 -0.444034 1049 0.295722 0.955274 0.000000
-14.633731 -14.076214 -0.437808 1053 0.295722 0.955274 0.000000
-14.633834 -14.076303 -0.431577 1059 0.295722 0.955274 0.000000
-14.634081 -14.076550 -0.425345 1061 0.295722 0.955274 0.000000
-14.634280 -14.076745 -0.419113 1051 0.295722 0.955274 0.000000
-14.632691 -14.075211 -0.412828 1033 0.295722 0.955274 0.000000
-14.632146 -14.074688 -0.406573 1037 0.295722 0.955274 0.000000
-14.633245 -14.075741 -0.400362 1037 0.295722 0.955274 0.000000
-14.633219 -14.075725 -0.394132 1029 0.295722 0.955274 0.000000
-14.632884 -14.075401 -0.387885 1045 0.295722 0.955274 0.000000
-14.633076 -14.075577 -0.381653 1055 0.295722 0.955274 0.000000
-14.632529 -14.075054 -0.375398 1061 0.295722 0.955274 0.000000
-14.632236 -14.074780 -0.369151 1039 0.295722 0.955274 0.000000
-14.632591 -14.075115 -0.362927 1041 0.295722 0.955274 0.000000
-14.633613 -14.076104 -0.356707 1041 0.295722 0.955274 0.000000
-14.633217 -14.075718 -0.350461 1037 0.295722 0.955274 0.000000
-14.632561 -14.075080 -0.344217 1043 0.295722 0.955274 0.000000
-14.633161 -14.075669 -0.337991 1047 0.295722 0.955274 0.000000
-14.632654 -14.075179 -0.331746 1039 0.295722 0.955274 0.000000
-14.632515 -14.075044 -0.325497 1027 0.295722 0.955274 0.000000
-14.633434 -14.075922 -0.319288 1045 0.295722 0.955274 0.000000
-14.633133 -14.075640 -0.313041 1047 0.295722 0.955274 0.000000
-14.632249 -14.074789 -0.306789 1045 0.295722 0.955274 0.000000
-14.632056 -14.074596 -0.300551 1035 0.295722 0.955274 0.000000
-14.631910 -14.074455 -0.294302 1041 0.295722 0.955274 0.000000
-14.631663 -14.074218 -0.288064 1041 0.295722 0.955274 0.000000
-14.643355 -14.076679 -0.675187 1037 0.295722 0.955274 0.000000
-14.642825 -14.076170 -0.668922 1045 0.295722 0.955274 0.000000
-14.642287 -14.075655 -0.662647 1061 0.295722 0.955274 0.000000
-14.641687 -14.075075 -0.656383 1041 0.295722 0.955274 0.000000
-14.641471 -14.074862 -0.650124 1043 0.295722 0.955274 0.000000
-14.641820 -14.075207 -0.643901 1041 0.295722 0.955274 0.000000
-14.642073 -14.075445 -0.637668 1033 0.295722 0.955274 0.000000
-14.641628 -14.075021 -0.631402 1023 0.295722 0.955274 0.000000
-14.640920 -14.074339 -0.625129 1031 0.295722 0.955274 0.000000
-14.640851 -14.074274 -0.618879 1019 0.295722 0.955274 0.000000
-14.641576 -14.074966 -0.612673 1033 0.295722 0.955274 0.000000
-14.641805 -14.075187 -0.606440 1025 0.295722 0.955274 0.000000
-14.641417 -14.074819 -0.600184 1031 0.295722 0.955274 0.000000
-14.641176 -14.074588 -0.593926 1033 0.295722 0.955274 0.000000
-14.641517 -14.074912 -0.587702 1031 0.295722 0.955274 0.000000
-14.641223 -14.074636 -0.581445 1037 0.295722 0.955274 0.000000
-14.641413 -14.074810 -0.575213 1037 0.295722 0.955274 0.000000
-14.641691 -14.075084 -0.568980 1045 0.295722 0.955274 0.000000
-14.641820 -14.075207 -0.562739 1045 0.295722 0.955274 0.000000
-14.641672 -14.075067 -0.556490 1041 0.295722 0.955274 0.000000
-14.641276 -14.074679 -0.550234 1031 0.295722 0.955274 0.000000
-14.641397 -14.074797 -0.544003 1047 0.295722 0.955274 0.000000
-14.641354 -14.074753 -0.537753 1051 0.295722 0.955274 0.000000
-14.641263 -14.074671 -0.531514 1053 0.295722 0.955274 0.000000
-14.641226 -14.074632 -0.525274 1047 0.295722 0.955274 0.000000
-14.641291 -14.074691 -0.519033 1035 0.295722 0.955274 0.000000
-14.640973 -14.074396 -0.512776 1051 0.295722 0.955274 0.000000
-14.640294 -14.073738 -0.506512 1029 0.295722 0.955274 0.000000
-14.640940 -14.074352 -0.500296 1049 0.295722 0.955274 0.000000
-14.641837 -14.075225 -0.494087 1057 0.295722 0.955274 0.000000
-14.641684 -14.075078 -0.487839 1053 0.295722 0.955274 0.000000
-14.641685 -14.075071 -0.481598 1051 0.295722 0.955274 0.000000
-14.641258 -14.074660 -0.475342 1045 0.295722 0.955274 0.000000
-14.641316 -14.074727 -0.469112 1053 0.295722 0.955274 0.000000
-14.640841 -14.074263 -0.462856 1049 0.295722 0.955274 0.000000
-14.640052 -14.073501 -0.456583 1027 0.295722 0.955274 0.000000
-14.640511 -14.073948 -0.450359 1041 0.295722 0.955274 0.000000
-14.640403 -14.073838 -0.444120 1049 0.295722 0.955274 0.000000
-14.640391 -14.073834 -0.437880 1049 0.295722 0.955274 0.000000
-14.641069 -14.074488 -0.431663 1043 0.295722 0.955274 0.000000
-14.641164 -14.074572 -0.425422 1035 0.295722 0.955274 0.000000
-14.640517 -14.073954 -0.419168 1039 0.295722 0.955274 0.000000
-14.640450 -14.073890 -0.412928 1031 0.295722 0.955274 0.000000
-14.641291 -14.074691 -0.406710 1039 0.295722 0.955274 0.000000
-14.639947 -14.073407 -0.400433 1047 0.295722 0.955274 0.000000
-14.639196 -14.072680 -0.394170 1037 0.295722 0.955274 0.000000
-14.640282 -14.073732 -0.387959 1041 0.295722 0.955274 0.000000
-14.640779 -14.074211 -0.381735 1051 0.295722 0.955274 0.000000
-14.640977 -14.074393 -0.375503 1063 0.295722 0.955274 0.000000
-14.640376 -14.073812 -0.369248 1041 0.295722 0.955274 0.000000
-14.640568 -14.074001 -0.363016 1047 0.295722 0.955274 0.000000
-14.640696 -14.074125 -0.356785 1041 0.295722 0.955274 0.000000
-14.639978 -14.073435 -0.350522 1035 0.295722 0.955274 0.000000
-14.639738 -14.073203 -0.344284 1053 0.295722 0.955274 0.000000
-14.639608 -14.073076 -0.338045 1055 0.295722 0.955274 0.000000
-14.639477 -14.072947 -0.331796 1049 0.295722 0.955274 0.000000
-14.639864 -14.073322 -0.325572 1039 0.295722 0.955274 0.000000
-14.639828 -14.073285 -0.319332 1033 0.295722 0.955274 0.000000
-14.640523 -14.073965 -0.313105 1025 0.295722 0.955274 0.000000
-14.640328 -14.073771 -0.306867 1031 0.295722 0.955274 0.000000
-14.639077 -14.072565 -0.300599 1033 0.295722 0.955274 0.000000
-14.639300 -14.072780 -0.294367 1027 0.295722 0.955274 0.000000
-14.639789 -14.073252 -0.288142 1029 0.295722 0.955274 0.000000
-14.649423 -14.073748 -0.675264 1053 0.295722 0.955274 0.000000
-14.649732 -14.074045 -0.669041 1035 0.295722 0.955274 0.000000
-14.648928 -14.073272 -0.662758 1033 0.295722 0.955274 0.000000
-14.648553 -14.072903 -0.656492 1045 0.295722 0.955274 0.000000
-14.649012 -14.073351 -0.650267 1041 0.295722 0.955274 0.000000
-14.649107 -14.073435 -0.644026 1037 0.295722 0.955274 0.000000
-14.648877 -14.073224 -0.637768 1009 0.295722 0.955274 0.000000
-14.648911 -14.073257 -0.631528 1029 0.295722 0.955274 0.000000
-14.649838 -14.074142 -0.625329 1025 0.295722 0.955274 0.000000
-14.649824 -14.074122 -0.619079 1023 0.295722 0.955274 0.000000
-14.649211 -14.073545 -0.612815 1037 0.295722 0.955274 0.000000
-14.649345 -14.073674 -0.606573 1021 0.295722 0.955274 0.000000
-14.648956 -14.073294 -0.600307 1027 0.295722 0.955274 0.000000
-14.647716 -14.072108 -0.594018 1031 0.295722 0.955274 0.000000
-14.647326 -14.071729 -0.587762 1019 0.295722 0.955274 0.000000
-14.647980 -14.072363 -0.581545 1023 0.295722 0.955274 0.000000
-14.648380 -14.072737 -0.575312 1033 0.295722 0.955274 0.000000
-14.647922 -14.072299 -0.569056 1021 0.295722 0.955274 0.000000
-14.648043 -14.072416 -0.562814 1045 0.295722 0.955274 0.000000
-14.649330 -14.073649 -0.556622 1049 0.295722 0.955274 0.000000
-14.649561 -14.073870 -0.550390 1061 0.295722 0.955274 0.000000
-14.648623 -14.072973 -0.544109 1053 0.295722 0.955274 0.000000
-14.648219 -14.072581 -0.537852 1047 0.295722 0.955274 0.000000
-14.647602 -14.071988 -0.531588 1025 0.295722 0.955274 0.000000
-14.647763 -14.072151 -0.525346 1027 0.295722 0.955274 0.000000
-14.648306 -14.072668 -0.519131 1049 0.295722 0.955274 0.000000
-14.648153 -14.072521 -0.512882 1039 0.295722 0.955274 0.000000
-14.648108 -14.072476 -0.506633 1051 0.295722 0.955274 0.000000
-14.648222 -14.072588 -0.500401 1039 0.295722 0.955274 0.000000
-14.648217 -14.072589 -0.494161 1045 0.295722 0.955274 0.000000
-14.647278 -14.071678 -0.487880 1035 0.295722 0.955274 0.000000
-14.647814 -14.072190 -0.481665 1033 0.295722 0.955274 0.000000
-14.648914 -14.073256 -0.475454 1019 0.295722 0.955274 0.000000
-14.648283 -14.072651 -0.469190 1035 0.295722 0.955274 0.000000
-14.647699 -14.072084 -0.462935 1031 0.295722 0.955274 0.000000
-14.648274 -14.072640 -0.456710 1037 0.295722 0.955274 0.000000
-14.647853 -14.072235 -0.450454 1045 0.295722 0.955274 0.000000
-14.648045 -14.072423 -0.444222 1051 0.295722 0.955274 0.000000
-14.647727 -14.072115 -0.437975 1053 0.295722 0.955274 0.000000
-14.647032 -14.071443 -0.431711 1041 0.295722 0.955274 0.000000
-14.648131 -14.072495 -0.425500 1059 0.295722 0.955274 0.000000
-14.647805 -14.072181 -0.419253 1043 0.295722 0.955274 0.000000
-14.647527 -14.071918 -0.413006 1043 0.295722 0.955274 0.000000
-14.648088 -14.072461 -0.406780 1045 0.295722 0.955274 0.000000
-14.647815 -14.072191 -0.400533 1051 0.295722 0.955274 0.000000
-14.647317 -14.071721 -0.394277 1035 0.295722 0.955274 0.000000
-14.647243 -14.071652 -0.388038 1033 0.295722 0.955274 0.000000
-14.647387 -14.071788 -0.381796 1029 0.295722 0.955274 0.000000
-14.647311 -14.071718 -0.375557 1055 0.295722 0.955274 0.000000
-14.646921 -14.071338 -0.369311 1037 0.295722 0.955274 0.000000
-14.647049 -14.071462 -0.363069 1047 0.295722 0.955274 0.000000
-14.647445 -14.071844 -0.356845 1041 0.295722 0.955274 0.000000
-14.647792 -14.072173 -0.350612 1041 0.295722 0.955274 0.000000
-14.648132 -14.072497 -0.344379 1051 0.295722 0.955274 0.000000
-14.648159 -14.072525 -0.338138 1037 0.295722 0.955274 0.000000
-14.647072 -14.071479 -0.331878 1021 0.295722 0.955274 0.000000
-14.647978 -14.072360 -0.325660 1031 0.295722 0.955274 0.000000
-14.648685 -14.073038 -0.319433 1041 0.295722 0.955274 0.000000
-14.647709 -14.072097 -0.313172 1039 0.295722 0.955274 0.000000
-14.647147 -14.071548 -0.306917 1033 0.295722 0.955274 0.000000
-14.646618 -14.071054 -0.300672 1021 0.295722 0.955274 0.000000
-14.646323 -14.070764 -0.294424 1031 0.295722 0.955274 0.000000
-14.645910 -14.070364 -0.288178 1019 0.295722 0.955274 0.000000
-14.656750 -14.071502 -0.675392 1041 0.295722 0.955274 0.000000
-14.656901 -14.071645 -0.669150 1031 0.295722 0.955274 0.000000
-14.656570 -14.071339 -0.662893 1027 0.295722 0.955274 0.000000
-14.656344 -14.071118 -0.656635 1041 0.295722 0.955274 0.000000
-14.656175 -14.070958 -0.650386 1035 0.295722 0.955274 0.000000
-14.655315 -14.070127 -0.644104 1037 0.295722 0.955274 0.000000
-14.655037 -14.069863 -0.637847 1007 0.295722 0.955274 0.000000
-14.655604 -14.070399 -0.631621 1013 0.295722 0.955274 0.000000
-14.656007 -14.070788 -0.625398 1027 0.295722 0.955274 0.000000
-14.656190 -14.070970 -0.619156 1031 0.295722 0.955274 0.000000
-14.655910 -14.070692 -0.612898 1035 0.295722 0.955274 0.000000
-14.656095 -14.070875 -0.606666 1025 0.295722 0.955274 0.000000
-14.655651 -14.070451 -0.600400 1043 0.295722 0.955274 0.000000
-14.655568 -14.070374 -0.594151 1031 0.295722 0.955274 0.000000
-14.655696 -14.070498 -0.587910 1013 0.295722 0.955274 0.000000
-14.655620 -14.070414 -0.581660 1027 0.295722 0.955274 0.000000
-14.655436 -14.070241 -0.575412 1035 0.295722 0.955274 0.000000
-14.655353 -14.070165 -0.569162 1015 0.295722 0.955274 0.000000
-14.655895 -14.070682 -0.562937 1027 0.295722 0.955274 0.000000
-14.655758 -14.070548 -0.556688 1045 0.295722 0.955274 0.000000
-14.655564 -14.070368 -0.550440 1045 0.295722 0.955274 0.000000
-14.655317 -14.070129 -0.544192 1035 0.295722 0.955274 0.000000
-14.655171 -14.069989 -0.537943 1039 0.295722 0.955274 0.000000
-14.655659 -14.070447 -0.531719 1031 0.295722 0.955274 0.000000
-14.655090 -14.069906 -0.525454 1043 0.295722 0.955274 0.000000
-14.653942 -14.068811 -0.519165 1033 0.295722 0.955274 0.000000
-14.654108 -14.068967 -0.512933 1031 0.295722 0.955274 0.000000
-14.654377 -14.069218 -0.506700 1029 0.295722 0.955274 0.000000
-14.654860 -14.069685 -0.500465 1033 0.295722 0.955274 0.000000
-14.655175 -14.069988 -0.494242 1035 0.295722 0.955274 0.000000
-14.654921 -14.069745 -0.487985 1047 0.295722 0.955274 0.000000
-14.654548 -14.069391 -0.481728 1031 0.295722 0.955274 0.000000
-14.654393 -14.069244 -0.475489 1033 0.295722 0.955274 0.000000
-14.654554 -14.069394 -0.469248 1029 0.295722 0.955274 0.000000
-14.654924 -14.069743 -0.463014 1031 0.295722 0.955274 0.000000
-14.654872 -14.069692 -0.456774 1045 0.295722 0.955274 0.000000
-14.654539 -14.069384 -0.450517 1053 0.295722 0.955274 0.000000
-14.655161 -14.069979 -0.444301 1055 0.295722 0.955274 0.000000
-14.655320 -14.070127 -0.438060 1049 0.295722 0.955274 0.000000
-14.655684 -14.070471 -0.431826 1039 0.295722 0.955274 0.000000
-14.655773 -14.070562 -0.425595 1053 0.295722 0.955274 0.000000
-14.655016 -14.069840 -0.419332 1057 0.295722 0.955274 0.000000
-14.654752 -14.069576 -0.413074 1035 0.295722 0.955274 0.000000
-14.654473 -14.069313 -0.406827 1029 0.295722 0.955274 0.000000
-14.654400 -14.069243 -0.400587 1031 0.295722 0.955274 0.000000
-14.654755 -14.069580 -0.394354 1039 0.295722 0.955274 0.000000
-14.654788 -14.069613 -0.388113 1039 0.295722 0.955274 0.000000
-14.653757 -14.068627 -0.381843 1055 0.295722 0.955274 0.000000
-14.653205 -14.068100 -0.375588 1031 0.295722 0.955274 0.000000
-14.653928 -14.068790 -0.369371 1027 0.295722 0.955274 0.000000
-14.653688 -14.068559 -0.363123 1027 0.295722 0.955274 0.000000
-14.654241 -14.069097 -0.356898 1033 0.295722 0.955274 0.000000
-14.654220 -14.069071 -0.350658 1041 0.295722 0.955274 0.000000
-14.654505 -14.069350 -0.344425 1041 0.295722 0.955274 0.000000
-14.654743 -14.069577 -0.338183 1021 0.295722 0.955274 0.000000
-14.653868 -14.068732 -0.331931 1019 0.295722 0.955274 0.000000
-14.654826 -14.069656 -0.325712 1029 0.295722 0.955274 0.000000
-14.654595 -14.069432 -0.319464 1039 0.295722 0.955274 0.000000
-14.654291 -14.069135 -0.313216 1031 0.295722 0.955274 0.000000
-14.654412 -14.069251 -0.306975 1033 0.295722 0.955274 0.000000
-14.654799 -14.069628 -0.300751 1035 0.295722 0.955274 0.000000
-14.654284 -14.069131 -0.294496 1027 0.295722 0.955274 0.000000
-14.653661 -14.068532 -0.288242 1017 0.295722 0.955274 0.000000
