368
-14.809942 -14.084584 -0.666660 151 -0.233320 0.972400 0.000000
-14.809390 -14.084072 -0.660355 109 -0.233320 0.972400 0.000000
-14.810653 -14.085271 -0.654133 107 -0.233320 0.972400 0.000000
-14.810280 -14.084904 -0.647826 117 -0.233320 0.972400 0.000000
-14.809029 -14.083726 -0.641498 95 -0.233320 0.972400 0.000000
-14.808857 -14.083552 -0.635199 85 -0.233320 0.972400 0.000000
-14.808688 -14.083393 -0.628911 101 -0.233320 0.972400 0.000000
-14.807069 -14.081861 -0.622566 113 -0.233320 0.972400 0.000000
-14.806632 -14.081442 -0.616270 101 -0.233320 0.972400 0.000000
-14.807819 -14.082578 -0.610038 139 -0.233320 0.972400 0.000000
-14.808118 -14.082855 -0.603765 103 -0.233320 0.972400 0.000000
-14.807988 -14.082727 -0.597477 119 -0.233320 0.972400 0.000000
-14.807739 -14.082503 -0.591189 129 -0.233320 0.972400 0.000000
-14.809310 -14.083993 -0.584964 133 -0.233320 0.972400 0.000000
-14.810229 -14.084871 -0.578725 127 -0.233320 0.972400 0.000000
-14.809510 -14.084182 -0.572412 117 -0.233320 0.972400 0.000000
-14.808690 -14.083396 -0.566099 127 -0.233320 0.972400 0.000000
-14.808654 -14.083372 -0.559819 101 -0.233320 0.972400 0.000000
-14.808938 -14.083637 -0.553547 105 -0.233320 0.972400 0.000000
-14.808627 -14.083348 -0.547259 111 -0.233320 0.972400 0.000000
-14.808864 -14.083561 -0.540987 105 -0.233320 0.972400 0.000000
-14.808342 -14.083074 -0.534682 113 -0.233320 0.972400 0.000000
-14.808307 -14.083036 -0.528402 131 -0.233320 0.972400 0.000000
-14.808417 -14.083146 -0.522131 127 -0.233320 0.972400 0.000000
-14.808803 -14.083508 -0.515867 123 -0.233320 0.972400 0.000000
-14.809771 -14.084424 -0.509618 119 -0.233320 0.972400 0.000000
-14.809185 -14.083870 -0.503313 135 -0.233320 0.972400 0.000000
-14.807919 -14.082667 -0.496995 163 -0.233320 0.972400 0.000000
-14.806652 -14.081464 -0.490677 149 -0.233320 0.972400 0.000000
-14.807979 -14.082727 -0.484434 119 -0.233320 0.972400 0.000000
-14.809619 -14.084288 -0.478208 145 -0.233320 0.972400 0.000000
-14.808823 -14.083535 -0.471906 155 -0.233320 0.972400 0.000000
-14.808982 -14.083685 -0.465634 175 -0.233320 0.972400 0.000000
-14.808560 -14.083280 -0.459338 167 -0.233320 0.972400 0.000000
-14.808979 -14.083680 -0.453074 151 -0.233320 0.972400 0.000000
-14.810078 -14.084731 -0.446823 153 -0.233320 0.972400 0.000000
-14.807425 -14.082207 -0.440468 153 -0.233320 0.972400 0.000000
-14.805563 -14.080437 -0.434135 149 -0.233320 0.972400 0.000000
-14.806293 -14.081133 -0.427878 171 -0.233320 0.972400 0.000000
-14.805434 -14.080316 -0.421576 167 -0.233320 0.972400 0.000000
-14.805310 -14.080194 -0.415297 155 -0.233320 0.972400 0.000000
-14.806732 -14.081549 -0.409054 163 -0.233320 0.972400 0.000000
-14.806506 -14.081329 -0.402776 151 -0.233320 0.972400 0.000000
-14.806965 -14.081763 -0.396511 143 -0.233320 0.972400 0.000000
-14.807162 -14.081957 -0.390239 163 -0.233320 0.972400 0.000000
-14.807555 -14.082324 -0.383966 155 -0.233320 0.972400 0.000000
-14.809400 -14.084078 -0.377738 133 -0.233320 0.972400 0.000000
-14.807781 -14.082546 -0.371423 115 -0.233320 0.972400 0.000000
-14.807519 -14.082291 -0.358855 125 -0.233320 0.972400 0.000000
-14.808234 -14.082974 -0.352598 109 -0.233320 0.972400 0.000000
-14.807038 -14.081841 -0.346290 123 -0.233320 0.972400 0.000000
-14.807967 -14.082727 -0.340041 141 -0.233320 0.972400 0.000000
-14.806182 -14.081019 -0.333717 141 -0.233320 0.972400 0.000000
-14.806365 -14.081201 -0.327445 127 -0.233320 0.972400 0.000000
-14.806759 -14.081569 -0.321182 125 -0.233320 0.972400 0.000000
-14.807248 -14.082041 -0.314917 125 -0.233320 0.972400 0.000000
-14.806152 -14.080991 -0.308617 87 -0.233320 0.972400 0.000000
-14.804997 -14.079905 -0.302318 93 -0.233320 0.972400 0.000000
-14.806660 -14.081483 -0.296072 105 -0.233320 0.972400 0.000000
-14.807626 -14.082398 -0.289813 101 -0.233320 0.972400 0.000000
-14.806892 -14.081697 -0.283519 77 -0.233320 0.972400 0.000000
-14.823084 -14.087955 -0.667052 161 -0.233320 0.972400 0.000000
-14.822805 -14.087692 -0.660754 149 -0.233320 0.972400 0.000000
-14.822894 -14.087784 -0.654473 145 -0.233320 0.972400 0.000000
-14.820873 -14.085856 -0.648102 125 -0.233320 0.972400 0.000000
-14.819686 -14.084732 -0.641763 89 -0.233320 0.972400 0.000000
-14.821005 -14.085975 -0.635530 115 -0.233320 0.972400 0.000000
-14.821344 -14.086311 -0.629257 119 -0.233320 0.972400 0.000000
-14.821856 -14.086788 -0.623002 99 -0.233320 0.972400 0.000000
-14.821944 -14.086881 -0.616711 121 -0.233320 0.972400 0.000000
-14.821281 -14.086250 -0.610407 125 -0.233320 0.972400 0.000000
-14.820727 -14.085724 -0.604092 97 -0.233320 0.972400 0.000000
-14.821136 -14.086103 -0.597828 117 -0.233320 0.972400 0.000000
-14.819729 -14.084770 -0.591491 125 -0.233320 0.972400 0.000000
-14.820970 -14.085951 -0.585250 115 -0.233320 0.972400 0.000000
-14.821475 -14.086436 -0.578985 131 -0.233320 0.972400 0.000000
-14.820590 -14.085586 -0.572673 155 -0.233320 0.972400 0.000000
-14.820986 -14.085968 -0.566399 139 -0.233320 0.972400 0.000000
-14.820158 -14.085176 -0.560087 135 -0.233320 0.972400 0.000000
-14.820277 -14.085293 -0.553805 117 -0.233320 0.972400 0.000000
-14.821401 -14.086364 -0.547565 127 -0.233320 0.972400 0.000000
-14.821795 -14.086732 -0.541291 117 -0.233320 0.972400 0.000000
-14.821382 -14.086347 -0.534995 145 -0.233320 0.972400 0.000000
-14.820703 -14.085702 -0.528691 143 -0.233320 0.972400 0.000000
-14.819498 -14.084550 -0.522362 121 -0.233320 0.972400 0.000000
-14.819140 -14.084209 -0.516065 135 -0.233320 0.972400 0.000000
-14.820576 -14.085576 -0.509832 165 -0.233320 0.972400 0.000000
-14.821801 -14.086743 -0.503590 169 -0.233320 0.972400 0.000000
-14.821224 -14.086198 -0.497285 145 -0.233320 0.972400 0.000000
-14.819581 -14.084633 -0.490950 159 -0.233320 0.972400 0.000000
-14.820759 -14.085748 -0.484709 149 -0.233320 0.972400 0.000000
-14.820754 -14.085750 -0.478429 167 -0.233320 0.972400 0.000000
-14.819001 -14.084082 -0.472086 175 -0.233320 0.972400 0.000000
-14.820006 -14.085042 -0.465836 177 -0.233320 0.972400 0.000000
-14.820322 -14.085333 -0.459563 193 -0.233320 0.972400 0.000000
-14.821170 -14.086139 -0.453305 157 -0.233320 0.972400 0.000000
-14.821010 -14.085986 -0.447026 157 -0.233320 0.972400 0.000000
-14.819727 -14.084769 -0.440698 157 -0.233320 0.972400 0.000000
-14.820026 -14.085061 -0.434425 165 -0.233320 0.972400 0.000000
-14.819435 -14.084502 -0.428130 155 -0.233320 0.972400 0.000000
-14.818527 -14.083632 -0.421819 149 -0.233320 0.972400 0.000000
-14.819791 -14.084831 -0.415577 161 -0.233320 0.972400 0.000000
-14.821259 -14.086224 -0.409333 151 -0.233320 0.972400 0.000000
-14.820017 -14.085053 -0.403024 157 -0.233320 0.972400 0.000000
-14.820059 -14.085094 -0.396744 167 -0.233320 0.972400 0.000000
-14.819667 -14.084712 -0.390447 155 -0.233320 0.972400 0.000000
-14.820228 -14.085256 -0.384182 147 -0.233320 0.972400 0.000000
-14.820794 -14.085791 -0.377916 133 -0.233320 0.972400 0.000000
-14.819181 -14.084252 -0.371591 129 -0.233320 0.972400 0.000000
-14.819623 -14.084672 -0.365327 131 -0.233320 0.972400 0.000000
-14.820768 -14.085761 -0.359076 129 -0.233320 0.972400 0.000000
-14.820319 -14.085346 -0.352780 103 -0.233320 0.972400 0.000000
-14.819069 -14.084155 -0.346472 123 -0.233320 0.972400 0.000000
-14.818146 -14.083272 -0.340170 137 -0.233320 0.972400 0.000000
-14.819016 -14.084098 -0.333912 159 -0.233320 0.972400 0.000000
-14.819083 -14.084169 -0.327631 143 -0.233320 0.972400 0.000000
-14.820965 -14.085956 -0.321393 143 -0.233320 0.972400 0.000000
-14.821768 -14.086723 -0.315126 133 -0.233320 0.972400 0.000000
-14.820258 -14.085281 -0.308820 141 -0.233320 0.972400 0.000000
-14.818678 -14.083781 -0.302505 113 -0.233320 0.972400 0.000000
-14.814975 -14.080264 -0.296149 105 -0.233320 0.972400 0.000000
-14.816270 -14.081491 -0.289897 97 -0.233320 0.972400 0.000000
-14.818764 -14.083868 -0.283663 93 -0.233320 0.972400 0.000000
-14.833082 -14.088987 -0.667320 161 -0.233320 0.972400 0.000000
-14.831754 -14.087732 -0.660972 141 -0.233320 0.972400 0.000000
-14.832109 -14.088069 -0.654699 129 -0.233320 0.972400 0.000000
-14.832575 -14.088509 -0.648424 127 -0.233320 0.972400 0.000000
-14.833940 -14.089804 -0.642201 93 -0.233320 0.972400 0.000000
-14.836043 -14.091809 -0.636001 107 -0.233320 0.972400 0.000000
-14.835708 -14.091487 -0.629694 117 -0.233320 0.972400 0.000000
-14.832991 -14.088899 -0.623290 115 -0.233320 0.972400 0.000000
-14.832805 -14.088725 -0.616991 107 -0.233320 0.972400 0.000000
-14.830976 -14.086994 -0.610628 97 -0.233320 0.972400 0.000000
-14.830211 -14.086267 -0.604315 79 -0.233320 0.972400 0.000000
-14.832461 -14.088407 -0.598114 91 -0.233320 0.972400 0.000000
-14.832808 -14.088737 -0.591841 123 -0.233320 0.972400 0.000000
-14.833946 -14.089821 -0.585600 143 -0.233320 0.972400 0.000000
-14.832483 -14.088428 -0.579253 135 -0.233320 0.972400 0.000000
-14.830182 -14.086232 -0.572875 137 -0.233320 0.972400 0.000000
-14.832474 -14.088419 -0.566683 137 -0.233320 0.972400 0.000000
-14.834198 -14.090048 -0.560457 147 -0.233320 0.972400 0.000000
-14.834107 -14.089966 -0.554168 149 -0.233320 0.972400 0.000000
-14.832958 -14.088872 -0.547838 141 -0.233320 0.972400 0.000000
-14.834301 -14.090148 -0.541595 161 -0.233320 0.972400 0.000000
-14.834264 -14.090111 -0.535306 163 -0.233320 0.972400 0.000000
-14.832996 -14.088905 -0.528977 173 -0.233320 0.972400 0.000000
-14.832693 -14.088624 -0.522680 159 -0.233320 0.972400 0.000000
-14.833599 -14.089489 -0.516421 151 -0.233320 0.972400 0.000000
-14.836147 -14.091913 -0.510227 153 -0.233320 0.972400 0.000000
-14.834621 -14.090457 -0.503882 179 -0.233320 0.972400 0.000000
-14.833144 -14.089055 -0.497545 185 -0.233320 0.972400 0.000000
-14.832934 -14.088849 -0.491257 163 -0.233320 0.972400 0.000000
-14.831715 -14.087696 -0.484928 163 -0.233320 0.972400 0.000000
-14.832139 -14.088103 -0.478654 179 -0.233320 0.972400 0.000000
-14.833262 -14.089160 -0.472414 189 -0.233320 0.972400 0.000000
-14.832192 -14.088158 -0.466093 189 -0.233320 0.972400 0.000000
-14.832187 -14.088145 -0.459803 181 -0.233320 0.972400 0.000000
-14.833356 -14.089253 -0.453552 179 -0.233320 0.972400 0.000000
-14.832866 -14.088792 -0.447257 161 -0.233320 0.972400 0.000000
-14.832491 -14.088438 -0.440960 165 -0.233320 0.972400 0.000000
-14.833653 -14.089540 -0.434709 177 -0.233320 0.972400 0.000000
-14.832952 -14.088880 -0.428405 183 -0.233320 0.972400 0.000000
-14.831662 -14.087656 -0.422077 165 -0.233320 0.972400 0.000000
-14.832291 -14.088243 -0.415811 155 -0.233320 0.972400 0.000000
-14.833232 -14.089138 -0.409552 175 -0.233320 0.972400 0.000000
-14.834114 -14.089984 -0.403294 181 -0.233320 0.972400 0.000000
-14.833410 -14.089308 -0.396990 179 -0.233320 0.972400 0.000000
-14.833335 -14.089239 -0.390701 175 -0.233320 0.972400 0.000000
-14.833320 -14.089219 -0.384411 143 -0.233320 0.972400 0.000000
-14.832925 -14.088847 -0.378125 147 -0.233320 0.972400 0.000000
-14.832425 -14.088378 -0.371819 157 -0.233320 0.972400 0.000000
-14.831128 -14.087149 -0.365511 129 -0.233320 0.972400 0.000000
-14.831365 -14.087376 -0.359229 123 -0.233320 0.972400 0.000000
-14.832777 -14.088709 -0.352975 103 -0.233320 0.972400 0.000000
-14.832154 -14.088125 -0.346681 109 -0.233320 0.972400 0.000000
-14.832289 -14.088255 -0.340400 137 -0.233320 0.972400 0.000000
-14.833317 -14.089221 -0.334140 151 -0.233320 0.972400 0.000000
-14.833868 -14.089745 -0.327864 141 -0.233320 0.972400 0.000000
-14.833362 -14.089269 -0.321569 167 -0.233320 0.972400 0.000000
-14.831524 -14.087519 -0.315246 137 -0.233320 0.972400 0.000000
-14.830893 -14.086926 -0.308952 125 -0.233320 0.972400 0.000000
-14.832766 -14.088705 -0.302704 135 -0.233320 0.972400 0.000000
-14.834901 -14.090736 -0.296464 139 -0.233320 0.972400 0.000000
-14.834754 -14.090595 -0.290175 103 -0.233320 0.972400 0.000000
-14.832436 -14.088386 -0.283847 107 -0.233320 0.972400 0.000000
-14.844503 -14.091724 -0.661353 147 -0.233320 0.972400 0.000000
-14.845069 -14.092259 -0.655087 149 -0.233320 0.972400 0.000000
-14.844898 -14.092100 -0.648789 141 -0.233320 0.972400 0.000000
-14.845255 -14.092449 -0.642515 119 -0.233320 0.972400 0.000000
-14.844490 -14.091722 -0.636192 123 -0.233320 0.972400 0.000000
-14.843896 -14.091149 -0.629868 135 -0.233320 0.972400 0.000000
-14.843867 -14.091131 -0.623578 117 -0.233320 0.972400 0.000000
-14.844653 -14.091873 -0.617320 107 -0.233320 0.972400 0.000000
-14.844250 -14.091495 -0.611014 111 -0.233320 0.972400 0.000000
-14.844542 -14.091766 -0.604731 109 -0.233320 0.972400 0.000000
-14.844787 -14.091999 -0.598449 109 -0.233320 0.972400 0.000000
-14.843591 -14.090865 -0.592110 123 -0.233320 0.972400 0.000000
-14.843460 -14.090738 -0.585821 135 -0.233320 0.972400 0.000000
-14.844331 -14.091563 -0.579562 139 -0.233320 0.972400 0.000000
-14.843667 -14.090933 -0.573249 153 -0.233320 0.972400 0.000000
-14.844955 -14.092165 -0.567006 159 -0.233320 0.972400 0.000000
-14.845717 -14.092887 -0.560739 143 -0.233320 0.972400 0.000000
-14.845689 -14.092855 -0.554449 141 -0.233320 0.972400 0.000000
-14.845699 -14.092870 -0.548159 135 -0.233320 0.972400 0.000000
-14.844291 -14.091524 -0.541822 151 -0.233320 0.972400 0.000000
-14.843298 -14.090584 -0.535491 169 -0.233320 0.972400 0.000000
-14.843191 -14.090489 -0.529202 165 -0.233320 0.972400 0.000000
-14.844166 -14.091412 -0.522943 175 -0.233320 0.972400 0.000000
-14.844019 -14.091270 -0.516654 161 -0.233320 0.972400 0.000000
-14.845401 -14.092579 -0.510411 163 -0.233320 0.972400 0.000000
-14.846154 -14.093294 -0.504144 145 -0.233320 0.972400 0.000000
-14.843925 -14.091183 -0.497774 167 -0.233320 0.972400 0.000000
-14.841333 -14.088723 -0.491399 173 -0.233320 0.972400 0.000000
-14.841650 -14.089027 -0.485126 179 -0.233320 0.972400 0.000000
-14.842719 -14.090040 -0.478875 193 -0.233320 0.972400 0.000000
-14.842978 -14.090285 -0.472593 193 -0.233320 0.972400 0.000000
-14.842447 -14.089776 -0.466288 189 -0.233320 0.972400 0.000000
-14.844622 -14.091853 -0.460067 191 -0.233320 0.972400 0.000000
-14.844983 -14.092195 -0.453793 175 -0.233320 0.972400 0.000000
-14.843231 -14.090528 -0.447450 155 -0.233320 0.972400 0.000000
-14.843016 -14.090316 -0.441152 149 -0.233320 0.972400 0.000000
-14.843472 -14.090762 -0.434877 169 -0.233320 0.972400 0.000000
-14.843097 -14.090394 -0.428581 159 -0.233320 0.972400 0.000000
-14.843297 -14.090590 -0.422299 169 -0.233320 0.972400 0.000000
-14.843870 -14.091131 -0.416023 169 -0.233320 0.972400 0.000000
-14.842588 -14.089915 -0.409705 173 -0.233320 0.972400 0.000000
-14.844165 -14.091410 -0.403460 149 -0.233320 0.972400 0.000000
-14.844301 -14.091540 -0.397169 147 -0.233320 0.972400 0.000000
-14.842102 -14.089454 -0.390829 143 -0.233320 0.972400 0.000000
-14.842355 -14.089693 -0.384547 125 -0.233320 0.972400 0.000000
-14.844135 -14.091381 -0.378310 141 -0.233320 0.972400 0.000000
-14.842354 -14.089703 -0.371976 147 -0.233320 0.972400 0.000000
-14.841330 -14.088723 -0.365666 147 -0.233320 0.972400 0.000000
-14.842679 -14.090007 -0.359403 143 -0.233320 0.972400 0.000000
-14.842446 -14.089782 -0.353115 131 -0.233320 0.972400 0.000000
-14.842998 -14.090304 -0.346840 121 -0.233320 0.972400 0.000000
-14.843282 -14.090583 -0.340557 121 -0.233320 0.972400 0.000000
-14.842189 -14.089548 -0.334247 137 -0.233320 0.972400 0.000000
-14.843655 -14.090926 -0.327993 141 -0.233320 0.972400 0.000000
-14.843610 -14.090895 -0.321713 145 -0.233320 0.972400 0.000000
-14.841938 -14.089306 -0.315389 133 -0.233320 0.972400 0.000000
-14.842221 -14.089571 -0.309106 141 -0.233320 0.972400 0.000000
-14.843555 -14.090841 -0.302843 119 -0.233320 0.972400 0.000000
-14.843151 -14.090462 -0.296557 107 -0.233320 0.972400 0.000000
-14.841249 -14.088646 -0.290225 105 -0.233320 0.972400 0.000000
-14.840304 -14.087758 -0.283923 113 -0.233320 0.972400 0.000000
-14.858924 -14.097129 -0.661819 163 -0.233320 0.972400 0.000000
-14.857963 -14.096215 -0.655477 145 -0.233320 0.972400 0.000000
-14.857847 -14.096100 -0.649178 123 -0.233320 0.972400 0.000000
-14.857028 -14.095328 -0.642846 119 -0.233320 0.972400 0.000000
-14.857702 -14.095966 -0.636579 129 -0.233320 0.972400 0.000000
-14.859437 -14.097616 -0.630363 125 -0.233320 0.972400 0.000000
-14.857935 -14.096181 -0.623997 87 -0.233320 0.972400 0.000000
-14.855681 -14.094049 -0.617608 79 -0.233320 0.972400 0.000000
-14.856828 -14.095140 -0.611367 103 -0.233320 0.972400 0.000000
-14.857017 -14.095313 -0.605075 91 -0.233320 0.972400 0.000000
-14.855979 -14.094336 -0.598735 81 -0.233320 0.972400 0.000000
-14.856060 -14.094408 -0.592444 97 -0.233320 0.972400 0.000000
-14.856939 -14.095239 -0.586186 149 -0.233320 0.972400 0.000000
-14.856854 -14.095162 -0.579896 155 -0.233320 0.972400 0.000000
-14.858259 -14.096490 -0.573653 173 -0.233320 0.972400 0.000000
-14.859172 -14.097363 -0.567394 155 -0.233320 0.972400 0.000000
-14.859839 -14.097995 -0.561118 155 -0.233320 0.972400 0.000000
-14.858738 -14.096951 -0.554788 157 -0.233320 0.972400 0.000000
-14.856907 -14.095206 -0.548425 153 -0.233320 0.972400 0.000000
-14.855264 -14.093655 -0.542070 145 -0.233320 0.972400 0.000000
-14.855596 -14.093971 -0.535787 145 -0.233320 0.972400 0.000000
-14.857955 -14.096200 -0.529585 129 -0.233320 0.972400 0.000000
-14.858647 -14.096866 -0.523308 145 -0.233320 0.972400 0.000000
-14.859034 -14.097226 -0.517034 155 -0.233320 0.972400 0.000000
-14.857234 -14.095521 -0.510671 141 -0.233320 0.972400 0.000000
-14.855123 -14.093519 -0.504311 147 -0.233320 0.972400 0.000000
-14.855659 -14.094029 -0.498035 149 -0.233320 0.972400 0.000000
-14.855824 -14.094184 -0.491744 165 -0.233320 0.972400 0.000000
-14.855129 -14.093529 -0.485430 183 -0.233320 0.972400 0.000000
-14.854435 -14.092873 -0.479117 149 -0.233320 0.972400 0.000000
-14.855292 -14.093685 -0.472858 169 -0.233320 0.972400 0.000000
-14.856454 -14.094789 -0.466597 201 -0.233320 0.972400 0.000000
-14.856509 -14.094839 -0.460307 189 -0.233320 0.972400 0.000000
-14.855174 -14.093566 -0.453979 171 -0.233320 0.972400 0.000000
-14.854958 -14.093368 -0.447681 155 -0.233320 0.972400 0.000000
-14.856220 -14.094566 -0.441429 167 -0.233320 0.972400 0.000000
-14.856590 -14.094914 -0.435145 193 -0.233320 0.972400 0.000000
-14.855308 -14.093698 -0.428817 171 -0.233320 0.972400 0.000000
-14.854709 -14.093133 -0.422503 161 -0.233320 0.972400 0.000000
-14.855540 -14.093925 -0.416235 161 -0.233320 0.972400 0.000000
-14.855160 -14.093553 -0.409938 165 -0.233320 0.972400 0.000000
-14.856258 -14.094604 -0.403678 157 -0.233320 0.972400 0.000000
-14.855761 -14.094135 -0.397372 149 -0.233320 0.972400 0.000000
-14.854525 -14.092958 -0.391044 149 -0.233320 0.972400 0.000000
-14.855412 -14.093795 -0.384785 131 -0.233320 0.972400 0.000000
-14.854858 -14.093267 -0.378480 147 -0.233320 0.972400 0.000000
-14.854407 -14.092851 -0.372174 135 -0.233320 0.972400 0.000000
-14.855075 -14.093483 -0.365898 145 -0.233320 0.972400 0.000000
-14.857059 -14.095364 -0.359659 133 -0.233320 0.972400 0.000000
-14.856404 -14.094741 -0.353355 127 -0.233320 0.972400 0.000000
-14.855788 -14.094162 -0.347051 105 -0.233320 0.972400 0.000000
-14.856503 -14.094832 -0.340774 131 -0.233320 0.972400 0.000000
-14.854985 -14.093397 -0.334448 113 -0.233320 0.972400 0.000000
-14.853359 -14.091859 -0.328123 125 -0.233320 0.972400 0.000000
-14.852578 -14.091120 -0.321820 127 -0.233320 0.972400 0.000000
-14.854093 -14.092550 -0.315556 123 -0.233320 0.972400 0.000000
-14.855325 -14.093724 -0.309294 123 -0.233320 0.972400 0.000000
-14.855711 -14.094086 -0.303010 137 -0.233320 0.972400 0.000000
-14.854719 -14.093146 -0.296700 133 -0.233320 0.972400 0.000000
-14.852558 -14.091091 -0.290370 137 -0.233320 0.972400 0.000000
-14.852459 -14.091002 -0.284081 119 -0.233320 0.972400 0.000000
-14.869058 -14.098454 -0.662085 175 -0.233320 0.972400 0.000000
-14.871701 -14.100955 -0.655910 153 -0.233320 0.972400 0.000000
-14.869564 -14.098932 -0.649510 105 -0.233320 0.972400 0.000000
-14.868644 -14.098065 -0.643178 131 -0.233320 0.972400 0.000000
-14.869271 -14.098652 -0.636902 125 -0.233320 0.972400 0.000000
-14.868451 -14.097879 -0.630570 105 -0.233320 0.972400 0.000000
-14.866692 -14.096206 -0.624196 67 -0.233320 0.972400 0.000000
-14.867938 -14.097391 -0.617954 73 -0.233320 0.972400 0.000000
-14.870675 -14.099982 -0.611768 65 -0.233320 0.972400 0.000000
-14.870128 -14.099460 -0.605443 105 -0.233320 0.972400 0.000000
-14.869514 -14.098883 -0.599119 89 -0.233320 0.972400 0.000000
-14.868427 -14.097853 -0.592779 111 -0.233320 0.972400 0.000000
-14.866753 -14.096263 -0.586415 133 -0.233320 0.972400 0.000000
-14.866717 -14.096239 -0.580115 147 -0.233320 0.972400 0.000000
-14.867807 -14.097269 -0.573864 159 -0.233320 0.972400 0.000000
-14.869423 -14.098797 -0.567629 165 -0.233320 0.972400 0.000000
-14.868909 -14.098315 -0.561314 169 -0.233320 0.972400 0.000000
-14.868230 -14.097671 -0.554990 157 -0.233320 0.972400 0.000000
-14.866399 -14.095926 -0.548627 173 -0.233320 0.972400 0.000000
-14.866199 -14.095741 -0.542319 167 -0.233320 0.972400 0.000000
-14.867964 -14.097418 -0.536092 139 -0.233320 0.972400 0.000000
-14.867659 -14.097120 -0.529785 137 -0.233320 0.972400 0.000000
-14.868414 -14.097837 -0.523508 127 -0.233320 0.972400 0.000000
-14.866881 -14.096389 -0.517162 159 -0.233320 0.972400 0.000000
-14.868169 -14.097608 -0.510910 141 -0.233320 0.972400 0.000000
-14.869605 -14.098974 -0.504666 143 -0.233320 0.972400 0.000000
-14.867805 -14.097269 -0.498303 151 -0.233320 0.972400 0.000000
-14.868866 -14.098274 -0.492043 161 -0.233320 0.972400 0.000000
-14.869783 -14.099137 -0.485784 183 -0.233320 0.972400 0.000000
-14.869143 -14.098539 -0.479460 183 -0.233320 0.972400 0.000000
-14.867070 -14.096569 -0.473099 171 -0.233320 0.972400 0.000000
-14.866477 -14.096010 -0.466784 187 -0.233320 0.972400 0.000000
-14.867334 -14.096823 -0.460516 175 -0.233320 0.972400 0.000000
-14.867596 -14.097069 -0.454234 155 -0.233320 0.972400 0.000000
-14.867057 -14.096554 -0.447919 149 -0.233320 0.972400 0.000000
-14.866997 -14.096497 -0.441629 173 -0.233320 0.972400 0.000000
-14.867830 -14.097290 -0.435351 173 -0.233320 0.972400 0.000000
-14.868310 -14.097742 -0.429076 163 -0.233320 0.972400 0.000000
-14.867497 -14.096977 -0.422754 151 -0.233320 0.972400 0.000000
-14.866255 -14.095806 -0.416425 151 -0.233320 0.972400 0.000000
-14.865177 -14.094782 -0.410105 151 -0.233320 0.972400 0.000000
-14.865914 -14.095471 -0.403828 159 -0.233320 0.972400 0.000000
-14.864993 -14.094604 -0.397507 165 -0.233320 0.972400 0.000000
-14.864706 -14.094335 -0.391209 143 -0.233320 0.972400 0.000000
-14.865170 -14.094773 -0.384925 143 -0.233320 0.972400 0.000000
-14.867225 -14.096712 -0.378685 155 -0.233320 0.972400 0.000000
-14.869108 -14.098512 -0.372437 169 -0.233320 0.972400 0.000000
-14.866533 -14.096064 -0.366082 147 -0.233320 0.972400 0.000000
-14.864648 -14.094275 -0.359749 139 -0.233320 0.972400 0.000000
-14.866483 -14.096021 -0.353492 135 -0.233320 0.972400 0.000000
-14.866823 -14.096345 -0.347208 129 -0.233320 0.972400 0.000000
-14.866002 -14.095559 -0.340896 111 -0.233320 0.972400 0.000000
-14.865550 -14.095128 -0.334590 107 -0.233320 0.972400 0.000000
-14.865458 -14.095045 -0.328301 115 -0.233320 0.972400 0.000000
-14.866221 -14.095768 -0.322023 131 -0.233320 0.972400 0.000000
-14.865338 -14.094932 -0.315712 121 -0.233320 0.972400 0.000000
-14.863656 -14.093335 -0.309387 139 -0.233320 0.972400 0.000000
-14.863825 -14.093505 -0.303096 147 -0.233320 0.972400 0.000000
-14.863951 -14.093614 -0.296804 149 -0.233320 0.972400 0.000000
-14.864221 -14.093880 -0.290522 139 -0.233320 0.972400 0.000000
-14.865719 -14.095297 -0.284257 129 -0.233320 0.972400 0.000000
