126
-14.885266 -13.765263 -0.666649 431 -0.533167 0.846010 0.000000
-14.885029 -13.765042 -0.660402 437 -0.533167 0.846010 0.000000
-14.884592 -13.764637 -0.654155 439 -0.533167 0.846010 0.000000
-14.884259 -13.764328 -0.647908 433 -0.533167 0.846010 0.000000
-14.884081 -13.764166 -0.641660 421 -0.533167 0.846010 0.000000
-14.882877 -13.763053 -0.635381 407 -0.533167 0.846010 0.000000
-14.882489 -13.762686 -0.629135 425 -0.533167 0.846010 0.000000
-14.883919 -13.764016 -0.622961 421 -0.533167 0.846010 0.000000
-14.883946 -13.764043 -0.616731 427 -0.533167 0.846010 0.000000
-14.882695 -13.762879 -0.610452 417 -0.533167 0.846010 0.000000
-14.884868 -13.764887 -0.604312 413 -0.533167 0.846010 0.000000
-14.885103 -13.765118 -0.598089 423 -0.533167 0.846010 0.000000
-14.884601 -13.764649 -0.591834 409 -0.533167 0.846010 0.000000
-14.883169 -13.763329 -0.585547 421 -0.533167 0.846010 0.000000
-14.881967 -13.762215 -0.579268 411 -0.533167 0.846010 0.000000
-14.884672 -13.764709 -0.573143 413 -0.533167 0.846010 0.000000
-14.885384 -13.765368 -0.566936 431 -0.533167 0.846010 0.000000
-14.884558 -13.764605 -0.560674 449 -0.533167 0.846010 0.000000
-14.885055 -13.765067 -0.554469 439 -0.533167 0.846010 0.000000
-14.883837 -13.763942 -0.548190 437 -0.533167 0.846010 0.000000
-14.882876 -13.763059 -0.541919 441 -0.533167 0.846010 0.000000
-14.882686 -13.762875 -0.535691 433 -0.533167 0.846010 0.000000
-14.881670 -13.761947 -0.529420 435 -0.533167 0.846010 0.000000
-14.880881 -13.761214 -0.523167 439 -0.533167 0.846010 0.000000
-14.880940 -13.761266 -0.516936 437 -0.533167 0.846010 0.000000
-14.881327 -13.761628 -0.510723 437 -0.533167 0.846010 0.000000
-14.880953 -13.761287 -0.504486 439 -0.533167 0.846010 0.000000
-14.880373 -13.760743 -0.498231 431 -0.533167 0.846010 0.000000
-14.881605 -13.761890 -0.492050 443 -0.533167 0.846010 0.000000
-14.881663 -13.761943 -0.485819 441 -0.533167 0.846010 0.000000
-14.881234 -13.761546 -0.479583 413 -0.533167 0.846010 0.000000
-14.882368 -13.762589 -0.473382 419 -0.533167 0.846010 0.000000
-14.883815 -13.763932 -0.467198 427 -0.533167 0.846010 0.000000
-14.883330 -13.763477 -0.460963 421 -0.533167 0.846010 0.000000
-14.880853 -13.761189 -0.454656 421 -0.533167 0.846010 0.000000
-14.880037 -13.760446 -0.448403 409 -0.533167 0.846010 0.000000
-14.879814 -13.760236 -0.442165 413 -0.533167 0.846010 0.000000
-14.879968 -13.760376 -0.435944 411 -0.533167 0.846010 0.000000
-14.879581 -13.760024 -0.429707 405 -0.533167 0.846010 0.000000
-14.880547 -13.760909 -0.423508 401 -0.533167 0.846010 0.000000
-14.881595 -13.761886 -0.417308 383 -0.533167 0.846010 0.000000
-14.880735 -13.761084 -0.411066 387 -0.533167 0.846010 0.000000
-14.879957 -13.760369 -0.404813 397 -0.533167 0.846010 0.000000
-14.880589 -13.760953 -0.398607 409 -0.533167 0.846010 0.000000
-14.879923 -13.760342 -0.392363 401 -0.533167 0.846010 0.000000
-14.879632 -13.760077 -0.386126 399 -0.533167 0.846010 0.000000
-14.878326 -13.758870 -0.379868 395 -0.533167 0.846010 0.000000
-14.877332 -13.757947 -0.373617 407 -0.533167 0.846010 0.000000
-14.880857 -13.761206 -0.367474 411 -0.533167 0.846010 0.000000
-14.880781 -13.761139 -0.361254 409 -0.533167 0.846010 0.000000
-14.878870 -13.759375 -0.354982 401 -0.533167 0.846010 0.000000
-14.877925 -13.758503 -0.348731 405 -0.533167 0.846010 0.000000
-14.878707 -13.759217 -0.342523 409 -0.533167 0.846010 0.000000
-14.879476 -13.759935 -0.336316 415 -0.533167 0.846010 0.000000
-14.881271 -13.761593 -0.330129 405 -0.533167 0.846010 0.000000
-14.881130 -13.761461 -0.323900 393 -0.533167 0.846010 0.000000
-14.878510 -13.759046 -0.317614 391 -0.533167 0.846010 0.000000
-14.878368 -13.758914 -0.311396 391 -0.533167 0.846010 0.000000
-14.877693 -13.758283 -0.305152 383 -0.533167 0.846010 0.000000
-14.877927 -13.758498 -0.298929 389 -0.533167 0.846010 0.000000
-14.878688 -13.759209 -0.292722 405 -0.533167 0.846010 0.000000
-14.876968 -13.757623 -0.286468 399 -0.533167 0.846010 0.000000
-14.876987 -13.757643 -0.280238 387 -0.533167 0.846010 0.000000
-14.918050 -13.786459 -0.667917 375 -0.533167 0.846010 0.000000
-14.916641 -13.785156 -0.661610 373 -0.533167 0.846010 0.000000
-14.916898 -13.785391 -0.655378 367 -0.533167 0.846010 0.000000
-14.917857 -13.786272 -0.649169 351 -0.533167 0.846010 0.000000
-14.918212 -13.786609 -0.642945 357 -0.533167 0.846010 0.000000
-14.917607 -13.786047 -0.636671 353 -0.533167 0.846010 0.000000
-14.916342 -13.784883 -0.630373 351 -0.533167 0.846010 0.000000
-14.915412 -13.784023 -0.624091 365 -0.533167 0.846010 0.000000
-14.916307 -13.784841 -0.617883 373 -0.533167 0.846010 0.000000
-14.917314 -13.785771 -0.611683 361 -0.533167 0.846010 0.000000
-14.917125 -13.785603 -0.605435 367 -0.533167 0.846010 0.000000
-14.916235 -13.784788 -0.599153 361 -0.533167 0.846010 0.000000
-14.915942 -13.784510 -0.592905 363 -0.533167 0.846010 0.000000
-14.916718 -13.785233 -0.586688 383 -0.533167 0.846010 0.000000
-14.917502 -13.785949 -0.580481 377 -0.533167 0.846010 0.000000
-14.916332 -13.784874 -0.574191 377 -0.533167 0.846010 0.000000
-14.915011 -13.783655 -0.567894 381 -0.533167 0.846010 0.000000
-14.914870 -13.783523 -0.561645 375 -0.533167 0.846010 0.000000
-14.915638 -13.784239 -0.555437 385 -0.533167 0.846010 0.000000
-14.915282 -13.783912 -0.549181 375 -0.533167 0.846010 0.000000
-14.914758 -13.783424 -0.542925 377 -0.533167 0.846010 0.000000
-14.914289 -13.782982 -0.536660 373 -0.533167 0.846010 0.000000
-14.913933 -13.782655 -0.530413 379 -0.533167 0.846010 0.000000
-14.913507 -13.782270 -0.524157 381 -0.533167 0.846010 0.000000
-14.914536 -13.783220 -0.517947 371 -0.533167 0.846010 0.000000
-14.915304 -13.783924 -0.511739 377 -0.533167 0.846010 0.000000
-14.915355 -13.783982 -0.505499 385 -0.533167 0.846010 0.000000
-14.913810 -13.782546 -0.499203 381 -0.533167 0.846010 0.000000
-14.913974 -13.782706 -0.492971 369 -0.533167 0.846010 0.000000
-14.916016 -13.784586 -0.486792 379 -0.533167 0.846010 0.000000
-14.915380 -13.783998 -0.480538 385 -0.533167 0.846010 0.000000
-14.913814 -13.782558 -0.474242 373 -0.533167 0.846010 0.000000
-14.912420 -13.781269 -0.467965 365 -0.533167 0.846010 0.000000
-14.911824 -13.780712 -0.461701 367 -0.533167 0.846010 0.000000
-14.912041 -13.780916 -0.455469 361 -0.533167 0.846010 0.000000
-14.913321 -13.782101 -0.449266 387 -0.533167 0.846010 0.000000
-14.914711 -13.783386 -0.443073 371 -0.533167 0.846010 0.000000
-14.913524 -13.782286 -0.436794 385 -0.533167 0.846010 0.000000
-14.912810 -13.781636 -0.430541 381 -0.533167 0.846010 0.000000
-14.914948 -13.783604 -0.424361 383 -0.533167 0.846010 0.000000
-14.914186 -13.782904 -0.418098 377 -0.533167 0.846010 0.000000
-14.911854 -13.780755 -0.411799 373 -0.533167 0.846010 0.000000
-14.911035 -13.779996 -0.405537 373 -0.533167 0.846010 0.000000
-14.911929 -13.780826 -0.399328 367 -0.533167 0.846010 0.000000
-14.912442 -13.781302 -0.393103 359 -0.533167 0.846010 0.000000
-14.912063 -13.780942 -0.386847 363 -0.533167 0.846010 0.000000
-14.911601 -13.780519 -0.380601 357 -0.533167 0.846010 0.000000
-14.911797 -13.780704 -0.374369 353 -0.533167 0.846010 0.000000
-14.911879 -13.780775 -0.368138 355 -0.533167 0.846010 0.000000
-14.911475 -13.780411 -0.361882 353 -0.533167 0.846010 0.000000
-14.909953 -13.778992 -0.355616 351 -0.533167 0.846010 0.000000
-14.909868 -13.778919 -0.349376 369 -0.533167 0.846010 0.000000
-14.910859 -13.779836 -0.343157 379 -0.533167 0.846010 0.000000
-14.911954 -13.780849 -0.336947 373 -0.533167 0.846010 0.000000
-14.911279 -13.780231 -0.330693 371 -0.533167 0.846010 0.000000
-14.910868 -13.779847 -0.324446 363 -0.533167 0.846010 0.000000
-14.911262 -13.780215 -0.318223 371 -0.533167 0.846010 0.000000
-14.911174 -13.780127 -0.311983 381 -0.533167 0.846010 0.000000
-14.911895 -13.780792 -0.305766 371 -0.533167 0.846010 0.000000
-14.912495 -13.781350 -0.299541 367 -0.533167 0.846010 0.000000
-14.911311 -13.780264 -0.293281 361 -0.533167 0.846010 0.000000
-14.909081 -13.778196 -0.287002 345 -0.533167 0.846010 0.000000
-14.910375 -13.779392 -0.280790 363 -0.533167 0.846010 0.000000
