566
-14.766907 -13.993425 -0.669679 757 0.137801 0.990460 0.000000
-14.766257 -13.992811 -0.663395 751 0.137801 0.990460 0.000000
-14.765718 -13.992299 -0.657120 737 0.137801 0.990460 0.000000
-14.765594 -13.992178 -0.650861 735 0.137801 0.990460 0.000000
-14.765478 -13.992063 -0.644602 739 0.137801 0.990460 0.000000
-14.765938 -13.992506 -0.638368 745 0.137801 0.990460 0.000000
-14.766822 -13.993335 -0.632149 729 0.137801 0.990460 0.000000
-14.767232 -13.993727 -0.625915 733 0.137801 0.990460 0.000000
-14.766309 -13.992849 -0.619624 729 0.137801 0.990460 0.000000
-14.766177 -13.992735 -0.613365 751 0.137801 0.990460 0.000000
-14.767533 -13.994014 -0.607172 735 0.137801 0.990460 0.000000
-14.766765 -13.993289 -0.600889 733 0.137801 0.990460 0.000000
-14.764618 -13.991248 -0.594549 741 0.137801 0.990460 0.000000
-14.764370 -13.991026 -0.588281 737 0.137801 0.990460 0.000000
-14.764671 -13.991302 -0.582038 737 0.137801 0.990460 0.000000
-14.764479 -13.991124 -0.575780 753 0.137801 0.990460 0.000000
-14.764182 -13.990835 -0.569523 731 0.137801 0.990460 0.000000
-14.765263 -13.991863 -0.563312 757 0.137801 0.990460 0.000000
-14.766343 -13.992891 -0.557102 779 0.137801 0.990460 0.000000
-14.765984 -13.992553 -0.550835 755 0.137801 0.990460 0.000000
-14.766271 -13.992817 -0.544592 751 0.137801 0.990460 0.000000
-14.765800 -13.992374 -0.538327 747 0.137801 0.990460 0.000000
-14.764498 -13.991138 -0.532029 757 0.137801 0.990460 0.000000
-14.764501 -13.991145 -0.525779 743 0.137801 0.990460 0.000000
-14.764086 -13.990747 -0.519512 749 0.137801 0.990460 0.000000
-14.764461 -13.991109 -0.513269 735 0.137801 0.990460 0.000000
-14.766382 -13.992926 -0.507091 747 0.137801 0.990460 0.000000
-14.766392 -13.992939 -0.500840 767 0.137801 0.990460 0.000000
-14.765340 -13.991932 -0.494550 757 0.137801 0.990460 0.000000
-14.763739 -13.990426 -0.488245 749 0.137801 0.990460 0.000000
-14.763850 -13.990521 -0.482004 749 0.137801 0.990460 0.000000
-14.764594 -13.991236 -0.475777 757 0.137801 0.990460 0.000000
-14.766295 -13.992849 -0.469580 757 0.137801 0.990460 0.000000
-14.767674 -13.994145 -0.463367 765 0.137801 0.990460 0.000000
-14.764588 -13.991227 -0.450776 737 0.137801 0.990460 0.000000
-14.764528 -13.991170 -0.444527 737 0.137801 0.990460 0.000000
-14.765002 -13.991613 -0.438292 751 0.137801 0.990460 0.000000
-14.764087 -13.990756 -0.432010 747 0.137801 0.990460 0.000000
-14.764663 -13.991296 -0.425775 747 0.137801 0.990460 0.000000
-14.765287 -13.991888 -0.419549 757 0.137801 0.990460 0.000000
-14.765642 -13.992221 -0.413305 749 0.137801 0.990460 0.000000
-14.764829 -13.991460 -0.407033 717 0.137801 0.990460 0.000000
-14.764501 -13.991146 -0.400776 749 0.137801 0.990460 0.000000
-14.764315 -13.990973 -0.394527 733 0.137801 0.990460 0.000000
-14.764083 -13.990751 -0.388269 737 0.137801 0.990460 0.000000
-14.764377 -13.991035 -0.382026 753 0.137801 0.990460 0.000000
-14.763837 -13.990522 -0.375761 753 0.137801 0.990460 0.000000
-14.763916 -13.990593 -0.369521 743 0.137801 0.990460 0.000000
-14.765272 -13.991870 -0.363308 735 0.137801 0.990460 0.000000
-14.766520 -13.993059 -0.357086 745 0.137801 0.990460 0.000000
-14.765586 -13.992175 -0.350814 745 0.137801 0.990460 0.000000
-14.764447 -13.991097 -0.344535 729 0.137801 0.990460 0.000000
-14.764939 -13.991569 -0.338300 729 0.137801 0.990460 0.000000
-14.764759 -13.991387 -0.332052 691 0.137801 0.990460 0.000000
-14.763984 -13.990658 -0.325789 695 0.137801 0.990460 0.000000
-14.764537 -13.991179 -0.319544 725 0.137801 0.990460 0.000000
-14.764012 -13.990679 -0.313288 711 0.137801 0.990460 0.000000
-14.763661 -13.990346 -0.307032 695 0.137801 0.990460 0.000000
-14.764199 -13.990868 -0.300796 707 0.137801 0.990460 0.000000
-14.763848 -13.990535 -0.294539 691 0.137801 0.990460 0.000000
-14.763324 -13.990035 -0.288284 683 0.137801 0.990460 0.000000
-14.762328 -13.989086 -0.282023 693 0.137801 0.990460 0.000000
-14.773087 -13.990722 -0.669774 755 0.137801 0.990460 0.000000
-14.773238 -13.990864 -0.663523 753 0.137801 0.990460 0.000000
-14.774665 -13.992212 -0.657329 741 0.137801 0.990460 0.000000
-14.774377 -13.991944 -0.651062 751 0.137801 0.990460 0.000000
-14.774103 -13.991674 -0.644794 717 0.137801 0.990460 0.000000
-14.774201 -13.991774 -0.638543 729 0.137801 0.990460 0.000000
-14.774386 -13.991954 -0.632301 743 0.137801 0.990460 0.000000
-14.773515 -13.991120 -0.626009 743 0.137801 0.990460 0.000000
-14.773177 -13.990799 -0.619732 741 0.137801 0.990460 0.000000
-14.773270 -13.990891 -0.613481 741 0.137801 0.990460 0.000000
-14.774733 -13.992270 -0.607287 739 0.137801 0.990460 0.000000
-14.775131 -13.992652 -0.601053 725 0.137801 0.990460 0.000000
-14.773402 -13.991016 -0.594729 737 0.137801 0.990460 0.000000
-14.774546 -13.992095 -0.588519 733 0.137801 0.990460 0.000000
-14.774942 -13.992476 -0.582285 745 0.137801 0.990460 0.000000
-14.773475 -13.991091 -0.575968 753 0.137801 0.990460 0.000000
-14.772486 -13.990148 -0.569678 737 0.137801 0.990460 0.000000
-14.772300 -13.989976 -0.563419 761 0.137801 0.990460 0.000000
-14.772954 -13.990592 -0.557193 759 0.137801 0.990460 0.000000
-14.773500 -13.991107 -0.550958 763 0.137801 0.990460 0.000000
-14.773463 -13.991068 -0.544708 751 0.137801 0.990460 0.000000
-14.773104 -13.990729 -0.538441 747 0.137801 0.990460 0.000000
-14.771787 -13.989493 -0.532133 733 0.137801 0.990460 0.000000
-14.771323 -13.989043 -0.525868 749 0.137801 0.990460 0.000000
-14.772397 -13.990066 -0.519657 747 0.137801 0.990460 0.000000
-14.772723 -13.990375 -0.513414 759 0.137801 0.990460 0.000000
-14.772144 -13.989831 -0.507139 763 0.137801 0.990460 0.000000
-14.772894 -13.990538 -0.500912 777 0.137801 0.990460 0.000000
-14.772526 -13.990191 -0.494655 785 0.137801 0.990460 0.000000
-14.773228 -13.990847 -0.488419 769 0.137801 0.990460 0.000000
-14.773594 -13.991200 -0.482185 773 0.137801 0.990460 0.000000
-14.772164 -13.989847 -0.475888 771 0.137801 0.990460 0.000000
-14.773441 -13.991048 -0.469676 761 0.137801 0.990460 0.000000
-14.773225 -13.990851 -0.463418 747 0.137801 0.990460 0.000000
-14.770938 -13.988684 -0.457089 743 0.137801 0.990460 0.000000
-14.771460 -13.989178 -0.450854 747 0.137801 0.990460 0.000000
-14.772037 -13.989731 -0.444629 729 0.137801 0.990460 0.000000
-14.772723 -13.990373 -0.438392 743 0.137801 0.990460 0.000000
-14.773349 -13.990965 -0.432156 751 0.137801 0.990460 0.000000
-14.772123 -13.989804 -0.425878 751 0.137801 0.990460 0.000000
-14.771575 -13.989285 -0.419613 741 0.137801 0.990460 0.000000
-14.771617 -13.989325 -0.413362 743 0.137801 0.990460 0.000000
-14.772029 -13.989717 -0.407118 731 0.137801 0.990460 0.000000
-14.772598 -13.990251 -0.400883 753 0.137801 0.990460 0.000000
-14.772632 -13.990283 -0.394632 731 0.137801 0.990460 0.000000
-14.773407 -13.991023 -0.388405 735 0.137801 0.990460 0.000000
-14.772859 -13.990504 -0.382140 735 0.137801 0.990460 0.000000
-14.771612 -13.989326 -0.375861 755 0.137801 0.990460 0.000000
-14.771219 -13.988946 -0.369595 733 0.137801 0.990460 0.000000
-14.772356 -13.990032 -0.363374 733 0.137801 0.990460 0.000000
-14.772808 -13.990458 -0.357139 769 0.137801 0.990460 0.000000
-14.772314 -13.989983 -0.350874 751 0.137801 0.990460 0.000000
-14.771697 -13.989408 -0.344610 731 0.137801 0.990460 0.000000
-14.771338 -13.989068 -0.338353 723 0.137801 0.990460 0.000000
-14.772110 -13.989794 -0.332126 709 0.137801 0.990460 0.000000
-14.770641 -13.988408 -0.325839 695 0.137801 0.990460 0.000000
-14.770345 -13.988120 -0.319582 705 0.137801 0.990460 0.000000
-14.772803 -13.990453 -0.313388 715 0.137801 0.990460 0.000000
-14.772713 -13.990371 -0.307139 697 0.137801 0.990460 0.000000
-14.772619 -13.990273 -0.300880 689 0.137801 0.990460 0.000000
-14.772527 -13.990191 -0.294631 697 0.137801 0.990460 0.000000
-14.771422 -13.989141 -0.288361 703 0.137801 0.990460 0.000000
-14.771481 -13.989206 -0.282110 677 0.137801 0.990460 0.000000
-14.782022 -13.990445 -0.669984 757 0.137801 0.990460 0.000000
-14.781954 -13.990383 -0.663724 757 0.137801 0.990460 0.000000
-14.782420 -13.990819 -0.657480 769 0.137801 0.990460 0.000000
-14.782564 -13.990955 -0.651238 739 0.137801 0.990460 0.000000
-14.783088 -13.991451 -0.645003 735 0.137801 0.990460 0.000000
-14.782745 -13.991138 -0.638726 729 0.137801 0.990460 0.000000
-14.782251 -13.990664 -0.632451 733 0.137801 0.990460 0.000000
-14.783088 -13.991454 -0.626233 751 0.137801 0.990460 0.000000
-14.783438 -13.991782 -0.619989 747 0.137801 0.990460 0.000000
-14.783792 -13.992116 -0.613746 753 0.137801 0.990460 0.000000
-14.781853 -13.990282 -0.607404 735 0.137801 0.990460 0.000000
-14.780551 -13.989058 -0.601096 741 0.137801 0.990460 0.000000
-14.781158 -13.989623 -0.594870 747 0.137801 0.990460 0.000000
-14.781508 -13.989965 -0.588627 725 0.137801 0.990460 0.000000
-14.781849 -13.990287 -0.582384 733 0.137801 0.990460 0.000000
-14.781340 -13.989799 -0.576108 743 0.137801 0.990460 0.000000
-14.781579 -13.990026 -0.569866 743 0.137801 0.990460 0.000000
-14.782439 -13.990849 -0.563648 743 0.137801 0.990460 0.000000
-14.781986 -13.990420 -0.557372 735 0.137801 0.990460 0.000000
-14.782051 -13.990479 -0.551121 735 0.137801 0.990460 0.000000
-14.782336 -13.990741 -0.544868 739 0.137801 0.990460 0.000000
-14.781820 -13.990262 -0.538603 749 0.137801 0.990460 0.000000
-14.780981 -13.989467 -0.532310 753 0.137801 0.990460 0.000000
-14.781102 -13.989583 -0.526069 745 0.137801 0.990460 0.000000
-14.780688 -13.989187 -0.519793 753 0.137801 0.990460 0.000000
-14.780375 -13.988885 -0.513536 761 0.137801 0.990460 0.000000
-14.781181 -13.989651 -0.507308 745 0.137801 0.990460 0.000000
-14.781403 -13.989862 -0.501056 749 0.137801 0.990460 0.000000
-14.781194 -13.989657 -0.494798 777 0.137801 0.990460 0.000000
-14.781095 -13.989570 -0.488538 759 0.137801 0.990460 0.000000
-14.780240 -13.988763 -0.482256 757 0.137801 0.990460 0.000000
-14.780400 -13.988911 -0.476015 745 0.137801 0.990460 0.000000
-14.781150 -13.989617 -0.469787 747 0.137801 0.990460 0.000000
-14.780508 -13.989009 -0.463513 745 0.137801 0.990460 0.000000
-14.779858 -13.988407 -0.457239 751 0.137801 0.990460 0.000000
-14.780285 -13.988798 -0.450995 757 0.137801 0.990460 0.000000
-14.780972 -13.989454 -0.444769 755 0.137801 0.990460 0.000000
-14.780063 -13.988589 -0.438487 725 0.137801 0.990460 0.000000
-14.780096 -13.988623 -0.432237 739 0.137801 0.990460 0.000000
-14.780565 -13.989074 -0.425992 753 0.137801 0.990460 0.000000
-14.779489 -13.988047 -0.419712 737 0.137801 0.990460 0.000000
-14.779846 -13.988396 -0.413468 733 0.137801 0.990460 0.000000
-14.779573 -13.988126 -0.407211 725 0.137801 0.990460 0.000000
-14.779450 -13.988018 -0.400952 731 0.137801 0.990460 0.000000
-14.780649 -13.989156 -0.394740 747 0.137801 0.990460 0.000000
-14.781588 -13.990042 -0.388511 761 0.137801 0.990460 0.000000
-14.780128 -13.988664 -0.382215 743 0.137801 0.990460 0.000000
-14.779854 -13.988394 -0.375957 721 0.137801 0.990460 0.000000
-14.780464 -13.988973 -0.369722 731 0.137801 0.990460 0.000000
-14.779963 -13.988505 -0.363456 733 0.137801 0.990460 0.000000
-14.780044 -13.988577 -0.357205 751 0.137801 0.990460 0.000000
-14.780495 -13.989001 -0.350971 747 0.137801 0.990460 0.000000
-14.781465 -13.989926 -0.344742 745 0.137801 0.990460 0.000000
-14.782184 -13.990608 -0.338505 731 0.137801 0.990460 0.000000
-14.782045 -13.990475 -0.332246 713 0.137801 0.990460 0.000000
-14.780577 -13.989076 -0.325969 703 0.137801 0.990460 0.000000
-14.779377 -13.987948 -0.319691 697 0.137801 0.990460 0.000000
-14.779497 -13.988065 -0.313439 683 0.137801 0.990460 0.000000
-14.779838 -13.988386 -0.307196 711 0.137801 0.990460 0.000000
-14.779471 -13.988041 -0.300939 703 0.137801 0.990460 0.000000
-14.779497 -13.988054 -0.294689 699 0.137801 0.990460 0.000000
-14.779767 -13.988318 -0.288446 693 0.137801 0.990460 0.000000
-14.779881 -13.988429 -0.282195 687 0.137801 0.990460 0.000000
-14.789324 -13.988786 -0.670118 727 0.137801 0.990460 0.000000
-14.790058 -13.989481 -0.663891 729 0.137801 0.990460 0.000000
-14.790841 -13.990227 -0.657674 749 0.137801 0.990460 0.000000
-14.789978 -13.989412 -0.651372 743 0.137801 0.990460 0.000000
-14.789430 -13.988894 -0.645097 737 0.137801 0.990460 0.000000
-14.790054 -13.989486 -0.638861 725 0.137801 0.990460 0.000000
-14.789128 -13.988606 -0.632559 735 0.137801 0.990460 0.000000
-14.789746 -13.989192 -0.626333 743 0.137801 0.990460 0.000000
-14.791534 -13.990887 -0.620146 737 0.137801 0.990460 0.000000
-14.791087 -13.990464 -0.613870 723 0.137801 0.990460 0.000000
-14.790956 -13.990336 -0.607611 755 0.137801 0.990460 0.000000
-14.790882 -13.990268 -0.601352 741 0.137801 0.990460 0.000000
-14.790325 -13.989742 -0.595067 711 0.137801 0.990460 0.000000
-14.790453 -13.989865 -0.588816 729 0.137801 0.990460 0.000000
-14.790747 -13.990135 -0.582573 745 0.137801 0.990460 0.000000
-14.790725 -13.990109 -0.576313 735 0.137801 0.990460 0.000000
-14.790477 -13.989873 -0.570045 725 0.137801 0.990460 0.000000
-14.789742 -13.989189 -0.563762 731 0.137801 0.990460 0.000000
-14.789553 -13.989002 -0.557493 727 0.137801 0.990460 0.000000
-14.789148 -13.988626 -0.551227 729 0.137801 0.990460 0.000000
-14.788789 -13.988287 -0.544960 741 0.137801 0.990460 0.000000
-14.789391 -13.988859 -0.538725 737 0.137801 0.990460 0.000000
-14.790510 -13.989920 -0.532504 727 0.137801 0.990460 0.000000
-14.790638 -13.990028 -0.526253 753 0.137801 0.990460 0.000000
-14.789374 -13.988836 -0.519954 749 0.137801 0.990460 0.000000
-14.788953 -13.988446 -0.513688 741 0.137801 0.990460 0.000000
-14.790033 -13.989461 -0.507468 745 0.137801 0.990460 0.000000
-14.790192 -13.989609 -0.501216 761 0.137801 0.990460 0.000000
-14.789291 -13.988764 -0.494924 739 0.137801 0.990460 0.000000
-14.788342 -13.987865 -0.488643 731 0.137801 0.990460 0.000000
-14.789243 -13.988722 -0.482415 729 0.137801 0.990460 0.000000
-14.790574 -13.989980 -0.476202 745 0.137801 0.990460 0.000000
-14.789932 -13.989371 -0.469928 749 0.137801 0.990460 0.000000
-14.788770 -13.988261 -0.463639 743 0.137801 0.990460 0.000000
-14.788120 -13.987659 -0.457365 737 0.137801 0.990460 0.000000
-14.787956 -13.987494 -0.451106 733 0.137801 0.990460 0.000000
-14.788110 -13.987649 -0.444854 733 0.137801 0.990460 0.000000
-14.789489 -13.988945 -0.438641 723 0.137801 0.990460 0.000000
-14.789050 -13.988528 -0.432375 719 0.137801 0.990460 0.000000
-14.788134 -13.987671 -0.426094 725 0.137801 0.990460 0.000000
-14.788443 -13.987953 -0.419851 717 0.137801 0.990460 0.000000
-14.788800 -13.988301 -0.413607 729 0.137801 0.990460 0.000000
-14.787936 -13.987473 -0.407325 733 0.137801 0.990460 0.000000
-14.787601 -13.987167 -0.401068 739 0.137801 0.990460 0.000000
-14.788862 -13.988356 -0.394846 743 0.137801 0.990460 0.000000
-14.788953 -13.988446 -0.388595 745 0.137801 0.990460 0.000000
-14.788192 -13.987716 -0.382322 735 0.137801 0.990460 0.000000
-14.789493 -13.988948 -0.376100 727 0.137801 0.990460 0.000000
-14.789205 -13.988681 -0.369842 739 0.137801 0.990460 0.000000
-14.787909 -13.987450 -0.363554 721 0.137801 0.990460 0.000000
-14.787826 -13.987373 -0.357295 729 0.137801 0.990460 0.000000
-14.787529 -13.987099 -0.351038 729 0.137801 0.990460 0.000000
-14.788241 -13.987774 -0.344801 725 0.137801 0.990460 0.000000
-14.789171 -13.988654 -0.338572 701 0.137801 0.990460 0.000000
-14.789087 -13.988564 -0.332313 703 0.137801 0.990460 0.000000
-14.788098 -13.987635 -0.326042 705 0.137801 0.990460 0.000000
-14.787961 -13.987502 -0.319783 697 0.137801 0.990460 0.000000
-14.788513 -13.988022 -0.313548 679 0.137801 0.990460 0.000000
-14.787619 -13.987183 -0.307276 691 0.137801 0.990460 0.000000
-14.787528 -13.987101 -0.301016 683 0.137801 0.990460 0.000000
-14.788340 -13.987858 -0.294779 709 0.137801 0.990460 0.000000
-14.788139 -13.987674 -0.288530 703 0.137801 0.990460 0.000000
-14.787663 -13.987226 -0.282265 701 0.137801 0.990460 0.000000
-14.798039 -13.988305 -0.670320 725 0.137801 0.990460 0.000000
-14.797334 -13.987645 -0.664026 731 0.137801 0.990460 0.000000
-14.797850 -13.988135 -0.657791 731 0.137801 0.990460 0.000000
-14.799118 -13.989328 -0.651589 729 0.137801 0.990460 0.000000
-14.798029 -13.988303 -0.645280 715 0.137801 0.990460 0.000000
-14.798132 -13.988393 -0.639028 747 0.137801 0.990460 0.000000
-14.798639 -13.988875 -0.632784 757 0.137801 0.990460 0.000000
-14.798248 -13.988511 -0.626507 751 0.137801 0.990460 0.000000
-14.798494 -13.988743 -0.620265 733 0.137801 0.990460 0.000000
-14.797995 -13.988263 -0.613979 717 0.137801 0.990460 0.000000
-14.797392 -13.987700 -0.607695 725 0.137801 0.990460 0.000000
-14.797739 -13.988028 -0.601451 743 0.137801 0.990460 0.000000
-14.797602 -13.987894 -0.595192 719 0.137801 0.990460 0.000000
-14.797957 -13.988229 -0.588949 723 0.137801 0.990460 0.000000
-14.798456 -13.988704 -0.582704 719 0.137801 0.990460 0.000000
-14.797460 -13.987769 -0.576403 729 0.137801 0.990460 0.000000
-14.797108 -13.987435 -0.570136 731 0.137801 0.990460 0.000000
-14.797300 -13.987610 -0.563884 735 0.137801 0.990460 0.000000
-14.797734 -13.988021 -0.557640 719 0.137801 0.990460 0.000000
-14.798077 -13.988343 -0.551397 735 0.137801 0.990460 0.000000
-14.797819 -13.988100 -0.545129 741 0.137801 0.990460 0.000000
-14.797043 -13.987370 -0.538846 729 0.137801 0.990460 0.000000
-14.797479 -13.987782 -0.532602 749 0.137801 0.990460 0.000000
-14.797873 -13.988148 -0.526358 749 0.137801 0.990460 0.000000
-14.797769 -13.988053 -0.520099 721 0.137801 0.990460 0.000000
-14.798414 -13.988664 -0.513863 721 0.137801 0.990460 0.000000
-14.798789 -13.989025 -0.507619 745 0.137801 0.990460 0.000000
-14.798373 -13.988627 -0.501343 749 0.137801 0.990460 0.000000
-14.797684 -13.987981 -0.495069 741 0.137801 0.990460 0.000000
-14.797112 -13.987429 -0.488795 729 0.137801 0.990460 0.000000
-14.796785 -13.987128 -0.482527 741 0.137801 0.990460 0.000000
-14.795993 -13.986372 -0.476245 735 0.137801 0.990460 0.000000
-14.796790 -13.987129 -0.470007 745 0.137801 0.990460 0.000000
-14.797375 -13.987677 -0.463771 743 0.137801 0.990460 0.000000
-14.797150 -13.987473 -0.457513 749 0.137801 0.990460 0.000000
-14.797261 -13.987570 -0.451252 739 0.137801 0.990460 0.000000
-14.797202 -13.987513 -0.445003 733 0.137801 0.990460 0.000000
-14.797040 -13.987359 -0.438734 737 0.137801 0.990460 0.000000
-14.797286 -13.987592 -0.432492 733 0.137801 0.990460 0.000000
-14.797604 -13.987895 -0.426238 733 0.137801 0.990460 0.000000
-14.797214 -13.987530 -0.419972 721 0.137801 0.990460 0.000000
-14.796877 -13.987208 -0.413715 731 0.137801 0.990460 0.000000
-14.796276 -13.986647 -0.407440 713 0.137801 0.990460 0.000000
-14.796318 -13.986686 -0.401180 729 0.137801 0.990460 0.000000
-14.797044 -13.987374 -0.394953 727 0.137801 0.990460 0.000000
-14.797456 -13.987753 -0.388709 721 0.137801 0.990460 0.000000
-14.795460 -13.985873 -0.382398 715 0.137801 0.990460 0.000000
-14.795760 -13.986149 -0.376155 731 0.137801 0.990460 0.000000
-14.796535 -13.986889 -0.369917 733 0.137801 0.990460 0.000000
-14.795822 -13.986210 -0.363644 707 0.137801 0.990460 0.000000
-14.796699 -13.987045 -0.357405 711 0.137801 0.990460 0.000000
-14.797793 -13.988072 -0.351185 731 0.137801 0.990460 0.000000
-14.797758 -13.988049 -0.344925 729 0.137801 0.990460 0.000000
-14.795392 -13.985803 -0.338617 693 0.137801 0.990460 0.000000
-14.794930 -13.985368 -0.332351 687 0.137801 0.990460 0.000000
-14.796444 -13.986799 -0.326127 665 0.137801 0.990460 0.000000
-14.795872 -13.986261 -0.319862 681 0.137801 0.990460 0.000000
-14.796427 -13.986782 -0.313617 677 0.137801 0.990460 0.000000
-14.797295 -13.987613 -0.307389 685 0.137801 0.990460 0.000000
-14.797304 -13.987613 -0.301128 705 0.137801 0.990460 0.000000
-14.796631 -13.986979 -0.294865 677 0.137801 0.990460 0.000000
-14.795681 -13.986080 -0.288593 671 0.137801 0.990460 0.000000
-14.796550 -13.986897 -0.282355 679 0.137801 0.990460 0.000000
-14.807318 -13.988180 -0.670547 727 0.137801 0.990460 0.000000
-14.806406 -13.987312 -0.664236 735 0.137801 0.990460 0.000000
-14.804899 -13.985896 -0.657910 737 0.137801 0.990460 0.000000
-14.805737 -13.986687 -0.651692 733 0.137801 0.990460 0.000000
-14.806842 -13.987734 -0.645471 727 0.137801 0.990460 0.000000
-14.806669 -13.987560 -0.639203 727 0.137801 0.990460 0.000000
-14.806169 -13.987093 -0.632917 725 0.137801 0.990460 0.000000
-14.805724 -13.986671 -0.626641 749 0.137801 0.990460 0.000000
-14.805326 -13.986300 -0.620365 719 0.137801 0.990460 0.000000
-14.805360 -13.986334 -0.614105 717 0.137801 0.990460 0.000000
-14.805975 -13.986904 -0.607869 707 0.137801 0.990460 0.000000
-14.805577 -13.986534 -0.601592 725 0.137801 0.990460 0.000000
-14.804699 -13.985708 -0.595300 707 0.137801 0.990460 0.000000
-14.804356 -13.985380 -0.589023 719 0.137801 0.990460 0.000000
-14.804381 -13.985407 -0.582763 707 0.137801 0.990460 0.000000
-14.804565 -13.985574 -0.576511 721 0.137801 0.990460 0.000000
-14.804536 -13.985542 -0.570251 731 0.137801 0.990460 0.000000
-14.805185 -13.986168 -0.564015 733 0.137801 0.990460 0.000000
-14.806272 -13.987188 -0.557805 731 0.137801 0.990460 0.000000
-14.805276 -13.986253 -0.551504 739 0.137801 0.990460 0.000000
-14.805028 -13.986016 -0.545236 715 0.137801 0.990460 0.000000
-14.806163 -13.987089 -0.539015 717 0.137801 0.990460 0.000000
-14.805646 -13.986595 -0.532740 731 0.137801 0.990460 0.000000
-14.806026 -13.986962 -0.526496 737 0.137801 0.990460 0.000000
-14.805668 -13.986624 -0.520219 717 0.137801 0.990460 0.000000
-14.804986 -13.985970 -0.513936 735 0.137801 0.990460 0.000000
-14.805839 -13.986787 -0.507708 735 0.137801 0.990460 0.000000
-14.805377 -13.986337 -0.501432 729 0.137801 0.990460 0.000000
-14.805429 -13.986397 -0.495181 725 0.137801 0.990460 0.000000
-14.806231 -13.987147 -0.488943 745 0.137801 0.990460 0.000000
-14.805645 -13.986597 -0.482669 747 0.137801 0.990460 0.000000
-14.803837 -13.984883 -0.476356 745 0.137801 0.990460 0.000000
-14.802937 -13.984039 -0.470064 737 0.137801 0.990460 0.000000
-14.803890 -13.984937 -0.463845 737 0.137801 0.990460 0.000000
-14.804263 -13.985285 -0.457591 723 0.137801 0.990460 0.000000
-14.804471 -13.985485 -0.451349 737 0.137801 0.990460 0.000000
-14.803608 -13.984672 -0.445057 721 0.137801 0.990460 0.000000
-14.803391 -13.984460 -0.438799 699 0.137801 0.990460 0.000000
-14.803919 -13.984961 -0.432554 715 0.137801 0.990460 0.000000
-14.802996 -13.984097 -0.426272 705 0.137801 0.990460 0.000000
-14.803352 -13.984432 -0.420029 719 0.137801 0.990460 0.000000
-14.804354 -13.985382 -0.413799 719 0.137801 0.990460 0.000000
-14.804019 -13.985063 -0.407532 729 0.137801 0.990460 0.000000
-14.803840 -13.984897 -0.401274 739 0.137801 0.990460 0.000000
-14.804149 -13.985179 -0.395021 721 0.137801 0.990460 0.000000
-14.804130 -13.985168 -0.388761 729 0.137801 0.990460 0.000000
-14.804264 -13.985297 -0.382509 719 0.137801 0.990460 0.000000
-14.804936 -13.985928 -0.376273 723 0.137801 0.990460 0.000000
-14.804112 -13.985145 -0.370001 717 0.137801 0.990460 0.000000
-14.803722 -13.984780 -0.363734 705 0.137801 0.990460 0.000000
-14.803488 -13.984556 -0.357466 709 0.137801 0.990460 0.000000
-14.803398 -13.984475 -0.351207 725 0.137801 0.990460 0.000000
-14.803958 -13.985001 -0.344971 697 0.137801 0.990460 0.000000
-14.803820 -13.984868 -0.338713 681 0.137801 0.990460 0.000000
-14.804579 -13.985595 -0.332475 687 0.137801 0.990460 0.000000
-14.805037 -13.986025 -0.326221 701 0.137801 0.990460 0.000000
-14.805158 -13.986141 -0.319970 671 0.137801 0.990460 0.000000
-14.805499 -13.986464 -0.313726 683 0.137801 0.990460 0.000000
-14.804393 -13.985412 -0.307447 691 0.137801 0.990460 0.000000
-14.803397 -13.984476 -0.301166 679 0.137801 0.990460 0.000000
-14.804051 -13.985093 -0.294929 685 0.137801 0.990460 0.000000
-14.804439 -13.985452 -0.288676 681 0.137801 0.990460 0.000000
-14.804018 -13.985064 -0.282409 687 0.137801 0.990460 0.000000
-14.813215 -13.985013 -0.670616 715 0.137801 0.990460 0.000000
-14.814476 -13.986215 -0.664414 741 0.137801 0.990460 0.000000
-14.815108 -13.986814 -0.658178 727 0.137801 0.990460 0.000000
-14.815628 -13.987294 -0.651933 735 0.137801 0.990460 0.000000
-14.815397 -13.987084 -0.645665 715 0.137801 0.990460 0.000000
-14.814432 -13.986160 -0.639354 717 0.137801 0.990460 0.000000
-14.814151 -13.985897 -0.633076 717 0.137801 0.990460 0.000000
-14.814548 -13.986279 -0.626832 715 0.137801 0.990460 0.000000
-14.813999 -13.985759 -0.620547 701 0.137801 0.990460 0.000000
-14.813492 -13.985287 -0.614262 711 0.137801 0.990460 0.000000
-14.813148 -13.984960 -0.607985 705 0.137801 0.990460 0.000000
-14.813182 -13.984992 -0.601725 705 0.137801 0.990460 0.000000
-14.814539 -13.986271 -0.595522 709 0.137801 0.990460 0.000000
-14.815042 -13.986738 -0.589277 707 0.137801 0.990460 0.000000
-14.815542 -13.987215 -0.583042 729 0.137801 0.990460 0.000000
-14.815732 -13.987389 -0.576780 723 0.137801 0.990460 0.000000
-14.814211 -13.985960 -0.570464 733 0.137801 0.990460 0.000000
-14.812899 -13.984715 -0.564146 723 0.137801 0.990460 0.000000
-14.812974 -13.984794 -0.557895 735 0.137801 0.990460 0.000000
-14.812504 -13.984352 -0.551610 739 0.137801 0.990460 0.000000
-14.813010 -13.984820 -0.545375 713 0.137801 0.990460 0.000000
-14.814560 -13.986284 -0.539170 705 0.137801 0.990460 0.000000
-14.814423 -13.986151 -0.532901 705 0.137801 0.990460 0.000000
-14.814112 -13.985864 -0.526634 721 0.137801 0.990460 0.000000
-14.814012 -13.985774 -0.520365 713 0.137801 0.990460 0.000000
-14.813377 -13.985171 -0.514081 709 0.137801 0.990460 0.000000
-14.813128 -13.984936 -0.507813 713 0.137801 0.990460 0.000000
-14.813186 -13.984987 -0.501552 713 0.137801 0.990460 0.000000
-14.812497 -13.984341 -0.495279 697 0.137801 0.990460 0.000000
-14.812241 -13.984098 -0.489001 719 0.137801 0.990460 0.000000
-14.812926 -13.984739 -0.482764 725 0.137801 0.990460 0.000000
-14.813142 -13.984947 -0.476512 729 0.137801 0.990460 0.000000
-14.812923 -13.984749 -0.470254 713 0.137801 0.990460 0.000000
-14.813305 -13.985103 -0.464000 711 0.137801 0.990460 0.000000
-14.813566 -13.985348 -0.457748 705 0.137801 0.990460 0.000000
-14.814247 -13.985997 -0.451511 715 0.137801 0.990460 0.000000
-14.813495 -13.985287 -0.445228 725 0.137801 0.990460 0.000000
-14.811365 -13.983273 -0.438908 687 0.137801 0.990460 0.000000
-14.811195 -13.983112 -0.432649 693 0.137801 0.990460 0.000000
-14.811771 -13.983652 -0.426404 719 0.137801 0.990460 0.000000
-14.812664 -13.984501 -0.420165 721 0.137801 0.990460 0.000000
-14.813979 -13.985733 -0.413953 709 0.137801 0.990460 0.000000
-14.813015 -13.984823 -0.407662 727 0.137801 0.990460 0.000000
-14.812034 -13.983900 -0.401381 707 0.137801 0.990460 0.000000
-14.812015 -13.983890 -0.395121 705 0.137801 0.990460 0.000000
-14.812046 -13.983908 -0.388860 711 0.137801 0.990460 0.000000
-14.812609 -13.984448 -0.382615 723 0.137801 0.990460 0.000000
-14.812534 -13.984380 -0.376355 707 0.137801 0.990460 0.000000
-14.812464 -13.984302 -0.370096 699 0.137801 0.990460 0.000000
-14.812121 -13.983990 -0.363829 711 0.137801 0.990460 0.000000
-14.812729 -13.984554 -0.357593 701 0.137801 0.990460 0.000000
-14.812764 -13.984589 -0.351333 701 0.137801 0.990460 0.000000
-14.811445 -13.983351 -0.345045 699 0.137801 0.990460 0.000000
-14.811793 -13.983679 -0.338791 699 0.137801 0.990460 0.000000
-14.812291 -13.984141 -0.332547 683 0.137801 0.990460 0.000000
-14.811626 -13.983513 -0.326273 675 0.137801 0.990460 0.000000
-14.811213 -13.983130 -0.320006 663 0.137801 0.990460 0.000000
-14.811287 -13.983195 -0.313756 669 0.137801 0.990460 0.000000
-14.811359 -13.983259 -0.307505 667 0.137801 0.990460 0.000000
-14.811369 -13.983273 -0.301245 687 0.137801 0.990460 0.000000
-14.811389 -13.983294 -0.294984 683 0.137801 0.990460 0.000000
-14.811076 -13.982993 -0.288727 661 0.137801 0.990460 0.000000
-14.811622 -13.983507 -0.282482 659 0.137801 0.990460 0.000000
-14.823609 -13.985940 -0.670893 725 0.137801 0.990460 0.000000
-14.823604 -13.985928 -0.664623 711 0.137801 0.990460 0.000000
-14.824063 -13.986371 -0.658378 717 0.137801 0.990460 0.000000
-14.823624 -13.985954 -0.652092 723 0.137801 0.990460 0.000000
-14.823195 -13.985544 -0.645806 697 0.137801 0.990460 0.000000
-14.824077 -13.986373 -0.639578 693 0.137801 0.990460 0.000000
-14.823634 -13.985964 -0.633302 689 0.137801 0.990460 0.000000
-14.822763 -13.985144 -0.627000 677 0.137801 0.990460 0.000000
-14.821837 -13.984265 -0.620698 685 0.137801 0.990460 0.000000
-14.821021 -13.983490 -0.614396 681 0.137801 0.990460 0.000000
-14.820891 -13.983377 -0.608127 677 0.137801 0.990460 0.000000
-14.821555 -13.983999 -0.601891 719 0.137801 0.990460 0.000000
-14.822164 -13.984577 -0.595655 719 0.137801 0.990460 0.000000
-14.822778 -13.985148 -0.589419 705 0.137801 0.990460 0.000000
-14.823175 -13.985529 -0.583165 713 0.137801 0.990460 0.000000
-14.822454 -13.984843 -0.576872 701 0.137801 0.990460 0.000000
-14.822692 -13.985069 -0.570619 727 0.137801 0.990460 0.000000
-14.822711 -13.985088 -0.564359 719 0.137801 0.990460 0.000000
-14.822407 -13.984808 -0.558081 719 0.137801 0.990460 0.000000
-14.822109 -13.984519 -0.551814 709 0.137801 0.990460 0.000000
-14.821436 -13.983885 -0.545520 705 0.137801 0.990460 0.000000
-14.821981 -13.984399 -0.539275 707 0.137801 0.990460 0.000000
-14.821569 -13.984016 -0.532999 685 0.137801 0.990460 0.000000
-14.821414 -13.983869 -0.526730 689 0.137801 0.990460 0.000000
-14.822926 -13.985289 -0.520526 693 0.137801 0.990460 0.000000
-14.823409 -13.985751 -0.514281 709 0.137801 0.990460 0.000000
-14.823419 -13.985751 -0.508021 707 0.137801 0.990460 0.000000
-14.821504 -13.983951 -0.501689 709 0.137801 0.990460 0.000000
-14.820082 -13.982603 -0.495382 701 0.137801 0.990460 0.000000
-14.820934 -13.983406 -0.489154 699 0.137801 0.990460 0.000000
-14.821835 -13.984261 -0.482915 703 0.137801 0.990460 0.000000
-14.821569 -13.984012 -0.476647 707 0.137801 0.990460 0.000000
-14.820243 -13.982755 -0.470340 699 0.137801 0.990460 0.000000
-14.821033 -13.983506 -0.464112 701 0.137801 0.990460 0.000000
-14.822261 -13.984655 -0.457881 715 0.137801 0.990460 0.000000
-14.821770 -13.984195 -0.451605 707 0.137801 0.990460 0.000000
-14.821032 -13.983496 -0.445322 693 0.137801 0.990460 0.000000
-14.821177 -13.983645 -0.439070 701 0.137801 0.990460 0.000000
-14.822336 -13.984737 -0.432839 713 0.137801 0.990460 0.000000
-14.822109 -13.984519 -0.426571 713 0.137801 0.990460 0.000000
-14.821357 -13.983808 -0.420298 703 0.137801 0.990460 0.000000
-14.820433 -13.982943 -0.414007 701 0.137801 0.990460 0.000000
-14.820475 -13.982983 -0.407746 713 0.137801 0.990460 0.000000
-14.820673 -13.983162 -0.401494 719 0.137801 0.990460 0.000000
-14.820817 -13.983298 -0.395243 707 0.137801 0.990460 0.000000
-14.821063 -13.983530 -0.388990 709 0.137801 0.990460 0.000000
-14.820353 -13.982864 -0.382707 697 0.137801 0.990460 0.000000
-14.819638 -13.982184 -0.376433 691 0.137801 0.990460 0.000000
-14.820200 -13.982712 -0.370188 707 0.137801 0.990460 0.000000
-14.821137 -13.983598 -0.363949 723 0.137801 0.990460 0.000000
-14.820252 -13.982765 -0.357667 705 0.137801 0.990460 0.000000
-14.819854 -13.982394 -0.351401 695 0.137801 0.990460 0.000000
-14.820888 -13.983371 -0.345161 699 0.137801 0.990460 0.000000
-14.821401 -13.983846 -0.338916 683 0.137801 0.990460 0.000000
-14.821363 -13.983809 -0.332656 671 0.137801 0.990460 0.000000
-14.820533 -13.983033 -0.326374 663 0.137801 0.990460 0.000000
-14.820394 -13.982899 -0.320115 651 0.137801 0.990460 0.000000
-14.820680 -13.983163 -0.313862 671 0.137801 0.990460 0.000000
-14.818930 -13.981523 -0.307568 647 0.137801 0.990460 0.000000
-14.818950 -13.981544 -0.301308 657 0.137801 0.990460 0.000000
-14.819706 -13.982256 -0.295071 665 0.137801 0.990460 0.000000
-14.820574 -13.983071 -0.288822 669 0.137801 0.990460 0.000000
-14.822282 -13.984674 -0.282596 677 0.137801 0.990460 0.000000
-14.831914 -13.984711 -0.671060 693 0.137801 0.990460 0.000000
-14.832443 -13.985199 -0.664815 711 0.137801 0.990460 0.000000
-14.831518 -13.984334 -0.658514 693 0.137801 0.990460 0.000000
-14.831561 -13.984374 -0.652243 687 0.137801 0.990460 0.000000
-14.831335 -13.984155 -0.645965 697 0.137801 0.990460 0.000000
-14.831000 -13.983849 -0.639688 695 0.137801 0.990460 0.000000
-14.831937 -13.984721 -0.633459 685 0.137801 0.990460 0.000000
-14.832074 -13.984851 -0.627198 669 0.137801 0.990460 0.000000
-14.831739 -13.984545 -0.620921 673 0.137801 0.990460 0.000000
-14.831499 -13.984315 -0.614643 679 0.137801 0.990460 0.000000
-14.831587 -13.984392 -0.608382 677 0.137801 0.990460 0.000000
-14.831612 -13.984418 -0.602122 691 0.137801 0.990460 0.000000
-14.832017 -13.984805 -0.595868 693 0.137801 0.990460 0.000000
-14.831933 -13.984729 -0.589598 707 0.137801 0.990460 0.000000
-14.831061 -13.983894 -0.583296 687 0.137801 0.990460 0.000000
-14.830971 -13.983812 -0.577037 705 0.137801 0.990460 0.000000
-14.830037 -13.982927 -0.570736 711 0.137801 0.990460 0.000000
-14.829420 -13.982352 -0.564441 705 0.137801 0.990460 0.000000
-14.830397 -13.983270 -0.558212 719 0.137801 0.990460 0.000000
-14.830840 -13.983688 -0.551968 701 0.137801 0.990460 0.000000
-14.830592 -13.983452 -0.545700 709 0.137801 0.990460 0.000000
-14.831026 -13.983862 -0.539446 701 0.137801 0.990460 0.000000
-14.832374 -13.985134 -0.533233 697 0.137801 0.990460 0.000000
-14.832438 -13.985193 -0.526972 711 0.137801 0.990460 0.000000
-14.831066 -13.983898 -0.520655 721 0.137801 0.990460 0.000000
-14.830913 -13.983766 -0.514386 721 0.137801 0.990460 0.000000
-14.831291 -13.984118 -0.508132 717 0.137801 0.990460 0.000000
-14.830774 -13.983624 -0.501857 711 0.137801 0.990460 0.000000
-14.830085 -13.982978 -0.495563 701 0.137801 0.990460 0.000000
-14.830884 -13.983737 -0.489336 695 0.137801 0.990460 0.000000
-14.830302 -13.983178 -0.483051 705 0.137801 0.990460 0.000000
-14.830298 -13.983180 -0.476781 701 0.137801 0.990460 0.000000
-14.831528 -13.984342 -0.470559 713 0.137801 0.990460 0.000000
-14.831099 -13.983932 -0.464283 695 0.137801 0.990460 0.000000
-14.830291 -13.983176 -0.458001 677 0.137801 0.990460 0.000000
-14.829437 -13.982369 -0.451708 695 0.137801 0.990460 0.000000
-14.829116 -13.982061 -0.445431 699 0.137801 0.990460 0.000000
-14.829898 -13.982807 -0.439194 681 0.137801 0.990460 0.000000
-14.829680 -13.982596 -0.432926 679 0.137801 0.990460 0.000000
-14.828765 -13.981738 -0.426644 671 0.137801 0.990460 0.000000
-14.830143 -13.983036 -0.420421 683 0.137801 0.990460 0.000000
-14.830239 -13.983119 -0.414160 687 0.137801 0.990460 0.000000
-14.828992 -13.981952 -0.407862 701 0.137801 0.990460 0.000000
-14.828924 -13.981890 -0.401602 701 0.137801 0.990460 0.000000
-14.829548 -13.982467 -0.395356 699 0.137801 0.990460 0.000000
-14.830116 -13.983000 -0.389111 715 0.137801 0.990460 0.000000
-14.829616 -13.982533 -0.382835 693 0.137801 0.990460 0.000000
-14.829492 -13.982411 -0.376566 697 0.137801 0.990460 0.000000
-14.829887 -13.982791 -0.370312 673 0.137801 0.990460 0.000000
-14.830984 -13.983819 -0.364082 673 0.137801 0.990460 0.000000
-14.830427 -13.983294 -0.357807 681 0.137801 0.990460 0.000000
-14.828844 -13.981814 -0.351512 687 0.137801 0.990460 0.000000
-14.828986 -13.981936 -0.345250 687 0.137801 0.990460 0.000000
-14.829753 -13.982669 -0.339003 693 0.137801 0.990460 0.000000
-14.829505 -13.982432 -0.332745 667 0.137801 0.990460 0.000000
-14.828830 -13.981798 -0.326461 669 0.137801 0.990460 0.000000
-14.828532 -13.981509 -0.320194 645 0.137801 0.990460 0.000000
-14.829087 -13.982031 -0.313949 649 0.137801 0.990460 0.000000
-14.830119 -13.983006 -0.307709 663 0.137801 0.990460 0.000000
-14.829589 -13.982514 -0.301434 651 0.137801 0.990460 0.000000
-14.829182 -13.982123 -0.295167 649 0.137801 0.990460 0.000000
-14.830207 -13.983093 -0.288927 659 0.137801 0.990460 0.000000
-14.829902 -13.982799 -0.282660 667 0.137801 0.990460 0.000000
