715
-14.734982 -14.074355 -0.669892 315 0.450450 0.892802 0.000000
-14.733854 -14.073280 -0.663573 289 0.450450 0.892802 0.000000
-14.733158 -14.072614 -0.657279 303 0.450450 0.892802 0.000000
-14.734099 -14.073507 -0.651060 305 0.450450 0.892802 0.000000
-14.735988 -14.075317 -0.644882 303 0.450450 0.892802 0.000000
-14.734223 -14.073634 -0.638539 295 0.450450 0.892802 0.000000
-14.732996 -14.072461 -0.632220 299 0.450450 0.892802 0.000000
-14.734079 -14.073485 -0.626010 305 0.450450 0.892802 0.000000
-14.735756 -14.075093 -0.619814 295 0.450450 0.892802 0.000000
-14.736691 -14.075981 -0.613585 293 0.450450 0.892802 0.000000
-14.735815 -14.075153 -0.607283 323 0.450450 0.892802 0.000000
-14.735528 -14.074868 -0.601016 299 0.450450 0.892802 0.000000
-14.733335 -14.072776 -0.594656 323 0.450450 0.892802 0.000000
-14.732779 -14.072254 -0.588371 309 0.450450 0.892802 0.000000
-14.733862 -14.073277 -0.582161 291 0.450450 0.892802 0.000000
-14.733678 -14.073103 -0.575883 307 0.450450 0.892802 0.000000
-14.735175 -14.074536 -0.569678 323 0.450450 0.892802 0.000000
-14.734664 -14.074052 -0.563403 313 0.450450 0.892802 0.000000
-14.734052 -14.073469 -0.557119 295 0.450450 0.892802 0.000000
-14.733851 -14.073269 -0.550850 305 0.450450 0.892802 0.000000
-14.732071 -14.071572 -0.544517 307 0.450450 0.892802 0.000000
-14.733412 -14.072848 -0.538304 329 0.450450 0.892802 0.000000
-14.735594 -14.074929 -0.532123 327 0.450450 0.892802 0.000000
-14.732950 -14.072411 -0.525768 325 0.450450 0.892802 0.000000
-14.732439 -14.071926 -0.519493 307 0.450450 0.892802 0.000000
-14.734146 -14.073545 -0.513287 321 0.450450 0.892802 0.000000
-14.733456 -14.072899 -0.507003 317 0.450450 0.892802 0.000000
-14.733200 -14.072654 -0.500735 305 0.450450 0.892802 0.000000
-14.734527 -14.073918 -0.494513 327 0.450450 0.892802 0.000000
-14.737494 -14.076756 -0.488354 363 0.450450 0.892802 0.000000
-14.735746 -14.075087 -0.482031 329 0.450450 0.892802 0.000000
-14.732518 -14.072003 -0.475671 313 0.450450 0.892802 0.000000
-14.733417 -14.072860 -0.469443 339 0.450450 0.892802 0.000000
-14.735753 -14.075082 -0.463250 367 0.450450 0.892802 0.000000
-14.735482 -14.074823 -0.456983 353 0.450450 0.892802 0.000000
-14.733470 -14.072906 -0.450662 355 0.450450 0.892802 0.000000
-14.732715 -14.072181 -0.444379 313 0.450450 0.892802 0.000000
-14.732921 -14.072383 -0.438127 321 0.450450 0.892802 0.000000
-14.734020 -14.073434 -0.431896 313 0.450450 0.892802 0.000000
-14.734646 -14.074024 -0.425650 339 0.450450 0.892802 0.000000
-14.734265 -14.073661 -0.419383 335 0.450450 0.892802 0.000000
-14.733039 -14.072489 -0.413085 313 0.450450 0.892802 0.000000
-14.732170 -14.071669 -0.406803 307 0.450450 0.892802 0.000000
-14.732422 -14.071909 -0.400550 337 0.450450 0.892802 0.000000
-14.733459 -14.072893 -0.394320 341 0.450450 0.892802 0.000000
-14.733601 -14.073031 -0.388069 315 0.450450 0.892802 0.000000
-14.732211 -14.071697 -0.381772 327 0.450450 0.892802 0.000000
-14.733249 -14.072697 -0.375542 313 0.450450 0.892802 0.000000
-14.734116 -14.073527 -0.369303 301 0.450450 0.892802 0.000000
-14.734148 -14.073546 -0.363043 295 0.450450 0.892802 0.000000
-14.734712 -14.074085 -0.356798 309 0.450450 0.892802 0.000000
-14.733241 -14.072686 -0.350501 291 0.450450 0.892802 0.000000
-14.732371 -14.071850 -0.344220 311 0.450450 0.892802 0.000000
-14.733458 -14.072889 -0.337989 327 0.450450 0.892802 0.000000
-14.733475 -14.072909 -0.331729 311 0.450450 0.892802 0.000000
-14.733868 -14.073279 -0.325485 319 0.450450 0.892802 0.000000
-14.734562 -14.073955 -0.319238 323 0.450450 0.892802 0.000000
-14.734168 -14.073566 -0.312972 281 0.450450 0.892802 0.000000
-14.733446 -14.072881 -0.306698 263 0.450450 0.892802 0.000000
-14.733082 -14.072531 -0.300432 307 0.450450 0.892802 0.000000
-14.734206 -14.073614 -0.294201 295 0.450450 0.892802 0.000000
-14.733002 -14.072463 -0.287912 293 0.450450 0.892802 0.000000
-14.731479 -14.071005 -0.281627 269 0.450450 0.892802 0.000000
-14.732547 -14.072017 -0.275386 263 0.450450 0.892802 0.000000
-14.733133 -14.072587 -0.269140 257 0.450450 0.892802 0.000000
-14.740396 -14.070910 -0.669945 311 0.450450 0.892802 0.000000
-14.741068 -14.071554 -0.663708 285 0.450450 0.892802 0.000000
-14.741590 -14.072045 -0.657473 305 0.450450 0.892802 0.000000
-14.740995 -14.071478 -0.651179 291 0.450450 0.892802 0.000000
-14.740554 -14.071064 -0.644893 295 0.450450 0.892802 0.000000
-14.739054 -14.069626 -0.638567 273 0.450450 0.892802 0.000000
-14.740100 -14.070632 -0.632347 279 0.450450 0.892802 0.000000
-14.739767 -14.070308 -0.626070 297 0.450450 0.892802 0.000000
-14.739582 -14.070133 -0.619791 299 0.450450 0.892802 0.000000
-14.740409 -14.070918 -0.613563 309 0.450450 0.892802 0.000000
-14.739486 -14.070038 -0.607262 313 0.450450 0.892802 0.000000
-14.740406 -14.070927 -0.601043 305 0.450450 0.892802 0.000000
-14.740698 -14.071199 -0.594790 299 0.450450 0.892802 0.000000
-14.739088 -14.069657 -0.588455 287 0.450450 0.892802 0.000000
-14.739743 -14.070287 -0.582219 317 0.450450 0.892802 0.000000
-14.740882 -14.071370 -0.576008 307 0.450450 0.892802 0.000000
-14.742015 -14.072460 -0.569787 323 0.450450 0.892802 0.000000
-14.743885 -14.074243 -0.563589 321 0.450450 0.892802 0.000000
-14.742316 -14.072747 -0.557264 311 0.450450 0.892802 0.000000
-14.741111 -14.071594 -0.550955 329 0.450450 0.892802 0.000000
-14.741027 -14.071517 -0.544696 335 0.450450 0.892802 0.000000
-14.739667 -14.070210 -0.538379 343 0.450450 0.892802 0.000000
-14.740372 -14.070891 -0.532142 325 0.450450 0.892802 0.000000
-14.742069 -14.072504 -0.525945 331 0.450450 0.892802 0.000000
-14.742087 -14.072525 -0.519685 313 0.450450 0.892802 0.000000
-14.740075 -14.070608 -0.513344 305 0.450450 0.892802 0.000000
-14.739298 -14.069864 -0.507061 313 0.450450 0.892802 0.000000
-14.739618 -14.070161 -0.500808 321 0.450450 0.892802 0.000000
-14.738454 -14.069055 -0.494509 327 0.450450 0.892802 0.000000
-14.738939 -14.069516 -0.488264 341 0.450450 0.892802 0.000000
-14.739627 -14.070171 -0.482028 335 0.450450 0.892802 0.000000
-14.740002 -14.070527 -0.475774 353 0.450450 0.892802 0.000000
-14.742169 -14.072597 -0.469583 335 0.450450 0.892802 0.000000
-14.741114 -14.071593 -0.463283 345 0.450450 0.892802 0.000000
-14.738678 -14.069261 -0.456946 313 0.450450 0.892802 0.000000
-14.738081 -14.068690 -0.450672 339 0.450450 0.892802 0.000000
-14.739882 -14.070416 -0.444464 349 0.450450 0.892802 0.000000
-14.739495 -14.070048 -0.438198 345 0.450450 0.892802 0.000000
-14.737154 -14.067820 -0.431860 315 0.450450 0.892802 0.000000
-14.736885 -14.067561 -0.425592 313 0.450450 0.892802 0.000000
-14.737664 -14.068294 -0.419365 321 0.450450 0.892802 0.000000
-14.740252 -14.070763 -0.413170 337 0.450450 0.892802 0.000000
-14.740232 -14.070752 -0.406910 339 0.450450 0.892802 0.000000
-14.739697 -14.070234 -0.400635 325 0.450450 0.892802 0.000000
-14.739620 -14.070164 -0.394376 367 0.450450 0.892802 0.000000
-14.739274 -14.069841 -0.388109 347 0.450450 0.892802 0.000000
-14.741118 -14.071589 -0.381891 335 0.450450 0.892802 0.000000
-14.742041 -14.072479 -0.375652 333 0.450450 0.892802 0.000000
-14.740169 -14.070692 -0.369350 313 0.450450 0.892802 0.000000
-14.738925 -14.069507 -0.363061 319 0.450450 0.892802 0.000000
-14.739277 -14.069832 -0.356808 297 0.450450 0.892802 0.000000
-14.738976 -14.069548 -0.350541 299 0.450450 0.892802 0.000000
-14.738839 -14.069426 -0.344282 311 0.450450 0.892802 0.000000
-14.738599 -14.069192 -0.338014 297 0.450450 0.892802 0.000000
-14.739038 -14.069615 -0.331760 291 0.450450 0.892802 0.000000
-14.738541 -14.069129 -0.325494 283 0.450450 0.892802 0.000000
-14.737922 -14.068542 -0.319220 321 0.450450 0.892802 0.000000
-14.737574 -14.068204 -0.312953 301 0.450450 0.892802 0.000000
-14.737685 -14.068316 -0.306702 283 0.450450 0.892802 0.000000
-14.739610 -14.070156 -0.300483 299 0.450450 0.892802 0.000000
-14.742640 -14.073048 -0.294284 297 0.450450 0.892802 0.000000
-14.740595 -14.071091 -0.287984 297 0.450450 0.892802 0.000000
-14.737370 -14.068023 -0.281664 249 0.450450 0.892802 0.000000
-14.737324 -14.067978 -0.275405 265 0.450450 0.892802 0.000000
-14.737443 -14.068081 -0.269143 259 0.450450 0.892802 0.000000
-14.747223 -14.069150 -0.670072 329 0.450450 0.892802 0.000000
-14.746634 -14.068586 -0.663777 303 0.450450 0.892802 0.000000
-14.746302 -14.068276 -0.657500 289 0.450450 0.892802 0.000000
-14.747612 -14.069528 -0.651288 301 0.450450 0.892802 0.000000
-14.746220 -14.068192 -0.644961 287 0.450450 0.892802 0.000000
-14.745461 -14.067476 -0.638668 291 0.450450 0.892802 0.000000
-14.746186 -14.068162 -0.632431 285 0.450450 0.892802 0.000000
-14.743938 -14.066026 -0.626072 295 0.450450 0.892802 0.000000
-14.744137 -14.066209 -0.619820 285 0.450450 0.892802 0.000000
-14.744114 -14.066183 -0.613550 287 0.450450 0.892802 0.000000
-14.744934 -14.066974 -0.607322 283 0.450450 0.892802 0.000000
-14.745651 -14.067655 -0.601085 287 0.450450 0.892802 0.000000
-14.746160 -14.068135 -0.594840 285 0.450450 0.892802 0.000000
-14.746445 -14.068415 -0.588587 305 0.450450 0.892802 0.000000
-14.747963 -14.069854 -0.582383 315 0.450450 0.892802 0.000000
-14.747873 -14.069771 -0.576114 305 0.450450 0.892802 0.000000
-14.746357 -14.068319 -0.569798 303 0.450450 0.892802 0.000000
-14.747801 -14.069709 -0.563584 307 0.450450 0.892802 0.000000
-14.747087 -14.069015 -0.557291 319 0.450450 0.892802 0.000000
-14.746263 -14.068231 -0.550998 333 0.450450 0.892802 0.000000
-14.746326 -14.068290 -0.544738 333 0.450450 0.892802 0.000000
-14.746447 -14.068408 -0.538476 347 0.450450 0.892802 0.000000
-14.745608 -14.067612 -0.532184 311 0.450450 0.892802 0.000000
-14.744411 -14.066465 -0.525885 335 0.450450 0.892802 0.000000
-14.745995 -14.067983 -0.519680 317 0.450450 0.892802 0.000000
-14.746589 -14.068547 -0.513434 333 0.450450 0.892802 0.000000
-14.744965 -14.066994 -0.507110 307 0.450450 0.892802 0.000000
-14.744919 -14.066948 -0.500850 313 0.450450 0.892802 0.000000
-14.746355 -14.068316 -0.494636 317 0.450450 0.892802 0.000000
-14.745718 -14.067715 -0.488352 325 0.450450 0.892802 0.000000
-14.744926 -14.066958 -0.482069 343 0.450450 0.892802 0.000000
-14.744984 -14.067011 -0.475809 337 0.450450 0.892802 0.000000
-14.745344 -14.067354 -0.469555 329 0.450450 0.892802 0.000000
-14.746087 -14.068069 -0.463318 341 0.450450 0.892802 0.000000
-14.745028 -14.067051 -0.457018 331 0.450450 0.892802 0.000000
-14.745554 -14.067558 -0.450773 315 0.450450 0.892802 0.000000
-14.745439 -14.067442 -0.444514 345 0.450450 0.892802 0.000000
-14.745169 -14.067183 -0.438246 321 0.450450 0.892802 0.000000
-14.745102 -14.067121 -0.431977 305 0.450450 0.892802 0.000000
-14.744030 -14.066104 -0.425687 317 0.450450 0.892802 0.000000
-14.743230 -14.065340 -0.419404 329 0.450450 0.892802 0.000000
-14.745592 -14.067596 -0.413211 335 0.450450 0.892802 0.000000
-14.746528 -14.068484 -0.406972 335 0.450450 0.892802 0.000000
-14.745457 -14.067468 -0.400682 333 0.450450 0.892802 0.000000
-14.745654 -14.067651 -0.394430 335 0.450450 0.892802 0.000000
-14.745002 -14.067021 -0.388146 347 0.450450 0.892802 0.000000
-14.745354 -14.067360 -0.381903 335 0.450450 0.892802 0.000000
-14.744111 -14.066175 -0.375605 329 0.450450 0.892802 0.000000
-14.744503 -14.066559 -0.369361 327 0.450450 0.892802 0.000000
-14.746124 -14.068095 -0.363135 317 0.450450 0.892802 0.000000
-14.745146 -14.067169 -0.356854 293 0.450450 0.892802 0.000000
-14.744222 -14.066290 -0.350573 303 0.450450 0.892802 0.000000
-14.745253 -14.067268 -0.344333 291 0.450450 0.892802 0.000000
-14.745223 -14.067237 -0.338073 311 0.450450 0.892802 0.000000
-14.743863 -14.065941 -0.331786 311 0.450450 0.892802 0.000000
-14.743406 -14.065502 -0.325510 315 0.450450 0.892802 0.000000
-14.745278 -14.067299 -0.319292 321 0.450450 0.892802 0.000000
-14.744773 -14.066806 -0.313027 309 0.450450 0.892802 0.000000
-14.743936 -14.066010 -0.306745 289 0.450450 0.892802 0.000000
-14.744802 -14.066840 -0.300506 305 0.450450 0.892802 0.000000
-14.745029 -14.067047 -0.294254 285 0.450450 0.892802 0.000000
-14.744658 -14.066706 -0.287987 305 0.450450 0.892802 0.000000
-14.744100 -14.066169 -0.281712 303 0.450450 0.892802 0.000000
-14.744368 -14.066422 -0.275460 307 0.450450 0.892802 0.000000
-14.744161 -14.066230 -0.269202 265 0.450450 0.892802 0.000000
-14.753093 -14.066487 -0.670148 327 0.450450 0.892802 0.000000
-14.751608 -14.065076 -0.663822 323 0.450450 0.892802 0.000000
-14.751113 -14.064605 -0.657527 319 0.450450 0.892802 0.000000
-14.753378 -14.066754 -0.651365 303 0.450450 0.892802 0.000000
-14.754953 -14.068266 -0.645170 259 0.450450 0.892802 0.000000
-14.753453 -14.066828 -0.638834 309 0.450450 0.892802 0.000000
-14.752484 -14.065909 -0.632523 297 0.450450 0.892802 0.000000
-14.752891 -14.066292 -0.626279 303 0.450450 0.892802 0.000000
-14.752550 -14.065962 -0.620002 291 0.450450 0.892802 0.000000
-14.753159 -14.066553 -0.613756 293 0.450450 0.892802 0.000000
-14.752774 -14.066185 -0.607480 285 0.450450 0.892802 0.000000
-14.752900 -14.066309 -0.601218 287 0.450450 0.892802 0.000000
-14.753680 -14.067041 -0.594981 289 0.450450 0.892802 0.000000
-14.751900 -14.065344 -0.588648 291 0.450450 0.892802 0.000000
-14.751226 -14.064711 -0.582354 311 0.450450 0.892802 0.000000
-14.751789 -14.065236 -0.576108 315 0.450450 0.892802 0.000000
-14.751861 -14.065314 -0.569848 309 0.450450 0.892802 0.000000
-14.751247 -14.064720 -0.563563 305 0.450450 0.892802 0.000000
-14.751273 -14.064745 -0.557303 311 0.450450 0.892802 0.000000
-14.751236 -14.064708 -0.551033 325 0.450450 0.892802 0.000000
-14.750929 -14.064417 -0.544756 325 0.450450 0.892802 0.000000
-14.751529 -14.064988 -0.538520 327 0.450450 0.892802 0.000000
-14.751439 -14.064904 -0.532251 335 0.450450 0.892802 0.000000
-14.752032 -14.065469 -0.526005 329 0.450450 0.892802 0.000000
-14.752145 -14.065581 -0.519754 323 0.450450 0.892802 0.000000
-14.750940 -14.064428 -0.513445 337 0.450450 0.892802 0.000000
-14.751744 -14.065194 -0.507207 329 0.450450 0.892802 0.000000
-14.752222 -14.065648 -0.500962 339 0.450450 0.892802 0.000000
-14.751375 -14.064845 -0.494670 305 0.450450 0.892802 0.000000
-14.752757 -14.066168 -0.488457 323 0.450450 0.892802 0.000000
-14.752975 -14.066369 -0.482195 319 0.450450 0.892802 0.000000
-14.752706 -14.066111 -0.475927 345 0.450450 0.892802 0.000000
-14.751641 -14.065101 -0.469627 357 0.450450 0.892802 0.000000
-14.751170 -14.064649 -0.463352 357 0.450450 0.892802 0.000000
-14.750370 -14.063885 -0.457059 329 0.450450 0.892802 0.000000
-14.748567 -14.062170 -0.450746 345 0.450450 0.892802 0.000000
-14.749939 -14.063473 -0.444523 339 0.450450 0.892802 0.000000
-14.752899 -14.066291 -0.438355 335 0.450450 0.892802 0.000000
-14.753788 -14.067139 -0.432116 333 0.450450 0.892802 0.000000
-14.751760 -14.065211 -0.425795 331 0.450450 0.892802 0.000000
-14.749154 -14.062723 -0.419460 327 0.450450 0.892802 0.000000
-14.749671 -14.063224 -0.413215 315 0.450450 0.892802 0.000000
-14.751517 -14.064973 -0.406997 329 0.450450 0.892802 0.000000
-14.752337 -14.065764 -0.400759 333 0.450450 0.892802 0.000000
-14.752751 -14.066154 -0.394515 341 0.450450 0.892802 0.000000
-14.750296 -14.063817 -0.388188 335 0.450450 0.892802 0.000000
-14.749372 -14.062937 -0.381897 313 0.450450 0.892802 0.000000
-14.752207 -14.065639 -0.375710 345 0.450450 0.892802 0.000000
-14.753352 -14.066727 -0.369479 321 0.450450 0.892802 0.000000
-14.751737 -14.065193 -0.363174 315 0.450450 0.892802 0.000000
-14.749917 -14.063450 -0.356871 287 0.450450 0.892802 0.000000
-14.751313 -14.064786 -0.350648 303 0.450450 0.892802 0.000000
-14.751074 -14.064554 -0.344380 311 0.450450 0.892802 0.000000
-14.749716 -14.063260 -0.338082 323 0.450450 0.892802 0.000000
-14.749305 -14.062871 -0.331816 319 0.450450 0.892802 0.000000
-14.749440 -14.063003 -0.325555 325 0.450450 0.892802 0.000000
-14.751100 -14.064584 -0.319339 291 0.450450 0.892802 0.000000
-14.751335 -14.064797 -0.313076 311 0.450450 0.892802 0.000000
-14.751556 -14.065013 -0.306824 283 0.450450 0.892802 0.000000
-14.751043 -14.064527 -0.300549 299 0.450450 0.892802 0.000000
-14.748891 -14.062468 -0.294249 269 0.450450 0.892802 0.000000
-14.749491 -14.063038 -0.288003 303 0.450450 0.892802 0.000000
-14.750391 -14.063909 -0.281755 313 0.450450 0.892802 0.000000
-14.749552 -14.063099 -0.275483 313 0.450450 0.892802 0.000000
-14.749453 -14.063009 -0.269223 269 0.450450 0.892802 0.000000
-14.759558 -14.064049 -0.670251 327 0.450450 0.892802 0.000000
-14.757963 -14.062533 -0.663916 299 0.450450 0.892802 0.000000
-14.757320 -14.061912 -0.657622 289 0.450450 0.892802 0.000000
-14.755658 -14.060338 -0.651277 291 0.450450 0.892802 0.000000
-14.755224 -14.059918 -0.644991 297 0.450450 0.892802 0.000000
-14.758223 -14.062783 -0.638862 299 0.450450 0.892802 0.000000
-14.759160 -14.063672 -0.632633 307 0.450450 0.892802 0.000000
-14.760788 -14.065213 -0.626438 309 0.450450 0.892802 0.000000
-14.760183 -14.064637 -0.620143 289 0.450450 0.892802 0.000000
-14.758365 -14.062908 -0.613801 289 0.450450 0.892802 0.000000
-14.759130 -14.063643 -0.607563 301 0.450450 0.892802 0.000000
-14.759949 -14.064420 -0.601335 293 0.450450 0.892802 0.000000
-14.758340 -14.062892 -0.595000 303 0.450450 0.892802 0.000000
-14.756989 -14.061604 -0.588683 323 0.450450 0.892802 0.000000
-14.756430 -14.061066 -0.582398 325 0.450450 0.892802 0.000000
-14.757088 -14.061697 -0.576152 317 0.450450 0.892802 0.000000
-14.758699 -14.063225 -0.569956 299 0.450450 0.892802 0.000000
-14.758026 -14.062592 -0.563663 321 0.450450 0.892802 0.000000
-14.757047 -14.061653 -0.557362 335 0.450450 0.892802 0.000000
-14.757166 -14.061769 -0.551100 333 0.450450 0.892802 0.000000
-14.756973 -14.061577 -0.544832 335 0.450450 0.892802 0.000000
-14.756990 -14.061596 -0.538562 315 0.450450 0.892802 0.000000
-14.758380 -14.062926 -0.532348 323 0.450450 0.892802 0.000000
-14.759767 -14.064241 -0.526135 325 0.450450 0.892802 0.000000
-14.759402 -14.063891 -0.519858 325 0.450450 0.892802 0.000000
-14.758822 -14.063350 -0.513574 319 0.450450 0.892802 0.000000
-14.756824 -14.061446 -0.507243 333 0.450450 0.892802 0.000000
-14.755621 -14.060293 -0.500934 353 0.450450 0.892802 0.000000
-14.754977 -14.059685 -0.494650 333 0.450450 0.892802 0.000000
-14.756365 -14.061001 -0.488437 313 0.450450 0.892802 0.000000
-14.758219 -14.062770 -0.482229 327 0.450450 0.892802 0.000000
-14.758649 -14.063172 -0.475985 355 0.450450 0.892802 0.000000
-14.759866 -14.064333 -0.469753 355 0.450450 0.892802 0.000000
-14.759434 -14.063927 -0.463477 343 0.450450 0.892802 0.000000
-14.757901 -14.062462 -0.457161 341 0.450450 0.892802 0.000000
-14.758263 -14.062807 -0.450918 335 0.450450 0.892802 0.000000
-14.759206 -14.063702 -0.444679 329 0.450450 0.892802 0.000000
-14.759091 -14.063598 -0.438409 307 0.450450 0.892802 0.000000
-14.758449 -14.062991 -0.432125 327 0.450450 0.892802 0.000000
-14.757751 -14.062325 -0.425842 333 0.450450 0.892802 0.000000
-14.756888 -14.061496 -0.419560 325 0.450450 0.892802 0.000000
-14.756618 -14.061238 -0.413292 351 0.450450 0.892802 0.000000
-14.756021 -14.060668 -0.407008 337 0.450450 0.892802 0.000000
-14.755682 -14.060353 -0.400741 347 0.450450 0.892802 0.000000
-14.757676 -14.062251 -0.394532 339 0.450450 0.892802 0.000000
-14.758504 -14.063035 -0.388294 327 0.450450 0.892802 0.000000
-14.757534 -14.062118 -0.382003 311 0.450450 0.892802 0.000000
-14.757248 -14.061845 -0.375736 315 0.450450 0.892802 0.000000
-14.757063 -14.061658 -0.369467 337 0.450450 0.892802 0.000000
-14.757028 -14.061633 -0.363207 309 0.450450 0.892802 0.000000
-14.758125 -14.062669 -0.356967 309 0.450450 0.892802 0.000000
-14.758471 -14.063002 -0.350713 307 0.450450 0.892802 0.000000
-14.757330 -14.061913 -0.344424 343 0.450450 0.892802 0.000000
-14.755869 -14.060521 -0.338128 337 0.450450 0.892802 0.000000
-14.756898 -14.061502 -0.331888 325 0.450450 0.892802 0.000000
-14.757711 -14.062286 -0.325650 311 0.450450 0.892802 0.000000
-14.754708 -14.059417 -0.319318 291 0.450450 0.892802 0.000000
-14.754407 -14.059133 -0.313051 297 0.450450 0.892802 0.000000
-14.756285 -14.060921 -0.306833 287 0.450450 0.892802 0.000000
-14.757409 -14.061992 -0.300592 293 0.450450 0.892802 0.000000
-14.758110 -14.062658 -0.294345 299 0.450450 0.892802 0.000000
-14.756852 -14.061461 -0.288067 309 0.450450 0.892802 0.000000
-14.755539 -14.060205 -0.281780 307 0.450450 0.892802 0.000000
-14.755598 -14.060273 -0.275519 281 0.450450 0.892802 0.000000
-14.754495 -14.059216 -0.269239 277 0.450450 0.892802 0.000000
-14.764261 -14.059754 -0.670271 309 0.450450 0.892802 0.000000
-14.764629 -14.060103 -0.664017 287 0.450450 0.892802 0.000000
-14.764820 -14.060294 -0.657765 291 0.450450 0.892802 0.000000
-14.764441 -14.059931 -0.651478 309 0.450450 0.892802 0.000000
-14.763516 -14.059052 -0.645167 309 0.450450 0.892802 0.000000
-14.763979 -14.059493 -0.638922 289 0.450450 0.892802 0.000000
-14.765762 -14.061190 -0.632735 301 0.450450 0.892802 0.000000
-14.765648 -14.061074 -0.626456 281 0.450450 0.892802 0.000000
-14.764031 -14.059540 -0.620121 281 0.450450 0.892802 0.000000
-14.763637 -14.059165 -0.613835 289 0.450450 0.892802 0.000000
-14.765266 -14.060707 -0.607639 287 0.450450 0.892802 0.000000
-14.765557 -14.060994 -0.601387 323 0.450450 0.892802 0.000000
-14.764096 -14.059602 -0.595060 303 0.450450 0.892802 0.000000
-14.764657 -14.060126 -0.588815 311 0.450450 0.892802 0.000000
-14.764411 -14.059901 -0.582537 301 0.450450 0.892802 0.000000
-14.761472 -14.057097 -0.576155 319 0.450450 0.892802 0.000000
-14.762120 -14.057720 -0.569918 325 0.450450 0.892802 0.000000
-14.763789 -14.059309 -0.563712 331 0.450450 0.892802 0.000000
-14.763923 -14.059424 -0.557461 339 0.450450 0.892802 0.000000
-14.764727 -14.060204 -0.551223 357 0.450450 0.892802 0.000000
-14.763306 -14.058845 -0.544907 327 0.450450 0.892802 0.000000
-14.762529 -14.058100 -0.538614 325 0.450450 0.892802 0.000000
-14.764188 -14.059680 -0.532408 351 0.450450 0.892802 0.000000
-14.765312 -14.060750 -0.526177 335 0.450450 0.892802 0.000000
-14.762886 -14.058439 -0.519830 329 0.450450 0.892802 0.000000
-14.762156 -14.057746 -0.513537 313 0.450450 0.892802 0.000000
-14.763164 -14.058705 -0.507307 337 0.450450 0.892802 0.000000
-14.763336 -14.058869 -0.501045 327 0.450450 0.892802 0.000000
-14.764500 -14.059985 -0.494824 327 0.450450 0.892802 0.000000
-14.764127 -14.059628 -0.488547 345 0.450450 0.892802 0.000000
-14.764194 -14.059689 -0.482287 353 0.450450 0.892802 0.000000
-14.763074 -14.058619 -0.475987 335 0.450450 0.892802 0.000000
-14.762547 -14.058122 -0.469702 351 0.450450 0.892802 0.000000
-14.762550 -14.058116 -0.463442 353 0.450450 0.892802 0.000000
-14.762124 -14.057715 -0.457166 339 0.450450 0.892802 0.000000
-14.761473 -14.057101 -0.450882 303 0.450450 0.892802 0.000000
-14.763217 -14.058753 -0.444675 305 0.450450 0.892802 0.000000
-14.764801 -14.060269 -0.438450 319 0.450450 0.892802 0.000000
-14.763043 -14.058593 -0.432136 303 0.450450 0.892802 0.000000
-14.761395 -14.057019 -0.425832 327 0.450450 0.892802 0.000000
-14.761218 -14.056850 -0.419563 353 0.450450 0.892802 0.000000
-14.763059 -14.058608 -0.413346 353 0.450450 0.892802 0.000000
-14.763467 -14.058991 -0.407102 341 0.450450 0.892802 0.000000
-14.762495 -14.058072 -0.400811 329 0.450450 0.892802 0.000000
-14.762747 -14.058313 -0.394548 325 0.450450 0.892802 0.000000
-14.762088 -14.057679 -0.388274 317 0.450450 0.892802 0.000000
-14.761802 -14.057407 -0.382007 311 0.450450 0.892802 0.000000
-14.763696 -14.059210 -0.375789 313 0.450450 0.892802 0.000000
-14.761651 -14.057266 -0.369478 301 0.450450 0.892802 0.000000
-14.761528 -14.057143 -0.363209 299 0.450450 0.892802 0.000000
-14.762567 -14.058129 -0.356969 321 0.450450 0.892802 0.000000
-14.761845 -14.057444 -0.350696 319 0.450450 0.892802 0.000000
-14.762027 -14.057627 -0.344434 323 0.450450 0.892802 0.000000
-14.761732 -14.057335 -0.338167 321 0.450450 0.892802 0.000000
-14.762437 -14.058017 -0.331920 323 0.450450 0.892802 0.000000
-14.763309 -14.058840 -0.325681 329 0.450450 0.892802 0.000000
-14.762268 -14.057849 -0.319391 361 0.450450 0.892802 0.000000
-14.761493 -14.057105 -0.313118 333 0.450450 0.892802 0.000000
-14.762149 -14.057734 -0.306872 311 0.450450 0.892802 0.000000
-14.761265 -14.056888 -0.300590 339 0.450450 0.892802 0.000000
-14.760208 -14.055883 -0.294310 327 0.450450 0.892802 0.000000
-14.761386 -14.057013 -0.288069 293 0.450450 0.892802 0.000000
-14.762034 -14.057621 -0.281823 301 0.450450 0.892802 0.000000
-14.761562 -14.057182 -0.275547 295 0.450450 0.892802 0.000000
-14.760039 -14.055725 -0.269261 277 0.450450 0.892802 0.000000
-14.771882 -14.057911 -0.670414 295 0.450450 0.892802 0.000000
-14.771074 -14.057140 -0.664112 287 0.450450 0.892802 0.000000
-14.771375 -14.057435 -0.657849 323 0.450450 0.892802 0.000000
-14.770357 -14.056464 -0.651538 315 0.450450 0.892802 0.000000
-14.770609 -14.056704 -0.645286 281 0.450450 0.892802 0.000000
-14.770276 -14.056380 -0.638999 265 0.450450 0.892802 0.000000
-14.769359 -14.055506 -0.632698 261 0.450450 0.892802 0.000000
-14.770880 -14.056958 -0.626493 265 0.450450 0.892802 0.000000
-14.770858 -14.056933 -0.620223 277 0.450450 0.892802 0.000000
-14.770831 -14.056915 -0.613953 289 0.450450 0.892802 0.000000
-14.770179 -14.056287 -0.607659 269 0.450450 0.892802 0.000000
-14.769464 -14.055608 -0.601366 269 0.450450 0.892802 0.000000
-14.770923 -14.056995 -0.595152 283 0.450450 0.892802 0.000000
-14.771741 -14.057773 -0.588924 289 0.450450 0.892802 0.000000
-14.772025 -14.058053 -0.582661 303 0.450450 0.892802 0.000000
-14.770884 -14.056966 -0.576352 333 0.450450 0.892802 0.000000
-14.771438 -14.057484 -0.570106 329 0.450450 0.892802 0.000000
-14.772413 -14.058418 -0.563877 341 0.450450 0.892802 0.000000
-14.771745 -14.057776 -0.557583 349 0.450450 0.892802 0.000000
-14.771227 -14.057285 -0.551298 351 0.450450 0.892802 0.000000
-14.769018 -14.055181 -0.544949 343 0.450450 0.892802 0.000000
-14.768345 -14.054548 -0.538655 347 0.450450 0.892802 0.000000
-14.768836 -14.055014 -0.532410 317 0.450450 0.892802 0.000000
-14.769641 -14.055779 -0.526172 319 0.450450 0.892802 0.000000
-14.770764 -14.056849 -0.519951 313 0.450450 0.892802 0.000000
-14.771888 -14.057920 -0.513721 323 0.450450 0.892802 0.000000
-14.771897 -14.057920 -0.507460 331 0.450450 0.892802 0.000000
-14.770420 -14.056514 -0.501144 323 0.450450 0.892802 0.000000
-14.768618 -14.054798 -0.494811 333 0.450450 0.892802 0.000000
-14.769203 -14.055357 -0.488566 341 0.450450 0.892802 0.000000
-14.768148 -14.054354 -0.482265 329 0.450450 0.892802 0.000000
-14.766406 -14.052690 -0.475952 353 0.450450 0.892802 0.000000
-14.768473 -14.054661 -0.469752 353 0.450450 0.892802 0.000000
-14.769851 -14.055968 -0.463529 329 0.450450 0.892802 0.000000
-14.769472 -14.055607 -0.457252 333 0.450450 0.892802 0.000000
-14.767133 -14.053380 -0.450914 315 0.450450 0.892802 0.000000
-14.767189 -14.053432 -0.444654 327 0.450450 0.892802 0.000000
-14.768390 -14.054579 -0.438432 351 0.450450 0.892802 0.000000
-14.768798 -14.054976 -0.432178 339 0.450450 0.892802 0.000000
-14.769959 -14.056079 -0.425947 343 0.450450 0.892802 0.000000
-14.769952 -14.056065 -0.419687 333 0.450450 0.892802 0.000000
-14.768826 -14.054990 -0.413387 339 0.450450 0.892802 0.000000
-14.767959 -14.054170 -0.407095 331 0.450450 0.892802 0.000000
-14.767252 -14.053495 -0.400812 323 0.450450 0.892802 0.000000
-14.768454 -14.054644 -0.394590 309 0.450450 0.892802 0.000000
-14.769661 -14.055784 -0.388359 339 0.450450 0.892802 0.000000
-14.769586 -14.055713 -0.382089 321 0.450450 0.892802 0.000000
-14.769136 -14.055294 -0.375814 325 0.450450 0.892802 0.000000
-14.768906 -14.055068 -0.369546 321 0.450450 0.892802 0.000000
-14.769040 -14.055198 -0.363284 331 0.450450 0.892802 0.000000
-14.767798 -14.054014 -0.356996 297 0.450450 0.892802 0.000000
-14.767986 -14.054190 -0.350734 279 0.450450 0.892802 0.000000
-14.767102 -14.053354 -0.344452 289 0.450450 0.892802 0.000000
-14.766063 -14.052364 -0.338162 299 0.450450 0.892802 0.000000
-14.767573 -14.053796 -0.331937 297 0.450450 0.892802 0.000000
-14.770394 -14.056486 -0.325740 295 0.450450 0.892802 0.000000
-14.769305 -14.055443 -0.319451 321 0.450450 0.892802 0.000000
-14.767628 -14.053858 -0.313156 313 0.450450 0.892802 0.000000
-14.768332 -14.054526 -0.306910 313 0.450450 0.892802 0.000000
-14.768294 -14.054488 -0.300640 323 0.450450 0.892802 0.000000
-14.768358 -14.054547 -0.294379 331 0.450450 0.892802 0.000000
-14.768221 -14.054411 -0.288120 311 0.450450 0.892802 0.000000
-14.768223 -14.054419 -0.281850 301 0.450450 0.892802 0.000000
-14.767657 -14.053874 -0.275585 299 0.450450 0.892802 0.000000
-14.767496 -14.053720 -0.269317 323 0.450450 0.892802 0.000000
-14.776716 -14.053569 -0.670434 297 0.450450 0.892802 0.000000
-14.778938 -14.055682 -0.664263 329 0.450450 0.892802 0.000000
-14.776589 -14.053448 -0.657895 337 0.450450 0.892802 0.000000
-14.775992 -14.052878 -0.651590 303 0.450450 0.892802 0.000000
-14.775240 -14.052154 -0.645298 273 0.450450 0.892802 0.000000
-14.775748 -14.052647 -0.639042 277 0.450450 0.892802 0.000000
-14.777214 -14.054040 -0.632838 325 0.450450 0.892802 0.000000
-14.777201 -14.054023 -0.626568 291 0.450450 0.892802 0.000000
-14.777919 -14.054703 -0.620331 269 0.450450 0.892802 0.000000
-14.777890 -14.054685 -0.614062 255 0.450450 0.892802 0.000000
-14.777184 -14.054011 -0.607768 275 0.450450 0.892802 0.000000
-14.777699 -14.054497 -0.601523 269 0.450450 0.892802 0.000000
-14.776986 -14.053819 -0.595220 271 0.450450 0.892802 0.000000
-14.775946 -14.052828 -0.588909 277 0.450450 0.892802 0.000000
-14.775707 -14.052595 -0.582632 323 0.450450 0.892802 0.000000
-14.776098 -14.052979 -0.576388 311 0.450450 0.892802 0.000000
-14.777712 -14.054507 -0.570182 329 0.450450 0.892802 0.000000
-14.776935 -14.053763 -0.563879 335 0.450450 0.892802 0.000000
-14.776845 -14.053680 -0.557610 325 0.450450 0.892802 0.000000
-14.777711 -14.054511 -0.551372 347 0.450450 0.892802 0.000000
-14.777465 -14.054272 -0.545094 331 0.450450 0.892802 0.000000
-14.776315 -14.053178 -0.538785 333 0.450450 0.892802 0.000000
-14.775796 -14.052686 -0.532500 313 0.450450 0.892802 0.000000
-14.776390 -14.053251 -0.526264 327 0.450450 0.892802 0.000000
-14.777356 -14.054163 -0.520024 323 0.450450 0.892802 0.000000
-14.778270 -14.055033 -0.513796 331 0.450450 0.892802 0.000000
-14.776739 -14.053583 -0.507470 307 0.450450 0.892802 0.000000
-14.774835 -14.051770 -0.501138 321 0.450450 0.892802 0.000000
-14.775272 -14.052179 -0.494894 347 0.450450 0.892802 0.000000
-14.774100 -14.051065 -0.488585 331 0.450450 0.892802 0.000000
-14.774943 -14.051877 -0.482346 345 0.450450 0.892802 0.000000
-14.775530 -14.052436 -0.476101 337 0.450450 0.892802 0.000000
-14.774901 -14.051826 -0.469817 351 0.450450 0.892802 0.000000
-14.775900 -14.052779 -0.463587 341 0.450450 0.892802 0.000000
-14.776958 -14.053782 -0.457347 337 0.450450 0.892802 0.000000
-14.778068 -14.054841 -0.451116 353 0.450450 0.892802 0.000000
-14.777003 -14.053831 -0.444816 333 0.450450 0.892802 0.000000
-14.775614 -14.052511 -0.438509 341 0.450450 0.892802 0.000000
-14.775662 -14.052556 -0.432248 349 0.450450 0.892802 0.000000
-14.776816 -14.053652 -0.426017 341 0.450450 0.892802 0.000000
-14.776382 -14.053231 -0.419741 361 0.450450 0.892802 0.000000
-14.775942 -14.052818 -0.413465 337 0.450450 0.892802 0.000000
-14.776247 -14.053103 -0.407202 303 0.450450 0.892802 0.000000
-14.775488 -14.052386 -0.400919 321 0.450450 0.892802 0.000000
-14.775582 -14.052471 -0.394658 331 0.450450 0.892802 0.000000
-14.773905 -14.050885 -0.388354 323 0.450450 0.892802 0.000000
-14.772343 -14.049397 -0.382049 321 0.450450 0.892802 0.000000
-14.774034 -14.051003 -0.375833 323 0.450450 0.892802 0.000000
-14.775709 -14.052597 -0.369606 339 0.450450 0.892802 0.000000
-14.776528 -14.053375 -0.363359 315 0.450450 0.892802 0.000000
-14.777775 -14.054561 -0.357127 315 0.450450 0.892802 0.000000
-14.776892 -14.053726 -0.350845 313 0.450450 0.892802 0.000000
-14.774319 -14.051280 -0.344519 307 0.450450 0.892802 0.000000
-14.774141 -14.051098 -0.338251 317 0.450450 0.892802 0.000000
-14.775217 -14.052130 -0.332010 315 0.450450 0.892802 0.000000
-14.774497 -14.051443 -0.325737 321 0.450450 0.892802 0.000000
-14.775098 -14.052014 -0.319481 315 0.450450 0.892802 0.000000
-14.776128 -14.052994 -0.313241 319 0.450450 0.892802 0.000000
-14.775352 -14.052249 -0.306958 311 0.450450 0.892802 0.000000
-14.775199 -14.052115 -0.300700 315 0.450450 0.892802 0.000000
-14.777067 -14.053882 -0.294472 309 0.450450 0.892802 0.000000
-14.775865 -14.052744 -0.288183 323 0.450450 0.892802 0.000000
-14.774652 -14.051584 -0.281895 307 0.450450 0.892802 0.000000
-14.777737 -14.054521 -0.275685 319 0.450450 0.892802 0.000000
-14.776790 -14.053620 -0.269404 289 0.450450 0.892802 0.000000
-14.782659 -14.050290 -0.670503 301 0.450450 0.892802 0.000000
-14.783921 -14.051489 -0.664291 311 0.450450 0.892802 0.000000
-14.785175 -14.052682 -0.658079 301 0.450450 0.892802 0.000000
-14.784742 -14.052275 -0.651783 271 0.450450 0.892802 0.000000
-14.784458 -14.052005 -0.645505 259 0.450450 0.892802 0.000000
-14.783442 -14.051033 -0.639185 307 0.450450 0.892802 0.000000
-14.781833 -14.049505 -0.632850 293 0.450450 0.892802 0.000000
-14.784038 -14.051605 -0.626679 263 0.450450 0.892802 0.000000
-14.784497 -14.052032 -0.620424 247 0.450450 0.892802 0.000000
-14.783363 -14.050965 -0.614105 261 0.450450 0.892802 0.000000
-14.783125 -14.050732 -0.607827 279 0.450450 0.892802 0.000000
-14.783368 -14.050966 -0.601575 281 0.450450 0.892802 0.000000
-14.782757 -14.050385 -0.595280 259 0.450450 0.892802 0.000000
-14.782837 -14.050457 -0.589009 279 0.450450 0.892802 0.000000
-14.781851 -14.049524 -0.582709 295 0.450450 0.892802 0.000000
-14.781719 -14.049396 -0.576430 303 0.450450 0.892802 0.000000
-14.783224 -14.050822 -0.570225 317 0.450450 0.892802 0.000000
-14.782769 -14.050395 -0.563939 321 0.450450 0.892802 0.000000
-14.782841 -14.050461 -0.557669 323 0.450450 0.892802 0.000000
-14.784189 -14.051744 -0.551456 343 0.450450 0.892802 0.000000
-14.782293 -14.049937 -0.545114 325 0.450450 0.892802 0.000000
-14.780451 -14.048188 -0.538781 321 0.450450 0.892802 0.000000
-14.781216 -14.048909 -0.532544 321 0.450450 0.892802 0.000000
-14.780471 -14.048204 -0.526250 319 0.450450 0.892802 0.000000
-14.779742 -14.047512 -0.519957 301 0.450450 0.892802 0.000000
-14.781565 -14.049242 -0.513750 281 0.450450 0.892802 0.000000
-14.783372 -14.050959 -0.507553 295 0.450450 0.892802 0.000000
-14.783319 -14.050907 -0.501283 325 0.450450 0.892802 0.000000
-14.782794 -14.050410 -0.494998 317 0.450450 0.892802 0.000000
-14.780579 -14.048299 -0.488659 333 0.450450 0.892802 0.000000
-14.780091 -14.047848 -0.482373 329 0.450450 0.892802 0.000000
-14.781158 -14.048858 -0.476143 337 0.450450 0.892802 0.000000
-14.780358 -14.048093 -0.469850 323 0.450450 0.892802 0.000000
-14.780946 -14.048652 -0.463604 309 0.450450 0.892802 0.000000
-14.781253 -14.048951 -0.457351 333 0.450450 0.892802 0.000000
-14.782203 -14.049851 -0.451112 321 0.450450 0.892802 0.000000
-14.781512 -14.049192 -0.444829 345 0.450450 0.892802 0.000000
-14.779803 -14.047567 -0.438505 359 0.450450 0.892802 0.000000
-14.781176 -14.048870 -0.432282 341 0.450450 0.892802 0.000000
-14.782757 -14.050373 -0.426066 325 0.450450 0.892802 0.000000
-14.781530 -14.049202 -0.419768 339 0.450450 0.892802 0.000000
-14.782045 -14.049701 -0.413513 343 0.450450 0.892802 0.000000
-14.783145 -14.050737 -0.407282 313 0.450450 0.892802 0.000000
-14.782438 -14.050064 -0.400989 343 0.450450 0.892802 0.000000
-14.783002 -14.050603 -0.394743 351 0.450450 0.892802 0.000000
-14.783409 -14.050987 -0.388489 327 0.450450 0.892802 0.000000
-14.782112 -14.049757 -0.382191 327 0.450450 0.892802 0.000000
-14.780401 -14.048131 -0.375878 299 0.450450 0.892802 0.000000
-14.780008 -14.047757 -0.369601 325 0.450450 0.892802 0.000000
-14.780135 -14.047882 -0.363350 315 0.450450 0.892802 0.000000
-14.780644 -14.048362 -0.357095 329 0.450450 0.892802 0.000000
-14.780980 -14.048686 -0.350841 323 0.450450 0.892802 0.000000
-14.780851 -14.048557 -0.344573 329 0.450450 0.892802 0.000000
-14.782151 -14.049788 -0.338340 309 0.450450 0.892802 0.000000
-14.782700 -14.050314 -0.332085 317 0.450450 0.892802 0.000000
-14.783356 -14.050944 -0.325828 313 0.450450 0.892802 0.000000
-14.783800 -14.051358 -0.319574 315 0.450450 0.892802 0.000000
-14.782551 -14.050167 -0.313286 331 0.450450 0.892802 0.000000
-14.781549 -14.049222 -0.307005 311 0.450450 0.892802 0.000000
-14.780671 -14.048382 -0.300723 331 0.450450 0.892802 0.000000
-14.779624 -14.047385 -0.294433 329 0.450450 0.892802 0.000000
-14.779782 -14.047548 -0.288171 321 0.450450 0.892802 0.000000
-14.780269 -14.048009 -0.281917 303 0.450450 0.892802 0.000000
-14.779010 -14.046812 -0.275638 309 0.450450 0.892802 0.000000
-14.778972 -14.046773 -0.269369 269 0.450450 0.892802 0.000000
-14.791150 -14.049419 -0.670688 307 0.450450 0.892802 0.000000
-14.790724 -14.049006 -0.664402 309 0.450450 0.892802 0.000000
-14.792134 -14.050354 -0.658188 307 0.450450 0.892802 0.000000
-14.791757 -14.049993 -0.651902 297 0.450450 0.892802 0.000000
-14.789625 -14.047965 -0.645542 285 0.450450 0.892802 0.000000
-14.788966 -14.047344 -0.639238 281 0.450450 0.892802 0.000000
-14.789956 -14.048277 -0.633008 267 0.450450 0.892802 0.000000
-14.789937 -14.048266 -0.626738 269 0.450450 0.892802 0.000000
-14.789393 -14.047742 -0.620444 261 0.450450 0.892802 0.000000
-14.790058 -14.048378 -0.614207 259 0.450450 0.892802 0.000000
-14.790193 -14.048509 -0.607936 295 0.450450 0.892802 0.000000
-14.788685 -14.047063 -0.601610 295 0.450450 0.892802 0.000000
-14.788290 -14.046689 -0.595323 285 0.450450 0.892802 0.000000
-14.788206 -14.046611 -0.589054 303 0.450450 0.892802 0.000000
-14.788342 -14.046742 -0.582793 311 0.450450 0.892802 0.000000
-14.787301 -14.045752 -0.576482 317 0.450450 0.892802 0.000000
-14.788012 -14.046427 -0.570235 319 0.450450 0.892802 0.000000
-14.788349 -14.046751 -0.563982 337 0.450450 0.892802 0.000000
-14.788212 -14.046617 -0.557713 329 0.450450 0.892802 0.000000
-14.789289 -14.047648 -0.551483 323 0.450450 0.892802 0.000000
-14.788774 -14.047148 -0.545198 333 0.450450 0.892802 0.000000
-14.788942 -14.047318 -0.538936 325 0.450450 0.892802 0.000000
-14.788220 -14.046618 -0.532633 293 0.450450 0.892802 0.000000
-14.787118 -14.045577 -0.526333 307 0.450450 0.892802 0.000000
-14.788342 -14.046743 -0.520101 311 0.450450 0.892802 0.000000
-14.788936 -14.047309 -0.513855 299 0.450450 0.892802 0.000000
-14.787778 -14.046207 -0.507546 299 0.450450 0.892802 0.000000
-14.787362 -14.045815 -0.501270 313 0.450450 0.892802 0.000000
-14.787418 -14.045868 -0.494999 331 0.450450 0.892802 0.000000
-14.787638 -14.046067 -0.488747 333 0.450450 0.892802 0.000000
-14.787368 -14.045810 -0.482470 341 0.450450 0.892802 0.000000
-14.788482 -14.046873 -0.476239 313 0.450450 0.892802 0.000000
-14.789700 -14.048033 -0.470007 311 0.450450 0.892802 0.000000
-14.788486 -14.046874 -0.463708 331 0.450450 0.892802 0.000000
-14.787260 -14.045715 -0.457400 313 0.450450 0.892802 0.000000
-14.787419 -14.045866 -0.451138 327 0.450450 0.892802 0.000000
-14.788254 -14.046657 -0.444900 321 0.450450 0.892802 0.000000
-14.789204 -14.047557 -0.438661 345 0.450450 0.892802 0.000000
-14.789939 -14.048250 -0.432414 353 0.450450 0.892802 0.000000
-14.789241 -14.047585 -0.426130 319 0.450450 0.892802 0.000000
-14.788754 -14.047132 -0.419845 335 0.450450 0.892802 0.000000
-14.788047 -14.046460 -0.413561 329 0.450450 0.892802 0.000000
-14.787294 -14.045734 -0.407268 313 0.450450 0.892802 0.000000
-14.787912 -14.046332 -0.401022 325 0.450450 0.892802 0.000000
-14.788271 -14.046661 -0.394769 313 0.450450 0.892802 0.000000
-14.789091 -14.047454 -0.388521 323 0.450450 0.892802 0.000000
-14.789180 -14.047531 -0.382260 321 0.450450 0.892802 0.000000
-14.788893 -14.047260 -0.375982 337 0.450450 0.892802 0.000000
-14.787909 -14.046329 -0.369692 327 0.450450 0.892802 0.000000
-14.785607 -14.044134 -0.363373 299 0.450450 0.892802 0.000000
-14.785851 -14.044369 -0.357111 287 0.450450 0.892802 0.000000
-14.788264 -14.046655 -0.350908 307 0.450450 0.892802 0.000000
-14.788228 -14.046630 -0.344638 329 0.450450 0.892802 0.000000
-14.787989 -14.046397 -0.338370 299 0.450450 0.892802 0.000000
-14.787688 -14.046113 -0.332103 297 0.450450 0.892802 0.000000
-14.787130 -14.045577 -0.325818 309 0.450450 0.892802 0.000000
-14.786619 -14.045092 -0.319543 317 0.450450 0.892802 0.000000
-14.786949 -14.045411 -0.313289 335 0.450450 0.892802 0.000000
-14.787395 -14.045838 -0.307035 303 0.450450 0.892802 0.000000
-14.787148 -14.045600 -0.300767 329 0.450450 0.892802 0.000000
-14.786941 -14.045406 -0.294499 323 0.450450 0.892802 0.000000
-14.784833 -14.043400 -0.288189 311 0.450450 0.892802 0.000000
-14.786277 -14.044773 -0.281955 321 0.450450 0.892802 0.000000
-14.788511 -14.046898 -0.275734 319 0.450450 0.892802 0.000000
-14.787145 -14.045598 -0.269437 305 0.450450 0.892802 0.000000
-14.795972 -14.045406 -0.670716 313 0.450450 0.892802 0.000000
-14.796332 -14.045750 -0.664462 317 0.450450 0.892802 0.000000
-14.796809 -14.046190 -0.658208 293 0.450450 0.892802 0.000000
-14.796951 -14.046327 -0.651946 287 0.450450 0.892802 0.000000
-14.795873 -14.045305 -0.645626 293 0.450450 0.892802 0.000000
-14.795594 -14.045039 -0.639339 267 0.450450 0.892802 0.000000
-14.795309 -14.044768 -0.633061 251 0.450450 0.892802 0.000000
-14.794921 -14.044400 -0.626775 261 0.450450 0.892802 0.000000
-14.794474 -14.043980 -0.620479 249 0.450450 0.892802 0.000000
-14.793339 -14.042899 -0.614170 255 0.450450 0.892802 0.000000
-14.794805 -14.044292 -0.607956 307 0.450450 0.892802 0.000000
-14.795896 -14.045323 -0.601735 309 0.450450 0.892802 0.000000
-14.795814 -14.045246 -0.595456 325 0.450450 0.892802 0.000000
-14.795458 -14.044917 -0.589169 319 0.450450 0.892802 0.000000
-14.794588 -14.044082 -0.582867 347 0.450450 0.892802 0.000000
-14.794084 -14.043603 -0.576582 327 0.450450 0.892802 0.000000
-14.793783 -14.043319 -0.570294 327 0.450450 0.892802 0.000000
-14.794393 -14.043897 -0.564048 327 0.450450 0.892802 0.000000
-14.794831 -14.044317 -0.557804 315 0.450450 0.892802 0.000000
-14.795689 -14.045128 -0.551566 315 0.450450 0.892802 0.000000
-14.796618 -14.046010 -0.545327 327 0.450450 0.892802 0.000000
-14.796580 -14.045972 -0.539057 335 0.450450 0.892802 0.000000
-14.796062 -14.045482 -0.532772 313 0.450450 0.892802 0.000000
-14.795543 -14.044989 -0.526477 321 0.450450 0.892802 0.000000
-14.794914 -14.044394 -0.520192 311 0.450450 0.892802 0.000000
-14.794497 -14.044001 -0.513906 311 0.450450 0.892802 0.000000
-14.794195 -14.043701 -0.507629 309 0.450450 0.892802 0.000000
-14.793717 -14.043258 -0.501343 303 0.450450 0.892802 0.000000
-14.795104 -14.044572 -0.495120 319 0.450450 0.892802 0.000000
-14.795588 -14.045033 -0.488865 319 0.450450 0.892802 0.000000
-14.794687 -14.044171 -0.482574 325 0.450450 0.892802 0.000000
-14.794215 -14.043719 -0.476288 317 0.450450 0.892802 0.000000
-14.793680 -14.043214 -0.470003 323 0.450450 0.892802 0.000000
-14.792766 -14.042356 -0.463712 319 0.450450 0.892802 0.000000
-14.792877 -14.042453 -0.457440 319 0.450450 0.892802 0.000000
-14.794255 -14.043762 -0.451217 341 0.450450 0.892802 0.000000
-14.792024 -14.041637 -0.444888 329 0.450450 0.892802 0.000000
-14.792215 -14.041828 -0.438626 333 0.450450 0.892802 0.000000
-14.794598 -14.044088 -0.432423 325 0.450450 0.892802 0.000000
-14.794165 -14.043681 -0.426147 309 0.450450 0.892802 0.000000
-14.793201 -14.042755 -0.419856 317 0.450450 0.892802 0.000000
-14.793765 -14.043294 -0.413601 335 0.450450 0.892802 0.000000
-14.794763 -14.044247 -0.407361 331 0.450450 0.892802 0.000000
-14.793528 -14.043069 -0.401063 305 0.450450 0.892802 0.000000
-14.792293 -14.041889 -0.394764 329 0.450450 0.892802 0.000000
-14.792956 -14.042526 -0.388518 303 0.450450 0.892802 0.000000
-14.792088 -14.041705 -0.382226 317 0.450450 0.892802 0.000000
-14.792596 -14.042185 -0.375971 329 0.450450 0.892802 0.000000
-14.793904 -14.043422 -0.369739 299 0.450450 0.892802 0.000000
-14.794304 -14.043798 -0.363485 311 0.450450 0.892802 0.000000
-14.795178 -14.044635 -0.357236 309 0.450450 0.892802 0.000000
-14.793936 -14.043450 -0.350938 309 0.450450 0.892802 0.000000
-14.794163 -14.043672 -0.344685 317 0.450450 0.892802 0.000000
-14.795045 -14.044500 -0.338437 305 0.450450 0.892802 0.000000
-14.794160 -14.043667 -0.332145 315 0.450450 0.892802 0.000000
-14.793968 -14.043486 -0.325877 325 0.450450 0.892802 0.000000
-14.793878 -14.043404 -0.319608 311 0.450450 0.892802 0.000000
-14.793529 -14.043066 -0.313341 299 0.450450 0.892802 0.000000
-14.793492 -14.043029 -0.307071 295 0.450450 0.892802 0.000000
-14.794093 -14.043598 -0.300815 321 0.450450 0.892802 0.000000
-14.795699 -14.045121 -0.294590 321 0.450450 0.892802 0.000000
-14.794434 -14.043918 -0.288292 341 0.450450 0.892802 0.000000
-14.791992 -14.041608 -0.281985 335 0.450450 0.892802 0.000000
-14.793124 -14.042683 -0.275744 337 0.450450 0.892802 0.000000
-14.793290 -14.042840 -0.269482 275 0.450450 0.892802 0.000000
