693
-14.800273 -13.970477 -0.663574 325 0.597191 0.802099 0.000000
-14.799357 -13.969600 -0.657283 323 0.597191 0.802099 0.000000
-14.800834 -13.971000 -0.651089 323 0.597191 0.802099 0.000000
-14.802214 -13.972295 -0.644886 329 0.597191 0.802099 0.000000
-14.799953 -13.970169 -0.638537 341 0.597191 0.802099 0.000000
-14.800473 -13.970654 -0.632302 309 0.597191 0.802099 0.000000
-14.801620 -13.971744 -0.626091 317 0.597191 0.802099 0.000000
-14.801442 -13.971578 -0.619832 337 0.597191 0.802099 0.000000
-14.800942 -13.971094 -0.613557 321 0.597191 0.802099 0.000000
-14.800437 -13.970619 -0.607271 343 0.597191 0.802099 0.000000
-14.799236 -13.969494 -0.600973 323 0.597191 0.802099 0.000000
-14.799433 -13.969673 -0.594721 333 0.597191 0.802099 0.000000
-14.799412 -13.969647 -0.588471 337 0.597191 0.802099 0.000000
-14.798202 -13.968516 -0.582162 345 0.597191 0.802099 0.000000
-14.799613 -13.969837 -0.575968 337 0.597191 0.802099 0.000000
-14.801174 -13.971319 -0.569774 329 0.597191 0.802099 0.000000
-14.800982 -13.971128 -0.563505 331 0.597191 0.802099 0.000000
-14.799942 -13.970148 -0.557215 319 0.597191 0.802099 0.000000
-14.800384 -13.970569 -0.550971 341 0.597191 0.802099 0.000000
-14.800293 -13.970487 -0.544721 345 0.597191 0.802099 0.000000
-14.799246 -13.969487 -0.538421 339 0.597191 0.802099 0.000000
-14.800056 -13.970262 -0.532203 349 0.597191 0.802099 0.000000
-14.800066 -13.970263 -0.525943 377 0.597191 0.802099 0.000000
-14.800500 -13.970676 -0.519709 367 0.597191 0.802099 0.000000
-14.799875 -13.970090 -0.513434 353 0.597191 0.802099 0.000000
-14.799503 -13.969738 -0.507168 363 0.597191 0.802099 0.000000
-14.800633 -13.970801 -0.500947 337 0.597191 0.802099 0.000000
-14.800362 -13.970545 -0.494689 331 0.597191 0.802099 0.000000
-14.800474 -13.970654 -0.488438 333 0.597191 0.802099 0.000000
-14.799099 -13.969348 -0.482131 331 0.597191 0.802099 0.000000
-14.799047 -13.969297 -0.475881 363 0.597191 0.802099 0.000000
-14.800701 -13.970857 -0.469676 377 0.597191 0.802099 0.000000
-14.800530 -13.970695 -0.463417 361 0.597191 0.802099 0.000000
-14.801160 -13.971295 -0.457191 339 0.597191 0.802099 0.000000
-14.801218 -13.971348 -0.450940 351 0.597191 0.802099 0.000000
-14.799984 -13.970182 -0.444642 363 0.597191 0.802099 0.000000
-14.799181 -13.969424 -0.438369 363 0.597191 0.802099 0.000000
-14.799496 -13.969715 -0.432126 377 0.597191 0.802099 0.000000
-14.801025 -13.971158 -0.425912 369 0.597191 0.802099 0.000000
-14.800536 -13.970696 -0.419646 355 0.597191 0.802099 0.000000
-14.798761 -13.969023 -0.413343 347 0.597191 0.802099 0.000000
-14.798811 -13.969068 -0.407092 315 0.597191 0.802099 0.000000
-14.799268 -13.969500 -0.400858 359 0.597191 0.802099 0.000000
-14.798558 -13.968831 -0.394584 351 0.597191 0.802099 0.000000
-14.798108 -13.968414 -0.388318 367 0.597191 0.802099 0.000000
-14.799048 -13.969296 -0.382089 355 0.597191 0.802099 0.000000
-14.800303 -13.970476 -0.375877 357 0.597191 0.802099 0.000000
-14.800659 -13.970813 -0.369634 357 0.597191 0.802099 0.000000
-14.799089 -13.969332 -0.363338 329 0.597191 0.802099 0.000000
-14.796398 -13.966788 -0.357024 321 0.597191 0.802099 0.000000
-14.797436 -13.967775 -0.350794 327 0.597191 0.802099 0.000000
-14.799051 -13.969303 -0.344588 343 0.597191 0.802099 0.000000
-14.798389 -13.968673 -0.338314 343 0.597191 0.802099 0.000000
-14.798086 -13.968390 -0.332057 355 0.597191 0.802099 0.000000
-14.799442 -13.969666 -0.325834 335 0.597191 0.802099 0.000000
-14.798389 -13.968676 -0.319564 329 0.597191 0.802099 0.000000
-14.796824 -13.967187 -0.313279 307 0.597191 0.802099 0.000000
-14.796734 -13.967105 -0.307029 297 0.597191 0.802099 0.000000
-14.796846 -13.967215 -0.300778 317 0.597191 0.802099 0.000000
-14.797922 -13.968234 -0.294548 319 0.597191 0.802099 0.000000
-14.799858 -13.970051 -0.288339 339 0.597191 0.802099 0.000000
-14.799650 -13.969859 -0.282081 303 0.597191 0.802099 0.000000
-14.798596 -13.968868 -0.275811 311 0.597191 0.802099 0.000000
-14.803728 -13.965847 -0.663562 327 0.597191 0.802099 0.000000
-14.806008 -13.967999 -0.657400 319 0.597191 0.802099 0.000000
-14.806740 -13.968684 -0.651173 305 0.597191 0.802099 0.000000
-14.805614 -13.967621 -0.644873 313 0.597191 0.802099 0.000000
-14.804632 -13.966702 -0.638573 335 0.597191 0.802099 0.000000
-14.804618 -13.966682 -0.632313 313 0.597191 0.802099 0.000000
-14.804489 -13.966569 -0.626054 291 0.597191 0.802099 0.000000
-14.804311 -13.966389 -0.619785 303 0.597191 0.802099 0.000000
-14.805034 -13.967079 -0.613558 335 0.597191 0.802099 0.000000
-14.805224 -13.967253 -0.607316 341 0.597191 0.802099 0.000000
-14.803812 -13.965929 -0.600999 325 0.597191 0.802099 0.000000
-14.803312 -13.965445 -0.594724 303 0.597191 0.802099 0.000000
-14.804724 -13.966780 -0.588521 353 0.597191 0.802099 0.000000
-14.805274 -13.967301 -0.582295 345 0.597191 0.802099 0.000000
-14.805245 -13.967270 -0.576035 351 0.597191 0.802099 0.000000
-14.805695 -13.967696 -0.569801 353 0.597191 0.802099 0.000000
-14.805401 -13.967422 -0.563534 307 0.597191 0.802099 0.000000
-14.805786 -13.967782 -0.557290 331 0.597191 0.802099 0.000000
-14.805217 -13.967240 -0.551015 345 0.597191 0.802099 0.000000
-14.805339 -13.967359 -0.544764 359 0.597191 0.802099 0.000000
-14.805833 -13.967823 -0.538519 363 0.597191 0.802099 0.000000
-14.805641 -13.967644 -0.532261 371 0.597191 0.802099 0.000000
-14.805284 -13.967303 -0.525994 337 0.597191 0.802099 0.000000
-14.805239 -13.967258 -0.519734 349 0.597191 0.802099 0.000000
-14.806258 -13.968219 -0.513514 361 0.597191 0.802099 0.000000
-14.804775 -13.966822 -0.507208 355 0.597191 0.802099 0.000000
-14.802438 -13.964621 -0.500880 327 0.597191 0.802099 0.000000
-14.803349 -13.965479 -0.494651 319 0.597191 0.802099 0.000000
-14.804259 -13.966335 -0.488433 361 0.597191 0.802099 0.000000
-14.803401 -13.965531 -0.482151 341 0.597191 0.802099 0.000000
-14.803452 -13.965578 -0.475900 323 0.597191 0.802099 0.000000
-14.803939 -13.966036 -0.469665 345 0.597191 0.802099 0.000000
-14.803887 -13.965985 -0.463406 333 0.597191 0.802099 0.000000
-14.804250 -13.966328 -0.457162 367 0.597191 0.802099 0.000000
-14.803713 -13.965813 -0.450897 357 0.597191 0.802099 0.000000
-14.804130 -13.966213 -0.444653 363 0.597191 0.802099 0.000000
-14.804023 -13.966104 -0.438394 333 0.597191 0.802099 0.000000
-14.804167 -13.966240 -0.432152 347 0.597191 0.802099 0.000000
-14.804373 -13.966441 -0.425900 351 0.597191 0.802099 0.000000
-14.803562 -13.965675 -0.419628 347 0.597191 0.802099 0.000000
-14.803917 -13.966011 -0.413384 369 0.597191 0.802099 0.000000
-14.803638 -13.965749 -0.407127 391 0.597191 0.802099 0.000000
-14.803359 -13.965485 -0.400859 357 0.597191 0.802099 0.000000
-14.802962 -13.965112 -0.394603 337 0.597191 0.802099 0.000000
-14.804335 -13.966401 -0.388380 355 0.597191 0.802099 0.000000
-14.803782 -13.965888 -0.382115 355 0.597191 0.802099 0.000000
-14.802908 -13.965056 -0.375843 347 0.597191 0.802099 0.000000
-14.803630 -13.965733 -0.369606 343 0.597191 0.802099 0.000000
-14.803766 -13.965863 -0.363364 351 0.597191 0.802099 0.000000
-14.804537 -13.966592 -0.357127 351 0.597191 0.802099 0.000000
-14.804297 -13.966361 -0.350869 319 0.597191 0.802099 0.000000
-14.804049 -13.966138 -0.344611 319 0.597191 0.802099 0.000000
-14.804083 -13.966156 -0.338361 329 0.597191 0.802099 0.000000
-14.803836 -13.965932 -0.332103 345 0.597191 0.802099 0.000000
-14.803164 -13.965296 -0.325839 353 0.597191 0.802099 0.000000
-14.803607 -13.965715 -0.319595 351 0.597191 0.802099 0.000000
-14.803733 -13.965824 -0.313344 329 0.597191 0.802099 0.000000
-14.803268 -13.965396 -0.307088 341 0.597191 0.802099 0.000000
-14.803442 -13.965556 -0.300836 331 0.597191 0.802099 0.000000
-14.802232 -13.964411 -0.294567 339 0.597191 0.802099 0.000000
-14.801929 -13.964128 -0.288310 307 0.597191 0.802099 0.000000
-14.803694 -13.965791 -0.282093 307 0.597191 0.802099 0.000000
-14.804291 -13.966352 -0.275847 289 0.597191 0.802099 0.000000
-14.811921 -13.965697 -0.663754 345 0.597191 0.802099 0.000000
-14.812120 -13.965892 -0.657502 307 0.597191 0.802099 0.000000
-14.810831 -13.964668 -0.651184 293 0.597191 0.802099 0.000000
-14.810872 -13.964708 -0.644934 333 0.597191 0.802099 0.000000
-14.811117 -13.964940 -0.638681 329 0.597191 0.802099 0.000000
-14.811050 -13.964877 -0.632422 317 0.597191 0.802099 0.000000
-14.809966 -13.963861 -0.626122 301 0.597191 0.802099 0.000000
-14.809310 -13.963236 -0.619838 323 0.597191 0.802099 0.000000
-14.809862 -13.963759 -0.613603 333 0.597191 0.802099 0.000000
-14.809583 -13.963496 -0.607335 321 0.597191 0.802099 0.000000
-14.810460 -13.964314 -0.601117 333 0.597191 0.802099 0.000000
-14.811598 -13.965397 -0.594906 337 0.597191 0.802099 0.000000
-14.810561 -13.964419 -0.588606 337 0.597191 0.802099 0.000000
-14.809639 -13.963537 -0.582314 321 0.597191 0.802099 0.000000
-14.808963 -13.962908 -0.576030 317 0.597191 0.802099 0.000000
-14.809145 -13.963076 -0.569778 317 0.597191 0.802099 0.000000
-14.810338 -13.964205 -0.563567 339 0.597191 0.802099 0.000000
-14.811740 -13.965517 -0.557364 349 0.597191 0.802099 0.000000
-14.810270 -13.964133 -0.551057 359 0.597191 0.802099 0.000000
-14.809165 -13.963099 -0.544758 357 0.597191 0.802099 0.000000
-14.809762 -13.963660 -0.538522 369 0.597191 0.802099 0.000000
-14.808715 -13.962662 -0.532232 369 0.597191 0.802099 0.000000
-14.808944 -13.962881 -0.525989 331 0.597191 0.802099 0.000000
-14.809330 -13.963243 -0.519746 313 0.597191 0.802099 0.000000
-14.809067 -13.962993 -0.513478 339 0.597191 0.802099 0.000000
-14.808327 -13.962298 -0.507205 347 0.597191 0.802099 0.000000
-14.808925 -13.962859 -0.500969 341 0.597191 0.802099 0.000000
-14.810836 -13.964669 -0.494781 355 0.597191 0.802099 0.000000
-14.811707 -13.965481 -0.488552 351 0.597191 0.802099 0.000000
-14.811172 -13.964981 -0.482277 333 0.597191 0.802099 0.000000
-14.810635 -13.964479 -0.476002 345 0.597191 0.802099 0.000000
-14.810744 -13.964576 -0.469751 327 0.597191 0.802099 0.000000
-14.810632 -13.964476 -0.463502 349 0.597191 0.802099 0.000000
-14.809568 -13.963463 -0.457212 373 0.597191 0.802099 0.000000
-14.808180 -13.962158 -0.450915 361 0.597191 0.802099 0.000000
-14.808440 -13.962404 -0.444672 365 0.597191 0.802099 0.000000
-14.808004 -13.961985 -0.438406 337 0.597191 0.802099 0.000000
-14.807780 -13.961781 -0.432138 325 0.597191 0.802099 0.000000
-14.807822 -13.961820 -0.425888 341 0.597191 0.802099 0.000000
-14.807434 -13.961453 -0.419631 339 0.597191 0.802099 0.000000
-14.807906 -13.961899 -0.413386 347 0.597191 0.802099 0.000000
-14.807142 -13.961172 -0.407114 365 0.597191 0.802099 0.000000
-14.807662 -13.961669 -0.400878 337 0.597191 0.802099 0.000000
-14.808924 -13.962854 -0.394656 347 0.597191 0.802099 0.000000
-14.809334 -13.963236 -0.388412 351 0.597191 0.802099 0.000000
-14.810792 -13.964621 -0.382199 339 0.597191 0.802099 0.000000
-14.809612 -13.963501 -0.375920 349 0.597191 0.802099 0.000000
-14.808091 -13.962074 -0.369624 307 0.597191 0.802099 0.000000
-14.808977 -13.962897 -0.363395 321 0.597191 0.802099 0.000000
-14.809003 -13.962924 -0.357145 337 0.597191 0.802099 0.000000
-14.808975 -13.962906 -0.350895 329 0.597191 0.802099 0.000000
-14.808686 -13.962623 -0.344628 309 0.597191 0.802099 0.000000
-14.807642 -13.961638 -0.338357 327 0.597191 0.802099 0.000000
-14.807018 -13.961054 -0.332093 353 0.597191 0.802099 0.000000
-14.808475 -13.962425 -0.325869 343 0.597191 0.802099 0.000000
-14.809396 -13.963304 -0.319640 345 0.597191 0.802099 0.000000
-14.807660 -13.961661 -0.313346 299 0.597191 0.802099 0.000000
-14.807891 -13.961882 -0.307104 325 0.597191 0.802099 0.000000
-14.810516 -13.964355 -0.300909 327 0.597191 0.802099 0.000000
-14.810752 -13.964567 -0.294657 341 0.597191 0.802099 0.000000
-14.810012 -13.963874 -0.288394 347 0.597191 0.802099 0.000000
-14.808427 -13.962380 -0.282109 301 0.597191 0.802099 0.000000
-14.807638 -13.961635 -0.275846 313 0.597191 0.802099 0.000000
-14.814954 -13.960022 -0.663699 329 0.597191 0.802099 0.000000
-14.815372 -13.960423 -0.657465 339 0.597191 0.802099 0.000000
-14.815407 -13.960456 -0.651205 321 0.597191 0.802099 0.000000
-14.814753 -13.959832 -0.644921 341 0.597191 0.802099 0.000000
-14.815216 -13.960270 -0.638676 327 0.597191 0.802099 0.000000
-14.814560 -13.959646 -0.632392 303 0.597191 0.802099 0.000000
-14.814760 -13.959842 -0.626150 321 0.597191 0.802099 0.000000
-14.814896 -13.959970 -0.619899 329 0.597191 0.802099 0.000000
-14.815571 -13.960595 -0.613662 333 0.597191 0.802099 0.000000
-14.816764 -13.961723 -0.607461 321 0.597191 0.802099 0.000000
-14.815843 -13.960855 -0.601159 325 0.597191 0.802099 0.000000
-14.815917 -13.960935 -0.594908 327 0.597191 0.802099 0.000000
-14.817547 -13.962461 -0.588713 335 0.597191 0.802099 0.000000
-14.816556 -13.961535 -0.582422 347 0.597191 0.802099 0.000000
-14.815727 -13.960742 -0.576130 339 0.597191 0.802099 0.000000
-14.814792 -13.959861 -0.569839 335 0.597191 0.802099 0.000000
-14.814545 -13.959637 -0.563571 341 0.597191 0.802099 0.000000
-14.814250 -13.959348 -0.557303 331 0.597191 0.802099 0.000000
-14.812673 -13.957861 -0.550988 341 0.597191 0.802099 0.000000
-14.814013 -13.959123 -0.544785 355 0.597191 0.802099 0.000000
-14.814132 -13.959240 -0.538534 351 0.597191 0.802099 0.000000
-14.814410 -13.959499 -0.532291 341 0.597191 0.802099 0.000000
-14.815493 -13.960525 -0.526071 375 0.597191 0.802099 0.000000
-14.814650 -13.959720 -0.519789 383 0.597191 0.802099 0.000000
-14.813172 -13.958329 -0.513483 359 0.597191 0.802099 0.000000
-14.814985 -13.960044 -0.507285 321 0.597191 0.802099 0.000000
-14.816850 -13.961802 -0.501098 329 0.597191 0.802099 0.000000
-14.815419 -13.960450 -0.494791 363 0.597191 0.802099 0.000000
-14.814891 -13.959956 -0.488516 357 0.597191 0.802099 0.000000
-14.814628 -13.959706 -0.482258 329 0.597191 0.802099 0.000000
-14.815702 -13.960711 -0.476038 327 0.597191 0.802099 0.000000
-14.815587 -13.960608 -0.469779 353 0.597191 0.802099 0.000000
-14.815589 -13.960603 -0.463519 369 0.597191 0.802099 0.000000
-14.816171 -13.961150 -0.457283 355 0.597191 0.802099 0.000000
-14.815157 -13.960192 -0.451002 347 0.597191 0.802099 0.000000
-14.813714 -13.958841 -0.444706 345 0.597191 0.802099 0.000000
-14.812479 -13.957677 -0.438407 341 0.597191 0.802099 0.000000
-14.812897 -13.958064 -0.432173 371 0.597191 0.802099 0.000000
-14.814213 -13.959307 -0.425951 367 0.597191 0.802099 0.000000
-14.814256 -13.959347 -0.419700 351 0.597191 0.802099 0.000000
-14.814672 -13.959734 -0.413456 357 0.597191 0.802099 0.000000
-14.813642 -13.958761 -0.407176 337 0.597191 0.802099 0.000000
-14.813521 -13.958654 -0.400927 321 0.597191 0.802099 0.000000
-14.814352 -13.959434 -0.394689 359 0.597191 0.802099 0.000000
-14.813111 -13.958263 -0.388410 359 0.597191 0.802099 0.000000
-14.812613 -13.957793 -0.382145 357 0.597191 0.802099 0.000000
-14.811951 -13.957176 -0.375871 343 0.597191 0.802099 0.000000
-14.811821 -13.957047 -0.369612 331 0.597191 0.802099 0.000000
-14.812168 -13.957377 -0.363368 359 0.597191 0.802099 0.000000
-14.813210 -13.958357 -0.357148 321 0.597191 0.802099 0.000000
-14.815208 -13.960238 -0.350940 285 0.597191 0.802099 0.000000
-14.812996 -13.958153 -0.344640 341 0.597191 0.802099 0.000000
-14.811466 -13.956717 -0.338344 335 0.597191 0.802099 0.000000
-14.814051 -13.959146 -0.332150 341 0.597191 0.802099 0.000000
-14.812950 -13.958103 -0.325880 353 0.597191 0.802099 0.000000
-14.812015 -13.957223 -0.319609 301 0.597191 0.802099 0.000000
-14.812080 -13.957294 -0.313358 313 0.597191 0.802099 0.000000
-14.810556 -13.955853 -0.307072 313 0.597191 0.802099 0.000000
-14.810145 -13.955468 -0.300816 311 0.597191 0.802099 0.000000
-14.810906 -13.956176 -0.294579 329 0.597191 0.802099 0.000000
-14.813107 -13.958250 -0.288368 329 0.597191 0.802099 0.000000
-14.813745 -13.958856 -0.282132 323 0.597191 0.802099 0.000000
-14.814030 -13.959122 -0.275889 321 0.597191 0.802099 0.000000
-14.820831 -13.956672 -0.663769 317 0.597191 0.802099 0.000000
-14.820817 -13.956666 -0.657509 333 0.597191 0.802099 0.000000
-14.820164 -13.956042 -0.651225 313 0.597191 0.802099 0.000000
-14.820252 -13.956135 -0.644964 329 0.597191 0.802099 0.000000
-14.819073 -13.955013 -0.638655 329 0.597191 0.802099 0.000000
-14.818731 -13.954700 -0.632388 315 0.597191 0.802099 0.000000
-14.819564 -13.955480 -0.626160 285 0.597191 0.802099 0.000000
-14.820606 -13.956458 -0.619950 321 0.597191 0.802099 0.000000
-14.821815 -13.957600 -0.613739 331 0.597191 0.802099 0.000000
-14.820402 -13.956274 -0.607432 315 0.597191 0.802099 0.000000
-14.819466 -13.955394 -0.601130 327 0.597191 0.802099 0.000000
-14.819977 -13.955871 -0.594895 319 0.597191 0.802099 0.000000
-14.819683 -13.955594 -0.588628 333 0.597191 0.802099 0.000000
-14.818809 -13.954764 -0.582336 309 0.597191 0.802099 0.000000
-14.819790 -13.955693 -0.576117 325 0.597191 0.802099 0.000000
-14.821459 -13.957264 -0.569931 333 0.597191 0.802099 0.000000
-14.820201 -13.956079 -0.563623 349 0.597191 0.802099 0.000000
-14.818836 -13.954794 -0.557315 351 0.597191 0.802099 0.000000
-14.819283 -13.955205 -0.551071 339 0.597191 0.802099 0.000000
-14.820256 -13.956127 -0.544852 333 0.597191 0.802099 0.000000
-14.820331 -13.956193 -0.538601 349 0.597191 0.802099 0.000000
-14.821186 -13.957005 -0.532373 341 0.597191 0.802099 0.000000
-14.822268 -13.958016 -0.526162 357 0.597191 0.802099 0.000000
-14.820573 -13.956420 -0.519838 321 0.597191 0.802099 0.000000
-14.818072 -13.954072 -0.513501 335 0.597191 0.802099 0.000000
-14.816808 -13.952882 -0.507203 349 0.597191 0.802099 0.000000
-14.817029 -13.953081 -0.500951 349 0.597191 0.802099 0.000000
-14.818479 -13.954447 -0.494747 341 0.597191 0.802099 0.000000
-14.819695 -13.955595 -0.488536 329 0.597191 0.802099 0.000000
-14.818743 -13.954700 -0.482244 349 0.597191 0.802099 0.000000
-14.818801 -13.954752 -0.475994 329 0.597191 0.802099 0.000000
-14.818216 -13.954200 -0.469719 359 0.597191 0.802099 0.000000
-14.818258 -13.954239 -0.463468 355 0.597191 0.802099 0.000000
-14.818588 -13.954541 -0.457225 345 0.597191 0.802099 0.000000
-14.819640 -13.955541 -0.451005 337 0.597191 0.802099 0.000000
-14.820050 -13.955922 -0.444761 335 0.597191 0.802099 0.000000
-14.818457 -13.954423 -0.438456 331 0.597191 0.802099 0.000000
-14.818820 -13.954765 -0.432223 353 0.597191 0.802099 0.000000
-14.819135 -13.955054 -0.425969 335 0.597191 0.802099 0.000000
-14.818746 -13.954688 -0.419703 349 0.597191 0.802099 0.000000
-14.818568 -13.954522 -0.413444 355 0.597191 0.802099 0.000000
-14.817915 -13.953912 -0.407180 351 0.597191 0.802099 0.000000
-14.818966 -13.954898 -0.400950 369 0.597191 0.802099 0.000000
-14.819594 -13.955484 -0.394714 353 0.597191 0.802099 0.000000
-14.819409 -13.955312 -0.388456 335 0.597191 0.802099 0.000000
-14.820242 -13.956104 -0.382228 357 0.597191 0.802099 0.000000
-14.819157 -13.955074 -0.375948 361 0.597191 0.802099 0.000000
-14.820670 -13.956506 -0.369734 353 0.597191 0.802099 0.000000
-14.821923 -13.957684 -0.363502 365 0.597191 0.802099 0.000000
-14.819337 -13.955252 -0.357186 349 0.597191 0.802099 0.000000
-14.818730 -13.954679 -0.350921 333 0.597191 0.802099 0.000000
-14.818490 -13.954448 -0.344664 351 0.597191 0.802099 0.000000
-14.817294 -13.953315 -0.338385 333 0.597191 0.802099 0.000000
-14.818317 -13.954289 -0.332155 353 0.597191 0.802099 0.000000
-14.818136 -13.954108 -0.325896 357 0.597191 0.802099 0.000000
-14.817350 -13.953377 -0.319634 327 0.597191 0.802099 0.000000
-14.817479 -13.953487 -0.313382 295 0.597191 0.802099 0.000000
-14.817655 -13.953662 -0.307131 325 0.597191 0.802099 0.000000
-14.818142 -13.954120 -0.300886 317 0.597191 0.802099 0.000000
-14.818849 -13.954783 -0.294649 321 0.597191 0.802099 0.000000
-14.818545 -13.954501 -0.288392 315 0.597191 0.802099 0.000000
-14.817171 -13.953194 -0.282115 329 0.597191 0.802099 0.000000
-14.818034 -13.954013 -0.275876 335 0.597191 0.802099 0.000000
-14.826225 -13.952550 -0.663805 331 0.597191 0.802099 0.000000
-14.826739 -13.953042 -0.657570 313 0.597191 0.802099 0.000000
-14.828110 -13.954329 -0.651377 317 0.597191 0.802099 0.000000
-14.827886 -13.954112 -0.645099 333 0.597191 0.802099 0.000000
-14.826425 -13.952747 -0.638782 341 0.597191 0.802099 0.000000
-14.827420 -13.953675 -0.632563 323 0.597191 0.802099 0.000000
-14.827087 -13.953367 -0.626296 323 0.597191 0.802099 0.000000
-14.825417 -13.951791 -0.619961 289 0.597191 0.802099 0.000000
-14.824754 -13.951160 -0.613678 303 0.597191 0.802099 0.000000
-14.826010 -13.952353 -0.607476 331 0.597191 0.802099 0.000000
-14.826301 -13.952623 -0.601223 347 0.597191 0.802099 0.000000
-14.824252 -13.950686 -0.594882 337 0.597191 0.802099 0.000000
-14.824538 -13.950965 -0.588639 325 0.597191 0.802099 0.000000
-14.826646 -13.952950 -0.582469 329 0.597191 0.802099 0.000000
-14.824426 -13.950857 -0.576120 313 0.597191 0.802099 0.000000
-14.824031 -13.950484 -0.569853 317 0.597191 0.802099 0.000000
-14.825009 -13.951398 -0.563634 335 0.597191 0.802099 0.000000
-14.825341 -13.951715 -0.557391 369 0.597191 0.802099 0.000000
-14.824678 -13.951084 -0.551107 323 0.597191 0.802099 0.000000
-14.823884 -13.950345 -0.544824 335 0.597191 0.802099 0.000000
-14.825084 -13.951466 -0.538613 369 0.597191 0.802099 0.000000
-14.825047 -13.951428 -0.532353 339 0.597191 0.802099 0.000000
-14.825372 -13.951739 -0.526110 351 0.597191 0.802099 0.000000
-14.825272 -13.951650 -0.519850 337 0.597191 0.802099 0.000000
-14.823843 -13.950298 -0.513544 353 0.597191 0.802099 0.000000
-14.824167 -13.950609 -0.507301 343 0.597191 0.802099 0.000000
-14.823800 -13.950260 -0.501034 341 0.597191 0.802099 0.000000
-14.824610 -13.951021 -0.494806 353 0.597191 0.802099 0.000000
-14.825724 -13.952071 -0.488585 351 0.597191 0.802099 0.000000
-14.823599 -13.950071 -0.482265 355 0.597191 0.802099 0.000000
-14.822912 -13.949421 -0.475982 353 0.597191 0.802099 0.000000
-14.823916 -13.950368 -0.469762 351 0.597191 0.802099 0.000000
-14.823927 -13.950369 -0.463512 343 0.597191 0.802099 0.000000
-14.824236 -13.950666 -0.457259 345 0.597191 0.802099 0.000000
-14.823964 -13.950409 -0.451001 335 0.597191 0.802099 0.000000
-14.823536 -13.949998 -0.444735 341 0.597191 0.802099 0.000000
-14.825230 -13.951602 -0.438529 357 0.597191 0.802099 0.000000
-14.824739 -13.951140 -0.432263 353 0.597191 0.802099 0.000000
-14.824413 -13.950824 -0.425996 345 0.597191 0.802099 0.000000
-14.825628 -13.951970 -0.419775 353 0.597191 0.802099 0.000000
-14.823801 -13.950254 -0.413472 355 0.597191 0.802099 0.000000
-14.823309 -13.949790 -0.407206 377 0.597191 0.802099 0.000000
-14.824783 -13.951176 -0.400992 361 0.597191 0.802099 0.000000
-14.825514 -13.951859 -0.394755 355 0.597191 0.802099 0.000000
-14.825174 -13.951545 -0.388488 331 0.597191 0.802099 0.000000
-14.823502 -13.949967 -0.382194 343 0.597191 0.802099 0.000000
-14.824122 -13.950548 -0.375958 349 0.597191 0.802099 0.000000
-14.824319 -13.950728 -0.369706 351 0.597191 0.802099 0.000000
-14.823963 -13.950401 -0.363449 361 0.597191 0.802099 0.000000
-14.823990 -13.950429 -0.357199 339 0.597191 0.802099 0.000000
-14.823914 -13.950345 -0.350939 345 0.597191 0.802099 0.000000
-14.824152 -13.950572 -0.344687 323 0.597191 0.802099 0.000000
-14.823584 -13.950046 -0.338422 359 0.597191 0.802099 0.000000
-14.823929 -13.950360 -0.332179 351 0.597191 0.802099 0.000000
-14.824644 -13.951030 -0.325942 337 0.597191 0.802099 0.000000
-14.824130 -13.950549 -0.319677 327 0.597191 0.802099 0.000000
-14.823516 -13.949971 -0.313412 335 0.597191 0.802099 0.000000
-14.824003 -13.950429 -0.307168 351 0.597191 0.802099 0.000000
-14.825297 -13.951653 -0.300945 361 0.597191 0.802099 0.000000
-14.824346 -13.950759 -0.294674 321 0.597191 0.802099 0.000000
-14.824200 -13.950619 -0.288415 317 0.597191 0.802099 0.000000
-14.824265 -13.950677 -0.282164 333 0.597191 0.802099 0.000000
-14.823635 -13.950086 -0.275900 307 0.597191 0.802099 0.000000
-14.830905 -13.947568 -0.663808 321 0.597191 0.802099 0.000000
-14.830736 -13.947409 -0.657540 333 0.597191 0.802099 0.000000
-14.831676 -13.948291 -0.651331 347 0.597191 0.802099 0.000000
-14.832572 -13.949136 -0.645102 347 0.597191 0.802099 0.000000
-14.832505 -13.949072 -0.638843 325 0.597191 0.802099 0.000000
-14.832584 -13.949142 -0.632592 307 0.597191 0.802099 0.000000
-14.832354 -13.948933 -0.626324 313 0.597191 0.802099 0.000000
-14.832489 -13.949061 -0.620063 321 0.597191 0.802099 0.000000
-14.831889 -13.948496 -0.613788 333 0.597191 0.802099 0.000000
-14.829412 -13.946166 -0.607421 315 0.597191 0.802099 0.000000
-14.828538 -13.945336 -0.601129 311 0.597191 0.802099 0.000000
-14.829731 -13.946465 -0.594918 321 0.597191 0.802099 0.000000
-14.831038 -13.947688 -0.588715 333 0.597191 0.802099 0.000000
-14.832451 -13.949022 -0.582512 321 0.597191 0.802099 0.000000
-14.831616 -13.948236 -0.576230 351 0.597191 0.802099 0.000000
-14.829303 -13.946054 -0.569881 341 0.597191 0.802099 0.000000
-14.830379 -13.947073 -0.563661 335 0.597191 0.802099 0.000000
-14.831951 -13.948541 -0.557466 349 0.597191 0.802099 0.000000
-14.832496 -13.949058 -0.551231 355 0.597191 0.802099 0.000000
-14.830973 -13.947630 -0.544915 325 0.597191 0.802099 0.000000
-14.831563 -13.948185 -0.538679 363 0.597191 0.802099 0.000000
-14.832652 -13.949203 -0.532459 339 0.597191 0.802099 0.000000
-14.831489 -13.948108 -0.526160 351 0.597191 0.802099 0.000000
-14.830490 -13.947163 -0.519869 359 0.597191 0.802099 0.000000
-14.829696 -13.946424 -0.513586 347 0.597191 0.802099 0.000000
-14.829972 -13.946682 -0.507344 339 0.597191 0.802099 0.000000
-14.830241 -13.946934 -0.501091 315 0.597191 0.802099 0.000000
-14.830305 -13.946993 -0.494840 337 0.597191 0.802099 0.000000
-14.829933 -13.946639 -0.488574 343 0.597191 0.802099 0.000000
-14.830522 -13.947193 -0.482338 349 0.597191 0.802099 0.000000
-14.830791 -13.947445 -0.476095 347 0.597191 0.802099 0.000000
-14.829558 -13.946294 -0.469797 381 0.597191 0.802099 0.000000
-14.829458 -13.946191 -0.463537 361 0.597191 0.802099 0.000000
-14.829244 -13.945993 -0.457279 351 0.597191 0.802099 0.000000
-14.829394 -13.946136 -0.451028 333 0.597191 0.802099 0.000000
-14.830985 -13.947631 -0.444823 341 0.597191 0.802099 0.000000
-14.830447 -13.947115 -0.438548 369 0.597191 0.802099 0.000000
-14.829426 -13.946164 -0.432267 365 0.597191 0.802099 0.000000
-14.830852 -13.947496 -0.426053 373 0.597191 0.802099 0.000000
-14.830361 -13.947033 -0.419778 373 0.597191 0.802099 0.000000
-14.829285 -13.946024 -0.413498 379 0.597191 0.802099 0.000000
-14.830439 -13.947107 -0.407277 379 0.597191 0.802099 0.000000
-14.830370 -13.947044 -0.401017 361 0.597191 0.802099 0.000000
-14.830568 -13.947237 -0.394765 357 0.597191 0.802099 0.000000
-14.829532 -13.946260 -0.388485 361 0.597191 0.802099 0.000000
-14.828603 -13.945386 -0.382214 347 0.597191 0.802099 0.000000
-14.830084 -13.946776 -0.375989 345 0.597191 0.802099 0.000000
-14.830962 -13.947594 -0.369761 337 0.597191 0.802099 0.000000
-14.828924 -13.945677 -0.363460 337 0.597191 0.802099 0.000000
-14.828676 -13.945453 -0.357202 317 0.597191 0.802099 0.000000
-14.830306 -13.946980 -0.350987 345 0.597191 0.802099 0.000000
-14.830012 -13.946703 -0.344719 321 0.597191 0.802099 0.000000
-14.829076 -13.945823 -0.338448 315 0.597191 0.802099 0.000000
-14.829470 -13.946190 -0.332204 321 0.597191 0.802099 0.000000
-14.829700 -13.946410 -0.325952 335 0.597191 0.802099 0.000000
-14.828974 -13.945727 -0.319689 351 0.597191 0.802099 0.000000
-14.830799 -13.947441 -0.313471 335 0.597191 0.802099 0.000000
-14.832367 -13.948915 -0.307246 329 0.597191 0.802099 0.000000
-14.831095 -13.947721 -0.300968 347 0.597191 0.802099 0.000000
-14.830525 -13.947179 -0.294704 325 0.597191 0.802099 0.000000
-14.829951 -13.946647 -0.288439 321 0.597191 0.802099 0.000000
-14.829007 -13.945760 -0.282167 335 0.597191 0.802099 0.000000
-14.829010 -13.945753 -0.275917 343 0.597191 0.802099 0.000000
-14.837061 -13.944319 -0.663886 349 0.597191 0.802099 0.000000
-14.836790 -13.944062 -0.657619 325 0.597191 0.802099 0.000000
-14.836558 -13.943851 -0.651351 309 0.597191 0.802099 0.000000
-14.836272 -13.943582 -0.645073 307 0.597191 0.802099 0.000000
-14.836102 -13.943420 -0.638805 309 0.597191 0.802099 0.000000
-14.837255 -13.944503 -0.632604 309 0.597191 0.802099 0.000000
-14.838470 -13.945637 -0.626392 319 0.597191 0.802099 0.000000
-14.837650 -13.944864 -0.620100 305 0.597191 0.802099 0.000000
-14.836823 -13.944086 -0.613807 313 0.597191 0.802099 0.000000
-14.836906 -13.944172 -0.607547 305 0.597191 0.802099 0.000000
-14.839279 -13.946400 -0.601384 303 0.597191 0.802099 0.000000
-14.839415 -13.946529 -0.595133 319 0.597191 0.802099 0.000000
-14.837845 -13.945049 -0.588807 331 0.597191 0.802099 0.000000
-14.837331 -13.944568 -0.582532 363 0.597191 0.802099 0.000000
-14.837139 -13.944389 -0.576264 363 0.597191 0.802099 0.000000
-14.836154 -13.943455 -0.569973 381 0.597191 0.802099 0.000000
-14.835899 -13.943224 -0.563705 347 0.597191 0.802099 0.000000
-14.836943 -13.944204 -0.557485 329 0.597191 0.802099 0.000000
-14.835992 -13.943310 -0.551194 329 0.597191 0.802099 0.000000
-14.837190 -13.944429 -0.544982 331 0.597191 0.802099 0.000000
-14.837523 -13.944748 -0.538739 341 0.597191 0.802099 0.000000
-14.835028 -13.942389 -0.532393 335 0.597191 0.802099 0.000000
-14.835633 -13.942959 -0.526157 339 0.597191 0.802099 0.000000
-14.837076 -13.944318 -0.519943 359 0.597191 0.802099 0.000000
-14.836765 -13.944029 -0.513676 359 0.597191 0.802099 0.000000
-14.836196 -13.943488 -0.507401 353 0.597191 0.802099 0.000000
-14.836936 -13.944192 -0.501174 359 0.597191 0.802099 0.000000
-14.835553 -13.942892 -0.494867 349 0.597191 0.802099 0.000000
-14.834657 -13.942042 -0.488585 365 0.597191 0.802099 0.000000
-14.836052 -13.943351 -0.482372 347 0.597191 0.802099 0.000000
-14.836259 -13.943552 -0.476120 367 0.597191 0.802099 0.000000
-14.835252 -13.942599 -0.469839 357 0.597191 0.802099 0.000000
-14.835349 -13.942698 -0.463588 371 0.597191 0.802099 0.000000
-14.835460 -13.942793 -0.457337 369 0.597191 0.802099 0.000000
-14.836043 -13.943342 -0.451091 339 0.597191 0.802099 0.000000
-14.836145 -13.943433 -0.444840 363 0.597191 0.802099 0.000000
-14.835069 -13.942422 -0.438550 355 0.597191 0.802099 0.000000
-14.835746 -13.943061 -0.432323 381 0.597191 0.802099 0.000000
-14.837336 -13.944555 -0.426108 359 0.597191 0.802099 0.000000
-14.835782 -13.943089 -0.419813 369 0.597191 0.802099 0.000000
-14.833743 -13.941184 -0.413502 365 0.597191 0.802099 0.000000
-14.835006 -13.942369 -0.407280 349 0.597191 0.802099 0.000000
-14.834719 -13.942101 -0.401012 345 0.597191 0.802099 0.000000
-14.834221 -13.941630 -0.394747 349 0.597191 0.802099 0.000000
-14.834685 -13.942057 -0.388512 339 0.597191 0.802099 0.000000
-14.835038 -13.942391 -0.382259 345 0.597191 0.802099 0.000000
-14.835497 -13.942824 -0.376024 335 0.597191 0.802099 0.000000
-14.835475 -13.942799 -0.369765 337 0.597191 0.802099 0.000000
-14.834813 -13.942182 -0.363491 331 0.597191 0.802099 0.000000
-14.835801 -13.943103 -0.357261 313 0.597191 0.802099 0.000000
-14.835554 -13.942880 -0.351003 345 0.597191 0.802099 0.000000
-14.833131 -13.940594 -0.344696 341 0.597191 0.802099 0.000000
-14.832987 -13.940468 -0.338437 329 0.597191 0.802099 0.000000
-14.833340 -13.940789 -0.332194 347 0.597191 0.802099 0.000000
-14.834744 -13.942117 -0.325970 339 0.597191 0.802099 0.000000
-14.836632 -13.943881 -0.319763 353 0.597191 0.802099 0.000000
-14.835845 -13.943149 -0.313490 337 0.597191 0.802099 0.000000
-14.835277 -13.942609 -0.307225 363 0.597191 0.802099 0.000000
-14.835074 -13.942423 -0.300967 349 0.597191 0.802099 0.000000
-14.834827 -13.942184 -0.294709 335 0.597191 0.802099 0.000000
-14.834197 -13.941594 -0.288445 337 0.597191 0.802099 0.000000
-14.834473 -13.941852 -0.282192 351 0.597191 0.802099 0.000000
-14.835227 -13.942568 -0.275955 327 0.597191 0.802099 0.000000
-14.842168 -13.940077 -0.663914 345 0.597191 0.802099 0.000000
-14.842311 -13.940212 -0.657663 319 0.597191 0.802099 0.000000
-14.843629 -13.941456 -0.651460 299 0.597191 0.802099 0.000000
-14.842488 -13.940382 -0.645151 287 0.597191 0.802099 0.000000
-14.841576 -13.939519 -0.638849 305 0.597191 0.802099 0.000000
-14.841766 -13.939694 -0.632607 299 0.597191 0.802099 0.000000
-14.840048 -13.938079 -0.626273 279 0.597191 0.802099 0.000000
-14.840771 -13.938769 -0.620046 283 0.597191 0.802099 0.000000
-14.843035 -13.940895 -0.613875 305 0.597191 0.802099 0.000000
-14.843286 -13.941119 -0.607633 305 0.597191 0.802099 0.000000
-14.842781 -13.940645 -0.601347 279 0.597191 0.802099 0.000000
-14.842275 -13.940169 -0.595072 285 0.597191 0.802099 0.000000
-14.842082 -13.939988 -0.588803 315 0.597191 0.802099 0.000000
-14.842319 -13.940215 -0.582551 329 0.597191 0.802099 0.000000
-14.841393 -13.939342 -0.576260 311 0.597191 0.802099 0.000000
-14.841842 -13.939767 -0.570025 339 0.597191 0.802099 0.000000
-14.841531 -13.939478 -0.563748 335 0.597191 0.802099 0.000000
-14.840758 -13.938745 -0.557465 323 0.597191 0.802099 0.000000
-14.842913 -13.940767 -0.551285 363 0.597191 0.802099 0.000000
-14.843987 -13.941772 -0.545064 363 0.597191 0.802099 0.000000
-14.841924 -13.939835 -0.538734 363 0.597191 0.802099 0.000000
-14.841997 -13.939900 -0.532483 347 0.597191 0.802099 0.000000
-14.841899 -13.939811 -0.526224 337 0.597191 0.802099 0.000000
-14.840524 -13.938518 -0.519916 323 0.597191 0.802099 0.000000
-14.841381 -13.939331 -0.513688 315 0.597191 0.802099 0.000000
-14.841179 -13.939131 -0.507420 347 0.597191 0.802099 0.000000
-14.841933 -13.939847 -0.501193 339 0.597191 0.802099 0.000000
-14.842312 -13.940202 -0.494949 355 0.597191 0.802099 0.000000
-14.840076 -13.938096 -0.488620 365 0.597191 0.802099 0.000000
-14.838694 -13.936797 -0.482313 363 0.597191 0.802099 0.000000
-14.840183 -13.938195 -0.476109 357 0.597191 0.802099 0.000000
-14.839757 -13.937799 -0.469842 345 0.597191 0.802099 0.000000
-14.840344 -13.938351 -0.463607 343 0.597191 0.802099 0.000000
-14.839543 -13.937593 -0.457324 345 0.597191 0.802099 0.000000
-14.839318 -13.937388 -0.451056 343 0.597191 0.802099 0.000000
-14.841019 -13.938986 -0.444860 369 0.597191 0.802099 0.000000
-14.841811 -13.939719 -0.438622 375 0.597191 0.802099 0.000000
-14.841908 -13.939816 -0.432371 369 0.597191 0.802099 0.000000
-14.840894 -13.938859 -0.426091 377 0.597191 0.802099 0.000000
-14.840764 -13.938744 -0.419832 373 0.597191 0.802099 0.000000
-14.839803 -13.937829 -0.413541 327 0.597191 0.802099 0.000000
-14.841175 -13.939118 -0.407328 329 0.597191 0.802099 0.000000
-14.840787 -13.938752 -0.401061 349 0.597191 0.802099 0.000000
-14.840024 -13.938040 -0.394788 339 0.597191 0.802099 0.000000
-14.840214 -13.938212 -0.388536 315 0.597191 0.802099 0.000000
-14.839605 -13.937641 -0.382272 335 0.597191 0.802099 0.000000
-14.840173 -13.938177 -0.376026 349 0.597191 0.802099 0.000000
-14.839933 -13.937959 -0.369768 353 0.597191 0.802099 0.000000
-14.839966 -13.937978 -0.363518 337 0.597191 0.802099 0.000000
-14.840837 -13.938804 -0.357280 337 0.597191 0.802099 0.000000
-14.839597 -13.937634 -0.351001 335 0.597191 0.802099 0.000000
-14.839514 -13.937556 -0.344742 361 0.597191 0.802099 0.000000
-14.840440 -13.938426 -0.338513 331 0.597191 0.802099 0.000000
-14.839072 -13.937140 -0.332226 313 0.597191 0.802099 0.000000
-14.839147 -13.937205 -0.325975 337 0.597191 0.802099 0.000000
-14.841409 -13.939330 -0.319763 339 0.597191 0.802099 0.000000
-14.841318 -13.939246 -0.313514 339 0.597191 0.802099 0.000000
-14.840210 -13.938211 -0.307234 373 0.597191 0.802099 0.000000
-14.839852 -13.937871 -0.300968 369 0.597191 0.802099 0.000000
-14.839332 -13.937383 -0.294712 337 0.597191 0.802099 0.000000
-14.840414 -13.938394 -0.288472 351 0.597191 0.802099 0.000000
-14.841167 -13.939110 -0.282235 329 0.597191 0.802099 0.000000
-14.839575 -13.937611 -0.275950 315 0.597191 0.802099 0.000000
-14.846432 -13.935206 -0.663909 335 0.597191 0.802099 0.000000
-14.846419 -13.935201 -0.657649 305 0.597191 0.802099 0.000000
-14.845655 -13.934487 -0.651356 323 0.597191 0.802099 0.000000
-14.845695 -13.934512 -0.645106 329 0.597191 0.802099 0.000000
-14.848022 -13.936703 -0.638944 331 0.597191 0.802099 0.000000
-14.849236 -13.937836 -0.632732 299 0.597191 0.802099 0.000000
-14.849271 -13.937869 -0.626482 289 0.597191 0.802099 0.000000
-14.849141 -13.937755 -0.620213 267 0.597191 0.802099 0.000000
-14.847526 -13.936237 -0.613888 277 0.597191 0.802099 0.000000
-14.847550 -13.936262 -0.607627 297 0.597191 0.802099 0.000000
-14.847373 -13.936082 -0.601359 315 0.597191 0.802099 0.000000
-14.846219 -13.935009 -0.595050 331 0.597191 0.802099 0.000000
-14.845605 -13.934431 -0.588775 319 0.597191 0.802099 0.000000
-14.845582 -13.934405 -0.582515 309 0.597191 0.802099 0.000000
-14.846453 -13.935218 -0.576287 339 0.597191 0.802099 0.000000
-14.846158 -13.934940 -0.570020 357 0.597191 0.802099 0.000000
-14.845379 -13.934215 -0.563737 363 0.597191 0.802099 0.000000
-14.846087 -13.934879 -0.557500 333 0.597191 0.802099 0.000000
-14.846424 -13.935188 -0.551257 351 0.597191 0.802099 0.000000
-14.846984 -13.935717 -0.545021 343 0.597191 0.802099 0.000000
-14.847471 -13.936174 -0.538777 345 0.597191 0.802099 0.000000
-14.847223 -13.935938 -0.532509 307 0.597191 0.802099 0.000000
-14.846912 -13.935649 -0.526241 303 0.597191 0.802099 0.000000
-14.847941 -13.936616 -0.520022 305 0.597191 0.802099 0.000000
-14.847999 -13.936667 -0.513761 307 0.597191 0.802099 0.000000
-14.846515 -13.935271 -0.507455 329 0.597191 0.802099 0.000000
-14.846306 -13.935079 -0.501197 337 0.597191 0.802099 0.000000
-14.846044 -13.934830 -0.494929 351 0.597191 0.802099 0.000000
-14.845779 -13.934579 -0.488661 329 0.597191 0.802099 0.000000
-14.847120 -13.935843 -0.482449 337 0.597191 0.802099 0.000000
-14.847553 -13.936241 -0.476204 353 0.597191 0.802099 0.000000
-14.846053 -13.934832 -0.469898 341 0.597191 0.802099 0.000000
-14.846423 -13.935180 -0.463655 329 0.597191 0.802099 0.000000
-14.847429 -13.936129 -0.457435 359 0.597191 0.802099 0.000000
-14.845828 -13.934623 -0.451130 347 0.597191 0.802099 0.000000
-14.844921 -13.933766 -0.444848 359 0.597191 0.802099 0.000000
-14.845387 -13.934206 -0.438604 365 0.597191 0.802099 0.000000
-14.847462 -13.936151 -0.432404 383 0.597191 0.802099 0.000000
-14.847185 -13.935901 -0.426147 387 0.597191 0.802099 0.000000
-14.846005 -13.934781 -0.419858 357 0.597191 0.802099 0.000000
-14.846407 -13.935168 -0.413614 333 0.597191 0.802099 0.000000
-14.846925 -13.935652 -0.407369 335 0.597191 0.802099 0.000000
-14.845419 -13.934236 -0.401073 355 0.597191 0.802099 0.000000
-14.845303 -13.934120 -0.394814 335 0.597191 0.802099 0.000000
-14.847574 -13.936253 -0.388622 339 0.597191 0.802099 0.000000
-14.847547 -13.936234 -0.382362 359 0.597191 0.802099 0.000000
-14.845718 -13.934516 -0.376059 355 0.597191 0.802099 0.000000
-14.844627 -13.933495 -0.369779 349 0.597191 0.802099 0.000000
-14.844974 -13.933810 -0.363536 353 0.597191 0.802099 0.000000
-14.846548 -13.935291 -0.357311 353 0.597191 0.802099 0.000000
-14.845457 -13.934269 -0.351031 337 0.597191 0.802099 0.000000
-14.843825 -13.932738 -0.344746 335 0.597191 0.802099 0.000000
-14.845979 -13.934759 -0.338536 339 0.597191 0.802099 0.000000
-14.846011 -13.934779 -0.332286 337 0.597191 0.802099 0.000000
-14.843732 -13.932652 -0.325977 373 0.597191 0.802099 0.000000
-14.843756 -13.932663 -0.319726 347 0.597191 0.802099 0.000000
-14.846544 -13.935285 -0.313530 351 0.597191 0.802099 0.000000
-14.846086 -13.934847 -0.307264 371 0.597191 0.802099 0.000000
-14.844226 -13.933104 -0.300972 365 0.597191 0.802099 0.000000
-14.844721 -13.933567 -0.294727 331 0.597191 0.802099 0.000000
-14.845428 -13.934232 -0.288490 343 0.597191 0.802099 0.000000
-14.845596 -13.934387 -0.282238 353 0.597191 0.802099 0.000000
-14.845012 -13.933847 -0.275974 339 0.597191 0.802099 0.000000
-14.852925 -13.932441 -0.664013 295 0.597191 0.802099 0.000000
-14.852865 -13.932384 -0.657744 319 0.597191 0.802099 0.000000
-14.852422 -13.931973 -0.651468 329 0.597191 0.802099 0.000000
-14.852308 -13.931858 -0.645199 301 0.597191 0.802099 0.000000
-14.852287 -13.931847 -0.638939 299 0.597191 0.802099 0.000000
-14.852962 -13.932470 -0.632712 273 0.597191 0.802099 0.000000
-14.853378 -13.932858 -0.626468 273 0.597191 0.802099 0.000000
-14.853139 -13.932639 -0.620200 267 0.597191 0.802099 0.000000
-14.854026 -13.933464 -0.613972 285 0.597191 0.802099 0.000000
-14.853787 -13.933248 -0.607704 309 0.597191 0.802099 0.000000
-14.851789 -13.931376 -0.601362 329 0.597191 0.802099 0.000000
-14.850803 -13.930442 -0.595061 321 0.597191 0.802099 0.000000
-14.851894 -13.931474 -0.588851 329 0.597191 0.802099 0.000000
-14.852719 -13.932246 -0.582623 343 0.597191 0.802099 0.000000
-14.851461 -13.931063 -0.576315 337 0.597191 0.802099 0.000000
-14.850800 -13.930431 -0.570031 353 0.597191 0.802099 0.000000
-14.851076 -13.930704 -0.563788 339 0.597191 0.802099 0.000000
-14.852487 -13.932024 -0.557575 363 0.597191 0.802099 0.000000
-14.851229 -13.930840 -0.551277 369 0.597191 0.802099 0.000000
-14.851350 -13.930957 -0.545025 335 0.597191 0.802099 0.000000
-14.853660 -13.933121 -0.538843 359 0.597191 0.802099 0.000000
-14.853459 -13.932934 -0.532585 359 0.597191 0.802099 0.000000
-14.852937 -13.932433 -0.526300 331 0.597191 0.802099 0.000000
-14.853636 -13.933090 -0.520073 325 0.597191 0.802099 0.000000
-14.853223 -13.932705 -0.513797 343 0.597191 0.802099 0.000000
-14.853079 -13.932564 -0.507538 335 0.597191 0.802099 0.000000
-14.852386 -13.931923 -0.501254 337 0.597191 0.802099 0.000000
-14.851856 -13.931427 -0.494979 309 0.597191 0.802099 0.000000
-14.852236 -13.931782 -0.488736 335 0.597191 0.802099 0.000000
-14.852659 -13.932176 -0.482491 335 0.597191 0.802099 0.000000
-14.852710 -13.932221 -0.476231 337 0.597191 0.802099 0.000000
-14.853299 -13.932775 -0.469995 363 0.597191 0.802099 0.000000
-14.852715 -13.932222 -0.463721 341 0.597191 0.802099 0.000000
-14.851373 -13.930968 -0.457423 335 0.597191 0.802099 0.000000
-14.850515 -13.930165 -0.451141 337 0.597191 0.802099 0.000000
-14.851417 -13.931002 -0.444912 351 0.597191 0.802099 0.000000
-14.853116 -13.932599 -0.438706 369 0.597191 0.802099 0.000000
-14.852525 -13.932040 -0.432432 353 0.597191 0.802099 0.000000
-14.852997 -13.932485 -0.426187 369 0.597191 0.802099 0.000000
-14.854048 -13.933471 -0.419957 379 0.597191 0.802099 0.000000
-14.853924 -13.933348 -0.413698 365 0.597191 0.802099 0.000000
-14.854014 -13.933440 -0.407447 359 0.597191 0.802099 0.000000
-14.852780 -13.932276 -0.401158 347 0.597191 0.802099 0.000000
-14.851688 -13.931253 -0.394869 345 0.597191 0.802099 0.000000
-14.851144 -13.930746 -0.388604 333 0.597191 0.802099 0.000000
-14.850106 -13.929768 -0.382313 329 0.597191 0.802099 0.000000
-14.851367 -13.930953 -0.376091 349 0.597191 0.802099 0.000000
-14.852035 -13.931571 -0.369855 349 0.597191 0.802099 0.000000
-14.851264 -13.930852 -0.363582 347 0.597191 0.802099 0.000000
-14.850703 -13.930331 -0.357307 341 0.597191 0.802099 0.000000
-14.851207 -13.930802 -0.351072 333 0.597191 0.802099 0.000000
-14.850333 -13.929973 -0.344790 297 0.597191 0.802099 0.000000
-14.851315 -13.930901 -0.338561 307 0.597191 0.802099 0.000000
-14.851879 -13.931421 -0.332315 319 0.597191 0.802099 0.000000
-14.850662 -13.930284 -0.326037 345 0.597191 0.802099 0.000000
-14.851166 -13.930755 -0.319792 353 0.597191 0.802099 0.000000
-14.851498 -13.931071 -0.313548 319 0.597191 0.802099 0.000000
-14.851358 -13.930936 -0.307290 345 0.597191 0.802099 0.000000
-14.851151 -13.930744 -0.301031 353 0.597191 0.802099 0.000000
-14.850582 -13.930205 -0.294767 347 0.597191 0.802099 0.000000
-14.850757 -13.930366 -0.288515 363 0.597191 0.802099 0.000000
-14.849852 -13.929523 -0.282243 353 0.597191 0.802099 0.000000
-14.850089 -13.929736 -0.275991 317 0.597191 0.802099 0.000000
