715
-14.531286 -14.177127 -0.673567 1103 0.450450 0.892802 0.000000
-14.530751 -14.176608 -0.667302 1101 0.450450 0.892802 0.000000
-14.530746 -14.176597 -0.661062 1093 0.450450 0.892802 0.000000
-14.530046 -14.175915 -0.654789 1081 0.450450 0.892802 0.000000
-14.529403 -14.175295 -0.648525 1089 0.450450 0.892802 0.000000
-14.529597 -14.175476 -0.642293 1069 0.450450 0.892802 0.000000
-14.530162 -14.176029 -0.636077 1091 0.450450 0.892802 0.000000
-14.529720 -14.175601 -0.629811 1089 0.450450 0.892802 0.000000
-14.529895 -14.175778 -0.623579 1093 0.450450 0.892802 0.000000
-14.530038 -14.175915 -0.617348 1079 0.450450 0.892802 0.000000
-14.530173 -14.176046 -0.611116 1079 0.450450 0.892802 0.000000
-14.529997 -14.175879 -0.604868 1097 0.450450 0.892802 0.000000
-14.529453 -14.175341 -0.598603 1087 0.450450 0.892802 0.000000
-14.529688 -14.175568 -0.592371 1099 0.450450 0.892802 0.000000
-14.529769 -14.175654 -0.586140 1095 0.450450 0.892802 0.000000
-14.530311 -14.176175 -0.579924 1107 0.450450 0.892802 0.000000
-14.530493 -14.176357 -0.573693 1103 0.450450 0.892802 0.000000
-14.530198 -14.176065 -0.567435 1083 0.450450 0.892802 0.000000
-14.530272 -14.176146 -0.561204 1097 0.450450 0.892802 0.000000
-14.529603 -14.175490 -0.554941 1089 0.450450 0.892802 0.000000
-14.529044 -14.174953 -0.548676 1081 0.450450 0.892802 0.000000
-14.529163 -14.175071 -0.542444 1093 0.450450 0.892802 0.000000
-14.528861 -14.174773 -0.536197 1091 0.450450 0.892802 0.000000
-14.529138 -14.175047 -0.529964 1081 0.450450 0.892802 0.000000
-14.529827 -14.175716 -0.523758 1089 0.450450 0.892802 0.000000
-14.529946 -14.175835 -0.517526 1085 0.450450 0.892802 0.000000
-14.530004 -14.175887 -0.511286 1081 0.450450 0.892802 0.000000
-14.529647 -14.175544 -0.505039 1089 0.450450 0.892802 0.000000
-14.529072 -14.174980 -0.498774 1095 0.450450 0.892802 0.000000
-14.529393 -14.175292 -0.492551 1111 0.450450 0.892802 0.000000
-14.529757 -14.175651 -0.486327 1117 0.450450 0.892802 0.000000
-14.528557 -14.174477 -0.480049 1103 0.450450 0.892802 0.000000
-14.528560 -14.174484 -0.473809 1113 0.450450 0.892802 0.000000
-14.528920 -14.174829 -0.467585 1109 0.450450 0.892802 0.000000
-14.529181 -14.175090 -0.461362 1113 0.450450 0.892802 0.000000
-14.529020 -14.174936 -0.455114 1087 0.450450 0.892802 0.000000
-14.529060 -14.174974 -0.448883 1105 0.450450 0.892802 0.000000
-14.529532 -14.175437 -0.442659 1115 0.450450 0.892802 0.000000
-14.528840 -14.174764 -0.436405 1093 0.450450 0.892802 0.000000
-14.528781 -14.174706 -0.430165 1093 0.450450 0.892802 0.000000
-14.529345 -14.175259 -0.423940 1105 0.450450 0.892802 0.000000
-14.529175 -14.175084 -0.417701 1103 0.450450 0.892802 0.000000
-14.528788 -14.174715 -0.411455 1091 0.450450 0.892802 0.000000
-14.528565 -14.174496 -0.405217 1089 0.450450 0.892802 0.000000
-14.528185 -14.174120 -0.398970 1091 0.450450 0.892802 0.000000
-14.528531 -14.174465 -0.392737 1087 0.450450 0.892802 0.000000
-14.529040 -14.174959 -0.386522 1089 0.450450 0.892802 0.000000
-14.528753 -14.174674 -0.380275 1091 0.450450 0.892802 0.000000
-14.528890 -14.174820 -0.374043 1111 0.450450 0.892802 0.000000
-14.529284 -14.175203 -0.367819 1105 0.450450 0.892802 0.000000
-14.528629 -14.174561 -0.361565 1109 0.450450 0.892802 0.000000
-14.528030 -14.173978 -0.355321 1107 0.450450 0.892802 0.000000
-14.528377 -14.174310 -0.349087 1099 0.450450 0.892802 0.000000
-14.528552 -14.174486 -0.342856 1077 0.450450 0.892802 0.000000
-14.529202 -14.175124 -0.336639 1089 0.450450 0.892802 0.000000
-14.529119 -14.175047 -0.330400 1101 0.450450 0.892802 0.000000
-14.529292 -14.175210 -0.324168 1111 0.450450 0.892802 0.000000
-14.528998 -14.174918 -0.317931 1093 0.450450 0.892802 0.000000
-14.528173 -14.174121 -0.311678 1083 0.450450 0.892802 0.000000
-14.527718 -14.173682 -0.305433 1083 0.450450 0.892802 0.000000
-14.527368 -14.173331 -0.299186 1083 0.450450 0.892802 0.000000
-14.528269 -14.174215 -0.292977 1091 0.450450 0.892802 0.000000
-14.528912 -14.174847 -0.286751 1097 0.450450 0.892802 0.000000
-14.528500 -14.174446 -0.280515 1089 0.450450 0.892802 0.000000
-14.527456 -14.173427 -0.274254 1081 0.450450 0.892802 0.000000
-14.535313 -14.172567 -0.673562 1081 0.450450 0.892802 0.000000
-14.535728 -14.172971 -0.667338 1097 0.450450 0.892802 0.000000
-14.535918 -14.173161 -0.661106 1083 0.450450 0.892802 0.000000
-14.535749 -14.172999 -0.654857 1071 0.450450 0.892802 0.000000
-14.535479 -14.172728 -0.648610 1077 0.450450 0.892802 0.000000
-14.535622 -14.172864 -0.642368 1097 0.450450 0.892802 0.000000
-14.535234 -14.172496 -0.636112 1105 0.450450 0.892802 0.000000
-14.534434 -14.171718 -0.629839 1077 0.450450 0.892802 0.000000
-14.534935 -14.172206 -0.623614 1083 0.450450 0.892802 0.000000
-14.535179 -14.172440 -0.617392 1091 0.450450 0.892802 0.000000
-14.534995 -14.172266 -0.611143 1087 0.450450 0.892802 0.000000
-14.534656 -14.171937 -0.604886 1093 0.450450 0.892802 0.000000
-14.535320 -14.172573 -0.598670 1105 0.450450 0.892802 0.000000
-14.536602 -14.173827 -0.592487 1095 0.450450 0.892802 0.000000
-14.536254 -14.173491 -0.586231 1095 0.450450 0.892802 0.000000
-14.534915 -14.172188 -0.579943 1089 0.450450 0.892802 0.000000
-14.535097 -14.172370 -0.573711 1091 0.450450 0.892802 0.000000
-14.535637 -14.172889 -0.567486 1075 0.450450 0.892802 0.000000
-14.535507 -14.172761 -0.561247 1097 0.450450 0.892802 0.000000
-14.534948 -14.172223 -0.554982 1103 0.450450 0.892802 0.000000
-14.534802 -14.172081 -0.548744 1099 0.450450 0.892802 0.000000
-14.535131 -14.172400 -0.542510 1097 0.450450 0.892802 0.000000
-14.535096 -14.172361 -0.536271 1095 0.450450 0.892802 0.000000
-14.534271 -14.171565 -0.530008 1103 0.450450 0.892802 0.000000
-14.534804 -14.172078 -0.523783 1089 0.450450 0.892802 0.000000
-14.535861 -14.173119 -0.517583 1097 0.450450 0.892802 0.000000
-14.535707 -14.172971 -0.511344 1099 0.450450 0.892802 0.000000
-14.534984 -14.172256 -0.505081 1101 0.450450 0.892802 0.000000
-14.534519 -14.171810 -0.498825 1103 0.450450 0.892802 0.000000
-14.535200 -14.172474 -0.492608 1097 0.450450 0.892802 0.000000
-14.535305 -14.172580 -0.486377 1101 0.450450 0.892802 0.000000
-14.534791 -14.172066 -0.480122 1109 0.450450 0.892802 0.000000
-14.533952 -14.171256 -0.473850 1111 0.450450 0.892802 0.000000
-14.533479 -14.170790 -0.467604 1121 0.450450 0.892802 0.000000
-14.533847 -14.171153 -0.461371 1115 0.450450 0.892802 0.000000
-14.534303 -14.171603 -0.455156 1111 0.450450 0.892802 0.000000
-14.534460 -14.171754 -0.448924 1117 0.450450 0.892802 0.000000
-14.534300 -14.171598 -0.442676 1101 0.450450 0.892802 0.000000
-14.534599 -14.171892 -0.436453 1095 0.450450 0.892802 0.000000
-14.534539 -14.171835 -0.430213 1085 0.450450 0.892802 0.000000
-14.534738 -14.172030 -0.423981 1097 0.450450 0.892802 0.000000
-14.534832 -14.172115 -0.417750 1119 0.450450 0.892802 0.000000
-14.534608 -14.171895 -0.411502 1091 0.450450 0.892802 0.000000
-14.534072 -14.171376 -0.405247 1101 0.450450 0.892802 0.000000
-14.534107 -14.171412 -0.399017 1093 0.450450 0.892802 0.000000
-14.534873 -14.172157 -0.392799 1087 0.450450 0.892802 0.000000
-14.534330 -14.171633 -0.386554 1093 0.450450 0.892802 0.000000
-14.533888 -14.171206 -0.380298 1087 0.450450 0.892802 0.000000
-14.534702 -14.171993 -0.374090 1105 0.450450 0.892802 0.000000
-14.534845 -14.172131 -0.367859 1107 0.450450 0.892802 0.000000
-14.534138 -14.171443 -0.361596 1101 0.450450 0.892802 0.000000
-14.533742 -14.171054 -0.355359 1097 0.450450 0.892802 0.000000
-14.534229 -14.171543 -0.349134 1093 0.450450 0.892802 0.000000
-14.534466 -14.171770 -0.342902 1091 0.450450 0.892802 0.000000
-14.533758 -14.171083 -0.336648 1073 0.450450 0.892802 0.000000
-14.533878 -14.171202 -0.330417 1079 0.450450 0.892802 0.000000
-14.534474 -14.171781 -0.324191 1089 0.450450 0.892802 0.000000
-14.534656 -14.171950 -0.317959 1099 0.450450 0.892802 0.000000
-14.534300 -14.171608 -0.311723 1083 0.450450 0.892802 0.000000
-14.533435 -14.170763 -0.305461 1075 0.450450 0.892802 0.000000
-14.533547 -14.170876 -0.299230 1081 0.450450 0.892802 0.000000
-14.534244 -14.171552 -0.293013 1079 0.450450 0.892802 0.000000
-14.533568 -14.170903 -0.286759 1071 0.450450 0.892802 0.000000
-14.533897 -14.171223 -0.280536 1069 0.450450 0.892802 0.000000
-14.534431 -14.171736 -0.274311 1085 0.450450 0.892802 0.000000
-14.541638 -14.170063 -0.673655 1077 0.450450 0.892802 0.000000
-14.541780 -14.170199 -0.667424 1081 0.450450 0.892802 0.000000
-14.541720 -14.170143 -0.661174 1083 0.450450 0.892802 0.000000
-14.542027 -14.170444 -0.654951 1097 0.450450 0.892802 0.000000
-14.542374 -14.170789 -0.648717 1099 0.450450 0.892802 0.000000
-14.542518 -14.170926 -0.642486 1097 0.450450 0.892802 0.000000
-14.541973 -14.170400 -0.636221 1097 0.450450 0.892802 0.000000
-14.541952 -14.170376 -0.629981 1097 0.450450 0.892802 0.000000
-14.541518 -14.169955 -0.623715 1093 0.450450 0.892802 0.000000
-14.541238 -14.169675 -0.617468 1085 0.450450 0.892802 0.000000
-14.541585 -14.170021 -0.611234 1087 0.450450 0.892802 0.000000
-14.541666 -14.170094 -0.605003 1093 0.450450 0.892802 0.000000
-14.541739 -14.170173 -0.598762 1105 0.450450 0.892802 0.000000
-14.541508 -14.169947 -0.592514 1091 0.450450 0.892802 0.000000
-14.541120 -14.169564 -0.586258 1081 0.450450 0.892802 0.000000
-14.541348 -14.169785 -0.580026 1093 0.450450 0.892802 0.000000
-14.541583 -14.170013 -0.573793 1093 0.450450 0.892802 0.000000
-14.541908 -14.170341 -0.567570 1081 0.450450 0.892802 0.000000
-14.541246 -14.169691 -0.561306 1089 0.450450 0.892802 0.000000
-14.540165 -14.168642 -0.555016 1093 0.450450 0.892802 0.000000
-14.540075 -14.168558 -0.548777 1093 0.450450 0.892802 0.000000
-14.540670 -14.169137 -0.542561 1093 0.450450 0.892802 0.000000
-14.540633 -14.169100 -0.536321 1089 0.450450 0.892802 0.000000
-14.539965 -14.168444 -0.530058 1101 0.450450 0.892802 0.000000
-14.540286 -14.168756 -0.523824 1107 0.450450 0.892802 0.000000
-14.540555 -14.169024 -0.517602 1093 0.450450 0.892802 0.000000
-14.540627 -14.169089 -0.511361 1121 0.450450 0.892802 0.000000
-14.540575 -14.169039 -0.505121 1103 0.450450 0.892802 0.000000
-14.540367 -14.168846 -0.498873 1089 0.450450 0.892802 0.000000
-14.541424 -14.169872 -0.492673 1107 0.450450 0.892802 0.000000
-14.541846 -14.170281 -0.486448 1111 0.450450 0.892802 0.000000
-14.541060 -14.169516 -0.480186 1087 0.450450 0.892802 0.000000
-14.541212 -14.169661 -0.473954 1089 0.450450 0.892802 0.000000
-14.540848 -14.169311 -0.467698 1097 0.450450 0.892802 0.000000
-14.540477 -14.168956 -0.461451 1107 0.450450 0.892802 0.000000
-14.540681 -14.169144 -0.455219 1127 0.450450 0.892802 0.000000
-14.541253 -14.169703 -0.449003 1115 0.450450 0.892802 0.000000
-14.541404 -14.169860 -0.442762 1105 0.450450 0.892802 0.000000
-14.540509 -14.168978 -0.436500 1097 0.450450 0.892802 0.000000
-14.540387 -14.168869 -0.430261 1081 0.450450 0.892802 0.000000
-14.540070 -14.168558 -0.424014 1093 0.450450 0.892802 0.000000
-14.539479 -14.167981 -0.417760 1099 0.450450 0.892802 0.000000
-14.540036 -14.168528 -0.411534 1095 0.450450 0.892802 0.000000
-14.540438 -14.168919 -0.405310 1095 0.450450 0.892802 0.000000
-14.540954 -14.169419 -0.399085 1097 0.450450 0.892802 0.000000
-14.540723 -14.169193 -0.392847 1099 0.450450 0.892802 0.000000
-14.540233 -14.168714 -0.386592 1109 0.450450 0.892802 0.000000
-14.540004 -14.168502 -0.380354 1117 0.450450 0.892802 0.000000
-14.540496 -14.168983 -0.374129 1107 0.450450 0.892802 0.000000
-14.540897 -14.169374 -0.367905 1101 0.450450 0.892802 0.000000
-14.540352 -14.168834 -0.361650 1103 0.450450 0.892802 0.000000
-14.539747 -14.168245 -0.355396 1103 0.450450 0.892802 0.000000
-14.538673 -14.167202 -0.349136 1085 0.450450 0.892802 0.000000
-14.539371 -14.167890 -0.342919 1085 0.450450 0.892802 0.000000
-14.539561 -14.168067 -0.336687 1075 0.450450 0.892802 0.000000
-14.539890 -14.168386 -0.330454 1085 0.450450 0.892802 0.000000
-14.540276 -14.168763 -0.324230 1095 0.450450 0.892802 0.000000
-14.540074 -14.168575 -0.317991 1089 0.450450 0.892802 0.000000
-14.540257 -14.168745 -0.311760 1097 0.450450 0.892802 0.000000
-14.539751 -14.168253 -0.305514 1081 0.450450 0.892802 0.000000
-14.540029 -14.168527 -0.299281 1087 0.450450 0.892802 0.000000
-14.539931 -14.168438 -0.293042 1075 0.450450 0.892802 0.000000
-14.539113 -14.167633 -0.286790 1083 0.450450 0.892802 0.000000
-14.539067 -14.167588 -0.280550 1079 0.450450 0.892802 0.000000
-14.539329 -14.167850 -0.274328 1081 0.450450 0.892802 0.000000
-14.547222 -14.166853 -0.673715 1083 0.450450 0.892802 0.000000
-14.548052 -14.167652 -0.667517 1073 0.450450 0.892802 0.000000
-14.548195 -14.167802 -0.661276 1081 0.450450 0.892802 0.000000
-14.548603 -14.168200 -0.655052 1101 0.450450 0.892802 0.000000
-14.548432 -14.168024 -0.648803 1089 0.450450 0.892802 0.000000
-14.548203 -14.167811 -0.642545 1079 0.450450 0.892802 0.000000
-14.548087 -14.167695 -0.636296 1107 0.450450 0.892802 0.000000
-14.547810 -14.167431 -0.630049 1111 0.450450 0.892802 0.000000
-14.547312 -14.166945 -0.623783 1103 0.450450 0.892802 0.000000
-14.546715 -14.166362 -0.617519 1085 0.450450 0.892802 0.000000
-14.546592 -14.166239 -0.611270 1077 0.450450 0.892802 0.000000
-14.546938 -14.166571 -0.605047 1085 0.450450 0.892802 0.000000
-14.547696 -14.167312 -0.598829 1097 0.450450 0.892802 0.000000
-14.547771 -14.167391 -0.592598 1103 0.450450 0.892802 0.000000
-14.547851 -14.167463 -0.586357 1111 0.450450 0.892802 0.000000
-14.548133 -14.167743 -0.580124 1103 0.450450 0.892802 0.000000
-14.547005 -14.166640 -0.573835 1107 0.450450 0.892802 0.000000
-14.547071 -14.166715 -0.567604 1107 0.450450 0.892802 0.000000
-14.548250 -14.167856 -0.561403 1107 0.450450 0.892802 0.000000
-14.547684 -14.167312 -0.555148 1101 0.450450 0.892802 0.000000
-14.546923 -14.166568 -0.548875 1103 0.450450 0.892802 0.000000
-14.547197 -14.166842 -0.542642 1089 0.450450 0.892802 0.000000
-14.548105 -14.167718 -0.536434 1099 0.450450 0.892802 0.000000
-14.548545 -14.168140 -0.530209 1105 0.450450 0.892802 0.000000
-14.547658 -14.167278 -0.523938 1103 0.450450 0.892802 0.000000
-14.547348 -14.166987 -0.517690 1095 0.450450 0.892802 0.000000
-14.547889 -14.167508 -0.511465 1111 0.450450 0.892802 0.000000
-14.548000 -14.167619 -0.505234 1129 0.450450 0.892802 0.000000
-14.546849 -14.166497 -0.498955 1111 0.450450 0.892802 0.000000
-14.546164 -14.165829 -0.492691 1107 0.450450 0.892802 0.000000
-14.546487 -14.166141 -0.486458 1099 0.450450 0.892802 0.000000
-14.545803 -14.165487 -0.480204 1085 0.450450 0.892802 0.000000
-14.545595 -14.165281 -0.473956 1083 0.450450 0.892802 0.000000
-14.546229 -14.165892 -0.467740 1103 0.450450 0.892802 0.000000
-14.546535 -14.166191 -0.461507 1125 0.450450 0.892802 0.000000
-14.546899 -14.166551 -0.455283 1115 0.450450 0.892802 0.000000
-14.547156 -14.166797 -0.449051 1105 0.450450 0.892802 0.000000
-14.546419 -14.166083 -0.442788 1105 0.450450 0.892802 0.000000
-14.546509 -14.166178 -0.436557 1103 0.450450 0.892802 0.000000
-14.546651 -14.166313 -0.430315 1103 0.450450 0.892802 0.000000
-14.546434 -14.166100 -0.424077 1105 0.450450 0.892802 0.000000
-14.545852 -14.165529 -0.417822 1095 0.450450 0.892802 0.000000
-14.545418 -14.165109 -0.411566 1089 0.450450 0.892802 0.000000
-14.545398 -14.165097 -0.405326 1089 0.450450 0.892802 0.000000
-14.546070 -14.165741 -0.399110 1109 0.450450 0.892802 0.000000
-14.545933 -14.165618 -0.392871 1097 0.450450 0.892802 0.000000
-14.545771 -14.165450 -0.386632 1103 0.450450 0.892802 0.000000
-14.546259 -14.165940 -0.380408 1105 0.450450 0.892802 0.000000
-14.545935 -14.165622 -0.374161 1109 0.450450 0.892802 0.000000
-14.546332 -14.165998 -0.367927 1093 0.450450 0.892802 0.000000
-14.547981 -14.167609 -0.361731 1107 0.450450 0.892802 0.000000
-14.548483 -14.168097 -0.355506 1113 0.450450 0.892802 0.000000
-14.547245 -14.166890 -0.349237 1091 0.450450 0.892802 0.000000
-14.545742 -14.165439 -0.342972 1091 0.450450 0.892802 0.000000
-14.545457 -14.165154 -0.336724 1099 0.450450 0.892802 0.000000
-14.545794 -14.165479 -0.330491 1095 0.450450 0.892802 0.000000
-14.546017 -14.165709 -0.324259 1097 0.450450 0.892802 0.000000
-14.545565 -14.165259 -0.318013 1095 0.450450 0.892802 0.000000
-14.545325 -14.165028 -0.311775 1079 0.450450 0.892802 0.000000
-14.546389 -14.166060 -0.305565 1083 0.450450 0.892802 0.000000
-14.545557 -14.165257 -0.299302 1087 0.450450 0.892802 0.000000
-14.544788 -14.164505 -0.293050 1083 0.450450 0.892802 0.000000
-14.545375 -14.165077 -0.286834 1079 0.450450 0.892802 0.000000
-14.545588 -14.165286 -0.280602 1087 0.450450 0.892802 0.000000
-14.545709 -14.165404 -0.274360 1083 0.450450 0.892802 0.000000
-14.554075 -14.164527 -0.673825 1079 0.450450 0.892802 0.000000
-14.554326 -14.164767 -0.667593 1093 0.450450 0.892802 0.000000
-14.553739 -14.164206 -0.661328 1099 0.450450 0.892802 0.000000
-14.553623 -14.164089 -0.655079 1091 0.450450 0.892802 0.000000
-14.553250 -14.163719 -0.648823 1073 0.450450 0.892802 0.000000
-14.553283 -14.163752 -0.642572 1095 0.450450 0.892802 0.000000
-14.553216 -14.163689 -0.636333 1109 0.450450 0.892802 0.000000
-14.553398 -14.163872 -0.630101 1097 0.450450 0.892802 0.000000
-14.553900 -14.164360 -0.623876 1093 0.450450 0.892802 0.000000
-14.553575 -14.164042 -0.617619 1101 0.450450 0.892802 0.000000
-14.552916 -14.163408 -0.611345 1087 0.450450 0.892802 0.000000
-14.553736 -14.164201 -0.605137 1095 0.450450 0.892802 0.000000
-14.553660 -14.164129 -0.598898 1093 0.450450 0.892802 0.000000
-14.552845 -14.163340 -0.592625 1089 0.450450 0.892802 0.000000
-14.553969 -14.164424 -0.586424 1099 0.450450 0.892802 0.000000
-14.554667 -14.165113 -0.580207 1105 0.450450 0.892802 0.000000
-14.553757 -14.164218 -0.573936 1095 0.450450 0.892802 0.000000
-14.553625 -14.164088 -0.567687 1085 0.450450 0.892802 0.000000
-14.553744 -14.164207 -0.561446 1085 0.450450 0.892802 0.000000
-14.552764 -14.163253 -0.555165 1087 0.450450 0.892802 0.000000
-14.552254 -14.162768 -0.548910 1099 0.450450 0.892802 0.000000
-14.552951 -14.163445 -0.542693 1099 0.450450 0.892802 0.000000
-14.553646 -14.164121 -0.536476 1107 0.450450 0.892802 0.000000
-14.553236 -14.163718 -0.530220 1113 0.450450 0.892802 0.000000
-14.552365 -14.162869 -0.523948 1091 0.450450 0.892802 0.000000
-14.553054 -14.163539 -0.517731 1097 0.450450 0.892802 0.000000
-14.553680 -14.164157 -0.511515 1101 0.450450 0.892802 0.000000
-14.553326 -14.163815 -0.505268 1111 0.450450 0.892802 0.000000
-14.552968 -14.163457 -0.499012 1099 0.450450 0.892802 0.000000
-14.553229 -14.163719 -0.492779 1095 0.450450 0.892802 0.000000
-14.553238 -14.163719 -0.486539 1107 0.450450 0.892802 0.000000
-14.552290 -14.162806 -0.480268 1121 0.450450 0.892802 0.000000
-14.552605 -14.163112 -0.474045 1105 0.450450 0.892802 0.000000
-14.552872 -14.163365 -0.467812 1107 0.450450 0.892802 0.000000
-14.551976 -14.162496 -0.461540 1115 0.450450 0.892802 0.000000
-14.552230 -14.162751 -0.455308 1095 0.450450 0.892802 0.000000
-14.553480 -14.163965 -0.449106 1097 0.450450 0.892802 0.000000
-14.553840 -14.164310 -0.442882 1103 0.450450 0.892802 0.000000
-14.553048 -14.163539 -0.436619 1097 0.450450 0.892802 0.000000
-14.552621 -14.163124 -0.430363 1105 0.450450 0.892802 0.000000
-14.552296 -14.162807 -0.424116 1107 0.450450 0.892802 0.000000
-14.551129 -14.161673 -0.417847 1091 0.450450 0.892802 0.000000
-14.551271 -14.161809 -0.411606 1071 0.450450 0.892802 0.000000
-14.551726 -14.162258 -0.405381 1083 0.450450 0.892802 0.000000
-14.552338 -14.162850 -0.399165 1087 0.450450 0.892802 0.000000
-14.552487 -14.162993 -0.392924 1093 0.450450 0.892802 0.000000
-14.551781 -14.162307 -0.386671 1083 0.450450 0.892802 0.000000
-14.552017 -14.162548 -0.380438 1087 0.450450 0.892802 0.000000
-14.552581 -14.163088 -0.374213 1117 0.450450 0.892802 0.000000
-14.552655 -14.163167 -0.367982 1109 0.450450 0.892802 0.000000
-14.552843 -14.163342 -0.361750 1115 0.450450 0.892802 0.000000
-14.552395 -14.162910 -0.355494 1095 0.450450 0.892802 0.000000
-14.551431 -14.161969 -0.349233 1079 0.450450 0.892802 0.000000
-14.551136 -14.161692 -0.342996 1073 0.450450 0.892802 0.000000
-14.551366 -14.161914 -0.336763 1081 0.450450 0.892802 0.000000
-14.552069 -14.162595 -0.330536 1117 0.450450 0.892802 0.000000
-14.551931 -14.162460 -0.324298 1089 0.450450 0.892802 0.000000
-14.551521 -14.162072 -0.318051 1085 0.450450 0.892802 0.000000
-14.551492 -14.162040 -0.311811 1075 0.450450 0.892802 0.000000
-14.551191 -14.161743 -0.305574 1069 0.450450 0.892802 0.000000
-14.550951 -14.161510 -0.299326 1083 0.450450 0.892802 0.000000
-14.551430 -14.161978 -0.293102 1079 0.450450 0.892802 0.000000
-14.552236 -14.162757 -0.286884 1081 0.450450 0.892802 0.000000
-14.551817 -14.162364 -0.280638 1081 0.450450 0.892802 0.000000
-14.550930 -14.161501 -0.274376 1075 0.450450 0.892802 0.000000
-14.561481 -14.162896 -0.673969 1085 0.450450 0.892802 0.000000
-14.560939 -14.162373 -0.667704 1097 0.450450 0.892802 0.000000
-14.560769 -14.162210 -0.661446 1097 0.450450 0.892802 0.000000
-14.560186 -14.161640 -0.655181 1083 0.450450 0.892802 0.000000
-14.559447 -14.160913 -0.648898 1071 0.450450 0.892802 0.000000
-14.559052 -14.160540 -0.642642 1069 0.450450 0.892802 0.000000
-14.559413 -14.160884 -0.636408 1079 0.450450 0.892802 0.000000
-14.558970 -14.160456 -0.630152 1091 0.450450 0.892802 0.000000
-14.558897 -14.160386 -0.623903 1083 0.450450 0.892802 0.000000
-14.559506 -14.160977 -0.617687 1083 0.450450 0.892802 0.000000
-14.560273 -14.161724 -0.611479 1087 0.450450 0.892802 0.000000
-14.560348 -14.161804 -0.605238 1099 0.450450 0.892802 0.000000
-14.560014 -14.161468 -0.598981 1097 0.450450 0.892802 0.000000
-14.559463 -14.160935 -0.592717 1089 0.450450 0.892802 0.000000
-14.559379 -14.160859 -0.586467 1085 0.450450 0.892802 0.000000
-14.559149 -14.160633 -0.580219 1081 0.450450 0.892802 0.000000
-14.558683 -14.160187 -0.573954 1077 0.450450 0.892802 0.000000
-14.558717 -14.160220 -0.567713 1091 0.450450 0.892802 0.000000
-14.558469 -14.159967 -0.561465 1083 0.450450 0.892802 0.000000
-14.558542 -14.160047 -0.555225 1077 0.450450 0.892802 0.000000
-14.558818 -14.160321 -0.548992 1105 0.450450 0.892802 0.000000
-14.558992 -14.160483 -0.542760 1099 0.450450 0.892802 0.000000
-14.559422 -14.160899 -0.536536 1095 0.450450 0.892802 0.000000
-14.559122 -14.160616 -0.530278 1109 0.450450 0.892802 0.000000
-14.558719 -14.160220 -0.524022 1093 0.450450 0.892802 0.000000
-14.558994 -14.160480 -0.517789 1105 0.450450 0.892802 0.000000
-14.558840 -14.160332 -0.511541 1095 0.450450 0.892802 0.000000
-14.558844 -14.160339 -0.505300 1101 0.450450 0.892802 0.000000
-14.558636 -14.160147 -0.499052 1091 0.450450 0.892802 0.000000
-14.558279 -14.159790 -0.492806 1091 0.450450 0.892802 0.000000
-14.558750 -14.160252 -0.486581 1081 0.450450 0.892802 0.000000
-14.558495 -14.160007 -0.480333 1083 0.450450 0.892802 0.000000
-14.558755 -14.160254 -0.474101 1089 0.450450 0.892802 0.000000
-14.559008 -14.160509 -0.467868 1103 0.450450 0.892802 0.000000
-14.557856 -14.159387 -0.461589 1097 0.450450 0.892802 0.000000
-14.557755 -14.159283 -0.455350 1087 0.450450 0.892802 0.000000
-14.558476 -14.159992 -0.449133 1091 0.450450 0.892802 0.000000
-14.558471 -14.159980 -0.442893 1097 0.450450 0.892802 0.000000
-14.557671 -14.159202 -0.436630 1095 0.450450 0.892802 0.000000
-14.557922 -14.159456 -0.430397 1119 0.450450 0.892802 0.000000
-14.558283 -14.159801 -0.424164 1105 0.450450 0.892802 0.000000
-14.558847 -14.160354 -0.417938 1099 0.450450 0.892802 0.000000
-14.558468 -14.159978 -0.411692 1081 0.450450 0.892802 0.000000
-14.558081 -14.159610 -0.405445 1075 0.450450 0.892802 0.000000
-14.558645 -14.160162 -0.399220 1095 0.450450 0.892802 0.000000
-14.558048 -14.159579 -0.392965 1095 0.450450 0.892802 0.000000
-14.557511 -14.159048 -0.386710 1085 0.450450 0.892802 0.000000
-14.558325 -14.159846 -0.380492 1097 0.450450 0.892802 0.000000
-14.558040 -14.159576 -0.374245 1099 0.450450 0.892802 0.000000
-14.557652 -14.159195 -0.367999 1087 0.450450 0.892802 0.000000
-14.558247 -14.159772 -0.361773 1099 0.450450 0.892802 0.000000
-14.558179 -14.159708 -0.355533 1107 0.450450 0.892802 0.000000
-14.557993 -14.159521 -0.349285 1087 0.450450 0.892802 0.000000
-14.558643 -14.160157 -0.343068 1097 0.450450 0.892802 0.000000
-14.558296 -14.159822 -0.336822 1091 0.450450 0.892802 0.000000
-14.557176 -14.158726 -0.330552 1103 0.450450 0.892802 0.000000
-14.556765 -14.158338 -0.324306 1075 0.450450 0.892802 0.000000
-14.556519 -14.158099 -0.318068 1081 0.450450 0.892802 0.000000
-14.557113 -14.158678 -0.311842 1091 0.450450 0.892802 0.000000
-14.558067 -14.159606 -0.305623 1097 0.450450 0.892802 0.000000
-14.558296 -14.159828 -0.299391 1101 0.450450 0.892802 0.000000
-14.557994 -14.159531 -0.293144 1087 0.450450 0.892802 0.000000
-14.557381 -14.158934 -0.286899 1073 0.450450 0.892802 0.000000
-14.556969 -14.158532 -0.280653 1085 0.450450 0.892802 0.000000
-14.556769 -14.158345 -0.274405 1083 0.450450 0.892802 0.000000
-14.565263 -14.157757 -0.673948 1085 0.450450 0.892802 0.000000
-14.565819 -14.158302 -0.667722 1073 0.450450 0.892802 0.000000
-14.567070 -14.159517 -0.661540 1089 0.450450 0.892802 0.000000
-14.567531 -14.159959 -0.655316 1097 0.450450 0.892802 0.000000
-14.566623 -14.159078 -0.649024 1089 0.450450 0.892802 0.000000
-14.565563 -14.158046 -0.642734 1083 0.450450 0.892802 0.000000
-14.566642 -14.159104 -0.636534 1075 0.450450 0.892802 0.000000
-14.566839 -14.159287 -0.630302 1071 0.450450 0.892802 0.000000
-14.565454 -14.157945 -0.623995 1087 0.450450 0.892802 0.000000
-14.564388 -14.156908 -0.617705 1069 0.450450 0.892802 0.000000
-14.564624 -14.157135 -0.611472 1081 0.450450 0.892802 0.000000
-14.564869 -14.157371 -0.605240 1095 0.450450 0.892802 0.000000
-14.565676 -14.158164 -0.599032 1087 0.450450 0.892802 0.000000
-14.566339 -14.158799 -0.592816 1085 0.450450 0.892802 0.000000
-14.565307 -14.157803 -0.586535 1071 0.450450 0.892802 0.000000
-14.564645 -14.157167 -0.580261 1071 0.450450 0.892802 0.000000
-14.564625 -14.157143 -0.574021 1083 0.450450 0.892802 0.000000
-14.564276 -14.156806 -0.567765 1089 0.450450 0.892802 0.000000
-14.564449 -14.156969 -0.561523 1091 0.450450 0.892802 0.000000
-14.564576 -14.157092 -0.555291 1083 0.450450 0.892802 0.000000
-14.564220 -14.156750 -0.549035 1085 0.450450 0.892802 0.000000
-14.564394 -14.156912 -0.542793 1085 0.450450 0.892802 0.000000
-14.564982 -14.157485 -0.536577 1093 0.450450 0.892802 0.000000
-14.565312 -14.157817 -0.530344 1089 0.450450 0.892802 0.000000
-14.564746 -14.157260 -0.524089 1081 0.450450 0.892802 0.000000
-14.564342 -14.156864 -0.517833 1097 0.450450 0.892802 0.000000
-14.565235 -14.157743 -0.511614 1099 0.450450 0.892802 0.000000
-14.565189 -14.157699 -0.505374 1109 0.450450 0.892802 0.000000
-14.564303 -14.156836 -0.499103 1087 0.450450 0.892802 0.000000
-14.564415 -14.156947 -0.492862 1093 0.450450 0.892802 0.000000
-14.564948 -14.157461 -0.486646 1097 0.450450 0.892802 0.000000
-14.564577 -14.157105 -0.480390 1093 0.450450 0.892802 0.000000
-14.564579 -14.157100 -0.474150 1109 0.450450 0.892802 0.000000
-14.565150 -14.157659 -0.467924 1111 0.450450 0.892802 0.000000
-14.564365 -14.156894 -0.461661 1099 0.450450 0.892802 0.000000
-14.564361 -14.156896 -0.455421 1095 0.450450 0.892802 0.000000
-14.565297 -14.157797 -0.449202 1099 0.450450 0.892802 0.000000
-14.565551 -14.158051 -0.442969 1089 0.450450 0.892802 0.000000
-14.564859 -14.157378 -0.436716 1089 0.450450 0.892802 0.000000
-14.563848 -14.156399 -0.430445 1097 0.450450 0.892802 0.000000
-14.563422 -14.155985 -0.424189 1093 0.450450 0.892802 0.000000
-14.564305 -14.156842 -0.417971 1087 0.450450 0.892802 0.000000
-14.563661 -14.156220 -0.411717 1065 0.450450 0.892802 0.000000
-14.563015 -14.155584 -0.405463 1073 0.450450 0.892802 0.000000
-14.564047 -14.156592 -0.399243 1083 0.450450 0.892802 0.000000
-14.564300 -14.156833 -0.393010 1089 0.450450 0.892802 0.000000
-14.563857 -14.156405 -0.386764 1083 0.450450 0.892802 0.000000
-14.563784 -14.156337 -0.380525 1089 0.450450 0.892802 0.000000
-14.563965 -14.156519 -0.374283 1101 0.450450 0.892802 0.000000
-14.563843 -14.156397 -0.368044 1085 0.450450 0.892802 0.000000
-14.564031 -14.156571 -0.361812 1083 0.450450 0.892802 0.000000
-14.563786 -14.156346 -0.355564 1083 0.450450 0.892802 0.000000
-14.563757 -14.156315 -0.349324 1093 0.450450 0.892802 0.000000
-14.564312 -14.156848 -0.343099 1097 0.450450 0.892802 0.000000
-14.563910 -14.156466 -0.336853 1085 0.450450 0.892802 0.000000
-14.563195 -14.155773 -0.330599 1079 0.450450 0.892802 0.000000
-14.564265 -14.156812 -0.324379 1087 0.450450 0.892802 0.000000
-14.564338 -14.156878 -0.318138 1071 0.450450 0.892802 0.000000
-14.563358 -14.155925 -0.311887 1069 0.450450 0.892802 0.000000
-14.563533 -14.156102 -0.305645 1083 0.450450 0.892802 0.000000
-14.564439 -14.156977 -0.299427 1085 0.450450 0.892802 0.000000
-14.564395 -14.156933 -0.293187 1093 0.450450 0.892802 0.000000
-14.563461 -14.156033 -0.286936 1073 0.450450 0.892802 0.000000
-14.562894 -14.155475 -0.280681 1067 0.450450 0.892802 0.000000
-14.563489 -14.156054 -0.274455 1069 0.450450 0.892802 0.000000
-14.572004 -14.155313 -0.674049 1085 0.450450 0.892802 0.000000
-14.572687 -14.155976 -0.667832 1081 0.450450 0.892802 0.000000
-14.572618 -14.155911 -0.661583 1081 0.450450 0.892802 0.000000
-14.572713 -14.155996 -0.655342 1089 0.450450 0.892802 0.000000
-14.572590 -14.155874 -0.649093 1087 0.450450 0.892802 0.000000
-14.571954 -14.155259 -0.642819 1081 0.450450 0.892802 0.000000
-14.571825 -14.155145 -0.636570 1081 0.450450 0.892802 0.000000
-14.572389 -14.155683 -0.630354 1093 0.450450 0.892802 0.000000
-14.573147 -14.156423 -0.624137 1107 0.450450 0.892802 0.000000
-14.572504 -14.155803 -0.617863 1091 0.450450 0.892802 0.000000
-14.571850 -14.155160 -0.611589 1089 0.450450 0.892802 0.000000
-14.571665 -14.154985 -0.605340 1091 0.450450 0.892802 0.000000
-14.572268 -14.155571 -0.599124 1089 0.450450 0.892802 0.000000
-14.571989 -14.155292 -0.592867 1087 0.450450 0.892802 0.000000
-14.571907 -14.155216 -0.586618 1083 0.450450 0.892802 0.000000
-14.573298 -14.156573 -0.580424 1079 0.450450 0.892802 0.000000
-14.573472 -14.156735 -0.574192 1083 0.450450 0.892802 0.000000
-14.572710 -14.156004 -0.567919 1077 0.450450 0.892802 0.000000
-14.572361 -14.155667 -0.561663 1067 0.450450 0.892802 0.000000
-14.571850 -14.155169 -0.555397 1085 0.450450 0.892802 0.000000
-14.571501 -14.154833 -0.549141 1089 0.450450 0.892802 0.000000
-14.571730 -14.155054 -0.542908 1099 0.450450 0.892802 0.000000
-14.572417 -14.155723 -0.536692 1101 0.450450 0.892802 0.000000
-14.572281 -14.155588 -0.530443 1099 0.450450 0.892802 0.000000
-14.571394 -14.154726 -0.524161 1105 0.450450 0.892802 0.000000
-14.571404 -14.154740 -0.517921 1107 0.450450 0.892802 0.000000
-14.570727 -14.154078 -0.511657 1091 0.450450 0.892802 0.000000
-14.571269 -14.154599 -0.505432 1101 0.450450 0.892802 0.000000
-14.572153 -14.155470 -0.499223 1097 0.450450 0.892802 0.000000
-14.571742 -14.155068 -0.492967 1079 0.450450 0.892802 0.000000
-14.571323 -14.154660 -0.486711 1079 0.450450 0.892802 0.000000
-14.570961 -14.154312 -0.480454 1079 0.450450 0.892802 0.000000
-14.570494 -14.153852 -0.474199 1077 0.450450 0.892802 0.000000
-14.570480 -14.153846 -0.467959 1091 0.450450 0.892802 0.000000
-14.570320 -14.153691 -0.461710 1097 0.450450 0.892802 0.000000
-14.569801 -14.153187 -0.455455 1093 0.450450 0.892802 0.000000
-14.569841 -14.153226 -0.449214 1089 0.450450 0.892802 0.000000
-14.570257 -14.153628 -0.442980 1093 0.450450 0.892802 0.000000
-14.570197 -14.153572 -0.436740 1101 0.450450 0.892802 0.000000
-14.569655 -14.153048 -0.430486 1091 0.450450 0.892802 0.000000
-14.569594 -14.152990 -0.424236 1089 0.450450 0.892802 0.000000
-14.570221 -14.153594 -0.418020 1089 0.450450 0.892802 0.000000
-14.570044 -14.153427 -0.411771 1049 0.450450 0.892802 0.000000
-14.570553 -14.153920 -0.405546 1071 0.450450 0.892802 0.000000
-14.570750 -14.154102 -0.399314 1097 0.450450 0.892802 0.000000
-14.570050 -14.153422 -0.393051 1093 0.450450 0.892802 0.000000
-14.570927 -14.154273 -0.386832 1091 0.450450 0.892802 0.000000
-14.571366 -14.154710 -0.380608 1107 0.450450 0.892802 0.000000
-14.571352 -14.154690 -0.374368 1095 0.450450 0.892802 0.000000
-14.571012 -14.154360 -0.368111 1093 0.450450 0.892802 0.000000
-14.569994 -14.153377 -0.361851 1087 0.450450 0.892802 0.000000
-14.569755 -14.153143 -0.355603 1089 0.450450 0.892802 0.000000
-14.570357 -14.153728 -0.349377 1097 0.450450 0.892802 0.000000
-14.571170 -14.154513 -0.343159 1085 0.450450 0.892802 0.000000
-14.571392 -14.154743 -0.336927 1081 0.450450 0.892802 0.000000
-14.571581 -14.154918 -0.330685 1083 0.450450 0.892802 0.000000
-14.571226 -14.154576 -0.324438 1073 0.450450 0.892802 0.000000
-14.571095 -14.154447 -0.318199 1081 0.450450 0.892802 0.000000
-14.570480 -14.153850 -0.311945 1071 0.450450 0.892802 0.000000
-14.570337 -14.153709 -0.305696 1075 0.450450 0.892802 0.000000
-14.570563 -14.153931 -0.299464 1081 0.450450 0.892802 0.000000
-14.569788 -14.153186 -0.293211 1083 0.450450 0.892802 0.000000
-14.569696 -14.153089 -0.286972 1063 0.450450 0.892802 0.000000
-14.569543 -14.152940 -0.280723 1067 0.450450 0.892802 0.000000
-14.569139 -14.152545 -0.274477 1073 0.450450 0.892802 0.000000
-14.579339 -14.153440 -0.674184 1079 0.450450 0.892802 0.000000
-14.578337 -14.152469 -0.667894 1081 0.450450 0.892802 0.000000
-14.578159 -14.152301 -0.661635 1081 0.450450 0.892802 0.000000
-14.577834 -14.151983 -0.655378 1089 0.450450 0.892802 0.000000
-14.578289 -14.152432 -0.649154 1069 0.450450 0.892802 0.000000
-14.579165 -14.153284 -0.642945 1079 0.450450 0.892802 0.000000
-14.578629 -14.152752 -0.636670 1071 0.450450 0.892802 0.000000
-14.579083 -14.153201 -0.630446 1073 0.450450 0.892802 0.000000
-14.579476 -14.153584 -0.624222 1093 0.450450 0.892802 0.000000
-14.578885 -14.153008 -0.617947 1087 0.450450 0.892802 0.000000
-14.577811 -14.151964 -0.611657 1085 0.450450 0.892802 0.000000
-14.577628 -14.151790 -0.605409 1073 0.450450 0.892802 0.000000
-14.577240 -14.151408 -0.599143 1067 0.450450 0.892802 0.000000
-14.577002 -14.151175 -0.592885 1073 0.450450 0.892802 0.000000
-14.578189 -14.152324 -0.586693 1079 0.450450 0.892802 0.000000
-14.578153 -14.152300 -0.580443 1087 0.450450 0.892802 0.000000
-14.577858 -14.152008 -0.574186 1079 0.450450 0.892802 0.000000
-14.578299 -14.152445 -0.567962 1079 0.450450 0.892802 0.000000
-14.578160 -14.152309 -0.561713 1073 0.450450 0.892802 0.000000
-14.578288 -14.152433 -0.555471 1097 0.450450 0.892802 0.000000
-14.578094 -14.152239 -0.549223 1089 0.450450 0.892802 0.000000
-14.577786 -14.151950 -0.542966 1097 0.450450 0.892802 0.000000
-14.577024 -14.151203 -0.536693 1091 0.450450 0.892802 0.000000
-14.576560 -14.150758 -0.530437 1087 0.450450 0.892802 0.000000
-14.576779 -14.150971 -0.524195 1085 0.450450 0.892802 0.000000
-14.577780 -14.151939 -0.517995 1085 0.450450 0.892802 0.000000
-14.577269 -14.151442 -0.511730 1093 0.450450 0.892802 0.000000
-14.577230 -14.151402 -0.505490 1091 0.450450 0.892802 0.000000
-14.577702 -14.151864 -0.499256 1099 0.450450 0.892802 0.000000
-14.576815 -14.151003 -0.492984 1091 0.450450 0.892802 0.000000
-14.576920 -14.151108 -0.486743 1079 0.450450 0.892802 0.000000
-14.576969 -14.151155 -0.480502 1087 0.450450 0.892802 0.000000
-14.577082 -14.151266 -0.474271 1077 0.450450 0.892802 0.000000
-14.576295 -14.150500 -0.467998 1073 0.450450 0.892802 0.000000
-14.575813 -14.150028 -0.461743 1085 0.450450 0.892802 0.000000
-14.576385 -14.150586 -0.455517 1087 0.450450 0.892802 0.000000
-14.575913 -14.150133 -0.449262 1085 0.450450 0.892802 0.000000
-14.576328 -14.150537 -0.443038 1083 0.450450 0.892802 0.000000
-14.576364 -14.150571 -0.436797 1083 0.450450 0.892802 0.000000
-14.576256 -14.150461 -0.430548 1079 0.450450 0.892802 0.000000
-14.576929 -14.151117 -0.424321 1075 0.450450 0.892802 0.000000
-14.576806 -14.150994 -0.418082 1073 0.450450 0.892802 0.000000
-14.576738 -14.150930 -0.411833 1067 0.450450 0.892802 0.000000
-14.576304 -14.150511 -0.405587 1083 0.450450 0.892802 0.000000
-14.575761 -14.149984 -0.399332 1065 0.450450 0.892802 0.000000
-14.575693 -14.149921 -0.393082 1079 0.450450 0.892802 0.000000
-14.575885 -14.150111 -0.386850 1089 0.450450 0.892802 0.000000
-14.576861 -14.151059 -0.380631 1083 0.450450 0.892802 0.000000
-14.577098 -14.151288 -0.374398 1083 0.450450 0.892802 0.000000
-14.576024 -14.150244 -0.368129 1083 0.450450 0.892802 0.000000
-14.575690 -14.149920 -0.361882 1073 0.450450 0.892802 0.000000
-14.575770 -14.149992 -0.355641 1077 0.450450 0.892802 0.000000
-14.575953 -14.150174 -0.349409 1071 0.450450 0.892802 0.000000
-14.576338 -14.150552 -0.343175 1065 0.450450 0.892802 0.000000
-14.576364 -14.150579 -0.336935 1075 0.450450 0.892802 0.000000
-14.575921 -14.150138 -0.330689 1073 0.450450 0.892802 0.000000
-14.575722 -14.149952 -0.324441 1077 0.450450 0.892802 0.000000
-14.575950 -14.150173 -0.318208 1081 0.450450 0.892802 0.000000
-14.576436 -14.150648 -0.311973 1077 0.450450 0.892802 0.000000
-14.576766 -14.150967 -0.305740 1079 0.450450 0.892802 0.000000
-14.575420 -14.149658 -0.299473 1089 0.450450 0.892802 0.000000
-14.575595 -14.149834 -0.293241 1083 0.450450 0.892802 0.000000
-14.576182 -14.150407 -0.287015 1069 0.450450 0.892802 0.000000
-14.575662 -14.149901 -0.280760 1061 0.450450 0.892802 0.000000
-14.575570 -14.149804 -0.274521 1063 0.450450 0.892802 0.000000
-14.584805 -14.150326 -0.674245 1093 0.450450 0.892802 0.000000
-14.584698 -14.150216 -0.667996 1089 0.450450 0.892802 0.000000
-14.584311 -14.149847 -0.661729 1081 0.450450 0.892802 0.000000
-14.584135 -14.149681 -0.655471 1079 0.450450 0.892802 0.000000
-14.584183 -14.149726 -0.649230 1065 0.450450 0.892802 0.000000
-14.584795 -14.150317 -0.643004 1063 0.450450 0.892802 0.000000
-14.584517 -14.150054 -0.636746 1051 0.450450 0.892802 0.000000
-14.583917 -14.149469 -0.630482 1061 0.450450 0.892802 0.000000
-14.583843 -14.149400 -0.624223 1069 0.450450 0.892802 0.000000
-14.584772 -14.150295 -0.618024 1087 0.450450 0.892802 0.000000
-14.584963 -14.150485 -0.611782 1089 0.450450 0.892802 0.000000
-14.584193 -14.149747 -0.605509 1067 0.450450 0.892802 0.000000
-14.584961 -14.150495 -0.599291 1079 0.450450 0.892802 0.000000
-14.585041 -14.150566 -0.593050 1073 0.450450 0.892802 0.000000
-14.583749 -14.149315 -0.586753 1075 0.450450 0.892802 0.000000
-14.582933 -14.148524 -0.580470 1067 0.450450 0.892802 0.000000
-14.582960 -14.148552 -0.574230 1067 0.450450 0.892802 0.000000
-14.583405 -14.148980 -0.567995 1073 0.450450 0.892802 0.000000
-14.584102 -14.149655 -0.561779 1075 0.450450 0.892802 0.000000
-14.583745 -14.149313 -0.555522 1073 0.450450 0.892802 0.000000
-14.583187 -14.148775 -0.549257 1075 0.450450 0.892802 0.000000
-14.583829 -14.149406 -0.543041 1089 0.450450 0.892802 0.000000
-14.583855 -14.149420 -0.536790 1087 0.450450 0.892802 0.000000
-14.583591 -14.149167 -0.530543 1101 0.450450 0.892802 0.000000
-14.583611 -14.149188 -0.524292 1095 0.450450 0.892802 0.000000
-14.583613 -14.149197 -0.518052 1081 0.450450 0.892802 0.000000
-14.583467 -14.149054 -0.511804 1079 0.450450 0.892802 0.000000
-14.582839 -14.148445 -0.505539 1069 0.450450 0.892802 0.000000
-14.582842 -14.148453 -0.499289 1077 0.450450 0.892802 0.000000
-14.582846 -14.148461 -0.493049 1085 0.450450 0.892802 0.000000
-14.583589 -14.149176 -0.486832 1085 0.450450 0.892802 0.000000
-14.583067 -14.148670 -0.480567 1067 0.450450 0.892802 0.000000
-14.582112 -14.147751 -0.474296 1073 0.450450 0.892802 0.000000
-14.581849 -14.147498 -0.468048 1073 0.450450 0.892802 0.000000
-14.582375 -14.148005 -0.461823 1097 0.450450 0.892802 0.000000
-14.583049 -14.148663 -0.455596 1097 0.450450 0.892802 0.000000
-14.582988 -14.148605 -0.449357 1079 0.450450 0.892802 0.000000
-14.582991 -14.148599 -0.443106 1071 0.450450 0.892802 0.000000
-14.583186 -14.148794 -0.436874 1077 0.450450 0.892802 0.000000
-14.583440 -14.149049 -0.430642 1079 0.450450 0.892802 0.000000
-14.582850 -14.148472 -0.424377 1091 0.450450 0.892802 0.000000
-14.581370 -14.147038 -0.418091 1067 0.450450 0.892802 0.000000
-14.581561 -14.147229 -0.411859 1079 0.450450 0.892802 0.000000
-14.581813 -14.147470 -0.405627 1079 0.450450 0.892802 0.000000
-14.582057 -14.147705 -0.399384 1071 0.450450 0.892802 0.000000
-14.582199 -14.147840 -0.393153 1081 0.450450 0.892802 0.000000
-14.582069 -14.147726 -0.386904 1079 0.450450 0.892802 0.000000
-14.581996 -14.147656 -0.380664 1079 0.450450 0.892802 0.000000
-14.581506 -14.147176 -0.374409 1083 0.450450 0.892802 0.000000
-14.581641 -14.147307 -0.368167 1075 0.450450 0.892802 0.000000
-14.581714 -14.147386 -0.361927 1077 0.450450 0.892802 0.000000
-14.581639 -14.147316 -0.355687 1079 0.450450 0.892802 0.000000
-14.581719 -14.147388 -0.349446 1075 0.450450 0.892802 0.000000
-14.580903 -14.146597 -0.343184 1077 0.450450 0.892802 0.000000
-14.580866 -14.146560 -0.336944 1067 0.450450 0.892802 0.000000
-14.581944 -14.147605 -0.330734 1063 0.450450 0.892802 0.000000
-14.582689 -14.148334 -0.324506 1073 0.450450 0.892802 0.000000
-14.581607 -14.147283 -0.318237 1081 0.450450 0.892802 0.000000
-14.580682 -14.146388 -0.311975 1063 0.450450 0.892802 0.000000
-14.580904 -14.146605 -0.305743 1087 0.450450 0.892802 0.000000
-14.581078 -14.146781 -0.299511 1077 0.450450 0.892802 0.000000
-14.581142 -14.146840 -0.293270 1075 0.450450 0.892802 0.000000
-14.581045 -14.146750 -0.287031 1075 0.450450 0.892802 0.000000
-14.581427 -14.147113 -0.280797 1059 0.450450 0.892802 0.000000
-14.581064 -14.146765 -0.274551 1057 0.450450 0.892802 0.000000
-14.591116 -14.147070 -0.674322 1079 0.450450 0.892802 0.000000
-14.590745 -14.146701 -0.668055 1067 0.450450 0.892802 0.000000
-14.590840 -14.146799 -0.661814 1067 0.450450 0.892802 0.000000
-14.590672 -14.146637 -0.655556 1075 0.450450 0.892802 0.000000
-14.590495 -14.146470 -0.649307 1065 0.450450 0.892802 0.000000
-14.590801 -14.146756 -0.643064 1069 0.450450 0.892802 0.000000
-14.590942 -14.146892 -0.636833 1077 0.450450 0.892802 0.000000
-14.590549 -14.146518 -0.630566 1073 0.450450 0.892802 0.000000
-14.590426 -14.146395 -0.624307 1059 0.450450 0.892802 0.000000
-14.590460 -14.146428 -0.618067 1075 0.450450 0.892802 0.000000
-14.589800 -14.145794 -0.611793 1057 0.450450 0.892802 0.000000
-14.589834 -14.145827 -0.605543 1063 0.450450 0.892802 0.000000
-14.589813 -14.145802 -0.599303 1059 0.450450 0.892802 0.000000
-14.590416 -14.146386 -0.593077 1069 0.450450 0.892802 0.000000
-14.590551 -14.146518 -0.586835 1077 0.450450 0.892802 0.000000
-14.589096 -14.145104 -0.580529 1067 0.450450 0.892802 0.000000
-14.589061 -14.145081 -0.574289 1069 0.450450 0.892802 0.000000
-14.589560 -14.145554 -0.568064 1063 0.450450 0.892802 0.000000
-14.590054 -14.146035 -0.561829 1063 0.450450 0.892802 0.000000
-14.589963 -14.145951 -0.555580 1065 0.450450 0.892802 0.000000
-14.589982 -14.145973 -0.549340 1067 0.450450 0.892802 0.000000
-14.589626 -14.145630 -0.543083 1065 0.450450 0.892802 0.000000
-14.589955 -14.145948 -0.536850 1077 0.450450 0.892802 0.000000
-14.590597 -14.146566 -0.530623 1097 0.450450 0.892802 0.000000
-14.589821 -14.145822 -0.524351 1073 0.450450 0.892802 0.000000
-14.589784 -14.145782 -0.518111 1069 0.450450 0.892802 0.000000
-14.590839 -14.146809 -0.511901 1069 0.450450 0.892802 0.000000
-14.590848 -14.146809 -0.505650 1067 0.450450 0.892802 0.000000
-14.589751 -14.145746 -0.499371 1057 0.450450 0.892802 0.000000
-14.590074 -14.146059 -0.493138 1081 0.450450 0.892802 0.000000
-14.590020 -14.146007 -0.486888 1079 0.450450 0.892802 0.000000
-14.589602 -14.145599 -0.480632 1075 0.450450 0.892802 0.000000
-14.589341 -14.145348 -0.474384 1083 0.450450 0.892802 0.000000
-14.589445 -14.145452 -0.468143 1077 0.450450 0.892802 0.000000
-14.589813 -14.145804 -0.461909 1097 0.450450 0.892802 0.000000
-14.590127 -14.146109 -0.455676 1081 0.450450 0.892802 0.000000
-14.590006 -14.146000 -0.449427 1087 0.450450 0.892802 0.000000
-14.589105 -14.145125 -0.443156 1075 0.450450 0.892802 0.000000
-14.588786 -14.144814 -0.436898 1071 0.450450 0.892802 0.000000
-14.589304 -14.145316 -0.430673 1083 0.450450 0.892802 0.000000
-14.589454 -14.145459 -0.424432 1081 0.450450 0.892802 0.000000
-14.588435 -14.144473 -0.418161 1069 0.450450 0.892802 0.000000
-14.588164 -14.144216 -0.411914 1067 0.450450 0.892802 0.000000
-14.588566 -14.144606 -0.405680 1071 0.450450 0.892802 0.000000
-14.589504 -14.145509 -0.399461 1071 0.450450 0.892802 0.000000
-14.589428 -14.145438 -0.393221 1079 0.450450 0.892802 0.000000
-14.588144 -14.144194 -0.386944 1065 0.450450 0.892802 0.000000
-14.587758 -14.143826 -0.380687 1063 0.450450 0.892802 0.000000
-14.587308 -14.143392 -0.374441 1071 0.450450 0.892802 0.000000
-14.587817 -14.143886 -0.368206 1085 0.450450 0.892802 0.000000
-14.587367 -14.143453 -0.361960 1069 0.450450 0.892802 0.000000
-14.588446 -14.144497 -0.355740 1073 0.450450 0.892802 0.000000
-14.590678 -14.146659 -0.349548 1085 0.450450 0.892802 0.000000
-14.590650 -14.146627 -0.343308 1091 0.450450 0.892802 0.000000
-14.589622 -14.145636 -0.337038 1075 0.450450 0.892802 0.000000
-14.588331 -14.144384 -0.330770 1059 0.450450 0.892802 0.000000
-14.587928 -14.143990 -0.324524 1071 0.450450 0.892802 0.000000
-14.587898 -14.143957 -0.318274 1085 0.450450 0.892802 0.000000
-14.588128 -14.144179 -0.312042 1071 0.450450 0.892802 0.000000
-14.587879 -14.143940 -0.305794 1069 0.450450 0.892802 0.000000
-14.587158 -14.143240 -0.299541 1069 0.450450 0.892802 0.000000
-14.587215 -14.143307 -0.293300 1051 0.450450 0.892802 0.000000
-14.587865 -14.143930 -0.287074 1067 0.450450 0.892802 0.000000
-14.587555 -14.143626 -0.280827 1071 0.450450 0.892802 0.000000
-14.587200 -14.143284 -0.274580 1067 0.450450 0.892802 0.000000
