641
-14.811172 -14.026796 -0.678147 307 0.295722 0.955274 0.000000
-14.811205 -14.026830 -0.671876 303 0.295722 0.955274 0.000000
-14.810347 -14.026011 -0.665574 275 0.295722 0.955274 0.000000
-14.810765 -14.026412 -0.659320 287 0.295722 0.955274 0.000000
-14.810486 -14.026149 -0.653033 265 0.295722 0.955274 0.000000
-14.809518 -14.025227 -0.646722 253 0.295722 0.955274 0.000000
-14.810452 -14.026105 -0.640493 257 0.295722 0.955274 0.000000
-14.811027 -14.026647 -0.634247 265 0.295722 0.955274 0.000000
-14.808932 -14.024669 -0.627887 265 0.295722 0.955274 0.000000
-14.808222 -14.023999 -0.621593 239 0.295722 0.955274 0.000000
-14.808148 -14.023930 -0.615314 239 0.295722 0.955274 0.000000
-14.807116 -14.022943 -0.609003 243 0.295722 0.955274 0.000000
-14.807941 -14.023731 -0.602765 243 0.295722 0.955274 0.000000
-14.809674 -14.025370 -0.596569 245 0.295722 0.955274 0.000000
-14.809269 -14.024990 -0.590283 265 0.295722 0.955274 0.000000
-14.809780 -14.025468 -0.584038 291 0.295722 0.955274 0.000000
-14.811334 -14.026945 -0.577833 309 0.295722 0.955274 0.000000
-14.809608 -14.025310 -0.571489 285 0.295722 0.955274 0.000000
-14.808936 -14.024671 -0.565195 297 0.295722 0.955274 0.000000
-14.810505 -14.026149 -0.558990 303 0.295722 0.955274 0.000000
-14.810993 -14.026619 -0.552736 275 0.295722 0.955274 0.000000
-14.810534 -14.026182 -0.546450 285 0.295722 0.955274 0.000000
-14.808800 -14.024539 -0.540116 283 0.295722 0.955274 0.000000
-14.809819 -14.025500 -0.533886 297 0.295722 0.955274 0.000000
-14.810730 -14.026371 -0.527657 309 0.295722 0.955274 0.000000
-14.810216 -14.025876 -0.521362 309 0.295722 0.955274 0.000000
-14.811235 -14.026836 -0.515132 295 0.295722 0.955274 0.000000
-14.810553 -14.026201 -0.508839 279 0.295722 0.955274 0.000000
-14.809599 -14.025292 -0.502537 265 0.295722 0.955274 0.000000
-14.810080 -14.025744 -0.496293 301 0.295722 0.955274 0.000000
-14.810144 -14.025804 -0.490022 291 0.295722 0.955274 0.000000
-14.809881 -14.025552 -0.483744 309 0.295722 0.955274 0.000000
-14.809617 -14.025301 -0.477477 317 0.295722 0.955274 0.000000
-14.809613 -14.025303 -0.471207 299 0.295722 0.955274 0.000000
-14.808819 -14.024549 -0.464914 301 0.295722 0.955274 0.000000
-14.807850 -14.023628 -0.458613 319 0.295722 0.955274 0.000000
-14.810028 -14.025699 -0.452412 323 0.295722 0.955274 0.000000
-14.810234 -14.025887 -0.446150 295 0.295722 0.955274 0.000000
-14.807836 -14.023619 -0.439813 289 0.295722 0.955274 0.000000
-14.808356 -14.024117 -0.433567 291 0.295722 0.955274 0.000000
-14.809463 -14.025162 -0.427327 299 0.295722 0.955274 0.000000
-14.809566 -14.025252 -0.421066 295 0.295722 0.955274 0.000000
-14.809123 -14.024840 -0.414790 299 0.295722 0.955274 0.000000
-14.810433 -14.026079 -0.408557 307 0.295722 0.955274 0.000000
-14.810154 -14.025816 -0.402290 305 0.295722 0.955274 0.000000
-14.808968 -14.024688 -0.395991 297 0.295722 0.955274 0.000000
-14.808523 -14.024263 -0.389705 279 0.295722 0.955274 0.000000
-14.808613 -14.024355 -0.383444 287 0.295722 0.955274 0.000000
-14.808648 -14.024389 -0.377183 281 0.295722 0.955274 0.000000
-14.807929 -14.023698 -0.370900 265 0.295722 0.955274 0.000000
-14.809075 -14.024790 -0.364659 285 0.295722 0.955274 0.000000
-14.809954 -14.025621 -0.358421 291 0.295722 0.955274 0.000000
-14.808331 -14.024082 -0.352116 265 0.295722 0.955274 0.000000
-14.808513 -14.024250 -0.345854 277 0.295722 0.955274 0.000000
-14.809658 -14.025340 -0.339613 307 0.295722 0.955274 0.000000
-14.810051 -14.025708 -0.333359 283 0.295722 0.955274 0.000000
-14.808849 -14.024569 -0.327060 253 0.295722 0.955274 0.000000
-14.808391 -14.024131 -0.320785 279 0.295722 0.955274 0.000000
-14.808940 -14.024653 -0.314539 253 0.295722 0.955274 0.000000
-14.808693 -14.024416 -0.308262 265 0.295722 0.955274 0.000000
-14.809394 -14.025089 -0.302015 273 0.295722 0.955274 0.000000
-14.809090 -14.024791 -0.295748 287 0.295722 0.955274 0.000000
-14.808140 -14.023898 -0.289456 285 0.295722 0.955274 0.000000
-14.807470 -14.023261 -0.283182 225 0.295722 0.955274 0.000000
-14.818828 -14.025301 -0.678309 315 0.295722 0.955274 0.000000
-14.818282 -14.024780 -0.672004 291 0.295722 0.955274 0.000000
-14.818168 -14.024678 -0.665725 289 0.295722 0.955274 0.000000
-14.818052 -14.024562 -0.659456 287 0.295722 0.955274 0.000000
-14.818564 -14.025053 -0.653201 267 0.295722 0.955274 0.000000
-14.819091 -14.025544 -0.646956 255 0.295722 0.955274 0.000000
-14.818962 -14.025430 -0.640677 233 0.295722 0.955274 0.000000
-14.818626 -14.025106 -0.634390 243 0.295722 0.955274 0.000000
-14.818504 -14.024985 -0.628111 277 0.295722 0.955274 0.000000
-14.817843 -14.024367 -0.621817 267 0.295722 0.955274 0.000000
-14.817830 -14.024349 -0.615537 281 0.295722 0.955274 0.000000
-14.817535 -14.024074 -0.609260 271 0.295722 0.955274 0.000000
-14.816130 -14.022739 -0.602933 269 0.295722 0.955274 0.000000
-14.815844 -14.022470 -0.596645 257 0.295722 0.955274 0.000000
-14.816456 -14.023044 -0.590399 251 0.295722 0.955274 0.000000
-14.818548 -14.025031 -0.584209 293 0.295722 0.955274 0.000000
-14.819585 -14.026005 -0.577980 307 0.295722 0.955274 0.000000
-14.818327 -14.024819 -0.571661 293 0.295722 0.955274 0.000000
-14.817446 -14.023982 -0.565359 273 0.295722 0.955274 0.000000
-14.817472 -14.024009 -0.559089 271 0.295722 0.955274 0.000000
-14.816044 -14.022657 -0.552762 271 0.295722 0.955274 0.000000
-14.816282 -14.022883 -0.546510 277 0.295722 0.955274 0.000000
-14.818263 -14.024754 -0.540311 311 0.295722 0.955274 0.000000
-14.818274 -14.024766 -0.534041 301 0.295722 0.955274 0.000000
-14.817698 -14.024220 -0.527746 281 0.295722 0.955274 0.000000
-14.817981 -14.024484 -0.521493 283 0.295722 0.955274 0.000000
-14.819049 -14.025497 -0.515253 305 0.295722 0.955274 0.000000
-14.817840 -14.024351 -0.508944 317 0.295722 0.955274 0.000000
-14.817372 -14.023907 -0.502659 305 0.295722 0.955274 0.000000
-14.816780 -14.023346 -0.496374 283 0.295722 0.955274 0.000000
-14.815938 -14.022555 -0.490072 273 0.295722 0.955274 0.000000
-14.817114 -14.023657 -0.483841 295 0.295722 0.955274 0.000000
-14.816156 -14.022757 -0.477550 309 0.295722 0.955274 0.000000
-14.816104 -14.022706 -0.471280 313 0.295722 0.955274 0.000000
-14.817476 -14.024010 -0.465047 313 0.295722 0.955274 0.000000
-14.817056 -14.023603 -0.458771 321 0.295722 0.955274 0.000000
-14.815728 -14.022346 -0.452463 309 0.295722 0.955274 0.000000
-14.815512 -14.022135 -0.446185 297 0.295722 0.955274 0.000000
-14.817887 -14.024393 -0.439992 323 0.295722 0.955274 0.000000
-14.818091 -14.024579 -0.433730 323 0.295722 0.955274 0.000000
-14.816217 -14.022808 -0.427408 315 0.295722 0.955274 0.000000
-14.815093 -14.021746 -0.421108 309 0.295722 0.955274 0.000000
-14.816520 -14.023094 -0.414875 305 0.295722 0.955274 0.000000
-14.818581 -14.025042 -0.408665 287 0.295722 0.955274 0.000000
-14.818083 -14.024571 -0.402390 303 0.295722 0.955274 0.000000
-14.815778 -14.022394 -0.396051 319 0.295722 0.955274 0.000000
-14.815390 -14.022028 -0.389775 313 0.295722 0.955274 0.000000
-14.816590 -14.023164 -0.383543 301 0.295722 0.955274 0.000000
-14.815035 -14.021681 -0.377238 291 0.295722 0.955274 0.000000
-14.815531 -14.022160 -0.370983 289 0.295722 0.955274 0.000000
-14.815886 -14.022495 -0.364719 279 0.295722 0.955274 0.000000
-14.814433 -14.021111 -0.358423 269 0.295722 0.955274 0.000000
-14.814718 -14.021388 -0.352160 261 0.295722 0.955274 0.000000
-14.815003 -14.021654 -0.345907 269 0.295722 0.955274 0.000000
-14.815936 -14.022531 -0.339658 263 0.295722 0.955274 0.000000
-14.816113 -14.022706 -0.333397 279 0.295722 0.955274 0.000000
-14.814910 -14.021566 -0.327108 277 0.295722 0.955274 0.000000
-14.816054 -14.022643 -0.320867 283 0.295722 0.955274 0.000000
-14.817027 -14.023565 -0.314618 275 0.295722 0.955274 0.000000
-14.817147 -14.023683 -0.308356 257 0.295722 0.955274 0.000000
-14.815992 -14.022581 -0.302067 273 0.295722 0.955274 0.000000
-14.815315 -14.021951 -0.295783 255 0.295722 0.955274 0.000000
-14.814536 -14.021210 -0.289500 261 0.295722 0.955274 0.000000
-14.813849 -14.020559 -0.283227 229 0.295722 0.955274 0.000000
-14.825141 -14.022019 -0.672106 285 0.295722 0.955274 0.000000
-14.825229 -14.022098 -0.665845 281 0.295722 0.955274 0.000000
-14.825967 -14.022800 -0.659598 297 0.295722 0.955274 0.000000
-14.824256 -14.021177 -0.653254 275 0.295722 0.955274 0.000000
-14.825089 -14.021972 -0.647016 239 0.295722 0.955274 0.000000
-14.825756 -14.022603 -0.640770 237 0.295722 0.955274 0.000000
-14.824367 -14.021283 -0.634443 249 0.295722 0.955274 0.000000
-14.824244 -14.021161 -0.628164 291 0.295722 0.955274 0.000000
-14.823684 -14.020640 -0.621869 285 0.295722 0.955274 0.000000
-14.823298 -14.020275 -0.615582 285 0.295722 0.955274 0.000000
-14.823383 -14.020351 -0.609311 277 0.295722 0.955274 0.000000
-14.824256 -14.021178 -0.603073 251 0.295722 0.955274 0.000000
-14.824979 -14.021856 -0.596836 283 0.295722 0.955274 0.000000
-14.825747 -14.022584 -0.590589 275 0.295722 0.955274 0.000000
-14.826572 -14.023373 -0.584351 291 0.295722 0.955274 0.000000
-14.827021 -14.023785 -0.578097 299 0.295722 0.955274 0.000000
-14.824748 -14.021646 -0.571738 269 0.295722 0.955274 0.000000
-14.823295 -14.020262 -0.565411 265 0.295722 0.955274 0.000000
-14.824690 -14.021583 -0.559188 271 0.295722 0.955274 0.000000
-14.823958 -14.020895 -0.552895 287 0.295722 0.955274 0.000000
-14.824931 -14.021817 -0.546655 293 0.295722 0.955274 0.000000
-14.826068 -14.022887 -0.540425 299 0.295722 0.955274 0.000000
-14.825021 -14.021889 -0.534114 329 0.295722 0.955274 0.000000
-14.825244 -14.022103 -0.527852 319 0.295722 0.955274 0.000000
-14.824191 -14.021111 -0.521552 311 0.295722 0.955274 0.000000
-14.823879 -14.020809 -0.515265 295 0.295722 0.955274 0.000000
-14.823830 -14.020772 -0.508995 313 0.295722 0.955274 0.000000
-14.824106 -14.021030 -0.502732 301 0.295722 0.955274 0.000000
-14.824859 -14.021733 -0.496495 309 0.295722 0.955274 0.000000
-14.823852 -14.020780 -0.490184 293 0.295722 0.955274 0.000000
-14.823646 -14.020588 -0.483906 281 0.295722 0.955274 0.000000
-14.825345 -14.022200 -0.477700 315 0.295722 0.955274 0.000000
-14.826200 -14.023000 -0.471452 303 0.295722 0.955274 0.000000
-14.825664 -14.022498 -0.465167 317 0.295722 0.955274 0.000000
-14.823851 -14.020777 -0.458844 313 0.295722 0.955274 0.000000
-14.823055 -14.020025 -0.452541 307 0.295722 0.955274 0.000000
-14.823419 -14.020368 -0.446287 291 0.295722 0.955274 0.000000
-14.823468 -14.020413 -0.440017 317 0.295722 0.955274 0.000000
-14.823878 -14.020808 -0.433763 323 0.295722 0.955274 0.000000
-14.822857 -14.019843 -0.427462 309 0.295722 0.955274 0.000000
-14.822742 -14.019726 -0.421193 309 0.295722 0.955274 0.000000
-14.823793 -14.020726 -0.414953 297 0.295722 0.955274 0.000000
-14.824210 -14.021113 -0.408699 325 0.295722 0.955274 0.000000
-14.823978 -14.020903 -0.402421 295 0.295722 0.955274 0.000000
-14.822847 -14.019833 -0.396122 299 0.295722 0.955274 0.000000
-14.824257 -14.021153 -0.389898 307 0.295722 0.955274 0.000000
-14.825412 -14.022251 -0.383657 303 0.295722 0.955274 0.000000
-14.824327 -14.021221 -0.377357 309 0.295722 0.955274 0.000000
-14.824039 -14.020951 -0.371080 295 0.295722 0.955274 0.000000
-14.823587 -14.020519 -0.364804 291 0.295722 0.955274 0.000000
-14.823826 -14.020746 -0.358542 297 0.295722 0.955274 0.000000
-14.823853 -14.020774 -0.352271 293 0.295722 0.955274 0.000000
-14.822345 -14.019343 -0.345975 267 0.295722 0.955274 0.000000
-14.823209 -14.020164 -0.339727 273 0.295722 0.955274 0.000000
-14.824244 -14.021150 -0.333477 271 0.295722 0.955274 0.000000
-14.823738 -14.020660 -0.327202 299 0.295722 0.955274 0.000000
-14.823750 -14.020675 -0.320931 287 0.295722 0.955274 0.000000
-14.823447 -14.020392 -0.314664 247 0.295722 0.955274 0.000000
-14.825171 -14.022023 -0.308428 259 0.295722 0.955274 0.000000
-14.824759 -14.021624 -0.302152 285 0.295722 0.955274 0.000000
-14.822697 -14.019672 -0.295841 273 0.295722 0.955274 0.000000
-14.823247 -14.020195 -0.289585 265 0.295722 0.955274 0.000000
-14.823470 -14.020411 -0.283323 259 0.295722 0.955274 0.000000
-14.832546 -14.019930 -0.672243 301 0.295722 0.955274 0.000000
-14.832589 -14.019971 -0.665972 277 0.295722 0.955274 0.000000
-14.833748 -14.021059 -0.659751 291 0.295722 0.955274 0.000000
-14.833096 -14.020449 -0.653447 293 0.295722 0.955274 0.000000
-14.831112 -14.018575 -0.647086 263 0.295722 0.955274 0.000000
-14.830300 -14.017809 -0.640773 265 0.295722 0.955274 0.000000
-14.831609 -14.019047 -0.634561 273 0.295722 0.955274 0.000000
-14.832603 -14.019974 -0.628331 267 0.295722 0.955274 0.000000
-14.832967 -14.020316 -0.622068 261 0.295722 0.955274 0.000000
-14.835059 -14.022303 -0.615878 245 0.295722 0.955274 0.000000
-14.834556 -14.021829 -0.609583 253 0.295722 0.955274 0.000000
-14.831341 -14.018785 -0.603183 255 0.295722 0.955274 0.000000
-14.830795 -14.018265 -0.596888 251 0.295722 0.955274 0.000000
-14.832467 -14.019852 -0.590682 283 0.295722 0.955274 0.000000
-14.832641 -14.020014 -0.584410 289 0.295722 0.955274 0.000000
-14.831714 -14.019137 -0.578108 309 0.295722 0.955274 0.000000
-14.831847 -14.019253 -0.571837 281 0.295722 0.955274 0.000000
-14.831765 -14.019178 -0.565558 289 0.295722 0.955274 0.000000
-14.831838 -14.019242 -0.559297 295 0.295722 0.955274 0.000000
-14.832920 -14.020268 -0.553057 291 0.295722 0.955274 0.000000
-14.832823 -14.020179 -0.546787 313 0.295722 0.955274 0.000000
-14.832942 -14.020296 -0.540516 309 0.295722 0.955274 0.000000
-14.832428 -14.019801 -0.534231 325 0.295722 0.955274 0.000000
-14.831061 -14.018512 -0.527903 325 0.295722 0.955274 0.000000
-14.831489 -14.018920 -0.521649 295 0.295722 0.955274 0.000000
-14.831083 -14.018526 -0.515363 293 0.295722 0.955274 0.000000
-14.831141 -14.018593 -0.509092 315 0.295722 0.955274 0.000000
-14.831621 -14.019045 -0.502838 313 0.295722 0.955274 0.000000
-14.832108 -14.019503 -0.496583 297 0.295722 0.955274 0.000000
-14.832167 -14.019554 -0.490312 311 0.295722 0.955274 0.000000
-14.833023 -14.020368 -0.484074 309 0.295722 0.955274 0.000000
-14.833135 -14.020466 -0.477803 327 0.295722 0.955274 0.000000
-14.830360 -14.017850 -0.471449 317 0.295722 0.955274 0.000000
-14.830098 -14.017600 -0.465161 315 0.295722 0.955274 0.000000
-14.829506 -14.017040 -0.458876 303 0.295722 0.955274 0.000000
-14.829132 -14.016685 -0.452600 299 0.295722 0.955274 0.000000
-14.830669 -14.018137 -0.446375 291 0.295722 0.955274 0.000000
-14.832518 -14.019883 -0.440158 305 0.295722 0.955274 0.000000
-14.833052 -14.020380 -0.433903 303 0.295722 0.955274 0.000000
-14.832820 -14.020169 -0.427625 313 0.295722 0.955274 0.000000
-14.831000 -14.018443 -0.421302 297 0.295722 0.955274 0.000000
-14.830143 -14.017638 -0.415010 311 0.295722 0.955274 0.000000
-14.830709 -14.018175 -0.408754 319 0.295722 0.955274 0.000000
-14.830806 -14.018258 -0.402493 279 0.295722 0.955274 0.000000
-14.831903 -14.019297 -0.396253 313 0.295722 0.955274 0.000000
-14.832040 -14.019427 -0.389981 323 0.295722 0.955274 0.000000
-14.831972 -14.019363 -0.383712 287 0.295722 0.955274 0.000000
-14.831890 -14.019287 -0.377442 311 0.295722 0.955274 0.000000
-14.831336 -14.018759 -0.371157 307 0.295722 0.955274 0.000000
-14.831793 -14.019192 -0.364893 309 0.295722 0.955274 0.000000
-14.831288 -14.018716 -0.358617 339 0.295722 0.955274 0.000000
-14.832009 -14.019393 -0.352361 305 0.295722 0.955274 0.000000
-14.833044 -14.020367 -0.346121 281 0.295722 0.955274 0.000000
-14.830773 -14.018230 -0.339792 289 0.295722 0.955274 0.000000
-14.830531 -14.017997 -0.333524 283 0.295722 0.955274 0.000000
-14.832045 -14.019429 -0.327290 281 0.295722 0.955274 0.000000
-14.831695 -14.019094 -0.321013 277 0.295722 0.955274 0.000000
-14.831025 -14.018457 -0.314729 291 0.295722 0.955274 0.000000
-14.830512 -14.017975 -0.308444 285 0.295722 0.955274 0.000000
-14.830733 -14.018188 -0.302181 289 0.295722 0.955274 0.000000
-14.831331 -14.018750 -0.295926 259 0.295722 0.955274 0.000000
-14.830921 -14.018365 -0.289649 247 0.295722 0.955274 0.000000
-14.829381 -14.016909 -0.283354 251 0.295722 0.955274 0.000000
-14.840919 -14.019582 -0.672436 283 0.295722 0.955274 0.000000
-14.840757 -14.019428 -0.666157 295 0.295722 0.955274 0.000000
-14.839141 -14.017908 -0.659812 283 0.295722 0.955274 0.000000
-14.838862 -14.017646 -0.653525 281 0.295722 0.955274 0.000000
-14.839333 -14.018077 -0.647270 251 0.295722 0.955274 0.000000
-14.839634 -14.018368 -0.641007 257 0.295722 0.955274 0.000000
-14.839409 -14.018149 -0.634719 255 0.295722 0.955274 0.000000
-14.839225 -14.017977 -0.628441 243 0.295722 0.955274 0.000000
-14.838249 -14.017062 -0.622120 249 0.295722 0.955274 0.000000
-14.838168 -14.016987 -0.615841 251 0.295722 0.955274 0.000000
-14.837364 -14.016212 -0.609538 251 0.295722 0.955274 0.000000
-14.836858 -14.015738 -0.603243 263 0.295722 0.955274 0.000000
-14.837839 -14.016666 -0.597003 241 0.295722 0.955274 0.000000
-14.838710 -14.017492 -0.590765 261 0.295722 0.955274 0.000000
-14.839690 -14.018420 -0.584536 267 0.295722 0.955274 0.000000
-14.839616 -14.018351 -0.578256 305 0.295722 0.955274 0.000000
-14.838468 -14.017256 -0.571937 305 0.295722 0.955274 0.000000
-14.837531 -14.016373 -0.565625 295 0.295722 0.955274 0.000000
-14.837706 -14.016535 -0.559364 313 0.295722 0.955274 0.000000
-14.837781 -14.016615 -0.553093 285 0.295722 0.955274 0.000000
-14.838487 -14.017279 -0.546846 283 0.295722 0.955274 0.000000
-14.839568 -14.018291 -0.540616 313 0.295722 0.955274 0.000000
-14.839586 -14.018311 -0.534335 307 0.295722 0.955274 0.000000
-14.839277 -14.018023 -0.528058 315 0.295722 0.955274 0.000000
-14.837794 -14.016624 -0.521732 315 0.295722 0.955274 0.000000
-14.839511 -14.018236 -0.515516 305 0.295722 0.955274 0.000000
-14.839253 -14.017992 -0.509238 319 0.295722 0.955274 0.000000
-14.837350 -14.016195 -0.502896 299 0.295722 0.955274 0.000000
-14.838259 -14.017053 -0.496657 299 0.295722 0.955274 0.000000
-14.839427 -14.018163 -0.490426 345 0.295722 0.955274 0.000000
-14.837780 -14.016604 -0.484091 333 0.295722 0.955274 0.000000
-14.836930 -14.015806 -0.477799 319 0.295722 0.955274 0.000000
-14.837573 -14.016405 -0.471543 301 0.295722 0.955274 0.000000
-14.838313 -14.017110 -0.465296 309 0.295722 0.955274 0.000000
-14.839160 -14.017902 -0.459048 315 0.295722 0.955274 0.000000
-14.838365 -14.017149 -0.452755 303 0.295722 0.955274 0.000000
-14.836648 -14.015533 -0.446431 283 0.295722 0.955274 0.000000
-14.837604 -14.016429 -0.440192 299 0.295722 0.955274 0.000000
-14.839562 -14.018280 -0.433973 307 0.295722 0.955274 0.000000
-14.839331 -14.018067 -0.427695 299 0.295722 0.955274 0.000000
-14.838582 -14.017353 -0.421402 295 0.295722 0.955274 0.000000
-14.837928 -14.016741 -0.415118 305 0.295722 0.955274 0.000000
-14.838236 -14.017026 -0.408855 305 0.295722 0.955274 0.000000
-14.839765 -14.018471 -0.402621 309 0.295722 0.955274 0.000000
-14.838468 -14.017240 -0.396313 315 0.295722 0.955274 0.000000
-14.837548 -14.016371 -0.390021 295 0.295722 0.955274 0.000000
-14.839867 -14.018569 -0.383809 305 0.295722 0.955274 0.000000
-14.838789 -14.017546 -0.377509 317 0.295722 0.955274 0.000000
-14.837643 -14.016463 -0.371210 295 0.295722 0.955274 0.000000
-14.837036 -14.015892 -0.364925 285 0.295722 0.955274 0.000000
-14.835201 -14.014153 -0.358613 287 0.295722 0.955274 0.000000
-14.836391 -14.015280 -0.352371 309 0.295722 0.955274 0.000000
-14.838124 -14.016918 -0.346145 275 0.295722 0.955274 0.000000
-14.838196 -14.016983 -0.339874 239 0.295722 0.955274 0.000000
-14.836839 -14.015702 -0.333577 293 0.295722 0.955274 0.000000
-14.836114 -14.015020 -0.327293 297 0.295722 0.955274 0.000000
-14.836445 -14.015337 -0.321030 303 0.295722 0.955274 0.000000
-14.836581 -14.015454 -0.314759 291 0.295722 0.955274 0.000000
-14.836913 -14.015771 -0.308495 273 0.295722 0.955274 0.000000
-14.836876 -14.015733 -0.302226 281 0.295722 0.955274 0.000000
-14.838162 -14.016952 -0.295983 253 0.295722 0.955274 0.000000
-14.839449 -14.018171 -0.289741 259 0.295722 0.955274 0.000000
-14.837978 -14.016772 -0.283445 255 0.295722 0.955274 0.000000
-14.844039 -14.014470 -0.672408 291 0.295722 0.955274 0.000000
-14.844728 -14.015106 -0.666161 285 0.295722 0.955274 0.000000
-14.845881 -14.016204 -0.659930 293 0.295722 0.955274 0.000000
-14.845815 -14.016141 -0.653650 263 0.295722 0.955274 0.000000
-14.845065 -14.015426 -0.647347 257 0.295722 0.955274 0.000000
-14.846109 -14.016419 -0.641117 237 0.295722 0.955274 0.000000
-14.846299 -14.016594 -0.634846 273 0.295722 0.955274 0.000000
-14.844745 -14.015125 -0.628500 263 0.295722 0.955274 0.000000
-14.843920 -14.014347 -0.622198 245 0.295722 0.955274 0.000000
-14.844377 -14.014779 -0.615933 235 0.295722 0.955274 0.000000
-14.846226 -14.016527 -0.609736 275 0.295722 0.955274 0.000000
-14.848276 -14.018454 -0.603546 271 0.295722 0.955274 0.000000
-14.846864 -14.017127 -0.597209 251 0.295722 0.955274 0.000000
-14.844129 -14.014544 -0.590825 261 0.295722 0.955274 0.000000
-14.844038 -14.014462 -0.584546 293 0.295722 0.955274 0.000000
-14.845026 -14.015384 -0.578316 305 0.295722 0.955274 0.000000
-14.845686 -14.016009 -0.572060 305 0.295722 0.955274 0.000000
-14.846236 -14.016532 -0.565814 307 0.295722 0.955274 0.000000
-14.846574 -14.016841 -0.559551 305 0.295722 0.955274 0.000000
-14.846860 -14.017120 -0.553278 305 0.295722 0.955274 0.000000
-14.845918 -14.016232 -0.546977 293 0.295722 0.955274 0.000000
-14.844713 -14.015091 -0.540658 311 0.295722 0.955274 0.000000
-14.844561 -14.014944 -0.534380 309 0.295722 0.955274 0.000000
-14.845275 -14.015615 -0.528123 327 0.295722 0.955274 0.000000
-14.845810 -14.016125 -0.521868 323 0.295722 0.955274 0.000000
-14.844811 -14.015180 -0.515567 289 0.295722 0.955274 0.000000
-14.845347 -14.015690 -0.509312 313 0.295722 0.955274 0.000000
-14.845897 -14.016198 -0.503056 313 0.295722 0.955274 0.000000
-14.844889 -14.015244 -0.496746 297 0.295722 0.955274 0.000000
-14.844940 -14.015305 -0.490475 317 0.295722 0.955274 0.000000
-14.844309 -14.014699 -0.484181 309 0.295722 0.955274 0.000000
-14.843671 -14.014102 -0.477887 319 0.295722 0.955274 0.000000
-14.844995 -14.015352 -0.471654 323 0.295722 0.955274 0.000000
-14.844465 -14.014843 -0.465369 311 0.295722 0.955274 0.000000
-14.843132 -14.013596 -0.459051 327 0.295722 0.955274 0.000000
-14.844356 -14.014750 -0.452820 297 0.295722 0.955274 0.000000
-14.844935 -14.015285 -0.446564 319 0.295722 0.955274 0.000000
-14.846581 -14.016838 -0.440338 303 0.295722 0.955274 0.000000
-14.846138 -14.016426 -0.434052 313 0.295722 0.955274 0.000000
-14.844593 -14.014965 -0.427737 309 0.295722 0.955274 0.000000
-14.845322 -14.015648 -0.421480 319 0.295722 0.955274 0.000000
-14.844622 -14.014986 -0.415196 289 0.295722 0.955274 0.000000
-14.844124 -14.014516 -0.408911 311 0.295722 0.955274 0.000000
-14.845278 -14.015614 -0.402670 305 0.295722 0.955274 0.000000
-14.844097 -14.014491 -0.396361 299 0.295722 0.955274 0.000000
-14.842577 -14.013062 -0.390055 283 0.295722 0.955274 0.000000
-14.844690 -14.015055 -0.383835 293 0.295722 0.955274 0.000000
-14.845679 -14.015989 -0.377585 311 0.295722 0.955274 0.000000
-14.844172 -14.014560 -0.371279 277 0.295722 0.955274 0.000000
-14.843878 -14.014284 -0.365002 283 0.295722 0.955274 0.000000
-14.844702 -14.015058 -0.358744 275 0.295722 0.955274 0.000000
-14.844735 -14.015091 -0.352474 273 0.295722 0.955274 0.000000
-14.845233 -14.015570 -0.346219 291 0.295722 0.955274 0.000000
-14.845578 -14.015885 -0.339956 273 0.295722 0.955274 0.000000
-14.844751 -14.015105 -0.333663 271 0.295722 0.955274 0.000000
-14.843653 -14.014077 -0.327373 293 0.295722 0.955274 0.000000
-14.842232 -14.012731 -0.321066 289 0.295722 0.955274 0.000000
-14.843048 -14.013498 -0.314819 289 0.295722 0.955274 0.000000
-14.844716 -14.015070 -0.308583 271 0.295722 0.955274 0.000000
-14.844517 -14.014886 -0.302305 297 0.295722 0.955274 0.000000
-14.843793 -14.014203 -0.296021 291 0.295722 0.955274 0.000000
-14.842253 -14.012747 -0.289716 267 0.295722 0.955274 0.000000
-14.842750 -14.013212 -0.283461 255 0.295722 0.955274 0.000000
-14.851164 -14.012784 -0.672543 285 0.295722 0.955274 0.000000
-14.852958 -14.014473 -0.666346 287 0.295722 0.955274 0.000000
-14.851411 -14.013010 -0.659991 281 0.295722 0.955274 0.000000
-14.851290 -14.012902 -0.653712 255 0.295722 0.955274 0.000000
-14.851918 -14.013490 -0.647466 259 0.295722 0.955274 0.000000
-14.851051 -14.012665 -0.641144 251 0.295722 0.955274 0.000000
-14.852205 -14.013762 -0.634923 275 0.295722 0.955274 0.000000
-14.853037 -14.014543 -0.628675 231 0.295722 0.955274 0.000000
-14.852805 -14.014318 -0.622397 231 0.295722 0.955274 0.000000
-14.851884 -14.013448 -0.616075 223 0.295722 0.955274 0.000000
-14.850261 -14.011923 -0.609730 235 0.295722 0.955274 0.000000
-14.849606 -14.011297 -0.603426 221 0.295722 0.955274 0.000000
-14.849462 -14.011171 -0.597148 239 0.295722 0.955274 0.000000
-14.849339 -14.011048 -0.590869 261 0.295722 0.955274 0.000000
-14.850100 -14.011771 -0.584621 287 0.295722 0.955274 0.000000
-14.851878 -14.013447 -0.578424 315 0.295722 0.955274 0.000000
-14.852068 -14.013620 -0.572153 321 0.295722 0.955274 0.000000
-14.851609 -14.013184 -0.565857 317 0.295722 0.955274 0.000000
-14.852639 -14.014166 -0.559617 307 0.295722 0.955274 0.000000
-14.851748 -14.013321 -0.553315 321 0.295722 0.955274 0.000000
-14.850485 -14.012131 -0.546987 319 0.295722 0.955274 0.000000
-14.852310 -14.013845 -0.540780 321 0.295722 0.955274 0.000000
-14.852593 -14.014109 -0.534517 287 0.295722 0.955274 0.000000
-14.851228 -14.012822 -0.528189 293 0.295722 0.955274 0.000000
-14.851450 -14.013036 -0.521927 301 0.295722 0.955274 0.000000
-14.851124 -14.012733 -0.515640 297 0.295722 0.955274 0.000000
-14.849447 -14.011149 -0.509306 279 0.295722 0.955274 0.000000
-14.850676 -14.012296 -0.503074 275 0.295722 0.955274 0.000000
-14.851853 -14.013412 -0.496843 311 0.295722 0.955274 0.000000
-14.850736 -14.012356 -0.490533 335 0.295722 0.955274 0.000000
-14.852124 -14.013673 -0.484300 313 0.295722 0.955274 0.000000
-14.852447 -14.013968 -0.478037 331 0.295722 0.955274 0.000000
-14.851168 -14.012765 -0.471719 323 0.295722 0.955274 0.000000
-14.849942 -14.011606 -0.465410 309 0.295722 0.955274 0.000000
-14.848826 -14.010550 -0.459100 293 0.295722 0.955274 0.000000
-14.848445 -14.010190 -0.452814 311 0.295722 0.955274 0.000000
-14.848967 -14.010687 -0.446559 299 0.295722 0.955274 0.000000
-14.849546 -14.011235 -0.440303 315 0.295722 0.955274 0.000000
-14.849698 -14.011378 -0.434042 323 0.295722 0.955274 0.000000
-14.849959 -14.011624 -0.427769 321 0.295722 0.955274 0.000000
-14.849783 -14.011457 -0.421491 293 0.295722 0.955274 0.000000
-14.850089 -14.011741 -0.415227 301 0.295722 0.955274 0.000000
-14.850663 -14.012283 -0.408972 311 0.295722 0.955274 0.000000
-14.850971 -14.012568 -0.402709 317 0.295722 0.955274 0.000000
-14.850309 -14.011950 -0.396415 319 0.295722 0.955274 0.000000
-14.850344 -14.011984 -0.390145 291 0.295722 0.955274 0.000000
-14.850541 -14.012164 -0.383883 269 0.295722 0.955274 0.000000
-14.850990 -14.012590 -0.377618 289 0.295722 0.955274 0.000000
-14.850282 -14.011921 -0.371325 295 0.295722 0.955274 0.000000
-14.850417 -14.012051 -0.365063 293 0.295722 0.955274 0.000000
-14.850498 -14.012123 -0.358792 279 0.295722 0.955274 0.000000
-14.847646 -14.009430 -0.352449 285 0.295722 0.955274 0.000000
-14.846937 -14.008760 -0.346165 297 0.295722 0.955274 0.000000
-14.849561 -14.011236 -0.339951 283 0.295722 0.955274 0.000000
-14.851979 -14.013517 -0.333738 277 0.295722 0.955274 0.000000
-14.851686 -14.013242 -0.327460 291 0.295722 0.955274 0.000000
-14.851595 -14.013159 -0.321181 297 0.295722 0.955274 0.000000
-14.852043 -14.013572 -0.314917 287 0.295722 0.955274 0.000000
-14.849864 -14.011523 -0.308607 281 0.295722 0.955274 0.000000
-14.849665 -14.011338 -0.302329 267 0.295722 0.955274 0.000000
-14.849485 -14.011157 -0.296050 295 0.295722 0.955274 0.000000
-14.850241 -14.011874 -0.289793 285 0.295722 0.955274 0.000000
-14.851517 -14.013086 -0.283551 295 0.295722 0.955274 0.000000
-14.857889 -14.010550 -0.672654 281 0.295722 0.955274 0.000000
-14.858730 -14.011350 -0.666416 275 0.295722 0.955274 0.000000
-14.858669 -14.011292 -0.660126 289 0.295722 0.955274 0.000000
-14.857217 -14.009919 -0.653790 259 0.295722 0.955274 0.000000
-14.858057 -14.010706 -0.647551 273 0.295722 0.955274 0.000000
-14.860491 -14.013000 -0.641379 263 0.295722 0.955274 0.000000
-14.860157 -14.012678 -0.635082 269 0.295722 0.955274 0.000000
-14.860191 -14.012712 -0.628801 225 0.295722 0.955274 0.000000
-14.858623 -14.011245 -0.622456 227 0.295722 0.955274 0.000000
-14.856905 -14.009615 -0.616112 229 0.295722 0.955274 0.000000
-14.859222 -14.011800 -0.609930 251 0.295722 0.955274 0.000000
-14.859522 -14.012077 -0.603667 245 0.295722 0.955274 0.000000
-14.859015 -14.011601 -0.597361 245 0.295722 0.955274 0.000000
-14.859724 -14.012280 -0.591115 261 0.295722 0.955274 0.000000
-14.860501 -14.013001 -0.584867 303 0.295722 0.955274 0.000000
-14.860466 -14.012978 -0.578587 293 0.295722 0.955274 0.000000
-14.858309 -14.010936 -0.572227 277 0.295722 0.955274 0.000000
-14.857059 -14.009756 -0.565909 319 0.295722 0.955274 0.000000
-14.857666 -14.010325 -0.559653 325 0.295722 0.955274 0.000000
-14.858215 -14.010848 -0.553398 287 0.295722 0.955274 0.000000
-14.857429 -14.010100 -0.547095 303 0.295722 0.955274 0.000000
-14.857549 -14.010218 -0.540824 317 0.295722 0.955274 0.000000
-14.857410 -14.010083 -0.534535 289 0.295722 0.955274 0.000000
-14.856944 -14.009639 -0.528249 277 0.295722 0.955274 0.000000
-14.858503 -14.011109 -0.522024 289 0.295722 0.955274 0.000000
-14.859358 -14.011922 -0.515776 287 0.295722 0.955274 0.000000
-14.857397 -14.010066 -0.509435 269 0.295722 0.955274 0.000000
-14.857775 -14.010421 -0.503171 309 0.295722 0.955274 0.000000
-14.858413 -14.011029 -0.496925 309 0.295722 0.955274 0.000000
-14.858157 -14.010785 -0.490637 295 0.295722 0.955274 0.000000
-14.859537 -14.012094 -0.484404 301 0.295722 0.955274 0.000000
-14.859063 -14.011644 -0.478118 315 0.295722 0.955274 0.000000
-14.857204 -14.009886 -0.471785 295 0.295722 0.955274 0.000000
-14.858058 -14.010684 -0.465537 297 0.295722 0.955274 0.000000
-14.859274 -14.011832 -0.459296 311 0.295722 0.955274 0.000000
-14.856556 -14.009275 -0.452941 285 0.295722 0.955274 0.000000
-14.857082 -14.009766 -0.446676 305 0.295722 0.955274 0.000000
-14.858189 -14.010811 -0.440435 323 0.295722 0.955274 0.000000
-14.858831 -14.011410 -0.434179 315 0.295722 0.955274 0.000000
-14.858703 -14.011296 -0.427900 317 0.295722 0.955274 0.000000
-14.858165 -14.010794 -0.421615 301 0.295722 0.955274 0.000000
-14.858206 -14.010819 -0.415345 309 0.295722 0.955274 0.000000
-14.857976 -14.010610 -0.409057 309 0.295722 0.955274 0.000000
-14.858383 -14.010988 -0.402803 303 0.295722 0.955274 0.000000
-14.856407 -14.009121 -0.396471 299 0.295722 0.955274 0.000000
-14.856490 -14.009206 -0.390200 277 0.295722 0.955274 0.000000
-14.858016 -14.010636 -0.383966 273 0.295722 0.955274 0.000000
-14.857465 -14.010123 -0.377681 293 0.295722 0.955274 0.000000
-14.858016 -14.010646 -0.371416 291 0.295722 0.955274 0.000000
-14.859221 -14.011773 -0.365174 283 0.295722 0.955274 0.000000
-14.858504 -14.011097 -0.358881 291 0.295722 0.955274 0.000000
-14.858368 -14.010977 -0.352612 277 0.295722 0.955274 0.000000
-14.858074 -14.010701 -0.346324 305 0.295722 0.955274 0.000000
-14.856615 -14.009323 -0.340018 301 0.295722 0.955274 0.000000
-14.856631 -14.009330 -0.333748 291 0.295722 0.955274 0.000000
-14.856605 -14.009312 -0.327478 277 0.295722 0.955274 0.000000
-14.855605 -14.008365 -0.321177 271 0.295722 0.955274 0.000000
-14.856109 -14.008837 -0.314922 297 0.295722 0.955274 0.000000
-14.856659 -14.009359 -0.308657 303 0.295722 0.955274 0.000000
-14.856615 -14.009315 -0.302387 295 0.295722 0.955274 0.000000
-14.857642 -14.010282 -0.296137 301 0.295722 0.955274 0.000000
-14.857873 -14.010503 -0.289865 293 0.295722 0.955274 0.000000
-14.857022 -14.009705 -0.283573 273 0.295722 0.955274 0.000000
-14.865797 -14.009093 -0.672815 267 0.295722 0.955274 0.000000
-14.864933 -14.008283 -0.666493 267 0.295722 0.955274 0.000000
-14.864020 -14.007420 -0.660171 285 0.295722 0.955274 0.000000
-14.865291 -14.008613 -0.653949 287 0.295722 0.955274 0.000000
-14.864902 -14.008246 -0.647652 261 0.295722 0.955274 0.000000
-14.864303 -14.007681 -0.641348 239 0.295722 0.955274 0.000000
-14.864915 -14.008267 -0.635102 215 0.295722 0.955274 0.000000
-14.864528 -14.007902 -0.628805 225 0.295722 0.955274 0.000000
-14.865789 -14.009089 -0.622573 215 0.295722 0.955274 0.000000
-14.866137 -14.009418 -0.616310 231 0.295722 0.955274 0.000000
-14.865262 -14.008586 -0.609998 257 0.295722 0.955274 0.000000
-14.865610 -14.008916 -0.603735 267 0.295722 0.955274 0.000000
-14.865964 -14.009252 -0.597471 273 0.295722 0.955274 0.000000
-14.865505 -14.008814 -0.591175 297 0.295722 0.955274 0.000000
-14.865750 -14.009047 -0.584903 313 0.295722 0.955274 0.000000
-14.866144 -14.009415 -0.578639 305 0.295722 0.955274 0.000000
-14.865575 -14.008873 -0.572344 281 0.295722 0.955274 0.000000
-14.867411 -14.010610 -0.566137 331 0.295722 0.955274 0.000000
-14.867319 -14.010526 -0.559848 333 0.295722 0.955274 0.000000
-14.865006 -14.008343 -0.553489 301 0.295722 0.955274 0.000000
-14.864806 -14.008157 -0.547201 293 0.295722 0.955274 0.000000
-14.863971 -14.007357 -0.540899 307 0.295722 0.955274 0.000000
-14.866001 -14.009279 -0.534689 289 0.295722 0.955274 0.000000
-14.868256 -14.011399 -0.528498 273 0.295722 0.955274 0.000000
-14.866622 -14.009852 -0.522163 273 0.295722 0.955274 0.000000
-14.864600 -14.007960 -0.515812 261 0.295722 0.955274 0.000000
-14.865245 -14.008560 -0.509556 289 0.295722 0.955274 0.000000
-14.866054 -14.009322 -0.503308 283 0.295722 0.955274 0.000000
-14.865046 -14.008368 -0.496998 285 0.295722 0.955274 0.000000
-14.864464 -14.007829 -0.490703 289 0.295722 0.955274 0.000000
-14.865529 -14.008827 -0.484463 317 0.295722 0.955274 0.000000
-14.866440 -14.009686 -0.478214 303 0.295722 0.955274 0.000000
-14.865692 -14.008985 -0.471911 315 0.295722 0.955274 0.000000
-14.863997 -14.007374 -0.465587 299 0.295722 0.955274 0.000000
-14.863828 -14.007214 -0.459298 299 0.295722 0.955274 0.000000
-14.863924 -14.007311 -0.453027 287 0.295722 0.955274 0.000000
-14.865100 -14.008413 -0.446786 315 0.295722 0.955274 0.000000
-14.864821 -14.008150 -0.440508 317 0.295722 0.955274 0.000000
-14.864550 -14.007893 -0.434221 297 0.295722 0.955274 0.000000
-14.865445 -14.008739 -0.427972 313 0.295722 0.955274 0.000000
-14.864893 -14.008224 -0.421687 291 0.295722 0.955274 0.000000
-14.864785 -14.008115 -0.415408 289 0.295722 0.955274 0.000000
-14.865188 -14.008502 -0.409144 281 0.295722 0.955274 0.000000
-14.865072 -14.008387 -0.402865 301 0.295722 0.955274 0.000000
-14.864575 -14.007917 -0.396570 279 0.295722 0.955274 0.000000
-14.866048 -14.009303 -0.390336 289 0.295722 0.955274 0.000000
-14.865231 -14.008532 -0.384043 301 0.295722 0.955274 0.000000
-14.864302 -14.007656 -0.377742 301 0.295722 0.955274 0.000000
-14.865132 -14.008435 -0.371484 289 0.295722 0.955274 0.000000
-14.865480 -14.008765 -0.365220 283 0.295722 0.955274 0.000000
-14.864179 -14.007544 -0.358913 295 0.295722 0.955274 0.000000
-14.864627 -14.007969 -0.352648 265 0.295722 0.955274 0.000000
-14.865560 -14.008846 -0.346399 271 0.295722 0.955274 0.000000
-14.864515 -14.007861 -0.340099 273 0.295722 0.955274 0.000000
-14.863954 -14.007326 -0.333814 287 0.295722 0.955274 0.000000
-14.863816 -14.007192 -0.327535 277 0.295722 0.955274 0.000000
-14.864577 -14.007915 -0.321278 279 0.295722 0.955274 0.000000
-14.865191 -14.008490 -0.315022 279 0.295722 0.955274 0.000000
-14.864083 -14.007453 -0.308722 273 0.295722 0.955274 0.000000
-14.863358 -14.006758 -0.302439 291 0.295722 0.955274 0.000000
-14.865286 -14.008582 -0.296201 311 0.295722 0.955274 0.000000
-14.865404 -14.008686 -0.289930 287 0.295722 0.955274 0.000000
-14.863179 -14.006586 -0.283610 279 0.295722 0.955274 0.000000
-14.874774 -14.008310 -0.673017 295 0.295722 0.955274 0.000000
-14.873916 -14.007504 -0.666695 269 0.295722 0.955274 0.000000
-14.872731 -14.006392 -0.660356 299 0.295722 0.955274 0.000000
-14.875173 -14.008678 -0.654183 271 0.295722 0.955274 0.000000
-14.875002 -14.008518 -0.647895 283 0.295722 0.955274 0.000000
-14.871033 -14.004789 -0.641442 241 0.295722 0.955274 0.000000
-14.870700 -14.004468 -0.635154 247 0.295722 0.955274 0.000000
-14.872494 -14.006157 -0.628948 249 0.295722 0.955274 0.000000
-14.873271 -14.006892 -0.622700 265 0.295722 0.955274 0.000000
-14.873790 -14.007376 -0.616445 231 0.295722 0.955274 0.000000
-14.874081 -14.007647 -0.610172 247 0.295722 0.955274 0.000000
-14.873106 -14.006733 -0.603851 271 0.295722 0.955274 0.000000
-14.873658 -14.007257 -0.597596 285 0.295722 0.955274 0.000000
-14.873479 -14.007075 -0.591308 291 0.295722 0.955274 0.000000
-14.872066 -14.005750 -0.584971 307 0.295722 0.955274 0.000000
-14.872938 -14.006575 -0.578732 299 0.295722 0.955274 0.000000
-14.874185 -14.007749 -0.572500 317 0.295722 0.955274 0.000000
-14.874217 -14.007768 -0.566220 325 0.295722 0.955274 0.000000
-14.874597 -14.008137 -0.559956 311 0.295722 0.955274 0.000000
-14.873552 -14.007153 -0.553636 319 0.295722 0.955274 0.000000
-14.873257 -14.006863 -0.547349 327 0.295722 0.955274 0.000000
-14.874393 -14.007932 -0.541108 311 0.295722 0.955274 0.000000
-14.873442 -14.007038 -0.534797 279 0.295722 0.955274 0.000000
-14.871803 -14.005499 -0.528462 281 0.295722 0.955274 0.000000
-14.871813 -14.005500 -0.522182 289 0.295722 0.955274 0.000000
-14.872090 -14.005772 -0.515919 281 0.295722 0.955274 0.000000
-14.872531 -14.006179 -0.509654 285 0.295722 0.955274 0.000000
-14.871351 -14.005070 -0.503335 299 0.295722 0.955274 0.000000
-14.871145 -14.004879 -0.497047 305 0.295722 0.955274 0.000000
-14.872539 -14.006187 -0.490824 321 0.295722 0.955274 0.000000
-14.872541 -14.006195 -0.484544 305 0.295722 0.955274 0.000000
-14.873661 -14.007237 -0.478303 303 0.295722 0.955274 0.000000
-14.874830 -14.008347 -0.472062 301 0.295722 0.955274 0.000000
-14.872065 -14.005738 -0.465698 321 0.295722 0.955274 0.000000
-14.870621 -14.004374 -0.459371 299 0.295722 0.955274 0.000000
-14.871681 -14.005382 -0.453131 293 0.295722 0.955274 0.000000
-14.871572 -14.005271 -0.446852 315 0.295722 0.955274 0.000000
-14.871458 -14.005169 -0.440573 307 0.295722 0.955274 0.000000
-14.872094 -14.005762 -0.434317 303 0.295722 0.955274 0.000000
-14.873623 -14.007206 -0.428082 305 0.295722 0.955274 0.000000
-14.872131 -14.005790 -0.421756 305 0.295722 0.955274 0.000000
-14.870516 -14.004271 -0.415441 321 0.295722 0.955274 0.000000
-14.871354 -14.005056 -0.409183 285 0.295722 0.955274 0.000000
-14.872188 -14.005851 -0.402935 287 0.295722 0.955274 0.000000
-14.870571 -14.004317 -0.396610 285 0.295722 0.955274 0.000000
-14.870291 -14.004053 -0.390333 295 0.295722 0.955274 0.000000
-14.872295 -14.005941 -0.384104 299 0.295722 0.955274 0.000000
-14.871839 -14.005519 -0.377818 287 0.295722 0.955274 0.000000
-14.871294 -14.004997 -0.371533 281 0.295722 0.955274 0.000000
-14.872171 -14.005829 -0.365275 277 0.295722 0.955274 0.000000
-14.872198 -14.005856 -0.359004 285 0.295722 0.955274 0.000000
-14.872006 -14.005677 -0.352726 293 0.295722 0.955274 0.000000
-14.872626 -14.006257 -0.346460 279 0.295722 0.955274 0.000000
-14.872863 -14.006483 -0.340187 283 0.295722 0.955274 0.000000
-14.873734 -14.007295 -0.333939 287 0.295722 0.955274 0.000000
-14.873168 -14.006769 -0.327644 295 0.295722 0.955274 0.000000
-14.871050 -14.004772 -0.321324 279 0.295722 0.955274 0.000000
-14.871343 -14.005044 -0.315061 305 0.295722 0.955274 0.000000
-14.874292 -14.007813 -0.308843 285 0.295722 0.955274 0.000000
-14.873717 -14.007281 -0.302559 297 0.295722 0.955274 0.000000
-14.870585 -14.004332 -0.296218 319 0.295722 0.955274 0.000000
-14.871722 -14.005402 -0.289967 291 0.295722 0.955274 0.000000
-14.871206 -14.004904 -0.283682 289 0.295722 0.955274 0.000000
-14.877552 -14.001993 -0.578744 367 0.295722 0.955274 0.000000
-14.877158 -14.001598 -0.340192 347 0.295722 0.955274 0.000000
-14.876645 -14.001117 -0.333907 335 0.295722 0.955274 0.000000
-14.878284 -14.002658 -0.321391 341 0.295722 0.955274 0.000000
-14.878356 -14.002722 -0.315111 343 0.295722 0.955274 0.000000
-14.877698 -14.002100 -0.302547 337 0.295722 0.955274 0.000000
-14.877278 -14.001707 -0.296260 337 0.295722 0.955274 0.000000
-14.877563 -14.001972 -0.289997 323 0.295722 0.955274 0.000000
-14.877355 -14.001780 -0.283719 297 0.295722 0.955274 0.000000
