511
-14.928529 -13.810784 -0.675467 677 -0.028470 0.999595 0.000000
-14.928148 -13.810422 -0.669200 677 -0.028470 0.999595 0.000000
-14.929153 -13.811354 -0.662991 687 -0.028470 0.999595 0.000000
-14.928823 -13.811046 -0.656724 669 -0.028470 0.999595 0.000000
-14.928802 -13.811034 -0.650474 669 -0.028470 0.999595 0.000000
-14.929760 -13.811914 -0.644265 665 -0.028470 0.999595 0.000000
-14.930282 -13.812398 -0.638030 671 -0.028470 0.999595 0.000000
-14.929672 -13.811842 -0.631755 681 -0.028470 0.999595 0.000000
-14.929213 -13.811419 -0.625479 665 -0.028470 0.999595 0.000000
-14.929732 -13.811886 -0.619254 685 -0.028470 0.999595 0.000000
-14.929774 -13.811925 -0.613004 695 -0.028470 0.999595 0.000000
-14.929586 -13.811755 -0.606745 675 -0.028470 0.999595 0.000000
-14.929239 -13.811434 -0.600478 669 -0.028470 0.999595 0.000000
-14.927865 -13.810167 -0.594171 671 -0.028470 0.999595 0.000000
-14.927143 -13.809497 -0.587888 671 -0.028470 0.999595 0.000000
-14.928340 -13.810606 -0.581686 661 -0.028470 0.999595 0.000000
-14.929233 -13.811422 -0.575468 665 -0.028470 0.999595 0.000000
-14.928116 -13.810399 -0.569178 667 -0.028470 0.999595 0.000000
-14.927067 -13.809430 -0.562888 681 -0.028470 0.999595 0.000000
-14.927952 -13.810241 -0.556670 681 -0.028470 0.999595 0.000000
-14.928075 -13.810356 -0.550428 669 -0.028470 0.999595 0.000000
-14.927227 -13.809573 -0.544146 653 -0.028470 0.999595 0.000000
-14.928581 -13.810820 -0.537943 667 -0.028470 0.999595 0.000000
-14.928704 -13.810936 -0.531702 689 -0.028470 0.999595 0.000000
-14.927316 -13.809658 -0.525405 671 -0.028470 0.999595 0.000000
-14.928305 -13.810563 -0.519185 695 -0.028470 0.999595 0.000000
-14.928356 -13.810622 -0.512935 701 -0.028470 0.999595 0.000000
-14.927666 -13.809976 -0.506671 695 -0.028470 0.999595 0.000000
-14.928106 -13.810383 -0.500437 687 -0.028470 0.999595 0.000000
-14.928109 -13.810390 -0.494187 703 -0.028470 0.999595 0.000000
-14.928756 -13.810987 -0.487960 683 -0.028470 0.999595 0.000000
-14.929779 -13.811931 -0.481741 711 -0.028470 0.999595 0.000000
-14.928658 -13.810893 -0.475451 703 -0.028470 0.999595 0.000000
-14.926878 -13.809254 -0.469147 699 -0.028470 0.999595 0.000000
-14.927519 -13.809844 -0.462921 685 -0.028470 0.999595 0.000000
-14.927792 -13.810092 -0.456679 683 -0.028470 0.999595 0.000000
-14.926815 -13.809193 -0.450408 681 -0.028470 0.999595 0.000000
-14.927616 -13.809936 -0.444180 673 -0.028470 0.999595 0.000000
-14.928086 -13.810365 -0.437945 675 -0.028470 0.999595 0.000000
-14.927701 -13.810014 -0.431689 679 -0.028470 0.999595 0.000000
-14.926508 -13.808905 -0.425400 685 -0.028470 0.999595 0.000000
-14.927786 -13.810091 -0.419188 695 -0.028470 0.999595 0.000000
-14.928633 -13.810871 -0.412970 691 -0.028470 0.999595 0.000000
-14.928031 -13.810321 -0.406705 683 -0.028470 0.999595 0.000000
-14.928121 -13.810397 -0.400454 709 -0.028470 0.999595 0.000000
-14.928148 -13.810423 -0.394214 693 -0.028470 0.999595 0.000000
-14.927968 -13.810261 -0.387955 687 -0.028470 0.999595 0.000000
-14.928177 -13.810444 -0.381713 681 -0.028470 0.999595 0.000000
-14.927877 -13.810172 -0.375466 673 -0.028470 0.999595 0.000000
-14.926400 -13.808811 -0.369180 677 -0.028470 0.999595 0.000000
-14.926275 -13.808692 -0.362931 653 -0.028470 0.999595 0.000000
-14.927423 -13.809751 -0.356710 671 -0.028470 0.999595 0.000000
-14.926807 -13.809189 -0.350445 677 -0.028470 0.999595 0.000000
-14.927263 -13.809607 -0.344211 673 -0.028470 0.999595 0.000000
-14.927281 -13.809627 -0.337961 681 -0.028470 0.999595 0.000000
-14.926233 -13.808645 -0.331700 651 -0.028470 0.999595 0.000000
-14.925497 -13.807977 -0.325437 627 -0.028470 0.999595 0.000000
-14.925253 -13.807749 -0.319179 631 -0.028470 0.999595 0.000000
-14.925643 -13.808104 -0.312945 641 -0.028470 0.999595 0.000000
-14.925823 -13.808275 -0.306703 623 -0.028470 0.999595 0.000000
-14.926812 -13.809181 -0.300474 631 -0.028470 0.999595 0.000000
-14.926601 -13.808993 -0.294226 633 -0.028470 0.999595 0.000000
-14.926827 -13.809204 -0.287984 623 -0.028470 0.999595 0.000000
-14.926789 -13.809165 -0.281734 617 -0.028470 0.999595 0.000000
-14.941767 -13.814559 -0.675876 687 -0.028470 0.999595 0.000000
-14.940686 -13.813552 -0.669576 697 -0.028470 0.999595 0.000000
-14.938905 -13.811913 -0.663242 691 -0.028470 0.999595 0.000000
-14.938454 -13.811495 -0.656966 657 -0.028470 0.999595 0.000000
-14.939095 -13.812086 -0.650740 663 -0.028470 0.999595 0.000000
-14.939511 -13.812472 -0.644506 669 -0.028470 0.999595 0.000000
-14.939339 -13.812302 -0.638237 669 -0.028470 0.999595 0.000000
-14.939254 -13.812226 -0.631978 649 -0.028470 0.999595 0.000000
-14.939131 -13.812120 -0.625719 657 -0.028470 0.999595 0.000000
-14.939171 -13.812145 -0.619469 673 -0.028470 0.999595 0.000000
-14.938396 -13.811431 -0.613186 689 -0.028470 0.999595 0.000000
-14.938746 -13.811754 -0.606942 679 -0.028470 0.999595 0.000000
-14.938774 -13.811780 -0.600692 659 -0.028470 0.999595 0.000000
-14.938960 -13.811959 -0.594450 667 -0.028470 0.999595 0.000000
-14.939679 -13.812625 -0.588223 665 -0.028470 0.999595 0.000000
-14.938528 -13.811563 -0.581924 655 -0.028470 0.999595 0.000000
-14.938389 -13.811430 -0.575665 673 -0.028470 0.999595 0.000000
-14.939331 -13.812299 -0.569446 675 -0.028470 0.999595 0.000000
-14.939071 -13.812058 -0.563188 691 -0.028470 0.999595 0.000000
-14.937911 -13.810989 -0.556889 697 -0.028470 0.999595 0.000000
-14.937722 -13.810805 -0.550630 693 -0.028470 0.999595 0.000000
-14.938219 -13.811269 -0.544396 663 -0.028470 0.999595 0.000000
-14.938016 -13.811088 -0.538137 661 -0.028470 0.999595 0.000000
-14.938733 -13.811739 -0.531911 655 -0.028470 0.999595 0.000000
-14.939168 -13.812153 -0.525676 677 -0.028470 0.999595 0.000000
-14.938325 -13.811360 -0.519394 665 -0.028470 0.999595 0.000000
-14.937788 -13.810875 -0.513119 669 -0.028470 0.999595 0.000000
-14.938180 -13.811230 -0.506885 665 -0.028470 0.999595 0.000000
-14.938509 -13.811535 -0.500642 681 -0.028470 0.999595 0.000000
-14.938886 -13.811891 -0.494398 689 -0.028470 0.999595 0.000000
-14.938299 -13.811340 -0.488134 691 -0.028470 0.999595 0.000000
-14.938884 -13.811886 -0.481898 695 -0.028470 0.999595 0.000000
-14.938034 -13.811101 -0.475626 683 -0.028470 0.999595 0.000000
-14.937336 -13.810449 -0.469352 679 -0.028470 0.999595 0.000000
-14.938186 -13.811244 -0.463124 693 -0.028470 0.999595 0.000000
-14.937169 -13.810300 -0.456843 691 -0.028470 0.999595 0.000000
-14.936886 -13.810041 -0.450586 673 -0.028470 0.999595 0.000000
-14.936825 -13.809985 -0.444326 669 -0.028470 0.999595 0.000000
-14.936764 -13.809929 -0.438077 675 -0.028470 0.999595 0.000000
-14.936813 -13.809974 -0.431826 685 -0.028470 0.999595 0.000000
-14.936959 -13.810107 -0.425585 689 -0.028470 0.999595 0.000000
-14.937327 -13.810443 -0.419341 681 -0.028470 0.999595 0.000000
-14.937100 -13.810229 -0.413093 683 -0.028470 0.999595 0.000000
-14.938050 -13.811117 -0.406864 691 -0.028470 0.999595 0.000000
-14.938196 -13.811251 -0.400622 685 -0.028470 0.999595 0.000000
-14.937108 -13.810238 -0.394342 683 -0.028470 0.999595 0.000000
-14.937461 -13.810562 -0.388099 695 -0.028470 0.999595 0.000000
-14.938620 -13.811640 -0.381878 697 -0.028470 0.999595 0.000000
-14.938280 -13.811324 -0.375621 685 -0.028470 0.999595 0.000000
-14.937072 -13.810204 -0.369342 679 -0.028470 0.999595 0.000000
-14.937419 -13.810535 -0.363099 697 -0.028470 0.999595 0.000000
-14.937668 -13.810763 -0.356856 675 -0.028470 0.999595 0.000000
-14.938332 -13.811372 -0.350620 667 -0.028470 0.999595 0.000000
-14.937339 -13.810461 -0.344349 665 -0.028470 0.999595 0.000000
-14.936395 -13.809588 -0.338078 647 -0.028470 0.999595 0.000000
-14.935991 -13.809209 -0.331821 633 -0.028470 0.999595 0.000000
-14.936274 -13.809476 -0.325579 617 -0.028470 0.999595 0.000000
-14.938498 -13.811530 -0.319378 639 -0.028470 0.999595 0.000000
-14.938245 -13.811296 -0.313120 655 -0.028470 0.999595 0.000000
-14.937244 -13.810365 -0.306849 629 -0.028470 0.999595 0.000000
-14.936396 -13.809580 -0.300587 625 -0.028470 0.999595 0.000000
-14.936089 -13.809302 -0.294330 625 -0.028470 0.999595 0.000000
-14.936481 -13.809658 -0.288096 617 -0.028470 0.999595 0.000000
-14.935681 -13.808925 -0.281833 593 -0.028470 0.999595 0.000000
-14.949590 -13.813316 -0.676045 681 -0.028470 0.999595 0.000000
-14.950438 -13.814110 -0.669827 701 -0.028470 0.999595 0.000000
-14.949038 -13.812811 -0.663510 689 -0.028470 0.999595 0.000000
-14.949127 -13.812887 -0.657249 677 -0.028470 0.999595 0.000000
-14.949329 -13.813078 -0.651007 673 -0.028470 0.999595 0.000000
-14.949093 -13.812857 -0.644739 671 -0.028470 0.999595 0.000000
-14.949137 -13.812897 -0.638478 669 -0.028470 0.999595 0.000000
-14.948742 -13.812537 -0.632212 681 -0.028470 0.999595 0.000000
-14.948832 -13.812613 -0.625951 683 -0.028470 0.999595 0.000000
-14.948803 -13.812595 -0.619701 669 -0.028470 0.999595 0.000000
-14.949267 -13.813020 -0.613456 685 -0.028470 0.999595 0.000000
-14.948601 -13.812407 -0.607172 693 -0.028470 0.999595 0.000000
-14.948261 -13.812091 -0.600905 683 -0.028470 0.999595 0.000000
-14.948871 -13.812655 -0.594680 689 -0.028470 0.999595 0.000000
-14.948690 -13.812491 -0.588411 667 -0.028470 0.999595 0.000000
-14.947474 -13.811364 -0.582112 659 -0.028470 0.999595 0.000000
-14.946370 -13.810339 -0.575813 663 -0.028470 0.999595 0.000000
-14.947680 -13.811550 -0.569610 675 -0.028470 0.999595 0.000000
-14.949259 -13.813014 -0.563415 687 -0.028470 0.999595 0.000000
-14.948043 -13.811887 -0.557117 677 -0.028470 0.999595 0.000000
-14.947729 -13.811604 -0.550849 687 -0.028470 0.999595 0.000000
-14.947221 -13.811130 -0.544574 675 -0.028470 0.999595 0.000000
-14.947287 -13.811187 -0.538323 663 -0.028470 0.999595 0.000000
-14.947728 -13.811593 -0.532079 683 -0.028470 0.999595 0.000000
-14.948382 -13.812195 -0.525853 691 -0.028470 0.999595 0.000000
-14.948982 -13.812754 -0.519617 701 -0.028470 0.999595 0.000000
-14.947274 -13.811172 -0.513303 689 -0.028470 0.999595 0.000000
-14.946528 -13.810481 -0.507030 675 -0.028470 0.999595 0.000000
-14.947128 -13.811040 -0.500794 685 -0.028470 0.999595 0.000000
-14.947395 -13.811296 -0.494551 701 -0.028470 0.999595 0.000000
-14.947404 -13.811295 -0.488291 691 -0.028470 0.999595 0.000000
-14.947623 -13.811499 -0.482049 701 -0.028470 0.999595 0.000000
-14.947196 -13.811101 -0.475782 671 -0.028470 0.999595 0.000000
-14.946331 -13.810303 -0.469500 663 -0.028470 0.999595 0.000000
-14.945578 -13.809607 -0.463227 657 -0.028470 0.999595 0.000000
-14.945891 -13.809900 -0.456984 671 -0.028470 0.999595 0.000000
-14.948195 -13.812029 -0.450803 699 -0.028470 0.999595 0.000000
-14.949001 -13.812778 -0.444575 685 -0.028470 0.999595 0.000000
-14.948344 -13.812171 -0.438301 667 -0.028470 0.999595 0.000000
-14.947423 -13.811316 -0.432019 663 -0.028470 0.999595 0.000000
-14.946877 -13.810809 -0.425744 673 -0.028470 0.999595 0.000000
-14.945949 -13.809949 -0.419473 663 -0.028470 0.999595 0.000000
-14.946095 -13.810082 -0.413221 657 -0.028470 0.999595 0.000000
-14.946025 -13.810020 -0.406972 665 -0.028470 0.999595 0.000000
-14.945640 -13.809668 -0.400705 657 -0.028470 0.999595 0.000000
-14.946261 -13.810244 -0.394469 657 -0.028470 0.999595 0.000000
-14.946727 -13.810670 -0.388235 657 -0.028470 0.999595 0.000000
-14.946657 -13.810607 -0.381975 671 -0.028470 0.999595 0.000000
-14.946318 -13.810290 -0.375718 675 -0.028470 0.999595 0.000000
-14.947150 -13.811058 -0.369490 667 -0.028470 0.999595 0.000000
-14.946801 -13.810736 -0.363224 679 -0.028470 0.999595 0.000000
-14.946829 -13.810762 -0.356973 657 -0.028470 0.999595 0.000000
-14.946696 -13.810637 -0.350724 659 -0.028470 0.999595 0.000000
-14.946556 -13.810517 -0.344465 669 -0.028470 0.999595 0.000000
-14.947179 -13.811082 -0.338229 665 -0.028470 0.999595 0.000000
-14.946386 -13.810354 -0.331957 649 -0.028470 0.999595 0.000000
-14.945490 -13.809532 -0.325695 635 -0.028470 0.999595 0.000000
-14.945404 -13.809443 -0.319436 629 -0.028470 0.999595 0.000000
-14.945958 -13.809964 -0.313200 621 -0.028470 0.999595 0.000000
-14.946460 -13.810421 -0.306955 627 -0.028470 0.999595 0.000000
-14.946146 -13.810138 -0.300698 643 -0.028470 0.999595 0.000000
-14.946595 -13.810550 -0.294464 627 -0.028470 0.999595 0.000000
-14.948276 -13.812095 -0.288238 625 -0.028470 0.999595 0.000000
-14.947803 -13.811660 -0.281982 601 -0.028470 0.999595 0.000000
-14.958944 -13.813329 -0.676281 693 -0.028470 0.999595 0.000000
-14.959258 -13.813621 -0.670028 687 -0.028470 0.999595 0.000000
-14.958926 -13.813311 -0.663761 683 -0.028470 0.999595 0.000000
-14.958419 -13.812849 -0.657475 671 -0.028470 0.999595 0.000000
-14.957976 -13.812439 -0.651199 665 -0.028470 0.999595 0.000000
-14.957908 -13.812377 -0.644930 679 -0.028470 0.999595 0.000000
-14.958651 -13.813061 -0.638703 667 -0.028470 0.999595 0.000000
-14.959066 -13.813435 -0.632469 659 -0.028470 0.999595 0.000000
-14.958782 -13.813175 -0.626191 683 -0.028470 0.999595 0.000000
-14.958435 -13.812854 -0.619924 675 -0.028470 0.999595 0.000000
-14.958734 -13.813134 -0.613671 687 -0.028470 0.999595 0.000000
-14.958601 -13.813008 -0.607412 679 -0.028470 0.999595 0.000000
-14.957990 -13.812437 -0.601128 661 -0.028470 0.999595 0.000000
-14.957962 -13.812421 -0.594868 661 -0.028470 0.999595 0.000000
-14.957765 -13.812230 -0.588600 667 -0.028470 0.999595 0.000000
-14.958436 -13.812859 -0.582373 675 -0.028470 0.999595 0.000000
-14.958621 -13.813024 -0.576121 679 -0.028470 0.999595 0.000000
-14.958538 -13.812949 -0.569862 673 -0.028470 0.999595 0.000000
-14.957753 -13.812228 -0.563569 675 -0.028470 0.999595 0.000000
-14.957397 -13.811899 -0.557302 691 -0.028470 0.999595 0.000000
-14.957416 -13.811907 -0.551052 683 -0.028470 0.999595 0.000000
-14.956948 -13.811476 -0.544776 665 -0.028470 0.999595 0.000000
-14.956904 -13.811446 -0.538516 661 -0.028470 0.999595 0.000000
-14.957193 -13.811707 -0.532274 673 -0.028470 0.999595 0.000000
-14.957897 -13.812361 -0.526037 685 -0.028470 0.999595 0.000000
-14.957375 -13.811873 -0.519762 683 -0.028470 0.999595 0.000000
-14.957163 -13.811685 -0.513503 687 -0.028470 0.999595 0.000000
-14.957014 -13.811545 -0.507235 681 -0.028470 0.999595 0.000000
-14.956650 -13.811197 -0.500968 667 -0.028470 0.999595 0.000000
-14.956319 -13.810902 -0.494701 669 -0.028470 0.999595 0.000000
-14.956599 -13.811154 -0.488458 677 -0.028470 0.999595 0.000000
-14.956706 -13.811257 -0.482207 697 -0.028470 0.999595 0.000000
-14.955308 -13.809959 -0.475910 669 -0.028470 0.999595 0.000000
-14.954825 -13.809517 -0.469634 683 -0.028470 0.999595 0.000000
-14.955687 -13.810309 -0.463406 679 -0.028470 0.999595 0.000000
-14.956964 -13.811494 -0.457194 683 -0.028470 0.999595 0.000000
-14.956863 -13.811394 -0.450935 681 -0.028470 0.999595 0.000000
-14.956699 -13.811242 -0.444676 693 -0.028470 0.999595 0.000000
-14.957378 -13.811877 -0.438440 677 -0.028470 0.999595 0.000000
-14.957589 -13.812075 -0.432188 665 -0.028470 0.999595 0.000000
-14.956828 -13.811373 -0.425915 653 -0.028470 0.999595 0.000000
-14.956218 -13.810802 -0.419640 647 -0.028470 0.999595 0.000000
-14.955886 -13.810493 -0.413373 655 -0.028470 0.999595 0.000000
-14.956032 -13.810628 -0.407132 661 -0.028470 0.999595 0.000000
-14.956925 -13.811458 -0.400893 671 -0.028470 0.999595 0.000000
-14.956323 -13.810894 -0.394629 669 -0.028470 0.999595 0.000000
-14.955714 -13.810339 -0.388354 659 -0.028470 0.999595 0.000000
-14.956059 -13.810657 -0.382111 651 -0.028470 0.999595 0.000000
-14.955512 -13.810150 -0.375846 655 -0.028470 0.999595 0.000000
-14.956288 -13.810874 -0.369608 657 -0.028470 0.999595 0.000000
-14.956585 -13.811140 -0.363365 667 -0.028470 0.999595 0.000000
-14.956779 -13.811325 -0.357113 657 -0.028470 0.999595 0.000000
-14.957179 -13.811687 -0.350870 685 -0.028470 0.999595 0.000000
-14.957629 -13.812112 -0.344625 685 -0.028470 0.999595 0.000000
-14.957226 -13.811733 -0.338359 657 -0.028470 0.999595 0.000000
-14.955685 -13.810309 -0.332073 621 -0.028470 0.999595 0.000000
-14.956363 -13.810929 -0.325837 623 -0.028470 0.999595 0.000000
-14.956430 -13.811001 -0.319586 623 -0.028470 0.999595 0.000000
-14.955478 -13.810121 -0.313314 607 -0.028470 0.999595 0.000000
-14.955877 -13.810482 -0.307071 609 -0.028470 0.999595 0.000000
-14.955936 -13.810547 -0.300820 627 -0.028470 0.999595 0.000000
-14.955851 -13.810458 -0.294561 619 -0.028470 0.999595 0.000000
-14.954994 -13.809668 -0.288288 635 -0.028470 0.999595 0.000000
-14.955492 -13.810131 -0.282044 625 -0.028470 0.999595 0.000000
-14.967951 -13.813167 -0.676499 683 -0.028470 0.999595 0.000000
-14.968216 -13.813407 -0.670246 687 -0.028470 0.999595 0.000000
-14.967233 -13.812504 -0.663935 683 -0.028470 0.999595 0.000000
-14.966893 -13.812188 -0.657668 683 -0.028470 0.999595 0.000000
-14.968822 -13.813968 -0.651490 691 -0.028470 0.999595 0.000000
-14.968690 -13.813855 -0.645221 665 -0.028470 0.999595 0.000000
-14.968095 -13.813297 -0.638937 657 -0.028470 0.999595 0.000000
-14.968768 -13.813928 -0.632700 665 -0.028470 0.999595 0.000000
-14.968317 -13.813510 -0.626424 663 -0.028470 0.999595 0.000000
-14.967499 -13.812750 -0.620122 663 -0.028470 0.999595 0.000000
-14.966826 -13.812131 -0.613838 657 -0.028470 0.999595 0.000000
-14.967505 -13.812751 -0.607602 673 -0.028470 0.999595 0.000000
-14.967587 -13.812836 -0.601351 683 -0.028470 0.999595 0.000000
-14.966380 -13.811714 -0.595042 631 -0.028470 0.999595 0.000000
-14.965220 -13.810645 -0.588732 643 -0.028470 0.999595 0.000000
-14.965463 -13.810868 -0.582480 657 -0.028470 0.999595 0.000000
-14.966396 -13.811729 -0.576261 657 -0.028470 0.999595 0.000000
-14.966423 -13.811756 -0.570001 653 -0.028470 0.999595 0.000000
-14.966434 -13.811769 -0.563740 669 -0.028470 0.999595 0.000000
-14.967209 -13.812480 -0.557513 681 -0.028470 0.999595 0.000000
-14.968079 -13.813291 -0.551285 675 -0.028470 0.999595 0.000000
-14.966920 -13.812222 -0.544986 683 -0.028470 0.999595 0.000000
-14.965800 -13.811183 -0.538686 647 -0.028470 0.999595 0.000000
-14.965660 -13.811051 -0.532427 665 -0.028470 0.999595 0.000000
-14.965137 -13.810563 -0.526142 667 -0.028470 0.999595 0.000000
-14.964439 -13.809926 -0.519868 663 -0.028470 0.999595 0.000000
-14.964825 -13.810288 -0.513624 675 -0.028470 0.999595 0.000000
-14.966451 -13.811776 -0.507419 679 -0.028470 0.999595 0.000000
-14.967695 -13.812923 -0.501197 661 -0.028470 0.999595 0.000000
-14.967324 -13.812583 -0.494931 667 -0.028470 0.999595 0.000000
-14.965655 -13.811045 -0.488616 673 -0.028470 0.999595 0.000000
-14.965069 -13.810507 -0.482341 689 -0.028470 0.999595 0.000000
-14.965932 -13.811299 -0.476113 677 -0.028470 0.999595 0.000000
-14.966740 -13.812049 -0.469875 679 -0.028470 0.999595 0.000000
-14.966575 -13.811896 -0.463617 685 -0.028470 0.999595 0.000000
-14.967381 -13.812632 -0.457379 679 -0.028470 0.999595 0.000000
-14.966828 -13.812133 -0.451114 683 -0.028470 0.999595 0.000000
-14.964942 -13.810385 -0.444792 663 -0.028470 0.999595 0.000000
-14.966006 -13.811376 -0.438572 653 -0.028470 0.999595 0.000000
-14.966708 -13.812015 -0.432335 659 -0.028470 0.999595 0.000000
-14.966264 -13.811604 -0.426069 651 -0.028470 0.999595 0.000000
-14.966091 -13.811445 -0.419800 647 -0.028470 0.999595 0.000000
-14.966557 -13.811872 -0.413556 655 -0.028470 0.999595 0.000000
-14.966329 -13.811669 -0.407298 683 -0.028470 0.999595 0.000000
-14.965552 -13.810956 -0.401015 659 -0.028470 0.999595 0.000000
-14.966453 -13.811778 -0.394786 661 -0.028470 0.999595 0.000000
-14.965574 -13.810969 -0.388504 647 -0.028470 0.999595 0.000000
-14.964375 -13.809868 -0.382215 655 -0.028470 0.999595 0.000000
-14.965698 -13.811078 -0.375993 657 -0.028470 0.999595 0.000000
-14.965892 -13.811263 -0.369751 657 -0.028470 0.999595 0.000000
-14.964733 -13.810194 -0.363462 639 -0.028470 0.999595 0.000000
-14.965404 -13.810809 -0.357225 647 -0.028470 0.999595 0.000000
-14.965653 -13.811037 -0.350973 659 -0.028470 0.999595 0.000000
-14.965784 -13.811158 -0.344721 647 -0.028470 0.999595 0.000000
-14.966337 -13.811679 -0.338476 637 -0.028470 0.999595 0.000000
-14.965177 -13.810596 -0.332197 615 -0.028470 0.999595 0.000000
-14.965306 -13.810718 -0.325945 605 -0.028470 0.999595 0.000000
-14.966186 -13.811536 -0.319707 601 -0.028470 0.999595 0.000000
-14.966148 -13.811499 -0.313447 597 -0.028470 0.999595 0.000000
-14.966542 -13.811868 -0.307203 601 -0.028470 0.999595 0.000000
-14.967308 -13.812571 -0.300966 629 -0.028470 0.999595 0.000000
-14.966681 -13.811988 -0.294692 615 -0.028470 0.999595 0.000000
-14.965729 -13.811109 -0.288421 613 -0.028470 0.999595 0.000000
-14.965837 -13.811212 -0.282169 615 -0.028470 0.999595 0.000000
-14.977728 -13.813886 -0.676749 667 -0.028470 0.999595 0.000000
-14.977667 -13.813829 -0.670490 663 -0.028470 0.999595 0.000000
-14.977765 -13.813925 -0.664229 675 -0.028470 0.999595 0.000000
-14.977864 -13.814008 -0.657968 667 -0.028470 0.999595 0.000000
-14.978120 -13.814243 -0.651715 655 -0.028470 0.999595 0.000000
-14.978793 -13.814871 -0.645479 657 -0.028470 0.999595 0.000000
-14.977706 -13.813872 -0.639169 675 -0.028470 0.999595 0.000000
-14.976292 -13.812562 -0.632842 657 -0.028470 0.999595 0.000000
-14.975354 -13.811694 -0.626540 653 -0.028470 0.999595 0.000000
-14.974960 -13.811335 -0.620264 657 -0.028470 0.999595 0.000000
-14.975369 -13.811716 -0.614020 647 -0.028470 0.999595 0.000000
-14.975507 -13.811842 -0.607768 667 -0.028470 0.999595 0.000000
-14.975811 -13.812116 -0.601515 659 -0.028470 0.999595 0.000000
-14.976371 -13.812630 -0.595270 649 -0.028470 0.999595 0.000000
-14.976772 -13.813004 -0.589026 667 -0.028470 0.999595 0.000000
-14.976536 -13.812782 -0.582758 665 -0.028470 0.999595 0.000000
-14.977199 -13.813392 -0.576522 659 -0.028470 0.999595 0.000000
-14.976955 -13.813177 -0.570254 671 -0.028470 0.999595 0.000000
-14.976226 -13.812500 -0.563961 675 -0.028470 0.999595 0.000000
-14.976453 -13.812711 -0.557708 673 -0.028470 0.999595 0.000000
-14.976416 -13.812674 -0.551449 667 -0.028470 0.999595 0.000000
-14.976538 -13.812789 -0.545187 661 -0.028470 0.999595 0.000000
-14.977749 -13.813895 -0.538966 663 -0.028470 0.999595 0.000000
-14.978024 -13.814157 -0.532723 657 -0.028470 0.999595 0.000000
-14.976634 -13.812880 -0.526406 659 -0.028470 0.999595 0.000000
-14.976437 -13.812689 -0.520138 663 -0.028470 0.999595 0.000000
-14.976066 -13.812347 -0.513871 667 -0.028470 0.999595 0.000000
-14.976131 -13.812406 -0.507610 663 -0.028470 0.999595 0.000000
-14.976460 -13.812711 -0.501357 653 -0.028470 0.999595 0.000000
-14.975644 -13.811965 -0.495074 663 -0.028470 0.999595 0.000000
-14.975170 -13.811529 -0.488799 661 -0.028470 0.999595 0.000000
-14.974796 -13.811173 -0.482522 665 -0.028470 0.999595 0.000000
-14.974578 -13.810979 -0.476254 673 -0.028470 0.999595 0.000000
-14.975059 -13.811417 -0.470009 667 -0.028470 0.999595 0.000000
-14.976302 -13.812563 -0.463798 663 -0.028470 0.999595 0.000000
-14.977054 -13.813255 -0.457560 667 -0.028470 0.999595 0.000000
-14.975863 -13.812160 -0.451261 663 -0.028470 0.999595 0.000000
-14.973758 -13.810225 -0.444941 647 -0.028470 0.999595 0.000000
-14.974236 -13.810661 -0.438696 633 -0.028470 0.999595 0.000000
-14.975354 -13.811694 -0.432466 653 -0.028470 0.999595 0.000000
-14.975293 -13.811638 -0.426206 641 -0.028470 0.999595 0.000000
-14.975542 -13.811866 -0.419954 647 -0.028470 0.999595 0.000000
-14.976827 -13.813046 -0.413732 655 -0.028470 0.999595 0.000000
-14.976766 -13.812989 -0.407472 647 -0.028470 0.999595 0.000000
-14.976371 -13.812630 -0.401196 661 -0.028470 0.999595 0.000000
-14.976134 -13.812407 -0.394938 653 -0.028470 0.999595 0.000000
-14.976058 -13.812341 -0.388678 659 -0.028470 0.999595 0.000000
-14.976044 -13.812321 -0.382418 651 -0.028470 0.999595 0.000000
-14.975794 -13.812101 -0.376150 647 -0.028470 0.999595 0.000000
-14.976369 -13.812627 -0.369905 635 -0.028470 0.999595 0.000000
-14.976077 -13.812362 -0.363637 625 -0.028470 0.999595 0.000000
-14.974656 -13.811046 -0.357350 631 -0.028470 0.999595 0.000000
-14.974736 -13.811115 -0.351090 613 -0.028470 0.999595 0.000000
-14.974978 -13.811337 -0.344837 619 -0.028470 0.999595 0.000000
-14.974775 -13.811156 -0.338579 609 -0.028470 0.999595 0.000000
-14.974642 -13.811028 -0.332320 607 -0.028470 0.999595 0.000000
-14.974232 -13.810658 -0.326054 607 -0.028470 0.999595 0.000000
-14.973334 -13.809822 -0.319772 579 -0.028470 0.999595 0.000000
-14.974214 -13.810639 -0.313534 587 -0.028470 0.999595 0.000000
-14.974551 -13.810950 -0.307280 593 -0.028470 0.999595 0.000000
-14.973487 -13.809970 -0.301010 623 -0.028470 0.999595 0.000000
-14.973777 -13.810231 -0.294757 599 -0.028470 0.999595 0.000000
-14.974225 -13.810643 -0.288503 603 -0.028470 0.999595 0.000000
-14.973902 -13.810353 -0.282246 593 -0.028470 0.999595 0.000000
-14.985279 -13.812388 -0.676911 667 -0.028470 0.999595 0.000000
-14.984573 -13.811730 -0.670608 641 -0.028470 0.999595 0.000000
-14.985101 -13.812219 -0.664373 645 -0.028470 0.999595 0.000000
-14.986170 -13.813201 -0.658152 639 -0.028470 0.999595 0.000000
-14.987663 -13.814583 -0.651948 649 -0.028470 0.999595 0.000000
-14.987807 -13.814715 -0.645687 655 -0.028470 0.999595 0.000000
-14.986178 -13.813210 -0.639352 651 -0.028470 0.999595 0.000000
-14.985991 -13.813040 -0.633084 639 -0.028470 0.999595 0.000000
-14.985762 -13.812824 -0.626805 641 -0.028470 0.999595 0.000000
-14.986173 -13.813207 -0.620562 637 -0.028470 0.999595 0.000000
-14.987010 -13.813979 -0.614324 637 -0.028470 0.999595 0.000000
-14.986018 -13.813069 -0.608023 621 -0.028470 0.999595 0.000000
-14.986053 -13.813101 -0.601762 633 -0.028470 0.999595 0.000000
-14.986503 -13.813514 -0.595518 639 -0.028470 0.999595 0.000000
-14.986910 -13.813881 -0.589264 657 -0.028470 0.999595 0.000000
-14.987310 -13.814255 -0.583020 657 -0.028470 0.999595 0.000000
-14.986366 -13.813382 -0.576719 663 -0.028470 0.999595 0.000000
-14.985845 -13.812908 -0.570433 661 -0.028470 0.999595 0.000000
-14.985815 -13.812877 -0.564164 659 -0.028470 0.999595 0.000000
-14.984544 -13.811707 -0.557855 643 -0.028470 0.999595 0.000000
-14.983966 -13.811175 -0.551570 631 -0.028470 0.999595 0.000000
-14.984526 -13.811689 -0.545325 639 -0.028470 0.999595 0.000000
-14.985676 -13.812748 -0.539104 635 -0.028470 0.999595 0.000000
-14.985790 -13.812857 -0.532843 629 -0.028470 0.999595 0.000000
-14.985052 -13.812173 -0.526560 651 -0.028470 0.999595 0.000000
-14.985596 -13.812674 -0.520315 623 -0.028470 0.999595 0.000000
-14.986308 -13.813334 -0.514078 641 -0.028470 0.999595 0.000000
-14.985561 -13.812644 -0.507785 649 -0.028470 0.999595 0.000000
-14.985356 -13.812448 -0.501516 639 -0.028470 0.999595 0.000000
-14.985576 -13.812652 -0.495264 651 -0.028470 0.999595 0.000000
-14.986167 -13.813204 -0.489018 657 -0.028470 0.999595 0.000000
-14.986440 -13.813452 -0.482766 665 -0.028470 0.999595 0.000000
-14.985527 -13.812603 -0.476474 647 -0.028470 0.999595 0.000000
-14.984663 -13.811807 -0.470182 641 -0.028470 0.999595 0.000000
-14.984180 -13.811364 -0.463906 641 -0.028470 0.999595 0.000000
-14.984127 -13.811314 -0.457647 647 -0.028470 0.999595 0.000000
-14.984329 -13.811505 -0.451395 657 -0.028470 0.999595 0.000000
-14.984866 -13.812001 -0.445150 641 -0.028470 0.999595 0.000000
-14.984916 -13.812045 -0.438889 635 -0.028470 0.999595 0.000000
-14.984304 -13.811475 -0.432605 647 -0.028470 0.999595 0.000000
-14.984730 -13.811869 -0.426360 653 -0.028470 0.999595 0.000000
-14.984183 -13.811362 -0.420085 657 -0.028470 0.999595 0.000000
-14.984003 -13.811198 -0.413817 647 -0.028470 0.999595 0.000000
-14.984094 -13.811289 -0.407556 635 -0.028470 0.999595 0.000000
-14.983915 -13.811127 -0.401287 647 -0.028470 0.999595 0.000000
-14.983741 -13.810955 -0.395029 673 -0.028470 0.999595 0.000000
-14.983132 -13.810399 -0.388754 671 -0.028470 0.999595 0.000000
-14.983810 -13.811019 -0.382508 651 -0.028470 0.999595 0.000000
-14.984808 -13.811946 -0.376269 649 -0.028470 0.999595 0.000000
-14.985057 -13.812174 -0.370016 641 -0.028470 0.999595 0.000000
-14.983954 -13.811162 -0.363736 651 -0.028470 0.999595 0.000000
-14.982694 -13.809999 -0.357438 641 -0.028470 0.999595 0.000000
-14.983688 -13.810910 -0.351208 637 -0.028470 0.999595 0.000000
-14.984408 -13.811576 -0.344962 635 -0.028470 0.999595 0.000000
-14.984650 -13.811798 -0.338709 619 -0.028470 0.999595 0.000000
-14.985209 -13.812311 -0.332464 607 -0.028470 0.999595 0.000000
-14.984964 -13.812084 -0.326196 587 -0.028470 0.999595 0.000000
-14.983735 -13.810960 -0.319907 593 -0.028470 0.999595 0.000000
-14.983649 -13.810870 -0.313648 607 -0.028470 0.999595 0.000000
-14.984369 -13.811536 -0.307401 593 -0.028470 0.999595 0.000000
-14.984810 -13.811941 -0.301147 593 -0.028470 0.999595 0.000000
-14.985147 -13.812254 -0.294893 597 -0.028470 0.999595 0.000000
-14.984195 -13.811374 -0.288622 607 -0.028470 0.999595 0.000000
-14.983076 -13.810350 -0.282342 603 -0.028470 0.999595 0.000000
-14.997334 -13.814534 -0.677254 651 -0.028470 0.999595 0.000000
-14.998236 -13.815371 -0.671025 657 -0.028470 0.999595 0.000000
-14.997898 -13.815049 -0.658468 633 -0.028470 0.999595 0.000000
-14.998094 -13.815234 -0.652216 633 -0.028470 0.999595 0.000000
-14.997436 -13.814627 -0.645912 623 -0.028470 0.999595 0.000000
-14.996291 -13.813569 -0.639602 621 -0.028470 0.999595 0.000000
-14.997250 -13.814450 -0.633373 623 -0.028470 0.999595 0.000000
-14.997388 -13.814578 -0.627112 609 -0.028470 0.999595 0.000000
-14.997255 -13.814465 -0.620833 631 -0.028470 0.999595 0.000000
-14.996964 -13.814186 -0.614556 635 -0.028470 0.999595 0.000000
-14.996021 -13.813327 -0.608254 603 -0.028470 0.999595 0.000000
-14.995887 -13.813201 -0.601975 629 -0.028470 0.999595 0.000000
-14.995491 -13.812827 -0.595699 663 -0.028470 0.999595 0.000000
-14.996156 -13.813449 -0.589453 649 -0.028470 0.999595 0.000000
-14.997749 -13.814912 -0.583247 649 -0.028470 0.999595 0.000000
-14.996964 -13.814191 -0.576955 641 -0.028470 0.999595 0.000000
-14.996172 -13.813464 -0.570662 643 -0.028470 0.999595 0.000000
-14.996301 -13.813572 -0.564391 651 -0.028470 0.999595 0.000000
-14.996385 -13.813656 -0.558130 657 -0.028470 0.999595 0.000000
-14.995694 -13.813024 -0.551846 641 -0.028470 0.999595 0.000000
-14.995179 -13.812542 -0.545561 621 -0.028470 0.999595 0.000000
-14.996265 -13.813550 -0.539330 625 -0.028470 0.999595 0.000000
-14.995854 -13.813165 -0.533054 645 -0.028470 0.999595 0.000000
-14.995006 -13.812380 -0.526752 641 -0.028470 0.999595 0.000000
-14.994372 -13.811806 -0.520467 627 -0.028470 0.999595 0.000000
-14.994216 -13.811662 -0.514199 635 -0.028470 0.999595 0.000000
-14.995190 -13.812554 -0.507970 639 -0.028470 0.999595 0.000000
-14.996226 -13.813511 -0.501740 655 -0.028470 0.999595 0.000000
-14.997087 -13.814302 -0.495502 649 -0.028470 0.999595 0.000000
-14.996454 -13.813715 -0.489217 639 -0.028470 0.999595 0.000000
-14.996075 -13.813367 -0.482941 633 -0.028470 0.999595 0.000000
-14.996978 -13.814204 -0.476702 641 -0.028470 0.999595 0.000000
-14.996446 -13.813710 -0.470417 639 -0.028470 0.999595 0.000000
-14.996497 -13.813756 -0.464156 637 -0.028470 0.999595 0.000000
-14.996596 -13.813853 -0.457895 631 -0.028470 0.999595 0.000000
-14.995523 -13.812852 -0.451595 631 -0.028470 0.999595 0.000000
-14.996274 -13.813542 -0.445358 637 -0.028470 0.999595 0.000000
-14.995887 -13.813189 -0.439082 635 -0.028470 0.999595 0.000000
-14.995445 -13.812792 -0.432805 633 -0.028470 0.999595 0.000000
-14.995107 -13.812476 -0.426528 663 -0.028470 0.999595 0.000000
-14.994129 -13.811577 -0.420237 655 -0.028470 0.999595 0.000000
-14.993853 -13.811312 -0.413970 639 -0.028470 0.999595 0.000000
-14.994269 -13.811699 -0.407716 621 -0.028470 0.999595 0.000000
-14.995379 -13.812726 -0.401485 637 -0.028470 0.999595 0.000000
-14.995310 -13.812662 -0.395216 643 -0.028470 0.999595 0.000000
-14.994103 -13.811543 -0.388927 647 -0.028470 0.999595 0.000000
-14.993868 -13.811336 -0.382659 629 -0.028470 0.999595 0.000000
-14.994601 -13.811999 -0.376412 659 -0.028470 0.999595 0.000000
-14.993609 -13.811089 -0.370121 617 -0.028470 0.999595 0.000000
-14.993422 -13.810919 -0.363853 611 -0.028470 0.999595 0.000000
-14.994363 -13.811787 -0.357614 621 -0.028470 0.999595 0.000000
-14.995090 -13.812460 -0.351367 617 -0.028470 0.999595 0.000000
-14.995061 -13.812428 -0.345107 619 -0.028470 0.999595 0.000000
-14.995678 -13.813000 -0.338861 605 -0.028470 0.999595 0.000000
-14.996134 -13.813417 -0.332607 595 -0.028470 0.999595 0.000000
-14.995770 -13.813084 -0.326340 589 -0.028470 0.999595 0.000000
-14.994612 -13.812015 -0.320051 587 -0.028470 0.999595 0.000000
-14.993819 -13.811288 -0.313768 595 -0.028470 0.999595 0.000000
-14.993295 -13.810800 -0.307493 577 -0.028470 0.999595 0.000000
-14.993690 -13.811169 -0.301239 579 -0.028470 0.999595 0.000000
-14.993866 -13.811326 -0.294987 589 -0.028470 0.999595 0.000000
-14.993121 -13.810637 -0.288714 573 -0.028470 0.999595 0.000000
-14.994158 -13.811595 -0.282464 611 -0.028470 0.999595 0.000000
