284
-14.846625 -13.910091 -0.669807 473 -0.378865 0.925452 0.000000
-14.846130 -13.909635 -0.663531 485 -0.378865 0.925452 0.000000
-14.845587 -13.909125 -0.657246 469 -0.378865 0.925452 0.000000
-14.845793 -13.909309 -0.651004 465 -0.378865 0.925452 0.000000
-14.845979 -13.909491 -0.644762 467 -0.378865 0.925452 0.000000
-14.846448 -13.909924 -0.638528 463 -0.378865 0.925452 0.000000
-14.846491 -13.909965 -0.632267 457 -0.378865 0.925452 0.000000
-14.846091 -13.909596 -0.626001 451 -0.378865 0.925452 0.000000
-14.846125 -13.909629 -0.619750 461 -0.378865 0.925452 0.000000
-14.845676 -13.909209 -0.613474 469 -0.378865 0.925452 0.000000
-14.843842 -13.907481 -0.607151 453 -0.378865 0.925452 0.000000
-14.843598 -13.907253 -0.600883 445 -0.378865 0.925452 0.000000
-14.845066 -13.908631 -0.594689 463 -0.378865 0.925452 0.000000
-14.845633 -13.909170 -0.588464 461 -0.378865 0.925452 0.000000
-14.843939 -13.907582 -0.582150 455 -0.378865 0.925452 0.000000
-14.842628 -13.906353 -0.575842 469 -0.378865 0.925452 0.000000
-14.844523 -13.908127 -0.569664 473 -0.378865 0.925452 0.000000
-14.844382 -13.907993 -0.563405 457 -0.378865 0.925452 0.000000
-14.844291 -13.907911 -0.557156 481 -0.378865 0.925452 0.000000
-14.843193 -13.906879 -0.550856 479 -0.378865 0.925452 0.000000
-14.843435 -13.907112 -0.538363 459 -0.378865 0.925452 0.000000
-14.843025 -13.906723 -0.532097 473 -0.378865 0.925452 0.000000
-14.843195 -13.906878 -0.525855 473 -0.378865 0.925452 0.000000
-14.842834 -13.906541 -0.519589 461 -0.378865 0.925452 0.000000
-14.842624 -13.906351 -0.513330 473 -0.378865 0.925452 0.000000
-14.844447 -13.908054 -0.507143 489 -0.378865 0.925452 0.000000
-14.844133 -13.907769 -0.500886 475 -0.378865 0.925452 0.000000
-14.843176 -13.906864 -0.494605 489 -0.378865 0.925452 0.000000
-14.842958 -13.906668 -0.488347 499 -0.378865 0.925452 0.000000
-14.842805 -13.906517 -0.475838 477 -0.378865 0.925452 0.000000
-14.842753 -13.906467 -0.469588 479 -0.378865 0.925452 0.000000
-14.842700 -13.906417 -0.463339 475 -0.378865 0.925452 0.000000
-14.844935 -13.908516 -0.457157 487 -0.378865 0.925452 0.000000
-14.844875 -13.908461 -0.450908 485 -0.378865 0.925452 0.000000
-14.842788 -13.906504 -0.444597 463 -0.378865 0.925452 0.000000
-14.843534 -13.907200 -0.438370 473 -0.378865 0.925452 0.000000
-14.843094 -13.906799 -0.432104 471 -0.378865 0.925452 0.000000
-14.843040 -13.906740 -0.407104 455 -0.378865 0.925452 0.000000
-14.842972 -13.906677 -0.400855 449 -0.378865 0.925452 0.000000
-14.842669 -13.906393 -0.388347 453 -0.378865 0.925452 0.000000
-14.842667 -13.906395 -0.307125 405 -0.378865 0.925452 0.000000
-14.862544 -13.916313 -0.670331 475 -0.378865 0.925452 0.000000
-14.862490 -13.916249 -0.664071 475 -0.378865 0.925452 0.000000
-14.861242 -13.915084 -0.657753 465 -0.378865 0.925452 0.000000
-14.860587 -13.914474 -0.651469 469 -0.378865 0.925452 0.000000
-14.861325 -13.915162 -0.645242 449 -0.378865 0.925452 0.000000
-14.862049 -13.915839 -0.639015 453 -0.378865 0.925452 0.000000
-14.861824 -13.915637 -0.632747 457 -0.378865 0.925452 0.000000
-14.860471 -13.914363 -0.626429 455 -0.378865 0.925452 0.000000
-14.861939 -13.915741 -0.620235 443 -0.378865 0.925452 0.000000
-14.861712 -13.915524 -0.613967 461 -0.378865 0.925452 0.000000
-14.861097 -13.914960 -0.607683 461 -0.378865 0.925452 0.000000
-14.861124 -13.914986 -0.601422 455 -0.378865 0.925452 0.000000
-14.862275 -13.916058 -0.595212 473 -0.378865 0.925452 0.000000
-14.862458 -13.916224 -0.588960 473 -0.378865 0.925452 0.000000
-14.861362 -13.915206 -0.582660 459 -0.378865 0.925452 0.000000
-14.861864 -13.915680 -0.576425 475 -0.378865 0.925452 0.000000
-14.860820 -13.914691 -0.570125 463 -0.378865 0.925452 0.000000
-14.859446 -13.913412 -0.563817 477 -0.378865 0.925452 0.000000
-14.858237 -13.912278 -0.557518 465 -0.378865 0.925452 0.000000
-14.857456 -13.911552 -0.551226 461 -0.378865 0.925452 0.000000
-14.859929 -13.913868 -0.545062 469 -0.378865 0.925452 0.000000
-14.860911 -13.914779 -0.538843 467 -0.378865 0.925452 0.000000
-14.860702 -13.914590 -0.532585 469 -0.378865 0.925452 0.000000
-14.860934 -13.914807 -0.526332 471 -0.378865 0.925452 0.000000
-14.859607 -13.913566 -0.520035 469 -0.378865 0.925452 0.000000
-14.859935 -13.913873 -0.513781 479 -0.378865 0.925452 0.000000
-14.859517 -13.913479 -0.507515 477 -0.378865 0.925452 0.000000
-14.860478 -13.914385 -0.501296 477 -0.378865 0.925452 0.000000
-14.860385 -13.914290 -0.495037 489 -0.378865 0.925452 0.000000
-14.859635 -13.913590 -0.488754 475 -0.378865 0.925452 0.000000
-14.859425 -13.913401 -0.482496 473 -0.378865 0.925452 0.000000
-14.858730 -13.912745 -0.476212 451 -0.378865 0.925452 0.000000
-14.859313 -13.913296 -0.469976 459 -0.378865 0.925452 0.000000
-14.857716 -13.911798 -0.463671 463 -0.378865 0.925452 0.000000
-14.858407 -13.912436 -0.457445 461 -0.378865 0.925452 0.000000
-14.859519 -13.913490 -0.451224 479 -0.378865 0.925452 0.000000
-14.858603 -13.912629 -0.444942 459 -0.378865 0.925452 0.000000
-14.859666 -13.913618 -0.438712 427 -0.378865 0.925452 0.000000
-14.860034 -13.913971 -0.432469 439 -0.378865 0.925452 0.000000
-14.859758 -13.913704 -0.426211 435 -0.378865 0.925452 0.000000
-14.859475 -13.913443 -0.419944 447 -0.378865 0.925452 0.000000
-14.858768 -13.912789 -0.413670 439 -0.378865 0.925452 0.000000
-14.858754 -13.912770 -0.407420 431 -0.378865 0.925452 0.000000
-14.858201 -13.912254 -0.401155 439 -0.378865 0.925452 0.000000
-14.857912 -13.911988 -0.394888 441 -0.378865 0.925452 0.000000
-14.857851 -13.911919 -0.388638 433 -0.378865 0.925452 0.000000
-14.859531 -13.913493 -0.382422 433 -0.378865 0.925452 0.000000
-14.859567 -13.913528 -0.376172 443 -0.378865 0.925452 0.000000
-14.857573 -13.911660 -0.369870 437 -0.378865 0.925452 0.000000
-14.857910 -13.911988 -0.363627 423 -0.378865 0.925452 0.000000
-14.857667 -13.911759 -0.357369 425 -0.378865 0.925452 0.000000
-14.856997 -13.911137 -0.351095 415 -0.378865 0.925452 0.000000
-14.857133 -13.911251 -0.344854 443 -0.378865 0.925452 0.000000
-14.858649 -13.912682 -0.338629 427 -0.378865 0.925452 0.000000
-14.859958 -13.913906 -0.332407 385 -0.378865 0.925452 0.000000
-14.858805 -13.912816 -0.326128 377 -0.378865 0.925452 0.000000
-14.857967 -13.912034 -0.319855 411 -0.378865 0.925452 0.000000
-14.858739 -13.912762 -0.313628 401 -0.378865 0.925452 0.000000
-14.858693 -13.912717 -0.307368 405 -0.378865 0.925452 0.000000
-14.858871 -13.912892 -0.301126 415 -0.378865 0.925452 0.000000
-14.858352 -13.912402 -0.294861 407 -0.378865 0.925452 0.000000
-14.856913 -13.911057 -0.288574 387 -0.378865 0.925452 0.000000
-14.856561 -13.910728 -0.282318 373 -0.378865 0.925452 0.000000
-14.856143 -13.910334 -0.276061 361 -0.378865 0.925452 0.000000
-14.880339 -13.924275 -0.670937 467 -0.378865 0.925452 0.000000
-14.880278 -13.924218 -0.664668 475 -0.378865 0.925452 0.000000
-14.879781 -13.923760 -0.658382 465 -0.378865 0.925452 0.000000
-14.878112 -13.922193 -0.652048 461 -0.378865 0.925452 0.000000
-14.877831 -13.921933 -0.645770 451 -0.378865 0.925452 0.000000
-14.877914 -13.922018 -0.639509 445 -0.378865 0.925452 0.000000
-14.877521 -13.921642 -0.633233 449 -0.378865 0.925452 0.000000
-14.877618 -13.921739 -0.626972 451 -0.378865 0.925452 0.000000
-14.879148 -13.923168 -0.620767 447 -0.378865 0.925452 0.000000
-14.880086 -13.924042 -0.614548 453 -0.378865 0.925452 0.000000
-14.879263 -13.923270 -0.608246 465 -0.378865 0.925452 0.000000
-14.878270 -13.922350 -0.601945 429 -0.378865 0.925452 0.000000
-14.876974 -13.921132 -0.595627 421 -0.378865 0.925452 0.000000
-14.877365 -13.921504 -0.589383 435 -0.378865 0.925452 0.000000
-14.878778 -13.922825 -0.583180 449 -0.378865 0.925452 0.000000
-14.878748 -13.922793 -0.576910 431 -0.378865 0.925452 0.000000
-14.879035 -13.923068 -0.570657 459 -0.378865 0.925452 0.000000
-14.879219 -13.923235 -0.564405 467 -0.378865 0.925452 0.000000
-14.877584 -13.921705 -0.558080 475 -0.378865 0.925452 0.000000
-14.876644 -13.920827 -0.551779 479 -0.378865 0.925452 0.000000
-14.875689 -13.919936 -0.545488 481 -0.378865 0.925452 0.000000
-14.876990 -13.921155 -0.539276 455 -0.378865 0.925452 0.000000
-14.877641 -13.921762 -0.533039 457 -0.378865 0.925452 0.000000
-14.876748 -13.920919 -0.526738 449 -0.378865 0.925452 0.000000
-14.876808 -13.920986 -0.520487 443 -0.378865 0.925452 0.000000
-14.876976 -13.921139 -0.514225 471 -0.378865 0.925452 0.000000
-14.875815 -13.920057 -0.507926 465 -0.378865 0.925452 0.000000
-14.875865 -13.920103 -0.501665 463 -0.378865 0.925452 0.000000
-14.877317 -13.921455 -0.495462 459 -0.378865 0.925452 0.000000
-14.877272 -13.921412 -0.489192 463 -0.378865 0.925452 0.000000
-14.877218 -13.921361 -0.482932 481 -0.378865 0.925452 0.000000
-14.875986 -13.920208 -0.476634 455 -0.378865 0.925452 0.000000
-14.875245 -13.919515 -0.470350 459 -0.378865 0.925452 0.000000
-14.876522 -13.920714 -0.464128 469 -0.378865 0.925452 0.000000
-14.877318 -13.921462 -0.457891 463 -0.378865 0.925452 0.000000
-14.876147 -13.920360 -0.451601 461 -0.378865 0.925452 0.000000
-14.876396 -13.920604 -0.445349 459 -0.378865 0.925452 0.000000
-14.875584 -13.919839 -0.439066 445 -0.378865 0.925452 0.000000
-14.873876 -13.918241 -0.432752 437 -0.378865 0.925452 0.000000
-14.874068 -13.918427 -0.426500 425 -0.378865 0.925452 0.000000
-14.876573 -13.920767 -0.420317 445 -0.378865 0.925452 0.000000
-14.877414 -13.921552 -0.414079 431 -0.378865 0.925452 0.000000
-14.875106 -13.919393 -0.407750 433 -0.378865 0.925452 0.000000
-14.875521 -13.919784 -0.401506 431 -0.378865 0.925452 0.000000
-14.875761 -13.920007 -0.395254 433 -0.378865 0.925452 0.000000
-14.874361 -13.918694 -0.388957 431 -0.378865 0.925452 0.000000
-14.874658 -13.918976 -0.382704 423 -0.378865 0.925452 0.000000
-14.874265 -13.918601 -0.376437 415 -0.378865 0.925452 0.000000
-14.874823 -13.919132 -0.370192 401 -0.378865 0.925452 0.000000
-14.875070 -13.919362 -0.363939 393 -0.378865 0.925452 0.000000
-14.875412 -13.919682 -0.357696 399 -0.378865 0.925452 0.000000
-14.875599 -13.919862 -0.351444 399 -0.378865 0.925452 0.000000
-14.874293 -13.918638 -0.345146 403 -0.378865 0.925452 0.000000
-14.874740 -13.919054 -0.338902 389 -0.378865 0.925452 0.000000
-14.875456 -13.919724 -0.332665 371 -0.378865 0.925452 0.000000
-14.875536 -13.919794 -0.326404 365 -0.378865 0.925452 0.000000
-14.875706 -13.919963 -0.320152 371 -0.378865 0.925452 0.000000
-14.876160 -13.920383 -0.313898 361 -0.378865 0.925452 0.000000
-14.874460 -13.918792 -0.307614 383 -0.378865 0.925452 0.000000
-14.875113 -13.919413 -0.301367 399 -0.378865 0.925452 0.000000
-14.876246 -13.920470 -0.295127 389 -0.378865 0.925452 0.000000
-14.874872 -13.919177 -0.288850 383 -0.378865 0.925452 0.000000
-14.874724 -13.919038 -0.282591 381 -0.378865 0.925452 0.000000
-14.874679 -13.918994 -0.276331 349 -0.378865 0.925452 0.000000
-14.895766 -13.929845 -0.671437 461 -0.378865 0.925452 0.000000
-14.895973 -13.930030 -0.665175 451 -0.378865 0.925452 0.000000
-14.896223 -13.930276 -0.658922 437 -0.378865 0.925452 0.000000
-14.895733 -13.929810 -0.652627 435 -0.378865 0.925452 0.000000
-14.895500 -13.929602 -0.646349 435 -0.378865 0.925452 0.000000
-14.894852 -13.928983 -0.640045 427 -0.378865 0.925452 0.000000
-14.894721 -13.928870 -0.633776 429 -0.378865 0.925452 0.000000
-14.894699 -13.928845 -0.627506 431 -0.378865 0.925452 0.000000
-14.894996 -13.929127 -0.621253 449 -0.378865 0.925452 0.000000
-14.895465 -13.929562 -0.614999 423 -0.378865 0.925452 0.000000
-14.894533 -13.928689 -0.608697 429 -0.378865 0.925452 0.000000
-14.894505 -13.928672 -0.602427 429 -0.378865 0.925452 0.000000
-14.894269 -13.928450 -0.596149 417 -0.378865 0.925452 0.000000
-14.895149 -13.929265 -0.589911 429 -0.378865 0.925452 0.000000
-14.895067 -13.929192 -0.583642 431 -0.378865 0.925452 0.000000
-14.895038 -13.929160 -0.577372 431 -0.378865 0.925452 0.000000
-14.896449 -13.930480 -0.571158 445 -0.378865 0.925452 0.000000
-14.895557 -13.929652 -0.564856 455 -0.378865 0.925452 0.000000
-14.894087 -13.928269 -0.558540 445 -0.378865 0.925452 0.000000
-14.894415 -13.928591 -0.552277 441 -0.378865 0.925452 0.000000
-14.895344 -13.929459 -0.546048 441 -0.378865 0.925452 0.000000
-14.893700 -13.927910 -0.539723 427 -0.378865 0.925452 0.000000
-14.893448 -13.927674 -0.533446 419 -0.378865 0.925452 0.000000
-14.895437 -13.929537 -0.527247 421 -0.378865 0.925452 0.000000
-14.896565 -13.930592 -0.521026 409 -0.378865 0.925452 0.000000
-14.896743 -13.930765 -0.514764 445 -0.378865 0.925452 0.000000
-14.894719 -13.928873 -0.508423 439 -0.378865 0.925452 0.000000
-14.893818 -13.928025 -0.502131 441 -0.378865 0.925452 0.000000
-14.894834 -13.928975 -0.495892 445 -0.378865 0.925452 0.000000
-14.894086 -13.928276 -0.489609 447 -0.378865 0.925452 0.000000
-14.892488 -13.926778 -0.483283 447 -0.378865 0.925452 0.000000
-14.894256 -13.928436 -0.477077 437 -0.378865 0.925452 0.000000
-14.894520 -13.928679 -0.470824 427 -0.378865 0.925452 0.000000
-14.894032 -13.928228 -0.464538 431 -0.378865 0.925452 0.000000
-14.895048 -13.929180 -0.458309 425 -0.378865 0.925452 0.000000
-14.894299 -13.928480 -0.452016 449 -0.378865 0.925452 0.000000
-14.893431 -13.927671 -0.445724 433 -0.378865 0.925452 0.000000
-14.892887 -13.927162 -0.439449 413 -0.378865 0.925452 0.000000
-14.892724 -13.927011 -0.433170 411 -0.378865 0.925452 0.000000
-14.892979 -13.927247 -0.426917 417 -0.378865 0.925452 0.000000
-14.893497 -13.927733 -0.420672 429 -0.378865 0.925452 0.000000
-14.892692 -13.926975 -0.414380 427 -0.378865 0.925452 0.000000
-14.893051 -13.927308 -0.408126 425 -0.378865 0.925452 0.000000
-14.893030 -13.927296 -0.401856 411 -0.378865 0.925452 0.000000
-14.892423 -13.926723 -0.395582 409 -0.378865 0.925452 0.000000
-14.892292 -13.926610 -0.389313 403 -0.378865 0.925452 0.000000
-14.893077 -13.927338 -0.383065 399 -0.378865 0.925452 0.000000
-14.891132 -13.925522 -0.376754 403 -0.378865 0.925452 0.000000
-14.891168 -13.925555 -0.370493 403 -0.378865 0.925452 0.000000
-14.892365 -13.926679 -0.364262 409 -0.378865 0.925452 0.000000
-14.891749 -13.926099 -0.357977 391 -0.378865 0.925452 0.000000
-14.891350 -13.925731 -0.351711 387 -0.378865 0.925452 0.000000
-14.890844 -13.925253 -0.345435 385 -0.378865 0.925452 0.000000
-14.890333 -13.924783 -0.339160 375 -0.378865 0.925452 0.000000
-14.892124 -13.926448 -0.332933 369 -0.378865 0.925452 0.000000
-14.892934 -13.927206 -0.326695 351 -0.378865 0.925452 0.000000
-14.891410 -13.925780 -0.320400 359 -0.378865 0.925452 0.000000
-14.892441 -13.926744 -0.314160 361 -0.378865 0.925452 0.000000
-14.893418 -13.927663 -0.307910 369 -0.378865 0.925452 0.000000
-14.892684 -13.926975 -0.301637 391 -0.378865 0.925452 0.000000
-14.890454 -13.924892 -0.295328 387 -0.378865 0.925452 0.000000
-14.889175 -13.923702 -0.289040 385 -0.378865 0.925452 0.000000
-14.890580 -13.925016 -0.282806 385 -0.378865 0.925452 0.000000
-14.892776 -13.927071 -0.276586 367 -0.378865 0.925452 0.000000
-14.911346 -13.936029 -0.653132 393 -0.378865 0.925452 0.000000
-14.910795 -13.935513 -0.646828 401 -0.378865 0.925452 0.000000
-14.910513 -13.935258 -0.621730 401 -0.378865 0.925452 0.000000
-14.910855 -13.935576 -0.615466 395 -0.378865 0.925452 0.000000
-14.911236 -13.935941 -0.577842 413 -0.378865 0.925452 0.000000
-14.910694 -13.935425 -0.565277 423 -0.378865 0.925452 0.000000
-14.910286 -13.935051 -0.558990 429 -0.378865 0.925452 0.000000
-14.911152 -13.935856 -0.552752 413 -0.378865 0.925452 0.000000
-14.911330 -13.936029 -0.546480 419 -0.378865 0.925452 0.000000
-14.911022 -13.935736 -0.540203 415 -0.378865 0.925452 0.000000
-14.910993 -13.935704 -0.533923 399 -0.378865 0.925452 0.000000
-14.910836 -13.935559 -0.527644 413 -0.378865 0.925452 0.000000
-14.910688 -13.935420 -0.521376 419 -0.378865 0.925452 0.000000
-14.910487 -13.935237 -0.515097 415 -0.378865 0.925452 0.000000
-14.909848 -13.934639 -0.508803 419 -0.378865 0.925452 0.000000
-14.909638 -13.934449 -0.502525 435 -0.378865 0.925452 0.000000
-14.911039 -13.935749 -0.496302 437 -0.378865 0.925452 0.000000
-14.911251 -13.935955 -0.483759 421 -0.378865 0.925452 0.000000
-14.909490 -13.934313 -0.477436 419 -0.378865 0.925452 0.000000
-14.908312 -13.933204 -0.471127 413 -0.378865 0.925452 0.000000
-14.908258 -13.933154 -0.464857 411 -0.378865 0.925452 0.000000
-14.908959 -13.933812 -0.458610 407 -0.378865 0.925452 0.000000
-14.909214 -13.934049 -0.452348 417 -0.378865 0.925452 0.000000
-14.909525 -13.934343 -0.446085 405 -0.378865 0.925452 0.000000
-14.908831 -13.933687 -0.439791 395 -0.378865 0.925452 0.000000
-14.909032 -13.933880 -0.433529 379 -0.378865 0.925452 0.000000
-14.910516 -13.935271 -0.427305 411 -0.378865 0.925452 0.000000
-14.910559 -13.935310 -0.421034 433 -0.378865 0.925452 0.000000
-14.909318 -13.934152 -0.414726 431 -0.378865 0.925452 0.000000
-14.907168 -13.932145 -0.408396 419 -0.378865 0.925452 0.000000
-14.907255 -13.932220 -0.402135 397 -0.378865 0.925452 0.000000
-14.910077 -13.934855 -0.395938 399 -0.378865 0.925452 0.000000
-14.909082 -13.933932 -0.389647 391 -0.378865 0.925452 0.000000
-14.908158 -13.933065 -0.383356 367 -0.378865 0.925452 0.000000
-14.910118 -13.934904 -0.377137 379 -0.378865 0.925452 0.000000
-14.909883 -13.934682 -0.370860 373 -0.378865 0.925452 0.000000
-14.908791 -13.933655 -0.364560 369 -0.378865 0.925452 0.000000
-14.908113 -13.933025 -0.358276 369 -0.378865 0.925452 0.000000
-14.908472 -13.933357 -0.352022 353 -0.378865 0.925452 0.000000
-14.908483 -13.933372 -0.345752 343 -0.378865 0.925452 0.000000
-14.908456 -13.933355 -0.339482 351 -0.378865 0.925452 0.000000
-14.906550 -13.931571 -0.333170 331 -0.378865 0.925452 0.000000
-14.906260 -13.931291 -0.326892 331 -0.378865 0.925452 0.000000
-14.910505 -13.935264 -0.320722 355 -0.378865 0.925452 0.000000
-14.909123 -13.933977 -0.314425 361 -0.378865 0.925452 0.000000
-14.907274 -13.932251 -0.308112 349 -0.378865 0.925452 0.000000
-14.908091 -13.933002 -0.301865 335 -0.378865 0.925452 0.000000
-14.907350 -13.932323 -0.295581 361 -0.378865 0.925452 0.000000
-14.908222 -13.933133 -0.289333 359 -0.378865 0.925452 0.000000
-14.909619 -13.934442 -0.283090 357 -0.378865 0.925452 0.000000
-14.907761 -13.932694 -0.276787 357 -0.378865 0.925452 0.000000
