715
-14.431119 -14.230888 -0.672410 1329 0.450450 0.892802 0.000000
-14.431269 -14.231031 -0.666178 1335 0.450450 0.892802 0.000000
-14.430991 -14.230767 -0.659941 1337 0.450450 0.892802 0.000000
-14.430408 -14.230197 -0.653676 1333 0.450450 0.892802 0.000000
-14.430184 -14.229976 -0.647438 1325 0.450450 0.892802 0.000000
-14.430694 -14.230472 -0.641233 1337 0.450450 0.892802 0.000000
-14.430414 -14.230192 -0.634986 1337 0.450450 0.892802 0.000000
-14.430292 -14.230083 -0.628757 1327 0.450450 0.892802 0.000000
-14.429749 -14.229546 -0.622502 1327 0.450450 0.892802 0.000000
-14.429572 -14.229379 -0.616263 1323 0.450450 0.892802 0.000000
-14.429809 -14.229606 -0.610041 1333 0.450450 0.892802 0.000000
-14.429313 -14.229119 -0.603795 1325 0.450450 0.892802 0.000000
-14.429502 -14.229310 -0.597573 1321 0.450450 0.892802 0.000000
-14.429575 -14.229375 -0.591353 1325 0.450450 0.892802 0.000000
-14.428711 -14.228532 -0.585081 1329 0.450450 0.892802 0.000000
-14.428947 -14.228761 -0.578868 1325 0.450450 0.892802 0.000000
-14.430216 -14.230016 -0.572686 1323 0.450450 0.892802 0.000000
-14.430030 -14.229829 -0.566448 1325 0.450450 0.892802 0.000000
-14.429993 -14.229789 -0.560218 1335 0.450450 0.892802 0.000000
-14.430381 -14.230182 -0.554004 1329 0.450450 0.892802 0.000000
-14.430241 -14.230032 -0.547775 1339 0.450450 0.892802 0.000000
-14.429837 -14.229636 -0.541529 1329 0.450450 0.892802 0.000000
-14.429849 -14.229651 -0.535309 1339 0.450450 0.892802 0.000000
-14.429601 -14.229411 -0.529071 1337 0.450450 0.892802 0.000000
-14.429298 -14.229114 -0.522824 1327 0.450450 0.892802 0.000000
-14.429411 -14.229225 -0.516602 1331 0.450450 0.892802 0.000000
-14.429423 -14.229240 -0.510382 1323 0.450450 0.892802 0.000000
-14.429893 -14.229703 -0.504167 1323 0.450450 0.892802 0.000000
-14.429904 -14.229716 -0.497937 1337 0.450450 0.892802 0.000000
-14.429329 -14.229153 -0.491693 1329 0.450450 0.892802 0.000000
-14.429181 -14.228996 -0.485464 1323 0.450450 0.892802 0.000000
-14.429490 -14.229311 -0.479241 1319 0.450450 0.892802 0.000000
-14.429491 -14.229303 -0.473021 1319 0.450450 0.892802 0.000000
-14.429173 -14.228993 -0.466783 1319 0.450450 0.892802 0.000000
-14.429224 -14.229053 -0.460553 1329 0.450450 0.892802 0.000000
-14.428853 -14.228684 -0.454316 1317 0.450450 0.892802 0.000000
-14.428800 -14.228634 -0.448087 1319 0.450450 0.892802 0.000000
-14.429147 -14.228980 -0.441873 1317 0.450450 0.892802 0.000000
-14.428939 -14.228773 -0.435645 1321 0.450450 0.892802 0.000000
-14.428776 -14.228603 -0.429406 1311 0.450450 0.892802 0.000000
-14.429022 -14.228852 -0.423194 1311 0.450450 0.892802 0.000000
-14.429267 -14.229100 -0.416971 1329 0.450450 0.892802 0.000000
-14.429042 -14.228881 -0.410743 1325 0.450450 0.892802 0.000000
-14.428874 -14.228706 -0.404515 1329 0.450450 0.892802 0.000000
-14.429172 -14.228999 -0.398292 1335 0.450450 0.892802 0.000000
-14.428886 -14.228728 -0.392064 1339 0.450450 0.892802 0.000000
-14.428763 -14.228606 -0.385835 1323 0.450450 0.892802 0.000000
-14.428486 -14.228327 -0.379598 1327 0.450450 0.892802 0.000000
-14.428723 -14.228569 -0.373376 1345 0.450450 0.892802 0.000000
-14.428335 -14.228188 -0.367149 1327 0.450450 0.892802 0.000000
-14.428414 -14.228258 -0.360918 1325 0.450450 0.892802 0.000000
-14.429012 -14.228851 -0.354712 1329 0.450450 0.892802 0.000000
-14.428881 -14.228722 -0.348483 1327 0.450450 0.892802 0.000000
-14.428799 -14.228646 -0.342254 1331 0.450450 0.892802 0.000000
-14.428402 -14.228256 -0.336018 1321 0.450450 0.892802 0.000000
-14.428632 -14.228478 -0.329805 1327 0.450450 0.892802 0.000000
-14.428182 -14.228045 -0.323570 1331 0.450450 0.892802 0.000000
-14.428145 -14.228008 -0.317340 1323 0.450450 0.892802 0.000000
-14.428586 -14.228444 -0.311125 1329 0.450450 0.892802 0.000000
-14.427971 -14.227834 -0.304891 1325 0.450450 0.892802 0.000000
-14.428191 -14.228048 -0.298669 1321 0.450450 0.892802 0.000000
-14.428155 -14.228011 -0.292449 1331 0.450450 0.892802 0.000000
-14.427276 -14.227155 -0.286207 1325 0.450450 0.892802 0.000000
-14.427653 -14.227527 -0.279984 1325 0.450450 0.892802 0.000000
-14.427976 -14.227839 -0.273770 1317 0.450450 0.892802 0.000000
-14.436631 -14.227280 -0.672452 1331 0.450450 0.892802 0.000000
-14.436406 -14.227059 -0.666214 1341 0.450450 0.892802 0.000000
-14.436560 -14.227217 -0.659983 1337 0.450450 0.892802 0.000000
-14.436124 -14.226783 -0.653737 1323 0.450450 0.892802 0.000000
-14.436470 -14.227129 -0.647523 1329 0.450450 0.892802 0.000000
-14.436769 -14.227422 -0.641300 1337 0.450450 0.892802 0.000000
-14.436544 -14.227201 -0.635062 1343 0.450450 0.892802 0.000000
-14.436009 -14.226669 -0.628807 1331 0.450450 0.892802 0.000000
-14.435880 -14.226554 -0.622578 1333 0.450450 0.892802 0.000000
-14.435555 -14.226224 -0.616331 1325 0.450450 0.892802 0.000000
-14.435681 -14.226361 -0.610110 1329 0.450450 0.892802 0.000000
-14.436285 -14.226948 -0.603904 1335 0.450450 0.892802 0.000000
-14.436162 -14.226823 -0.597665 1333 0.450450 0.892802 0.000000
-14.435861 -14.226540 -0.591428 1329 0.450450 0.892802 0.000000
-14.435528 -14.226203 -0.585181 1319 0.450450 0.892802 0.000000
-14.436077 -14.226744 -0.578975 1323 0.450450 0.892802 0.000000
-14.436307 -14.226978 -0.572753 1319 0.450450 0.892802 0.000000
-14.436317 -14.226993 -0.566523 1323 0.450450 0.892802 0.000000
-14.436132 -14.226806 -0.560284 1321 0.450450 0.892802 0.000000
-14.435690 -14.226364 -0.554039 1327 0.450450 0.892802 0.000000
-14.435590 -14.226274 -0.547809 1337 0.450450 0.892802 0.000000
-14.435819 -14.226496 -0.541587 1325 0.450450 0.892802 0.000000
-14.435666 -14.226347 -0.535358 1331 0.450450 0.892802 0.000000
-14.435052 -14.225751 -0.529104 1327 0.450450 0.892802 0.000000
-14.435422 -14.226117 -0.522890 1331 0.450450 0.892802 0.000000
-14.435182 -14.225871 -0.516653 1319 0.450450 0.892802 0.000000
-14.435137 -14.225825 -0.510423 1329 0.450450 0.892802 0.000000
-14.435351 -14.226048 -0.504201 1323 0.450450 0.892802 0.000000
-14.435143 -14.225842 -0.497972 1321 0.450450 0.892802 0.000000
-14.435309 -14.225997 -0.491741 1313 0.450450 0.892802 0.000000
-14.435515 -14.226213 -0.485529 1323 0.450450 0.892802 0.000000
-14.435361 -14.226052 -0.479290 1333 0.450450 0.892802 0.000000
-14.435052 -14.225748 -0.473053 1325 0.450450 0.892802 0.000000
-14.435204 -14.225905 -0.466831 1321 0.450450 0.892802 0.000000
-14.435565 -14.226263 -0.460617 1317 0.450450 0.892802 0.000000
-14.435458 -14.226154 -0.454388 1323 0.450450 0.892802 0.000000
-14.434937 -14.225635 -0.448143 1319 0.450450 0.892802 0.000000
-14.435291 -14.225986 -0.441930 1325 0.450450 0.892802 0.000000
-14.435225 -14.225924 -0.435700 1313 0.450450 0.892802 0.000000
-14.434540 -14.225257 -0.429447 1311 0.450450 0.892802 0.000000
-14.435049 -14.225750 -0.423242 1315 0.450450 0.892802 0.000000
-14.435247 -14.225946 -0.417020 1337 0.450450 0.892802 0.000000
-14.434712 -14.225429 -0.410775 1323 0.450450 0.892802 0.000000
-14.434854 -14.225565 -0.404553 1309 0.450450 0.892802 0.000000
-14.434780 -14.225494 -0.398324 1321 0.450450 0.892802 0.000000
-14.434813 -14.225528 -0.392103 1329 0.450450 0.892802 0.000000
-14.434792 -14.225503 -0.385873 1331 0.450450 0.892802 0.000000
-14.434724 -14.225440 -0.379644 1325 0.450450 0.892802 0.000000
-14.434860 -14.225570 -0.373422 1329 0.450450 0.892802 0.000000
-14.434628 -14.225344 -0.367194 1327 0.450450 0.892802 0.000000
-14.435178 -14.225884 -0.360979 1327 0.450450 0.892802 0.000000
-14.435352 -14.226062 -0.354757 1335 0.450450 0.892802 0.000000
-14.434496 -14.225224 -0.348515 1325 0.450450 0.892802 0.000000
-14.434576 -14.225296 -0.342284 1327 0.450450 0.892802 0.000000
-14.434180 -14.224908 -0.336058 1329 0.450450 0.892802 0.000000
-14.434090 -14.224825 -0.329829 1323 0.450450 0.892802 0.000000
-14.434523 -14.225255 -0.323614 1319 0.450450 0.892802 0.000000
-14.434128 -14.224867 -0.317378 1317 0.450450 0.892802 0.000000
-14.433934 -14.224672 -0.311150 1325 0.450450 0.892802 0.000000
-14.434258 -14.224998 -0.304926 1329 0.450450 0.892802 0.000000
-14.434017 -14.224752 -0.298699 1329 0.450450 0.892802 0.000000
-14.434028 -14.224766 -0.292478 1321 0.450450 0.892802 0.000000
-14.434195 -14.224937 -0.286256 1317 0.450450 0.892802 0.000000
-14.433580 -14.224326 -0.280022 1321 0.450450 0.892802 0.000000
-14.432958 -14.223711 -0.273778 1321 0.450450 0.892802 0.000000
-14.442779 -14.224471 -0.672538 1339 0.450450 0.892802 0.000000
-14.442244 -14.223953 -0.666283 1333 0.450450 0.892802 0.000000
-14.442237 -14.223942 -0.660043 1335 0.450450 0.892802 0.000000
-14.441904 -14.223617 -0.653796 1315 0.450450 0.892802 0.000000
-14.441735 -14.223456 -0.647557 1321 0.450450 0.892802 0.000000
-14.441200 -14.222925 -0.641303 1327 0.450450 0.892802 0.000000
-14.441655 -14.223373 -0.635098 1327 0.450450 0.892802 0.000000
-14.441994 -14.223713 -0.628885 1325 0.450450 0.892802 0.000000
-14.441770 -14.223493 -0.622637 1325 0.450450 0.892802 0.000000
-14.442060 -14.223781 -0.616424 1337 0.450450 0.892802 0.000000
-14.441993 -14.223702 -0.610184 1331 0.450450 0.892802 0.000000
-14.442019 -14.223730 -0.603954 1329 0.450450 0.892802 0.000000
-14.441677 -14.223399 -0.597717 1329 0.450450 0.892802 0.000000
-14.441345 -14.223076 -0.591470 1329 0.450450 0.892802 0.000000
-14.441682 -14.223400 -0.585257 1333 0.450450 0.892802 0.000000
-14.442170 -14.223890 -0.579042 1327 0.450450 0.892802 0.000000
-14.441931 -14.223658 -0.572804 1321 0.450450 0.892802 0.000000
-14.442206 -14.223930 -0.566581 1315 0.450450 0.892802 0.000000
-14.442335 -14.224056 -0.560360 1317 0.450450 0.892802 0.000000
-14.441829 -14.223550 -0.554104 1317 0.450450 0.892802 0.000000
-14.442418 -14.224136 -0.547899 1325 0.450450 0.892802 0.000000
-14.442748 -14.224455 -0.541685 1327 0.450450 0.892802 0.000000
-14.441922 -14.223644 -0.535423 1319 0.450450 0.892802 0.000000
-14.441573 -14.223308 -0.529186 1321 0.450450 0.892802 0.000000
-14.441991 -14.223723 -0.522972 1335 0.450450 0.892802 0.000000
-14.441384 -14.223122 -0.516718 1331 0.450450 0.892802 0.000000
-14.440457 -14.222212 -0.510457 1317 0.450450 0.892802 0.000000
-14.441241 -14.222987 -0.504259 1321 0.450450 0.892802 0.000000
-14.441868 -14.223605 -0.498053 1323 0.450450 0.892802 0.000000
-14.441559 -14.223301 -0.491805 1323 0.450450 0.892802 0.000000
-14.441406 -14.223154 -0.485577 1313 0.450450 0.892802 0.000000
-14.441876 -14.223615 -0.479362 1323 0.450450 0.892802 0.000000
-14.441199 -14.222940 -0.473108 1327 0.450450 0.892802 0.000000
-14.440733 -14.222480 -0.466873 1315 0.450450 0.892802 0.000000
-14.441252 -14.222994 -0.460658 1331 0.450450 0.892802 0.000000
-14.441403 -14.223151 -0.454436 1329 0.450450 0.892802 0.000000
-14.441288 -14.223036 -0.448207 1325 0.450450 0.892802 0.000000
-14.441229 -14.222979 -0.441977 1321 0.450450 0.892802 0.000000
-14.441020 -14.222771 -0.435739 1325 0.450450 0.892802 0.000000
-14.440953 -14.222708 -0.429510 1319 0.450450 0.892802 0.000000
-14.440892 -14.222651 -0.423280 1321 0.450450 0.892802 0.000000
-14.440717 -14.222483 -0.417052 1323 0.450450 0.892802 0.000000
-14.440554 -14.222314 -0.410823 1315 0.450450 0.892802 0.000000
-14.440744 -14.222504 -0.404601 1323 0.450450 0.892802 0.000000
-14.440879 -14.222634 -0.398370 1337 0.450450 0.892802 0.000000
-14.440710 -14.222473 -0.392141 1335 0.450450 0.892802 0.000000
-14.440744 -14.222507 -0.385921 1327 0.450450 0.892802 0.000000
-14.440513 -14.222281 -0.379683 1315 0.450450 0.892802 0.000000
-14.440648 -14.222412 -0.373461 1315 0.450450 0.892802 0.000000
-14.440517 -14.222281 -0.367232 1325 0.450450 0.892802 0.000000
-14.440332 -14.222109 -0.361004 1327 0.450450 0.892802 0.000000
-14.440204 -14.221980 -0.354775 1317 0.450450 0.892802 0.000000
-14.440331 -14.222104 -0.348544 1323 0.450450 0.892802 0.000000
-14.440248 -14.222028 -0.342324 1311 0.450450 0.892802 0.000000
-14.440228 -14.222003 -0.336095 1317 0.450450 0.892802 0.000000
-14.440815 -14.222589 -0.329879 1333 0.450450 0.892802 0.000000
-14.441200 -14.222967 -0.323665 1335 0.450450 0.892802 0.000000
-14.440532 -14.222311 -0.317421 1323 0.450450 0.892802 0.000000
-14.439933 -14.221715 -0.311187 1321 0.450450 0.892802 0.000000
-14.440101 -14.221886 -0.304965 1317 0.450450 0.892802 0.000000
-14.440009 -14.221802 -0.298736 1325 0.450450 0.892802 0.000000
-14.439864 -14.221661 -0.292507 1335 0.450450 0.892802 0.000000
-14.439671 -14.221466 -0.286279 1321 0.450450 0.892802 0.000000
-14.439524 -14.221323 -0.280050 1327 0.450450 0.892802 0.000000
-14.439425 -14.221221 -0.273821 1327 0.450450 0.892802 0.000000
-14.448939 -14.221350 -0.672615 1333 0.450450 0.892802 0.000000
-14.448777 -14.221182 -0.666367 1319 0.450450 0.892802 0.000000
-14.448562 -14.220968 -0.660129 1321 0.450450 0.892802 0.000000
-14.448588 -14.221009 -0.653898 1327 0.450450 0.892802 0.000000
-14.448942 -14.221348 -0.647685 1333 0.450450 0.892802 0.000000
-14.448922 -14.221335 -0.641445 1323 0.450450 0.892802 0.000000
-14.448495 -14.220908 -0.635199 1325 0.450450 0.892802 0.000000
-14.447895 -14.220325 -0.628934 1321 0.450450 0.892802 0.000000
-14.448500 -14.220922 -0.622728 1325 0.450450 0.892802 0.000000
-14.448541 -14.220963 -0.616508 1331 0.450450 0.892802 0.000000
-14.448146 -14.220574 -0.610251 1341 0.450450 0.892802 0.000000
-14.448071 -14.220504 -0.604022 1333 0.450450 0.892802 0.000000
-14.448674 -14.221089 -0.597816 1335 0.450450 0.892802 0.000000
-14.448700 -14.221116 -0.591586 1321 0.450450 0.892802 0.000000
-14.448155 -14.220577 -0.585331 1319 0.450450 0.892802 0.000000
-14.448229 -14.220657 -0.579100 1329 0.450450 0.892802 0.000000
-14.448248 -14.220678 -0.572870 1323 0.450450 0.892802 0.000000
-14.448319 -14.220743 -0.566649 1321 0.450450 0.892802 0.000000
-14.447870 -14.220309 -0.560393 1327 0.450450 0.892802 0.000000
-14.447881 -14.220324 -0.554173 1319 0.450450 0.892802 0.000000
-14.448477 -14.220903 -0.547957 1321 0.450450 0.892802 0.000000
-14.447972 -14.220411 -0.541712 1327 0.450450 0.892802 0.000000
-14.446624 -14.219087 -0.535434 1317 0.450450 0.892802 0.000000
-14.446696 -14.219152 -0.529204 1311 0.450450 0.892802 0.000000
-14.447065 -14.219517 -0.522990 1317 0.450450 0.892802 0.000000
-14.447130 -14.219576 -0.516759 1321 0.450450 0.892802 0.000000
-14.447502 -14.219955 -0.510545 1331 0.450450 0.892802 0.000000
-14.447300 -14.219754 -0.504307 1325 0.450450 0.892802 0.000000
-14.447257 -14.219709 -0.498077 1327 0.450450 0.892802 0.000000
-14.447680 -14.220119 -0.491863 1329 0.450450 0.892802 0.000000
-14.447940 -14.220381 -0.485640 1325 0.450450 0.892802 0.000000
-14.447154 -14.219616 -0.479388 1315 0.450450 0.892802 0.000000
-14.447313 -14.219766 -0.473166 1313 0.450450 0.892802 0.000000
-14.448245 -14.220689 -0.466967 1329 0.450450 0.892802 0.000000
-14.447366 -14.219821 -0.460705 1325 0.450450 0.892802 0.000000
-14.447094 -14.219547 -0.454468 1329 0.450450 0.892802 0.000000
-14.447190 -14.219646 -0.448247 1325 0.450450 0.892802 0.000000
-14.447131 -14.219590 -0.442017 1321 0.450450 0.892802 0.000000
-14.447383 -14.219844 -0.435795 1321 0.450450 0.892802 0.000000
-14.447316 -14.219780 -0.429565 1317 0.450450 0.892802 0.000000
-14.447249 -14.219717 -0.423336 1317 0.450450 0.892802 0.000000
-14.447095 -14.219555 -0.417107 1329 0.450450 0.892802 0.000000
-14.446505 -14.218978 -0.410862 1315 0.450450 0.892802 0.000000
-14.446435 -14.218913 -0.404633 1317 0.450450 0.892802 0.000000
-14.446517 -14.219000 -0.398402 1315 0.450450 0.892802 0.000000
-14.446505 -14.218982 -0.392182 1311 0.450450 0.892802 0.000000
-14.446538 -14.219014 -0.385952 1313 0.450450 0.892802 0.000000
-14.446877 -14.219354 -0.379728 1319 0.450450 0.892802 0.000000
-14.446707 -14.219179 -0.373500 1315 0.450450 0.892802 0.000000
-14.446779 -14.219258 -0.367279 1315 0.450450 0.892802 0.000000
-14.447071 -14.219544 -0.361056 1329 0.450450 0.892802 0.000000
-14.446520 -14.219001 -0.354811 1323 0.450450 0.892802 0.000000
-14.446593 -14.219080 -0.348590 1335 0.450450 0.892802 0.000000
-14.447095 -14.219568 -0.342375 1335 0.450450 0.892802 0.000000
-14.446692 -14.219172 -0.336139 1333 0.450450 0.892802 0.000000
-14.446140 -14.218628 -0.329904 1325 0.450450 0.892802 0.000000
-14.446628 -14.219117 -0.323689 1327 0.450450 0.892802 0.000000
-14.446232 -14.218727 -0.317453 1323 0.450450 0.892802 0.000000
-14.445991 -14.218482 -0.311215 1313 0.450450 0.892802 0.000000
-14.446259 -14.218749 -0.305002 1317 0.450450 0.892802 0.000000
-14.445701 -14.218197 -0.298758 1321 0.450450 0.892802 0.000000
-14.445305 -14.217810 -0.292521 1325 0.450450 0.892802 0.000000
-14.445877 -14.218382 -0.286316 1321 0.450450 0.892802 0.000000
-14.446146 -14.218651 -0.280093 1315 0.450450 0.892802 0.000000
-14.445226 -14.217734 -0.273852 1319 0.450450 0.892802 0.000000
-14.455442 -14.218695 -0.672709 1343 0.450450 0.892802 0.000000
-14.455429 -14.218689 -0.666469 1341 0.450450 0.892802 0.000000
-14.455627 -14.218885 -0.660246 1335 0.450450 0.892802 0.000000
-14.455512 -14.218769 -0.654007 1329 0.450450 0.892802 0.000000
-14.454711 -14.217991 -0.647735 1321 0.450450 0.892802 0.000000
-14.454807 -14.218076 -0.641514 1327 0.450450 0.892802 0.000000
-14.454733 -14.218006 -0.635274 1313 0.450450 0.892802 0.000000
-14.454461 -14.217734 -0.629027 1315 0.450450 0.892802 0.000000
-14.454128 -14.217410 -0.622780 1325 0.450450 0.892802 0.000000
-14.453678 -14.216976 -0.616534 1317 0.450450 0.892802 0.000000
-14.453767 -14.217054 -0.610303 1321 0.450450 0.892802 0.000000
-14.453895 -14.217194 -0.604082 1317 0.450450 0.892802 0.000000
-14.454390 -14.217675 -0.597867 1323 0.450450 0.892802 0.000000
-14.454210 -14.217492 -0.591628 1325 0.450450 0.892802 0.000000
-14.453980 -14.217267 -0.585391 1311 0.450450 0.892802 0.000000
-14.454202 -14.217496 -0.579168 1329 0.450450 0.892802 0.000000
-14.453814 -14.217113 -0.572922 1325 0.450450 0.892802 0.000000
-14.454036 -14.217329 -0.566700 1327 0.450450 0.892802 0.000000
-14.454427 -14.217713 -0.560476 1323 0.450450 0.892802 0.000000
-14.454337 -14.217630 -0.554246 1323 0.450450 0.892802 0.000000
-14.454245 -14.217533 -0.548007 1317 0.450450 0.892802 0.000000
-14.453851 -14.217145 -0.541761 1305 0.450450 0.892802 0.000000
-14.453909 -14.217212 -0.535540 1313 0.450450 0.892802 0.000000
-14.454082 -14.217374 -0.529308 1319 0.450450 0.892802 0.000000
-14.454350 -14.217642 -0.523095 1327 0.450450 0.892802 0.000000
-14.453986 -14.217293 -0.516849 1323 0.450450 0.892802 0.000000
-14.453848 -14.217156 -0.510610 1317 0.450450 0.892802 0.000000
-14.454116 -14.217411 -0.504387 1323 0.450450 0.892802 0.000000
-14.453697 -14.217003 -0.498151 1321 0.450450 0.892802 0.000000
-14.453810 -14.217115 -0.491920 1325 0.450450 0.892802 0.000000
-14.454178 -14.217479 -0.485706 1317 0.450450 0.892802 0.000000
-14.454018 -14.217325 -0.479468 1321 0.450450 0.892802 0.000000
-14.454340 -14.217637 -0.473244 1323 0.450450 0.892802 0.000000
-14.454645 -14.217937 -0.467031 1325 0.450450 0.892802 0.000000
-14.454221 -14.217523 -0.460785 1323 0.450450 0.892802 0.000000
-14.454691 -14.217985 -0.454570 1321 0.450450 0.892802 0.000000
-14.454896 -14.218187 -0.448348 1335 0.450450 0.892802 0.000000
-14.453892 -14.217200 -0.442088 1333 0.450450 0.892802 0.000000
-14.453199 -14.216526 -0.435834 1321 0.450450 0.892802 0.000000
-14.453038 -14.216372 -0.429606 1325 0.450450 0.892802 0.000000
-14.453081 -14.216413 -0.423375 1331 0.450450 0.892802 0.000000
-14.453013 -14.216348 -0.417146 1339 0.450450 0.892802 0.000000
-14.453163 -14.216492 -0.410924 1337 0.450450 0.892802 0.000000
-14.453565 -14.216883 -0.404710 1333 0.450450 0.892802 0.000000
-14.453340 -14.216661 -0.398472 1333 0.450450 0.892802 0.000000
-14.453000 -14.216332 -0.392235 1329 0.450450 0.892802 0.000000
-14.453244 -14.216567 -0.386013 1317 0.450450 0.892802 0.000000
-14.453481 -14.216809 -0.379790 1321 0.450450 0.892802 0.000000
-14.452421 -14.215763 -0.373530 1323 0.450450 0.892802 0.000000
-14.452339 -14.215688 -0.367301 1321 0.450450 0.892802 0.000000
-14.452786 -14.216131 -0.361087 1329 0.450450 0.892802 0.000000
-14.452499 -14.215845 -0.354849 1327 0.450450 0.892802 0.000000
-14.452628 -14.215970 -0.348628 1331 0.450450 0.892802 0.000000
-14.452553 -14.215899 -0.342398 1339 0.450450 0.892802 0.000000
-14.452312 -14.215667 -0.336171 1319 0.450450 0.892802 0.000000
-14.452012 -14.215369 -0.329933 1313 0.450450 0.892802 0.000000
-14.451779 -14.215143 -0.323705 1319 0.450450 0.892802 0.000000
-14.451736 -14.215099 -0.317476 1309 0.450450 0.892802 0.000000
-14.452325 -14.215685 -0.311260 1321 0.450450 0.892802 0.000000
-14.452606 -14.215951 -0.305037 1327 0.450450 0.892802 0.000000
-14.452102 -14.215459 -0.298802 1323 0.450450 0.892802 0.000000
-14.452003 -14.215369 -0.292572 1315 0.450450 0.892802 0.000000
-14.452178 -14.215532 -0.286351 1317 0.450450 0.892802 0.000000
-14.452291 -14.215645 -0.280129 1317 0.450450 0.892802 0.000000
-14.452238 -14.215608 -0.273900 1325 0.450450 0.892802 0.000000
-14.460971 -14.215788 -0.672768 1345 0.450450 0.892802 0.000000
-14.460801 -14.215627 -0.666529 1329 0.450450 0.892802 0.000000
-14.460224 -14.215048 -0.660265 1323 0.450450 0.892802 0.000000
-14.459322 -14.214160 -0.653993 1313 0.450450 0.892802 0.000000
-14.459880 -14.214719 -0.647788 1319 0.450450 0.892802 0.000000
-14.460755 -14.215570 -0.641589 1331 0.450450 0.892802 0.000000
-14.460369 -14.215203 -0.635343 1327 0.450450 0.892802 0.000000
-14.460041 -14.214871 -0.629096 1323 0.450450 0.892802 0.000000
-14.460233 -14.215060 -0.622864 1329 0.450450 0.892802 0.000000
-14.460205 -14.215043 -0.616634 1327 0.450450 0.892802 0.000000
-14.459403 -14.214251 -0.610371 1323 0.450450 0.892802 0.000000
-14.459273 -14.214123 -0.604132 1325 0.450450 0.892802 0.000000
-14.460290 -14.215131 -0.597942 1337 0.450450 0.892802 0.000000
-14.460675 -14.215508 -0.591718 1327 0.450450 0.892802 0.000000
-14.459818 -14.214657 -0.585457 1313 0.450450 0.892802 0.000000
-14.459260 -14.214120 -0.579202 1315 0.450450 0.892802 0.000000
-14.459496 -14.214349 -0.572979 1323 0.450450 0.892802 0.000000
-14.459936 -14.214786 -0.566765 1333 0.450450 0.892802 0.000000
-14.460110 -14.214948 -0.560543 1329 0.450450 0.892802 0.000000
-14.459715 -14.214560 -0.554297 1319 0.450450 0.892802 0.000000
-14.459515 -14.214373 -0.548049 1315 0.450450 0.892802 0.000000
-14.459634 -14.214490 -0.541827 1309 0.450450 0.892802 0.000000
-14.459646 -14.214505 -0.535597 1313 0.450450 0.892802 0.000000
-14.459296 -14.214155 -0.529350 1323 0.450450 0.892802 0.000000
-14.459307 -14.214168 -0.523120 1333 0.450450 0.892802 0.000000
-14.460207 -14.215053 -0.516921 1341 0.450450 0.892802 0.000000
-14.459945 -14.214801 -0.510684 1339 0.450450 0.892802 0.000000
-14.459174 -14.214035 -0.504421 1321 0.450450 0.892802 0.000000
-14.459807 -14.214659 -0.498215 1323 0.450450 0.892802 0.000000
-14.459547 -14.214408 -0.491977 1313 0.450450 0.892802 0.000000
-14.459237 -14.214104 -0.485740 1325 0.450450 0.892802 0.000000
-14.459496 -14.214364 -0.479517 1321 0.450450 0.892802 0.000000
-14.459351 -14.214209 -0.473278 1313 0.450450 0.892802 0.000000
-14.459494 -14.214360 -0.467057 1313 0.450450 0.892802 0.000000
-14.460176 -14.215023 -0.460840 1333 0.450450 0.892802 0.000000
-14.459906 -14.214765 -0.454603 1339 0.450450 0.892802 0.000000
-14.459479 -14.214351 -0.448367 1323 0.450450 0.892802 0.000000
-14.459162 -14.214041 -0.442119 1329 0.450450 0.892802 0.000000
-14.458842 -14.213715 -0.435882 1337 0.450450 0.892802 0.000000
-14.459252 -14.214127 -0.429668 1335 0.450450 0.892802 0.000000
-14.459075 -14.213959 -0.423430 1333 0.450450 0.892802 0.000000
-14.458391 -14.213277 -0.417186 1331 0.450450 0.892802 0.000000
-14.458479 -14.213369 -0.410955 1313 0.450450 0.892802 0.000000
-14.459091 -14.213975 -0.404749 1325 0.450450 0.892802 0.000000
-14.458821 -14.213703 -0.398512 1331 0.450450 0.892802 0.000000
-14.457855 -14.212762 -0.392251 1307 0.450450 0.892802 0.000000
-14.458044 -14.212938 -0.386029 1311 0.450450 0.892802 0.000000
-14.457924 -14.212831 -0.379800 1321 0.450450 0.892802 0.000000
-14.457637 -14.212544 -0.373563 1321 0.450450 0.892802 0.000000
-14.457193 -14.212104 -0.367327 1325 0.450450 0.892802 0.000000
-14.457173 -14.212092 -0.361097 1317 0.450450 0.892802 0.000000
-14.458089 -14.212990 -0.354888 1333 0.450450 0.892802 0.000000
-14.457897 -14.212810 -0.348659 1325 0.450450 0.892802 0.000000
-14.458243 -14.213141 -0.342436 1323 0.450450 0.892802 0.000000
-14.458675 -14.213571 -0.336222 1325 0.450450 0.892802 0.000000
-14.458327 -14.213235 -0.329985 1327 0.450450 0.892802 0.000000
-14.457829 -14.212735 -0.323750 1307 0.450450 0.892802 0.000000
-14.458470 -14.213366 -0.317533 1323 0.450450 0.892802 0.000000
-14.457967 -14.212873 -0.311298 1315 0.450450 0.892802 0.000000
-14.457088 -14.212018 -0.305046 1325 0.450450 0.892802 0.000000
-14.457684 -14.212597 -0.298830 1335 0.450450 0.892802 0.000000
-14.458117 -14.213027 -0.292616 1327 0.450450 0.892802 0.000000
-14.457963 -14.212879 -0.286387 1327 0.450450 0.892802 0.000000
-14.458083 -14.212996 -0.280156 1331 0.450450 0.892802 0.000000
-14.458240 -14.213146 -0.273934 1331 0.450450 0.892802 0.000000
-14.465771 -14.212158 -0.672804 1321 0.450450 0.892802 0.000000
-14.465811 -14.212198 -0.666573 1329 0.450450 0.892802 0.000000
-14.466213 -14.212603 -0.660349 1333 0.450450 0.892802 0.000000
-14.466052 -14.212434 -0.654111 1327 0.450450 0.892802 0.000000
-14.465983 -14.212370 -0.647871 1333 0.450450 0.892802 0.000000
-14.466223 -14.212613 -0.641649 1347 0.450450 0.892802 0.000000
-14.465841 -14.212236 -0.635402 1331 0.450450 0.892802 0.000000
-14.465774 -14.212172 -0.629163 1327 0.450450 0.892802 0.000000
-14.465595 -14.211991 -0.622924 1327 0.450450 0.892802 0.000000
-14.465421 -14.211823 -0.616686 1325 0.450450 0.892802 0.000000
-14.465602 -14.212008 -0.610454 1329 0.450450 0.892802 0.000000
-14.465533 -14.211929 -0.604214 1325 0.450450 0.892802 0.000000
-14.465349 -14.211755 -0.597976 1321 0.450450 0.892802 0.000000
-14.465632 -14.212035 -0.591753 1329 0.450450 0.892802 0.000000
-14.465557 -14.211966 -0.585524 1327 0.450450 0.892802 0.000000
-14.465162 -14.211576 -0.579277 1315 0.450450 0.892802 0.000000
-14.465181 -14.211597 -0.573037 1329 0.450450 0.892802 0.000000
-14.465409 -14.211820 -0.566815 1321 0.450450 0.892802 0.000000
-14.465637 -14.212041 -0.560592 1317 0.450450 0.892802 0.000000
-14.465867 -14.212262 -0.554370 1317 0.450450 0.892802 0.000000
-14.465463 -14.211866 -0.548124 1313 0.450450 0.892802 0.000000
-14.465326 -14.211732 -0.541885 1323 0.450450 0.892802 0.000000
-14.465593 -14.211999 -0.535662 1321 0.450450 0.892802 0.000000
-14.465604 -14.212013 -0.529432 1329 0.450450 0.892802 0.000000
-14.465349 -14.211768 -0.523194 1321 0.450450 0.892802 0.000000
-14.465055 -14.211476 -0.516947 1309 0.450450 0.892802 0.000000
-14.464955 -14.211372 -0.510718 1309 0.450450 0.892802 0.000000
-14.465014 -14.211441 -0.504487 1339 0.450450 0.892802 0.000000
-14.464962 -14.211390 -0.498247 1319 0.450450 0.892802 0.000000
-14.465392 -14.211804 -0.492033 1321 0.450450 0.892802 0.000000
-14.464866 -14.211294 -0.485788 1311 0.450450 0.892802 0.000000
-14.464562 -14.210996 -0.479541 1315 0.450450 0.892802 0.000000
-14.465183 -14.211608 -0.473335 1321 0.450450 0.892802 0.000000
-14.465856 -14.212263 -0.467128 1321 0.450450 0.892802 0.000000
-14.465906 -14.212324 -0.460897 1327 0.450450 0.892802 0.000000
-14.465487 -14.211903 -0.454651 1323 0.450450 0.892802 0.000000
-14.465224 -14.211650 -0.448414 1317 0.450450 0.892802 0.000000
-14.465109 -14.211535 -0.442185 1321 0.450450 0.892802 0.000000
-14.464676 -14.211115 -0.435939 1319 0.450450 0.892802 0.000000
-14.464459 -14.210899 -0.429700 1317 0.450450 0.892802 0.000000
-14.464244 -14.210687 -0.423462 1313 0.450450 0.892802 0.000000
-14.464488 -14.210936 -0.417240 1321 0.450450 0.892802 0.000000
-14.464530 -14.210975 -0.411009 1319 0.450450 0.892802 0.000000
-14.465039 -14.211469 -0.404794 1325 0.450450 0.892802 0.000000
-14.465128 -14.211561 -0.398573 1325 0.450450 0.892802 0.000000
-14.464116 -14.210569 -0.392313 1317 0.450450 0.892802 0.000000
-14.463627 -14.210089 -0.386067 1319 0.450450 0.892802 0.000000
-14.463449 -14.209908 -0.379839 1311 0.450450 0.892802 0.000000
-14.463578 -14.210048 -0.373608 1313 0.450450 0.892802 0.000000
-14.464813 -14.211249 -0.367416 1325 0.450450 0.892802 0.000000
-14.464730 -14.211172 -0.361186 1329 0.450450 0.892802 0.000000
-14.464085 -14.210536 -0.354942 1327 0.450450 0.892802 0.000000
-14.463894 -14.210357 -0.348704 1327 0.450450 0.892802 0.000000
-14.463606 -14.210071 -0.342467 1325 0.450450 0.892802 0.000000
-14.463999 -14.210455 -0.336253 1325 0.450450 0.892802 0.000000
-14.464274 -14.210730 -0.330030 1325 0.450450 0.892802 0.000000
-14.464083 -14.210548 -0.323792 1327 0.450450 0.892802 0.000000
-14.463422 -14.209901 -0.317548 1321 0.450450 0.892802 0.000000
-14.463338 -14.209810 -0.311318 1327 0.450450 0.892802 0.000000
-14.464185 -14.210649 -0.305110 1327 0.450450 0.892802 0.000000
-14.464304 -14.210767 -0.298889 1325 0.450450 0.892802 0.000000
-14.464212 -14.210670 -0.292660 1323 0.450450 0.892802 0.000000
-14.464802 -14.211257 -0.286434 1339 0.450450 0.892802 0.000000
-14.464709 -14.211161 -0.280204 1337 0.450450 0.892802 0.000000
-14.464033 -14.210499 -0.273971 1331 0.450450 0.892802 0.000000
-14.472832 -14.210084 -0.672921 1325 0.450450 0.892802 0.000000
-14.472816 -14.210065 -0.666691 1321 0.450450 0.892802 0.000000
-14.471820 -14.209085 -0.660401 1325 0.450450 0.892802 0.000000
-14.472221 -14.209490 -0.654187 1337 0.450450 0.892802 0.000000
-14.472256 -14.209522 -0.647956 1331 0.450450 0.892802 0.000000
-14.471205 -14.208485 -0.641676 1321 0.450450 0.892802 0.000000
-14.471089 -14.208368 -0.635437 1327 0.450450 0.892802 0.000000
-14.471427 -14.208707 -0.629214 1329 0.450450 0.892802 0.000000
-14.471619 -14.208897 -0.622992 1325 0.450450 0.892802 0.000000
-14.471231 -14.208515 -0.616736 1329 0.450450 0.892802 0.000000
-14.471365 -14.208644 -0.610514 1327 0.450450 0.892802 0.000000
-14.471601 -14.208886 -0.604292 1333 0.450450 0.892802 0.000000
-14.471526 -14.208803 -0.598052 1329 0.450450 0.892802 0.000000
-14.471492 -14.208778 -0.591812 1327 0.450450 0.892802 0.000000
-14.471469 -14.208754 -0.585582 1323 0.450450 0.892802 0.000000
-14.471809 -14.209093 -0.579359 1321 0.450450 0.892802 0.000000
-14.471357 -14.208645 -0.573113 1325 0.450450 0.892802 0.000000
-14.471431 -14.208711 -0.566882 1325 0.450450 0.892802 0.000000
-14.471712 -14.208990 -0.560660 1321 0.450450 0.892802 0.000000
-14.471249 -14.208546 -0.554404 1315 0.450450 0.892802 0.000000
-14.471062 -14.208356 -0.548166 1313 0.450450 0.892802 0.000000
-14.470716 -14.208021 -0.541919 1315 0.450450 0.892802 0.000000
-14.470678 -14.207983 -0.535689 1323 0.450450 0.892802 0.000000
-14.470947 -14.208250 -0.529466 1321 0.450450 0.892802 0.000000
-14.471012 -14.208309 -0.523235 1317 0.450450 0.892802 0.000000
-14.471124 -14.208421 -0.517004 1319 0.450450 0.892802 0.000000
-14.470922 -14.208220 -0.510766 1325 0.450450 0.892802 0.000000
-14.471347 -14.208643 -0.504552 1341 0.450450 0.892802 0.000000
-14.471403 -14.208696 -0.498321 1319 0.450450 0.892802 0.000000
-14.471204 -14.208497 -0.492083 1311 0.450450 0.892802 0.000000
-14.470518 -14.207828 -0.485829 1303 0.450450 0.892802 0.000000
-14.469952 -14.207271 -0.479575 1303 0.450450 0.892802 0.000000
-14.471094 -14.208396 -0.473383 1323 0.450450 0.892802 0.000000
-14.471675 -14.208961 -0.467168 1323 0.450450 0.892802 0.000000
-14.471295 -14.208599 -0.460931 1323 0.450450 0.892802 0.000000
-14.470517 -14.207828 -0.454669 1319 0.450450 0.892802 0.000000
-14.470356 -14.207671 -0.448440 1319 0.450450 0.892802 0.000000
-14.471288 -14.208596 -0.442231 1327 0.450450 0.892802 0.000000
-14.471743 -14.209044 -0.436016 1325 0.450450 0.892802 0.000000
-14.471478 -14.208779 -0.429779 1317 0.450450 0.892802 0.000000
-14.471147 -14.208455 -0.423532 1317 0.450450 0.892802 0.000000
-14.470455 -14.207782 -0.417288 1313 0.450450 0.892802 0.000000
-14.470292 -14.207613 -0.411050 1327 0.450450 0.892802 0.000000
-14.470539 -14.207862 -0.404827 1329 0.450450 0.892802 0.000000
-14.470516 -14.207836 -0.398597 1335 0.450450 0.892802 0.000000
-14.470496 -14.207825 -0.392367 1325 0.450450 0.892802 0.000000
-14.470740 -14.208060 -0.386145 1315 0.450450 0.892802 0.000000
-14.470408 -14.207736 -0.379908 1311 0.450450 0.892802 0.000000
-14.470333 -14.207666 -0.373668 1331 0.450450 0.892802 0.000000
-14.469999 -14.207330 -0.367431 1327 0.450450 0.892802 0.000000
-14.470026 -14.207355 -0.361201 1317 0.450450 0.892802 0.000000
-14.469832 -14.207175 -0.354973 1329 0.450450 0.892802 0.000000
-14.469453 -14.206800 -0.348736 1337 0.450450 0.892802 0.000000
-14.469987 -14.207328 -0.342511 1327 0.450450 0.892802 0.000000
-14.470380 -14.207711 -0.336297 1339 0.450450 0.892802 0.000000
-14.469679 -14.207017 -0.330054 1327 0.450450 0.892802 0.000000
-14.469322 -14.206675 -0.323817 1329 0.450450 0.892802 0.000000
-14.469756 -14.207104 -0.317593 1327 0.450450 0.892802 0.000000
-14.469936 -14.207273 -0.311371 1325 0.450450 0.892802 0.000000
-14.469533 -14.206878 -0.305134 1327 0.450450 0.892802 0.000000
-14.469590 -14.206944 -0.298904 1321 0.450450 0.892802 0.000000
-14.470022 -14.207360 -0.292679 1327 0.450450 0.892802 0.000000
-14.470142 -14.207479 -0.286458 1327 0.450450 0.892802 0.000000
-14.470144 -14.207486 -0.280228 1333 0.450450 0.892802 0.000000
-14.470209 -14.207546 -0.273997 1331 0.450450 0.892802 0.000000
-14.478371 -14.206315 -0.672965 1323 0.450450 0.892802 0.000000
-14.477890 -14.205843 -0.666709 1323 0.450450 0.892802 0.000000
-14.478252 -14.206203 -0.660496 1329 0.450450 0.892802 0.000000
-14.478021 -14.205976 -0.654248 1335 0.450450 0.892802 0.000000
-14.477803 -14.205761 -0.648000 1339 0.450450 0.892802 0.000000
-14.477370 -14.205340 -0.641744 1329 0.450450 0.892802 0.000000
-14.477607 -14.205568 -0.635521 1317 0.450450 0.892802 0.000000
-14.477852 -14.205817 -0.629299 1323 0.450450 0.892802 0.000000
-14.477839 -14.205798 -0.623059 1323 0.450450 0.892802 0.000000
-14.478340 -14.206285 -0.616844 1329 0.450450 0.892802 0.000000
-14.477742 -14.205703 -0.610589 1321 0.450450 0.892802 0.000000
-14.477503 -14.205470 -0.604342 1313 0.450450 0.892802 0.000000
-14.477482 -14.205459 -0.598112 1321 0.450450 0.892802 0.000000
-14.477087 -14.205070 -0.591855 1329 0.450450 0.892802 0.000000
-14.477790 -14.205752 -0.585648 1321 0.450450 0.892802 0.000000
-14.477872 -14.205837 -0.579417 1317 0.450450 0.892802 0.000000
-14.477577 -14.205546 -0.573180 1321 0.450450 0.892802 0.000000
-14.477495 -14.205471 -0.566941 1323 0.450450 0.892802 0.000000
-14.476788 -14.204769 -0.560677 1309 0.450450 0.892802 0.000000
-14.477476 -14.205452 -0.554471 1329 0.450450 0.892802 0.000000
-14.478485 -14.206440 -0.548281 1325 0.450450 0.892802 0.000000
-14.477715 -14.205688 -0.542018 1325 0.450450 0.892802 0.000000
-14.477103 -14.205092 -0.535754 1329 0.450450 0.892802 0.000000
-14.477221 -14.205195 -0.529533 1325 0.450450 0.892802 0.000000
-14.476654 -14.204652 -0.523278 1331 0.450450 0.892802 0.000000
-14.476609 -14.204608 -0.517038 1331 0.450450 0.892802 0.000000
-14.477456 -14.205434 -0.510840 1323 0.450450 0.892802 0.000000
-14.477832 -14.205805 -0.504616 1327 0.450450 0.892802 0.000000
-14.477406 -14.205390 -0.498370 1325 0.450450 0.892802 0.000000
-14.477418 -14.205405 -0.492140 1331 0.450450 0.892802 0.000000
-14.476997 -14.204997 -0.485894 1321 0.450450 0.892802 0.000000
-14.476329 -14.204329 -0.479640 1311 0.450450 0.892802 0.000000
-14.476800 -14.204791 -0.473425 1325 0.450450 0.892802 0.000000
-14.477575 -14.205558 -0.467218 1331 0.450450 0.892802 0.000000
-14.477780 -14.205761 -0.460985 1331 0.450450 0.892802 0.000000
-14.477728 -14.205709 -0.454756 1327 0.450450 0.892802 0.000000
-14.477403 -14.205392 -0.448519 1325 0.450450 0.892802 0.000000
-14.477039 -14.205029 -0.442272 1315 0.450450 0.892802 0.000000
-14.477549 -14.205537 -0.436057 1329 0.450450 0.892802 0.000000
-14.477849 -14.205831 -0.429834 1331 0.450450 0.892802 0.000000
-14.477265 -14.205260 -0.423579 1327 0.450450 0.892802 0.000000
-14.476418 -14.204430 -0.417327 1325 0.450450 0.892802 0.000000
-14.476085 -14.204106 -0.411091 1325 0.450450 0.892802 0.000000
-14.476070 -14.204087 -0.404861 1317 0.450450 0.892802 0.000000
-14.476316 -14.204336 -0.398628 1319 0.450450 0.892802 0.000000
-14.476615 -14.204629 -0.392405 1315 0.450450 0.892802 0.000000
-14.476072 -14.204092 -0.386160 1317 0.450450 0.892802 0.000000
-14.475792 -14.203812 -0.379923 1319 0.450450 0.892802 0.000000
-14.476178 -14.204204 -0.373709 1319 0.450450 0.892802 0.000000
-14.476055 -14.204082 -0.367470 1325 0.450450 0.892802 0.000000
-14.475620 -14.203647 -0.361234 1321 0.450450 0.892802 0.000000
-14.476171 -14.204186 -0.355018 1329 0.450450 0.892802 0.000000
-14.476501 -14.204519 -0.348795 1325 0.450450 0.892802 0.000000
-14.476418 -14.204444 -0.342566 1333 0.450450 0.892802 0.000000
-14.476803 -14.204822 -0.336342 1329 0.450450 0.892802 0.000000
-14.476875 -14.204885 -0.330111 1329 0.450450 0.892802 0.000000
-14.476535 -14.204556 -0.323874 1327 0.450450 0.892802 0.000000
-14.476131 -14.204162 -0.317638 1319 0.450450 0.892802 0.000000
-14.476360 -14.204383 -0.311405 1331 0.450450 0.892802 0.000000
-14.476432 -14.204448 -0.305185 1327 0.450450 0.892802 0.000000
-14.476124 -14.204158 -0.298947 1319 0.450450 0.892802 0.000000
-14.476142 -14.204165 -0.292717 1323 0.450450 0.892802 0.000000
-14.476043 -14.204075 -0.286488 1329 0.450450 0.892802 0.000000
-14.476007 -14.204038 -0.280258 1317 0.450450 0.892802 0.000000
-14.476422 -14.204454 -0.274034 1331 0.450450 0.892802 0.000000
-14.484235 -14.203052 -0.673034 1329 0.450450 0.892802 0.000000
-14.484223 -14.203046 -0.666794 1331 0.450450 0.892802 0.000000
-14.483694 -14.202520 -0.660539 1325 0.450450 0.892802 0.000000
-14.483627 -14.202456 -0.654300 1319 0.450450 0.892802 0.000000
-14.483816 -14.202646 -0.648068 1319 0.450450 0.892802 0.000000
-14.484334 -14.203147 -0.641852 1335 0.450450 0.892802 0.000000
-14.483626 -14.202459 -0.635589 1325 0.450450 0.892802 0.000000
-14.483560 -14.202396 -0.629350 1319 0.450450 0.892802 0.000000
-14.484117 -14.202943 -0.623144 1325 0.450450 0.892802 0.000000
-14.484251 -14.203074 -0.616913 1319 0.450450 0.892802 0.000000
-14.483815 -14.202638 -0.610657 1325 0.450450 0.892802 0.000000
-14.484006 -14.202828 -0.604425 1317 0.450450 0.892802 0.000000
-14.484704 -14.203519 -0.598228 1327 0.450450 0.892802 0.000000
-14.483996 -14.202831 -0.591955 1319 0.450450 0.892802 0.000000
-14.483187 -14.202033 -0.585692 1327 0.450450 0.892802 0.000000
-14.483470 -14.202313 -0.579469 1321 0.450450 0.892802 0.000000
-14.483394 -14.202229 -0.573230 1307 0.450450 0.892802 0.000000
-14.483154 -14.201996 -0.566982 1307 0.450450 0.892802 0.000000
-14.483322 -14.202168 -0.560760 1317 0.450450 0.892802 0.000000
-14.482879 -14.201725 -0.554505 1315 0.450450 0.892802 0.000000
-14.483304 -14.202150 -0.548290 1325 0.450450 0.892802 0.000000
-14.483424 -14.202268 -0.542059 1323 0.450450 0.892802 0.000000
-14.482919 -14.201776 -0.535804 1315 0.450450 0.892802 0.000000
-14.483030 -14.201886 -0.529582 1315 0.450450 0.892802 0.000000
-14.482682 -14.201537 -0.523336 1315 0.450450 0.892802 0.000000
-14.482685 -14.201544 -0.517095 1311 0.450450 0.892802 0.000000
-14.483998 -14.202837 -0.510913 1335 0.450450 0.892802 0.000000
-14.483853 -14.202697 -0.504674 1333 0.450450 0.892802 0.000000
-14.483020 -14.201879 -0.498412 1325 0.450450 0.892802 0.000000
-14.482759 -14.201627 -0.492174 1323 0.450450 0.892802 0.000000
-14.482714 -14.201582 -0.485934 1319 0.450450 0.892802 0.000000
-14.483129 -14.201985 -0.479720 1323 0.450450 0.892802 0.000000
-14.483287 -14.202134 -0.473489 1317 0.450450 0.892802 0.000000
-14.483072 -14.201936 -0.467250 1323 0.450450 0.892802 0.000000
-14.483332 -14.202184 -0.461028 1319 0.450450 0.892802 0.000000
-14.483335 -14.202191 -0.454798 1319 0.450450 0.892802 0.000000
-14.482697 -14.201562 -0.448544 1323 0.450450 0.892802 0.000000
-14.482746 -14.201608 -0.442313 1325 0.450450 0.892802 0.000000
-14.482842 -14.201708 -0.436082 1323 0.450450 0.892802 0.000000
-14.482986 -14.201844 -0.429850 1337 0.450450 0.892802 0.000000
-14.482824 -14.201690 -0.423612 1321 0.450450 0.892802 0.000000
-14.482491 -14.201366 -0.417375 1317 0.450450 0.892802 0.000000
-14.482377 -14.201249 -0.411136 1325 0.450450 0.892802 0.000000
-14.481942 -14.200829 -0.404900 1325 0.450450 0.892802 0.000000
-14.482282 -14.201169 -0.398676 1329 0.450450 0.892802 0.000000
-14.482900 -14.201767 -0.392460 1317 0.450450 0.892802 0.000000
-14.483199 -14.202059 -0.386237 1323 0.450450 0.892802 0.000000
-14.483329 -14.202198 -0.380006 1329 0.450450 0.892802 0.000000
-14.482573 -14.201459 -0.373753 1329 0.450450 0.892802 0.000000
-14.481920 -14.200816 -0.367509 1323 0.450450 0.892802 0.000000
-14.481688 -14.200590 -0.361271 1319 0.450450 0.892802 0.000000
-14.481769 -14.200663 -0.355040 1309 0.450450 0.892802 0.000000
-14.482574 -14.201455 -0.348832 1321 0.450450 0.892802 0.000000
-14.482601 -14.201483 -0.342602 1319 0.450450 0.892802 0.000000
-14.482254 -14.201147 -0.336365 1323 0.450450 0.892802 0.000000
-14.481810 -14.200705 -0.330119 1311 0.450450 0.892802 0.000000
-14.482141 -14.201038 -0.323896 1321 0.450450 0.892802 0.000000
-14.482315 -14.201201 -0.317674 1321 0.450450 0.892802 0.000000
-14.482381 -14.201274 -0.311443 1325 0.450450 0.892802 0.000000
-14.482344 -14.201236 -0.305214 1315 0.450450 0.892802 0.000000
-14.481885 -14.200782 -0.298978 1319 0.450450 0.892802 0.000000
-14.481639 -14.200543 -0.292740 1331 0.450450 0.892802 0.000000
-14.481955 -14.200863 -0.286517 1341 0.450450 0.892802 0.000000
-14.482019 -14.200922 -0.280286 1325 0.450450 0.892802 0.000000
-14.481560 -14.200468 -0.274050 1325 0.450450 0.892802 0.000000
-14.490479 -14.199816 -0.673112 1333 0.450450 0.892802 0.000000
-14.490786 -14.200115 -0.666888 1333 0.450450 0.892802 0.000000
-14.491343 -14.200663 -0.660673 1321 0.450450 0.892802 0.000000
-14.491016 -14.200345 -0.654426 1325 0.450450 0.892802 0.000000
-14.490224 -14.199574 -0.648153 1331 0.450450 0.892802 0.000000
-14.490569 -14.199904 -0.641930 1333 0.450450 0.892802 0.000000
-14.491126 -14.200452 -0.635715 1337 0.450450 0.892802 0.000000
-14.490536 -14.199875 -0.629450 1331 0.450450 0.892802 0.000000
-14.489993 -14.199350 -0.623195 1323 0.450450 0.892802 0.000000
-14.490549 -14.199896 -0.616980 1315 0.450450 0.892802 0.000000
-14.490894 -14.200229 -0.610756 1329 0.450450 0.892802 0.000000
-14.490242 -14.199586 -0.604492 1321 0.450450 0.892802 0.000000
-14.490479 -14.199828 -0.598270 1321 0.450450 0.892802 0.000000
-14.491239 -14.200569 -0.592062 1329 0.450450 0.892802 0.000000
-14.490366 -14.199720 -0.585791 1319 0.450450 0.892802 0.000000
-14.489714 -14.199078 -0.579537 1313 0.450450 0.892802 0.000000
-14.489732 -14.199099 -0.573296 1325 0.450450 0.892802 0.000000
-14.489445 -14.198812 -0.567049 1321 0.450450 0.892802 0.000000
-14.489260 -14.198626 -0.560811 1319 0.450450 0.892802 0.000000
-14.489380 -14.198744 -0.554579 1321 0.450450 0.892802 0.000000
-14.489758 -14.199116 -0.548356 1313 0.450450 0.892802 0.000000
-14.489822 -14.199187 -0.542125 1311 0.450450 0.892802 0.000000
-14.489996 -14.199350 -0.535903 1325 0.450450 0.892802 0.000000
-14.489484 -14.198853 -0.529648 1323 0.450450 0.892802 0.000000
-14.489339 -14.198709 -0.523409 1321 0.450450 0.892802 0.000000
-14.489341 -14.198718 -0.517169 1319 0.450450 0.892802 0.000000
-14.489773 -14.199135 -0.510954 1335 0.450450 0.892802 0.000000
-14.489885 -14.199245 -0.504723 1333 0.450450 0.892802 0.000000
-14.489677 -14.199053 -0.498485 1321 0.450450 0.892802 0.000000
-14.489219 -14.198599 -0.492229 1309 0.450450 0.892802 0.000000
-14.488745 -14.198132 -0.485984 1323 0.450450 0.892802 0.000000
-14.488749 -14.198139 -0.479754 1329 0.450450 0.892802 0.000000
-14.488329 -14.197732 -0.473507 1321 0.450450 0.892802 0.000000
-14.488013 -14.197422 -0.467260 1311 0.450450 0.892802 0.000000
-14.488116 -14.197526 -0.461029 1317 0.450450 0.892802 0.000000
-14.488790 -14.198183 -0.454823 1325 0.450450 0.892802 0.000000
-14.489049 -14.198430 -0.448590 1323 0.450450 0.892802 0.000000
-14.488990 -14.198373 -0.442360 1325 0.450450 0.892802 0.000000
-14.489079 -14.198465 -0.436129 1321 0.450450 0.892802 0.000000
-14.488916 -14.198310 -0.429891 1325 0.450450 0.892802 0.000000
-14.489059 -14.198447 -0.423669 1323 0.450450 0.892802 0.000000
-14.489413 -14.198799 -0.417446 1325 0.450450 0.892802 0.000000
-14.488980 -14.198380 -0.411200 1309 0.450450 0.892802 0.000000
-14.488755 -14.198158 -0.404962 1311 0.450450 0.892802 0.000000
-14.488851 -14.198243 -0.398731 1315 0.450450 0.892802 0.000000
-14.489401 -14.198784 -0.392515 1321 0.450450 0.892802 0.000000
-14.488810 -14.198207 -0.386261 1329 0.450450 0.892802 0.000000
-14.488525 -14.197937 -0.380023 1321 0.450450 0.892802 0.000000
-14.488713 -14.198112 -0.373801 1331 0.450450 0.892802 0.000000
-14.488896 -14.198295 -0.367569 1333 0.450450 0.892802 0.000000
-14.489140 -14.198528 -0.361347 1323 0.450450 0.892802 0.000000
-14.488276 -14.197686 -0.355095 1315 0.450450 0.892802 0.000000
-14.488405 -14.197811 -0.348864 1319 0.450450 0.892802 0.000000
-14.488429 -14.197837 -0.342633 1329 0.450450 0.892802 0.000000
-14.488135 -14.197546 -0.336396 1311 0.450450 0.892802 0.000000
-14.488256 -14.197679 -0.330165 1315 0.450450 0.892802 0.000000
-14.488431 -14.197842 -0.323943 1333 0.450450 0.892802 0.000000
-14.488458 -14.197868 -0.317713 1327 0.450450 0.892802 0.000000
-14.487999 -14.197428 -0.311467 1319 0.450450 0.892802 0.000000
-14.488539 -14.197948 -0.305251 1329 0.450450 0.892802 0.000000
-14.488659 -14.198066 -0.299020 1327 0.450450 0.892802 0.000000
-14.488404 -14.197821 -0.292782 1331 0.450450 0.892802 0.000000
-14.488211 -14.197626 -0.286554 1323 0.450450 0.892802 0.000000
-14.488270 -14.197693 -0.280323 1339 0.450450 0.892802 0.000000
-14.487859 -14.197291 -0.274077 1327 0.450450 0.892802 0.000000
