62
-15.066795 -13.880957 -0.667327 33 -0.533167 0.846010 0.000000
-15.068503 -13.882532 -0.661101 27 -0.533167 0.846010 0.000000
-15.067311 -13.881440 -0.654752 25 -0.533167 0.846010 0.000000
-15.066541 -13.880733 -0.648429 13 -0.533167 0.846010 0.000000
-15.065347 -13.879626 -0.642080 0 -0.533167 0.846010 0.000000
-15.064839 -13.879166 -0.635754 -16 -0.533167 0.846010 0.000000
-15.066061 -13.880293 -0.629513 0 -0.533167 0.846010 0.000000
-15.067170 -13.881305 -0.623262 -21 -0.533167 0.846010 0.000000
-15.066560 -13.880749 -0.616938 7 -0.533167 0.846010 0.000000
-15.065184 -13.879486 -0.610590 4 -0.533167 0.846010 0.000000
-15.065001 -13.879310 -0.604282 -4 -0.533167 0.846010 0.000000
-15.064651 -13.878986 -0.597975 -27 -0.533167 0.846010 0.000000
-15.063291 -13.877735 -0.591618 -19 -0.533167 0.846010 0.000000
-15.063740 -13.878146 -0.585343 0 -0.533167 0.846010 0.000000
-15.064946 -13.879262 -0.579092 -7 -0.533167 0.846010 0.000000
-15.063945 -13.878345 -0.572761 0 -0.533167 0.846010 0.000000
-15.063588 -13.878017 -0.566454 -11 -0.533167 0.846010 0.000000
-15.064850 -13.879176 -0.560202 -2 -0.533167 0.846010 0.000000
-15.067713 -13.881821 -0.554015 9 -0.533167 0.846010 0.000000
-15.065635 -13.879899 -0.547645 9 -0.533167 0.846010 0.000000
-15.063231 -13.877679 -0.541267 -16 -0.533167 0.846010 0.000000
-15.063352 -13.877794 -0.534976 7 -0.533167 0.846010 0.000000
-15.062717 -13.877220 -0.528661 -13 -0.533167 0.846010 0.000000
-15.064448 -13.878815 -0.522425 -11 -0.533167 0.846010 0.000000
-15.065909 -13.880156 -0.516181 19 -0.533167 0.846010 0.000000
-15.065697 -13.879967 -0.509873 16 -0.533167 0.846010 0.000000
-15.063235 -13.877690 -0.503496 19 -0.533167 0.846010 0.000000
-15.062162 -13.876705 -0.497166 19 -0.533167 0.846010 0.000000
-15.064157 -13.878548 -0.490947 33 -0.533167 0.846010 0.000000
-15.063729 -13.878149 -0.484631 45 -0.533167 0.846010 0.000000
-15.062981 -13.877460 -0.478318 55 -0.533167 0.846010 0.000000
-15.064697 -13.879043 -0.472082 63 -0.533167 0.846010 0.000000
-15.064803 -13.879146 -0.465790 43 -0.533167 0.846010 0.000000
-15.063244 -13.877711 -0.459445 63 -0.533167 0.846010 0.000000
-15.063077 -13.877545 -0.453146 37 -0.533167 0.846010 0.000000
-15.063015 -13.877489 -0.446857 21 -0.533167 0.846010 0.000000
-15.062892 -13.877384 -0.440558 47 -0.533167 0.846010 0.000000
-15.062138 -13.876690 -0.434245 35 -0.533167 0.846010 0.000000
-15.060896 -13.875546 -0.427916 39 -0.533167 0.846010 0.000000
-15.063033 -13.877512 -0.421686 21 -0.533167 0.846010 0.000000
-15.065443 -13.879734 -0.415463 0 -0.533167 0.846010 0.000000
-15.064346 -13.878730 -0.409133 13 -0.533167 0.846010 0.000000
-15.064171 -13.878559 -0.402835 11 -0.533167 0.846010 0.000000
-15.064692 -13.879040 -0.396560 16 -0.533167 0.846010 0.000000
-15.065102 -13.879421 -0.390276 21 -0.533167 0.846010 0.000000
-15.063205 -13.877668 -0.383933 -7 -0.533167 0.846010 0.000000
-15.062851 -13.877356 -0.377637 13 -0.533167 0.846010 0.000000
-15.064660 -13.879011 -0.371390 27 -0.533167 0.846010 0.000000
-15.064798 -13.879140 -0.365098 31 -0.533167 0.846010 0.000000
-15.062616 -13.877136 -0.358758 11 -0.533167 0.846010 0.000000
-15.061840 -13.876423 -0.352445 -7 -0.533167 0.846010 0.000000
-15.062934 -13.877436 -0.346175 -11 -0.533167 0.846010 0.000000
-15.063548 -13.877993 -0.339899 21 -0.533167 0.846010 0.000000
-15.064547 -13.878917 -0.333630 21 -0.533167 0.846010 0.000000
-15.063482 -13.877937 -0.327319 21 -0.533167 0.846010 0.000000
-15.062696 -13.877218 -0.321007 35 -0.533167 0.846010 0.000000
-15.061914 -13.876491 -0.314704 9 -0.533167 0.846010 0.000000
-15.060961 -13.875612 -0.308393 9 -0.533167 0.846010 0.000000
-15.062590 -13.877113 -0.302137 0 -0.533167 0.846010 0.000000
-15.064703 -13.879061 -0.295887 0 -0.533167 0.846010 0.000000
-15.065567 -13.879867 -0.289609 11 -0.533167 0.846010 0.000000
-15.063751 -13.878191 -0.283286 7 -0.533167 0.846010 0.000000
