630
-14.482818 -14.125275 -0.672410 1289 0.295722 0.955274 0.000000
-14.483332 -14.125767 -0.666215 1287 0.295722 0.955274 0.000000
-14.483429 -14.125865 -0.660004 1283 0.295722 0.955274 0.000000
-14.482474 -14.124928 -0.653743 1271 0.295722 0.955274 0.000000
-14.482346 -14.124815 -0.647514 1287 0.295722 0.955274 0.000000
-14.482183 -14.124647 -0.641286 1287 0.295722 0.955274 0.000000
-14.482321 -14.124791 -0.635074 1283 0.295722 0.955274 0.000000
-14.483138 -14.125587 -0.628896 1287 0.295722 0.955274 0.000000
-14.482648 -14.125110 -0.622651 1293 0.295722 0.955274 0.000000
-14.481952 -14.124425 -0.616407 1283 0.295722 0.955274 0.000000
-14.482137 -14.124608 -0.610196 1285 0.295722 0.955274 0.000000
-14.481949 -14.124421 -0.603967 1273 0.295722 0.955274 0.000000
-14.481294 -14.123782 -0.597723 1273 0.295722 0.955274 0.000000
-14.481485 -14.123972 -0.591511 1277 0.295722 0.955274 0.000000
-14.482085 -14.124561 -0.585325 1285 0.295722 0.955274 0.000000
-14.482316 -14.124782 -0.579113 1287 0.295722 0.955274 0.000000
-14.481761 -14.124240 -0.572868 1291 0.295722 0.955274 0.000000
-14.482402 -14.124875 -0.566682 1293 0.295722 0.955274 0.000000
-14.482748 -14.125204 -0.560479 1287 0.295722 0.955274 0.000000
-14.481662 -14.124146 -0.554219 1281 0.295722 0.955274 0.000000
-14.482098 -14.124575 -0.548015 1283 0.295722 0.955274 0.000000
-14.482162 -14.124634 -0.541804 1269 0.295722 0.955274 0.000000
-14.482173 -14.124647 -0.535583 1267 0.295722 0.955274 0.000000
-14.481721 -14.124203 -0.529348 1269 0.295722 0.955274 0.000000
-14.481050 -14.123551 -0.523114 1271 0.295722 0.955274 0.000000
-14.481429 -14.123921 -0.516910 1283 0.295722 0.955274 0.000000
-14.481748 -14.124240 -0.510707 1273 0.295722 0.955274 0.000000
-14.482856 -14.125312 -0.504526 1277 0.295722 0.955274 0.000000
-14.482177 -14.124655 -0.498283 1273 0.295722 0.955274 0.000000
-14.480556 -14.123080 -0.492018 1261 0.295722 0.955274 0.000000
-14.480763 -14.123281 -0.485806 1273 0.295722 0.955274 0.000000
-14.481245 -14.123748 -0.479611 1269 0.295722 0.955274 0.000000
-14.481507 -14.124007 -0.473398 1265 0.295722 0.955274 0.000000
-14.481974 -14.124461 -0.467204 1281 0.295722 0.955274 0.000000
-14.481915 -14.124404 -0.460984 1273 0.295722 0.955274 0.000000
-14.480662 -14.123184 -0.454726 1269 0.295722 0.955274 0.000000
-14.480923 -14.123430 -0.448523 1279 0.295722 0.955274 0.000000
-14.481381 -14.123878 -0.442319 1283 0.295722 0.955274 0.000000
-14.481055 -14.123562 -0.436092 1291 0.295722 0.955274 0.000000
-14.480580 -14.123098 -0.429866 1291 0.295722 0.955274 0.000000
-14.480198 -14.122725 -0.423640 1281 0.295722 0.955274 0.000000
-14.480492 -14.123023 -0.417437 1285 0.295722 0.955274 0.000000
-14.480377 -14.122908 -0.411218 1277 0.295722 0.955274 0.000000
-14.480781 -14.123297 -0.405014 1283 0.295722 0.955274 0.000000
-14.481028 -14.123544 -0.398811 1291 0.295722 0.955274 0.000000
-14.480953 -14.123474 -0.392592 1293 0.295722 0.955274 0.000000
-14.480523 -14.123048 -0.386366 1293 0.295722 0.955274 0.000000
-14.480393 -14.122920 -0.380147 1289 0.295722 0.955274 0.000000
-14.480742 -14.123264 -0.373943 1281 0.295722 0.955274 0.000000
-14.481664 -14.124157 -0.367754 1287 0.295722 0.955274 0.000000
-14.481102 -14.123623 -0.361520 1289 0.295722 0.955274 0.000000
-14.479934 -14.122472 -0.355281 1283 0.295722 0.955274 0.000000
-14.479954 -14.122493 -0.349070 1279 0.295722 0.955274 0.000000
-14.480773 -14.123289 -0.342872 1283 0.295722 0.955274 0.000000
-14.481050 -14.123561 -0.336669 1275 0.295722 0.955274 0.000000
-14.480756 -14.123285 -0.330442 1279 0.295722 0.955274 0.000000
-14.480877 -14.123403 -0.324231 1287 0.295722 0.955274 0.000000
-14.480630 -14.123165 -0.318013 1277 0.295722 0.955274 0.000000
-14.480601 -14.123134 -0.311803 1279 0.295722 0.955274 0.000000
-14.480932 -14.123451 -0.305600 1283 0.295722 0.955274 0.000000
-14.480419 -14.122955 -0.299375 1285 0.295722 0.955274 0.000000
-14.479905 -14.122459 -0.293149 1273 0.295722 0.955274 0.000000
-14.480127 -14.122673 -0.286937 1287 0.295722 0.955274 0.000000
-14.490866 -14.124141 -0.672579 1293 0.295722 0.955274 0.000000
-14.490751 -14.124039 -0.666360 1279 0.295722 0.955274 0.000000
-14.490417 -14.123717 -0.660123 1285 0.295722 0.955274 0.000000
-14.489620 -14.122936 -0.653861 1269 0.295722 0.955274 0.000000
-14.489245 -14.122568 -0.647624 1273 0.295722 0.955274 0.000000
-14.489587 -14.122907 -0.641421 1283 0.295722 0.955274 0.000000
-14.489887 -14.123199 -0.635218 1277 0.295722 0.955274 0.000000
-14.490237 -14.123542 -0.629014 1299 0.295722 0.955274 0.000000
-14.489439 -14.122761 -0.622752 1295 0.295722 0.955274 0.000000
-14.489050 -14.122381 -0.616515 1281 0.295722 0.955274 0.000000
-14.489554 -14.122867 -0.610320 1289 0.295722 0.955274 0.000000
-14.489676 -14.122997 -0.604109 1285 0.295722 0.955274 0.000000
-14.489655 -14.122972 -0.597889 1279 0.295722 0.955274 0.000000
-14.489314 -14.122644 -0.591652 1283 0.295722 0.955274 0.000000
-14.489552 -14.122871 -0.585440 1283 0.295722 0.955274 0.000000
-14.489462 -14.122789 -0.579220 1285 0.295722 0.955274 0.000000
-14.488710 -14.122046 -0.572977 1277 0.295722 0.955274 0.000000
-14.488667 -14.122016 -0.566758 1275 0.295722 0.955274 0.000000
-14.489275 -14.122599 -0.560562 1281 0.295722 0.955274 0.000000
-14.489285 -14.122612 -0.554341 1281 0.295722 0.955274 0.000000
-14.488833 -14.122168 -0.548106 1285 0.295722 0.955274 0.000000
-14.488844 -14.122182 -0.541885 1275 0.295722 0.955274 0.000000
-14.488864 -14.122203 -0.535675 1265 0.295722 0.955274 0.000000
-14.488757 -14.122107 -0.529446 1257 0.295722 0.955274 0.000000
-14.488940 -14.122275 -0.523234 1263 0.295722 0.955274 0.000000
-14.489101 -14.122439 -0.517022 1275 0.295722 0.955274 0.000000
-14.489325 -14.122654 -0.510820 1281 0.295722 0.955274 0.000000
-14.488802 -14.122151 -0.504585 1281 0.295722 0.955274 0.000000
-14.487807 -14.121181 -0.498324 1275 0.295722 0.955274 0.000000
-14.488391 -14.121745 -0.492129 1279 0.295722 0.955274 0.000000
-14.488975 -14.122309 -0.485933 1275 0.295722 0.955274 0.000000
-14.488868 -14.122213 -0.479714 1275 0.295722 0.955274 0.000000
-14.488441 -14.121801 -0.473488 1265 0.295722 0.955274 0.000000
-14.488969 -14.122306 -0.467282 1275 0.295722 0.955274 0.000000
-14.488965 -14.122308 -0.461062 1281 0.295722 0.955274 0.000000
-14.487594 -14.120976 -0.454805 1271 0.295722 0.955274 0.000000
-14.487228 -14.120616 -0.448579 1275 0.295722 0.955274 0.000000
-14.488063 -14.121424 -0.442390 1287 0.295722 0.955274 0.000000
-14.488678 -14.122027 -0.436194 1289 0.295722 0.955274 0.000000
-14.488462 -14.121816 -0.429966 1281 0.295722 0.955274 0.000000
-14.487711 -14.121085 -0.423733 1281 0.295722 0.955274 0.000000
-14.487284 -14.120674 -0.417507 1277 0.295722 0.955274 0.000000
-14.486902 -14.120300 -0.411281 1273 0.295722 0.955274 0.000000
-14.487147 -14.120533 -0.405068 1287 0.295722 0.955274 0.000000
-14.488078 -14.121448 -0.398879 1279 0.295722 0.955274 0.000000
-14.487744 -14.121125 -0.392652 1269 0.295722 0.955274 0.000000
-14.487158 -14.120543 -0.386428 1279 0.295722 0.955274 0.000000
-14.487546 -14.120934 -0.380224 1283 0.295722 0.955274 0.000000
-14.487473 -14.120864 -0.374004 1285 0.295722 0.955274 0.000000
-14.487083 -14.120484 -0.367778 1279 0.295722 0.955274 0.000000
-14.487266 -14.120652 -0.361566 1279 0.295722 0.955274 0.000000
-14.487716 -14.121094 -0.355362 1293 0.295722 0.955274 0.000000
-14.487476 -14.120862 -0.349144 1273 0.295722 0.955274 0.000000
-14.487448 -14.120831 -0.342924 1281 0.295722 0.955274 0.000000
-14.487679 -14.121065 -0.336722 1283 0.295722 0.955274 0.000000
-14.487752 -14.121130 -0.330511 1295 0.295722 0.955274 0.000000
-14.486986 -14.120388 -0.324278 1277 0.295722 0.955274 0.000000
-14.487108 -14.120507 -0.318067 1279 0.295722 0.955274 0.000000
-14.487691 -14.121082 -0.311861 1279 0.295722 0.955274 0.000000
-14.487874 -14.121251 -0.305649 1275 0.295722 0.955274 0.000000
-14.487737 -14.121118 -0.299430 1275 0.295722 0.955274 0.000000
-14.487167 -14.120563 -0.293205 1277 0.295722 0.955274 0.000000
-14.486605 -14.120015 -0.286981 1281 0.295722 0.955274 0.000000
-14.496659 -14.120815 -0.672649 1293 0.295722 0.955274 0.000000
-14.497542 -14.121676 -0.666461 1295 0.295722 0.955274 0.000000
-14.497694 -14.121819 -0.660249 1291 0.295722 0.955274 0.000000
-14.496615 -14.120781 -0.653979 1275 0.295722 0.955274 0.000000
-14.496664 -14.120827 -0.647759 1275 0.295722 0.955274 0.000000
-14.497169 -14.121312 -0.641564 1285 0.295722 0.955274 0.000000
-14.496311 -14.120481 -0.635302 1283 0.295722 0.955274 0.000000
-14.496243 -14.120416 -0.629082 1285 0.295722 0.955274 0.000000
-14.496952 -14.121110 -0.622885 1285 0.295722 0.955274 0.000000
-14.496829 -14.120988 -0.616666 1273 0.295722 0.955274 0.000000
-14.496496 -14.120667 -0.610429 1271 0.295722 0.955274 0.000000
-14.496523 -14.120693 -0.604209 1277 0.295722 0.955274 0.000000
-14.496345 -14.120513 -0.597981 1289 0.295722 0.955274 0.000000
-14.495894 -14.120082 -0.591745 1289 0.295722 0.955274 0.000000
-14.495495 -14.119695 -0.585508 1273 0.295722 0.955274 0.000000
-14.495577 -14.119766 -0.579287 1275 0.295722 0.955274 0.000000
-14.496170 -14.120350 -0.573092 1281 0.295722 0.955274 0.000000
-14.496408 -14.120576 -0.566879 1285 0.295722 0.955274 0.000000
-14.496213 -14.120383 -0.560651 1271 0.295722 0.955274 0.000000
-14.495864 -14.120049 -0.554424 1273 0.295722 0.955274 0.000000
-14.496196 -14.120366 -0.548221 1279 0.295722 0.955274 0.000000
-14.496310 -14.120491 -0.542000 1281 0.295722 0.955274 0.000000
-14.496016 -14.120201 -0.535772 1279 0.295722 0.955274 0.000000
-14.496239 -14.120417 -0.529560 1277 0.295722 0.955274 0.000000
-14.496194 -14.120372 -0.523340 1269 0.295722 0.955274 0.000000
-14.495373 -14.119571 -0.517088 1277 0.295722 0.955274 0.000000
-14.494169 -14.118404 -0.510829 1275 0.295722 0.955274 0.000000
-14.495379 -14.119574 -0.504658 1283 0.295722 0.955274 0.000000
-14.496638 -14.120810 -0.498485 1277 0.295722 0.955274 0.000000
-14.496179 -14.120358 -0.492250 1279 0.295722 0.955274 0.000000
-14.495868 -14.120055 -0.486022 1277 0.295722 0.955274 0.000000
-14.496279 -14.120464 -0.479818 1277 0.295722 0.955274 0.000000
-14.495662 -14.119858 -0.473574 1275 0.295722 0.955274 0.000000
-14.495813 -14.120000 -0.467363 1279 0.295722 0.955274 0.000000
-14.496227 -14.120410 -0.461158 1271 0.295722 0.955274 0.000000
-14.495177 -14.119383 -0.454908 1277 0.295722 0.955274 0.000000
-14.494859 -14.119074 -0.448681 1263 0.295722 0.955274 0.000000
-14.495426 -14.119624 -0.442476 1277 0.295722 0.955274 0.000000
-14.495470 -14.119678 -0.436265 1291 0.295722 0.955274 0.000000
-14.496092 -14.120273 -0.430069 1279 0.295722 0.955274 0.000000
-14.495656 -14.119854 -0.423833 1275 0.295722 0.955274 0.000000
-14.494442 -14.118666 -0.417584 1269 0.295722 0.955274 0.000000
-14.494641 -14.118861 -0.411372 1275 0.295722 0.955274 0.000000
-14.494575 -14.118798 -0.405153 1287 0.295722 0.955274 0.000000
-14.494342 -14.118573 -0.398935 1277 0.295722 0.955274 0.000000
-14.495217 -14.119428 -0.392736 1269 0.295722 0.955274 0.000000
-14.495252 -14.119461 -0.386526 1275 0.295722 0.955274 0.000000
-14.494447 -14.118674 -0.380284 1267 0.295722 0.955274 0.000000
-14.494678 -14.118909 -0.374071 1287 0.295722 0.955274 0.000000
-14.494287 -14.118527 -0.367845 1277 0.295722 0.955274 0.000000
-14.493483 -14.117741 -0.361612 1285 0.295722 0.955274 0.000000
-14.493408 -14.117671 -0.355393 1269 0.295722 0.955274 0.000000
-14.494579 -14.118809 -0.349212 1269 0.295722 0.955274 0.000000
-14.494349 -14.118585 -0.342984 1267 0.295722 0.955274 0.000000
-14.494053 -14.118295 -0.336766 1267 0.295722 0.955274 0.000000
-14.494903 -14.119129 -0.330568 1287 0.295722 0.955274 0.000000
-14.494710 -14.118937 -0.324350 1279 0.295722 0.955274 0.000000
-14.494260 -14.118505 -0.318124 1277 0.295722 0.955274 0.000000
-14.493923 -14.118170 -0.311897 1273 0.295722 0.955274 0.000000
-14.493826 -14.118081 -0.305688 1269 0.295722 0.955274 0.000000
-14.494520 -14.118762 -0.299481 1277 0.295722 0.955274 0.000000
-14.494115 -14.118368 -0.293265 1281 0.295722 0.955274 0.000000
-14.493443 -14.117702 -0.287031 1283 0.295722 0.955274 0.000000
-14.504639 -14.119949 -0.672817 1287 0.295722 0.955274 0.000000
-14.503530 -14.118872 -0.666547 1285 0.295722 0.955274 0.000000
-14.503838 -14.119170 -0.660334 1277 0.295722 0.955274 0.000000
-14.504822 -14.120129 -0.654155 1289 0.295722 0.955274 0.000000
-14.503814 -14.119147 -0.647884 1281 0.295722 0.955274 0.000000
-14.503267 -14.118625 -0.641639 1269 0.295722 0.955274 0.000000
-14.503411 -14.118761 -0.635428 1273 0.295722 0.955274 0.000000
-14.503124 -14.118478 -0.629190 1275 0.295722 0.955274 0.000000
-14.503000 -14.118356 -0.622961 1279 0.295722 0.955274 0.000000
-14.503035 -14.118389 -0.616741 1275 0.295722 0.955274 0.000000
-14.503165 -14.118527 -0.610529 1279 0.295722 0.955274 0.000000
-14.502933 -14.118302 -0.604302 1277 0.295722 0.955274 0.000000
-14.502803 -14.118175 -0.598073 1277 0.295722 0.955274 0.000000
-14.503778 -14.119112 -0.591893 1281 0.295722 0.955274 0.000000
-14.503695 -14.119036 -0.585664 1283 0.295722 0.955274 0.000000
-14.502930 -14.118294 -0.579411 1287 0.295722 0.955274 0.000000
-14.503583 -14.118928 -0.573215 1289 0.295722 0.955274 0.000000
-14.503336 -14.118690 -0.566987 1273 0.295722 0.955274 0.000000
-14.503097 -14.118460 -0.560759 1275 0.295722 0.955274 0.000000
-14.503585 -14.118932 -0.554554 1289 0.295722 0.955274 0.000000
-14.503653 -14.119005 -0.548333 1287 0.295722 0.955274 0.000000
-14.503458 -14.118812 -0.542105 1283 0.295722 0.955274 0.000000
-14.503007 -14.118367 -0.535869 1277 0.295722 0.955274 0.000000
-14.502861 -14.118226 -0.529651 1267 0.295722 0.955274 0.000000
-14.503179 -14.118545 -0.523437 1277 0.295722 0.955274 0.000000
-14.502514 -14.117899 -0.517193 1273 0.295722 0.955274 0.000000
-14.501842 -14.117235 -0.510950 1271 0.295722 0.955274 0.000000
-14.502316 -14.117695 -0.504745 1281 0.295722 0.955274 0.000000
-14.502376 -14.117761 -0.498534 1287 0.295722 0.955274 0.000000
-14.502488 -14.117872 -0.492313 1279 0.295722 0.955274 0.000000
-14.502758 -14.118124 -0.486111 1265 0.295722 0.955274 0.000000
-14.501858 -14.117260 -0.479859 1271 0.295722 0.955274 0.000000
-14.501382 -14.116795 -0.473623 1271 0.295722 0.955274 0.000000
-14.502225 -14.117611 -0.467435 1277 0.295722 0.955274 0.000000
-14.502956 -14.118322 -0.461238 1275 0.295722 0.955274 0.000000
-14.503212 -14.118576 -0.455025 1277 0.295722 0.955274 0.000000
-14.502785 -14.118164 -0.448789 1273 0.295722 0.955274 0.000000
-14.502362 -14.117744 -0.442563 1277 0.295722 0.955274 0.000000
-14.502509 -14.117896 -0.436352 1279 0.295722 0.955274 0.000000
-14.502661 -14.118038 -0.430130 1279 0.295722 0.955274 0.000000
-14.502232 -14.117626 -0.423904 1285 0.295722 0.955274 0.000000
-14.502165 -14.117563 -0.417684 1281 0.295722 0.955274 0.000000
-14.501994 -14.117389 -0.411456 1283 0.295722 0.955274 0.000000
-14.501135 -14.116556 -0.405224 1281 0.295722 0.955274 0.000000
-14.500918 -14.116344 -0.398996 1273 0.295722 0.955274 0.000000
-14.500734 -14.116172 -0.392778 1265 0.295722 0.955274 0.000000
-14.501239 -14.116656 -0.386573 1279 0.295722 0.955274 0.000000
-14.501641 -14.117044 -0.380359 1273 0.295722 0.955274 0.000000
-14.502351 -14.117738 -0.374162 1277 0.295722 0.955274 0.000000
-14.502386 -14.117772 -0.367951 1277 0.295722 0.955274 0.000000
-14.500945 -14.116370 -0.361695 1277 0.295722 0.955274 0.000000
-14.500133 -14.115578 -0.355462 1271 0.295722 0.955274 0.000000
-14.500841 -14.116270 -0.349256 1275 0.295722 0.955274 0.000000
-14.501802 -14.117208 -0.343066 1275 0.295722 0.955274 0.000000
-14.500730 -14.116162 -0.336826 1269 0.295722 0.955274 0.000000
-14.500381 -14.115828 -0.330599 1285 0.295722 0.955274 0.000000
-14.501128 -14.116551 -0.324402 1281 0.295722 0.955274 0.000000
-14.501407 -14.116825 -0.318189 1275 0.295722 0.955274 0.000000
-14.501213 -14.116645 -0.311971 1281 0.295722 0.955274 0.000000
-14.501077 -14.116511 -0.305752 1279 0.295722 0.955274 0.000000
-14.501189 -14.116623 -0.299531 1281 0.295722 0.955274 0.000000
-14.500313 -14.115764 -0.293299 1263 0.295722 0.955274 0.000000
-14.499806 -14.115274 -0.287074 1279 0.295722 0.955274 0.000000
-14.510887 -14.117412 -0.672911 1285 0.295722 0.955274 0.000000
-14.510514 -14.117044 -0.666664 1287 0.295722 0.955274 0.000000
-14.510556 -14.117085 -0.660444 1285 0.295722 0.955274 0.000000
-14.510441 -14.116968 -0.654215 1281 0.295722 0.955274 0.000000
-14.510946 -14.117468 -0.648020 1281 0.295722 0.955274 0.000000
-14.510934 -14.117450 -0.641790 1283 0.295722 0.955274 0.000000
-14.510442 -14.116972 -0.635544 1285 0.295722 0.955274 0.000000
-14.510218 -14.116755 -0.629316 1283 0.295722 0.955274 0.000000
-14.509836 -14.116381 -0.623080 1271 0.295722 0.955274 0.000000
-14.509912 -14.116460 -0.616859 1281 0.295722 0.955274 0.000000
-14.510102 -14.116648 -0.610637 1281 0.295722 0.955274 0.000000
-14.510545 -14.117083 -0.604443 1287 0.295722 0.955274 0.000000
-14.510108 -14.116650 -0.598197 1281 0.295722 0.955274 0.000000
-14.509760 -14.116317 -0.591960 1287 0.295722 0.955274 0.000000
-14.509636 -14.116194 -0.585731 1277 0.295722 0.955274 0.000000
-14.509288 -14.115860 -0.579494 1277 0.295722 0.955274 0.000000
-14.509312 -14.115871 -0.573274 1283 0.295722 0.955274 0.000000
-14.509693 -14.116256 -0.567070 1285 0.295722 0.955274 0.000000
-14.509399 -14.115966 -0.560833 1285 0.295722 0.955274 0.000000
-14.509730 -14.116284 -0.554629 1273 0.295722 0.955274 0.000000
-14.510323 -14.116867 -0.548433 1279 0.295722 0.955274 0.000000
-14.510395 -14.116932 -0.542213 1283 0.295722 0.955274 0.000000
-14.509936 -14.116495 -0.535977 1285 0.295722 0.955274 0.000000
-14.509790 -14.116354 -0.529748 1283 0.295722 0.955274 0.000000
-14.510224 -14.116768 -0.523544 1285 0.295722 0.955274 0.000000
-14.509238 -14.115805 -0.517283 1275 0.295722 0.955274 0.000000
-14.509133 -14.115710 -0.511064 1265 0.295722 0.955274 0.000000
-14.509825 -14.116376 -0.504867 1271 0.295722 0.955274 0.000000
-14.509571 -14.116133 -0.498630 1289 0.295722 0.955274 0.000000
-14.509831 -14.116391 -0.492427 1283 0.295722 0.955274 0.000000
-14.509937 -14.116497 -0.486206 1279 0.295722 0.955274 0.000000
-14.509785 -14.116349 -0.479977 1287 0.295722 0.955274 0.000000
-14.509630 -14.116189 -0.473758 1289 0.295722 0.955274 0.000000
-14.509415 -14.115991 -0.467530 1275 0.295722 0.955274 0.000000
-14.509675 -14.116236 -0.461318 1271 0.295722 0.955274 0.000000
-14.510197 -14.116748 -0.455112 1291 0.295722 0.955274 0.000000
-14.509611 -14.116180 -0.448878 1279 0.295722 0.955274 0.000000
-14.508502 -14.115104 -0.442618 1271 0.295722 0.955274 0.000000
-14.508503 -14.115098 -0.436398 1273 0.295722 0.955274 0.000000
-14.509009 -14.115597 -0.430193 1279 0.295722 0.955274 0.000000
-14.509631 -14.116191 -0.423997 1279 0.295722 0.955274 0.000000
-14.509251 -14.115831 -0.417771 1281 0.295722 0.955274 0.000000
-14.508877 -14.115464 -0.411534 1279 0.295722 0.955274 0.000000
-14.509272 -14.115847 -0.405330 1281 0.295722 0.955274 0.000000
-14.509518 -14.116093 -0.399118 1287 0.295722 0.955274 0.000000
-14.509035 -14.115623 -0.392882 1277 0.295722 0.955274 0.000000
-14.508279 -14.114888 -0.386649 1277 0.295722 0.955274 0.000000
-14.508625 -14.115217 -0.380436 1289 0.295722 0.955274 0.000000
-14.508919 -14.115503 -0.374223 1285 0.295722 0.955274 0.000000
-14.508634 -14.115234 -0.367995 1281 0.295722 0.955274 0.000000
-14.508502 -14.115106 -0.361776 1291 0.295722 0.955274 0.000000
-14.508324 -14.114925 -0.355558 1279 0.295722 0.955274 0.000000
-14.508133 -14.114746 -0.349330 1271 0.295722 0.955274 0.000000
-14.508684 -14.115283 -0.343124 1283 0.295722 0.955274 0.000000
-14.509386 -14.115970 -0.336927 1281 0.295722 0.955274 0.000000
-14.508518 -14.115118 -0.330686 1275 0.295722 0.955274 0.000000
-14.507542 -14.114177 -0.324445 1283 0.295722 0.955274 0.000000
-14.508241 -14.114848 -0.318248 1289 0.295722 0.955274 0.000000
-14.508410 -14.115018 -0.312036 1289 0.295722 0.955274 0.000000
-14.508319 -14.114936 -0.305817 1277 0.295722 0.955274 0.000000
-14.508126 -14.114743 -0.299589 1281 0.295722 0.955274 0.000000
-14.508514 -14.115119 -0.293385 1293 0.295722 0.955274 0.000000
-14.508416 -14.115030 -0.287165 1285 0.295722 0.955274 0.000000
-14.517629 -14.114996 -0.673022 1283 0.295722 0.955274 0.000000
-14.517987 -14.115348 -0.666809 1285 0.295722 0.955274 0.000000
-14.517236 -14.114618 -0.660546 1289 0.295722 0.955274 0.000000
-14.517013 -14.114400 -0.654318 1285 0.295722 0.955274 0.000000
-14.517102 -14.114492 -0.648097 1289 0.295722 0.955274 0.000000
-14.517088 -14.114473 -0.641867 1285 0.295722 0.955274 0.000000
-14.517648 -14.115017 -0.635671 1283 0.295722 0.955274 0.000000
-14.517887 -14.115257 -0.629459 1289 0.295722 0.955274 0.000000
-14.517718 -14.115085 -0.623220 1287 0.295722 0.955274 0.000000
-14.517322 -14.114711 -0.616984 1267 0.295722 0.955274 0.000000
-14.517097 -14.114493 -0.610746 1289 0.295722 0.955274 0.000000
-14.516605 -14.114001 -0.604510 1289 0.295722 0.955274 0.000000
-14.517048 -14.114435 -0.598296 1285 0.295722 0.955274 0.000000
-14.516973 -14.114367 -0.592077 1293 0.295722 0.955274 0.000000
-14.516786 -14.114179 -0.585848 1283 0.295722 0.955274 0.000000
-14.517229 -14.114613 -0.579634 1277 0.295722 0.955274 0.000000
-14.517037 -14.114434 -0.573406 1275 0.295722 0.955274 0.000000
-14.517063 -14.114448 -0.567185 1289 0.295722 0.955274 0.000000
-14.516768 -14.114172 -0.560948 1291 0.295722 0.955274 0.000000
-14.516890 -14.114289 -0.554736 1285 0.295722 0.955274 0.000000
-14.516697 -14.114097 -0.548508 1277 0.295722 0.955274 0.000000
-14.515814 -14.113245 -0.542246 1277 0.295722 0.955274 0.000000
-14.516302 -14.113717 -0.536042 1283 0.295722 0.955274 0.000000
-14.516990 -14.114391 -0.529845 1273 0.295722 0.955274 0.000000
-14.516747 -14.114145 -0.523617 1275 0.295722 0.955274 0.000000
-14.516383 -14.113798 -0.517380 1283 0.295722 0.955274 0.000000
-14.516292 -14.113703 -0.511161 1277 0.295722 0.955274 0.000000
-14.516507 -14.113924 -0.504939 1287 0.295722 0.955274 0.000000
-14.517145 -14.114532 -0.498743 1287 0.295722 0.955274 0.000000
-14.517407 -14.114792 -0.492530 1303 0.295722 0.955274 0.000000
-14.516995 -14.114392 -0.486294 1283 0.295722 0.955274 0.000000
-14.516519 -14.113929 -0.480058 1265 0.295722 0.955274 0.000000
-14.516891 -14.114290 -0.473845 1283 0.295722 0.955274 0.000000
-14.516784 -14.114182 -0.467625 1283 0.295722 0.955274 0.000000
-14.516253 -14.113673 -0.461390 1279 0.295722 0.955274 0.000000
-14.516146 -14.113564 -0.455161 1271 0.295722 0.955274 0.000000
-14.516511 -14.113921 -0.448948 1277 0.295722 0.955274 0.000000
-14.516561 -14.113967 -0.442737 1275 0.295722 0.955274 0.000000
-14.516385 -14.113802 -0.436508 1281 0.295722 0.955274 0.000000
-14.516434 -14.113847 -0.430288 1303 0.295722 0.955274 0.000000
-14.516156 -14.113585 -0.424060 1281 0.295722 0.955274 0.000000
-14.516347 -14.113772 -0.417848 1287 0.295722 0.955274 0.000000
-14.516342 -14.113760 -0.411628 1287 0.295722 0.955274 0.000000
-14.516212 -14.113632 -0.405399 1273 0.295722 0.955274 0.000000
-14.515682 -14.113124 -0.399164 1275 0.295722 0.955274 0.000000
-14.514925 -14.112389 -0.392921 1281 0.295722 0.955274 0.000000
-14.514801 -14.112266 -0.386702 1281 0.295722 0.955274 0.000000
-14.515315 -14.112758 -0.380497 1275 0.295722 0.955274 0.000000
-14.515758 -14.113194 -0.374293 1287 0.295722 0.955274 0.000000
-14.515574 -14.113020 -0.368065 1281 0.295722 0.955274 0.000000
-14.515393 -14.112838 -0.361836 1287 0.295722 0.955274 0.000000
-14.515209 -14.112665 -0.355618 1287 0.295722 0.955274 0.000000
-14.515127 -14.112591 -0.349398 1279 0.295722 0.955274 0.000000
-14.515317 -14.112764 -0.343176 1283 0.295722 0.955274 0.000000
-14.515337 -14.112786 -0.336966 1271 0.295722 0.955274 0.000000
-14.515621 -14.113064 -0.330753 1277 0.295722 0.955274 0.000000
-14.515374 -14.112826 -0.324525 1281 0.295722 0.955274 0.000000
-14.515079 -14.112537 -0.318298 1281 0.295722 0.955274 0.000000
-14.514832 -14.112300 -0.312080 1271 0.295722 0.955274 0.000000
-14.514537 -14.112010 -0.305853 1273 0.295722 0.955274 0.000000
-14.513975 -14.111462 -0.299618 1287 0.295722 0.955274 0.000000
-14.514668 -14.112142 -0.293421 1285 0.295722 0.955274 0.000000
-14.515880 -14.113325 -0.287220 1287 0.295722 0.955274 0.000000
-14.525095 -14.113294 -0.673156 1291 0.295722 0.955274 0.000000
-14.525138 -14.113334 -0.666936 1293 0.295722 0.955274 0.000000
-14.524286 -14.112508 -0.660674 1295 0.295722 0.955274 0.000000
-14.524123 -14.112340 -0.654435 1293 0.295722 0.955274 0.000000
-14.524371 -14.112588 -0.648223 1293 0.295722 0.955274 0.000000
-14.524357 -14.112567 -0.641993 1289 0.295722 0.955274 0.000000
-14.524282 -14.112498 -0.635763 1283 0.295722 0.955274 0.000000
-14.524473 -14.112686 -0.629551 1295 0.295722 0.955274 0.000000
-14.524712 -14.112914 -0.623339 1295 0.295722 0.955274 0.000000
-14.524534 -14.112747 -0.617101 1281 0.295722 0.955274 0.000000
-14.523988 -14.112212 -0.610856 1271 0.295722 0.955274 0.000000
-14.523544 -14.111787 -0.604610 1283 0.295722 0.955274 0.000000
-14.523155 -14.111407 -0.598373 1275 0.295722 0.955274 0.000000
-14.523293 -14.111538 -0.592152 1287 0.295722 0.955274 0.000000
-14.523788 -14.112016 -0.585947 1281 0.295722 0.955274 0.000000
-14.524122 -14.112348 -0.579734 1285 0.295722 0.955274 0.000000
-14.523883 -14.112117 -0.573506 1283 0.295722 0.955274 0.000000
-14.523901 -14.112137 -0.567275 1293 0.295722 0.955274 0.000000
-14.523293 -14.111537 -0.561031 1293 0.295722 0.955274 0.000000
-14.523366 -14.111615 -0.554810 1279 0.295722 0.955274 0.000000
-14.523644 -14.111889 -0.548597 1285 0.295722 0.955274 0.000000
-14.523073 -14.111334 -0.542353 1275 0.295722 0.955274 0.000000
-14.522669 -14.110941 -0.536116 1277 0.295722 0.955274 0.000000
-14.523307 -14.111562 -0.529920 1277 0.295722 0.955274 0.000000
-14.523640 -14.111880 -0.523707 1279 0.295722 0.955274 0.000000
-14.523651 -14.111895 -0.517487 1277 0.295722 0.955274 0.000000
-14.523757 -14.112000 -0.511265 1277 0.295722 0.955274 0.000000
-14.523085 -14.111347 -0.505022 1287 0.295722 0.955274 0.000000
-14.523464 -14.111704 -0.498808 1289 0.295722 0.955274 0.000000
-14.523726 -14.111963 -0.492595 1299 0.295722 0.955274 0.000000
-14.523156 -14.111407 -0.486351 1285 0.295722 0.955274 0.000000
-14.523310 -14.111565 -0.480139 1285 0.295722 0.955274 0.000000
-14.523210 -14.111462 -0.473910 1281 0.295722 0.955274 0.000000
-14.522790 -14.111056 -0.467674 1279 0.295722 0.955274 0.000000
-14.522888 -14.111156 -0.461452 1283 0.295722 0.955274 0.000000
-14.523087 -14.111349 -0.455240 1285 0.295722 0.955274 0.000000
-14.522831 -14.111093 -0.449013 1281 0.295722 0.955274 0.000000
-14.522772 -14.111035 -0.442783 1277 0.295722 0.955274 0.000000
-14.523018 -14.111282 -0.436571 1273 0.295722 0.955274 0.000000
-14.523429 -14.111677 -0.430367 1275 0.295722 0.955274 0.000000
-14.523369 -14.111620 -0.424137 1293 0.295722 0.955274 0.000000
-14.522986 -14.111246 -0.417911 1289 0.295722 0.955274 0.000000
-14.522660 -14.110931 -0.411673 1279 0.295722 0.955274 0.000000
-14.522326 -14.110610 -0.405446 1273 0.295722 0.955274 0.000000
-14.522260 -14.110547 -0.399227 1273 0.295722 0.955274 0.000000
-14.522505 -14.110780 -0.393015 1275 0.295722 0.955274 0.000000
-14.522539 -14.110813 -0.386794 1277 0.295722 0.955274 0.000000
-14.522254 -14.110544 -0.380567 1281 0.295722 0.955274 0.000000
-14.522075 -14.110363 -0.374338 1275 0.295722 0.955274 0.000000
-14.522157 -14.110449 -0.368117 1275 0.295722 0.955274 0.000000
-14.522286 -14.110573 -0.361906 1281 0.295722 0.955274 0.000000
-14.522360 -14.110652 -0.355685 1271 0.295722 0.955274 0.000000
-14.522033 -14.110323 -0.349458 1275 0.295722 0.955274 0.000000
-14.521637 -14.109937 -0.343232 1269 0.295722 0.955274 0.000000
-14.521970 -14.110268 -0.337018 1273 0.295722 0.955274 0.000000
-14.522200 -14.110488 -0.330796 1281 0.295722 0.955274 0.000000
-14.522430 -14.110709 -0.324584 1291 0.295722 0.955274 0.000000
-14.521713 -14.110020 -0.318350 1279 0.295722 0.955274 0.000000
-14.521833 -14.110137 -0.312129 1281 0.295722 0.955274 0.000000
-14.523005 -14.111275 -0.305938 1291 0.295722 0.955274 0.000000
-14.523228 -14.111489 -0.299725 1295 0.295722 0.955274 0.000000
-14.522345 -14.110638 -0.293484 1277 0.295722 0.955274 0.000000
-14.521884 -14.110186 -0.287258 1281 0.295722 0.955274 0.000000
-14.531754 -14.110951 -0.673268 1293 0.295722 0.955274 0.000000
-14.532102 -14.111296 -0.667054 1305 0.295722 0.955274 0.000000
-14.531627 -14.110830 -0.660809 1297 0.295722 0.955274 0.000000
-14.531141 -14.110359 -0.654553 1285 0.295722 0.955274 0.000000
-14.530487 -14.109735 -0.648299 1283 0.295722 0.955274 0.000000
-14.530325 -14.109568 -0.642070 1279 0.295722 0.955274 0.000000
-14.530925 -14.110157 -0.635865 1275 0.295722 0.955274 0.000000
-14.531076 -14.110299 -0.629643 1285 0.295722 0.955274 0.000000
-14.531528 -14.110741 -0.623439 1289 0.295722 0.955274 0.000000
-14.530879 -14.110108 -0.617185 1291 0.295722 0.955274 0.000000
-14.530851 -14.110091 -0.610965 1287 0.295722 0.955274 0.000000
-14.530886 -14.110125 -0.604734 1281 0.295722 0.955274 0.000000
-14.530435 -14.109679 -0.598488 1293 0.295722 0.955274 0.000000
-14.530570 -14.109809 -0.592267 1283 0.295722 0.955274 0.000000
-14.529905 -14.109164 -0.586023 1277 0.295722 0.955274 0.000000
-14.530097 -14.109352 -0.579801 1281 0.295722 0.955274 0.000000
-14.531318 -14.110544 -0.573629 1289 0.295722 0.955274 0.000000
-14.531439 -14.110662 -0.567408 1291 0.295722 0.955274 0.000000
-14.530467 -14.109711 -0.561147 1279 0.295722 0.955274 0.000000
-14.530118 -14.109376 -0.554900 1271 0.295722 0.955274 0.000000
-14.530607 -14.109849 -0.548696 1279 0.295722 0.955274 0.000000
-14.530251 -14.109509 -0.542459 1277 0.295722 0.955274 0.000000
-14.530010 -14.109263 -0.536231 1285 0.295722 0.955274 0.000000
-14.530444 -14.109691 -0.530017 1283 0.295722 0.955274 0.000000
-14.530079 -14.109344 -0.523780 1277 0.295722 0.955274 0.000000
-14.529620 -14.108893 -0.517544 1277 0.295722 0.955274 0.000000
-14.529466 -14.108745 -0.511316 1277 0.295722 0.955274 0.000000
-14.529634 -14.108901 -0.505094 1275 0.295722 0.955274 0.000000
-14.529746 -14.109013 -0.498873 1283 0.295722 0.955274 0.000000
-14.529531 -14.108814 -0.492644 1281 0.295722 0.955274 0.000000
-14.529752 -14.109028 -0.486432 1279 0.295722 0.955274 0.000000
-14.530124 -14.109378 -0.480219 1281 0.295722 0.955274 0.000000
-14.530120 -14.109379 -0.473998 1285 0.295722 0.955274 0.000000
-14.529330 -14.108618 -0.467746 1279 0.295722 0.955274 0.000000
-14.529222 -14.108509 -0.461517 1277 0.295722 0.955274 0.000000
-14.530167 -14.109421 -0.455328 1285 0.295722 0.955274 0.000000
-14.530006 -14.109267 -0.449099 1285 0.295722 0.955274 0.000000
-14.529469 -14.108752 -0.442864 1279 0.295722 0.955274 0.000000
-14.529566 -14.108850 -0.436643 1279 0.295722 0.955274 0.000000
-14.529451 -14.108735 -0.430414 1281 0.295722 0.955274 0.000000
-14.530074 -14.109344 -0.424208 1283 0.295722 0.955274 0.000000
-14.530688 -14.109932 -0.418002 1285 0.295722 0.955274 0.000000
-14.530103 -14.109365 -0.411767 1273 0.295722 0.955274 0.000000
-14.529762 -14.109037 -0.405540 1273 0.295722 0.955274 0.000000
-14.530015 -14.109276 -0.399318 1279 0.295722 0.955274 0.000000
-14.529895 -14.109169 -0.393099 1273 0.295722 0.955274 0.000000
-14.528979 -14.108278 -0.386847 1269 0.295722 0.955274 0.000000
-14.529224 -14.108511 -0.380635 1281 0.295722 0.955274 0.000000
-14.529415 -14.108699 -0.374413 1279 0.295722 0.955274 0.000000
-14.528548 -14.107861 -0.368171 1271 0.295722 0.955274 0.000000
-14.528678 -14.107985 -0.361960 1279 0.295722 0.955274 0.000000
-14.529496 -14.108780 -0.355752 1277 0.295722 0.955274 0.000000
-14.529208 -14.108497 -0.349524 1277 0.295722 0.955274 0.000000
-14.529126 -14.108421 -0.343305 1287 0.295722 0.955274 0.000000
-14.528777 -14.108087 -0.337078 1281 0.295722 0.955274 0.000000
-14.528796 -14.108108 -0.330858 1273 0.295722 0.955274 0.000000
-14.529811 -14.109090 -0.324658 1281 0.295722 0.955274 0.000000
-14.529782 -14.109058 -0.318438 1285 0.295722 0.955274 0.000000
-14.529582 -14.108873 -0.312210 1289 0.295722 0.955274 0.000000
-14.529608 -14.108887 -0.305989 1287 0.295722 0.955274 0.000000
-14.529142 -14.108443 -0.299754 1287 0.295722 0.955274 0.000000
-14.528791 -14.108095 -0.293527 1297 0.295722 0.955274 0.000000
-14.528535 -14.107850 -0.287299 1285 0.295722 0.955274 0.000000
-14.539109 -14.109143 -0.673403 1283 0.295722 0.955274 0.000000
-14.539151 -14.109182 -0.667172 1287 0.295722 0.955274 0.000000
-14.538667 -14.108713 -0.660927 1291 0.295722 0.955274 0.000000
-14.539023 -14.109063 -0.654713 1287 0.295722 0.955274 0.000000
-14.539378 -14.109399 -0.648500 1289 0.295722 0.955274 0.000000
-14.539420 -14.109439 -0.642269 1285 0.295722 0.955274 0.000000
-14.539298 -14.109317 -0.636040 1285 0.295722 0.955274 0.000000
-14.539065 -14.109092 -0.629802 1285 0.295722 0.955274 0.000000
-14.538788 -14.108829 -0.623565 1283 0.295722 0.955274 0.000000
-14.538924 -14.108960 -0.617343 1287 0.295722 0.955274 0.000000
-14.539108 -14.109142 -0.611121 1289 0.295722 0.955274 0.000000
-14.538876 -14.108916 -0.604884 1289 0.295722 0.955274 0.000000
-14.538855 -14.108891 -0.598654 1289 0.295722 0.955274 0.000000
-14.538819 -14.108868 -0.592424 1291 0.295722 0.955274 0.000000
-14.538162 -14.108229 -0.586180 1287 0.295722 0.955274 0.000000
-14.538244 -14.108300 -0.579949 1277 0.295722 0.955274 0.000000
-14.538577 -14.108631 -0.573736 1285 0.295722 0.955274 0.000000
-14.538076 -14.108134 -0.567490 1293 0.295722 0.955274 0.000000
-14.538253 -14.108310 -0.561268 1291 0.295722 0.955274 0.000000
-14.538374 -14.108427 -0.555047 1293 0.295722 0.955274 0.000000
-14.538078 -14.108137 -0.548810 1277 0.295722 0.955274 0.000000
-14.537675 -14.107745 -0.542574 1277 0.295722 0.955274 0.000000
-14.536901 -14.106997 -0.536321 1273 0.295722 0.955274 0.000000
-14.536865 -14.106960 -0.530091 1283 0.295722 0.955274 0.000000
-14.537024 -14.107122 -0.523869 1281 0.295722 0.955274 0.000000
-14.537664 -14.107744 -0.517673 1281 0.295722 0.955274 0.000000
-14.538146 -14.108211 -0.511468 1275 0.295722 0.955274 0.000000
-14.537732 -14.107811 -0.505222 1279 0.295722 0.955274 0.000000
-14.537586 -14.107670 -0.498993 1283 0.295722 0.955274 0.000000
-14.537793 -14.107871 -0.492781 1285 0.295722 0.955274 0.000000
-14.537851 -14.107924 -0.486551 1293 0.295722 0.955274 0.000000
-14.537533 -14.107615 -0.480313 1283 0.295722 0.955274 0.000000
-14.537795 -14.107875 -0.474101 1283 0.295722 0.955274 0.000000
-14.538417 -14.108469 -0.467895 1287 0.295722 0.955274 0.000000
-14.538476 -14.108536 -0.461674 1285 0.295722 0.955274 0.000000
-14.537789 -14.107872 -0.455430 1281 0.295722 0.955274 0.000000
-14.537001 -14.107098 -0.449178 1285 0.295722 0.955274 0.000000
-14.537049 -14.107142 -0.442957 1277 0.295722 0.955274 0.000000
-14.537713 -14.107798 -0.436751 1275 0.295722 0.955274 0.000000
-14.537292 -14.107377 -0.430515 1281 0.295722 0.955274 0.000000
-14.537067 -14.107173 -0.424286 1291 0.295722 0.955274 0.000000
-14.537164 -14.107258 -0.418065 1285 0.295722 0.955274 0.000000
-14.536941 -14.107039 -0.411837 1279 0.295722 0.955274 0.000000
-14.536394 -14.106518 -0.405602 1269 0.295722 0.955274 0.000000
-14.536696 -14.106811 -0.399379 1271 0.295722 0.955274 0.000000
-14.537468 -14.107553 -0.393182 1281 0.295722 0.955274 0.000000
-14.536609 -14.106722 -0.386940 1265 0.295722 0.955274 0.000000
-14.535960 -14.106090 -0.380696 1273 0.295722 0.955274 0.000000
-14.535728 -14.105865 -0.374468 1277 0.295722 0.955274 0.000000
-14.535495 -14.105639 -0.368240 1275 0.295722 0.955274 0.000000
-14.535460 -14.105616 -0.362020 1281 0.295722 0.955274 0.000000
-14.536224 -14.106353 -0.355813 1285 0.295722 0.955274 0.000000
-14.537096 -14.107193 -0.349614 1287 0.295722 0.955274 0.000000
-14.537062 -14.107169 -0.343385 1283 0.295722 0.955274 0.000000
-14.536924 -14.107036 -0.337166 1273 0.295722 0.955274 0.000000
-14.536478 -14.106595 -0.330930 1277 0.295722 0.955274 0.000000
-14.536081 -14.106210 -0.324694 1277 0.295722 0.955274 0.000000
-14.535890 -14.106031 -0.318475 1273 0.295722 0.955274 0.000000
-14.535962 -14.106095 -0.312254 1287 0.295722 0.955274 0.000000
-14.536443 -14.106562 -0.306040 1297 0.295722 0.955274 0.000000
-14.536408 -14.106538 -0.299820 1291 0.295722 0.955274 0.000000
-14.536255 -14.106391 -0.293591 1287 0.295722 0.955274 0.000000
-14.535646 -14.105790 -0.287357 1283 0.295722 0.955274 0.000000
-14.545650 -14.106187 -0.673488 1283 0.295722 0.955274 0.000000
-14.545684 -14.106220 -0.667267 1285 0.295722 0.955274 0.000000
-14.546259 -14.106776 -0.661062 1285 0.295722 0.955274 0.000000
-14.546191 -14.106713 -0.654832 1283 0.295722 0.955274 0.000000
-14.546501 -14.107012 -0.648609 1289 0.295722 0.955274 0.000000
-14.546111 -14.106631 -0.642363 1291 0.295722 0.955274 0.000000
-14.545628 -14.106161 -0.636117 1301 0.295722 0.955274 0.000000
-14.545970 -14.106499 -0.629904 1289 0.295722 0.955274 0.000000
-14.546215 -14.106731 -0.623681 1283 0.295722 0.955274 0.000000
-14.545818 -14.106359 -0.617445 1283 0.295722 0.955274 0.000000
-14.545280 -14.105830 -0.611190 1285 0.295722 0.955274 0.000000
-14.545000 -14.105552 -0.604952 1277 0.295722 0.955274 0.000000
-14.545333 -14.105883 -0.598739 1281 0.295722 0.955274 0.000000
-14.545360 -14.105910 -0.592509 1287 0.295722 0.955274 0.000000
-14.545278 -14.105835 -0.586279 1291 0.295722 0.955274 0.000000
-14.545516 -14.106062 -0.580057 1275 0.295722 0.955274 0.000000
-14.544900 -14.105469 -0.573812 1277 0.295722 0.955274 0.000000
-14.544770 -14.105341 -0.567574 1281 0.295722 0.955274 0.000000
-14.545469 -14.106012 -0.561377 1281 0.295722 0.955274 0.000000
-14.545340 -14.105885 -0.555138 1279 0.295722 0.955274 0.000000
-14.545508 -14.106055 -0.548926 1275 0.295722 0.955274 0.000000
-14.545629 -14.106173 -0.542695 1279 0.295722 0.955274 0.000000
-14.545270 -14.105818 -0.536458 1271 0.295722 0.955274 0.000000
-14.545438 -14.105987 -0.530236 1271 0.295722 0.955274 0.000000
-14.545613 -14.106162 -0.524015 1285 0.295722 0.955274 0.000000
-14.545774 -14.106313 -0.517803 1281 0.295722 0.955274 0.000000
-14.545887 -14.106423 -0.511572 1277 0.295722 0.955274 0.000000
-14.545530 -14.106083 -0.505335 1277 0.295722 0.955274 0.000000
-14.545430 -14.105979 -0.499106 1281 0.295722 0.955274 0.000000
-14.545588 -14.106128 -0.492884 1281 0.295722 0.955274 0.000000
-14.545335 -14.105885 -0.486646 1271 0.295722 0.955274 0.000000
-14.545072 -14.105634 -0.480419 1281 0.295722 0.955274 0.000000
-14.545230 -14.105783 -0.474197 1281 0.295722 0.955274 0.000000
-14.544857 -14.105430 -0.467960 1279 0.295722 0.955274 0.000000
-14.544123 -14.104713 -0.461707 1275 0.295722 0.955274 0.000000
-14.544064 -14.104656 -0.455478 1279 0.295722 0.955274 0.000000
-14.544906 -14.105472 -0.449280 1273 0.295722 0.955274 0.000000
-14.544948 -14.105511 -0.443059 1273 0.295722 0.955274 0.000000
-14.543995 -14.104589 -0.436808 1279 0.295722 0.955274 0.000000
-14.543142 -14.103764 -0.430556 1273 0.295722 0.955274 0.000000
-14.543712 -14.104314 -0.424350 1277 0.295722 0.955274 0.000000
-14.544121 -14.104708 -0.418136 1279 0.295722 0.955274 0.000000
-14.543944 -14.104542 -0.411908 1281 0.295722 0.955274 0.000000
-14.544144 -14.104737 -0.405686 1267 0.295722 0.955274 0.000000
-14.543960 -14.104565 -0.399457 1283 0.295722 0.955274 0.000000
-14.543906 -14.104499 -0.393228 1281 0.295722 0.955274 0.000000
-14.544404 -14.104993 -0.387023 1279 0.295722 0.955274 0.000000
-14.544281 -14.104870 -0.380794 1279 0.295722 0.955274 0.000000
-14.544621 -14.105194 -0.374581 1277 0.295722 0.955274 0.000000
-14.544335 -14.104924 -0.368343 1271 0.295722 0.955274 0.000000
-14.543365 -14.103989 -0.362102 1277 0.295722 0.955274 0.000000
-14.543126 -14.103758 -0.355874 1267 0.295722 0.955274 0.000000
-14.543779 -14.104392 -0.349668 1281 0.295722 0.955274 0.000000
-14.543861 -14.104464 -0.343437 1277 0.295722 0.955274 0.000000
-14.543629 -14.104239 -0.337209 1281 0.295722 0.955274 0.000000
-14.543907 -14.104512 -0.330996 1279 0.295722 0.955274 0.000000
-14.543980 -14.104577 -0.324775 1281 0.295722 0.955274 0.000000
-14.543419 -14.104042 -0.318541 1271 0.295722 0.955274 0.000000
-14.543602 -14.104211 -0.312319 1281 0.295722 0.955274 0.000000
-14.543763 -14.104375 -0.306097 1295 0.295722 0.955274 0.000000
-14.543836 -14.104439 -0.299876 1287 0.295722 0.955274 0.000000
-14.543799 -14.104402 -0.293656 1285 0.295722 0.955274 0.000000
-14.543489 -14.104100 -0.287429 1291 0.295722 0.955274 0.000000
