372
-14.699203 -14.058793 -0.663445 593 -0.233320 0.972400 0.000000
-14.700029 -14.059596 -0.657227 589 -0.233320 0.972400 0.000000
-14.699429 -14.059016 -0.650952 607 -0.233320 0.972400 0.000000
-14.698522 -14.058146 -0.644661 601 -0.233320 0.972400 0.000000
-14.698774 -14.058387 -0.638418 591 -0.233320 0.972400 0.000000
-14.699805 -14.059381 -0.632208 595 -0.233320 0.972400 0.000000
-14.699832 -14.059408 -0.625958 595 -0.233320 0.972400 0.000000
-14.698807 -14.058429 -0.619657 601 -0.233320 0.972400 0.000000
-14.698575 -14.058206 -0.613400 581 -0.233320 0.972400 0.000000
-14.698239 -14.057883 -0.607132 567 -0.233320 0.972400 0.000000
-14.698423 -14.058066 -0.600891 569 -0.233320 0.972400 0.000000
-14.698184 -14.057836 -0.594633 585 -0.233320 0.972400 0.000000
-14.698210 -14.057862 -0.588382 575 -0.233320 0.972400 0.000000
-14.697498 -14.057179 -0.582099 571 -0.233320 0.972400 0.000000
-14.697311 -14.056993 -0.575841 573 -0.233320 0.972400 0.000000
-14.698657 -14.058284 -0.569648 583 -0.233320 0.972400 0.000000
-14.698455 -14.058098 -0.563389 593 -0.233320 0.972400 0.000000
-14.697847 -14.057513 -0.557115 595 -0.233320 0.972400 0.000000
-14.698178 -14.057831 -0.550872 585 -0.233320 0.972400 0.000000
-14.697929 -14.057592 -0.544614 589 -0.233320 0.972400 0.000000
-14.696779 -14.056484 -0.538325 587 -0.233320 0.972400 0.000000
-14.697802 -14.057472 -0.532105 601 -0.233320 0.972400 0.000000
-14.698338 -14.057982 -0.525880 595 -0.233320 0.972400 0.000000
-14.697501 -14.057185 -0.519597 599 -0.233320 0.972400 0.000000
-14.697778 -14.057443 -0.513355 615 -0.233320 0.972400 0.000000
-14.697843 -14.057503 -0.507114 595 -0.233320 0.972400 0.000000
-14.697157 -14.056853 -0.500840 593 -0.233320 0.972400 0.000000
-14.697630 -14.057313 -0.494606 591 -0.233320 0.972400 0.000000
-14.697742 -14.057408 -0.488354 601 -0.233320 0.972400 0.000000
-14.696585 -14.056309 -0.482065 589 -0.233320 0.972400 0.000000
-14.697905 -14.057567 -0.475863 589 -0.233320 0.972400 0.000000
-14.698753 -14.058387 -0.469644 595 -0.233320 0.972400 0.000000
-14.696311 -14.056048 -0.463317 591 -0.233320 0.972400 0.000000
-14.695199 -14.054985 -0.457028 607 -0.233320 0.972400 0.000000
-14.696465 -14.056200 -0.450826 593 -0.233320 0.972400 0.000000
-14.697565 -14.057251 -0.444605 583 -0.233320 0.972400 0.000000
-14.697294 -14.056994 -0.438347 595 -0.233320 0.972400 0.000000
-14.696330 -14.056067 -0.432076 611 -0.233320 0.972400 0.000000
-14.697119 -14.056823 -0.425849 595 -0.233320 0.972400 0.000000
-14.697051 -14.056760 -0.419599 599 -0.233320 0.972400 0.000000
-14.695823 -14.055588 -0.413321 573 -0.233320 0.972400 0.000000
-14.696075 -14.055827 -0.407078 561 -0.233320 0.972400 0.000000
-14.696792 -14.056511 -0.400851 575 -0.233320 0.972400 0.000000
-14.696835 -14.056551 -0.394601 587 -0.233320 0.972400 0.000000
-14.695762 -14.055521 -0.388331 565 -0.233320 0.972400 0.000000
-14.696047 -14.055799 -0.382088 581 -0.233320 0.972400 0.000000
-14.696608 -14.056343 -0.375852 591 -0.233320 0.972400 0.000000
-14.696060 -14.055808 -0.369588 599 -0.233320 0.972400 0.000000
-14.696033 -14.055791 -0.363348 587 -0.233320 0.972400 0.000000
-14.697281 -14.056977 -0.357126 581 -0.233320 0.972400 0.000000
-14.697087 -14.056798 -0.350877 575 -0.233320 0.972400 0.000000
-14.696275 -14.056019 -0.344605 579 -0.233320 0.972400 0.000000
-14.696874 -14.056594 -0.338379 579 -0.233320 0.972400 0.000000
-14.696792 -14.056519 -0.332130 539 -0.233320 0.972400 0.000000
-14.696126 -14.055874 -0.325866 521 -0.233320 0.972400 0.000000
-14.696827 -14.056547 -0.319639 561 -0.233320 0.972400 0.000000
-14.697003 -14.056723 -0.313387 559 -0.233320 0.972400 0.000000
-14.695908 -14.055673 -0.307117 539 -0.233320 0.972400 0.000000
-14.696185 -14.055944 -0.300885 531 -0.233320 0.972400 0.000000
-14.696996 -14.056720 -0.294647 551 -0.233320 0.972400 0.000000
-14.697320 -14.057031 -0.288414 531 -0.233320 0.972400 0.000000
-14.697642 -14.057340 -0.282170 537 -0.233320 0.972400 0.000000
-14.711700 -14.062333 -0.663819 599 -0.233320 0.972400 0.000000
-14.711851 -14.062475 -0.657577 601 -0.233320 0.972400 0.000000
-14.711360 -14.062000 -0.651292 601 -0.233320 0.972400 0.000000
-14.711551 -14.062188 -0.645050 597 -0.233320 0.972400 0.000000
-14.710117 -14.060809 -0.638733 579 -0.233320 0.972400 0.000000
-14.709832 -14.060540 -0.632466 569 -0.233320 0.972400 0.000000
-14.711654 -14.062288 -0.626288 577 -0.233320 0.972400 0.000000
-14.711428 -14.062070 -0.620020 571 -0.233320 0.972400 0.000000
-14.711565 -14.062200 -0.613769 577 -0.233320 0.972400 0.000000
-14.712021 -14.062633 -0.607534 577 -0.233320 0.972400 0.000000
-14.710558 -14.061242 -0.601218 563 -0.233320 0.972400 0.000000
-14.709957 -14.060662 -0.594934 575 -0.233320 0.972400 0.000000
-14.710093 -14.060793 -0.588692 563 -0.233320 0.972400 0.000000
-14.710488 -14.061174 -0.582448 575 -0.233320 0.972400 0.000000
-14.711242 -14.061890 -0.576221 607 -0.233320 0.972400 0.000000
-14.710791 -14.061460 -0.569955 581 -0.233320 0.972400 0.000000
-14.711765 -14.062397 -0.563736 595 -0.233320 0.972400 0.000000
-14.712787 -14.063371 -0.557516 605 -0.233320 0.972400 0.000000
-14.710900 -14.061567 -0.551194 583 -0.233320 0.972400 0.000000
-14.709335 -14.060066 -0.544878 579 -0.233320 0.972400 0.000000
-14.710247 -14.060938 -0.538660 583 -0.233320 0.972400 0.000000
-14.711843 -14.062474 -0.532464 587 -0.233320 0.972400 0.000000
-14.711115 -14.061778 -0.526181 605 -0.233320 0.972400 0.000000
-14.709754 -14.060472 -0.519884 587 -0.233320 0.972400 0.000000
-14.709546 -14.060279 -0.513626 595 -0.233320 0.972400 0.000000
-14.710299 -14.060995 -0.507398 597 -0.233320 0.972400 0.000000
-14.710459 -14.061144 -0.501147 603 -0.233320 0.972400 0.000000
-14.710454 -14.061146 -0.494897 595 -0.233320 0.972400 0.000000
-14.710465 -14.061160 -0.488646 597 -0.233320 0.972400 0.000000
-14.709990 -14.060697 -0.482371 589 -0.233320 0.972400 0.000000
-14.710838 -14.061516 -0.476153 589 -0.233320 0.972400 0.000000
-14.711476 -14.062124 -0.469916 589 -0.233320 0.972400 0.000000
-14.710045 -14.060759 -0.463620 589 -0.233320 0.972400 0.000000
-14.709090 -14.059837 -0.457339 593 -0.233320 0.972400 0.000000
-14.708867 -14.059633 -0.451081 597 -0.233320 0.972400 0.000000
-14.707387 -14.058216 -0.444784 567 -0.233320 0.972400 0.000000
-14.707687 -14.058507 -0.438541 579 -0.233320 0.972400 0.000000
-14.709267 -14.060018 -0.432336 583 -0.233320 0.972400 0.000000
-14.708891 -14.059650 -0.426070 589 -0.233320 0.972400 0.000000
-14.707977 -14.058774 -0.419798 577 -0.233320 0.972400 0.000000
-14.708702 -14.059480 -0.413561 571 -0.233320 0.972400 0.000000
-14.710273 -14.060983 -0.407356 585 -0.233320 0.972400 0.000000
-14.711099 -14.061770 -0.401128 577 -0.233320 0.972400 0.000000
-14.709767 -14.060488 -0.394841 571 -0.233320 0.972400 0.000000
-14.709222 -14.059967 -0.388576 587 -0.233320 0.972400 0.000000
-14.708504 -14.059292 -0.382302 589 -0.233320 0.972400 0.000000
-14.708115 -14.058912 -0.376046 591 -0.233320 0.972400 0.000000
-14.708674 -14.059456 -0.369810 581 -0.233320 0.972400 0.000000
-14.708597 -14.059372 -0.363551 557 -0.233320 0.972400 0.000000
-14.708631 -14.059405 -0.357301 557 -0.233320 0.972400 0.000000
-14.708651 -14.059426 -0.351050 579 -0.233320 0.972400 0.000000
-14.708199 -14.058995 -0.344794 579 -0.233320 0.972400 0.000000
-14.708436 -14.059223 -0.338552 553 -0.233320 0.972400 0.000000
-14.708876 -14.059642 -0.332308 543 -0.233320 0.972400 0.000000
-14.709052 -14.059817 -0.326066 537 -0.233320 0.972400 0.000000
-14.709337 -14.060083 -0.319813 541 -0.233320 0.972400 0.000000
-14.708038 -14.058840 -0.313535 539 -0.233320 0.972400 0.000000
-14.708417 -14.059209 -0.307301 531 -0.233320 0.972400 0.000000
-14.709816 -14.060544 -0.301078 535 -0.233320 0.972400 0.000000
-14.708078 -14.058889 -0.294794 531 -0.233320 0.972400 0.000000
-14.708410 -14.059206 -0.288551 535 -0.233320 0.972400 0.000000
-14.709315 -14.060072 -0.282312 519 -0.233320 0.972400 0.000000
-14.722921 -14.064447 -0.664136 599 -0.233320 0.972400 0.000000
-14.723816 -14.065292 -0.657917 589 -0.233320 0.972400 0.000000
-14.723804 -14.065288 -0.651657 593 -0.233320 0.972400 0.000000
-14.723047 -14.064568 -0.645364 585 -0.233320 0.972400 0.000000
-14.723455 -14.064947 -0.639120 571 -0.233320 0.972400 0.000000
-14.724118 -14.065588 -0.632894 585 -0.233320 0.972400 0.000000
-14.723572 -14.065066 -0.626609 587 -0.233320 0.972400 0.000000
-14.723393 -14.064900 -0.620340 577 -0.233320 0.972400 0.000000
-14.724220 -14.065688 -0.614123 573 -0.233320 0.972400 0.000000
-14.723297 -14.064806 -0.607821 573 -0.233320 0.972400 0.000000
-14.721841 -14.063407 -0.601505 573 -0.233320 0.972400 0.000000
-14.722292 -14.063848 -0.595260 587 -0.233320 0.972400 0.000000
-14.723750 -14.065234 -0.589066 587 -0.233320 0.972400 0.000000
-14.722869 -14.064398 -0.582775 585 -0.233320 0.972400 0.000000
-14.722746 -14.064277 -0.576506 569 -0.233320 0.972400 0.000000
-14.723289 -14.064793 -0.570270 577 -0.233320 0.972400 0.000000
-14.722407 -14.063957 -0.563978 583 -0.233320 0.972400 0.000000
-14.722213 -14.063777 -0.557720 589 -0.233320 0.972400 0.000000
-14.721330 -14.062928 -0.551428 591 -0.233320 0.972400 0.000000
-14.721410 -14.062999 -0.545168 593 -0.233320 0.972400 0.000000
-14.722261 -14.063820 -0.538949 569 -0.233320 0.972400 0.000000
-14.721432 -14.063027 -0.532657 567 -0.233320 0.972400 0.000000
-14.721552 -14.063145 -0.526406 595 -0.233320 0.972400 0.000000
-14.721987 -14.063560 -0.520171 609 -0.233320 0.972400 0.000000
-14.721995 -14.063560 -0.513911 601 -0.233320 0.972400 0.000000
-14.722422 -14.063967 -0.507667 597 -0.233320 0.972400 0.000000
-14.722055 -14.063620 -0.501400 591 -0.233320 0.972400 0.000000
-14.722059 -14.063627 -0.495140 589 -0.233320 0.972400 0.000000
-14.722274 -14.063836 -0.488898 597 -0.233320 0.972400 0.000000
-14.720904 -14.062522 -0.482591 581 -0.233320 0.972400 0.000000
-14.721063 -14.062671 -0.476339 571 -0.233320 0.972400 0.000000
-14.722116 -14.063684 -0.470119 583 -0.233320 0.972400 0.000000
-14.722276 -14.063833 -0.463867 607 -0.233320 0.972400 0.000000
-14.722531 -14.064087 -0.457625 611 -0.233320 0.972400 0.000000
-14.722580 -14.064133 -0.451364 597 -0.233320 0.972400 0.000000
-14.722731 -14.064275 -0.445113 601 -0.233320 0.972400 0.000000
-14.722201 -14.063767 -0.438847 571 -0.233320 0.972400 0.000000
-14.722454 -14.064007 -0.432595 565 -0.233320 0.972400 0.000000
-14.721494 -14.063093 -0.426314 571 -0.233320 0.972400 0.000000
-14.720210 -14.061863 -0.420026 563 -0.233320 0.972400 0.000000
-14.722628 -14.064178 -0.413833 571 -0.233320 0.972400 0.000000
-14.722293 -14.063858 -0.407576 585 -0.233320 0.972400 0.000000
-14.720649 -14.062279 -0.401271 561 -0.233320 0.972400 0.000000
-14.721420 -14.063022 -0.395034 567 -0.233320 0.972400 0.000000
-14.720654 -14.062294 -0.388761 583 -0.233320 0.972400 0.000000
-14.719898 -14.061574 -0.382488 561 -0.233320 0.972400 0.000000
-14.719453 -14.061150 -0.376222 553 -0.233320 0.972400 0.000000
-14.719542 -14.061228 -0.369971 559 -0.233320 0.972400 0.000000
-14.720884 -14.062519 -0.363758 565 -0.233320 0.972400 0.000000
-14.721233 -14.062849 -0.357505 571 -0.233320 0.972400 0.000000
-14.720834 -14.062462 -0.351248 563 -0.233320 0.972400 0.000000
-14.721231 -14.062844 -0.345004 569 -0.233320 0.972400 0.000000
-14.721351 -14.062962 -0.338753 559 -0.233320 0.972400 0.000000
-14.721267 -14.062885 -0.332494 531 -0.233320 0.972400 0.000000
-14.720234 -14.061900 -0.326213 519 -0.233320 0.972400 0.000000
-14.719091 -14.060799 -0.319934 535 -0.233320 0.972400 0.000000
-14.719158 -14.060871 -0.313683 531 -0.233320 0.972400 0.000000
-14.719592 -14.061285 -0.307439 537 -0.233320 0.972400 0.000000
-14.720292 -14.061956 -0.301202 523 -0.233320 0.972400 0.000000
-14.721683 -14.063286 -0.294979 525 -0.233320 0.972400 0.000000
-14.721590 -14.063190 -0.288730 537 -0.233320 0.972400 0.000000
-14.720440 -14.062096 -0.282450 513 -0.233320 0.972400 0.000000
-14.735292 -14.067494 -0.664503 593 -0.233320 0.972400 0.000000
-14.736188 -14.068339 -0.658275 589 -0.233320 0.972400 0.000000
-14.736058 -14.068225 -0.652006 593 -0.233320 0.972400 0.000000
-14.735512 -14.067704 -0.645721 573 -0.233320 0.972400 0.000000
-14.735608 -14.067789 -0.639460 581 -0.233320 0.972400 0.000000
-14.735375 -14.067577 -0.633192 569 -0.233320 0.972400 0.000000
-14.735575 -14.067759 -0.626940 575 -0.233320 0.972400 0.000000
-14.735444 -14.067632 -0.620671 577 -0.233320 0.972400 0.000000
-14.735000 -14.067221 -0.614385 573 -0.233320 0.972400 0.000000
-14.735613 -14.067794 -0.608149 591 -0.233320 0.972400 0.000000
-14.734794 -14.067022 -0.601856 589 -0.233320 0.972400 0.000000
-14.733714 -14.065986 -0.595556 563 -0.233320 0.972400 0.000000
-14.734163 -14.066412 -0.589312 579 -0.233320 0.972400 0.000000
-14.733821 -14.066085 -0.583035 581 -0.233320 0.972400 0.000000
-14.733839 -14.066105 -0.576775 565 -0.233320 0.972400 0.000000
-14.733646 -14.065927 -0.570506 581 -0.233320 0.972400 0.000000
-14.733507 -14.065791 -0.564238 583 -0.233320 0.972400 0.000000
-14.734168 -14.066418 -0.558001 579 -0.233320 0.972400 0.000000
-14.733646 -14.065930 -0.551726 575 -0.233320 0.972400 0.000000
-14.733343 -14.065634 -0.545459 567 -0.233320 0.972400 0.000000
-14.733573 -14.065855 -0.539206 559 -0.233320 0.972400 0.000000
-14.734218 -14.066467 -0.532970 567 -0.233320 0.972400 0.000000
-14.735498 -14.067694 -0.526748 579 -0.233320 0.972400 0.000000
-14.735462 -14.067657 -0.520488 597 -0.233320 0.972400 0.000000
-14.733677 -14.065948 -0.514165 593 -0.233320 0.972400 0.000000
-14.732567 -14.064899 -0.507865 583 -0.233320 0.972400 0.000000
-14.732146 -14.064495 -0.501599 581 -0.233320 0.972400 0.000000
-14.731843 -14.064199 -0.495332 595 -0.233320 0.972400 0.000000
-14.733156 -14.065464 -0.489109 583 -0.233320 0.972400 0.000000
-14.733691 -14.065974 -0.482874 589 -0.233320 0.972400 0.000000
-14.732738 -14.065067 -0.476583 575 -0.233320 0.972400 0.000000
-14.733061 -14.065364 -0.470330 573 -0.233320 0.972400 0.000000
-14.733956 -14.066223 -0.464101 573 -0.233320 0.972400 0.000000
-14.734116 -14.066372 -0.457849 579 -0.233320 0.972400 0.000000
-14.733688 -14.065974 -0.451573 597 -0.233320 0.972400 0.000000
-14.733622 -14.065911 -0.445314 583 -0.233320 0.972400 0.000000
-14.733145 -14.065448 -0.439048 557 -0.233320 0.972400 0.000000
-14.732285 -14.064630 -0.432756 557 -0.233320 0.972400 0.000000
-14.732218 -14.064568 -0.426497 561 -0.233320 0.972400 0.000000
-14.733159 -14.065463 -0.420267 563 -0.233320 0.972400 0.000000
-14.733359 -14.065659 -0.414015 567 -0.233320 0.972400 0.000000
-14.732123 -14.064481 -0.407727 565 -0.233320 0.972400 0.000000
-14.731318 -14.063708 -0.401444 563 -0.233320 0.972400 0.000000
-14.731509 -14.063896 -0.395192 557 -0.233320 0.972400 0.000000
-14.731975 -14.064336 -0.388948 549 -0.233320 0.972400 0.000000
-14.732635 -14.064975 -0.382711 563 -0.233320 0.972400 0.000000
-14.733148 -14.065452 -0.376467 565 -0.233320 0.972400 0.000000
-14.732962 -14.065279 -0.370208 547 -0.233320 0.972400 0.000000
-14.732676 -14.065011 -0.363941 545 -0.233320 0.972400 0.000000
-14.733077 -14.065385 -0.357697 553 -0.233320 0.972400 0.000000
-14.732829 -14.065162 -0.351429 563 -0.233320 0.972400 0.000000
-14.731845 -14.064215 -0.345148 549 -0.233320 0.972400 0.000000
-14.730867 -14.063288 -0.338867 525 -0.233320 0.972400 0.000000
-14.731992 -14.064359 -0.332636 523 -0.233320 0.972400 0.000000
-14.732817 -14.065146 -0.326398 499 -0.233320 0.972400 0.000000
-14.732678 -14.065012 -0.320140 483 -0.233320 0.972400 0.000000
-14.731630 -14.064014 -0.313859 483 -0.233320 0.972400 0.000000
-14.731812 -14.064182 -0.307608 509 -0.233320 0.972400 0.000000
-14.732301 -14.064653 -0.301363 533 -0.233320 0.972400 0.000000
-14.731409 -14.063797 -0.295091 507 -0.233320 0.972400 0.000000
-14.732166 -14.064528 -0.288854 513 -0.233320 0.972400 0.000000
-14.733179 -14.065496 -0.282614 529 -0.233320 0.972400 0.000000
-14.748073 -14.070737 -0.664877 571 -0.233320 0.972400 0.000000
-14.748273 -14.070932 -0.658625 587 -0.233320 0.972400 0.000000
-14.747985 -14.070662 -0.652338 573 -0.233320 0.972400 0.000000
-14.747235 -14.069947 -0.646045 557 -0.233320 0.972400 0.000000
-14.746634 -14.069368 -0.639750 567 -0.233320 0.972400 0.000000
-14.746144 -14.068906 -0.633465 559 -0.233320 0.972400 0.000000
-14.746662 -14.069389 -0.627220 569 -0.233320 0.972400 0.000000
-14.746901 -14.069630 -0.620967 563 -0.233320 0.972400 0.000000
-14.747412 -14.070107 -0.614722 549 -0.233320 0.972400 0.000000
-14.748333 -14.070999 -0.608493 575 -0.233320 0.972400 0.000000
-14.748632 -14.071277 -0.602241 571 -0.233320 0.972400 0.000000
-14.747594 -14.070285 -0.595940 569 -0.233320 0.972400 0.000000
-14.746671 -14.069404 -0.589629 577 -0.233320 0.972400 0.000000
-14.746438 -14.069179 -0.583361 573 -0.233320 0.972400 0.000000
-14.746456 -14.069200 -0.577100 567 -0.233320 0.972400 0.000000
-14.745684 -14.068466 -0.570798 567 -0.233320 0.972400 0.000000
-14.745491 -14.068288 -0.564529 571 -0.233320 0.972400 0.000000
-14.746143 -14.068906 -0.558293 561 -0.233320 0.972400 0.000000
-14.746317 -14.069068 -0.552031 571 -0.233320 0.972400 0.000000
-14.746869 -14.069592 -0.545796 573 -0.233320 0.972400 0.000000
-14.747569 -14.070262 -0.539549 567 -0.233320 0.972400 0.000000
-14.747634 -14.070321 -0.533288 569 -0.233320 0.972400 0.000000
-14.746696 -14.069427 -0.526997 577 -0.233320 0.972400 0.000000
-14.745853 -14.068636 -0.520705 561 -0.233320 0.972400 0.000000
-14.746286 -14.069049 -0.514451 569 -0.233320 0.972400 0.000000
-14.746776 -14.069508 -0.508206 581 -0.233320 0.972400 0.000000
-14.746088 -14.068859 -0.501922 567 -0.233320 0.972400 0.000000
-14.745354 -14.068157 -0.495639 575 -0.233320 0.972400 0.000000
-14.746571 -14.069318 -0.489417 573 -0.233320 0.972400 0.000000
-14.746997 -14.069725 -0.483163 581 -0.233320 0.972400 0.000000
-14.746686 -14.069423 -0.476886 587 -0.233320 0.972400 0.000000
-14.745733 -14.068516 -0.470595 581 -0.233320 0.972400 0.000000
-14.745830 -14.068613 -0.464344 575 -0.233320 0.972400 0.000000
-14.746461 -14.069215 -0.458098 577 -0.233320 0.972400 0.000000
-14.746838 -14.069569 -0.451844 575 -0.233320 0.972400 0.000000
-14.746935 -14.069669 -0.445583 571 -0.233320 0.972400 0.000000
-14.746349 -14.069101 -0.439308 555 -0.233320 0.972400 0.000000
-14.745701 -14.068483 -0.433024 563 -0.233320 0.972400 0.000000
-14.745845 -14.068620 -0.426773 573 -0.233320 0.972400 0.000000
-14.745401 -14.068209 -0.420497 567 -0.233320 0.972400 0.000000
-14.745083 -14.067902 -0.414220 561 -0.233320 0.972400 0.000000
-14.746551 -14.069294 -0.408006 569 -0.233320 0.972400 0.000000
-14.747000 -14.069735 -0.401751 579 -0.233320 0.972400 0.000000
-14.746196 -14.068962 -0.395469 561 -0.233320 0.972400 0.000000
-14.746181 -14.068942 -0.389209 553 -0.233320 0.972400 0.000000
-14.745840 -14.068629 -0.382942 553 -0.233320 0.972400 0.000000
-14.744542 -14.067386 -0.376644 555 -0.233320 0.972400 0.000000
-14.745578 -14.068373 -0.370414 549 -0.233320 0.972400 0.000000
-14.745981 -14.068761 -0.364160 543 -0.233320 0.972400 0.000000
-14.745169 -14.067983 -0.357877 553 -0.233320 0.972400 0.000000
-14.745978 -14.068757 -0.351640 551 -0.233320 0.972400 0.000000
-14.746953 -14.069694 -0.345400 543 -0.233320 0.972400 0.000000
-14.745397 -14.068199 -0.339105 523 -0.233320 0.972400 0.000000
-14.744670 -14.067517 -0.332832 511 -0.233320 0.972400 0.000000
-14.744954 -14.067782 -0.326569 511 -0.233320 0.972400 0.000000
-14.744659 -14.067507 -0.320311 487 -0.233320 0.972400 0.000000
-14.744466 -14.067314 -0.314043 485 -0.233320 0.972400 0.000000
-14.744799 -14.067631 -0.307790 491 -0.233320 0.972400 0.000000
-14.743178 -14.066085 -0.301495 493 -0.233320 0.972400 0.000000
-14.742759 -14.065694 -0.295229 499 -0.233320 0.972400 0.000000
-14.744203 -14.067067 -0.288995 515 -0.233320 0.972400 0.000000
-14.744478 -14.067326 -0.282742 499 -0.233320 0.972400 0.000000
-14.759731 -14.073250 -0.665210 573 -0.233320 0.972400 0.000000
-14.760354 -14.073844 -0.658974 563 -0.233320 0.972400 0.000000
-14.760395 -14.073884 -0.652704 567 -0.233320 0.972400 0.000000
-14.759418 -14.072957 -0.646393 541 -0.233320 0.972400 0.000000
-14.759302 -14.072841 -0.640114 549 -0.233320 0.972400 0.000000
-14.759604 -14.073133 -0.633861 551 -0.233320 0.972400 0.000000
-14.759841 -14.073360 -0.627598 543 -0.233320 0.972400 0.000000
-14.760204 -14.073703 -0.621345 555 -0.233320 0.972400 0.000000
-14.758114 -14.071705 -0.614994 539 -0.233320 0.972400 0.000000
-14.759630 -14.073150 -0.608790 531 -0.233320 0.972400 0.000000
-14.760612 -14.074093 -0.602561 549 -0.233320 0.972400 0.000000
-14.757777 -14.071393 -0.596177 531 -0.233320 0.972400 0.000000
-14.757700 -14.071309 -0.589908 557 -0.233320 0.972400 0.000000
-14.759521 -14.073057 -0.583710 553 -0.233320 0.972400 0.000000
-14.759752 -14.073277 -0.577448 559 -0.233320 0.972400 0.000000
-14.758453 -14.072034 -0.571130 571 -0.233320 0.972400 0.000000
-14.757734 -14.071345 -0.564837 567 -0.233320 0.972400 0.000000
-14.758012 -14.071619 -0.558584 561 -0.233320 0.972400 0.000000
-14.758141 -14.071742 -0.552323 549 -0.233320 0.972400 0.000000
-14.758158 -14.071750 -0.546052 551 -0.233320 0.972400 0.000000
-14.758012 -14.071609 -0.539784 547 -0.233320 0.972400 0.000000
-14.758077 -14.071681 -0.533513 551 -0.233320 0.972400 0.000000
-14.758142 -14.071739 -0.527252 559 -0.233320 0.972400 0.000000
-14.757259 -14.070890 -0.520950 547 -0.233320 0.972400 0.000000
-14.757629 -14.071252 -0.514707 551 -0.233320 0.972400 0.000000
-14.758432 -14.072021 -0.508469 551 -0.233320 0.972400 0.000000
-14.757761 -14.071370 -0.502175 559 -0.233320 0.972400 0.000000
-14.757545 -14.071173 -0.495907 561 -0.233320 0.972400 0.000000
-14.758871 -14.072436 -0.489684 567 -0.233320 0.972400 0.000000
-14.759030 -14.072584 -0.483423 571 -0.233320 0.972400 0.000000
-14.758023 -14.071633 -0.477122 565 -0.233320 0.972400 0.000000
-14.758133 -14.071730 -0.470861 561 -0.233320 0.972400 0.000000
-14.757549 -14.071177 -0.464576 553 -0.233320 0.972400 0.000000
-14.757120 -14.070765 -0.458300 561 -0.233320 0.972400 0.000000
-14.757915 -14.071527 -0.452053 553 -0.233320 0.972400 0.000000
-14.758427 -14.072019 -0.445808 543 -0.233320 0.972400 0.000000
-14.757050 -14.070698 -0.439500 533 -0.233320 0.972400 0.000000
-14.756778 -14.070441 -0.433223 551 -0.233320 0.972400 0.000000
-14.758200 -14.071796 -0.426999 557 -0.233320 0.972400 0.000000
-14.757599 -14.071231 -0.420725 545 -0.233320 0.972400 0.000000
-14.757852 -14.071469 -0.414462 549 -0.233320 0.972400 0.000000
-14.758473 -14.072063 -0.408216 549 -0.233320 0.972400 0.000000
-14.758452 -14.072039 -0.401956 563 -0.233320 0.972400 0.000000
-14.758227 -14.071820 -0.395678 549 -0.233320 0.972400 0.000000
-14.757367 -14.071003 -0.389396 549 -0.233320 0.972400 0.000000
-14.758029 -14.071643 -0.383150 535 -0.233320 0.972400 0.000000
-14.757859 -14.071470 -0.376881 537 -0.233320 0.972400 0.000000
-14.756868 -14.070531 -0.370590 529 -0.233320 0.972400 0.000000
-14.756157 -14.069848 -0.364307 519 -0.233320 0.972400 0.000000
-14.755917 -14.069632 -0.358039 525 -0.233320 0.972400 0.000000
-14.756946 -14.070611 -0.351799 519 -0.233320 0.972400 0.000000
-14.756665 -14.070334 -0.345532 537 -0.233320 0.972400 0.000000
-14.757210 -14.070865 -0.339276 507 -0.233320 0.972400 0.000000
-14.756968 -14.070634 -0.333009 497 -0.233320 0.972400 0.000000
-14.756249 -14.069945 -0.326735 493 -0.233320 0.972400 0.000000
-14.758597 -14.072189 -0.320523 495 -0.233320 0.972400 0.000000
-14.758513 -14.072100 -0.314254 507 -0.233320 0.972400 0.000000
-14.755726 -14.069440 -0.307930 495 -0.233320 0.972400 0.000000
-14.755947 -14.069653 -0.301678 499 -0.233320 0.972400 0.000000
-14.756587 -14.070274 -0.295421 495 -0.233320 0.972400 0.000000
-14.756447 -14.070139 -0.289162 503 -0.233320 0.972400 0.000000
-14.757461 -14.071107 -0.282913 513 -0.233320 0.972400 0.000000
