756
-15.027313 -13.718143 -0.663646 353 0.731346 0.682006 0.000000
-15.026654 -13.717537 -0.657362 323 0.731346 0.682006 0.000000
-15.026427 -13.717338 -0.651104 347 0.731346 0.682006 0.000000
-15.028085 -13.718850 -0.644918 341 0.731346 0.682006 0.000000
-15.027743 -13.718534 -0.638651 335 0.731346 0.682006 0.000000
-15.026647 -13.717530 -0.632351 327 0.731346 0.682006 0.000000
-15.026682 -13.717565 -0.626091 347 0.731346 0.682006 0.000000
-15.025681 -13.716649 -0.619800 353 0.731346 0.682006 0.000000
-15.026796 -13.717668 -0.613589 345 0.731346 0.682006 0.000000
-15.027533 -13.718347 -0.607362 319 0.731346 0.682006 0.000000
-15.026795 -13.717679 -0.601079 333 0.731346 0.682006 0.000000
-15.028069 -13.718836 -0.594877 363 0.731346 0.682006 0.000000
-15.027778 -13.718574 -0.588610 337 0.731346 0.682006 0.000000
-15.025369 -13.716374 -0.582262 311 0.731346 0.682006 0.000000
-15.024194 -13.715308 -0.575972 337 0.731346 0.682006 0.000000
-15.024705 -13.715771 -0.569738 325 0.731346 0.682006 0.000000
-15.026132 -13.717074 -0.563534 317 0.731346 0.682006 0.000000
-15.025664 -13.716646 -0.557269 345 0.731346 0.682006 0.000000
-15.024274 -13.715384 -0.550961 345 0.731346 0.682006 0.000000
-15.027205 -13.718059 -0.544814 351 0.731346 0.682006 0.000000
-15.027764 -13.718574 -0.538589 347 0.731346 0.682006 0.000000
-15.025028 -13.716063 -0.532234 359 0.731346 0.682006 0.000000
-15.026224 -13.717159 -0.526023 355 0.731346 0.682006 0.000000
-15.027907 -13.718704 -0.519827 355 0.731346 0.682006 0.000000
-15.027431 -13.718269 -0.513561 357 0.731346 0.682006 0.000000
-15.025762 -13.716747 -0.507256 379 0.731346 0.682006 0.000000
-15.025988 -13.716945 -0.501004 365 0.731346 0.682006 0.000000
-15.026793 -13.717692 -0.494786 363 0.731346 0.682006 0.000000
-15.025833 -13.716809 -0.488495 381 0.731346 0.682006 0.000000
-15.025667 -13.716658 -0.482247 385 0.731346 0.682006 0.000000
-15.026316 -13.717255 -0.476010 381 0.731346 0.682006 0.000000
-15.026261 -13.717205 -0.469761 389 0.731346 0.682006 0.000000
-15.026423 -13.717352 -0.463509 369 0.731346 0.682006 0.000000
-15.026098 -13.717050 -0.457252 349 0.731346 0.682006 0.000000
-15.025710 -13.716698 -0.450985 395 0.731346 0.682006 0.000000
-15.024997 -13.716048 -0.444712 347 0.731346 0.682006 0.000000
-15.025484 -13.716492 -0.438477 369 0.731346 0.682006 0.000000
-15.026982 -13.717865 -0.432273 395 0.731346 0.682006 0.000000
-15.026166 -13.717121 -0.426001 359 0.731346 0.682006 0.000000
-15.026366 -13.717299 -0.419749 349 0.731346 0.682006 0.000000
-15.025970 -13.716941 -0.413492 367 0.731346 0.682006 0.000000
-15.025098 -13.716152 -0.407220 371 0.731346 0.682006 0.000000
-15.025402 -13.716425 -0.400977 373 0.731346 0.682006 0.000000
-15.026782 -13.717692 -0.394764 355 0.731346 0.682006 0.000000
-15.025631 -13.716645 -0.388485 355 0.731346 0.682006 0.000000
-15.025506 -13.716526 -0.382226 341 0.731346 0.682006 0.000000
-15.026668 -13.717582 -0.376005 339 0.731346 0.682006 0.000000
-15.025302 -13.716339 -0.369717 339 0.731346 0.682006 0.000000
-15.023642 -13.714823 -0.363433 339 0.731346 0.682006 0.000000
-15.022808 -13.714066 -0.357160 349 0.731346 0.682006 0.000000
-15.024354 -13.715478 -0.350956 337 0.731346 0.682006 0.000000
-15.024539 -13.715643 -0.344704 333 0.731346 0.682006 0.000000
-15.023158 -13.714388 -0.338426 321 0.731346 0.682006 0.000000
-15.025389 -13.716431 -0.332226 335 0.731346 0.682006 0.000000
-15.026973 -13.717873 -0.326011 351 0.731346 0.682006 0.000000
-15.026563 -13.717502 -0.319754 321 0.731346 0.682006 0.000000
-15.026095 -13.717073 -0.313489 329 0.731346 0.682006 0.000000
-15.025247 -13.716305 -0.307226 343 0.731346 0.682006 0.000000
-15.025263 -13.716311 -0.300976 335 0.731346 0.682006 0.000000
-15.027112 -13.718001 -0.294769 341 0.731346 0.682006 0.000000
-15.026318 -13.717276 -0.288496 329 0.731346 0.682006 0.000000
-15.024538 -13.715652 -0.282212 323 0.731346 0.682006 0.000000
-15.024485 -13.715603 -0.275973 355 0.731346 0.682006 0.000000
-15.032450 -13.713921 -0.663682 307 0.731346 0.682006 0.000000
-15.031416 -13.712967 -0.657381 321 0.731346 0.682006 0.000000
-15.031993 -13.713507 -0.651156 311 0.731346 0.682006 0.000000
-15.030522 -13.712155 -0.644839 321 0.731346 0.682006 0.000000
-15.029800 -13.711499 -0.638546 307 0.731346 0.682006 0.000000
-15.031029 -13.712621 -0.632344 329 0.731346 0.682006 0.000000
-15.032090 -13.713595 -0.626134 323 0.731346 0.682006 0.000000
-15.033363 -13.714753 -0.619932 323 0.731346 0.682006 0.000000
-15.031512 -13.713060 -0.613599 323 0.731346 0.682006 0.000000
-15.032230 -13.713726 -0.607382 339 0.731346 0.682006 0.000000
-15.033666 -13.715036 -0.601179 363 0.731346 0.682006 0.000000
-15.032458 -13.713932 -0.594880 325 0.731346 0.682006 0.000000
-15.031394 -13.712966 -0.588580 331 0.731346 0.682006 0.000000
-15.031587 -13.713137 -0.582338 345 0.731346 0.682006 0.000000
-15.031923 -13.713449 -0.576094 327 0.731346 0.682006 0.000000
-15.030494 -13.712143 -0.569788 337 0.731346 0.682006 0.000000
-15.030033 -13.711720 -0.563522 335 0.731346 0.682006 0.000000
-15.030425 -13.712074 -0.557278 341 0.731346 0.682006 0.000000
-15.029634 -13.711364 -0.550995 367 0.731346 0.682006 0.000000
-15.030087 -13.711768 -0.544761 355 0.731346 0.682006 0.000000
-15.030529 -13.712174 -0.538526 349 0.731346 0.682006 0.000000
-15.030428 -13.712089 -0.532267 351 0.731346 0.682006 0.000000
-15.031631 -13.713190 -0.526056 369 0.731346 0.682006 0.000000
-15.030942 -13.712561 -0.519782 329 0.731346 0.682006 0.000000
-15.029869 -13.711574 -0.513492 353 0.731346 0.682006 0.000000
-15.030197 -13.711880 -0.507259 341 0.731346 0.682006 0.000000
-15.031339 -13.712918 -0.501038 365 0.731346 0.682006 0.000000
-15.032702 -13.714171 -0.494835 355 0.731346 0.682006 0.000000
-15.032487 -13.713969 -0.488577 343 0.731346 0.682006 0.000000
-15.031567 -13.713130 -0.482295 319 0.731346 0.682006 0.000000
-15.030489 -13.712153 -0.476005 365 0.731346 0.682006 0.000000
-15.030377 -13.712047 -0.469746 363 0.731346 0.682006 0.000000
-15.030914 -13.712542 -0.463521 367 0.731346 0.682006 0.000000
-15.030693 -13.712335 -0.457263 379 0.731346 0.682006 0.000000
-15.031396 -13.712974 -0.451026 357 0.731346 0.682006 0.000000
-15.031922 -13.713462 -0.444791 373 0.731346 0.682006 0.000000
-15.031273 -13.712863 -0.438517 367 0.731346 0.682006 0.000000
-15.031425 -13.713003 -0.432276 341 0.731346 0.682006 0.000000
-15.031682 -13.713240 -0.426033 347 0.731346 0.682006 0.000000
-15.030961 -13.712584 -0.419760 359 0.731346 0.682006 0.000000
-15.030144 -13.711839 -0.413487 329 0.731346 0.682006 0.000000
-15.030330 -13.712018 -0.407245 353 0.731346 0.682006 0.000000
-15.030428 -13.712103 -0.400994 363 0.731346 0.682006 0.000000
-15.031058 -13.712686 -0.394758 367 0.731346 0.682006 0.000000
-15.031099 -13.712712 -0.388508 383 0.731346 0.682006 0.000000
-15.030593 -13.712252 -0.382242 365 0.731346 0.682006 0.000000
-15.028462 -13.710313 -0.375942 319 0.731346 0.682006 0.000000
-15.028059 -13.709949 -0.369685 349 0.731346 0.682006 0.000000
-15.030242 -13.711942 -0.363485 361 0.731346 0.682006 0.000000
-15.030809 -13.712461 -0.357249 369 0.731346 0.682006 0.000000
-15.031105 -13.712728 -0.351007 369 0.731346 0.682006 0.000000
-15.031784 -13.713348 -0.344770 349 0.731346 0.682006 0.000000
-15.030999 -13.712629 -0.338507 353 0.731346 0.682006 0.000000
-15.029886 -13.711613 -0.332227 311 0.731346 0.682006 0.000000
-15.030008 -13.711728 -0.325986 295 0.731346 0.682006 0.000000
-15.031650 -13.713228 -0.319771 311 0.731346 0.682006 0.000000
-15.032415 -13.713932 -0.313534 351 0.731346 0.682006 0.000000
-15.032061 -13.713605 -0.307277 365 0.731346 0.682006 0.000000
-15.030663 -13.712336 -0.300999 357 0.731346 0.682006 0.000000
-15.031278 -13.712893 -0.294764 301 0.731346 0.682006 0.000000
-15.031772 -13.713344 -0.288519 307 0.731346 0.682006 0.000000
-15.030925 -13.712575 -0.282257 321 0.731346 0.682006 0.000000
-15.029797 -13.711547 -0.275987 327 0.731346 0.682006 0.000000
-15.038052 -13.710273 -0.663742 309 0.731346 0.682006 0.000000
-15.036098 -13.708499 -0.657400 307 0.731346 0.682006 0.000000
-15.035806 -13.708235 -0.651133 313 0.731346 0.682006 0.000000
-15.034765 -13.707288 -0.644832 345 0.731346 0.682006 0.000000
-15.035397 -13.707858 -0.638606 315 0.731346 0.682006 0.000000
-15.035438 -13.707897 -0.632356 337 0.731346 0.682006 0.000000
-15.035199 -13.707677 -0.626088 337 0.731346 0.682006 0.000000
-15.035825 -13.708255 -0.619862 375 0.731346 0.682006 0.000000
-15.035636 -13.708086 -0.613594 339 0.731346 0.682006 0.000000
-15.037827 -13.710085 -0.607433 349 0.731346 0.682006 0.000000
-15.037215 -13.709517 -0.601149 319 0.731346 0.682006 0.000000
-15.035778 -13.708217 -0.594842 329 0.731346 0.682006 0.000000
-15.035429 -13.707895 -0.588575 333 0.731346 0.682006 0.000000
-15.035399 -13.707865 -0.582315 337 0.731346 0.682006 0.000000
-15.036445 -13.708829 -0.576105 345 0.731346 0.682006 0.000000
-15.036040 -13.708449 -0.569839 339 0.731346 0.682006 0.000000
-15.036218 -13.708623 -0.563587 321 0.731346 0.682006 0.000000
-15.035153 -13.707643 -0.557297 313 0.731346 0.682006 0.000000
-15.034202 -13.706779 -0.551005 341 0.731346 0.682006 0.000000
-15.034060 -13.706649 -0.544757 343 0.731346 0.682006 0.000000
-15.034722 -13.707256 -0.538520 361 0.731346 0.682006 0.000000
-15.036786 -13.709142 -0.532341 349 0.731346 0.682006 0.000000
-15.035882 -13.708317 -0.526059 345 0.731346 0.682006 0.000000
-15.034754 -13.707288 -0.519769 347 0.731346 0.682006 0.000000
-15.034224 -13.706808 -0.513494 323 0.731346 0.682006 0.000000
-15.034925 -13.707448 -0.507268 353 0.731346 0.682006 0.000000
-15.036130 -13.708549 -0.501056 333 0.731346 0.682006 0.000000
-15.035048 -13.707558 -0.494766 319 0.731346 0.682006 0.000000
-15.034892 -13.707415 -0.488517 333 0.731346 0.682006 0.000000
-15.035110 -13.707620 -0.482265 339 0.731346 0.682006 0.000000
-15.033384 -13.706039 -0.475961 345 0.731346 0.682006 0.000000
-15.033644 -13.706289 -0.469719 337 0.731346 0.682006 0.000000
-15.036183 -13.708603 -0.463545 349 0.731346 0.682006 0.000000
-15.036073 -13.708496 -0.457296 387 0.731346 0.682006 0.000000
-15.035639 -13.708107 -0.451030 367 0.731346 0.682006 0.000000
-15.035958 -13.708392 -0.444787 359 0.731346 0.682006 0.000000
-15.035405 -13.707895 -0.438521 345 0.731346 0.682006 0.000000
-15.035335 -13.707833 -0.432262 345 0.731346 0.682006 0.000000
-15.034518 -13.707089 -0.425989 347 0.731346 0.682006 0.000000
-15.034726 -13.707273 -0.419747 337 0.731346 0.682006 0.000000
-15.035197 -13.707705 -0.413503 357 0.731346 0.682006 0.000000
-15.032696 -13.705432 -0.407186 365 0.731346 0.682006 0.000000
-15.033269 -13.705945 -0.400950 357 0.731346 0.682006 0.000000
-15.035197 -13.707710 -0.394752 343 0.731346 0.682006 0.000000
-15.035286 -13.707788 -0.388511 345 0.731346 0.682006 0.000000
-15.036133 -13.708567 -0.382273 341 0.731346 0.682006 0.000000
-15.034917 -13.707456 -0.375995 329 0.731346 0.682006 0.000000
-15.034139 -13.706742 -0.369732 331 0.731346 0.682006 0.000000
-15.034174 -13.706777 -0.363481 315 0.731346 0.682006 0.000000
-15.034463 -13.707049 -0.357238 299 0.731346 0.682006 0.000000
-15.034822 -13.707367 -0.350995 307 0.731346 0.682006 0.000000
-15.033767 -13.706408 -0.344724 337 0.731346 0.682006 0.000000
-15.033619 -13.706285 -0.338466 343 0.731346 0.682006 0.000000
-15.034615 -13.707181 -0.332236 335 0.731346 0.682006 0.000000
-15.034038 -13.706667 -0.325981 313 0.731346 0.682006 0.000000
-15.034111 -13.706731 -0.319731 329 0.731346 0.682006 0.000000
-15.033915 -13.706555 -0.313482 295 0.731346 0.682006 0.000000
-15.034903 -13.707447 -0.307253 327 0.731346 0.682006 0.000000
-15.034053 -13.706677 -0.300981 313 0.731346 0.682006 0.000000
-15.031257 -13.704134 -0.294676 313 0.731346 0.682006 0.000000
-15.033754 -13.706402 -0.288483 335 0.731346 0.682006 0.000000
-15.035541 -13.708042 -0.282266 339 0.731346 0.682006 0.000000
-15.035280 -13.707804 -0.276009 323 0.731346 0.682006 0.000000
-15.042220 -13.705500 -0.663736 329 0.731346 0.682006 0.000000
-15.041284 -13.704647 -0.657444 299 0.731346 0.682006 0.000000
-15.041102 -13.704484 -0.651176 301 0.731346 0.682006 0.000000
-15.040709 -13.704126 -0.644909 321 0.731346 0.682006 0.000000
-15.041560 -13.704897 -0.638691 287 0.731346 0.682006 0.000000
-15.041325 -13.704692 -0.632423 295 0.731346 0.682006 0.000000
-15.040014 -13.703492 -0.626115 321 0.731346 0.682006 0.000000
-15.038203 -13.701845 -0.619782 315 0.731346 0.682006 0.000000
-15.039533 -13.703059 -0.613589 315 0.731346 0.682006 0.000000
-15.041786 -13.705109 -0.607418 335 0.731346 0.682006 0.000000
-15.041050 -13.704440 -0.601135 317 0.731346 0.682006 0.000000
-15.041575 -13.704915 -0.594900 373 0.731346 0.682006 0.000000
-15.041214 -13.704597 -0.588633 357 0.731346 0.682006 0.000000
-15.040746 -13.704167 -0.582367 375 0.731346 0.682006 0.000000
-15.040875 -13.704289 -0.576116 343 0.731346 0.682006 0.000000
-15.039924 -13.703424 -0.569825 369 0.731346 0.682006 0.000000
-15.039456 -13.702995 -0.563549 333 0.731346 0.682006 0.000000
-15.040454 -13.703909 -0.557339 339 0.731346 0.682006 0.000000
-15.040693 -13.704118 -0.551097 345 0.731346 0.682006 0.000000
-15.039837 -13.703342 -0.544805 363 0.731346 0.682006 0.000000
-15.038717 -13.702319 -0.538515 349 0.731346 0.682006 0.000000
-15.039768 -13.703275 -0.532305 365 0.731346 0.682006 0.000000
-15.041283 -13.704660 -0.526101 355 0.731346 0.682006 0.000000
-15.039996 -13.703494 -0.519803 333 0.731346 0.682006 0.000000
-15.039196 -13.702763 -0.513520 333 0.731346 0.682006 0.000000
-15.038442 -13.702082 -0.507247 341 0.731346 0.682006 0.000000
-15.039097 -13.702670 -0.501021 341 0.731346 0.682006 0.000000
-15.039426 -13.702976 -0.494777 315 0.731346 0.682006 0.000000
-15.039053 -13.702635 -0.488511 353 0.731346 0.682006 0.000000
-15.040026 -13.703528 -0.482292 361 0.731346 0.682006 0.000000
-15.041221 -13.704609 -0.476080 359 0.731346 0.682006 0.000000
-15.040890 -13.704315 -0.469813 347 0.731346 0.682006 0.000000
-15.039651 -13.703185 -0.463525 375 0.731346 0.682006 0.000000
-15.039916 -13.703427 -0.457282 395 0.731346 0.682006 0.000000
-15.038827 -13.702429 -0.450992 387 0.731346 0.682006 0.000000
-15.039571 -13.703115 -0.444765 375 0.731346 0.682006 0.000000
-15.040273 -13.703753 -0.438538 343 0.731346 0.682006 0.000000
-15.038906 -13.702511 -0.432251 347 0.731346 0.682006 0.000000
-15.037978 -13.701666 -0.425969 341 0.731346 0.682006 0.000000
-15.038290 -13.701944 -0.419726 347 0.731346 0.682006 0.000000
-15.039302 -13.702868 -0.413507 319 0.731346 0.682006 0.000000
-15.039178 -13.702763 -0.407248 349 0.731346 0.682006 0.000000
-15.039489 -13.703043 -0.401005 361 0.731346 0.682006 0.000000
-15.040114 -13.703620 -0.394779 359 0.731346 0.682006 0.000000
-15.039391 -13.702950 -0.388505 321 0.731346 0.682006 0.000000
-15.039474 -13.703035 -0.382254 335 0.731346 0.682006 0.000000
-15.040590 -13.704055 -0.376034 325 0.731346 0.682006 0.000000
-15.038085 -13.701767 -0.369727 347 0.731346 0.682006 0.000000
-15.037737 -13.701447 -0.363460 347 0.731346 0.682006 0.000000
-15.038138 -13.701821 -0.357226 355 0.731346 0.682006 0.000000
-15.037576 -13.701305 -0.350961 335 0.731346 0.682006 0.000000
-15.039709 -13.703246 -0.344761 335 0.731346 0.682006 0.000000
-15.038694 -13.702332 -0.338490 317 0.731346 0.682006 0.000000
-15.037534 -13.701265 -0.332211 307 0.731346 0.682006 0.000000
-15.039230 -13.702821 -0.326005 317 0.731346 0.682006 0.000000
-15.040333 -13.703829 -0.319775 323 0.731346 0.682006 0.000000
-15.040078 -13.703595 -0.313517 333 0.731346 0.682006 0.000000
-15.039228 -13.702812 -0.307255 337 0.731346 0.682006 0.000000
-15.037943 -13.701645 -0.300977 329 0.731346 0.682006 0.000000
-15.038447 -13.702102 -0.294742 359 0.731346 0.682006 0.000000
-15.040128 -13.703647 -0.288526 347 0.731346 0.682006 0.000000
-15.039223 -13.702820 -0.282254 341 0.731346 0.682006 0.000000
-15.040099 -13.703610 -0.276026 311 0.731346 0.682006 0.000000
-15.046014 -13.700875 -0.663730 311 0.731346 0.682006 0.000000
-15.046557 -13.701364 -0.657495 309 0.731346 0.682006 0.000000
-15.046480 -13.701297 -0.651235 331 0.731346 0.682006 0.000000
-15.044246 -13.699262 -0.644886 319 0.731346 0.682006 0.000000
-15.044345 -13.699346 -0.638635 319 0.731346 0.682006 0.000000
-15.045252 -13.700174 -0.632416 317 0.731346 0.682006 0.000000
-15.044739 -13.699709 -0.626141 315 0.731346 0.682006 0.000000
-15.045147 -13.700089 -0.619907 323 0.731346 0.682006 0.000000
-15.046534 -13.701350 -0.613704 323 0.731346 0.682006 0.000000
-15.045588 -13.700492 -0.607413 337 0.731346 0.682006 0.000000
-15.044318 -13.699336 -0.601114 325 0.731346 0.682006 0.000000
-15.043049 -13.698182 -0.594806 319 0.731346 0.682006 0.000000
-15.042540 -13.697709 -0.588530 343 0.731346 0.682006 0.000000
-15.044182 -13.699208 -0.582345 329 0.731346 0.682006 0.000000
-15.044254 -13.699272 -0.576094 353 0.731346 0.682006 0.000000
-15.043039 -13.698174 -0.569795 309 0.731346 0.682006 0.000000
-15.043266 -13.698385 -0.563543 329 0.731346 0.682006 0.000000
-15.043832 -13.698891 -0.557318 327 0.731346 0.682006 0.000000
-15.044114 -13.699161 -0.551075 325 0.731346 0.682006 0.000000
-15.043542 -13.698636 -0.544800 367 0.731346 0.682006 0.000000
-15.044419 -13.699428 -0.538582 347 0.731346 0.682006 0.000000
-15.046759 -13.701557 -0.532410 331 0.731346 0.682006 0.000000
-15.044775 -13.699760 -0.526088 343 0.731346 0.682006 0.000000
-15.042072 -13.697303 -0.519743 345 0.731346 0.682006 0.000000
-15.043275 -13.698390 -0.513532 321 0.731346 0.682006 0.000000
-15.044686 -13.699682 -0.507318 351 0.731346 0.682006 0.000000
-15.044377 -13.699392 -0.501061 323 0.731346 0.682006 0.000000
-15.044260 -13.699293 -0.494802 335 0.731346 0.682006 0.000000
-15.044485 -13.699503 -0.488560 325 0.731346 0.682006 0.000000
-15.043946 -13.699005 -0.482295 373 0.731346 0.682006 0.000000
-15.043138 -13.698267 -0.476012 363 0.731346 0.682006 0.000000
-15.042695 -13.697871 -0.469746 353 0.731346 0.682006 0.000000
-15.042482 -13.697684 -0.463488 357 0.731346 0.682006 0.000000
-15.043455 -13.698563 -0.457269 353 0.731346 0.682006 0.000000
-15.044421 -13.699450 -0.451050 343 0.731346 0.682006 0.000000
-15.044033 -13.699098 -0.444783 345 0.731346 0.682006 0.000000
-15.043964 -13.699036 -0.438534 343 0.731346 0.682006 0.000000
-15.044881 -13.699872 -0.432305 345 0.731346 0.682006 0.000000
-15.046059 -13.700940 -0.426084 345 0.731346 0.682006 0.000000
-15.044312 -13.699357 -0.419790 341 0.731346 0.682006 0.000000
-15.043215 -13.698352 -0.413500 335 0.731346 0.682006 0.000000
-15.044402 -13.699428 -0.407289 353 0.731346 0.682006 0.000000
-15.043897 -13.698969 -0.401023 363 0.731346 0.682006 0.000000
-15.044519 -13.699546 -0.394787 349 0.731346 0.682006 0.000000
-15.046065 -13.700956 -0.388573 329 0.731346 0.682006 0.000000
-15.045565 -13.700489 -0.382307 337 0.731346 0.682006 0.000000
-15.044893 -13.699885 -0.376043 339 0.731346 0.682006 0.000000
-15.045244 -13.700209 -0.369800 333 0.731346 0.682006 0.000000
-15.043004 -13.698171 -0.363501 341 0.731346 0.682006 0.000000
-15.040643 -13.696022 -0.357192 343 0.731346 0.682006 0.000000
-15.042674 -13.697869 -0.350993 331 0.731346 0.682006 0.000000
-15.044857 -13.699862 -0.344793 351 0.731346 0.682006 0.000000
-15.043322 -13.698460 -0.338507 341 0.731346 0.682006 0.000000
-15.042426 -13.697639 -0.332235 341 0.731346 0.682006 0.000000
-15.042230 -13.697465 -0.325977 345 0.731346 0.682006 0.000000
-15.042732 -13.697921 -0.319742 353 0.731346 0.682006 0.000000
-15.043238 -13.698391 -0.313507 337 0.731346 0.682006 0.000000
-15.042986 -13.698158 -0.307249 337 0.731346 0.682006 0.000000
-15.043097 -13.698267 -0.300998 321 0.731346 0.682006 0.000000
-15.042146 -13.697390 -0.294737 317 0.731346 0.682006 0.000000
-15.042322 -13.697549 -0.288485 371 0.731346 0.682006 0.000000
-15.042160 -13.697413 -0.282236 319 0.731346 0.682006 0.000000
-15.042612 -13.697818 -0.275992 327 0.731346 0.682006 0.000000
-15.049043 -13.695722 -0.663691 321 0.731346 0.682006 0.000000
-15.047789 -13.694580 -0.657382 329 0.731346 0.682006 0.000000
-15.048149 -13.694910 -0.651138 325 0.731346 0.682006 0.000000
-15.048897 -13.695586 -0.644921 331 0.731346 0.682006 0.000000
-15.046808 -13.693694 -0.638581 275 0.731346 0.682006 0.000000
-15.047177 -13.694030 -0.632337 283 0.731346 0.682006 0.000000
-15.049431 -13.696078 -0.626176 321 0.731346 0.682006 0.000000
-15.050498 -13.697047 -0.619966 333 0.731346 0.682006 0.000000
-15.049282 -13.695934 -0.613657 333 0.731346 0.682006 0.000000
-15.047145 -13.693991 -0.607317 339 0.731346 0.682006 0.000000
-15.046686 -13.693583 -0.601051 343 0.731346 0.682006 0.000000
-15.048552 -13.695285 -0.594873 305 0.731346 0.682006 0.000000
-15.049339 -13.695992 -0.588646 299 0.731346 0.682006 0.000000
-15.049255 -13.695919 -0.582387 329 0.731346 0.682006 0.000000
-15.049488 -13.696135 -0.576144 353 0.731346 0.682006 0.000000
-15.049458 -13.696104 -0.569884 355 0.731346 0.682006 0.000000
-15.049540 -13.696176 -0.563634 317 0.731346 0.682006 0.000000
-15.048962 -13.695660 -0.557359 325 0.731346 0.682006 0.000000
-15.048272 -13.695030 -0.551085 341 0.731346 0.682006 0.000000
-15.048609 -13.695341 -0.544842 361 0.731346 0.682006 0.000000
-15.049007 -13.695703 -0.538608 369 0.731346 0.682006 0.000000
-15.049067 -13.695754 -0.532357 329 0.731346 0.682006 0.000000
-15.049084 -13.695774 -0.526097 361 0.731346 0.682006 0.000000
-15.048068 -13.694847 -0.519816 373 0.731346 0.682006 0.000000
-15.048182 -13.694957 -0.513565 309 0.731346 0.682006 0.000000
-15.049926 -13.696537 -0.507369 337 0.731346 0.682006 0.000000
-15.048902 -13.695603 -0.501078 343 0.731346 0.682006 0.000000
-15.048635 -13.695372 -0.494820 329 0.731346 0.682006 0.000000
-15.049940 -13.696554 -0.488608 313 0.731346 0.682006 0.000000
-15.048693 -13.695418 -0.482319 353 0.731346 0.682006 0.000000
-15.047940 -13.694737 -0.476046 359 0.731346 0.682006 0.000000
-15.047401 -13.694240 -0.469771 363 0.731346 0.682006 0.000000
-15.046736 -13.693642 -0.463497 331 0.731346 0.682006 0.000000
-15.047765 -13.694578 -0.457277 337 0.731346 0.682006 0.000000
-15.048682 -13.695414 -0.451059 355 0.731346 0.682006 0.000000
-15.048343 -13.695113 -0.444792 357 0.731346 0.682006 0.000000
-15.048502 -13.695246 -0.438550 365 0.731346 0.682006 0.000000
-15.049468 -13.696134 -0.432321 353 0.731346 0.682006 0.000000
-15.049510 -13.696173 -0.426071 313 0.731346 0.682006 0.000000
-15.048739 -13.695466 -0.419798 361 0.731346 0.682006 0.000000
-15.047923 -13.694721 -0.413525 341 0.731346 0.682006 0.000000
-15.047687 -13.694514 -0.407267 351 0.731346 0.682006 0.000000
-15.047235 -13.694099 -0.401011 379 0.731346 0.682006 0.000000
-15.047811 -13.694626 -0.394775 355 0.731346 0.682006 0.000000
-15.048816 -13.695543 -0.388546 345 0.731346 0.682006 0.000000
-15.047824 -13.694648 -0.382275 355 0.731346 0.682006 0.000000
-15.047690 -13.694523 -0.376016 359 0.731346 0.682006 0.000000
-15.048751 -13.695485 -0.369796 345 0.731346 0.682006 0.000000
-15.049053 -13.695756 -0.363553 375 0.731346 0.682006 0.000000
-15.048699 -13.695443 -0.357286 353 0.731346 0.682006 0.000000
-15.048288 -13.695073 -0.351030 329 0.731346 0.682006 0.000000
-15.047552 -13.694406 -0.344767 331 0.731346 0.682006 0.000000
-15.047043 -13.693932 -0.338501 331 0.731346 0.682006 0.000000
-15.047929 -13.694742 -0.332273 325 0.731346 0.682006 0.000000
-15.047898 -13.694712 -0.326023 325 0.731346 0.682006 0.000000
-15.047272 -13.694143 -0.319759 315 0.731346 0.682006 0.000000
-15.047712 -13.694551 -0.313514 319 0.731346 0.682006 0.000000
-15.048598 -13.695362 -0.307286 327 0.731346 0.682006 0.000000
-15.048178 -13.694971 -0.301030 337 0.731346 0.682006 0.000000
-15.047648 -13.694493 -0.294765 327 0.731346 0.682006 0.000000
-15.047928 -13.694746 -0.288522 311 0.731346 0.682006 0.000000
-15.047669 -13.694522 -0.282264 341 0.731346 0.682006 0.000000
-15.048005 -13.694819 -0.276021 345 0.731346 0.682006 0.000000
-15.053954 -13.691946 -0.663735 333 0.731346 0.682006 0.000000
-15.052429 -13.690564 -0.657409 333 0.731346 0.682006 0.000000
-15.052137 -13.690300 -0.651142 327 0.731346 0.682006 0.000000
-15.052505 -13.690637 -0.644898 347 0.731346 0.682006 0.000000
-15.052165 -13.690322 -0.638631 301 0.731346 0.682006 0.000000
-15.053336 -13.691384 -0.632430 313 0.731346 0.682006 0.000000
-15.052941 -13.691026 -0.626154 305 0.731346 0.682006 0.000000
-15.052053 -13.690226 -0.619862 303 0.731346 0.682006 0.000000
-15.052738 -13.690839 -0.613635 319 0.731346 0.682006 0.000000
-15.053415 -13.691461 -0.607409 325 0.731346 0.682006 0.000000
-15.053165 -13.691241 -0.601151 349 0.731346 0.682006 0.000000
-15.053246 -13.691313 -0.594890 359 0.731346 0.682006 0.000000
-15.053495 -13.691542 -0.588648 355 0.731346 0.682006 0.000000
-15.052758 -13.690874 -0.582364 317 0.731346 0.682006 0.000000
-15.052354 -13.690495 -0.576098 325 0.731346 0.682006 0.000000
-15.052587 -13.690711 -0.569856 337 0.731346 0.682006 0.000000
-15.053688 -13.691718 -0.563645 323 0.731346 0.682006 0.000000
-15.053388 -13.691448 -0.557378 331 0.731346 0.682006 0.000000
-15.053731 -13.691751 -0.551135 337 0.731346 0.682006 0.000000
-15.054122 -13.692107 -0.544891 327 0.731346 0.682006 0.000000
-15.054294 -13.692274 -0.538649 363 0.731346 0.682006 0.000000
-15.053124 -13.691200 -0.532350 365 0.731346 0.682006 0.000000
-15.051728 -13.689933 -0.526053 333 0.731346 0.682006 0.000000
-15.052819 -13.690932 -0.519832 331 0.731346 0.682006 0.000000
-15.051955 -13.690151 -0.513550 319 0.731346 0.682006 0.000000
-15.050779 -13.689072 -0.507261 327 0.731346 0.682006 0.000000
-15.050895 -13.689181 -0.501010 341 0.731346 0.682006 0.000000
-15.050084 -13.688443 -0.494737 365 0.731346 0.682006 0.000000
-15.051058 -13.689336 -0.488518 341 0.731346 0.682006 0.000000
-15.053875 -13.691895 -0.482352 379 0.731346 0.682006 0.000000
-15.053552 -13.691607 -0.476094 367 0.731346 0.682006 0.000000
-15.051224 -13.689486 -0.469766 335 0.731346 0.682006 0.000000
-15.050294 -13.688640 -0.463484 357 0.731346 0.682006 0.000000
-15.050187 -13.688548 -0.457235 371 0.731346 0.682006 0.000000
-15.050125 -13.688493 -0.450986 347 0.731346 0.682006 0.000000
-15.049953 -13.688335 -0.444727 349 0.731346 0.682006 0.000000
-15.051853 -13.690054 -0.438529 363 0.731346 0.682006 0.000000
-15.052597 -13.690740 -0.432302 357 0.731346 0.682006 0.000000
-15.052479 -13.690627 -0.426043 347 0.731346 0.682006 0.000000
-15.052735 -13.690862 -0.419801 373 0.731346 0.682006 0.000000
-15.052397 -13.690560 -0.413544 351 0.731346 0.682006 0.000000
-15.051785 -13.690006 -0.407269 345 0.731346 0.682006 0.000000
-15.050738 -13.689054 -0.400999 373 0.731346 0.682006 0.000000
-15.051695 -13.689920 -0.394770 379 0.731346 0.682006 0.000000
-15.052652 -13.690787 -0.388541 375 0.731346 0.682006 0.000000
-15.053123 -13.691218 -0.382306 375 0.731346 0.682006 0.000000
-15.052824 -13.690949 -0.376049 363 0.731346 0.682006 0.000000
-15.051173 -13.689454 -0.369754 363 0.731346 0.682006 0.000000
-15.051691 -13.689922 -0.363519 363 0.731346 0.682006 0.000000
-15.052742 -13.690877 -0.357289 361 0.731346 0.682006 0.000000
-15.052818 -13.690956 -0.351038 333 0.731346 0.682006 0.000000
-15.052261 -13.690444 -0.344783 337 0.731346 0.682006 0.000000
-15.051850 -13.690074 -0.338517 323 0.731346 0.682006 0.000000
-15.050621 -13.688951 -0.332238 337 0.731346 0.682006 0.000000
-15.050480 -13.688832 -0.325989 313 0.731346 0.682006 0.000000
-15.051309 -13.689586 -0.319761 309 0.731346 0.682006 0.000000
-15.051867 -13.690086 -0.313516 341 0.731346 0.682006 0.000000
-15.051608 -13.689860 -0.307268 363 0.731346 0.682006 0.000000
-15.051355 -13.689628 -0.301011 319 0.731346 0.682006 0.000000
-15.050450 -13.688801 -0.294739 323 0.731346 0.682006 0.000000
-15.050136 -13.688519 -0.288492 321 0.731346 0.682006 0.000000
-15.051554 -13.689804 -0.282268 351 0.731346 0.682006 0.000000
-15.052541 -13.690709 -0.276039 337 0.731346 0.682006 0.000000
-15.056099 -13.686117 -0.663653 291 0.731346 0.682006 0.000000
-15.057931 -13.687779 -0.657476 305 0.731346 0.682006 0.000000
-15.057425 -13.687321 -0.651201 317 0.731346 0.682006 0.000000
-15.056434 -13.686426 -0.644910 317 0.731346 0.682006 0.000000
-15.056578 -13.686560 -0.638658 333 0.731346 0.682006 0.000000
-15.056828 -13.686790 -0.632416 317 0.731346 0.682006 0.000000
-15.057776 -13.687651 -0.626197 297 0.731346 0.682006 0.000000
-15.058948 -13.688713 -0.619986 317 0.731346 0.682006 0.000000
-15.058600 -13.688406 -0.613719 311 0.731346 0.682006 0.000000
-15.057768 -13.687650 -0.607437 339 0.731346 0.682006 0.000000
-15.058446 -13.688270 -0.601200 335 0.731346 0.682006 0.000000
-15.059609 -13.689326 -0.594999 327 0.731346 0.682006 0.000000
-15.058492 -13.688318 -0.588699 325 0.731346 0.682006 0.000000
-15.056837 -13.686809 -0.582375 347 0.731346 0.682006 0.000000
-15.056053 -13.686103 -0.576092 353 0.731346 0.682006 0.000000
-15.056994 -13.686958 -0.569873 351 0.731346 0.682006 0.000000
-15.057610 -13.687515 -0.563647 351 0.731346 0.682006 0.000000
-15.056222 -13.686268 -0.557340 337 0.731346 0.682006 0.000000
-15.056779 -13.686767 -0.551104 351 0.731346 0.682006 0.000000
-15.057499 -13.687433 -0.544877 355 0.731346 0.682006 0.000000
-15.056848 -13.686847 -0.538603 381 0.731346 0.682006 0.000000
-15.055522 -13.685636 -0.532305 365 0.731346 0.682006 0.000000
-15.055088 -13.685246 -0.526039 349 0.731346 0.682006 0.000000
-15.056618 -13.686644 -0.519835 341 0.731346 0.682006 0.000000
-15.057494 -13.687434 -0.513617 319 0.731346 0.682006 0.000000
-15.057447 -13.687391 -0.507357 325 0.731346 0.682006 0.000000
-15.056314 -13.686370 -0.501067 331 0.731346 0.682006 0.000000
-15.056428 -13.686480 -0.494816 347 0.731346 0.682006 0.000000
-15.057830 -13.687751 -0.488613 347 0.731346 0.682006 0.000000
-15.056432 -13.686482 -0.482316 339 0.731346 0.682006 0.000000
-15.056102 -13.686189 -0.476049 371 0.731346 0.682006 0.000000
-15.055992 -13.686095 -0.469799 361 0.731346 0.682006 0.000000
-15.055605 -13.685742 -0.463533 367 0.731346 0.682006 0.000000
-15.056369 -13.686432 -0.457306 349 0.731346 0.682006 0.000000
-15.054090 -13.684362 -0.450987 341 0.731346 0.682006 0.000000
-15.054023 -13.684315 -0.444737 365 0.731346 0.682006 0.000000
-15.056181 -13.686275 -0.438547 371 0.731346 0.682006 0.000000
-15.054487 -13.684733 -0.432242 355 0.731346 0.682006 0.000000
-15.054530 -13.684773 -0.425992 345 0.731346 0.682006 0.000000
-15.055702 -13.685849 -0.419781 355 0.731346 0.682006 0.000000
-15.056182 -13.686288 -0.413536 391 0.731346 0.682006 0.000000
-15.056493 -13.686567 -0.407293 387 0.731346 0.682006 0.000000
-15.056306 -13.686399 -0.401045 357 0.731346 0.682006 0.000000
-15.056132 -13.686241 -0.394786 367 0.731346 0.682006 0.000000
-15.055521 -13.685687 -0.388522 365 0.731346 0.682006 0.000000
-15.054676 -13.684933 -0.382249 337 0.731346 0.682006 0.000000
-15.053946 -13.684271 -0.375976 331 0.731346 0.682006 0.000000
-15.053870 -13.684203 -0.369727 335 0.731346 0.682006 0.000000
-15.053784 -13.684129 -0.363477 321 0.731346 0.682006 0.000000
-15.054629 -13.684895 -0.357249 329 0.731346 0.682006 0.000000
-15.055300 -13.685510 -0.351013 341 0.731346 0.682006 0.000000
-15.057759 -13.687746 -0.344820 341 0.731346 0.682006 0.000000
-15.058278 -13.688216 -0.338575 341 0.731346 0.682006 0.000000
-15.055261 -13.685483 -0.332263 345 0.731346 0.682006 0.000000
-15.054523 -13.684815 -0.325999 355 0.731346 0.682006 0.000000
-15.056170 -13.686306 -0.319784 341 0.731346 0.682006 0.000000
-15.055536 -13.685734 -0.313520 323 0.731346 0.682006 0.000000
-15.054848 -13.685117 -0.307256 323 0.731346 0.682006 0.000000
-15.055017 -13.685269 -0.301014 333 0.731346 0.682006 0.000000
-15.055569 -13.685778 -0.294769 357 0.731346 0.682006 0.000000
-15.056135 -13.686284 -0.288534 369 0.731346 0.682006 0.000000
-15.056567 -13.686684 -0.282289 363 0.731346 0.682006 0.000000
-15.055274 -13.685512 -0.276021 349 0.731346 0.682006 0.000000
-15.062673 -13.682256 -0.663731 335 0.731346 0.682006 0.000000
-15.061632 -13.681310 -0.657430 315 0.731346 0.682006 0.000000
-15.062098 -13.681736 -0.651196 319 0.731346 0.682006 0.000000
-15.062242 -13.681869 -0.644944 307 0.731346 0.682006 0.000000
-15.062285 -13.681910 -0.638694 313 0.731346 0.682006 0.000000
-15.063249 -13.682782 -0.632475 337 0.731346 0.682006 0.000000
-15.063387 -13.682911 -0.626233 327 0.731346 0.682006 0.000000
-15.062116 -13.681755 -0.619925 311 0.731346 0.682006 0.000000
-15.060146 -13.679970 -0.613583 303 0.731346 0.682006 0.000000
-15.062065 -13.681715 -0.607415 327 0.731346 0.682006 0.000000
-15.063618 -13.683119 -0.601220 315 0.731346 0.682006 0.000000
-15.062888 -13.682457 -0.594937 315 0.731346 0.682006 0.000000
-15.060903 -13.680657 -0.588605 345 0.731346 0.682006 0.000000
-15.060825 -13.680589 -0.582346 319 0.731346 0.682006 0.000000
-15.063069 -13.682618 -0.576175 345 0.731346 0.682006 0.000000
-15.062006 -13.681654 -0.569885 331 0.731346 0.682006 0.000000
-15.061540 -13.681239 -0.563609 327 0.731346 0.682006 0.000000
-15.061717 -13.681398 -0.557367 351 0.731346 0.682006 0.000000
-15.061678 -13.681361 -0.551107 353 0.731346 0.682006 0.000000
-15.061156 -13.680889 -0.544842 311 0.731346 0.682006 0.000000
-15.061708 -13.681397 -0.538607 353 0.731346 0.682006 0.000000
-15.062426 -13.682049 -0.532380 369 0.731346 0.682006 0.000000
-15.061951 -13.681615 -0.526104 329 0.731346 0.682006 0.000000
-15.061635 -13.681332 -0.519847 341 0.731346 0.682006 0.000000
-15.061700 -13.681390 -0.513596 343 0.731346 0.682006 0.000000
-15.062147 -13.681788 -0.507352 347 0.731346 0.682006 0.000000
-15.061179 -13.680912 -0.501070 357 0.731346 0.682006 0.000000
-15.060744 -13.680522 -0.494804 379 0.731346 0.682006 0.000000
-15.061876 -13.681554 -0.488584 353 0.731346 0.682006 0.000000
-15.062268 -13.681909 -0.482350 363 0.731346 0.682006 0.000000
-15.060641 -13.680432 -0.476045 367 0.731346 0.682006 0.000000
-15.059346 -13.679246 -0.469757 363 0.731346 0.682006 0.000000
-15.059014 -13.678951 -0.463490 349 0.731346 0.682006 0.000000
-15.058848 -13.678800 -0.457231 331 0.731346 0.682006 0.000000
-15.060577 -13.680368 -0.451035 367 0.731346 0.682006 0.000000
-15.061708 -13.681399 -0.444814 365 0.731346 0.682006 0.000000
-15.060669 -13.680453 -0.438534 341 0.731346 0.682006 0.000000
-15.061252 -13.680985 -0.432298 361 0.731346 0.682006 0.000000
-15.060159 -13.679996 -0.426018 359 0.731346 0.682006 0.000000
-15.059825 -13.679688 -0.419761 381 0.731346 0.682006 0.000000
-15.062411 -13.682039 -0.413577 357 0.731346 0.682006 0.000000
-15.063528 -13.683058 -0.407357 385 0.731346 0.682006 0.000000
-15.063521 -13.683046 -0.401107 363 0.731346 0.682006 0.000000
-15.060837 -13.680617 -0.394781 355 0.731346 0.682006 0.000000
-15.060391 -13.680206 -0.388525 357 0.731346 0.682006 0.000000
-15.062264 -13.681915 -0.382318 349 0.731346 0.682006 0.000000
-15.061098 -13.680856 -0.376038 349 0.731346 0.682006 0.000000
-15.061734 -13.681430 -0.369802 337 0.731346 0.682006 0.000000
-15.061976 -13.681653 -0.363560 305 0.731346 0.682006 0.000000
-15.061731 -13.681427 -0.357302 367 0.731346 0.682006 0.000000
-15.061916 -13.681592 -0.351050 357 0.731346 0.682006 0.000000
-15.062490 -13.682118 -0.344815 367 0.731346 0.682006 0.000000
-15.061907 -13.681597 -0.338550 333 0.731346 0.682006 0.000000
-15.059769 -13.679652 -0.332260 315 0.731346 0.682006 0.000000
-15.059461 -13.679377 -0.326002 331 0.731346 0.682006 0.000000
-15.060729 -13.680528 -0.319780 343 0.731346 0.682006 0.000000
-15.059769 -13.679658 -0.313509 341 0.731346 0.682006 0.000000
-15.058976 -13.678933 -0.307246 357 0.731346 0.682006 0.000000
-15.060614 -13.680417 -0.301021 339 0.731346 0.682006 0.000000
-15.061333 -13.681070 -0.294794 347 0.731346 0.682006 0.000000
-15.061025 -13.680795 -0.288537 351 0.731346 0.682006 0.000000
-15.060162 -13.680014 -0.282265 329 0.731346 0.682006 0.000000
-15.060386 -13.680223 -0.276022 329 0.731346 0.682006 0.000000
-15.065885 -13.676099 -0.663675 281 0.731346 0.682006 0.000000
-15.064942 -13.675256 -0.657384 289 0.731346 0.682006 0.000000
-15.065746 -13.675976 -0.651166 307 0.731346 0.682006 0.000000
-15.066218 -13.676408 -0.644932 319 0.731346 0.682006 0.000000
-15.067009 -13.677130 -0.638704 313 0.731346 0.682006 0.000000
-15.068353 -13.678343 -0.632502 307 0.731346 0.682006 0.000000
-15.068117 -13.678137 -0.626244 303 0.731346 0.682006 0.000000
-15.067276 -13.677374 -0.619951 331 0.731346 0.682006 0.000000
-15.066444 -13.676617 -0.613659 345 0.731346 0.682006 0.000000
-15.066206 -13.676396 -0.607401 327 0.731346 0.682006 0.000000
-15.066934 -13.677070 -0.601174 319 0.731346 0.682006 0.000000
-15.067882 -13.677930 -0.594955 345 0.731346 0.682006 0.000000
-15.067207 -13.677312 -0.588671 339 0.731346 0.682006 0.000000
-15.067282 -13.677377 -0.582420 333 0.731346 0.682006 0.000000
-15.067150 -13.677265 -0.576161 337 0.731346 0.682006 0.000000
-15.065926 -13.676147 -0.569863 319 0.731346 0.682006 0.000000
-15.065674 -13.675929 -0.563605 305 0.731346 0.682006 0.000000
-15.064667 -13.675007 -0.557314 355 0.731346 0.682006 0.000000
-15.063158 -13.673637 -0.550998 325 0.731346 0.682006 0.000000
-15.065348 -13.675624 -0.544827 329 0.731346 0.682006 0.000000
-15.067369 -13.677463 -0.538648 321 0.731346 0.682006 0.000000
-15.066076 -13.676291 -0.532350 337 0.731346 0.682006 0.000000
-15.064837 -13.675174 -0.526051 335 0.731346 0.682006 0.000000
-15.066214 -13.676412 -0.519849 349 0.731346 0.682006 0.000000
-15.067186 -13.677305 -0.513629 363 0.731346 0.682006 0.000000
-15.066060 -13.676276 -0.507340 315 0.731346 0.682006 0.000000
-15.066556 -13.676727 -0.501105 365 0.731346 0.682006 0.000000
-15.067051 -13.677176 -0.494860 349 0.731346 0.682006 0.000000
-15.066616 -13.676787 -0.488594 357 0.731346 0.682006 0.000000
-15.065863 -13.676106 -0.482321 375 0.731346 0.682006 0.000000
-15.064942 -13.675267 -0.476039 383 0.731346 0.682006 0.000000
-15.065747 -13.676002 -0.469812 371 0.731346 0.682006 0.000000
-15.067912 -13.677968 -0.463632 365 0.731346 0.682006 0.000000
-15.066930 -13.677079 -0.457341 377 0.731346 0.682006 0.000000
-15.065897 -13.676138 -0.451060 369 0.731346 0.682006 0.000000
-15.066869 -13.677018 -0.444841 365 0.731346 0.682006 0.000000
-15.064964 -13.675296 -0.438528 361 0.731346 0.682006 0.000000
-15.065762 -13.676023 -0.432301 379 0.731346 0.682006 0.000000
-15.067266 -13.677390 -0.426097 371 0.731346 0.682006 0.000000
-15.065145 -13.675458 -0.419786 349 0.731346 0.682006 0.000000
-15.065791 -13.676041 -0.413550 341 0.731346 0.682006 0.000000
-15.068045 -13.678089 -0.407359 357 0.731346 0.682006 0.000000
-15.065970 -13.676208 -0.401058 361 0.731346 0.682006 0.000000
-15.064923 -13.675256 -0.394778 325 0.731346 0.682006 0.000000
-15.064568 -13.674942 -0.388511 351 0.731346 0.682006 0.000000
-15.064173 -13.674583 -0.382254 349 0.731346 0.682006 0.000000
-15.064905 -13.675247 -0.376027 329 0.731346 0.682006 0.000000
-15.065267 -13.675578 -0.369784 353 0.731346 0.682006 0.000000
-15.066168 -13.676388 -0.363555 337 0.731346 0.682006 0.000000
-15.066185 -13.676408 -0.357305 353 0.731346 0.682006 0.000000
-15.064859 -13.675210 -0.351017 381 0.731346 0.682006 0.000000
-15.064887 -13.675237 -0.344767 349 0.731346 0.682006 0.000000
-15.066042 -13.676288 -0.338546 361 0.731346 0.682006 0.000000
-15.066616 -13.676800 -0.332310 367 0.731346 0.682006 0.000000
-15.066960 -13.677117 -0.326067 375 0.731346 0.682006 0.000000
-15.067081 -13.677234 -0.319816 357 0.731346 0.682006 0.000000
-15.066774 -13.676957 -0.313559 355 0.731346 0.682006 0.000000
-15.066251 -13.676472 -0.307303 355 0.731346 0.682006 0.000000
-15.064043 -13.674471 -0.301003 335 0.731346 0.682006 0.000000
-15.063790 -13.674237 -0.294756 353 0.731346 0.682006 0.000000
-15.064286 -13.674689 -0.288511 337 0.731346 0.682006 0.000000
-15.064782 -13.675152 -0.282276 347 0.731346 0.682006 0.000000
-15.066088 -13.676334 -0.276044 351 0.731346 0.682006 0.000000
-15.070107 -13.671548 -0.663687 311 0.731346 0.682006 0.000000
-15.069233 -13.670746 -0.657385 293 0.731346 0.682006 0.000000
-15.069865 -13.671329 -0.651159 289 0.731346 0.682006 0.000000
-15.071322 -13.672644 -0.644965 331 0.731346 0.682006 0.000000
-15.070051 -13.671489 -0.638657 315 0.731346 0.682006 0.000000
-15.070419 -13.671825 -0.632424 305 0.731346 0.682006 0.000000
-15.073101 -13.674266 -0.626279 309 0.731346 0.682006 0.000000
-15.071506 -13.672815 -0.619953 321 0.731346 0.682006 0.000000
-15.069481 -13.670985 -0.613622 319 0.731346 0.682006 0.000000
-15.070541 -13.671947 -0.607412 315 0.731346 0.682006 0.000000
-15.072252 -13.673489 -0.601216 321 0.731346 0.682006 0.000000
-15.071847 -13.673123 -0.594949 325 0.731346 0.682006 0.000000
-15.071445 -13.672759 -0.588683 335 0.731346 0.682006 0.000000
-15.072975 -13.674156 -0.582489 345 0.731346 0.682006 0.000000
-15.071760 -13.673047 -0.576180 357 0.731346 0.682006 0.000000
-15.071134 -13.672480 -0.569905 361 0.731346 0.682006 0.000000
-15.070938 -13.672304 -0.563647 339 0.731346 0.682006 0.000000
-15.070026 -13.671485 -0.557355 329 0.731346 0.682006 0.000000
-15.069724 -13.671202 -0.551088 325 0.731346 0.682006 0.000000
-15.070166 -13.671608 -0.544854 347 0.731346 0.682006 0.000000
-15.072505 -13.673738 -0.538682 323 0.731346 0.682006 0.000000
-15.071665 -13.672976 -0.532400 325 0.731346 0.682006 0.000000
-15.067819 -13.669483 -0.526015 321 0.731346 0.682006 0.000000
-15.070001 -13.671463 -0.519835 339 0.731346 0.682006 0.000000
-15.069739 -13.671224 -0.513577 335 0.731346 0.682006 0.000000
-15.068341 -13.669955 -0.507280 321 0.731346 0.682006 0.000000
-15.070570 -13.671985 -0.501099 361 0.731346 0.682006 0.000000
-15.070621 -13.672031 -0.494848 375 0.731346 0.682006 0.000000
-15.070519 -13.671931 -0.488589 339 0.731346 0.682006 0.000000
-15.070633 -13.672039 -0.482338 329 0.731346 0.682006 0.000000
-15.070198 -13.671650 -0.476072 363 0.731346 0.682006 0.000000
-15.069769 -13.671252 -0.469816 367 0.731346 0.682006 0.000000
-15.070679 -13.672082 -0.463587 361 0.731346 0.682006 0.000000
-15.070029 -13.671496 -0.457313 337 0.731346 0.682006 0.000000
-15.069809 -13.671289 -0.451055 347 0.731346 0.682006 0.000000
-15.072341 -13.673598 -0.444881 365 0.731346 0.682006 0.000000
-15.072127 -13.673396 -0.438623 355 0.731346 0.682006 0.000000
-15.071087 -13.672450 -0.432343 333 0.731346 0.682006 0.000000
-15.068896 -13.670475 -0.426023 341 0.731346 0.682006 0.000000
-15.068349 -13.669971 -0.419757 351 0.731346 0.682006 0.000000
-15.070230 -13.671685 -0.413560 367 0.731346 0.682006 0.000000
-15.069729 -13.671231 -0.407294 331 0.731346 0.682006 0.000000
-15.070201 -13.671649 -0.401060 341 0.731346 0.682006 0.000000
-15.069145 -13.670704 -0.394779 323 0.731346 0.682006 0.000000
-15.069290 -13.670838 -0.388528 303 0.731346 0.682006 0.000000
-15.069977 -13.671453 -0.382302 345 0.731346 0.682006 0.000000
-15.070553 -13.671978 -0.376066 355 0.731346 0.682006 0.000000
-15.070689 -13.672106 -0.369815 343 0.731346 0.682006 0.000000
-15.069037 -13.670610 -0.363520 321 0.731346 0.682006 0.000000
-15.069772 -13.671275 -0.357293 333 0.731346 0.682006 0.000000
-15.069361 -13.670905 -0.351026 327 0.731346 0.682006 0.000000
-15.070260 -13.671713 -0.344798 337 0.731346 0.682006 0.000000
-15.070821 -13.672228 -0.338563 307 0.731346 0.682006 0.000000
-15.069867 -13.671363 -0.332291 343 0.731346 0.682006 0.000000
-15.069073 -13.670637 -0.326029 359 0.731346 0.682006 0.000000
-15.071048 -13.672427 -0.319820 337 0.731346 0.682006 0.000000
-15.072038 -13.673333 -0.313591 325 0.731346 0.682006 0.000000
-15.069829 -13.671332 -0.307291 367 0.731346 0.682006 0.000000
-15.070068 -13.671541 -0.301049 351 0.731346 0.682006 0.000000
-15.071161 -13.672542 -0.294819 349 0.731346 0.682006 0.000000
-15.069763 -13.671273 -0.288541 375 0.731346 0.682006 0.000000
-15.069712 -13.671225 -0.282292 347 0.731346 0.682006 0.000000
-15.070754 -13.672174 -0.276062 319 0.731346 0.682006 0.000000
-15.074345 -13.666995 -0.663689 293 0.731346 0.682006 0.000000
-15.074275 -13.666933 -0.657429 305 0.731346 0.682006 0.000000
-15.076479 -13.668931 -0.651269 321 0.731346 0.682006 0.000000
-15.075497 -13.668041 -0.644968 329 0.731346 0.682006 0.000000
-15.073304 -13.666053 -0.638628 315 0.731346 0.682006 0.000000
-15.074808 -13.667418 -0.632434 299 0.731346 0.682006 0.000000
-15.075980 -13.668483 -0.626223 307 0.731346 0.682006 0.000000
-15.074656 -13.667284 -0.619915 325 0.731346 0.682006 0.000000
-15.074743 -13.667359 -0.613664 333 0.731346 0.682006 0.000000
-15.074882 -13.667488 -0.607413 313 0.731346 0.682006 0.000000
-15.076210 -13.668690 -0.601210 335 0.731346 0.682006 0.000000
-15.075315 -13.667883 -0.594928 351 0.731346 0.682006 0.000000
-15.075238 -13.667816 -0.588669 337 0.731346 0.682006 0.000000
-15.075533 -13.668082 -0.582426 329 0.731346 0.682006 0.000000
-15.073922 -13.666617 -0.576111 369 0.731346 0.682006 0.000000
-15.076063 -13.668566 -0.569931 345 0.731346 0.682006 0.000000
-15.075651 -13.668180 -0.563664 339 0.731346 0.682006 0.000000
-15.073826 -13.666535 -0.557341 351 0.731346 0.682006 0.000000
-15.074495 -13.667136 -0.551115 355 0.731346 0.682006 0.000000
-15.073482 -13.666223 -0.544824 365 0.731346 0.682006 0.000000
-15.072361 -13.665198 -0.538534 341 0.731346 0.682006 0.000000
-15.074804 -13.667425 -0.532371 355 0.731346 0.682006 0.000000
-15.076284 -13.668757 -0.526168 349 0.731346 0.682006 0.000000
-15.075540 -13.668083 -0.519884 329 0.731346 0.682006 0.000000
-15.075598 -13.668149 -0.513634 323 0.731346 0.682006 0.000000
-15.076092 -13.668585 -0.507399 337 0.731346 0.682006 0.000000
-15.076970 -13.669391 -0.501171 329 0.731346 0.682006 0.000000
-15.075399 -13.667972 -0.494865 353 0.731346 0.682006 0.000000
-15.076107 -13.668603 -0.488638 359 0.731346 0.682006 0.000000
-15.076213 -13.668706 -0.482387 379 0.731346 0.682006 0.000000
-15.074539 -13.667192 -0.476083 381 0.731346 0.682006 0.000000
-15.076329 -13.668811 -0.469886 345 0.731346 0.682006 0.000000
-15.077237 -13.669640 -0.463667 351 0.731346 0.682006 0.000000
-15.076810 -13.669243 -0.457401 359 0.731346 0.682006 0.000000
-15.075612 -13.668159 -0.451112 343 0.731346 0.682006 0.000000
-15.074136 -13.666827 -0.444816 353 0.731346 0.682006 0.000000
-15.074129 -13.666815 -0.438556 345 0.731346 0.682006 0.000000
-15.074880 -13.667506 -0.432328 353 0.731346 0.682006 0.000000
-15.074986 -13.667597 -0.426077 383 0.731346 0.682006 0.000000
-15.074152 -13.666839 -0.419805 393 0.731346 0.682006 0.000000
-15.074949 -13.667567 -0.413577 367 0.731346 0.682006 0.000000
-15.076073 -13.668578 -0.407357 371 0.731346 0.682006 0.000000
-15.074970 -13.667583 -0.401077 355 0.731346 0.682006 0.000000
-15.073867 -13.666587 -0.394797 331 0.731346 0.682006 0.000000
-15.073313 -13.666090 -0.388532 325 0.731346 0.682006 0.000000
-15.074366 -13.667046 -0.382302 371 0.731346 0.682006 0.000000
-15.073054 -13.665846 -0.376024 355 0.731346 0.682006 0.000000
-15.071729 -13.664647 -0.369736 337 0.731346 0.682006 0.000000
-15.073967 -13.666683 -0.363545 365 0.731346 0.682006 0.000000
-15.074001 -13.666717 -0.357295 339 0.731346 0.682006 0.000000
-15.074520 -13.667185 -0.351060 321 0.731346 0.682006 0.000000
-15.075514 -13.668082 -0.344830 339 0.731346 0.682006 0.000000
-15.073585 -13.666342 -0.338538 307 0.731346 0.682006 0.000000
-15.073723 -13.666456 -0.332287 357 0.731346 0.682006 0.000000
-15.073796 -13.666533 -0.326036 339 0.731346 0.682006 0.000000
-15.072289 -13.665165 -0.319760 343 0.731346 0.682006 0.000000
-15.073943 -13.666662 -0.313544 349 0.731346 0.682006 0.000000
-15.074551 -13.667214 -0.307308 345 0.731346 0.682006 0.000000
-15.071698 -13.664626 -0.300995 359 0.731346 0.682006 0.000000
-15.071701 -13.664635 -0.294744 343 0.731346 0.682006 0.000000
-15.074215 -13.666916 -0.288551 355 0.731346 0.682006 0.000000
-15.074980 -13.667605 -0.282314 377 0.731346 0.682006 0.000000
-15.075531 -13.668113 -0.276069 345 0.731346 0.682006 0.000000
