64
-29.303205 -27.597229 -0.668766 857 -0.411771 0.911288 0.000000
-29.300104 -27.594315 -0.656325 859 -0.411771 0.911288 0.000000
-29.299707 -27.593939 -0.643958 861 -0.411771 0.911288 0.000000
-29.299955 -27.594164 -0.631596 849 -0.411771 0.911288 0.000000
-29.300360 -27.594551 -0.619242 841 -0.411771 0.911288 0.000000
-29.301146 -27.595289 -0.606894 859 -0.411771 0.911288 0.000000
-29.298025 -27.592354 -0.594473 837 -0.411771 0.911288 0.000000
-29.297461 -27.591820 -0.582098 849 -0.411771 0.911288 0.000000
-29.298763 -27.593050 -0.569755 849 -0.411771 0.911288 0.000000
-29.296112 -27.590561 -0.557350 815 -0.411771 0.911288 0.000000
-29.295557 -27.590034 -0.544975 817 -0.411771 0.911288 0.000000
-29.296844 -27.591249 -0.532643 841 -0.411771 0.911288 0.000000
-29.294090 -27.588655 -0.520228 845 -0.411771 0.911288 0.000000
-29.293781 -27.588362 -0.507861 835 -0.411771 0.911288 0.000000
-29.295012 -27.589523 -0.495529 859 -0.411771 0.911288 0.000000
-29.297888 -27.592241 -0.483212 853 -0.411771 0.911288 0.000000
-29.297838 -27.592184 -0.470852 831 -0.411771 0.911288 0.000000
-29.294302 -27.588854 -0.458435 829 -0.411771 0.911288 0.000000
-29.292814 -27.587458 -0.446058 823 -0.411771 0.911288 0.000000
-29.291786 -27.586496 -0.433678 849 -0.411771 0.911288 0.000000
-29.292843 -27.587488 -0.421338 837 -0.411771 0.911288 0.000000
-29.294960 -27.589478 -0.409007 837 -0.411771 0.911288 0.000000
-29.293978 -27.588556 -0.396636 843 -0.411771 0.911288 0.000000
-29.292482 -27.587152 -0.384260 831 -0.411771 0.911288 0.000000
-29.292923 -27.587572 -0.371906 841 -0.411771 0.911288 0.000000
-29.292484 -27.587149 -0.359540 825 -0.411771 0.911288 0.000000
-29.292078 -27.586771 -0.347183 837 -0.411771 0.911288 0.000000
-29.291407 -27.586136 -0.334819 835 -0.411771 0.911288 0.000000
-29.290146 -27.584949 -0.322441 825 -0.411771 0.911288 0.000000
-29.289528 -27.584372 -0.310076 851 -0.411771 0.911288 0.000000
-29.289005 -27.583883 -0.297721 841 -0.411771 0.911288 0.000000
-29.288006 -27.582947 -0.285350 855 -0.411771 0.911287 0.000000
-29.337767 -27.611877 -0.669350 841 -0.411771 0.911288 0.000000
-29.337595 -27.611723 -0.656971 837 -0.411771 0.911288 0.000000
-29.336239 -27.610447 -0.644564 835 -0.411771 0.911288 0.000000
-29.335588 -27.609831 -0.632180 841 -0.411771 0.911288 0.000000
-29.335508 -27.609749 -0.619800 831 -0.411771 0.911288 0.000000
-29.335386 -27.609638 -0.607421 825 -0.411771 0.911288 0.000000
-29.333599 -27.607960 -0.595017 849 -0.411771 0.911288 0.000000
-29.332403 -27.606840 -0.582618 813 -0.411771 0.911288 0.000000
-29.333277 -27.607660 -0.570260 833 -0.411771 0.911288 0.000000
-29.332914 -27.607325 -0.557883 809 -0.411771 0.911288 0.000000
-29.333889 -27.608240 -0.545534 805 -0.411771 0.911288 0.000000
-29.332783 -27.607203 -0.533134 817 -0.411771 0.911288 0.000000
-29.331791 -27.606260 -0.520743 819 -0.411771 0.911288 0.000000
-29.331680 -27.606167 -0.508373 827 -0.411771 0.911288 0.000000
-29.331051 -27.605568 -0.495989 829 -0.411771 0.911288 0.000000
-29.330673 -27.605221 -0.483612 837 -0.411771 0.911288 0.000000
-29.330732 -27.605268 -0.471241 845 -0.411771 0.911288 0.000000
-29.330936 -27.605471 -0.458879 831 -0.411771 0.911288 0.000000
-29.330563 -27.605114 -0.446502 823 -0.411771 0.911288 0.000000
-29.330725 -27.605270 -0.434131 823 -0.411771 0.911288 0.000000
-29.330486 -27.605049 -0.421753 829 -0.411771 0.911287 0.000000
-29.329353 -27.603979 -0.409373 825 -0.411771 0.911288 0.000000
-29.329613 -27.604223 -0.397000 841 -0.411771 0.911288 0.000000
-29.330338 -27.604910 -0.384643 823 -0.411771 0.911288 0.000000
-29.329887 -27.604479 -0.372267 815 -0.411771 0.911288 0.000000
-29.330238 -27.604813 -0.359903 817 -0.411771 0.911288 0.000000
-29.330690 -27.605240 -0.347539 821 -0.411771 0.911288 0.000000
-29.331453 -27.605955 -0.335171 823 -0.411771 0.911288 0.000000
-29.330624 -27.605183 -0.322799 833 -0.411771 0.911288 0.000000
-29.329046 -27.603701 -0.310413 835 -0.411771 0.911288 0.000000
-29.329052 -27.603704 -0.298043 847 -0.411771 0.911288 0.000000
-29.328371 -27.603062 -0.285669 833 -0.411771 0.911288 0.000000
