166
-29.107195 -28.016333 -0.658971 1153 0.580220 0.814460 0.000000
-29.107286 -28.016418 -0.646560 1145 0.580220 0.814460 0.000000
-29.107533 -28.016659 -0.634158 1155 0.580220 0.814460 0.000000
-29.107830 -28.016939 -0.621755 1141 0.580220 0.814460 0.000000
-29.107437 -28.016560 -0.609338 1153 0.580220 0.814460 0.000000
-29.106932 -28.016077 -0.596912 1149 0.580220 0.814460 0.000000
-29.107603 -28.016720 -0.584516 1157 0.580220 0.814460 0.000000
-29.107405 -28.016527 -0.572107 1129 0.580220 0.814460 0.000000
-29.106363 -28.015535 -0.559677 1133 0.580220 0.814460 0.000000
-29.107130 -28.016270 -0.547279 1135 0.580220 0.814460 0.000000
-29.108091 -28.017191 -0.534890 1153 0.580220 0.814460 0.000000
-29.108839 -28.017923 -0.522492 1165 0.580220 0.814460 0.000000
-29.110003 -28.019035 -0.510111 1131 0.580220 0.814460 0.000000
-29.109173 -28.018244 -0.497679 1159 0.580220 0.814460 0.000000
-29.106117 -28.015293 -0.485218 1145 0.580220 0.814460 0.000000
-29.105389 -28.014599 -0.472804 1151 0.580220 0.814460 0.000000
-29.107430 -28.016565 -0.460424 1171 0.580220 0.814460 0.000000
-29.107647 -28.016768 -0.448022 1155 0.580220 0.814460 0.000000
-29.107372 -28.016514 -0.435614 1147 0.580220 0.814460 0.000000
-29.107838 -28.016960 -0.423210 1149 0.580220 0.814460 0.000000
-29.107977 -28.017097 -0.410798 1163 0.580220 0.814460 0.000000
-29.106379 -28.015556 -0.398373 1165 0.580220 0.814460 0.000000
-29.105507 -28.014719 -0.385951 1137 0.580220 0.814460 0.000000
-29.106655 -28.015821 -0.373560 1129 0.580220 0.814460 0.000000
-29.106680 -28.015850 -0.361159 1163 0.580220 0.814460 0.000000
-29.108068 -28.017189 -0.348766 1163 0.580220 0.814460 0.000000
-29.108051 -28.017172 -0.336356 1157 0.580220 0.814460 0.000000
-29.106478 -28.015663 -0.323930 1151 0.580220 0.814460 0.000000
-29.106873 -28.016039 -0.311526 1147 0.580220 0.814460 0.000000
-29.106894 -28.016054 -0.299126 1137 0.580220 0.814460 0.000000
-29.117590 -28.009209 -0.659019 1157 0.580220 0.814460 0.000000
-29.117517 -28.009134 -0.646600 1161 0.580220 0.814460 0.000000
-29.116350 -28.008013 -0.634170 1147 0.580220 0.814460 0.000000
-29.117186 -28.008816 -0.621772 1151 0.580220 0.814460 0.000000
-29.116629 -28.008276 -0.609357 1139 0.580220 0.814460 0.000000
-29.115225 -28.006935 -0.596910 1141 0.580220 0.814460 0.000000
-29.116476 -28.008133 -0.584528 1143 0.580220 0.814460 0.000000
-29.117540 -28.009165 -0.572138 1143 0.580220 0.814460 0.000000
-29.117193 -28.008823 -0.559721 1141 0.580220 0.814460 0.000000
-29.117050 -28.008690 -0.547312 1147 0.580220 0.814460 0.000000
-29.117393 -28.009024 -0.534908 1153 0.580220 0.814460 0.000000
-29.116974 -28.008623 -0.522492 1141 0.580220 0.814460 0.000000
-29.116823 -28.008471 -0.510083 1143 0.580220 0.814460 0.000000
-29.117998 -28.009605 -0.497692 1153 0.580220 0.814460 0.000000
-29.118849 -28.010420 -0.485293 1143 0.580220 0.814460 0.000000
-29.116890 -28.008543 -0.472851 1145 0.580220 0.814460 0.000000
-29.116465 -28.008125 -0.460445 1151 0.580220 0.814460 0.000000
-29.115984 -28.007662 -0.448020 1165 0.580220 0.814460 0.000000
-29.115124 -28.006845 -0.435607 1153 0.580220 0.814460 0.000000
-29.116179 -28.007856 -0.423207 1151 0.580220 0.814460 0.000000
-29.117046 -28.008698 -0.410819 1157 0.580220 0.814460 0.000000
-29.117199 -28.008837 -0.398407 1145 0.580220 0.814460 0.000000
-29.116133 -28.007811 -0.385987 1143 0.580220 0.814460 0.000000
-29.115902 -28.007595 -0.373578 1143 0.580220 0.814460 0.000000
-29.116550 -28.008217 -0.361172 1153 0.580220 0.814460 0.000000
-29.117418 -28.009060 -0.348783 1147 0.580220 0.814460 0.000000
-29.117449 -28.009083 -0.336373 1135 0.580220 0.814460 0.000000
-29.116358 -28.008038 -0.323953 1133 0.580220 0.814460 0.000000
-29.116905 -28.008564 -0.311547 1139 0.580220 0.814460 0.000000
-29.116917 -28.008572 -0.299137 1133 0.580220 0.814460 0.000000
-29.127972 -28.001060 -0.659052 1149 0.580220 0.814460 0.000000
-29.128006 -28.001089 -0.646642 1143 0.580220 0.814460 0.000000
-29.127308 -28.000420 -0.634218 1143 0.580220 0.814460 0.000000
-29.127508 -28.000607 -0.621806 1139 0.580220 0.814460 0.000000
-29.129314 -28.002356 -0.609438 1131 0.580220 0.814460 0.000000
-29.129557 -28.002592 -0.597026 1147 0.580220 0.814460 0.000000
-29.128483 -28.001549 -0.584596 1149 0.580220 0.814460 0.000000
-29.128769 -28.001835 -0.572193 1137 0.580220 0.814460 0.000000
-29.127625 -28.000732 -0.559753 1137 0.580220 0.814460 0.000000
-29.126064 -27.999235 -0.547318 1135 0.580220 0.814460 0.000000
-29.128551 -28.001621 -0.534954 1149 0.580220 0.814460 0.000000
-29.128302 -28.001385 -0.522536 1157 0.580220 0.814460 0.000000
-29.127680 -28.000782 -0.510122 1139 0.580220 0.814460 0.000000
-29.128525 -28.001604 -0.497723 1137 0.580220 0.814460 0.000000
-29.127096 -28.000229 -0.485287 1137 0.580220 0.814460 0.000000
-29.126524 -27.999676 -0.472872 1153 0.580220 0.814460 0.000000
-29.127947 -28.001043 -0.460488 1147 0.580220 0.814460 0.000000
-29.129103 -28.002148 -0.448097 1159 0.580220 0.814460 0.000000
-29.127558 -28.000666 -0.435661 1155 0.580220 0.814460 0.000000
-29.127604 -28.000713 -0.423250 1165 0.580220 0.814460 0.000000
-29.128752 -28.001816 -0.410859 1151 0.580220 0.814460 0.000000
-29.127781 -28.000895 -0.398438 1121 0.580220 0.814460 0.000000
-29.127083 -28.000212 -0.386014 1137 0.580220 0.814460 0.000000
-29.126854 -27.999996 -0.373606 1151 0.580220 0.814460 0.000000
-29.127413 -28.000534 -0.361201 1149 0.580220 0.814460 0.000000
-29.128374 -28.001465 -0.348811 1147 0.580220 0.814460 0.000000
-29.128820 -28.001896 -0.336407 1153 0.580220 0.814460 0.000000
-29.128269 -28.001360 -0.323992 1147 0.580220 0.814460 0.000000
-29.126595 -27.999756 -0.311557 1141 0.580220 0.814460 0.000000
-29.127668 -28.000784 -0.299167 1141 0.580220 0.814460 0.000000
-29.138931 -27.993444 -0.659100 1129 0.580220 0.814460 0.000000
-29.138758 -27.993286 -0.646681 1141 0.580220 0.814460 0.000000
-29.139374 -27.993883 -0.634285 1161 0.580220 0.814460 0.000000
-29.139153 -27.993662 -0.621867 1153 0.580220 0.814460 0.000000
-29.138971 -27.993496 -0.609448 1141 0.580220 0.814460 0.000000
-29.140526 -27.994982 -0.597073 1151 0.580220 0.814460 0.000000
-29.138599 -27.993132 -0.584621 1145 0.580220 0.814460 0.000000
-29.137556 -27.992140 -0.572191 1145 0.580220 0.814460 0.000000
-29.138275 -27.992821 -0.559794 1143 0.580220 0.814460 0.000000
-29.137646 -27.992222 -0.547370 1145 0.580220 0.814460 0.000000
-29.137724 -27.992294 -0.534959 1151 0.580220 0.814460 0.000000
-29.138474 -27.993015 -0.522561 1179 0.580220 0.814460 0.000000
-29.139370 -27.993881 -0.510172 1157 0.580220 0.814460 0.000000
-29.139494 -27.993994 -0.497761 1129 0.580220 0.814460 0.000000
-29.139587 -27.994097 -0.485350 1123 0.580220 0.814460 0.000000
-29.139326 -27.993837 -0.472942 1125 0.580220 0.814460 0.000000
-29.139599 -27.994099 -0.460529 1157 0.580220 0.814460 0.000000
-29.138275 -27.992838 -0.448101 1131 0.580220 0.814460 0.000000
-29.136524 -27.991144 -0.435668 1135 0.580220 0.814460 0.000000
-29.137463 -27.992048 -0.423268 1135 0.580220 0.814460 0.000000
-29.138924 -27.993458 -0.410884 1129 0.580220 0.814460 0.000000
-29.139227 -27.993744 -0.398471 1129 0.580220 0.814460 0.000000
-29.139040 -27.993574 -0.386062 1139 0.580220 0.814460 0.000000
-29.138660 -27.993206 -0.373646 1151 0.580220 0.814460 0.000000
-29.139416 -27.993931 -0.361248 1137 0.580220 0.814460 0.000000
-29.139338 -27.993864 -0.348839 1145 0.580220 0.814460 0.000000
-29.138836 -27.993370 -0.336423 1137 0.580220 0.814460 0.000000
-29.137583 -27.992178 -0.323995 1143 0.580220 0.814460 0.000000
-29.136814 -27.991438 -0.311582 1141 0.580220 0.814460 0.000000
-29.138735 -27.993279 -0.299193 1143 0.580220 0.814460 0.000000
-29.150331 -27.987282 -0.659168 1141 0.580220 0.814460 0.000000
-29.148899 -27.985901 -0.646722 1135 0.580220 0.814460 0.000000
-29.148666 -27.985683 -0.634304 1127 0.580220 0.814460 0.000000
-29.149323 -27.986313 -0.621907 1141 0.580220 0.814460 0.000000
-29.148264 -27.985294 -0.609477 1137 0.580220 0.814460 0.000000
-29.147064 -27.984146 -0.597038 1115 0.580220 0.814460 0.000000
-29.148676 -27.985693 -0.584662 1127 0.580220 0.814460 0.000000
-29.148384 -27.985411 -0.572245 1131 0.580220 0.814460 0.000000
-29.148561 -27.985582 -0.559833 1133 0.580220 0.814460 0.000000
-29.149477 -27.986464 -0.547434 1133 0.580220 0.814460 0.000000
-29.149284 -27.986277 -0.535025 1141 0.580220 0.814460 0.000000
-29.148926 -27.985939 -0.522608 1123 0.580220 0.814460 0.000000
-29.149517 -27.986502 -0.510203 1135 0.580220 0.814460 0.000000
-29.149517 -27.986498 -0.497792 1129 0.580220 0.814460 0.000000
-29.148376 -27.985401 -0.485363 1113 0.580220 0.814460 0.000000
-29.149212 -27.986204 -0.472965 1117 0.580220 0.814460 0.000000
-29.149939 -27.986906 -0.460567 1127 0.580220 0.814460 0.000000
-29.149570 -27.986561 -0.448151 1131 0.580220 0.814460 0.000000
-29.148928 -27.985937 -0.435726 1145 0.580220 0.814460 0.000000
-29.148907 -27.985918 -0.423316 1137 0.580220 0.814460 0.000000
-29.148577 -27.985605 -0.410899 1147 0.580220 0.814460 0.000000
-29.148458 -27.985491 -0.398490 1135 0.580220 0.814460 0.000000
-29.148394 -27.985435 -0.386080 1133 0.580220 0.814460 0.000000
-29.147209 -27.984287 -0.373651 1135 0.580220 0.814460 0.000000
-29.148876 -27.985893 -0.361265 1139 0.580220 0.814460 0.000000
-29.150156 -27.987127 -0.348873 1143 0.580220 0.814460 0.000000
-29.149183 -27.986195 -0.336442 1137 0.580220 0.814460 0.000000
-29.148415 -27.985453 -0.324029 1131 0.580220 0.814460 0.000000
-29.149008 -27.986017 -0.311623 1141 0.580220 0.814460 0.000000
-29.149815 -27.986795 -0.299225 1139 0.580220 0.814460 0.000000
-29.158636 -27.978802 -0.634352 1129 0.580220 0.814460 0.000000
-29.158173 -27.978359 -0.584685 1111 0.580220 0.814460 0.000000
-29.157825 -27.978018 -0.572268 1125 0.580220 0.814460 0.000000
-29.158192 -27.978386 -0.559865 1135 0.580220 0.814460 0.000000
-29.158323 -27.978506 -0.497812 1113 0.580220 0.814460 0.000000
-29.158361 -27.978548 -0.485391 1115 0.580220 0.814460 0.000000
-29.158266 -27.978455 -0.472982 1109 0.580220 0.814460 0.000000
-29.158106 -27.978294 -0.460573 1131 0.580220 0.814460 0.000000
-29.158276 -27.978462 -0.398520 1135 0.580220 0.814460 0.000000
-29.158611 -27.978786 -0.386107 1141 0.580220 0.814460 0.000000
-29.158649 -27.978828 -0.373696 1123 0.580220 0.814460 0.000000
-29.158039 -27.978245 -0.361281 1129 0.580220 0.814460 0.000000
-29.158222 -27.978420 -0.348869 1121 0.580220 0.814460 0.000000
-29.158566 -27.978752 -0.336466 1143 0.580220 0.814460 0.000000
-29.158108 -27.978308 -0.324050 1121 0.580220 0.814460 0.000000
-29.158600 -27.978777 -0.311645 1121 0.580220 0.814460 0.000000
