59
-29.612288 -27.732380 -0.674085 89 -0.411771 0.911288 0.000000
-29.618361 -27.738066 -0.661758 51 -0.411771 0.911288 0.000000
-29.621439 -27.740944 -0.649369 59 -0.411771 0.911288 0.000000
-29.615566 -27.735443 -0.636773 41 -0.411771 0.911288 0.000000
-29.618053 -27.737785 -0.624360 -77 -0.411771 0.911288 0.000000
-29.612953 -27.733009 -0.611787 -9 -0.411771 0.911288 0.000000
-29.604914 -27.725477 -0.599163 -9 -0.411771 0.911288 0.000000
-29.601267 -27.722055 -0.586636 69 -0.411771 0.911288 0.000000
-29.606623 -27.727072 -0.574286 55 -0.411771 0.911288 0.000000
-29.611704 -27.731838 -0.561918 21 -0.411771 0.911288 0.000000
-29.616259 -27.736103 -0.549545 47 -0.411771 0.911288 0.000000
-29.618376 -27.738081 -0.537115 -28 -0.411771 0.911288 0.000000
-29.617678 -27.737438 -0.524641 67 -0.411771 0.911288 0.000000
-29.620794 -27.740353 -0.512231 19 -0.411771 0.911287 0.000000
-29.615618 -27.735502 -0.499680 67 -0.411771 0.911288 0.000000
-29.611252 -27.731411 -0.487150 81 -0.411771 0.911288 0.000000
-29.610123 -27.730354 -0.474671 83 -0.411771 0.911288 0.000000
-29.607296 -27.727713 -0.462167 101 -0.411771 0.911288 0.000000
-29.607975 -27.728348 -0.449720 75 -0.411771 0.911288 0.000000
-29.614483 -27.734447 -0.437349 75 -0.411771 0.911287 0.000000
-29.610096 -27.730337 -0.424830 85 -0.411771 0.911288 0.000000
-29.604206 -27.724823 -0.412285 81 -0.411771 0.911288 0.000000
-29.608734 -27.729067 -0.399892 45 -0.411771 0.911288 0.000000
-29.608027 -27.728403 -0.387428 63 -0.411771 0.911288 0.000000
-29.610725 -27.730928 -0.375003 -7 -0.411771 0.911288 0.000000
-29.610706 -27.730911 -0.362543 37 -0.411771 0.911288 0.000000
-29.607197 -27.727625 -0.350045 25 -0.411771 0.911287 0.000000
-29.616465 -27.736313 -0.337688 43 -0.411771 0.911288 0.000000
-29.613813 -27.733824 -0.325202 25 -0.411771 0.911288 0.000000
-29.602505 -27.723240 -0.312618 4 -0.411771 0.911288 0.000000
-29.603331 -27.724007 -0.300170 2 -0.411771 0.911288 0.000000
-29.609163 -27.729471 -0.287775 -25 -0.411771 0.911288 0.000000
-29.639303 -27.740358 -0.674508 149 -0.411771 0.911288 0.000000
-29.642118 -27.742990 -0.662101 133 -0.411771 0.911288 0.000000
-29.648212 -27.748697 -0.624823 55 -0.411771 0.911288 0.000000
-29.646900 -27.747469 -0.612315 28 -0.411771 0.911288 0.000000
-29.648113 -27.748600 -0.599873 109 -0.411771 0.911288 0.000000
-29.648090 -27.748592 -0.574923 75 -0.411771 0.911288 0.000000
-29.646732 -27.747313 -0.562426 69 -0.411771 0.911287 0.000000
-29.645258 -27.745941 -0.549929 67 -0.411771 0.911287 0.000000
-29.646120 -27.746750 -0.537471 77 -0.411771 0.911288 0.000000
-29.641857 -27.742754 -0.524920 95 -0.411771 0.911288 0.000000
-29.643694 -27.744480 -0.512483 115 -0.411771 0.911288 0.000000
-29.647747 -27.748276 -0.500085 47 -0.411771 0.911288 0.000000
-29.641626 -27.742537 -0.487512 101 -0.411771 0.911288 0.000000
-29.641245 -27.742188 -0.475035 61 -0.411771 0.911288 0.000000
-29.642845 -27.743685 -0.462590 127 -0.411771 0.911288 0.000000
-29.640970 -27.741924 -0.450087 111 -0.411771 0.911288 0.000000
-29.641277 -27.742220 -0.437624 93 -0.411771 0.911288 0.000000
-29.646006 -27.746649 -0.412759 125 -0.411771 0.911288 0.000000
-29.639477 -27.740530 -0.400200 95 -0.411771 0.911287 0.000000
-29.642563 -27.743418 -0.387771 89 -0.411771 0.911288 0.000000
-29.646221 -27.746841 -0.375346 87 -0.411771 0.911288 0.000000
-29.645498 -27.746168 -0.362862 111 -0.411771 0.911288 0.000000
-29.646545 -27.747152 -0.350412 13 -0.411771 0.911288 0.000000
-29.644054 -27.744818 -0.337905 99 -0.411771 0.911288 0.000000
-29.638893 -27.739994 -0.325383 111 -0.411771 0.911288 0.000000
-29.639990 -27.741020 -0.312923 89 -0.411771 0.911287 0.000000
-29.645990 -27.746632 -0.300516 81 -0.411771 0.911288 0.000000
