141
-29.218569 -27.837030 -0.656876 1007 0.100563 0.994931 0.000000
-29.217236 -27.835758 -0.644449 997 0.100563 0.994931 0.000000
-29.217741 -27.836245 -0.632063 1019 0.100563 0.994931 0.000000
-29.217932 -27.836424 -0.619671 1013 0.100563 0.994931 0.000000
-29.217169 -27.835693 -0.607258 993 0.100563 0.994931 0.000000
-29.217031 -27.835569 -0.594859 1023 0.100563 0.994931 0.000000
-29.218384 -27.836864 -0.582496 1001 0.100563 0.994931 0.000000
-29.218721 -27.837175 -0.570103 1005 0.100563 0.994931 0.000000
-29.217899 -27.836399 -0.557690 1009 0.100563 0.994931 0.000000
-29.218229 -27.836718 -0.545307 1009 0.100563 0.994931 0.000000
-29.218767 -27.837233 -0.532921 1023 0.100563 0.994931 0.000000
-29.219301 -27.837742 -0.520536 1031 0.100563 0.994931 0.000000
-29.218693 -27.837152 -0.508121 1007 0.100563 0.994931 0.000000
-29.216993 -27.835543 -0.495697 1027 0.100563 0.994931 0.000000
-29.216850 -27.835398 -0.483308 1027 0.100563 0.994931 0.000000
-29.219385 -27.837814 -0.470954 1029 0.100563 0.994931 0.000000
-29.218433 -27.836905 -0.458543 1037 0.100563 0.994931 0.000000
-29.216991 -27.835545 -0.446126 1023 0.100563 0.994931 0.000000
-29.217731 -27.836250 -0.433739 1009 0.100563 0.994931 0.000000
-29.218513 -27.836990 -0.421361 1021 0.100563 0.994931 0.000000
-29.219015 -27.837473 -0.408976 1015 0.100563 0.994931 0.000000
-29.218699 -27.837160 -0.396569 1025 0.100563 0.994931 0.000000
-29.216171 -27.834759 -0.384142 1027 0.100563 0.994931 0.000000
-29.214981 -27.833632 -0.371733 1031 0.100563 0.994931 0.000000
-29.215395 -27.834017 -0.359349 1027 0.100563 0.994931 0.000000
-29.216841 -27.835402 -0.346975 1023 0.100563 0.994931 0.000000
-29.217554 -27.836086 -0.334588 1017 0.100563 0.994931 0.000000
-29.216995 -27.835548 -0.322193 1011 0.100563 0.994931 0.000000
-29.216906 -27.835461 -0.309794 1017 0.100563 0.994931 0.000000
-29.215536 -27.834158 -0.297386 1001 0.100563 0.994931 0.000000
-29.234871 -27.834539 -0.657042 1021 0.100563 0.994931 0.000000
-29.235231 -27.834883 -0.644649 1021 0.100563 0.994931 0.000000
-29.235315 -27.834961 -0.632258 1021 0.100563 0.994931 0.000000
-29.234085 -27.833786 -0.619829 1011 0.100563 0.994931 0.000000
-29.233257 -27.833006 -0.607417 1003 0.100563 0.994931 0.000000
-29.234144 -27.833843 -0.595028 1013 0.100563 0.994931 0.000000
-29.233843 -27.833555 -0.582630 1027 0.100563 0.994931 0.000000
-29.233288 -27.833036 -0.570215 1013 0.100563 0.994931 0.000000
-29.235798 -27.835415 -0.557871 1013 0.100563 0.994931 0.000000
-29.236824 -27.836395 -0.545491 1009 0.100563 0.994931 0.000000
-29.234188 -27.833891 -0.533036 1029 0.100563 0.994931 0.000000
-29.234783 -27.834454 -0.520650 1033 0.100563 0.994931 0.000000
-29.236486 -27.836075 -0.508283 1037 0.100563 0.994931 0.000000
-29.235638 -27.835274 -0.495871 1035 0.100563 0.994931 0.000000
-29.235697 -27.835333 -0.483470 1017 0.100563 0.994931 0.000000
-29.236010 -27.835625 -0.471077 1025 0.100563 0.994931 0.000000
-29.234789 -27.834457 -0.458658 1031 0.100563 0.994931 0.000000
-29.235210 -27.834864 -0.446274 1027 0.100563 0.994931 0.000000
-29.235468 -27.835112 -0.433881 1019 0.100563 0.994931 0.000000
-29.235504 -27.835152 -0.421481 1021 0.100563 0.994931 0.000000
-29.236507 -27.836098 -0.409091 1023 0.100563 0.994931 0.000000
-29.237167 -27.836737 -0.396704 1015 0.100563 0.994931 0.000000
-29.236513 -27.836109 -0.384300 1025 0.100563 0.994931 0.000000
-29.235601 -27.835247 -0.371889 1019 0.100563 0.994931 0.000000
-29.234678 -27.834362 -0.359477 1029 0.100563 0.994931 0.000000
-29.234108 -27.833817 -0.347072 1043 0.100563 0.994931 0.000000
-29.234350 -27.834049 -0.334680 1023 0.100563 0.994931 0.000000
-29.234049 -27.833763 -0.322282 1003 0.100563 0.994931 0.000000
-29.233107 -27.832874 -0.309881 1011 0.100563 0.994931 0.000000
-29.233503 -27.833246 -0.297487 1001 0.100563 0.994931 0.000000
-29.252050 -27.832518 -0.657232 1019 0.100563 0.994931 0.000000
-29.252151 -27.832611 -0.644831 1007 0.100563 0.994931 0.000000
-29.254137 -27.834503 -0.632472 1021 0.100563 0.994931 0.000000
-29.254553 -27.834890 -0.620078 1021 0.100563 0.994931 0.000000
-29.255838 -27.836119 -0.607695 995 0.100563 0.994931 0.000000
-29.255342 -27.835646 -0.595279 1015 0.100563 0.994931 0.000000
-29.253359 -27.833767 -0.582838 1023 0.100563 0.994931 0.000000
-29.253750 -27.834133 -0.570444 1017 0.100563 0.994931 0.000000
-29.255203 -27.835512 -0.558070 1021 0.100563 0.994931 0.000000
-29.254156 -27.834524 -0.545649 1025 0.100563 0.994931 0.000000
-29.251251 -27.831764 -0.533187 1033 0.100563 0.994931 0.000000
-29.252066 -27.832529 -0.520799 1031 0.100563 0.994931 0.000000
-29.252960 -27.833385 -0.508420 1025 0.100563 0.994931 0.000000
-29.253075 -27.833490 -0.496019 1019 0.100563 0.994931 0.000000
-29.254082 -27.834452 -0.483629 1027 0.100563 0.994931 0.000000
-29.253763 -27.834150 -0.471221 1025 0.100563 0.994931 0.000000
-29.251806 -27.832291 -0.458790 1025 0.100563 0.994931 0.000000
-29.252020 -27.832493 -0.446397 1029 0.100563 0.994931 0.000000
-29.251793 -27.832277 -0.433989 1029 0.100563 0.994931 0.000000
-29.250406 -27.830963 -0.421572 1015 0.100563 0.994931 0.000000
-29.250395 -27.830950 -0.409172 1013 0.100563 0.994931 0.000000
-29.250269 -27.830832 -0.396763 1017 0.100563 0.994931 0.000000
-29.250620 -27.831167 -0.384369 1025 0.100563 0.994931 0.000000
-29.251717 -27.832203 -0.371989 1033 0.100563 0.994931 0.000000
-29.250948 -27.831480 -0.359576 1025 0.100563 0.994931 0.000000
-29.250494 -27.831045 -0.347170 1025 0.100563 0.994931 0.000000
-29.250296 -27.830853 -0.334771 1021 0.100563 0.994931 0.000000
-29.250650 -27.831190 -0.322367 1005 0.100563 0.994931 0.000000
-29.250505 -27.831059 -0.309969 989 0.100563 0.994931 0.000000
-29.249763 -27.830360 -0.297565 987 0.100563 0.994931 0.000000
-29.268806 -27.830088 -0.657406 1005 0.100563 0.994931 0.000000
-29.268578 -27.829872 -0.644998 1013 0.100563 0.994931 0.000000
-29.268034 -27.829361 -0.632573 995 0.100563 0.994931 0.000000
-29.268110 -27.829435 -0.620172 993 0.100563 0.994931 0.000000
-29.269577 -27.830822 -0.607798 1003 0.100563 0.994931 0.000000
-29.270494 -27.831699 -0.595408 995 0.100563 0.994931 0.000000
-29.269463 -27.830711 -0.582978 1019 0.100563 0.994931 0.000000
-29.268862 -27.830141 -0.570563 1007 0.100563 0.994931 0.000000
-29.268761 -27.830055 -0.558154 1013 0.100563 0.994931 0.000000
-29.268362 -27.829679 -0.545748 1017 0.100563 0.994931 0.000000
-29.268478 -27.829784 -0.533346 1015 0.100563 0.994931 0.000000
-29.269114 -27.830391 -0.520950 1019 0.100563 0.994931 0.000000
-29.269291 -27.830559 -0.508548 1025 0.100563 0.994931 0.000000
-29.269304 -27.830566 -0.496137 1035 0.100563 0.994931 0.000000
-29.269035 -27.830318 -0.483730 1013 0.100563 0.994931 0.000000
-29.270041 -27.831264 -0.471340 1003 0.100563 0.994931 0.000000
-29.269077 -27.830360 -0.458929 1025 0.100563 0.994931 0.000000
-29.267426 -27.828789 -0.446494 1029 0.100563 0.994931 0.000000
-29.267910 -27.829248 -0.434099 1009 0.100563 0.994931 0.000000
-29.268328 -27.829649 -0.421695 1017 0.100563 0.994931 0.000000
-29.268841 -27.830132 -0.409300 1015 0.100563 0.994931 0.000000
-29.269287 -27.830557 -0.396905 1013 0.100563 0.994931 0.000000
-29.270010 -27.831249 -0.384508 1027 0.100563 0.994931 0.000000
-29.269789 -27.831038 -0.372100 1011 0.100563 0.994931 0.000000
-29.267054 -27.828430 -0.359665 991 0.100563 0.994931 0.000000
-29.267078 -27.828461 -0.347265 993 0.100563 0.994931 0.000000
-29.268749 -27.830057 -0.334879 995 0.100563 0.994931 0.000000
-29.269604 -27.830868 -0.322480 981 0.100563 0.994931 0.000000
-29.268944 -27.830235 -0.310076 1011 0.100563 0.994931 0.000000
-29.267313 -27.828682 -0.297652 991 0.100563 0.994931 0.000000
-29.284229 -27.827044 -0.632739 989 0.100563 0.994931 0.000000
-29.284334 -27.827147 -0.595517 987 0.100563 0.994931 0.000000
-29.283514 -27.826357 -0.583094 987 0.100563 0.994931 0.000000
-29.284687 -27.827475 -0.545892 1003 0.100563 0.994931 0.000000
-29.284691 -27.827490 -0.533482 1005 0.100563 0.994931 0.000000
-29.285381 -27.828140 -0.521085 997 0.100563 0.994931 0.000000
-29.285406 -27.828171 -0.508674 1003 0.100563 0.994931 0.000000
-29.284561 -27.827362 -0.496252 1005 0.100563 0.994931 0.000000
-29.284725 -27.827518 -0.483850 979 0.100563 0.994931 0.000000
-29.285358 -27.828125 -0.471454 985 0.100563 0.994931 0.000000
-29.285223 -27.827993 -0.421824 997 0.100563 0.994931 0.000000
-29.283989 -27.826826 -0.409395 1001 0.100563 0.994931 0.000000
-29.285023 -27.827812 -0.397005 1009 0.100563 0.994931 0.000000
-29.285376 -27.828148 -0.384602 1007 0.100563 0.994931 0.000000
-29.285198 -27.827976 -0.372193 1005 0.100563 0.994931 0.000000
-29.285065 -27.827850 -0.359784 993 0.100563 0.994931 0.000000
-29.284195 -27.827023 -0.347362 995 0.100563 0.994931 0.000000
-29.284651 -27.827456 -0.334967 997 0.100563 0.994931 0.000000
-29.284821 -27.827618 -0.322555 993 0.100563 0.994931 0.000000
-29.284945 -27.827742 -0.310154 997 0.100563 0.994931 0.000000
-29.285547 -27.828310 -0.297758 993 0.100563 0.994931 0.000000
