149
-29.018753 -28.148905 -0.672300 817 0.265778 0.964034 0.000000
-29.016788 -28.146997 -0.647418 805 0.265778 0.964034 0.000000
-29.017262 -28.147455 -0.635004 795 0.265778 0.964034 0.000000
-29.017710 -28.147892 -0.622599 815 0.265778 0.964034 0.000000
-29.017998 -28.148169 -0.610186 769 0.265778 0.964034 0.000000
-29.016603 -28.146818 -0.597739 799 0.265778 0.964034 0.000000
-29.017342 -28.147537 -0.535670 815 0.265778 0.964034 0.000000
-29.018499 -28.148659 -0.523269 811 0.265778 0.964034 0.000000
-29.017159 -28.147354 -0.510832 789 0.265778 0.964034 0.000000
-29.016689 -28.146900 -0.473575 787 0.265778 0.964034 0.000000
-29.017792 -28.147974 -0.461174 797 0.265778 0.964034 0.000000
-29.017050 -28.147249 -0.448751 809 0.265778 0.964034 0.000000
-29.017418 -28.147610 -0.399087 817 0.265778 0.964034 0.000000
-29.018505 -28.148657 -0.386686 809 0.265778 0.964034 0.000000
-29.017321 -28.147509 -0.374257 811 0.265778 0.964034 0.000000
-29.016642 -28.146858 -0.349423 811 0.265778 0.964034 0.000000
-29.029219 -28.141491 -0.672340 833 0.265778 0.964034 0.000000
-29.030352 -28.142591 -0.659949 807 0.265778 0.964034 0.000000
-29.030033 -28.142282 -0.647522 793 0.265778 0.964034 0.000000
-29.029587 -28.141855 -0.635086 787 0.265778 0.964034 0.000000
-29.030249 -28.142494 -0.622689 793 0.265778 0.964034 0.000000
-29.029390 -28.141657 -0.610247 801 0.265778 0.964034 0.000000
-29.029108 -28.141394 -0.597819 817 0.265778 0.964034 0.000000
-29.030499 -28.142735 -0.585436 813 0.265778 0.964034 0.000000
-29.032255 -28.144445 -0.573049 817 0.265778 0.964034 0.000000
-29.032433 -28.144617 -0.560627 809 0.265778 0.964034 0.000000
-29.032921 -28.145088 -0.548222 791 0.265778 0.964034 0.000000
-29.031792 -28.143986 -0.535782 805 0.265778 0.964034 0.000000
-29.028337 -28.140640 -0.523295 805 0.265778 0.964034 0.000000
-29.029339 -28.141619 -0.510895 799 0.265778 0.964034 0.000000
-29.030441 -28.142679 -0.498504 823 0.265778 0.964034 0.000000
-29.029024 -28.141310 -0.486058 805 0.265778 0.964034 0.000000
-29.030865 -28.143093 -0.473670 807 0.265778 0.964034 0.000000
-29.032440 -28.144615 -0.461275 801 0.265778 0.964034 0.000000
-29.029703 -28.141960 -0.448810 795 0.265778 0.964034 0.000000
-29.030800 -28.143028 -0.436410 791 0.265778 0.964034 0.000000
-29.032997 -28.145163 -0.424028 803 0.265778 0.964034 0.000000
-29.033043 -28.145197 -0.411608 803 0.265778 0.964034 0.000000
-29.032490 -28.144667 -0.399183 797 0.265778 0.964034 0.000000
-29.032946 -28.145111 -0.386768 803 0.265778 0.964034 0.000000
-29.032455 -28.144632 -0.374342 809 0.265778 0.964034 0.000000
-29.030121 -28.142366 -0.361894 791 0.265778 0.964034 0.000000
-29.029520 -28.141783 -0.349470 771 0.265778 0.964034 0.000000
-29.030008 -28.142267 -0.337065 741 0.265778 0.964034 0.000000
-29.032032 -28.144228 -0.324665 753 0.265778 0.964034 0.000000
-29.033831 -28.145962 -0.312268 731 0.265778 0.964034 0.000000
-29.032530 -28.144705 -0.299840 749 0.265778 0.964034 0.000000
-29.046450 -28.140001 -0.672539 807 0.265778 0.964034 0.000000
-29.046185 -28.139736 -0.660101 815 0.265778 0.964034 0.000000
-29.042582 -28.136255 -0.647605 771 0.265778 0.964034 0.000000
-29.044931 -28.138527 -0.635233 793 0.265778 0.964034 0.000000
-29.048698 -28.142179 -0.622896 795 0.265778 0.964034 0.000000
-29.046745 -28.140285 -0.610425 817 0.265778 0.964034 0.000000
-29.044403 -28.138012 -0.597957 815 0.265778 0.964034 0.000000
-29.043329 -28.136969 -0.585517 813 0.265778 0.964034 0.000000
-29.042767 -28.136433 -0.573082 785 0.265778 0.964034 0.000000
-29.043007 -28.136654 -0.560669 791 0.265778 0.964034 0.000000
-29.044443 -28.138046 -0.548275 795 0.265778 0.964034 0.000000
-29.044123 -28.137739 -0.535848 803 0.265778 0.964034 0.000000
-29.043825 -28.137447 -0.523420 807 0.265778 0.964034 0.000000
-29.044680 -28.138273 -0.511012 795 0.265778 0.964034 0.000000
-29.043526 -28.137165 -0.498573 819 0.265778 0.964034 0.000000
-29.041481 -28.135181 -0.486122 809 0.265778 0.964034 0.000000
-29.040600 -28.134323 -0.473690 797 0.265778 0.964034 0.000000
-29.043165 -28.136816 -0.461305 819 0.265778 0.964034 0.000000
-29.045473 -28.139040 -0.448923 809 0.265778 0.964034 0.000000
-29.042524 -28.136185 -0.436461 803 0.265778 0.964034 0.000000
-29.043781 -28.137400 -0.424059 789 0.265778 0.964034 0.000000
-29.046799 -28.140335 -0.411680 791 0.265778 0.964034 0.000000
-29.044525 -28.138132 -0.399231 797 0.265778 0.964034 0.000000
-29.044781 -28.138369 -0.386818 795 0.265778 0.964034 0.000000
-29.044920 -28.138510 -0.374397 803 0.265778 0.964034 0.000000
-29.044317 -28.137924 -0.361972 781 0.265778 0.964034 0.000000
-29.045078 -28.138662 -0.349554 783 0.265778 0.964034 0.000000
-29.044737 -28.138334 -0.337137 753 0.265778 0.964034 0.000000
-29.045542 -28.139109 -0.324719 755 0.265778 0.964034 0.000000
-29.044086 -28.137693 -0.312283 743 0.265778 0.964034 0.000000
-29.044466 -28.138073 -0.299869 719 0.265778 0.964034 0.000000
-29.062353 -28.136826 -0.672692 799 0.265778 0.964034 0.000000
-29.061651 -28.136147 -0.660249 791 0.265778 0.964034 0.000000
-29.059336 -28.133911 -0.647780 789 0.265778 0.964034 0.000000
-29.059635 -28.134197 -0.635357 777 0.265778 0.964034 0.000000
-29.062809 -28.137274 -0.623007 789 0.265778 0.964034 0.000000
-29.063108 -28.137562 -0.610584 775 0.265778 0.964034 0.000000
-29.061396 -28.135906 -0.598120 775 0.265778 0.964034 0.000000
-29.061005 -28.135527 -0.585693 787 0.265778 0.964034 0.000000
-29.063023 -28.137482 -0.573304 771 0.265778 0.964034 0.000000
-29.063148 -28.137594 -0.560882 795 0.265778 0.964034 0.000000
-29.060637 -28.135170 -0.548406 779 0.265778 0.964034 0.000000
-29.060081 -28.134623 -0.535981 771 0.265778 0.964034 0.000000
-29.061089 -28.135607 -0.523571 793 0.265778 0.964034 0.000000
-29.059526 -28.134090 -0.511115 803 0.265778 0.964034 0.000000
-29.057175 -28.131809 -0.498658 781 0.265778 0.964034 0.000000
-29.059227 -28.133793 -0.486268 795 0.265778 0.964034 0.000000
-29.063059 -28.137512 -0.473911 795 0.265778 0.964034 0.000000
-29.062279 -28.136755 -0.461468 779 0.265778 0.964034 0.000000
-29.060007 -28.134556 -0.449009 779 0.265778 0.964034 0.000000
-29.058846 -28.133425 -0.436570 755 0.265778 0.964034 0.000000
-29.057047 -28.131687 -0.424127 753 0.265778 0.964034 0.000000
-29.057453 -28.132088 -0.411713 781 0.265778 0.964034 0.000000
-29.059797 -28.134356 -0.399320 789 0.265778 0.964034 0.000000
-29.059679 -28.134241 -0.386891 783 0.265778 0.964034 0.000000
-29.060385 -28.134918 -0.374484 779 0.265778 0.964034 0.000000
-29.059786 -28.134338 -0.362049 787 0.265778 0.964034 0.000000
-29.058874 -28.133453 -0.349618 777 0.265778 0.964034 0.000000
-29.058844 -28.133425 -0.337198 759 0.265778 0.964034 0.000000
-29.058956 -28.133545 -0.324776 741 0.265778 0.964034 0.000000
-29.060722 -28.135250 -0.312369 727 0.265778 0.964034 0.000000
-29.060051 -28.134596 -0.299946 757 0.265778 0.964034 0.000000
-29.075169 -28.131363 -0.672792 761 0.265778 0.964034 0.000000
-29.073360 -28.129614 -0.660318 773 0.265778 0.964034 0.000000
-29.071207 -28.127527 -0.647849 771 0.265778 0.964034 0.000000
-29.071814 -28.128107 -0.635433 763 0.265778 0.964034 0.000000
-29.072113 -28.128407 -0.623020 749 0.265778 0.964034 0.000000
-29.073566 -28.129814 -0.610625 757 0.265778 0.964034 0.000000
-29.073704 -28.129940 -0.598194 763 0.265778 0.964034 0.000000
-29.072987 -28.129246 -0.585760 763 0.265778 0.964034 0.000000
-29.072060 -28.128351 -0.573309 763 0.265778 0.964034 0.000000
-29.073978 -28.130211 -0.560930 765 0.265778 0.964034 0.000000
-29.076628 -28.132774 -0.548545 771 0.265778 0.964034 0.000000
-29.074955 -28.131153 -0.536090 769 0.265778 0.964034 0.000000
-29.072123 -28.128418 -0.523617 769 0.265778 0.964034 0.000000
-29.072088 -28.128374 -0.511187 785 0.265778 0.964034 0.000000
-29.075768 -28.131939 -0.498832 787 0.265778 0.964034 0.000000
-29.075464 -28.131643 -0.486394 779 0.265778 0.964034 0.000000
-29.074255 -28.130474 -0.473956 787 0.265778 0.964034 0.000000
-29.075037 -28.131229 -0.461538 771 0.265778 0.964034 0.000000
-29.074234 -28.130451 -0.449105 745 0.265778 0.964034 0.000000
-29.075441 -28.131626 -0.436693 767 0.265778 0.964034 0.000000
-29.072857 -28.129126 -0.424228 775 0.265778 0.964034 0.000000
-29.071007 -28.127329 -0.411775 767 0.265778 0.964034 0.000000
-29.074821 -28.131021 -0.399408 761 0.265778 0.964034 0.000000
-29.075699 -28.131868 -0.387000 777 0.265778 0.964034 0.000000
-29.075829 -28.131998 -0.374568 755 0.265778 0.964034 0.000000
-29.077143 -28.133263 -0.362166 771 0.265778 0.964034 0.000000
-29.077635 -28.133738 -0.349741 755 0.265778 0.964034 0.000000
-29.075815 -28.131981 -0.337298 727 0.265778 0.964034 0.000000
-29.073938 -28.130163 -0.324845 703 0.265778 0.964034 0.000000
-29.073004 -28.129263 -0.312414 709 0.265778 0.964034 0.000000
-29.074141 -28.130363 -0.300003 735 0.265778 0.964034 0.000000
-29.086197 -28.124151 -0.536145 749 0.265778 0.964034 0.000000
-29.086996 -28.124920 -0.523727 757 0.265778 0.964034 0.000000
-29.086794 -28.124722 -0.511299 773 0.265778 0.964034 0.000000
-29.087593 -28.125490 -0.498881 761 0.265778 0.964034 0.000000
-29.088003 -28.125895 -0.424325 739 0.265778 0.964034 0.000000
-29.087456 -28.125368 -0.411890 787 0.265778 0.964034 0.000000
-29.087227 -28.125135 -0.399462 769 0.265778 0.964034 0.000000
-29.087904 -28.125790 -0.387045 771 0.265778 0.964034 0.000000
-29.087910 -28.125797 -0.337334 701 0.265778 0.964034 0.000000
