150
-29.201422 -27.950048 -0.659380 853 0.580220 0.814460 0.000000
-29.200510 -27.949179 -0.646938 853 0.580220 0.814460 0.000000
-29.200274 -27.948956 -0.634520 859 0.580220 0.814460 0.000000
-29.199318 -27.948034 -0.622079 861 0.580220 0.814460 0.000000
-29.199339 -27.948063 -0.609668 861 0.580220 0.814460 0.000000
-29.200268 -27.948942 -0.597269 873 0.580220 0.814460 0.000000
-29.200773 -27.949438 -0.584864 873 0.580220 0.814460 0.000000
-29.200310 -27.948988 -0.572438 855 0.580220 0.814460 0.000000
-29.202507 -27.951096 -0.560067 863 0.580220 0.814460 0.000000
-29.202785 -27.951363 -0.547654 857 0.580220 0.814460 0.000000
-29.201633 -27.950253 -0.535225 873 0.580220 0.814460 0.000000
-29.201071 -27.949722 -0.522790 861 0.580220 0.814460 0.000000
-29.202295 -27.950886 -0.510398 845 0.580220 0.814460 0.000000
-29.202496 -27.951086 -0.497986 845 0.580220 0.814460 0.000000
-29.201973 -27.950588 -0.485561 839 0.580220 0.814460 0.000000
-29.202988 -27.951551 -0.473161 859 0.580220 0.814460 0.000000
-29.202297 -27.950890 -0.460737 855 0.580220 0.814460 0.000000
-29.200603 -27.949270 -0.448293 875 0.580220 0.814460 0.000000
-29.200226 -27.948917 -0.435876 863 0.580220 0.814460 0.000000
-29.200741 -27.949404 -0.423471 849 0.580220 0.814460 0.000000
-29.201309 -27.949947 -0.411065 847 0.580220 0.814460 0.000000
-29.201880 -27.950493 -0.398659 833 0.580220 0.814460 0.000000
-29.201384 -27.950020 -0.386234 839 0.580220 0.814460 0.000000
-29.199835 -27.948544 -0.373798 843 0.580220 0.814460 0.000000
-29.200073 -27.948765 -0.361396 841 0.580220 0.814460 0.000000
-29.201723 -27.950356 -0.349000 831 0.580220 0.814460 0.000000
-29.201502 -27.950132 -0.336581 831 0.580220 0.814460 0.000000
-29.202627 -27.951212 -0.324180 825 0.580220 0.814460 0.000000
-29.203648 -27.952196 -0.311770 807 0.580220 0.814460 0.000000
-29.203388 -27.951941 -0.299353 817 0.580220 0.814460 0.000000
-29.209818 -27.940655 -0.659378 839 0.580220 0.814460 0.000000
-29.210690 -27.941490 -0.646980 839 0.580220 0.814460 0.000000
-29.211424 -27.942194 -0.634583 835 0.580220 0.814460 0.000000
-29.213253 -27.943935 -0.622195 857 0.580220 0.814460 0.000000
-29.212866 -27.943575 -0.609778 839 0.580220 0.814460 0.000000
-29.213459 -27.944139 -0.597373 859 0.580220 0.814460 0.000000
-29.212912 -27.943621 -0.584937 885 0.580220 0.814460 0.000000
-29.214310 -27.944954 -0.572554 861 0.580220 0.814460 0.000000
-29.213266 -27.943962 -0.560113 867 0.580220 0.814460 0.000000
-29.209642 -27.940491 -0.547628 851 0.580220 0.814460 0.000000
-29.210609 -27.941414 -0.535228 865 0.580220 0.814460 0.000000
-29.212410 -27.943142 -0.522851 873 0.580220 0.814460 0.000000
-29.211740 -27.942499 -0.510417 847 0.580220 0.814460 0.000000
-29.210682 -27.941481 -0.497986 853 0.580220 0.814460 0.000000
-29.211853 -27.942612 -0.485585 859 0.580220 0.814460 0.000000
-29.212696 -27.943407 -0.473187 843 0.580220 0.814460 0.000000
-29.212538 -27.943262 -0.460768 857 0.580220 0.814460 0.000000
-29.211527 -27.942297 -0.448337 853 0.580220 0.814460 0.000000
-29.211634 -27.942396 -0.435926 843 0.580220 0.814460 0.000000
-29.211618 -27.942379 -0.423506 845 0.580220 0.814460 0.000000
-29.212078 -27.942823 -0.411101 835 0.580220 0.814460 0.000000
-29.213655 -27.944328 -0.398706 831 0.580220 0.814460 0.000000
-29.214584 -27.945221 -0.386297 841 0.580220 0.814460 0.000000
-29.211655 -27.942415 -0.373844 827 0.580220 0.814460 0.000000
-29.210629 -27.941437 -0.361424 827 0.580220 0.814460 0.000000
-29.212132 -27.942881 -0.349019 817 0.580220 0.814460 0.000000
-29.212519 -27.943249 -0.336615 805 0.580220 0.814460 0.000000
-29.211750 -27.942509 -0.324192 825 0.580220 0.814460 0.000000
-29.211817 -27.942575 -0.311771 825 0.580220 0.814460 0.000000
-29.213106 -27.943804 -0.299369 795 0.580220 0.814460 0.000000
-29.219650 -27.933651 -0.659418 849 0.580220 0.814460 0.000000
-29.222738 -27.936611 -0.647069 839 0.580220 0.814460 0.000000
-29.220469 -27.934439 -0.634600 839 0.580220 0.814460 0.000000
-29.219795 -27.933804 -0.622166 827 0.580220 0.814460 0.000000
-29.221516 -27.935452 -0.609789 847 0.580220 0.814460 0.000000
-29.220863 -27.934822 -0.597355 839 0.580220 0.814460 0.000000
-29.221321 -27.935261 -0.584951 819 0.580220 0.814460 0.000000
-29.221329 -27.935280 -0.572530 819 0.580220 0.814460 0.000000
-29.221397 -27.935347 -0.560119 837 0.580220 0.814460 0.000000
-29.221785 -27.935715 -0.547705 837 0.580220 0.814460 0.000000
-29.222975 -27.936861 -0.535314 845 0.580220 0.814460 0.000000
-29.221924 -27.935863 -0.522873 857 0.580220 0.814460 0.000000
-29.219654 -27.933691 -0.510425 829 0.580220 0.814460 0.000000
-29.220184 -27.934204 -0.498009 861 0.580220 0.814460 0.000000
-29.222029 -27.935966 -0.485631 865 0.580220 0.814460 0.000000
-29.221291 -27.935266 -0.473198 847 0.580220 0.814460 0.000000
-29.221933 -27.935884 -0.460792 875 0.580220 0.814460 0.000000
-29.223667 -27.937546 -0.448405 841 0.580220 0.814460 0.000000
-29.222704 -27.936634 -0.435974 827 0.580220 0.814460 0.000000
-29.222589 -27.936523 -0.423555 849 0.580220 0.814460 0.000000
-29.222088 -27.936043 -0.411129 839 0.580220 0.814460 0.000000
-29.221283 -27.935286 -0.398706 837 0.580220 0.814460 0.000000
-29.219831 -27.933893 -0.386270 825 0.580220 0.814460 0.000000
-29.217634 -27.931805 -0.373820 807 0.580220 0.814460 0.000000
-29.220104 -27.934162 -0.361437 807 0.580220 0.814460 0.000000
-29.221018 -27.935043 -0.349038 807 0.580220 0.814460 0.000000
-29.220562 -27.934612 -0.336622 807 0.580220 0.814460 0.000000
-29.220648 -27.934694 -0.324201 841 0.580220 0.814460 0.000000
-29.220293 -27.934361 -0.311784 809 0.580220 0.814460 0.000000
-29.221369 -27.935389 -0.299383 799 0.580220 0.814460 0.000000
-29.232046 -27.926390 -0.659488 851 0.580220 0.814460 0.000000
-29.232718 -27.927031 -0.647081 855 0.580220 0.814460 0.000000
-29.234818 -27.929033 -0.634711 825 0.580220 0.814460 0.000000
-29.234697 -27.928919 -0.622292 807 0.580220 0.814460 0.000000
-29.232452 -27.926779 -0.609823 803 0.580220 0.814460 0.000000
-29.231684 -27.926039 -0.597390 825 0.580220 0.814460 0.000000
-29.232668 -27.926977 -0.584990 809 0.580220 0.814460 0.000000
-29.232159 -27.926504 -0.572564 811 0.580220 0.814460 0.000000
-29.231815 -27.926167 -0.560137 837 0.580220 0.814460 0.000000
-29.234148 -27.928400 -0.547765 839 0.580220 0.814460 0.000000
-29.233276 -27.927561 -0.535333 815 0.580220 0.814460 0.000000
-29.233551 -27.927822 -0.522920 843 0.580220 0.814460 0.000000
-29.233875 -27.928141 -0.510507 833 0.580220 0.814460 0.000000
-29.234671 -27.928896 -0.498099 847 0.580220 0.814460 0.000000
-29.234356 -27.928598 -0.485682 845 0.580220 0.814460 0.000000
-29.232656 -27.926971 -0.473237 825 0.580220 0.814460 0.000000
-29.234718 -27.928946 -0.460848 843 0.580220 0.814460 0.000000
-29.233818 -27.928082 -0.448416 843 0.580220 0.814460 0.000000
-29.233229 -27.927517 -0.435991 829 0.580220 0.814460 0.000000
-29.235113 -27.929327 -0.423603 821 0.580220 0.814460 0.000000
-29.234516 -27.928755 -0.411178 815 0.580220 0.814460 0.000000
-29.232019 -27.926369 -0.398722 825 0.580220 0.814460 0.000000
-29.229092 -27.923578 -0.386269 789 0.580220 0.814460 0.000000
-29.231358 -27.925741 -0.373887 811 0.580220 0.814460 0.000000
-29.234657 -27.928886 -0.361506 823 0.580220 0.814460 0.000000
-29.234144 -27.928398 -0.349090 817 0.580220 0.814460 0.000000
-29.235756 -27.929945 -0.336685 809 0.580220 0.814460 0.000000
-29.237263 -27.931379 -0.324290 817 0.580220 0.814460 0.000000
-29.235752 -27.929935 -0.311854 783 0.580220 0.814460 0.000000
-29.234293 -27.928537 -0.299418 807 0.580220 0.814460 0.000000
-29.243067 -27.919172 -0.659543 801 0.580220 0.814460 0.000000
-29.243322 -27.919407 -0.647130 799 0.580220 0.814460 0.000000
-29.243320 -27.919403 -0.634710 817 0.580220 0.814460 0.000000
-29.243036 -27.919140 -0.622282 803 0.580220 0.814460 0.000000
-29.242369 -27.918497 -0.609848 789 0.580220 0.814460 0.000000
-29.243141 -27.919233 -0.597451 819 0.580220 0.814460 0.000000
-29.245066 -27.921078 -0.585072 813 0.580220 0.814460 0.000000
-29.244726 -27.920757 -0.572645 819 0.580220 0.814460 0.000000
-29.243105 -27.919197 -0.560190 817 0.580220 0.814460 0.000000
-29.242329 -27.918463 -0.547757 803 0.580220 0.814460 0.000000
-29.243179 -27.919279 -0.535359 815 0.580220 0.814460 0.000000
-29.244249 -27.920301 -0.522959 829 0.580220 0.814460 0.000000
-29.245161 -27.921169 -0.510560 815 0.580220 0.814460 0.000000
-29.245115 -27.921129 -0.498140 835 0.580220 0.814460 0.000000
-29.243795 -27.919870 -0.485692 817 0.580220 0.814460 0.000000
-29.244005 -27.920067 -0.473280 831 0.580220 0.814460 0.000000
-29.244270 -27.920321 -0.460867 839 0.580220 0.814460 0.000000
-29.242250 -27.918394 -0.448416 811 0.580220 0.814460 0.000000
-29.242350 -27.918486 -0.436005 801 0.580220 0.814460 0.000000
-29.244623 -27.920658 -0.423623 821 0.580220 0.814460 0.000000
-29.244068 -27.920132 -0.411188 797 0.580220 0.814460 0.000000
-29.244955 -27.920979 -0.398789 801 0.580220 0.814460 0.000000
-29.245581 -27.921568 -0.386373 825 0.580220 0.814460 0.000000
-29.243402 -27.919485 -0.373933 807 0.580220 0.814460 0.000000
-29.243479 -27.919558 -0.361512 817 0.580220 0.814460 0.000000
-29.244183 -27.920240 -0.349105 805 0.580220 0.814460 0.000000
-29.244570 -27.920609 -0.336691 803 0.580220 0.814460 0.000000
-29.245819 -27.921791 -0.324289 801 0.580220 0.814460 0.000000
-29.246414 -27.922371 -0.311873 767 0.580220 0.814460 0.000000
-29.246277 -27.922230 -0.299454 795 0.580220 0.814460 0.000000
