91
-29.263786 -28.040712 -0.673608 141 -0.252766 0.967527 0.000000
-29.270426 -28.047068 -0.661315 135 -0.252766 0.967527 0.000000
-29.269354 -28.046051 -0.648835 111 -0.252766 0.967527 0.000000
-29.266069 -28.042906 -0.636316 109 -0.252766 0.967527 0.000000
-29.268906 -28.045622 -0.623918 99 -0.252766 0.967527 0.000000
-29.266878 -28.043673 -0.611427 113 -0.252766 0.967527 0.000000
-29.262617 -28.039604 -0.598887 113 -0.252766 0.967527 0.000000
-29.261530 -28.038561 -0.586417 103 -0.252766 0.967527 0.000000
-29.266729 -28.043543 -0.574068 165 -0.252766 0.967527 0.000000
-29.266016 -28.042860 -0.561604 143 -0.252766 0.967527 0.000000
-29.261911 -28.038921 -0.549083 161 -0.252766 0.967527 0.000000
-29.263615 -28.040560 -0.536667 117 -0.252766 0.967527 0.000000
-29.269909 -28.046591 -0.524327 169 -0.252766 0.967527 0.000000
-29.268284 -28.045025 -0.511852 139 -0.252766 0.967527 0.000000
-29.267546 -28.044321 -0.499388 205 -0.252766 0.967527 0.000000
-29.265879 -28.042721 -0.486914 189 -0.252766 0.967527 0.000000
-29.262007 -28.039013 -0.474400 167 -0.252766 0.967527 0.000000
-29.261639 -28.038668 -0.461944 169 -0.252766 0.967527 0.000000
-29.260269 -28.037350 -0.449476 177 -0.252766 0.967527 0.000000
-29.260202 -28.037294 -0.437027 185 -0.252766 0.967527 0.000000
-29.261982 -28.038998 -0.424609 163 -0.252766 0.967527 0.000000
-29.265507 -28.042374 -0.412216 191 -0.252766 0.967527 0.000000
-29.267441 -28.044230 -0.399787 225 -0.252766 0.967527 0.000000
-29.263250 -28.040220 -0.387286 165 -0.252766 0.967527 0.000000
-29.258739 -28.035892 -0.374779 145 -0.252766 0.967527 0.000000
-29.257666 -28.034861 -0.362319 119 -0.252766 0.967527 0.000000
-29.264181 -28.041113 -0.349957 127 -0.252766 0.967527 0.000000
-29.267899 -28.044678 -0.337551 93 -0.252766 0.967527 0.000000
-29.264912 -28.041815 -0.325069 91 -0.252766 0.967527 0.000000
-29.261330 -28.038387 -0.312583 87 -0.252766 0.967527 0.000000
-29.265858 -28.042709 -0.300180 59 -0.252766 0.967527 0.000000
-29.270405 -28.047077 -0.287776 79 -0.252766 0.967527 0.000000
-29.299042 -28.056664 -0.674224 163 -0.252766 0.967527 0.000000
-29.298187 -28.055838 -0.661742 111 -0.252766 0.967527 0.000000
-29.299700 -28.057295 -0.649317 71 -0.252766 0.967527 0.000000
-29.301800 -28.059299 -0.636897 121 -0.252766 0.967527 0.000000
-29.298189 -28.055845 -0.624361 109 -0.252766 0.967527 0.000000
-29.296686 -28.054405 -0.611865 117 -0.252766 0.967527 0.000000
-29.301683 -28.059183 -0.599507 119 -0.252766 0.967527 0.000000
-29.298008 -28.055677 -0.586972 161 -0.252766 0.967527 0.000000
-29.290222 -28.048212 -0.574365 139 -0.252766 0.967527 0.000000
-29.289495 -28.047518 -0.561892 61 -0.252766 0.967527 0.000000
-29.291050 -28.049007 -0.549467 75 -0.252766 0.967527 0.000000
-29.289162 -28.047199 -0.536974 79 -0.252766 0.967527 0.000000
-29.288115 -28.046202 -0.524504 133 -0.252766 0.967527 0.000000
-29.295050 -28.052841 -0.512168 145 -0.252766 0.967527 0.000000
-29.293633 -28.051487 -0.499681 119 -0.252766 0.967527 0.000000
-29.290403 -28.048399 -0.487171 167 -0.252766 0.967527 0.000000
-29.291191 -28.049152 -0.474734 163 -0.252766 0.967527 0.000000
-29.288704 -28.046770 -0.462237 153 -0.252766 0.967527 0.000000
-29.290396 -28.048388 -0.449811 95 -0.252766 0.967527 0.000000
-29.294981 -28.052784 -0.437417 139 -0.252766 0.967527 0.000000
-29.287579 -28.045691 -0.424857 133 -0.252766 0.967527 0.000000
-29.286671 -28.044821 -0.412385 145 -0.252766 0.967527 0.000000
-29.292725 -28.050627 -0.400017 167 -0.252766 0.967527 0.000000
-29.296770 -28.054502 -0.387619 95 -0.252766 0.967527 0.000000
-29.299017 -28.056656 -0.375187 111 -0.252766 0.967527 0.000000
-29.294085 -28.051928 -0.362663 111 -0.252766 0.967527 0.000000
-29.291431 -28.049381 -0.350178 105 -0.252766 0.967527 0.000000
-29.289825 -28.047850 -0.287892 133 -0.252766 0.967527 0.000000
-29.317297 -28.056303 -0.674441 183 -0.252766 0.967527 0.000000
-29.317186 -28.056196 -0.661972 155 -0.252766 0.967527 0.000000
-29.304434 -28.043989 -0.649232 127 -0.252766 0.967527 0.000000
-29.303415 -28.043015 -0.636742 81 -0.252766 0.967527 0.000000
-29.311317 -28.050573 -0.624456 63 -0.252766 0.967527 0.000000
-29.314051 -28.053192 -0.612050 121 -0.252766 0.967527 0.000000
-29.314354 -28.053478 -0.599597 71 -0.252766 0.967527 0.000000
-29.319241 -28.058153 -0.587230 137 -0.252766 0.967527 0.000000
-29.322741 -28.061512 -0.574837 149 -0.252766 0.967527 0.000000
-29.319120 -28.058050 -0.562301 119 -0.252766 0.967527 0.000000
-29.314541 -28.053663 -0.549744 123 -0.252766 0.967527 0.000000
-29.320633 -28.059490 -0.537396 173 -0.252766 0.967527 0.000000
-29.318996 -28.057928 -0.524901 175 -0.252766 0.967527 0.000000
-29.310345 -28.049644 -0.512283 153 -0.252766 0.967527 0.000000
-29.315210 -28.054300 -0.499907 151 -0.252766 0.967527 0.000000
-29.317802 -28.056791 -0.487492 203 -0.252766 0.967527 0.000000
-29.317120 -28.056133 -0.475018 179 -0.252766 0.967527 0.000000
-29.319717 -28.058619 -0.462593 143 -0.252766 0.967527 0.000000
-29.316006 -28.055065 -0.450068 183 -0.252766 0.967527 0.000000
-29.315407 -28.054491 -0.437603 135 -0.252766 0.967527 0.000000
-29.311556 -28.050812 -0.425079 177 -0.252766 0.967527 0.000000
-29.311573 -28.050835 -0.400159 163 -0.252766 0.967527 0.000000
-29.321705 -28.060534 -0.387832 147 -0.252766 0.967527 0.000000
-29.312649 -28.051863 -0.375248 131 -0.252766 0.967527 0.000000
-29.299932 -28.039686 -0.362638 63 -0.252766 0.967527 0.000000
-29.306143 -28.045635 -0.350259 115 -0.252766 0.967527 0.000000
-29.312031 -28.051268 -0.337863 111 -0.252766 0.967527 0.000000
-29.311575 -28.050837 -0.325397 123 -0.252766 0.967527 0.000000
-29.314301 -28.053438 -0.312971 63 -0.252766 0.967527 0.000000
-29.317001 -28.056030 -0.300535 119 -0.252766 0.967527 0.000000
-29.313950 -28.053104 -0.288043 93 -0.252766 0.967527 0.000000
