64
-29.398735 -27.634720 -0.670359 655 -0.411771 0.911288 0.000000
-29.398924 -27.634911 -0.657967 655 -0.411771 0.911288 0.000000
-29.401262 -27.637102 -0.645624 657 -0.411771 0.911287 0.000000
-29.402794 -27.638544 -0.633270 671 -0.411771 0.911288 0.000000
-29.403885 -27.639576 -0.620889 631 -0.411771 0.911288 0.000000
-29.401785 -27.637596 -0.608459 655 -0.411771 0.911288 0.000000
-29.400631 -27.636520 -0.596039 653 -0.411771 0.911288 0.000000
-29.399601 -27.635546 -0.583618 663 -0.411771 0.911288 0.000000
-29.400049 -27.635969 -0.571234 665 -0.411771 0.911288 0.000000
-29.401400 -27.637238 -0.558871 645 -0.411771 0.911288 0.000000
-29.398590 -27.634594 -0.546417 653 -0.411771 0.911288 0.000000
-29.398285 -27.634310 -0.534020 679 -0.411771 0.911288 0.000000
-29.397770 -27.633827 -0.521624 671 -0.411771 0.911288 0.000000
-29.394577 -27.630835 -0.509174 673 -0.411771 0.911287 0.000000
-29.393103 -27.629438 -0.496758 657 -0.411771 0.911288 0.000000
-29.392128 -27.628534 -0.484356 661 -0.411771 0.911288 0.000000
-29.393837 -27.630142 -0.471990 679 -0.411771 0.911288 0.000000
-29.395010 -27.631243 -0.459619 671 -0.411771 0.911288 0.000000
-29.396177 -27.632336 -0.447247 677 -0.411771 0.911288 0.000000
-29.397503 -27.633585 -0.434875 661 -0.411771 0.911288 0.000000
-29.396475 -27.632624 -0.422464 665 -0.411771 0.911288 0.000000
-29.396458 -27.632608 -0.410074 657 -0.411771 0.911288 0.000000
-29.398527 -27.634544 -0.397714 645 -0.411771 0.911288 0.000000
-29.397329 -27.633423 -0.385305 649 -0.411771 0.911287 0.000000
-29.396938 -27.633053 -0.372909 667 -0.411771 0.911288 0.000000
-29.397602 -27.633678 -0.360532 661 -0.411771 0.911288 0.000000
-29.393576 -27.629898 -0.348090 665 -0.411771 0.911288 0.000000
-29.391834 -27.628262 -0.335676 659 -0.411771 0.911288 0.000000
-29.393084 -27.629446 -0.323304 655 -0.411771 0.911288 0.000000
-29.393578 -27.629908 -0.310919 637 -0.411771 0.911288 0.000000
-29.395727 -27.631922 -0.298558 621 -0.411771 0.911288 0.000000
-29.394363 -27.630640 -0.286151 623 -0.411771 0.911288 0.000000
-29.436821 -27.653910 -0.671043 619 -0.411771 0.911288 0.000000
-29.439310 -27.656248 -0.658690 641 -0.411771 0.911288 0.000000
-29.438807 -27.655779 -0.646274 625 -0.411771 0.911288 0.000000
-29.435707 -27.652863 -0.633803 629 -0.411771 0.911288 0.000000
-29.435680 -27.652851 -0.621393 621 -0.411771 0.911288 0.000000
-29.433315 -27.650620 -0.608935 623 -0.411771 0.911288 0.000000
-29.432919 -27.650259 -0.596528 647 -0.411771 0.911287 0.000000
-29.432348 -27.649719 -0.584113 659 -0.411771 0.911288 0.000000
-29.432178 -27.649553 -0.571705 655 -0.411771 0.911288 0.000000
-29.432831 -27.650171 -0.559308 647 -0.411771 0.911288 0.000000
-29.434546 -27.651781 -0.546942 645 -0.411771 0.911288 0.000000
-29.434622 -27.651855 -0.534541 647 -0.411771 0.911288 0.000000
-29.433025 -27.650358 -0.522106 641 -0.411771 0.911288 0.000000
-29.432556 -27.649914 -0.509690 623 -0.411771 0.911288 0.000000
-29.431660 -27.649073 -0.497278 615 -0.411771 0.911288 0.000000
-29.432083 -27.649477 -0.484884 619 -0.411771 0.911288 0.000000
-29.429514 -27.647066 -0.472437 633 -0.411771 0.911288 0.000000
-29.430206 -27.647713 -0.460041 653 -0.411771 0.911287 0.000000
-29.430845 -27.648317 -0.447654 631 -0.411771 0.911288 0.000000
-29.429667 -27.647207 -0.435235 643 -0.411771 0.911288 0.000000
-29.429773 -27.647306 -0.422834 635 -0.411771 0.911288 0.000000
-29.431179 -27.648630 -0.410450 629 -0.411771 0.911288 0.000000
-29.432995 -27.650339 -0.398073 615 -0.411771 0.911288 0.000000
-29.428015 -27.645660 -0.385599 633 -0.411771 0.911288 0.000000
-29.427450 -27.645128 -0.373194 633 -0.411771 0.911288 0.000000
-29.429819 -27.647358 -0.360822 613 -0.411771 0.911288 0.000000
-29.427927 -27.645586 -0.348399 619 -0.411771 0.911288 0.000000
-29.426205 -27.643961 -0.335985 613 -0.411771 0.911288 0.000000
-29.425520 -27.643332 -0.323571 589 -0.411771 0.911288 0.000000
-29.427567 -27.645248 -0.311202 605 -0.411771 0.911288 0.000000
-29.427423 -27.645121 -0.298793 589 -0.411771 0.911288 0.000000
-29.426146 -27.643919 -0.286385 621 -0.411771 0.911288 0.000000
