145
-29.105545 -27.851355 -0.655663 1243 0.100563 0.994931 0.000000
-29.105118 -27.850952 -0.643287 1235 0.100563 0.994931 0.000000
-29.105413 -27.851231 -0.630914 1243 0.100563 0.994931 0.000000
-29.105444 -27.851265 -0.618543 1251 0.100563 0.994931 0.000000
-29.106575 -27.852354 -0.606192 1257 0.100563 0.994931 0.000000
-29.105968 -27.851765 -0.593808 1257 0.100563 0.994931 0.000000
-29.103565 -27.849464 -0.581380 1245 0.100563 0.994931 0.000000
-29.103729 -27.849636 -0.569008 1249 0.100563 0.994931 0.000000
-29.106031 -27.851837 -0.556686 1247 0.100563 0.994931 0.000000
-29.105896 -27.851698 -0.544307 1253 0.100563 0.994931 0.000000
-29.104414 -27.850292 -0.531911 1243 0.100563 0.994931 0.000000
-29.102753 -27.848700 -0.519506 1237 0.100563 0.994931 0.000000
-29.103798 -27.849705 -0.507146 1223 0.100563 0.994931 0.000000
-29.105141 -27.850979 -0.494803 1235 0.100563 0.994931 0.000000
-29.103657 -27.849562 -0.482407 1237 0.100563 0.994931 0.000000
-29.103762 -27.849669 -0.470036 1229 0.100563 0.994931 0.000000
-29.104239 -27.850121 -0.457671 1233 0.100563 0.994931 0.000000
-29.103544 -27.849461 -0.445287 1221 0.100563 0.994931 0.000000
-29.103220 -27.849154 -0.432910 1221 0.100563 0.994931 0.000000
-29.104208 -27.850100 -0.420550 1223 0.100563 0.994931 0.000000
-29.104836 -27.850702 -0.408194 1237 0.100563 0.994931 0.000000
-29.103535 -27.849459 -0.395796 1249 0.100563 0.994931 0.000000
-29.103256 -27.849188 -0.383428 1245 0.100563 0.994931 0.000000
-29.103178 -27.849121 -0.371049 1241 0.100563 0.994931 0.000000
-29.103308 -27.849237 -0.358687 1241 0.100563 0.994931 0.000000
-29.102867 -27.848824 -0.346311 1229 0.100563 0.994931 0.000000
-29.103081 -27.849031 -0.309198 1237 0.100563 0.994931 0.000000
-29.103668 -27.849600 -0.296832 1231 0.100563 0.994931 0.000000
-29.122780 -27.850801 -0.655865 1263 0.100563 0.994931 0.000000
-29.121920 -27.849979 -0.643473 1247 0.100563 0.994931 0.000000
-29.122108 -27.850170 -0.631101 1255 0.100563 0.994931 0.000000
-29.122036 -27.850096 -0.618721 1255 0.100563 0.994931 0.000000
-29.120705 -27.848825 -0.606314 1247 0.100563 0.994931 0.000000
-29.121086 -27.849186 -0.593940 1251 0.100563 0.994931 0.000000
-29.121172 -27.849279 -0.581569 1255 0.100563 0.994931 0.000000
-29.121185 -27.849287 -0.569188 1233 0.100563 0.994931 0.000000
-29.121159 -27.849262 -0.556818 1253 0.100563 0.994931 0.000000
-29.120750 -27.848875 -0.544432 1249 0.100563 0.994931 0.000000
-29.120180 -27.848331 -0.532047 1243 0.100563 0.994931 0.000000
-29.121460 -27.849554 -0.519694 1255 0.100563 0.994931 0.000000
-29.120726 -27.848848 -0.507301 1231 0.100563 0.994931 0.000000
-29.118885 -27.847097 -0.494898 1245 0.100563 0.994931 0.000000
-29.119583 -27.847755 -0.482531 1239 0.100563 0.994931 0.000000
-29.121050 -27.849171 -0.470177 1243 0.100563 0.994931 0.000000
-29.121311 -27.849419 -0.457804 1247 0.100563 0.994931 0.000000
-29.119820 -27.847992 -0.445408 1243 0.100563 0.994931 0.000000
-29.118914 -27.847124 -0.433027 1255 0.100563 0.994931 0.000000
-29.119652 -27.847824 -0.420659 1245 0.100563 0.994931 0.000000
-29.119892 -27.848059 -0.408287 1249 0.100563 0.994931 0.000000
-29.120520 -27.848658 -0.395920 1245 0.100563 0.994931 0.000000
-29.121872 -27.849953 -0.383567 1245 0.100563 0.994931 0.000000
-29.121052 -27.849178 -0.371175 1257 0.100563 0.994931 0.000000
-29.120657 -27.848803 -0.358798 1253 0.100563 0.994931 0.000000
-29.121103 -27.849230 -0.346424 1237 0.100563 0.994931 0.000000
-29.120502 -27.848644 -0.334049 1245 0.100563 0.994931 0.000000
-29.121304 -27.849413 -0.321681 1255 0.100563 0.994931 0.000000
-29.121740 -27.849833 -0.309307 1259 0.100563 0.994931 0.000000
-29.121189 -27.849314 -0.296932 1261 0.100563 0.994931 0.000000
-29.137951 -27.847954 -0.656018 1257 0.100563 0.994931 0.000000
-29.137201 -27.847237 -0.643625 1251 0.100563 0.994931 0.000000
-29.137768 -27.847773 -0.631250 1249 0.100563 0.994931 0.000000
-29.137789 -27.847801 -0.618869 1251 0.100563 0.994931 0.000000
-29.136818 -27.846865 -0.606468 1245 0.100563 0.994931 0.000000
-29.136431 -27.846493 -0.594082 1255 0.100563 0.994931 0.000000
-29.137043 -27.847082 -0.581715 1255 0.100563 0.994931 0.000000
-29.137915 -27.847919 -0.569357 1251 0.100563 0.994931 0.000000
-29.137566 -27.847580 -0.556970 1245 0.100563 0.994931 0.000000
-29.137623 -27.847639 -0.544589 1243 0.100563 0.994931 0.000000
-29.137484 -27.847509 -0.532210 1259 0.100563 0.994931 0.000000
-29.136677 -27.846745 -0.519817 1247 0.100563 0.994931 0.000000
-29.137911 -27.847918 -0.507455 1249 0.100563 0.994931 0.000000
-29.138075 -27.848074 -0.495083 1239 0.100563 0.994931 0.000000
-29.136280 -27.846363 -0.482670 1241 0.100563 0.994931 0.000000
-29.136654 -27.846716 -0.470296 1241 0.100563 0.994931 0.000000
-29.137218 -27.847265 -0.457931 1251 0.100563 0.994931 0.000000
-29.137068 -27.847113 -0.445542 1241 0.100563 0.994931 0.000000
-29.136686 -27.846746 -0.433165 1243 0.100563 0.994931 0.000000
-29.136738 -27.846802 -0.420784 1257 0.100563 0.994931 0.000000
-29.137352 -27.847389 -0.408418 1255 0.100563 0.994931 0.000000
-29.137381 -27.847425 -0.396038 1257 0.100563 0.994931 0.000000
-29.136726 -27.846798 -0.383654 1253 0.100563 0.994931 0.000000
-29.136244 -27.846336 -0.371268 1249 0.100563 0.994931 0.000000
-29.136683 -27.846756 -0.358893 1245 0.100563 0.994931 0.000000
-29.136925 -27.846991 -0.346521 1251 0.100563 0.994931 0.000000
-29.137800 -27.847820 -0.334152 1255 0.100563 0.994931 0.000000
-29.137173 -27.847227 -0.321768 1245 0.100563 0.994931 0.000000
-29.135778 -27.845892 -0.309371 1243 0.100563 0.994931 0.000000
-29.135517 -27.845652 -0.296993 1261 0.100563 0.994931 0.000000
-29.154955 -27.846489 -0.656206 1261 0.100563 0.994931 0.000000
-29.154778 -27.846315 -0.643818 1255 0.100563 0.994931 0.000000
-29.153927 -27.845501 -0.631415 1259 0.100563 0.994931 0.000000
-29.153152 -27.844765 -0.619013 1263 0.100563 0.994931 0.000000
-29.152712 -27.844351 -0.606626 1257 0.100563 0.994931 0.000000
-29.153847 -27.845430 -0.594265 1263 0.100563 0.994931 0.000000
-29.154343 -27.845909 -0.581890 1267 0.100563 0.994931 0.000000
-29.154270 -27.845833 -0.569511 1257 0.100563 0.994931 0.000000
-29.154709 -27.846256 -0.557136 1247 0.100563 0.994931 0.000000
-29.153872 -27.845453 -0.544734 1245 0.100563 0.994931 0.000000
-29.152611 -27.844255 -0.532326 1253 0.100563 0.994931 0.000000
-29.152737 -27.844379 -0.519944 1251 0.100563 0.994931 0.000000
-29.153214 -27.844830 -0.507569 1239 0.100563 0.994931 0.000000
-29.152008 -27.843676 -0.495170 1237 0.100563 0.994931 0.000000
-29.151682 -27.843369 -0.482783 1239 0.100563 0.994931 0.000000
-29.153646 -27.845255 -0.470434 1245 0.100563 0.994931 0.000000
-29.155134 -27.846674 -0.458080 1243 0.100563 0.994931 0.000000
-29.154432 -27.846006 -0.445686 1245 0.100563 0.994931 0.000000
-29.153366 -27.844980 -0.433286 1249 0.100563 0.994931 0.000000
-29.152250 -27.843924 -0.420886 1257 0.100563 0.994931 0.000000
-29.153395 -27.845011 -0.408525 1251 0.100563 0.994931 0.000000
-29.155022 -27.846569 -0.396159 1247 0.100563 0.994931 0.000000
-29.154253 -27.845837 -0.383766 1239 0.100563 0.994931 0.000000
-29.153278 -27.844908 -0.371375 1231 0.100563 0.994931 0.000000
-29.152718 -27.844370 -0.358990 1239 0.100563 0.994931 0.000000
-29.152748 -27.844391 -0.346610 1239 0.100563 0.994931 0.000000
-29.153563 -27.845173 -0.334232 1249 0.100563 0.994931 0.000000
-29.153372 -27.845001 -0.321853 1239 0.100563 0.994931 0.000000
-29.152693 -27.844353 -0.309459 1247 0.100563 0.994931 0.000000
-29.152393 -27.844067 -0.297082 1243 0.100563 0.994931 0.000000
-29.171635 -27.844383 -0.656389 1259 0.100563 0.994931 0.000000
-29.170618 -27.843407 -0.643978 1247 0.100563 0.994931 0.000000
-29.170530 -27.843332 -0.631589 1259 0.100563 0.994931 0.000000
-29.169411 -27.842260 -0.619179 1241 0.100563 0.994931 0.000000
-29.170713 -27.843506 -0.606816 1247 0.100563 0.994931 0.000000
-29.171545 -27.844307 -0.582058 1251 0.100563 0.994931 0.000000
-29.171312 -27.844076 -0.569670 1251 0.100563 0.994931 0.000000
-29.170904 -27.843689 -0.557273 1245 0.100563 0.994931 0.000000
-29.169786 -27.842628 -0.520093 1253 0.100563 0.994931 0.000000
-29.169306 -27.842167 -0.507707 1251 0.100563 0.994931 0.000000
-29.170479 -27.843290 -0.495336 1243 0.100563 0.994931 0.000000
-29.171284 -27.844063 -0.482968 1245 0.100563 0.994931 0.000000
-29.171494 -27.844257 -0.470586 1247 0.100563 0.994931 0.000000
-29.170170 -27.842993 -0.458178 1247 0.100563 0.994931 0.000000
-29.169147 -27.842026 -0.445777 1237 0.100563 0.994931 0.000000
-29.170038 -27.842869 -0.433399 1241 0.100563 0.994931 0.000000
-29.170605 -27.843416 -0.421023 1255 0.100563 0.994931 0.000000
-29.170334 -27.843155 -0.408635 1257 0.100563 0.994931 0.000000
-29.169790 -27.842630 -0.396250 1233 0.100563 0.994931 0.000000
-29.170191 -27.843021 -0.383866 1239 0.100563 0.994931 0.000000
-29.169596 -27.842457 -0.371471 1251 0.100563 0.994931 0.000000
-29.168871 -27.841759 -0.359078 1237 0.100563 0.994931 0.000000
-29.169161 -27.842043 -0.346695 1239 0.100563 0.994931 0.000000
-29.169819 -27.842669 -0.334318 1235 0.100563 0.994931 0.000000
-29.169418 -27.842287 -0.321932 1245 0.100563 0.994931 0.000000
-29.170012 -27.842859 -0.309556 1245 0.100563 0.994931 0.000000
-29.170725 -27.843529 -0.297179 1245 0.100563 0.994931 0.000000
