150
-29.016867 -28.086220 -0.658657 1395 0.580220 0.814460 0.000000
-29.017647 -28.086964 -0.646269 1417 0.580220 0.814460 0.000000
-29.017090 -28.086437 -0.633844 1401 0.580220 0.814460 0.000000
-29.015495 -28.084887 -0.621409 1391 0.580220 0.814460 0.000000
-29.015427 -28.084827 -0.608999 1407 0.580220 0.814460 0.000000
-29.015812 -28.085196 -0.596605 1397 0.580220 0.814460 0.000000
-29.015366 -28.084772 -0.584199 1407 0.580220 0.814460 0.000000
-29.015709 -28.085104 -0.571796 1405 0.580220 0.814460 0.000000
-29.015839 -28.085222 -0.559394 1405 0.580220 0.814460 0.000000
-29.016075 -28.085453 -0.547002 1405 0.580220 0.814460 0.000000
-29.016190 -28.085571 -0.534600 1391 0.580220 0.814460 0.000000
-29.016346 -28.085724 -0.522198 1385 0.580220 0.814460 0.000000
-29.016993 -28.086346 -0.509802 1395 0.580220 0.814460 0.000000
-29.016888 -28.086245 -0.497403 1405 0.580220 0.814460 0.000000
-29.016848 -28.086208 -0.484993 1403 0.580220 0.814460 0.000000
-29.016785 -28.086153 -0.472593 1401 0.580220 0.814460 0.000000
-29.016932 -28.086298 -0.460191 1405 0.580220 0.814460 0.000000
-29.017618 -28.086952 -0.447794 1405 0.580220 0.814460 0.000000
-29.018509 -28.087816 -0.435406 1407 0.580220 0.814460 0.000000
-29.018335 -28.087658 -0.422997 1405 0.580220 0.814460 0.000000
-29.017580 -28.086929 -0.410584 1399 0.580220 0.814460 0.000000
-29.016357 -28.085751 -0.398165 1397 0.580220 0.814460 0.000000
-29.016497 -28.085875 -0.385764 1395 0.580220 0.814460 0.000000
-29.017050 -28.086420 -0.373368 1401 0.580220 0.814460 0.000000
-29.016886 -28.086254 -0.360969 1391 0.580220 0.814460 0.000000
-29.017202 -28.086567 -0.348566 1397 0.580220 0.814460 0.000000
-29.017286 -28.086647 -0.336165 1391 0.580220 0.814460 0.000000
-29.016369 -28.085756 -0.323753 1395 0.580220 0.814460 0.000000
-29.015795 -28.085203 -0.311349 1379 0.580220 0.814460 0.000000
-29.016617 -28.085995 -0.298950 1397 0.580220 0.814460 0.000000
-29.025604 -28.077496 -0.658660 1403 0.580220 0.814460 0.000000
-29.025541 -28.077440 -0.646251 1391 0.580220 0.814460 0.000000
-29.026838 -28.078690 -0.633878 1397 0.580220 0.814460 0.000000
-29.027136 -28.078983 -0.621475 1397 0.580220 0.814460 0.000000
-29.026316 -28.078188 -0.609052 1401 0.580220 0.814460 0.000000
-29.027084 -28.078936 -0.596665 1399 0.580220 0.814460 0.000000
-29.027693 -28.079514 -0.584279 1411 0.580220 0.814460 0.000000
-29.026920 -28.078773 -0.571856 1395 0.580220 0.814460 0.000000
-29.027006 -28.078854 -0.559455 1397 0.580220 0.814460 0.000000
-29.026810 -28.078663 -0.547046 1389 0.580220 0.814460 0.000000
-29.025764 -28.077656 -0.534616 1397 0.580220 0.814460 0.000000
-29.025986 -28.077873 -0.522223 1387 0.580220 0.814460 0.000000
-29.026625 -28.078489 -0.509827 1405 0.580220 0.814460 0.000000
-29.026308 -28.078188 -0.497420 1391 0.580220 0.814460 0.000000
-29.026220 -28.078100 -0.485010 1377 0.580220 0.814460 0.000000
-29.025999 -28.077888 -0.472602 1385 0.580220 0.814460 0.000000
-29.025944 -28.077841 -0.460202 1389 0.580220 0.814460 0.000000
-29.026724 -28.078598 -0.447814 1397 0.580220 0.814460 0.000000
-29.027256 -28.079113 -0.435419 1407 0.580220 0.814460 0.000000
-29.027128 -28.078993 -0.423010 1407 0.580220 0.814460 0.000000
-29.027374 -28.079233 -0.410607 1399 0.580220 0.814460 0.000000
-29.026522 -28.078409 -0.398195 1375 0.580220 0.814460 0.000000
-29.026548 -28.078430 -0.385795 1383 0.580220 0.814460 0.000000
-29.028219 -28.080050 -0.373408 1409 0.580220 0.814460 0.000000
-29.027714 -28.079554 -0.361003 1411 0.580220 0.814460 0.000000
-29.026161 -28.078064 -0.348577 1397 0.580220 0.814460 0.000000
-29.026823 -28.078699 -0.336181 1397 0.580220 0.814460 0.000000
-29.026793 -28.078671 -0.323781 1393 0.580220 0.814460 0.000000
-29.026117 -28.078020 -0.311367 1387 0.580220 0.814460 0.000000
-29.026545 -28.078436 -0.298973 1385 0.580220 0.814460 0.000000
-29.036127 -28.070839 -0.658715 1403 0.580220 0.814460 0.000000
-29.036263 -28.070976 -0.646314 1397 0.580220 0.814460 0.000000
-29.036989 -28.071676 -0.633916 1387 0.580220 0.814460 0.000000
-29.037231 -28.071911 -0.621524 1407 0.580220 0.814460 0.000000
-29.036261 -28.070978 -0.609093 1411 0.580220 0.814460 0.000000
-29.035599 -28.070339 -0.596679 1395 0.580220 0.814460 0.000000
-29.036312 -28.071030 -0.584282 1397 0.580220 0.814460 0.000000
-29.037277 -28.071955 -0.571902 1403 0.580220 0.814460 0.000000
-29.037560 -28.072235 -0.559499 1403 0.580220 0.814460 0.000000
-29.037680 -28.072346 -0.547098 1395 0.580220 0.814460 0.000000
-29.037546 -28.072220 -0.534689 1403 0.580220 0.814460 0.000000
-29.036505 -28.071217 -0.522258 1399 0.580220 0.814460 0.000000
-29.036299 -28.071016 -0.509850 1399 0.580220 0.814460 0.000000
-29.037188 -28.071878 -0.497461 1387 0.580220 0.814460 0.000000
-29.037201 -28.071886 -0.485061 1395 0.580220 0.814460 0.000000
-29.037037 -28.071735 -0.472652 1395 0.580220 0.814460 0.000000
-29.036564 -28.071278 -0.460246 1391 0.580220 0.814460 0.000000
-29.036198 -28.070923 -0.447829 1397 0.580220 0.814460 0.000000
-29.036400 -28.071125 -0.435427 1413 0.580220 0.814460 0.000000
-29.036480 -28.071203 -0.423026 1407 0.580220 0.814460 0.000000
-29.036894 -28.071608 -0.410632 1397 0.580220 0.814460 0.000000
-29.036940 -28.071642 -0.398231 1387 0.580220 0.814460 0.000000
-29.037180 -28.071877 -0.385829 1387 0.580220 0.814460 0.000000
-29.037413 -28.072105 -0.373426 1391 0.580220 0.814460 0.000000
-29.037067 -28.071779 -0.361019 1385 0.580220 0.814460 0.000000
-29.036934 -28.071653 -0.348610 1389 0.580220 0.814460 0.000000
-29.037170 -28.071873 -0.336207 1391 0.580220 0.814460 0.000000
-29.036663 -28.071386 -0.323802 1387 0.580220 0.814460 0.000000
-29.035370 -28.070135 -0.311384 1387 0.580220 0.814460 0.000000
-29.036064 -28.070810 -0.298987 1397 0.580220 0.814460 0.000000
-29.045805 -28.063032 -0.658740 1395 0.580220 0.814460 0.000000
-29.046209 -28.063431 -0.646346 1399 0.580220 0.814460 0.000000
-29.046497 -28.063704 -0.633943 1401 0.580220 0.814460 0.000000
-29.046692 -28.063900 -0.621540 1401 0.580220 0.814460 0.000000
-29.047457 -28.064634 -0.609153 1399 0.580220 0.814460 0.000000
-29.047541 -28.064713 -0.596752 1413 0.580220 0.814460 0.000000
-29.047188 -28.064379 -0.584335 1413 0.580220 0.814460 0.000000
-29.046535 -28.063749 -0.571921 1395 0.580220 0.814460 0.000000
-29.046289 -28.063505 -0.559503 1403 0.580220 0.814460 0.000000
-29.046515 -28.063728 -0.547100 1395 0.580220 0.814460 0.000000
-29.046696 -28.063900 -0.534698 1399 0.580220 0.814460 0.000000
-29.046026 -28.063253 -0.522284 1401 0.580220 0.814460 0.000000
-29.046556 -28.063766 -0.509889 1397 0.580220 0.814460 0.000000
-29.047457 -28.064636 -0.497500 1399 0.580220 0.814460 0.000000
-29.047344 -28.064541 -0.485091 1401 0.580220 0.814460 0.000000
-29.047781 -28.064966 -0.472696 1393 0.580220 0.814460 0.000000
-29.046667 -28.063889 -0.460267 1391 0.580220 0.814460 0.000000
-29.046188 -28.063425 -0.447861 1397 0.580220 0.814460 0.000000
-29.047167 -28.064373 -0.435471 1395 0.580220 0.814460 0.000000
-29.046537 -28.063761 -0.423057 1393 0.580220 0.814460 0.000000
-29.047255 -28.064455 -0.410660 1393 0.580220 0.814460 0.000000
-29.047613 -28.064798 -0.398256 1401 0.580220 0.814460 0.000000
-29.046852 -28.064066 -0.385843 1395 0.580220 0.814460 0.000000
-29.046671 -28.063902 -0.373435 1399 0.580220 0.814460 0.000000
-29.046286 -28.063528 -0.361028 1401 0.580220 0.814460 0.000000
-29.046141 -28.063379 -0.348619 1397 0.580220 0.814460 0.000000
-29.045763 -28.063015 -0.336212 1391 0.580220 0.814460 0.000000
-29.045980 -28.063231 -0.323810 1397 0.580220 0.814460 0.000000
-29.046730 -28.063965 -0.311423 1389 0.580220 0.814460 0.000000
-29.046705 -28.063929 -0.299013 1397 0.580220 0.814460 0.000000
-29.057795 -28.057121 -0.658824 1405 0.580220 0.814460 0.000000
-29.057419 -28.056755 -0.646407 1407 0.580220 0.814460 0.000000
-29.057190 -28.056541 -0.633989 1395 0.580220 0.814460 0.000000
-29.057337 -28.056686 -0.621588 1397 0.580220 0.814460 0.000000
-29.057892 -28.057219 -0.609192 1403 0.580220 0.814460 0.000000
-29.057606 -28.056940 -0.596784 1397 0.580220 0.814460 0.000000
-29.056887 -28.056253 -0.584361 1393 0.580220 0.814460 0.000000
-29.057861 -28.057186 -0.571971 1391 0.580220 0.814460 0.000000
-29.058346 -28.057659 -0.559576 1401 0.580220 0.814460 0.000000
-29.057529 -28.056868 -0.547154 1407 0.580220 0.814460 0.000000
-29.057268 -28.056625 -0.534746 1395 0.580220 0.814460 0.000000
-29.057291 -28.056641 -0.522336 1411 0.580220 0.814460 0.000000
-29.057405 -28.056759 -0.509934 1407 0.580220 0.814460 0.000000
-29.057295 -28.056652 -0.497525 1393 0.580220 0.814460 0.000000
-29.057144 -28.056499 -0.485116 1391 0.580220 0.814460 0.000000
-29.056828 -28.056198 -0.472709 1403 0.580220 0.814460 0.000000
-29.056395 -28.055788 -0.460293 1391 0.580220 0.814460 0.000000
-29.056879 -28.056248 -0.447898 1405 0.580220 0.814460 0.000000
-29.057545 -28.056898 -0.435501 1407 0.580220 0.814460 0.000000
-29.057432 -28.056789 -0.423092 1409 0.580220 0.814460 0.000000
-29.057266 -28.056623 -0.410683 1403 0.580220 0.814460 0.000000
-29.057194 -28.056564 -0.398274 1407 0.580220 0.814460 0.000000
-29.056488 -28.055874 -0.385860 1389 0.580220 0.814460 0.000000
-29.056423 -28.055819 -0.373460 1391 0.580220 0.814460 0.000000
-29.057867 -28.057215 -0.361066 1393 0.580220 0.814460 0.000000
-29.058525 -28.057846 -0.348670 1397 0.580220 0.814460 0.000000
-29.057232 -28.056608 -0.336252 1395 0.580220 0.814460 0.000000
-29.057409 -28.056780 -0.323850 1397 0.580220 0.814460 0.000000
-29.057053 -28.056431 -0.311443 1411 0.580220 0.814460 0.000000
-29.056709 -28.056107 -0.299036 1405 0.580220 0.814460 0.000000
