155
-28.808126 -28.207415 -0.670375 1329 0.265778 0.964034 0.000000
-28.807957 -28.207256 -0.657987 1323 0.265778 0.964034 0.000000
-28.807058 -28.206373 -0.645585 1323 0.265778 0.964034 0.000000
-28.807346 -28.206663 -0.633212 1319 0.265778 0.964034 0.000000
-28.808014 -28.207306 -0.620835 1321 0.265778 0.964034 0.000000
-28.808353 -28.207642 -0.608462 1319 0.265778 0.964034 0.000000
-28.808384 -28.207676 -0.596081 1327 0.265778 0.964034 0.000000
-28.807629 -28.206938 -0.583678 1327 0.265778 0.964034 0.000000
-28.807386 -28.206694 -0.571290 1311 0.265778 0.964034 0.000000
-28.807096 -28.206409 -0.558903 1319 0.265778 0.964034 0.000000
-28.806479 -28.205812 -0.546508 1321 0.265778 0.964034 0.000000
-28.807484 -28.206791 -0.534138 1307 0.265778 0.964034 0.000000
-28.808392 -28.207678 -0.521769 1309 0.265778 0.964034 0.000000
-28.807190 -28.206503 -0.509371 1311 0.265778 0.964034 0.000000
-28.806519 -28.205849 -0.496977 1319 0.265778 0.964034 0.000000
-28.806940 -28.206263 -0.484602 1313 0.265778 0.964034 0.000000
-28.807203 -28.206520 -0.472219 1303 0.265778 0.964034 0.000000
-28.807201 -28.206512 -0.459839 1317 0.265778 0.964034 0.000000
-28.806818 -28.206152 -0.447453 1311 0.265778 0.964034 0.000000
-28.806561 -28.205894 -0.435065 1319 0.265778 0.964034 0.000000
-28.806599 -28.205936 -0.422684 1325 0.265778 0.964034 0.000000
-28.807686 -28.206999 -0.410313 1319 0.265778 0.964034 0.000000
-28.808861 -28.208147 -0.397942 1323 0.265778 0.964034 0.000000
-28.807543 -28.206861 -0.385544 1315 0.265778 0.964034 0.000000
-28.806313 -28.205660 -0.373146 1315 0.265778 0.964034 0.000000
-28.807604 -28.206919 -0.360783 1325 0.265778 0.964034 0.000000
-28.808107 -28.207415 -0.348408 1323 0.265778 0.964034 0.000000
-28.807711 -28.207027 -0.336021 1325 0.265778 0.964034 0.000000
-28.807194 -28.206516 -0.323626 1317 0.265778 0.964034 0.000000
-28.806282 -28.205620 -0.311235 1315 0.265778 0.964034 0.000000
-28.806181 -28.205532 -0.298855 1313 0.265778 0.964034 0.000000
-28.821814 -28.203575 -0.670502 1345 0.265778 0.964034 0.000000
-28.820766 -28.202541 -0.658092 1333 0.265778 0.964034 0.000000
-28.822477 -28.204216 -0.645745 1323 0.265778 0.964034 0.000000
-28.822672 -28.204414 -0.633363 1327 0.265778 0.964034 0.000000
-28.820864 -28.202641 -0.620930 1315 0.265778 0.964034 0.000000
-28.820683 -28.202475 -0.608542 1329 0.265778 0.964034 0.000000
-28.821127 -28.202908 -0.596167 1329 0.265778 0.964034 0.000000
-28.820316 -28.202108 -0.583765 1319 0.265778 0.964034 0.000000
-28.820440 -28.202234 -0.571383 1317 0.265778 0.964034 0.000000
-28.820833 -28.202614 -0.558999 1323 0.265778 0.964034 0.000000
-28.821115 -28.202898 -0.546626 1313 0.265778 0.964034 0.000000
-28.820910 -28.202698 -0.534238 1319 0.265778 0.964034 0.000000
-28.820145 -28.201941 -0.521835 1323 0.265778 0.964034 0.000000
-28.820726 -28.202513 -0.509459 1319 0.265778 0.964034 0.000000
-28.820835 -28.202612 -0.497078 1329 0.265778 0.964034 0.000000
-28.820000 -28.201809 -0.484675 1329 0.265778 0.964034 0.000000
-28.820480 -28.202274 -0.472300 1313 0.265778 0.964034 0.000000
-28.821623 -28.203394 -0.459939 1313 0.265778 0.964034 0.000000
-28.821825 -28.203587 -0.447557 1311 0.265778 0.964034 0.000000
-28.821404 -28.203180 -0.435161 1307 0.265778 0.964034 0.000000
-28.819883 -28.201685 -0.422755 1315 0.265778 0.964034 0.000000
-28.819231 -28.201057 -0.410361 1319 0.265778 0.964034 0.000000
-28.820530 -28.202322 -0.397998 1325 0.265778 0.964034 0.000000
-28.821016 -28.202805 -0.385613 1305 0.265778 0.964034 0.000000
-28.819427 -28.201254 -0.373208 1315 0.265778 0.964034 0.000000
-28.819557 -28.201372 -0.360827 1311 0.265778 0.964034 0.000000
-28.820944 -28.202734 -0.348463 1317 0.265778 0.964034 0.000000
-28.821547 -28.203327 -0.336087 1319 0.265778 0.964034 0.000000
-28.820473 -28.202271 -0.323687 1313 0.265778 0.964034 0.000000
-28.820484 -28.202278 -0.311307 1315 0.265778 0.964034 0.000000
-28.821856 -28.203630 -0.298933 1319 0.265778 0.964034 0.000000
-28.835518 -28.199413 -0.670621 1335 0.265778 0.964034 0.000000
-28.835648 -28.199545 -0.658239 1329 0.265778 0.964034 0.000000
-28.835905 -28.199797 -0.645857 1323 0.265778 0.964034 0.000000
-28.836416 -28.200285 -0.633471 1315 0.265778 0.964034 0.000000
-28.836338 -28.200216 -0.621082 1329 0.265778 0.964034 0.000000
-28.834810 -28.198715 -0.608666 1331 0.265778 0.964034 0.000000
-28.834621 -28.198530 -0.596268 1319 0.265778 0.964034 0.000000
-28.834799 -28.198715 -0.583886 1319 0.265778 0.964034 0.000000
-28.834503 -28.198425 -0.571488 1315 0.265778 0.964034 0.000000
-28.835163 -28.199064 -0.559122 1335 0.265778 0.964034 0.000000
-28.835339 -28.199234 -0.546730 1319 0.265778 0.964034 0.000000
-28.835455 -28.199356 -0.534348 1327 0.265778 0.964034 0.000000
-28.835417 -28.199320 -0.521958 1321 0.265778 0.964034 0.000000
-28.835686 -28.199581 -0.509575 1325 0.265778 0.964034 0.000000
-28.835279 -28.199175 -0.497179 1331 0.265778 0.964034 0.000000
-28.833914 -28.197847 -0.484772 1321 0.265778 0.964034 0.000000
-28.833815 -28.197748 -0.472383 1315 0.265778 0.964034 0.000000
-28.834372 -28.198290 -0.460007 1307 0.265778 0.964034 0.000000
-28.835567 -28.199469 -0.447635 1307 0.265778 0.964034 0.000000
-28.835979 -28.199875 -0.435251 1317 0.265778 0.964034 0.000000
-28.835350 -28.199255 -0.422857 1329 0.265778 0.964034 0.000000
-28.833660 -28.197605 -0.410442 1315 0.265778 0.964034 0.000000
-28.832962 -28.196917 -0.398049 1315 0.265778 0.964034 0.000000
-28.833778 -28.197712 -0.385671 1303 0.265778 0.964034 0.000000
-28.835484 -28.199379 -0.373314 1327 0.265778 0.964034 0.000000
-28.836088 -28.199976 -0.360928 1315 0.265778 0.964034 0.000000
-28.834282 -28.198215 -0.348525 1319 0.265778 0.964034 0.000000
-28.833738 -28.197680 -0.336130 1331 0.265778 0.964034 0.000000
-28.834164 -28.198095 -0.323746 1307 0.265778 0.964034 0.000000
-28.832735 -28.196693 -0.311349 1317 0.265778 0.964034 0.000000
-28.833000 -28.196964 -0.298966 1329 0.265778 0.964034 0.000000
-28.849173 -28.194843 -0.670742 1333 0.265778 0.964034 0.000000
-28.849024 -28.194691 -0.658343 1331 0.265778 0.964034 0.000000
-28.849043 -28.194717 -0.645952 1325 0.265778 0.964034 0.000000
-28.849184 -28.194859 -0.633561 1329 0.265778 0.964034 0.000000
-28.849375 -28.195042 -0.621179 1329 0.265778 0.964034 0.000000
-28.849041 -28.194721 -0.608781 1323 0.265778 0.964034 0.000000
-28.849022 -28.194700 -0.596391 1317 0.265778 0.964034 0.000000
-28.848734 -28.194420 -0.583994 1311 0.265778 0.964034 0.000000
-28.849131 -28.194799 -0.571610 1329 0.265778 0.964034 0.000000
-28.849611 -28.195276 -0.559225 1323 0.265778 0.964034 0.000000
-28.848526 -28.194212 -0.546815 1325 0.265778 0.964034 0.000000
-28.847286 -28.193003 -0.534407 1309 0.265778 0.964034 0.000000
-28.848026 -28.193722 -0.522029 1315 0.265778 0.964034 0.000000
-28.848501 -28.194193 -0.509644 1315 0.265778 0.964034 0.000000
-28.847931 -28.193638 -0.497249 1317 0.265778 0.964034 0.000000
-28.848522 -28.194204 -0.484874 1299 0.265778 0.964034 0.000000
-28.849297 -28.194967 -0.472496 1317 0.265778 0.964034 0.000000
-28.847996 -28.193695 -0.460088 1317 0.265778 0.964034 0.000000
-28.846718 -28.192457 -0.447670 1319 0.265778 0.964034 0.000000
-28.846983 -28.192713 -0.435287 1319 0.265778 0.964034 0.000000
-28.847813 -28.193521 -0.422919 1321 0.265778 0.964034 0.000000
-28.848419 -28.194117 -0.410533 1319 0.265778 0.964034 0.000000
-28.848410 -28.194105 -0.398143 1329 0.265778 0.964034 0.000000
-28.848501 -28.194191 -0.385761 1323 0.265778 0.964034 0.000000
-28.847956 -28.193653 -0.373366 1317 0.265778 0.964034 0.000000
-28.848301 -28.193993 -0.360983 1325 0.265778 0.964034 0.000000
-28.848803 -28.194485 -0.348598 1317 0.265778 0.964034 0.000000
-28.848814 -28.194506 -0.336207 1299 0.265778 0.964034 0.000000
-28.848476 -28.194170 -0.323820 1301 0.265778 0.964034 0.000000
-28.848070 -28.193775 -0.311424 1309 0.265778 0.964034 0.000000
-28.848133 -28.193838 -0.299033 1309 0.265778 0.964034 0.000000
-28.863779 -28.191540 -0.670882 1325 0.265778 0.964034 0.000000
-28.863285 -28.191059 -0.658476 1329 0.265778 0.964034 0.000000
-28.862701 -28.190489 -0.646071 1327 0.265778 0.964034 0.000000
-28.863783 -28.191545 -0.633701 1323 0.265778 0.964034 0.000000
-28.864441 -28.192184 -0.621314 1331 0.265778 0.964034 0.000000
-28.863537 -28.191311 -0.608903 1339 0.265778 0.964034 0.000000
-28.862665 -28.190462 -0.596491 1329 0.265778 0.964034 0.000000
-28.862911 -28.190691 -0.584108 1331 0.265778 0.964034 0.000000
-28.862972 -28.190752 -0.571717 1335 0.265778 0.964034 0.000000
-28.862938 -28.190722 -0.559327 1331 0.265778 0.964034 0.000000
-28.862900 -28.190685 -0.546927 1323 0.265778 0.964034 0.000000
-28.862494 -28.190290 -0.534531 1325 0.265778 0.964034 0.000000
-28.862350 -28.190157 -0.522132 1323 0.265778 0.964034 0.000000
-28.862831 -28.190622 -0.509757 1327 0.265778 0.964034 0.000000
-28.862942 -28.190733 -0.497366 1313 0.265778 0.964034 0.000000
-28.863056 -28.190840 -0.484974 1319 0.265778 0.964034 0.000000
-28.862743 -28.190536 -0.472577 1309 0.265778 0.964034 0.000000
-28.863060 -28.190838 -0.460194 1309 0.265778 0.964034 0.000000
-28.862898 -28.190687 -0.447795 1315 0.265778 0.964034 0.000000
-28.862520 -28.190315 -0.435398 1331 0.265778 0.964034 0.000000
-28.862513 -28.190306 -0.423008 1335 0.265778 0.964034 0.000000
-28.861334 -28.189163 -0.410599 1319 0.265778 0.964034 0.000000
-28.861063 -28.188894 -0.398201 1325 0.265778 0.964034 0.000000
-28.861465 -28.189293 -0.385817 1319 0.265778 0.964034 0.000000
-28.862173 -28.189987 -0.373440 1333 0.265778 0.964034 0.000000
-28.863150 -28.190929 -0.361060 1319 0.265778 0.964034 0.000000
-28.862543 -28.190340 -0.348666 1337 0.265778 0.964034 0.000000
-28.861094 -28.188932 -0.336249 1327 0.265778 0.964034 0.000000
-28.861330 -28.189154 -0.323867 1317 0.265778 0.964034 0.000000
-28.862080 -28.189894 -0.311489 1317 0.265778 0.964034 0.000000
-28.862148 -28.189962 -0.299098 1321 0.265778 0.964034 0.000000
