767
-7.478517 -6.667490 -0.181901 1421 0.982401 0.051951 -0.250115
-7.477419 -6.666488 -0.178798 1437 0.998202 0.066366 -0.205468
-7.476912 -6.666027 -0.175712 1441 1.005495 0.073001 -0.161065
-7.477283 -6.666343 -0.172639 1447 1.000157 0.068452 -0.116849
-7.477430 -6.666460 -0.169568 1447 0.998044 0.066771 -0.072662
-7.476874 -6.665950 -0.166482 1445 1.006044 0.074112 -0.028259
-7.477189 -6.666209 -0.163409 1447 1.001509 0.070380 0.015957
-7.477560 -6.666526 -0.160337 1455 0.996171 0.065824 0.060158
-7.478086 -6.666985 -0.157275 1447 0.988604 0.059217 0.104216
-7.477965 -6.666859 -0.154195 1425 0.990346 0.061028 0.148533
-7.478281 -6.667119 -0.151124 1433 0.985797 0.057289 0.192720
-7.479088 -6.667819 -0.148059 1435 0.974189 0.047217 0.236820
-7.479122 -6.667837 -0.144979 1431 0.973695 0.046956 0.281137
-7.479107 -6.667804 -0.141898 1411 0.973914 0.047437 0.325468
-7.480342 -6.668897 -0.138841 1409 0.956144 0.031705 0.369453
-7.481634 -6.670033 -0.135785 1399 0.937551 0.015362 0.413425
-7.482814 -6.671070 -0.132728 1367 0.920577 0.000439 0.457410
-7.484549 -6.672597 -0.129678 1351 0.895610 -0.021530 0.501295
-7.487028 -6.674795 -0.126634 1349 0.859940 -0.053159 0.545094
-7.489135 -6.676658 -0.123582 1313 0.829628 -0.079965 0.589007
-7.490540 -6.677894 -0.120513 1271 0.809409 -0.097748 0.633166
-7.492753 -6.679850 -0.117461 1221 0.777567 -0.125892 0.677079
-7.496230 -6.682932 -0.114431 1165 0.727537 -0.170234 0.720676
-7.500903 -6.687083 -0.111404 1081 0.660299 -0.229959 0.764230
-7.506745 -6.688796 -0.219554 989 0.576246 -0.254610 -0.791885
-7.501607 -6.684208 -0.216333 1131 0.650173 -0.188594 -0.745539
-7.496904 -6.680005 -0.213121 1199 0.717842 -0.128122 -0.699324
-7.493734 -6.677156 -0.209958 1247 0.763454 -0.087127 -0.653813
-7.491435 -6.675092 -0.206811 1281 0.796531 -0.057433 -0.608532
-7.489079 -6.672985 -0.203675 1323 0.830431 -0.027115 -0.563410
-7.487006 -6.671120 -0.200538 1339 0.860255 -0.000281 -0.518273
-7.485739 -6.669975 -0.197425 1365 0.878485 0.016199 -0.473482
-7.484044 -6.668452 -0.194305 1401 0.902876 0.038113 -0.428590
-7.482125 -6.666730 -0.191186 1413 0.930491 0.062888 -0.383712
-7.480753 -6.665493 -0.188073 1411 0.950230 0.080685 -0.338921
-7.479923 -6.664732 -0.184978 1425 0.962175 0.091635 -0.294388
-7.479036 -6.663929 -0.181884 1435 0.974936 0.103189 -0.249870
-7.478269 -6.663219 -0.178788 1439 0.985969 0.113405 -0.205324
-7.478254 -6.663201 -0.175708 1449 0.986188 0.113666 -0.161007
-7.478021 -6.662975 -0.172629 1459 0.989537 0.116918 -0.116705
-7.477584 -6.662572 -0.169541 1459 0.995828 0.122715 -0.072273
-7.477351 -6.662347 -0.166463 1455 0.999176 0.125954 -0.027985
-7.477013 -6.662029 -0.163375 1453 1.004041 0.130530 0.016446
-7.476822 -6.661846 -0.160297 1449 1.006792 0.133158 0.060734
-7.477256 -6.662212 -0.157233 1445 1.000548 0.127895 0.104820
-7.478106 -6.662956 -0.154168 1447 0.988315 0.117185 0.148921
-7.478590 -6.663373 -0.151105 1449 0.981351 0.111189 0.192993
-7.478954 -6.663682 -0.148034 1453 0.976117 0.106743 0.237180
-7.479157 -6.663842 -0.144963 1441 0.973194 0.104438 0.281367
-7.479296 -6.663951 -0.141881 1427 0.971190 0.102873 0.325712
-7.480321 -6.664845 -0.138826 1417 0.956446 0.090009 0.369669
-7.481775 -6.666131 -0.135768 1417 0.935527 0.071505 0.413669
-7.483235 -6.667409 -0.132720 1395 0.914519 0.053118 0.457525
-7.485174 -6.669130 -0.129668 1381 0.886615 0.028356 0.501439
-7.486634 -6.670408 -0.126611 1357 0.865614 0.009969 0.545425
-7.488250 -6.671829 -0.123551 1331 0.842362 -0.010484 0.589453
-7.490582 -6.673892 -0.120507 1309 0.808805 -0.040164 0.633252
-7.492851 -6.675905 -0.117454 1265 0.776161 -0.069131 0.677180
-7.495717 -6.678438 -0.114408 1213 0.734919 -0.105577 0.721007
-7.499131 -6.681470 -0.111369 1141 0.685795 -0.149199 0.764734
-7.503811 -6.685614 -0.108342 1043 0.618461 -0.208827 0.808288
-7.510598 -6.688220 -0.222705 905 0.520802 -0.246322 -0.837223
-7.504532 -6.682806 -0.219461 1085 0.608087 -0.168423 -0.790546
-7.499892 -6.678652 -0.216247 1179 0.674845 -0.108650 -0.744302
-7.496012 -6.675183 -0.213060 1227 0.730672 -0.058737 -0.698446
-7.492729 -6.672249 -0.209888 1269 0.777910 -0.016521 -0.652806
-7.490977 -6.670669 -0.206769 1319 0.803124 0.006209 -0.607928
-7.488678 -6.668605 -0.203622 1345 0.836201 0.035910 -0.562647
-7.486050 -6.666248 -0.200477 1361 0.874012 0.069824 -0.517396
-7.484621 -6.664967 -0.197366 1389 0.894574 0.088253 -0.472633
-7.483088 -6.663580 -0.194253 1403 0.916632 0.108211 -0.427842
-7.481499 -6.662150 -0.191133 1407 0.939493 0.128787 -0.382950
-7.480991 -6.661689 -0.188047 1413 0.946806 0.135422 -0.338547
-7.480660 -6.661378 -0.184968 1437 0.951568 0.139895 -0.294244
-7.479556 -6.660369 -0.181865 1439 0.967451 0.154413 -0.249597
-7.479056 -6.659915 -0.178777 1445 0.974648 0.160945 -0.205165
-7.478879 -6.659748 -0.175698 1461 0.977194 0.163346 -0.160863
-7.477943 -6.658895 -0.172603 1469 0.990662 0.175620 -0.116331
-7.477338 -6.658334 -0.169507 1467 0.999368 0.183696 -0.071784
-7.477815 -6.658743 -0.166444 1473 0.992501 0.177809 -0.027712
-7.477806 -6.658717 -0.163365 1469 0.992631 0.178179 0.016590
-7.477397 -6.658342 -0.160287 1465 0.998518 0.183579 0.060878
-7.477439 -6.658367 -0.157207 1449 0.997914 0.183215 0.105194
-7.477979 -6.658826 -0.154143 1459 0.990140 0.176615 0.149281
-7.478456 -6.659235 -0.151080 1465 0.983279 0.170728 0.193353
-7.479361 -6.660036 -0.148015 1457 0.970257 0.159202 0.237453
-7.480049 -6.660630 -0.144952 1459 0.960357 0.150653 0.281525
-7.480525 -6.661039 -0.141889 1441 0.953510 0.144773 0.325597
-7.481277 -6.661684 -0.138826 1433 0.942690 0.135490 0.369669
-7.482020 -6.662335 -0.135751 1431 0.932001 0.126125 0.413914
-7.483256 -6.663414 -0.132693 1413 0.914217 0.110599 0.457914
-7.485370 -6.665284 -0.129651 1401 0.883795 0.083690 0.501684
-7.486992 -6.666712 -0.126592 1375 0.860461 0.063148 0.545698
-7.488278 -6.667841 -0.123534 1345 0.841957 0.046902 0.589698
-7.490765 -6.670047 -0.120490 1317 0.806170 0.015163 0.633497
-7.493806 -6.672729 -0.117454 1283 0.762418 -0.023430 0.677180
-7.496074 -6.674742 -0.114400 1247 0.729780 -0.052397 0.721123
-7.498843 -6.677189 -0.111354 1177 0.689939 -0.087601 0.764950
-7.503079 -6.680942 -0.108319 1093 0.628993 -0.141603 0.808619
-7.510064 -6.683549 -0.222654 1021 0.528486 -0.179112 -0.836489
-7.504645 -6.678719 -0.219415 1141 0.606461 -0.109618 -0.789885
-7.500764 -6.675249 -0.216228 1217 0.662303 -0.059690 -0.744029
-7.496884 -6.671781 -0.213040 1251 0.718130 -0.009791 -0.698158
-7.493496 -6.668740 -0.209869 1297 0.766878 0.033969 -0.652532
-7.491084 -6.666589 -0.206733 1337 0.801580 0.064918 -0.607410
-7.489066 -6.664767 -0.203595 1355 0.830616 0.091134 -0.562259
-7.486922 -6.662845 -0.200467 1377 0.861470 0.118784 -0.517252
-7.485556 -6.661615 -0.197354 1397 0.881120 0.136485 -0.472460
-7.484452 -6.660620 -0.194251 1413 0.897010 0.150797 -0.427813
-7.482695 -6.659033 -0.191131 1419 0.922285 0.173637 -0.382921
-7.481815 -6.658237 -0.188037 1425 0.934951 0.185088 -0.338403
-7.481203 -6.657684 -0.184940 1435 0.943753 0.193047 -0.293841
-7.480113 -6.656689 -0.181846 1443 0.959438 0.207359 -0.249323
-7.479493 -6.656128 -0.178750 1467 0.968357 0.215434 -0.204777
-7.479533 -6.656153 -0.175679 1471 0.967780 0.215071 -0.160590
-7.479041 -6.655692 -0.172593 1467 0.974861 0.221705 -0.116187
-7.478639 -6.655324 -0.169505 1473 0.980645 0.227002 -0.071755
-7.478188 -6.654906 -0.166427 1469 0.987135 0.233019 -0.027467
-7.478130 -6.654830 -0.163348 1467 0.987972 0.234110 0.016835
-7.479036 -6.655632 -0.160293 1473 0.974936 0.222570 0.060792
-7.479021 -6.655599 -0.157212 1473 0.975149 0.223043 0.105122
-7.478732 -6.655331 -0.154134 1457 0.979307 0.226899 0.149410
-7.479103 -6.655633 -0.151063 1465 0.973969 0.222556 0.193597
-7.479959 -6.656384 -0.148008 1461 0.961654 0.211750 0.237554
-7.480984 -6.657278 -0.144952 1459 0.946903 0.198886 0.281525
-7.481123 -6.657387 -0.141872 1437 0.944906 0.197321 0.325842
-7.481818 -6.657989 -0.138806 1433 0.934903 0.188656 0.369957
-7.483441 -6.659417 -0.135759 1425 0.911555 0.168107 0.413799
-7.485225 -6.660995 -0.132707 1425 0.885881 0.145404 0.457712
-7.486242 -6.661882 -0.129642 1407 0.871254 0.132643 0.501813
-7.487205 -6.662726 -0.126586 1381 0.857394 0.120499 0.545784
-7.489698 -6.664924 -0.123542 1369 0.821525 0.088870 0.589583
-7.492354 -6.667271 -0.120498 1335 0.783310 0.055100 0.633381
-7.494678 -6.669327 -0.117444 1315 0.749869 0.025523 0.677324
-7.496954 -6.671333 -0.114400 1277 0.717122 -0.003341 0.721123
-7.499230 -6.673338 -0.111337 1207 0.684375 -0.032192 0.765194
-7.502483 -6.676220 -0.108298 1135 0.637569 -0.073659 0.808921
-7.507542 -6.680707 -0.105270 1037 0.564774 -0.138221 0.852489
-7.509678 -6.679013 -0.222602 1095 0.534044 -0.113844 -0.835741
-7.504428 -6.674339 -0.219371 1181 0.609583 -0.046593 -0.789252
-7.500871 -6.671156 -0.216191 1241 0.660759 -0.000796 -0.743496
-7.497215 -6.667886 -0.213014 1279 0.713369 0.046257 -0.697784
-7.493925 -6.664945 -0.209842 1303 0.760703 0.088568 -0.652144
-7.491900 -6.663130 -0.206714 1345 0.789841 0.114688 -0.607137
-7.489987 -6.661415 -0.203584 1373 0.817367 0.139360 -0.562101
-7.487688 -6.659350 -0.200448 1397 0.850444 0.169075 -0.516978
-7.485655 -6.657528 -0.197320 1401 0.879699 0.195291 -0.471971
-7.484397 -6.656391 -0.194207 1415 0.897799 0.211647 -0.427180
-7.484058 -6.656073 -0.191129 1433 0.902677 0.216223 -0.382892
-7.483179 -6.655277 -0.188033 1447 0.915322 0.227681 -0.338345
-7.482299 -6.654480 -0.184930 1465 0.927987 0.239146 -0.293698
-7.481898 -6.654113 -0.181852 1475 0.933757 0.244429 -0.249410
-7.480695 -6.653018 -0.178748 1477 0.951067 0.260182 -0.204748
-7.479865 -6.652272 -0.175653 1473 0.963005 0.270912 -0.160216
-7.479188 -6.651655 -0.172567 1489 0.972748 0.279790 -0.115813
-7.479019 -6.651479 -0.169488 1487 0.975177 0.282329 -0.071511
-7.478954 -6.651411 -0.166408 1485 0.976117 0.283303 -0.027194
-7.478440 -6.650943 -0.163331 1469 0.983513 0.290040 0.017079
-7.478981 -6.651402 -0.160258 1477 0.975725 0.283433 0.061295
-7.479401 -6.651754 -0.157195 1475 0.969681 0.278370 0.105367
-7.479773 -6.652071 -0.154124 1467 0.964329 0.273807 0.149554
-7.480524 -6.652730 -0.151069 1465 0.953523 0.264326 0.193511
-7.480445 -6.652646 -0.147990 1461 0.954662 0.265533 0.237813
-7.480325 -6.652521 -0.144910 1461 0.956384 0.267331 0.282130
-7.482158 -6.654135 -0.141870 1447 0.930011 0.244106 0.325871
-7.483843 -6.655613 -0.138822 1451 0.905771 0.222844 0.369727
-7.484756 -6.656407 -0.135757 1445 0.892632 0.211421 0.413828
-7.486153 -6.657635 -0.132707 1441 0.872530 0.193747 0.457712
-7.487009 -6.658387 -0.129644 1423 0.860214 0.182927 0.501784
-7.487697 -6.658981 -0.126569 1401 0.850314 0.174385 0.546029
-7.489530 -6.660594 -0.123519 1375 0.823940 0.151175 0.589914
-7.492299 -6.663043 -0.120483 1361 0.784099 0.115937 0.633597
-7.494244 -6.664755 -0.117431 1327 0.756113 0.091306 0.677511
-7.496238 -6.666519 -0.114370 1299 0.727420 0.065920 0.721554
-7.499442 -6.669352 -0.111331 1249 0.681321 0.025159 0.765281
-7.503250 -6.672711 -0.108300 1179 0.626530 -0.023169 0.808892
-7.507431 -6.676421 -0.105256 1095 0.566373 -0.076555 0.852691
-7.508703 -6.673964 -0.222533 1121 0.548068 -0.041200 -0.834748
-7.503613 -6.669426 -0.219302 1197 0.621309 0.024096 -0.788259
-7.500611 -6.666735 -0.216140 1249 0.664505 0.062812 -0.742762
-7.498088 -6.664484 -0.212993 1293 0.700807 0.095203 -0.697482
-7.495458 -6.662127 -0.209838 1331 0.738645 0.129117 -0.652086
-7.492505 -6.659485 -0.206685 1347 0.781135 0.167133 -0.606719
-7.490859 -6.658012 -0.203565 1385 0.804819 0.188327 -0.561827
-7.489706 -6.656967 -0.200462 1419 0.821409 0.203359 -0.517180
-7.487940 -6.655387 -0.197341 1421 0.846822 0.226096 -0.472273
-7.486577 -6.654157 -0.194230 1429 0.866430 0.243791 -0.427511
-7.485915 -6.653554 -0.191133 1445 0.875953 0.252470 -0.382950
-7.484979 -6.652701 -0.188039 1457 0.889421 0.264744 -0.338432
-7.483608 -6.651464 -0.184926 1475 0.909154 0.282541 -0.293640
-7.482440 -6.650418 -0.181834 1477 0.925956 0.297594 -0.249151
-7.481834 -6.649858 -0.178737 1477 0.934676 0.305649 -0.204590
-7.481278 -6.649347 -0.175651 1483 0.942676 0.313004 -0.160187
-7.480448 -6.648602 -0.172565 1485 0.954621 0.323721 -0.115784
-7.480327 -6.648477 -0.169486 1489 0.956357 0.325519 -0.071482
-7.480255 -6.648401 -0.166406 1483 0.957393 0.326616 -0.027165
-7.480030 -6.648183 -0.163327 1479 0.960631 0.329752 0.017137
-7.480232 -6.648343 -0.160257 1483 0.957729 0.327446 0.061310
-7.480660 -6.648702 -0.157193 1493 0.951568 0.322280 0.105396
-7.480694 -6.648718 -0.154124 1491 0.951081 0.322054 0.149554
-7.481114 -6.649085 -0.151052 1481 0.945036 0.316771 0.193756
-7.481978 -6.649829 -0.147996 1473 0.932604 0.306068 0.237727
-7.482827 -6.650573 -0.144931 1467 0.920385 0.295365 0.281827
-7.483634 -6.651274 -0.141877 1469 0.908776 0.285272 0.325770
-7.483837 -6.651434 -0.138806 1455 0.905853 0.282974 0.369957
-7.484862 -6.652328 -0.135739 1453 0.891109 0.270109 0.414087
-7.486414 -6.653698 -0.132692 1443 0.868777 0.250398 0.457928
-7.488310 -6.655362 -0.129640 1433 0.841498 0.226453 0.501842
-7.489932 -6.656790 -0.126592 1411 0.818157 0.205911 0.545698
-7.490733 -6.657485 -0.123527 1387 0.806630 0.195908 0.589799
-7.492299 -6.658856 -0.120467 1363 0.784099 0.176183 0.633828
-7.495228 -6.661453 -0.117431 1339 0.741959 0.138818 0.677511
-7.498481 -6.664321 -0.114392 1317 0.695153 0.097549 0.721238
-7.501193 -6.666712 -0.111337 1275 0.656128 0.063148 0.765194
-7.503848 -6.669059 -0.108293 1223 0.617926 0.029379 0.808993
-7.506826 -6.671692 -0.105245 1147 0.575079 -0.008508 0.852849
-7.511667 -6.675986 -0.102218 1023 0.505427 -0.070291 0.896403
-7.508619 -6.669862 -0.222488 1133 0.549282 0.017825 -0.834101
-7.504576 -6.666243 -0.219291 1213 0.607449 0.069893 -0.788101
-7.501399 -6.663416 -0.216119 1273 0.653164 0.110571 -0.742460
-7.498720 -6.661009 -0.212964 1307 0.691709 0.145205 -0.697065
-7.496364 -6.658902 -0.209828 1339 0.725609 0.175517 -0.651942
-7.494058 -6.656844 -0.206691 1371 0.758789 0.205129 -0.606806
-7.492413 -6.655371 -0.203570 1411 0.782459 0.226323 -0.561899
-7.491428 -6.654469 -0.200465 1433 0.796634 0.239304 -0.517223
-7.489894 -6.653096 -0.197345 1427 0.818705 0.259056 -0.472331
-7.488354 -6.651715 -0.194234 1441 0.840859 0.278933 -0.427568
-7.486653 -6.650186 -0.191123 1445 0.865339 0.300929 -0.382805
-7.485604 -6.649233 -0.188020 1459 0.880433 0.314644 -0.338158
-7.485104 -6.648780 -0.184932 1467 0.887624 0.321162 -0.293726
-7.484063 -6.647834 -0.181829 1473 0.902601 0.334774 -0.249079
-7.482846 -6.646740 -0.178735 1495 0.920117 0.350513 -0.204561
-7.482451 -6.646379 -0.175649 1507 0.925798 0.355707 -0.160158
-7.482379 -6.646303 -0.172578 1489 0.926834 0.356798 -0.115971
-7.482814 -6.646669 -0.169505 1493 0.920577 0.351535 -0.071755
-7.482855 -6.646694 -0.166436 1507 0.919987 0.351172 -0.027597
-7.481856 -6.645791 -0.163341 1499 0.934361 0.364166 0.016935
-7.481905 -6.645808 -0.160272 1495 0.933654 0.363919 0.061094
-7.482100 -6.645975 -0.157201 1493 0.930848 0.361518 0.105281
-7.482036 -6.645892 -0.154121 1477 0.931767 0.362712 0.149597
-7.482730 -6.646493 -0.151057 1487 0.921785 0.354067 0.193684
-7.483363 -6.647046 -0.147992 1481 0.912673 0.346108 0.237784
-7.484338 -6.647889 -0.144937 1471 0.898649 0.333978 0.281741
-7.485025 -6.648483 -0.141873 1473 0.888763 0.325436 0.325828
-7.485221 -6.648650 -0.138803 1465 0.885943 0.323028 0.370000
-7.486358 -6.649644 -0.135745 1451 0.869579 0.308730 0.414000
-7.488255 -6.651307 -0.132705 1443 0.842287 0.284799 0.457741
-7.489764 -6.652635 -0.129647 1439 0.820572 0.265691 0.501741
-7.490832 -6.653572 -0.126590 1427 0.805210 0.252209 0.545727
-7.491850 -6.654459 -0.123525 1405 0.790562 0.239448 0.589828
-7.493683 -6.656072 -0.120475 1385 0.764188 0.216237 0.633712
-7.496183 -6.658278 -0.117431 1357 0.728216 0.184498 0.677511
-7.498516 -6.660326 -0.114377 1323 0.694645 0.155030 0.721453
-7.501002 -6.662517 -0.111323 1285 0.658879 0.123504 0.765396
-7.503883 -6.665064 -0.108276 1243 0.617425 0.086860 0.809238
-7.507950 -6.668660 -0.105243 1173 0.558908 0.035114 0.852878
-7.512475 -6.672662 -0.102218 1079 0.493797 -0.022463 0.896403
-7.509573 -6.666686 -0.222467 1155 0.535553 0.063519 -0.833798
-7.505580 -6.663132 -0.219279 1229 0.593007 0.114654 -0.787928
-7.502895 -6.660732 -0.216125 1289 0.631641 0.149192 -0.742546
-7.500055 -6.658190 -0.212960 1313 0.672505 0.185768 -0.697007
-7.497481 -6.655890 -0.209815 1347 0.709541 0.218858 -0.651755
-7.495618 -6.654225 -0.206687 1379 0.736346 0.242816 -0.606748
-7.493432 -6.652260 -0.203559 1407 0.767797 0.271091 -0.561741
-7.491561 -6.650587 -0.200429 1431 0.794719 0.295159 -0.516705
-7.490126 -6.649300 -0.197318 1445 0.815364 0.313677 -0.471942
-7.488923 -6.648220 -0.194215 1451 0.832674 0.329217 -0.427295
-7.487439 -6.646881 -0.191104 1447 0.854026 0.348482 -0.382532
-7.486722 -6.646222 -0.188008 1461 0.864345 0.357964 -0.337985
-7.486263 -6.645811 -0.184930 1481 0.870952 0.363878 -0.293698
-7.484624 -6.644331 -0.181819 1479 0.894533 0.385175 -0.248935
-7.483464 -6.643292 -0.178716 1489 0.911225 0.400125 -0.204288
-7.483729 -6.643502 -0.175645 1495 0.907411 0.397099 -0.160100
-7.483932 -6.643677 -0.172574 1507 0.904488 0.394581 -0.115913
-7.483327 -6.643116 -0.169488 1509 0.913195 0.402656 -0.071511
-7.482658 -6.642505 -0.166402 1509 0.922821 0.411445 -0.027108
-7.482481 -6.642337 -0.163322 1491 0.925366 0.413867 0.017209
-7.482734 -6.642547 -0.160260 1485 0.921723 0.410842 0.061266
-7.483211 -6.642956 -0.157197 1495 0.914862 0.404962 0.105338
-7.483575 -6.643265 -0.154126 1489 0.909627 0.400516 0.149525
-7.483847 -6.643481 -0.151055 1487 0.905709 0.397408 0.193713
-7.484261 -6.643841 -0.147992 1477 0.899754 0.392228 0.237784
-7.484956 -6.644443 -0.144929 1479 0.889758 0.383562 0.281856
-7.485425 -6.644845 -0.141866 1481 0.883006 0.377779 0.325928
-7.486233 -6.645546 -0.138801 1469 0.871377 0.367693 0.370029
-7.488073 -6.647152 -0.135760 1457 0.844907 0.344585 0.413784
-7.490082 -6.648930 -0.132709 1459 0.816002 0.319001 0.457684
-7.491156 -6.649859 -0.129653 1443 0.800544 0.305635 0.501655
-7.491787 -6.650411 -0.126578 1429 0.791467 0.297690 0.545899
-7.493073 -6.651540 -0.123523 1413 0.772963 0.281451 0.589856
-7.494477 -6.652761 -0.120463 1381 0.752765 0.263880 0.633885
-7.496583 -6.654624 -0.117421 1355 0.722460 0.237074 0.677655
-7.499247 -6.656965 -0.114377 1339 0.684128 0.203393 0.721453
-7.501790 -6.659213 -0.111322 1299 0.647538 0.171044 0.765410
-7.504613 -6.661704 -0.108276 1253 0.606921 0.135202 0.809238
-7.508260 -6.664914 -0.105235 1187 0.554448 0.089014 0.852993
-7.513038 -6.669143 -0.102208 1095 0.485695 0.028164 0.896547
-7.519361 -6.674742 -0.099193 939 0.394718 -0.052397 0.939928
-7.510902 -6.663761 -0.222463 1187 0.516432 0.105604 -0.833741
-7.507296 -6.660542 -0.219285 1241 0.568314 0.151922 -0.788014
-7.503514 -6.657172 -0.216096 1281 0.622736 0.200409 -0.742129
-7.500772 -6.654730 -0.212941 1313 0.662186 0.235551 -0.696734
-7.498585 -6.652765 -0.209804 1353 0.693651 0.263825 -0.651597
-7.496124 -6.650566 -0.206668 1385 0.729067 0.295461 -0.606475
-7.493979 -6.648657 -0.203530 1403 0.759928 0.322932 -0.561324
-7.492116 -6.646977 -0.200412 1427 0.786733 0.347103 -0.516460
-7.491068 -6.646039 -0.197307 1441 0.801814 0.360599 -0.471784
-7.490252 -6.645294 -0.194213 1459 0.813553 0.371316 -0.427266
-7.489470 -6.644583 -0.191117 1465 0.824805 0.381545 -0.382719
-7.488415 -6.643639 -0.188012 1469 0.839988 0.395130 -0.338043
-7.487205 -6.642550 -0.184920 1481 0.857394 0.410800 -0.293554
-7.486495 -6.641898 -0.181823 1491 0.867610 0.420179 -0.248993
-7.485875 -6.641337 -0.178737 1499 0.876530 0.428255 -0.204590
-7.485431 -6.640926 -0.175651 1503 0.882917 0.434169 -0.160187
-7.484874 -6.640416 -0.172563 1519 0.890938 0.441503 -0.115755
-7.484585 -6.640148 -0.169484 1521 0.895095 0.445359 -0.071453
-7.484732 -6.640265 -0.166413 1509 0.892975 0.443678 -0.027266
-7.484506 -6.640046 -0.163335 1501 0.896227 0.446827 0.017022
-7.483725 -6.639337 -0.160249 1491 0.907466 0.457030 0.061425
-7.483822 -6.639403 -0.157180 1499 0.906073 0.456083 0.105583
-7.484959 -6.640397 -0.154132 1501 0.889710 0.441778 0.149439
-7.485808 -6.641140 -0.151069 1501 0.877497 0.431088 0.193511
-7.486454 -6.641693 -0.148004 1497 0.868200 0.423130 0.237612
-7.487156 -6.642302 -0.144940 1489 0.858101 0.414368 0.281698
-7.487359 -6.642461 -0.141870 1489 0.855178 0.412083 0.325871
-7.487934 -6.642955 -0.138806 1467 0.846904 0.404975 0.369957
-7.489556 -6.644383 -0.135757 1457 0.823570 0.384427 0.413828
-7.490911 -6.645569 -0.132709 1461 0.804071 0.367364 0.457684
-7.491654 -6.646206 -0.129645 1457 0.793382 0.358197 0.501770
-7.492673 -6.647094 -0.126578 1435 0.778720 0.345422 0.545899
-7.494296 -6.648521 -0.123531 1425 0.755365 0.324887 0.589741
-7.496080 -6.650086 -0.120469 1397 0.729698 0.302370 0.633799
-7.498130 -6.651892 -0.117429 1365 0.700203 0.276380 0.677540
-7.500793 -6.654233 -0.114383 1353 0.661884 0.242700 0.721367
-7.503610 -6.656716 -0.111337 1325 0.621350 0.206975 0.765194
-7.506266 -6.659064 -0.108291 1265 0.583134 0.173191 0.809022
-7.508977 -6.661454 -0.105235 1209 0.544130 0.138797 0.852993
-7.513052 -6.665056 -0.102203 1111 0.485496 0.086970 0.896619
-7.518392 -6.669770 -0.099172 1001 0.408660 0.019149 0.940230
-7.511071 -6.659816 -0.222427 1189 0.513996 0.162372 -0.833223
-7.508237 -6.657281 -0.219264 1253 0.554778 0.198845 -0.787712
-7.505545 -6.654888 -0.216109 1301 0.593508 0.233273 -0.742316
-7.502916 -6.652532 -0.212964 1339 0.631339 0.267173 -0.697065
-7.500447 -6.650324 -0.209819 1371 0.666865 0.298946 -0.651813
-7.497706 -6.647882 -0.206664 1385 0.706302 0.334081 -0.606417
-7.495350 -6.645775 -0.203527 1405 0.740202 0.364400 -0.561280
-7.493929 -6.644501 -0.200416 1431 0.760648 0.382725 -0.516518
-7.492769 -6.643464 -0.197312 1451 0.777341 0.397648 -0.471856
-7.491552 -6.642368 -0.194209 1455 0.794850 0.413421 -0.427208
-7.490510 -6.641423 -0.191106 1469 0.809841 0.427013 -0.382561
-7.489300 -6.640335 -0.188003 1467 0.827254 0.442670 -0.337914
-7.488196 -6.639340 -0.184909 1483 0.843137 0.456988 -0.293396
-7.487148 -6.638401 -0.181804 1495 0.858218 0.470498 -0.248719
-7.486704 -6.637991 -0.178727 1495 0.864605 0.476398 -0.204446
-7.486745 -6.638014 -0.175647 1507 0.864015 0.476069 -0.160129
-7.486681 -6.637932 -0.172578 1533 0.864935 0.477249 -0.115971
-7.486125 -6.637422 -0.169490 1523 0.872934 0.484583 -0.071539
-7.485554 -6.636911 -0.166404 1507 0.881147 0.491938 -0.027136
-7.485104 -6.636494 -0.163327 1505 0.887624 0.497935 0.017137
-7.485208 -6.636567 -0.160257 1503 0.886128 0.496885 0.061310
-7.486176 -6.637404 -0.157201 1515 0.872200 0.484844 0.105281
-7.486765 -6.637913 -0.154138 1499 0.863727 0.477516 0.149353
-7.486631 -6.637788 -0.151057 1499 0.865655 0.479321 0.193684
-7.486735 -6.637862 -0.147987 1495 0.864159 0.478251 0.237856
-7.487592 -6.638598 -0.144933 1495 0.851823 0.467664 0.281799
-7.488399 -6.639300 -0.141868 1493 0.840215 0.457565 0.325900
-7.489417 -6.640187 -0.138812 1471 0.825566 0.444803 0.369871
-7.490927 -6.641515 -0.135764 1463 0.803838 0.425696 0.413727
-7.492163 -6.642594 -0.132707 1473 0.786054 0.410169 0.457712
-7.493292 -6.643580 -0.129649 1457 0.769814 0.395981 0.501712
-7.494697 -6.644802 -0.126592 1439 0.749595 0.378396 0.545698
-7.496158 -6.646081 -0.123534 1425 0.728573 0.359995 0.589698
-7.497661 -6.647403 -0.120484 1405 0.706947 0.340976 0.633583
-7.499719 -6.649215 -0.117433 1387 0.677335 0.314898 0.677482
-7.501890 -6.651115 -0.114381 1349 0.646097 0.287564 0.721396
-7.504601 -6.653505 -0.111335 1317 0.607093 0.253177 0.765223
-7.507861 -6.656381 -0.108297 1279 0.560184 0.211791 0.808935
-7.510523 -6.658721 -0.105243 1223 0.521886 0.178124 0.852878
-7.514050 -6.661839 -0.102203 1137 0.471136 0.133261 0.896619
-7.519995 -6.667095 -0.099177 1021 0.385593 0.057632 0.940158
-7.513566 -6.658001 -0.222448 1207 0.478100 0.188484 -0.833525
-7.510064 -6.654875 -0.219268 1265 0.528486 0.233465 -0.787769
-7.506500 -6.651713 -0.216098 1301 0.579772 0.278960 -0.742158
-7.503590 -6.649114 -0.212936 1345 0.621638 0.316352 -0.696662
-7.501396 -6.647156 -0.209798 1379 0.653205 0.344530 -0.651510
-7.499484 -6.645441 -0.206678 1399 0.680718 0.369202 -0.606619
-7.497458 -6.643626 -0.203550 1407 0.709870 0.395315 -0.561611
-7.495595 -6.641960 -0.200421 1435 0.736676 0.419287 -0.516590
-7.493991 -6.640530 -0.197311 1443 0.759756 0.439863 -0.471842
-7.492782 -6.639442 -0.194207 1453 0.777149 0.455520 -0.427180
-7.491677 -6.638446 -0.191102 1463 0.793052 0.469853 -0.382503
-7.490797 -6.637651 -0.188008 1473 0.805711 0.481290 -0.337985
-7.489805 -6.636755 -0.184915 1481 0.819982 0.494182 -0.293482
-7.488813 -6.635860 -0.181810 1493 0.834259 0.507060 -0.248806
-7.488362 -6.635443 -0.178733 1513 0.840750 0.513056 -0.204532
-7.488080 -6.635181 -0.175655 1521 0.844805 0.516830 -0.160245
-7.488290 -6.635348 -0.172582 1527 0.841786 0.514428 -0.116029
-7.488001 -6.635080 -0.169503 1513 0.845943 0.518284 -0.071726
-7.487550 -6.634663 -0.166417 1521 0.852434 0.524281 -0.027324
-7.487429 -6.634537 -0.163348 1523 0.854170 0.526092 0.016835
-7.486922 -6.634077 -0.160260 1511 0.861470 0.532713 0.061266
-7.487455 -6.634528 -0.157197 1519 0.853799 0.526222 0.105338
-7.488319 -6.635287 -0.154143 1513 0.841367 0.515307 0.149281
-7.488409 -6.635346 -0.151073 1507 0.840070 0.514456 0.193454
-7.488991 -6.635848 -0.148009 1495 0.831700 0.507231 0.237540
-7.489799 -6.636549 -0.144944 1487 0.820071 0.497146 0.281641
-7.490113 -6.636808 -0.141883 1485 0.815556 0.493420 0.325684
-7.490533 -6.637161 -0.138810 1471 0.809512 0.488343 0.369900
-7.492262 -6.638682 -0.135770 1473 0.784634 0.466457 0.413641
-7.493940 -6.640152 -0.132720 1465 0.760490 0.445304 0.457525
-7.494410 -6.640554 -0.129647 1449 0.753725 0.439520 0.501741
-7.495646 -6.641634 -0.126592 1437 0.735942 0.423980 0.545698
-7.497711 -6.643440 -0.123540 1421 0.706227 0.397998 0.589612
-7.499657 -6.645154 -0.120498 1405 0.678227 0.373333 0.633381
-7.501771 -6.647009 -0.117446 1395 0.647812 0.346643 0.677295
-7.503997 -6.648966 -0.114394 1373 0.615785 0.318486 0.721209
-7.506484 -6.651156 -0.111350 1331 0.579999 0.286974 0.765007
-7.509365 -6.653690 -0.108302 1285 0.538545 0.250514 0.808864
-7.512406 -6.656372 -0.105256 1233 0.494792 0.211922 0.852691
-7.515610 -6.659191 -0.102208 1155 0.448687 0.171359 0.896547
-7.520458 -6.663477 -0.099179 1047 0.378931 0.109693 0.940130
-7.514710 -6.655160 -0.222444 1211 0.461640 0.229362 -0.833467
-7.510822 -6.651698 -0.219257 1261 0.517584 0.279173 -0.787611
-7.507757 -6.648971 -0.216094 1299 0.561680 0.318411 -0.742101
-7.505289 -6.646763 -0.212949 1339 0.597192 0.350184 -0.696849
-7.503587 -6.645248 -0.209817 1375 0.621686 0.371981 -0.651784
-7.501893 -6.643725 -0.206699 1407 0.646056 0.393895 -0.606921
-7.499741 -6.641810 -0.203570 1423 0.677020 0.421449 -0.561899
-7.497877 -6.640144 -0.200441 1439 0.703839 0.445421 -0.516878
-7.496344 -6.638772 -0.197330 1445 0.725897 0.465160 -0.472115
-7.495078 -6.637627 -0.194226 1449 0.744113 0.481633 -0.427453
-7.493538 -6.636247 -0.191115 1453 0.766274 0.501489 -0.382691
-7.491716 -6.634624 -0.187997 1465 0.792490 0.524843 -0.337827
-7.490563 -6.633578 -0.184892 1485 0.809079 0.539896 -0.293151
-7.490394 -6.633418 -0.181813 1505 0.811508 0.542195 -0.248849
-7.490434 -6.633441 -0.178744 1513 0.810932 0.541865 -0.204691
-7.490201 -6.633216 -0.175664 1521 0.814287 0.545104 -0.160374
-7.489975 -6.632998 -0.172586 1521 0.817539 0.548239 -0.116086
-7.489967 -6.632972 -0.169517 1521 0.817656 0.548617 -0.071928
-7.489523 -6.632562 -0.166429 1523 0.824043 0.554510 -0.027496
-7.488904 -6.632002 -0.163352 1535 0.832949 0.562572 0.016777
-7.489107 -6.632162 -0.160281 1517 0.830026 0.560266 0.060964
-7.489639 -6.632627 -0.157218 1521 0.822376 0.553577 0.105036
-7.489947 -6.632879 -0.154147 1515 0.817944 0.549954 0.149223
-7.490431 -6.633296 -0.151084 1517 0.810980 0.543951 0.193295
-7.491014 -6.633797 -0.148021 1505 0.802589 0.536740 0.237367
-7.491273 -6.634000 -0.144950 1489 0.798863 0.533824 0.281554
-7.491468 -6.634166 -0.141877 1491 0.796057 0.531437 0.325770
-7.492218 -6.634810 -0.138824 1475 0.785265 0.522168 0.369698
-7.493188 -6.635662 -0.135759 1475 0.771310 0.509907 0.413799
-7.494480 -6.636784 -0.132711 1467 0.752717 0.493763 0.457655
-7.496593 -6.638640 -0.129668 1453 0.722316 0.467060 0.501439
-7.497837 -6.639726 -0.126613 1437 0.704415 0.451431 0.545396
-7.498693 -6.640463 -0.123548 1419 0.692100 0.440831 0.589497
-7.500970 -6.642468 -0.120494 1411 0.659339 0.411980 0.633439
-7.503083 -6.644325 -0.117452 1395 0.628931 0.385264 0.677209
-7.504818 -6.645838 -0.114392 1359 0.603971 0.363494 0.721238
-7.507305 -6.648029 -0.111348 1327 0.568184 0.331968 0.765036
-7.510292 -6.650656 -0.108300 1291 0.525207 0.294164 0.808892
-7.512946 -6.652989 -0.105256 1233 0.487019 0.260600 0.852691
-7.517028 -6.656599 -0.102212 1169 0.428289 0.208656 0.896489
-7.522593 -6.661498 -0.099191 1057 0.348215 0.138166 0.939957
-7.516501 -6.652804 -0.222448 1219 0.435870 0.263262 -0.833525
-7.513049 -6.649741 -0.219278 1267 0.485537 0.307330 -0.787913
-7.510370 -6.647348 -0.216123 1311 0.524089 0.341765 -0.742518
-7.507735 -6.644999 -0.212968 1345 0.562002 0.375562 -0.697122
-7.505041 -6.642606 -0.209823 1373 0.600760 0.409998 -0.651870
-7.503177 -6.640941 -0.206695 1399 0.627579 0.433949 -0.606863
-7.501588 -6.639511 -0.203572 1423 0.650447 0.454525 -0.561928
-7.500048 -6.638131 -0.200462 1433 0.672601 0.474381 -0.517180
-7.498458 -6.636714 -0.197351 1447 0.695482 0.494772 -0.472417
-7.497024 -6.635427 -0.194240 1457 0.716113 0.513289 -0.427655
-7.496145 -6.634632 -0.191144 1483 0.728765 0.524727 -0.383108
-7.494822 -6.633444 -0.188031 1481 0.747797 0.541824 -0.338316
-7.493661 -6.632406 -0.184940 1487 0.764504 0.556754 -0.293841
-7.492880 -6.631696 -0.181844 1509 0.775742 0.566970 -0.249295
-7.492380 -6.631242 -0.178756 1513 0.782932 0.573508 -0.204863
-7.491936 -6.630831 -0.175679 1515 0.789320 0.579422 -0.160590
-7.491647 -6.630564 -0.172601 1519 0.793485 0.583258 -0.116302
-7.491309 -6.630246 -0.169513 1525 0.798342 0.587834 -0.071870
-7.490745 -6.629727 -0.166436 1523 0.806459 0.595305 -0.027597
-7.491117 -6.630044 -0.163364 1531 0.801107 0.590743 0.016605
-7.491432 -6.630303 -0.160302 1535 0.796572 0.587017 0.060662
-7.491424 -6.630278 -0.157222 1521 0.796689 0.587374 0.104979
-7.491514 -6.630352 -0.154151 1509 0.795392 0.586311 0.149166
-7.492264 -6.630996 -0.151097 1515 0.784606 0.577042 0.193108
-7.492910 -6.631548 -0.148034 1505 0.775310 0.569103 0.237180
-7.493050 -6.631657 -0.144963 1485 0.773293 0.567532 0.281367
-7.494025 -6.632501 -0.141908 1487 0.759262 0.555388 0.325324
-7.495100 -6.633446 -0.138850 1481 0.743797 0.541790 0.369324
-7.496068 -6.634282 -0.135785 1477 0.729870 0.529763 0.413425
-7.497086 -6.635168 -0.132730 1461 0.715221 0.517015 0.457381
-7.498758 -6.636633 -0.129680 1455 0.691167 0.495938 0.501266
-7.500661 -6.638303 -0.126630 1445 0.663785 0.471911 0.545151
-7.501518 -6.639040 -0.123565 1431 0.651456 0.461304 0.589252
-7.502535 -6.639926 -0.120509 1405 0.636821 0.448556 0.633223
-7.504537 -6.641683 -0.117458 1383 0.608012 0.423274 0.677122
-7.506813 -6.643689 -0.114404 1353 0.575265 0.394410 0.721065
-7.509532 -6.646072 -0.111360 1333 0.536143 0.360125 0.764864
-7.512455 -6.648648 -0.108312 1299 0.494086 0.323062 0.808720
-7.515721 -6.651516 -0.105273 1237 0.447095 0.281794 0.852446
-7.519424 -6.654784 -0.102233 1175 0.393813 0.234769 0.896187
-7.523668 -6.658514 -0.099198 1069 0.332750 0.181102 0.939856
-7.518989 -6.650997 -0.222478 1233 0.400070 0.289258 -0.833957
-7.515368 -6.647778 -0.219298 1275 0.452172 0.335577 -0.788201
-7.511909 -6.644708 -0.216119 1307 0.501941 0.379748 -0.742460
-7.509392 -6.642466 -0.212974 1347 0.538161 0.412008 -0.697208
-7.506320 -6.639730 -0.209821 1375 0.582359 0.451376 -0.651842
-7.504077 -6.637722 -0.206683 1387 0.614633 0.480268 -0.606690
-7.502699 -6.636492 -0.203570 1413 0.634461 0.497969 -0.561899
-7.501601 -6.635504 -0.200467 1441 0.650255 0.512185 -0.517252
-7.500658 -6.634658 -0.197362 1459 0.663826 0.524356 -0.472575
-7.499343 -6.633477 -0.194261 1471 0.682748 0.541344 -0.427957
-7.497522 -6.631855 -0.191140 1483 0.708951 0.564685 -0.383050
-7.496262 -6.630717 -0.188039 1489 0.727077 0.581062 -0.338432
-7.495861 -6.630349 -0.184951 1497 0.732847 0.586352 -0.294000
-7.494981 -6.629553 -0.181855 1499 0.745513 0.597810 -0.249453
-7.494150 -6.628808 -0.178771 1501 0.757464 0.608527 -0.205079
-7.493587 -6.628290 -0.175683 1509 0.765567 0.615978 -0.160647
-7.492757 -6.627544 -0.172588 1513 0.777512 0.626715 -0.116115
-7.493023 -6.627754 -0.169526 1525 0.773684 0.623689 -0.072057
-7.493443 -6.628120 -0.166453 1527 0.767639 0.618427 -0.027842
-7.493710 -6.628330 -0.163392 1535 0.763797 0.615401 0.016202
-7.493863 -6.628454 -0.160321 1523 0.761595 0.613617 0.060389
-7.493904 -6.628478 -0.157252 1517 0.761005 0.613274 0.104547
-7.493663 -6.628245 -0.154174 1505 0.764476 0.616629 0.148835
-7.493656 -6.628220 -0.151094 1493 0.764572 0.616986 0.193151
-7.494617 -6.629063 -0.148038 1495 0.750748 0.604856 0.237123
-7.495368 -6.629708 -0.144984 1491 0.739941 0.595580 0.281065
-7.495902 -6.630160 -0.141921 1491 0.732257 0.589076 0.325137
-7.496702 -6.630854 -0.138856 1481 0.720744 0.579086 0.369238
-7.497607 -6.631640 -0.135791 1475 0.707722 0.567779 0.413338
-7.498582 -6.632484 -0.132735 1461 0.693699 0.555635 0.457310
-7.500415 -6.634098 -0.129686 1457 0.667325 0.532411 0.501180
-7.502481 -6.635904 -0.126643 1441 0.637596 0.506429 0.544964
-7.503668 -6.636934 -0.123586 1433 0.620520 0.491609 0.588950
-7.504848 -6.637970 -0.120521 1417 0.603539 0.476700 0.633051
-7.506476 -6.639391 -0.117471 1385 0.580115 0.456254 0.676935
-7.508309 -6.640990 -0.114410 1357 0.553742 0.433249 0.720979
-7.510867 -6.643239 -0.111365 1333 0.516933 0.400886 0.764792
-7.513523 -6.645573 -0.108321 1289 0.478717 0.367302 0.808590
-7.516839 -6.648491 -0.105281 1231 0.431006 0.325320 0.852331
-7.520928 -6.652093 -0.102239 1157 0.372173 0.273492 0.896101
-7.526043 -6.656608 -0.099210 1053 0.298576 0.208525 0.939684
-7.520838 -6.648457 -0.222482 1247 0.373470 0.325807 -0.834014
-7.516838 -6.644910 -0.219295 1277 0.431020 0.376845 -0.788158
-7.513653 -6.642076 -0.216125 1313 0.476851 0.417620 -0.742546
-7.511734 -6.640367 -0.212995 1343 0.504459 0.442210 -0.697510
-7.509645 -6.638502 -0.209857 1377 0.534517 0.469043 -0.652360
-7.507395 -6.636502 -0.206729 1389 0.566894 0.497825 -0.607352
-7.505693 -6.634985 -0.203609 1415 0.591381 0.519650 -0.562460
-7.504152 -6.633605 -0.200488 1423 0.613556 0.539505 -0.517554
-7.502894 -6.632468 -0.197385 1455 0.631655 0.555862 -0.472906
-7.501564 -6.631287 -0.194272 1467 0.650790 0.572856 -0.428115
-7.500460 -6.630292 -0.191169 1481 0.666673 0.587175 -0.383467
-7.499249 -6.629203 -0.188066 1493 0.684100 0.602846 -0.338820
-7.498089 -6.628166 -0.184972 1493 0.700793 0.617761 -0.294302
-7.497589 -6.627713 -0.181886 1499 0.707983 0.624279 -0.249899
-7.496758 -6.626952 -0.178790 1509 0.719942 0.635229 -0.205352
-7.495646 -6.625964 -0.175696 1513 0.735942 0.649445 -0.160834
-7.494929 -6.625304 -0.172610 1519 0.746260 0.658941 -0.116431
-7.494915 -6.625271 -0.169532 1523 0.746459 0.659421 -0.072144
-7.495011 -6.625352 -0.166461 1523 0.745080 0.658255 -0.027957
-7.494729 -6.625077 -0.163383 1513 0.749135 0.662214 0.016331
-7.495262 -6.625543 -0.160319 1515 0.741465 0.655504 0.060417
-7.496119 -6.626280 -0.157264 1511 0.729135 0.644903 0.104374
-7.496553 -6.626647 -0.154203 1511 0.722892 0.639620 0.148418
-7.496144 -6.626271 -0.151115 1497 0.728779 0.645034 0.192849
-7.495588 -6.625761 -0.148038 1493 0.736779 0.652368 0.237123
-7.496339 -6.626405 -0.144973 1487 0.725973 0.643106 0.281223
-7.497743 -6.627641 -0.141925 1483 0.705767 0.625315 0.325079
-7.498874 -6.628613 -0.138869 1475 0.689493 0.611333 0.369051
-7.500229 -6.629799 -0.135821 1467 0.670001 0.594269 0.412907
-7.501844 -6.631220 -0.132772 1459 0.646763 0.573824 0.456777
-7.502982 -6.632200 -0.129707 1459 0.630386 0.559725 0.500878
-7.504379 -6.633429 -0.126659 1441 0.610290 0.542037 0.544734
-7.505622 -6.634501 -0.123592 1421 0.592403 0.526613 0.588864
-7.506802 -6.635537 -0.120534 1403 0.575422 0.511705 0.632863
-7.509415 -6.637828 -0.117490 1387 0.537824 0.478745 0.676662
-7.511796 -6.639913 -0.114446 1371 0.503568 0.448741 0.720461
-7.514185 -6.642018 -0.111392 1321 0.469194 0.418457 0.764403
-7.516679 -6.644201 -0.108348 1277 0.433311 0.387048 0.808202
-7.519889 -6.647027 -0.105300 1233 0.387123 0.346383 0.852058
-7.523873 -6.650523 -0.102267 1153 0.329800 0.296078 0.895698
-7.528721 -6.654795 -0.099229 1051 0.260044 0.234611 0.939410
-7.523096 -6.646118 -0.222507 1243 0.340976 0.359460 -0.834374
-7.519580 -6.643005 -0.219325 1285 0.391569 0.404255 -0.788590
-7.517000 -6.640713 -0.216170 1315 0.428687 0.437229 -0.743194
-7.514378 -6.638377 -0.213025 1345 0.466415 0.470841 -0.697942
-7.511628 -6.635927 -0.209872 1365 0.505983 0.506092 -0.652575
-7.509596 -6.634120 -0.206742 1389 0.535224 0.532095 -0.607539
-7.507234 -6.632020 -0.203607 1399 0.569206 0.562311 -0.562431
-7.505743 -6.630689 -0.200484 1419 0.590661 0.581460 -0.517496
-7.504821 -6.629851 -0.197391 1431 0.603930 0.593522 -0.472993
-7.503548 -6.628713 -0.194287 1449 0.622242 0.609892 -0.428331
-7.502556 -6.627818 -0.191184 1473 0.636519 0.622770 -0.383683
-7.501782 -6.627114 -0.188089 1483 0.647655 0.632904 -0.339151
-7.500782 -6.626225 -0.184993 1489 0.662042 0.645692 -0.294604
-7.500008 -6.625523 -0.181909 1509 0.673177 0.655792 -0.250230
-7.499782 -6.625305 -0.178830 1505 0.676430 0.658927 -0.205928
-7.499879 -6.625371 -0.175750 1519 0.675037 0.657980 -0.161611
-7.499042 -6.624619 -0.172664 1523 0.687078 0.668800 -0.117208
-7.497945 -6.623630 -0.169570 1511 0.702865 0.683030 -0.072690
-7.498140 -6.623796 -0.166499 1515 0.700059 0.680642 -0.028503
-7.497914 -6.623579 -0.163421 1507 0.703311 0.683764 0.015784
-7.497512 -6.623211 -0.160342 1513 0.709095 0.689061 0.060087
-7.497666 -6.623321 -0.157272 1515 0.706878 0.687476 0.104259
-7.497982 -6.623595 -0.154201 1509 0.702330 0.683531 0.148446
-7.498290 -6.623847 -0.151128 1493 0.697897 0.679908 0.192662
-7.498654 -6.624156 -0.148067 1497 0.692663 0.675462 0.236705
-7.499623 -6.624992 -0.145011 1501 0.678721 0.663435 0.280677
-7.500648 -6.625887 -0.141955 1481 0.663970 0.650557 0.324648
-7.501293 -6.626438 -0.138892 1471 0.654687 0.642626 0.368720
-7.502262 -6.627275 -0.135825 1465 0.640746 0.630585 0.412849
-7.503941 -6.628746 -0.132775 1457 0.616588 0.609418 0.456734
-7.505563 -6.630161 -0.129727 1455 0.593254 0.589062 0.500590
-7.506750 -6.631190 -0.126670 1445 0.576170 0.574256 0.544576
-7.507880 -6.632176 -0.123614 1409 0.559910 0.560068 0.588547
-7.509285 -6.633398 -0.120557 1399 0.539697 0.542483 0.632533
-7.511399 -6.635254 -0.117503 1383 0.509283 0.515780 0.676475
-7.514336 -6.637830 -0.114467 1357 0.467019 0.478717 0.720158
-7.517047 -6.640206 -0.111423 1317 0.428015 0.444529 0.763957
-7.519387 -6.642262 -0.108369 1277 0.394348 0.414944 0.807899
-7.521929 -6.644495 -0.105313 1215 0.357772 0.382814 0.851871
-7.525857 -6.647949 -0.102271 1145 0.301251 0.333114 0.895640
-7.530980 -6.652457 -0.099252 1057 0.227537 0.268250 0.939079
-7.525776 -6.644079 -0.222528 1233 0.302418 0.388797 -0.834676
-7.522493 -6.641160 -0.219356 1267 0.349655 0.430800 -0.789036
-7.519848 -6.638816 -0.216201 1307 0.387713 0.464529 -0.743640
-7.517163 -6.636431 -0.213056 1347 0.426347 0.498840 -0.698388
-7.514091 -6.633696 -0.209893 1367 0.470546 0.538195 -0.652878
-7.511946 -6.631789 -0.206756 1387 0.501406 0.565632 -0.607741
-7.510624 -6.630615 -0.203645 1411 0.520432 0.582523 -0.562978
-7.509252 -6.629377 -0.200532 1431 0.540171 0.600341 -0.518187
-7.507332 -6.627669 -0.197414 1433 0.567800 0.624917 -0.473323
-7.505398 -6.625946 -0.194293 1449 0.595628 0.649706 -0.428417
-7.504681 -6.625300 -0.191198 1459 0.605940 0.659003 -0.383885
-7.504236 -6.624890 -0.188111 1481 0.612341 0.664903 -0.339468
-7.503462 -6.624187 -0.185025 1483 0.623483 0.675016 -0.295065
-7.502787 -6.623583 -0.181930 1495 0.633192 0.683709 -0.250532
-7.501964 -6.622831 -0.178844 1499 0.645034 0.694529 -0.206129
-7.501238 -6.622177 -0.175748 1501 0.655483 0.703935 -0.161583
-7.500731 -6.621716 -0.172660 1513 0.662776 0.710570 -0.117151
-7.500506 -6.621499 -0.169593 1517 0.666015 0.713691 -0.073021
-7.499998 -6.621038 -0.166505 1511 0.673322 0.720326 -0.028590
-7.499709 -6.620770 -0.163427 1503 0.677479 0.724182 0.015698
-7.500080 -6.621086 -0.160354 1505 0.672141 0.719633 0.059914
-7.500607 -6.621531 -0.157292 1509 0.664560 0.713232 0.103972
-7.500928 -6.621798 -0.154229 1501 0.659943 0.709390 0.148043
-7.500963 -6.621815 -0.151160 1493 0.659435 0.709143 0.192202
-7.501665 -6.622409 -0.148095 1493 0.649336 0.700601 0.236302
-7.503013 -6.623588 -0.145047 1497 0.629940 0.683634 0.280159
-7.503658 -6.624140 -0.141984 1479 0.620664 0.675695 0.324230
-7.504191 -6.624592 -0.138911 1479 0.612993 0.669191 0.368446
-7.504773 -6.625093 -0.135848 1471 0.604616 0.661980 0.412518
-7.505517 -6.625731 -0.132785 1445 0.593913 0.652800 0.456590
-7.506872 -6.626916 -0.129737 1439 0.574414 0.635751 0.500446
-7.508439 -6.628288 -0.126678 1427 0.551869 0.616012 0.544461
-7.510230 -6.629845 -0.123628 1407 0.526099 0.593604 0.588346
-7.512562 -6.631893 -0.120584 1391 0.492549 0.564136 0.632144
-7.514128 -6.633265 -0.117524 1371 0.470010 0.544397 0.676173
-7.515645 -6.634586 -0.114467 1333 0.448186 0.525392 0.720158
-7.518969 -6.637497 -0.111428 1305 0.400358 0.483506 0.763885
-7.522615 -6.640708 -0.108398 1273 0.347899 0.437304 0.807482
-7.525277 -6.643034 -0.105342 1219 0.309594 0.403836 0.851453
-7.528811 -6.646145 -0.102302 1135 0.258748 0.359076 0.895194
-7.534278 -6.650945 -0.099271 1019 0.180087 0.290006 0.938806
-7.529115 -6.642837 -0.222573 1215 0.254370 0.406670 -0.835324
-7.525607 -6.639731 -0.219394 1271 0.304846 0.451362 -0.789583
-7.522528 -6.637004 -0.216231 1311 0.349148 0.490600 -0.744072
-7.519287 -6.634127 -0.213069 1333 0.395782 0.531992 -0.698575
-7.516706 -6.631833 -0.209924 1355 0.432920 0.565001 -0.653324
-7.515285 -6.630560 -0.206803 1379 0.453366 0.583319 -0.608417
-7.513190 -6.628702 -0.203675 1407 0.483513 0.610050 -0.563410
-7.511101 -6.626837 -0.200547 1425 0.513571 0.636890 -0.518403
-7.509786 -6.625657 -0.197435 1439 0.532486 0.653864 -0.473626
-7.508787 -6.624768 -0.194339 1443 0.546860 0.666660 -0.429079
-7.507408 -6.623538 -0.191228 1459 0.566702 0.684354 -0.384316
-7.505482 -6.621823 -0.188110 1463 0.594414 0.709033 -0.339453
-7.504370 -6.620820 -0.185004 1481 0.610413 0.723461 -0.294762
-7.504418 -6.620851 -0.181935 1493 0.609727 0.723015 -0.250604
-7.504410 -6.620826 -0.178865 1495 0.609844 0.723379 -0.206431
-7.503467 -6.619979 -0.175771 1497 0.623408 0.735564 -0.161913
-7.503072 -6.619619 -0.172683 1505 0.629096 0.740744 -0.117482
-7.503387 -6.619878 -0.169622 1503 0.624561 0.737019 -0.073439
-7.502993 -6.619518 -0.166534 1503 0.630228 0.742199 -0.029007
-7.502654 -6.619200 -0.163455 1499 0.635106 0.746768 0.015295
-7.503582 -6.619994 -0.160400 1519 0.621754 0.735345 0.059252
-7.504051 -6.620395 -0.157336 1511 0.615003 0.729575 0.103338
-7.503656 -6.620035 -0.154250 1497 0.620691 0.734755 0.147741
-7.503691 -6.620052 -0.151179 1489 0.620183 0.734514 0.191928
-7.504659 -6.620889 -0.148124 1503 0.606256 0.722467 0.235885
-7.505740 -6.621825 -0.145068 1489 0.590702 0.708999 0.279856
-7.506386 -6.622377 -0.142005 1477 0.581412 0.701060 0.323928
-7.506588 -6.622537 -0.138932 1461 0.578503 0.698755 0.368144
-7.507768 -6.623573 -0.135877 1449 0.561522 0.683853 0.412101
-7.509285 -6.624895 -0.132827 1453 0.539697 0.664828 0.455986
-7.510254 -6.625731 -0.129762 1431 0.525756 0.652800 0.500087
-7.511328 -6.626661 -0.126706 1417 0.510298 0.639421 0.544058
-7.512902 -6.628025 -0.123647 1407 0.487657 0.619792 0.588072
-7.514798 -6.629688 -0.120597 1391 0.460371 0.595868 0.631957
-7.516645 -6.631302 -0.117545 1363 0.433798 0.572644 0.675871
-7.518703 -6.633102 -0.114495 1327 0.404186 0.546744 0.719756
-7.521092 -6.635193 -0.111442 1297 0.369813 0.516658 0.763684
-7.524134 -6.637861 -0.108403 1247 0.326040 0.478271 0.807410
-7.527949 -6.641214 -0.105361 1195 0.271152 0.430025 0.851180
-7.532213 -6.644952 -0.102328 1111 0.209795 0.376242 0.894820
-7.538053 -6.650087 -0.099305 991 0.125768 0.302356 0.938317
-7.532775 -6.642219 -0.222636 1199 0.201712 0.415562 -0.836230
-7.529049 -6.638921 -0.219447 1257 0.255324 0.463019 -0.790345
-7.525871 -6.636094 -0.216285 1295 0.301052 0.503691 -0.744849
-7.522792 -6.633366 -0.213122 1327 0.345354 0.542943 -0.699338
-7.519720 -6.630645 -0.209960 1345 0.389552 0.582098 -0.653841
-7.517245 -6.628445 -0.206815 1369 0.425167 0.613748 -0.608590
-7.515213 -6.626637 -0.203687 1393 0.454402 0.639765 -0.563582
-7.513440 -6.625065 -0.200566 1413 0.479911 0.662385 -0.518676
-7.512019 -6.623792 -0.197456 1423 0.500357 0.680697 -0.473928
-7.510859 -6.622754 -0.194350 1437 0.517049 0.695633 -0.429237
-7.509642 -6.621658 -0.191249 1445 0.534558 0.711407 -0.384618
-7.508319 -6.620485 -0.188146 1455 0.553598 0.728285 -0.339971
-7.507432 -6.619682 -0.185050 1473 0.566359 0.739839 -0.295424
-7.507102 -6.619371 -0.181962 1475 0.571107 0.744312 -0.250993
-7.506531 -6.618860 -0.178876 1479 0.579326 0.751667 -0.206590
-7.505813 -6.618215 -0.175790 1491 0.589652 0.760943 -0.162187
-7.505250 -6.617697 -0.172704 1491 0.597755 0.768401 -0.117784
-7.505185 -6.617629 -0.169623 1503 0.598688 0.769375 -0.073453
-7.505177 -6.617602 -0.166555 1495 0.598805 0.769766 -0.029309
-7.505218 -6.617627 -0.163484 1497 0.598215 0.769403 0.014878
-7.505639 -6.617979 -0.160411 1493 0.592156 0.764339 0.059094
-7.506348 -6.618581 -0.157357 1495 0.581954 0.755681 0.103036
-7.506381 -6.618598 -0.154277 1501 0.581481 0.755434 0.147353
-7.506141 -6.618379 -0.151199 1487 0.584932 0.758583 0.191641
-7.506675 -6.618831 -0.148135 1487 0.577254 0.752079 0.235727
-7.507538 -6.619576 -0.145082 1463 0.564836 0.741362 0.279655
-7.508233 -6.620162 -0.142017 1457 0.554833 0.732930 0.323756
-7.508927 -6.620764 -0.138953 1459 0.544850 0.724271 0.367842
-7.510339 -6.621994 -0.135905 1451 0.524535 0.706570 0.411698
-7.511631 -6.623115 -0.132848 1443 0.505941 0.690440 0.455684
-7.512107 -6.623524 -0.129775 1429 0.499094 0.684553 0.499899
-7.513793 -6.624988 -0.126725 1417 0.474834 0.663490 0.543784
-7.515795 -6.626744 -0.123674 1403 0.446025 0.638228 0.587684
-7.517530 -6.628258 -0.120624 1383 0.421064 0.616437 0.631569
-7.520023 -6.630442 -0.117580 1357 0.385195 0.585014 0.675367
-7.522419 -6.632540 -0.114526 1331 0.350719 0.554826 0.719310
-7.524640 -6.634475 -0.111474 1285 0.318760 0.526984 0.763223
-7.527317 -6.636817 -0.108428 1235 0.280243 0.493290 0.807051
-7.530253 -6.639392 -0.105382 1181 0.238000 0.456241 0.850878
-7.534665 -6.643265 -0.102347 1101 0.174516 0.400516 0.894547
-7.540947 -6.648792 -0.099332 965 0.084129 0.320990 0.937928
-7.536429 -6.641510 -0.222699 1197 0.149137 0.425764 -0.837137
-7.531817 -6.637427 -0.219485 1249 0.215496 0.484515 -0.790892
-7.528414 -6.634415 -0.216315 1285 0.264463 0.527848 -0.745280
-7.525455 -6.631793 -0.213151 1315 0.307035 0.565577 -0.699755
-7.523028 -6.629643 -0.210006 1337 0.341957 0.596513 -0.654503
-7.520230 -6.627158 -0.206861 1355 0.382218 0.632266 -0.609252
-7.517208 -6.624474 -0.203698 1377 0.425696 0.670886 -0.563741
-7.515386 -6.622865 -0.200580 1397 0.451911 0.694035 -0.518878
-7.514232 -6.621819 -0.197477 1407 0.468515 0.709088 -0.474230
-7.513402 -6.621075 -0.194381 1423 0.480460 0.719791 -0.429683
-7.511967 -6.619801 -0.191268 1439 0.501104 0.738123 -0.384892
-7.509934 -6.617993 -0.188150 1447 0.530360 0.764140 -0.340029
-7.509322 -6.617439 -0.185054 1455 0.539162 0.772113 -0.295482
-7.509371 -6.617456 -0.181983 1469 0.538462 0.771866 -0.251295
-7.509081 -6.617188 -0.178905 1481 0.542634 0.775721 -0.207007
-7.508687 -6.616827 -0.175817 1491 0.548301 0.780915 -0.162575
-7.508243 -6.616416 -0.172740 1475 0.554689 0.786829 -0.118302
-7.508888 -6.616969 -0.169677 1485 0.545413 0.778871 -0.074230
