162
-21.488123 -18.881786 -0.147172 937 0.953455 -0.338987 0.006752
-21.488291 -18.881887 -0.138381 957 0.951040 -0.340441 0.133241
-21.494062 -18.875731 -0.173559 955 0.867995 -0.251852 -0.372917
-21.488613 -18.870899 -0.164739 1037 0.946402 -0.182337 -0.246010
-21.486794 -18.869257 -0.155950 1073 0.972583 -0.158708 -0.119550
-21.485975 -18.868490 -0.147165 1087 0.984357 -0.147675 0.006853
-21.485302 -18.867863 -0.138379 1085 0.994044 -0.138646 0.133270
-21.488050 -18.870230 -0.129604 1069 0.954498 -0.172704 0.259529
-21.490948 -18.872719 -0.120838 1019 0.912810 -0.208518 0.385659
-21.493153 -18.874611 -0.112064 943 0.881085 -0.235743 0.511903
-21.497519 -18.867176 -0.182369 977 0.818266 -0.128767 -0.499679
-21.493004 -18.863182 -0.173555 1067 0.883226 -0.071299 -0.372859
-21.488937 -18.859556 -0.164739 1117 0.941736 -0.019128 -0.246010
-21.485970 -18.856911 -0.155946 1157 0.984439 0.018936 -0.119492
-21.484747 -18.855801 -0.147153 1163 1.002030 0.034909 0.007026
-21.485193 -18.856146 -0.138381 1159 0.995609 0.029941 0.133241
-21.486443 -18.857197 -0.129615 1135 0.977633 0.014820 0.259371
-21.488577 -18.859020 -0.120841 1103 0.946923 -0.011417 0.385616
-21.491652 -18.861670 -0.112075 1059 0.902684 -0.049536 0.511745
-21.497086 -18.866398 -0.103313 967 0.824496 -0.117570 0.637817
-21.502451 -18.859917 -0.191183 943 0.747296 -0.024315 -0.626499
-21.496460 -18.854626 -0.182357 1069 0.833498 0.051814 -0.499507
-21.492666 -18.851254 -0.173549 1135 0.888083 0.100335 -0.372773
-21.488380 -18.847441 -0.164745 1165 0.949750 0.155195 -0.246097
-21.486452 -18.845707 -0.155946 1191 0.977496 0.180142 -0.119492
-21.486233 -18.845469 -0.147167 1213 0.980652 0.183572 0.006824
-21.486944 -18.846045 -0.138402 1195 0.970415 0.175284 0.132939
-21.487644 -18.846617 -0.129629 1189 0.960343 0.167051 0.259170
-21.489016 -18.847773 -0.120851 1171 0.940611 0.150420 0.385472
-21.492960 -18.851192 -0.112089 1143 0.883857 0.101213 0.511544
-21.498337 -18.855864 -0.103338 1069 0.806493 0.034003 0.637457
-21.504097 -18.860874 -0.094573 939 0.723612 -0.038092 0.763573
-21.512827 -18.857224 -0.200044 879 0.598002 0.014435 -0.753996
-21.505411 -18.850670 -0.191198 1033 0.704704 0.108733 -0.626715
-21.498203 -18.844309 -0.182359 1107 0.808414 0.200258 -0.499535
-21.493694 -18.840321 -0.173555 1165 0.873291 0.257643 -0.372859
-21.490505 -18.837473 -0.164754 1201 0.919177 0.298617 -0.246226
-21.487965 -18.835203 -0.155960 1225 0.955733 0.331275 -0.119694
-21.488354 -18.835495 -0.147188 1225 0.950134 0.327076 0.006522
-21.488520 -18.835594 -0.138416 1219 0.947746 0.325649 0.132738
-21.489166 -18.836123 -0.129642 1211 0.938443 0.318047 0.258983
-21.490644 -18.837372 -0.120874 1205 0.917174 0.300071 0.385141
-21.494047 -18.840313 -0.112115 1167 0.868214 0.257753 0.511170
-21.499203 -18.844782 -0.103355 1113 0.794033 0.193452 0.637213
-21.505241 -18.850037 -0.094591 1021 0.707146 0.117844 0.763313
-21.498396 -18.843988 -0.085790 837 0.805642 0.204868 0.889947
-21.516069 -18.848200 -0.200057 941 0.551347 0.144272 -0.754183
-21.508471 -18.841496 -0.191213 1067 0.660684 0.240738 -0.626931
-21.502094 -18.835867 -0.182390 1153 0.752428 0.321724 -0.499982
-21.497145 -18.831486 -0.173578 1185 0.823645 0.384763 -0.373190
-21.494062 -18.828745 -0.164777 1209 0.867995 0.424200 -0.246557
-21.492912 -18.827686 -0.155994 1223 0.884543 0.439431 -0.120183
-21.492788 -18.827543 -0.147214 1251 0.886327 0.441489 0.006148
-21.492792 -18.827497 -0.138444 1239 0.886272 0.442148 0.132335
-21.493172 -18.827780 -0.129672 1229 0.880811 0.438086 0.258551
-21.495306 -18.829615 -0.120910 1211 0.850101 0.411685 0.384623
-21.497276 -18.831289 -0.112138 1175 0.821752 0.387590 0.510839
-21.501505 -18.834948 -0.103374 1139 0.760909 0.334952 0.636939
-21.508905 -18.841383 -0.094621 1079 0.654426 0.242357 0.762882
-21.514126 -18.845917 -0.085861 939 0.579313 0.177123 0.888925
-21.521341 -18.841280 -0.200099 985 0.475492 0.243839 -0.754787
-21.514246 -18.835014 -0.191249 1099 0.577584 0.333992 -0.627449
-21.506931 -18.828577 -0.182422 1163 0.682831 0.426615 -0.500442
-21.502253 -18.824432 -0.173610 1217 0.750151 0.486250 -0.373651
-21.500061 -18.822468 -0.164813 1247 0.781684 0.514518 -0.247075
-21.498405 -18.820971 -0.156032 1275 0.805505 0.536061 -0.120730
-21.498072 -18.820637 -0.147254 1259 0.810308 0.540864 0.005572
-21.498346 -18.820827 -0.138482 1267 0.806356 0.538119 0.131788
-21.498222 -18.820686 -0.129703 1249 0.808140 0.540150 0.258105
-21.499750 -18.821966 -0.120935 1211 0.786157 0.521735 0.384263
-21.502989 -18.824762 -0.112176 1209 0.739557 0.481503 0.510292
-21.506393 -18.827692 -0.103416 1157 0.690570 0.439349 0.636335
-21.511826 -18.832405 -0.094655 1089 0.612410 0.371535 0.762393
-21.517366 -18.837212 -0.085893 963 0.532685 0.302377 0.888465
-21.525805 -18.833498 -0.200124 1003 0.411274 0.355810 -0.755147
-21.518377 -18.826946 -0.191278 1101 0.518140 0.450079 -0.627866
-21.511780 -18.821129 -0.182447 1169 0.613069 0.533783 -0.500802
-21.507160 -18.817043 -0.173643 1207 0.679538 0.592568 -0.374125
-21.504520 -18.814693 -0.164848 1231 0.717520 0.626379 -0.247579
-21.502855 -18.813189 -0.156059 1261 0.741478 0.648032 -0.121118
-21.502083 -18.812464 -0.147283 1271 0.752593 0.658461 0.005155
-21.502199 -18.812531 -0.138513 1259 0.750919 0.657500 0.131342
-21.503292 -18.813442 -0.129735 1243 0.735194 0.644382 0.257645
-21.504827 -18.814732 -0.120977 1211 0.713101 0.625830 0.383659
-21.508068 -18.817528 -0.112209 1189 0.666474 0.585597 0.509817
-21.512846 -18.821653 -0.103450 1145 0.597727 0.526236 0.635846
-21.519205 -18.827179 -0.094694 1089 0.506230 0.446731 0.761831
-21.525471 -18.832615 -0.085937 977 0.416076 0.368516 0.887831
-21.531895 -18.827213 -0.200160 1005 0.323646 0.446237 -0.755665
-21.523411 -18.819752 -0.191310 1087 0.445716 0.553598 -0.628327
-21.516817 -18.813938 -0.182477 1163 0.540589 0.637247 -0.501233
-21.513355 -18.810865 -0.173679 1195 0.590400 0.681459 -0.374643
-21.511864 -18.809517 -0.164897 1229 0.611861 0.700861 -0.248284
-21.510441 -18.808222 -0.156104 1261 0.632334 0.719496 -0.121766
-21.508614 -18.806587 -0.147327 1269 0.658625 0.743015 0.004522
-21.508331 -18.806288 -0.138547 1257 0.662687 0.747324 0.130853
-21.509974 -18.807684 -0.129779 1235 0.639058 0.727235 0.257011
-21.511511 -18.808989 -0.121019 1217 0.616938 0.708463 0.383054
-21.513588 -18.810755 -0.112247 1199 0.587052 0.683050 0.509270
-21.518534 -18.815033 -0.103488 1141 0.515890 0.621494 0.635299
-21.524746 -18.820414 -0.094734 1073 0.426505 0.544075 0.761256
-21.530342 -18.825275 -0.085971 957 0.345985 0.474120 0.887342
-21.540682 -18.823723 -0.200227 955 0.197212 0.496460 -0.756629
-21.531265 -18.815454 -0.191362 1061 0.332702 0.615429 -0.629075
-21.524813 -18.809767 -0.182540 1121 0.425545 0.697266 -0.502140
-21.520691 -18.806112 -0.173734 1181 0.484851 0.749849 -0.375435
-21.518604 -18.804253 -0.164936 1213 0.514874 0.776607 -0.248845
-21.516727 -18.802567 -0.156148 1249 0.541879 0.800867 -0.122399
-21.515242 -18.801226 -0.147367 1241 0.563258 0.820160 0.003947
-21.515230 -18.801165 -0.138597 1233 0.563423 0.821038 0.130134
-21.516331 -18.802086 -0.129819 1223 0.547587 0.807783 0.256436
-21.518637 -18.804060 -0.121057 1203 0.514408 0.779378 0.382508
-21.521162 -18.806211 -0.112293 1185 0.478072 0.748422 0.508608
-21.525661 -18.810106 -0.103536 1123 0.413332 0.692381 0.634608
-21.531418 -18.815096 -0.094774 1047 0.330506 0.620588 0.760680
-21.534271 -18.817539 -0.085996 907 0.289450 0.585433 0.886983
-21.545485 -18.816551 -0.200260 855 0.128108 0.599648 -0.757104
-21.542845 -18.814201 -0.191446 1021 0.166090 0.633459 -0.630284
-21.533319 -18.805843 -0.182590 1103 0.303145 0.753718 -0.502859
-21.528028 -18.801184 -0.173782 1155 0.379274 0.820764 -0.376125
-21.525660 -18.799072 -0.164985 1179 0.413359 0.851144 -0.249550
-21.523897 -18.797485 -0.156196 1213 0.438718 0.873977 -0.123089
-21.523123 -18.796757 -0.147420 1211 0.449860 0.884461 0.003184
-21.523212 -18.796795 -0.138639 1207 0.448570 0.883912 0.129529
-21.524426 -18.797813 -0.129873 1199 0.431116 0.869257 0.255659
-21.525856 -18.799015 -0.121105 1175 0.410533 0.851967 0.381817
-21.528822 -18.801556 -0.112338 1149 0.367858 0.815412 0.507961
-21.533545 -18.805639 -0.103580 1107 0.299907 0.756655 0.633975
-21.539709 -18.810976 -0.094825 995 0.211208 0.679867 0.759947
-21.548105 -18.806738 -0.191478 937 0.090400 0.740847 -0.630744
-21.544195 -18.803282 -0.182672 1047 0.146660 0.790575 -0.504039
-21.539682 -18.799299 -0.173858 1119 0.211592 0.847878 -0.377219
-21.534874 -18.795059 -0.165046 1165 0.280778 0.908886 -0.250428
-21.531799 -18.792324 -0.156253 1171 0.325018 0.948240 -0.123909
-21.533108 -18.793417 -0.147476 1195 0.306191 0.932515 0.002378
-21.533381 -18.793623 -0.138706 1189 0.302267 0.929551 0.128565
-21.534374 -18.794437 -0.129930 1189 0.287968 0.917833 0.254839
-21.536516 -18.796268 -0.121168 1149 0.257149 0.891487 0.380911
-21.538750 -18.798176 -0.112394 1117 0.225012 0.864043 0.507155
-21.543051 -18.801870 -0.103630 1037 0.163126 0.810884 0.633256
-21.548376 -18.806480 -0.094869 921 0.086503 0.744552 0.759313
-21.554132 -18.800344 -0.182746 947 0.003677 0.832839 -0.505104
-21.550503 -18.797134 -0.173927 1033 0.055903 0.879027 -0.378212
-21.547249 -18.794250 -0.165126 1101 0.102722 0.920522 -0.251579
-21.545586 -18.792763 -0.156335 1129 0.126653 0.941928 -0.125089
-21.543436 -18.790838 -0.147548 1137 0.157583 0.969619 0.001342
-21.543873 -18.791176 -0.138765 1145 0.151298 0.964762 0.127716
-21.545240 -18.792328 -0.129997 1125 0.131621 0.948186 0.253875
-21.546068 -18.792994 -0.121223 1089 0.119710 0.938608 0.380119
-21.550135 -18.796503 -0.112459 1029 0.061200 0.888111 0.506220
-21.555517 -18.801155 -0.103698 947 -0.016247 0.821175 0.632277
-21.561527 -18.794945 -0.174005 921 -0.102722 0.910533 -0.379334
-21.559322 -18.792967 -0.165208 1009 -0.070997 0.938992 -0.252758
-21.555464 -18.789557 -0.156400 1049 -0.015478 0.988061 -0.126025
-21.554413 -18.788601 -0.147617 1061 -0.000357 1.001811 0.000349
-21.555016 -18.789087 -0.138833 1073 -0.009029 0.994813 0.126738
-21.557106 -18.790852 -0.130062 1053 -0.039108 0.969427 0.252939
-21.560287 -18.793592 -0.121293 1001 -0.084884 0.929990 0.379112
-21.562975 -18.795889 -0.112527 929 -0.123552 0.896948 0.505242
-21.568922 -18.789688 -0.156484 871 -0.209122 0.986168 -0.127233
-21.570978 -18.791431 -0.147712 899 -0.238707 0.961084 -0.001018
-21.571129 -18.791519 -0.138931 899 -0.240875 0.959822 0.125328
