768
-9.511422 -8.209108 -0.130941 1069 0.846026 -0.138907 0.399079
-9.514180 -8.211471 -0.127117 1029 0.806342 -0.172896 0.454101
-9.517972 -8.214735 -0.123304 969 0.751784 -0.219867 0.508964
-9.522271 -8.218424 -0.119491 893 0.689925 -0.272943 0.563827
-9.526660 -8.217684 -0.208404 805 0.626777 -0.262295 -0.715496
-9.522345 -8.213931 -0.204449 923 0.688868 -0.208299 -0.658590
-9.518627 -8.210712 -0.200521 1005 0.742357 -0.161987 -0.602072
-9.514853 -8.207437 -0.196583 1053 0.796668 -0.114853 -0.545410
-9.511749 -8.204735 -0.192669 1097 0.841319 -0.075978 -0.489093
-9.509473 -8.202761 -0.188772 1121 0.874073 -0.047574 -0.433021
-9.508416 -8.201829 -0.184889 1147 0.889277 -0.034168 -0.377151
-9.507580 -8.201085 -0.181023 1181 0.901311 -0.023465 -0.321525
-9.506629 -8.200242 -0.177149 1187 0.914992 -0.011334 -0.265784
-9.505344 -8.199115 -0.173265 1195 0.933476 0.004885 -0.209899
-9.504829 -8.198658 -0.169409 1197 0.940885 0.011458 -0.154417
-9.505434 -8.199160 -0.165556 1215 0.932186 0.004240 -0.098978
-9.504983 -8.198751 -0.161699 1205 0.938676 0.010113 -0.043482
-9.504524 -8.198337 -0.157841 1215 0.945276 0.016082 0.012029
-9.504452 -8.198256 -0.153982 1207 0.946319 0.017248 0.067554
-9.505271 -8.198940 -0.150137 1191 0.934532 0.007396 0.122878
-9.506424 -8.199909 -0.146301 1179 0.917942 -0.006545 0.178072
-9.506899 -8.200298 -0.142448 1169 0.911109 -0.012144 0.233511
-9.507932 -8.201178 -0.138601 1155 0.896248 -0.024796 0.288863
-9.509799 -8.202762 -0.134771 1147 0.869380 -0.047588 0.343971
-9.511387 -8.204117 -0.130932 1121 0.846533 -0.067087 0.399209
-9.514194 -8.206513 -0.127106 1087 0.806150 -0.101570 0.454259
-9.517110 -8.209015 -0.123279 1037 0.764188 -0.137562 0.509324
-9.519977 -8.211467 -0.119453 973 0.722940 -0.172841 0.564374
-9.524874 -8.215674 -0.115637 887 0.652478 -0.233383 0.619281
-9.530179 -8.215763 -0.212305 761 0.576143 -0.234659 -0.771626
-9.524415 -8.210773 -0.208319 913 0.659078 -0.162866 -0.714273
-9.520920 -8.207729 -0.204388 1003 0.709369 -0.119065 -0.657712
-9.517373 -8.204665 -0.200458 1047 0.760401 -0.074977 -0.601165
-9.514212 -8.201921 -0.196546 1099 0.805889 -0.035499 -0.544878
-9.511601 -8.199645 -0.192640 1125 0.843446 -0.002744 -0.488676
-9.509824 -8.198091 -0.188751 1157 0.869024 0.019622 -0.432719
-9.508546 -8.196969 -0.184868 1185 0.887411 0.035759 -0.376849
-9.507154 -8.195750 -0.180986 1193 0.907431 0.053296 -0.320993
-9.506588 -8.195244 -0.177118 1209 0.915582 0.060582 -0.265338
-9.506138 -8.194836 -0.173262 1211 0.922059 0.066455 -0.209856
-9.505131 -8.193953 -0.169388 1223 0.936549 0.079162 -0.154115
-9.504729 -8.193579 -0.165529 1231 0.942326 0.084541 -0.098590
-9.504998 -8.193793 -0.161678 1235 0.938457 0.081453 -0.043180
-9.505146 -8.193904 -0.157827 1231 0.936330 0.079862 0.012230
-9.504532 -8.193348 -0.153961 1221 0.945167 0.087862 0.067856
-9.504844 -8.193604 -0.150110 1205 0.940680 0.084170 0.123266
-9.506269 -8.194812 -0.146282 1197 0.920165 0.066798 0.178345
-9.507030 -8.195454 -0.142437 1193 0.909229 0.057564 0.233669
-9.507847 -8.196136 -0.138592 1177 0.897469 0.047739 0.288993
-9.509879 -8.197869 -0.134762 1175 0.868228 0.022806 0.344101
-9.511359 -8.199118 -0.130922 1151 0.846931 0.004844 0.399353
-9.513711 -8.201137 -0.127088 1125 0.813093 -0.024205 0.454518
-9.516184 -8.203246 -0.123255 1083 0.777512 -0.054558 0.509669
-9.518772 -8.205453 -0.119430 1033 0.740271 -0.086311 0.564705
-9.523184 -8.209241 -0.115616 961 0.676793 -0.140814 0.619583
-9.528751 -8.214023 -0.111805 873 0.596685 -0.209616 0.674417
-9.534567 -8.214485 -0.216221 655 0.513008 -0.216271 -0.827971
-9.528532 -8.209259 -0.212234 883 0.599841 -0.141075 -0.770604
-9.524038 -8.205376 -0.208280 983 0.664498 -0.085199 -0.713712
-9.520214 -8.202065 -0.204342 1039 0.719523 -0.037571 -0.657050
-9.516831 -8.199132 -0.200422 1097 0.768195 0.004638 -0.600647
-9.514383 -8.197003 -0.196516 1143 0.803419 0.035265 -0.544446
-9.512115 -8.195023 -0.192617 1161 0.836064 0.063766 -0.488345
-9.510109 -8.193272 -0.188721 1183 0.864921 0.088959 -0.432288
-9.509266 -8.192535 -0.184854 1203 0.877051 0.099553 -0.376647
-9.507938 -8.191364 -0.180973 1211 0.896152 0.116403 -0.320805
-9.506374 -8.190006 -0.177091 1221 0.918656 0.135943 -0.264950
-9.505917 -8.189590 -0.173233 1229 0.925242 0.141926 -0.209439
-9.505308 -8.189043 -0.169367 1239 0.933997 0.149802 -0.153813
-9.504237 -8.188097 -0.165493 1227 0.949407 0.163414 -0.098072
-9.503793 -8.187695 -0.161636 1229 0.955801 0.169205 -0.042575
-9.504105 -8.187951 -0.157795 1235 0.951314 0.165514 0.012691
-9.504481 -8.188257 -0.153942 1233 0.945894 0.161109 0.068130
-9.505242 -8.188885 -0.150097 1229 0.934944 0.152080 0.123453
-9.506553 -8.189994 -0.146261 1233 0.916090 0.136122 0.178648
-9.507094 -8.190445 -0.142418 1217 0.908296 0.129631 0.233943
-9.508018 -8.191219 -0.138573 1211 0.895013 0.118489 0.289266
-9.509722 -8.192673 -0.134743 1193 0.870492 0.097577 0.344374
-9.511424 -8.194109 -0.130903 1171 0.845998 0.076911 0.399626
-9.512948 -8.195415 -0.127064 1139 0.824071 0.058126 0.454863
-9.515371 -8.197476 -0.123241 1111 0.789203 0.028459 0.509871
-9.517624 -8.199398 -0.119408 1079 0.756792 0.000810 0.565022
-9.521317 -8.202563 -0.115587 1027 0.703661 -0.044734 0.620000
-9.525835 -8.206427 -0.111772 953 0.638646 -0.100321 0.674892
-9.530853 -8.210740 -0.107954 845 0.566441 -0.162385 0.729827
-9.533579 -8.208810 -0.216165 849 0.527224 -0.134612 -0.827165
-9.527087 -8.203205 -0.212173 961 0.620629 -0.053968 -0.769726
-9.523042 -8.199693 -0.208225 1031 0.678838 -0.003430 -0.712921
-9.519218 -8.196383 -0.204298 1087 0.733849 0.044185 -0.656417
-9.516107 -8.193687 -0.200374 1131 0.778624 0.082977 -0.599957
-9.513937 -8.191803 -0.196478 1161 0.809841 0.110091 -0.543899
-9.512053 -8.190158 -0.192589 1189 0.836956 0.133761 -0.487942
-9.509991 -8.188364 -0.188690 1201 0.866622 0.159572 -0.431842
-9.508941 -8.187440 -0.184816 1229 0.881730 0.172869 -0.376101
-9.507819 -8.186459 -0.180942 1237 0.897867 0.186989 -0.320360
-9.506762 -8.185525 -0.177078 1249 0.913085 0.200423 -0.264762
-9.506689 -8.185447 -0.173218 1257 0.914128 0.201548 -0.209223
-9.506852 -8.185570 -0.169367 1255 0.911781 0.199778 -0.153813
-9.506679 -8.185393 -0.165518 1271 0.914279 0.202316 -0.098431
-9.506213 -8.184984 -0.161651 1263 0.920975 0.208203 -0.042791
-9.506482 -8.185185 -0.157810 1261 0.917105 0.205308 0.012475
-9.506417 -8.185114 -0.153950 1261 0.918038 0.206337 0.068014
-9.506065 -8.184789 -0.150093 1247 0.923102 0.211016 0.123511
-9.506498 -8.185150 -0.146250 1255 0.916872 0.205815 0.178806
-9.507253 -8.185784 -0.142406 1237 0.906018 0.196690 0.234115
-9.508121 -8.186502 -0.138561 1219 0.893531 0.186358 0.289439
-9.509546 -8.187709 -0.134724 1207 0.873017 0.168999 0.344648
-9.511584 -8.189448 -0.130892 1197 0.843693 0.143971 0.399784
-9.513330 -8.190929 -0.127062 1167 0.818568 0.122660 0.454892
-9.515531 -8.192815 -0.123228 1145 0.786912 0.095532 0.510058
-9.518447 -8.195301 -0.119402 1123 0.744950 0.059759 0.565108
-9.521411 -8.197838 -0.115576 1075 0.702302 0.023259 0.620158
-9.524277 -8.200276 -0.111750 1009 0.661068 -0.011828 0.675209
-9.529131 -8.204442 -0.107933 917 0.591223 -0.071766 0.730130
-9.537765 -8.207308 -0.220083 757 0.466999 -0.113000 -0.883539
-9.532451 -8.202717 -0.216114 921 0.543457 -0.046943 -0.826432
-9.527237 -8.198212 -0.212143 1009 0.618475 0.017880 -0.769295
-9.522742 -8.194327 -0.208189 1067 0.683146 0.073769 -0.712403
-9.519689 -8.191674 -0.204265 1123 0.727084 0.111944 -0.655942
-9.517248 -8.189553 -0.200369 1159 0.762198 0.142461 -0.599885
-9.515078 -8.187670 -0.196472 1173 0.793430 0.169562 -0.543813
-9.513137 -8.185983 -0.192573 1197 0.821354 0.193836 -0.487712
-9.511752 -8.184770 -0.188700 1231 0.841278 0.211290 -0.431986
-9.510631 -8.183789 -0.184828 1247 0.857415 0.225396 -0.376273
-9.509523 -8.182807 -0.180954 1253 0.873346 0.239530 -0.320532
-9.507953 -8.181441 -0.177072 1251 0.895946 0.259180 -0.264676
-9.507281 -8.180844 -0.173206 1273 0.905606 0.267770 -0.209050
-9.506988 -8.180576 -0.169348 1267 0.909833 0.271626 -0.153539
-9.506978 -8.180546 -0.165499 1273 0.909970 0.272065 -0.098158
-9.506976 -8.180522 -0.161648 1261 0.909997 0.272408 -0.042748
-9.507017 -8.180541 -0.157787 1261 0.909407 0.272133 0.012806
-9.507330 -8.180783 -0.153946 1265 0.904907 0.268648 0.068072
-9.507428 -8.180859 -0.150095 1255 0.903493 0.267564 0.123482
-9.507747 -8.181107 -0.146244 1261 0.898910 0.263996 0.178892
-9.507844 -8.181168 -0.142393 1249 0.897510 0.263118 0.234302
-9.508050 -8.181333 -0.138542 1239 0.894547 0.260744 0.289712
-9.509147 -8.182246 -0.134706 1221 0.878766 0.247599 0.344907
-9.511505 -8.184259 -0.130882 1205 0.844832 0.218632 0.399928
-9.513757 -8.186179 -0.127050 1199 0.812434 0.191009 0.455065
-9.516066 -8.188142 -0.123226 1179 0.779214 0.162770 0.510086
-9.518482 -8.190209 -0.119394 1141 0.744442 0.133020 0.565223
-9.520954 -8.192320 -0.115559 1101 0.708875 0.102654 0.620403
-9.524375 -8.195233 -0.111740 1045 0.659654 0.060733 0.675353
-9.529508 -8.199630 -0.107931 977 0.585803 -0.002525 0.730158
-9.534634 -8.204033 -0.104113 863 0.512048 -0.065879 0.785094
-9.538449 -8.202824 -0.220060 825 0.457146 -0.048480 -0.883209
-9.531795 -8.197088 -0.216057 945 0.552898 0.034044 -0.825611
-9.526637 -8.192623 -0.212097 1021 0.627106 0.098290 -0.768633
-9.522927 -8.189411 -0.208158 1083 0.680484 0.144506 -0.711957
-9.519980 -8.186862 -0.204244 1131 0.722885 0.181184 -0.655640
-9.518147 -8.185266 -0.200355 1165 0.749259 0.204155 -0.599683
-9.516926 -8.184201 -0.196472 1195 0.766836 0.219469 -0.543813
-9.514863 -8.182408 -0.192583 1221 0.796517 0.245266 -0.487856
-9.512808 -8.180623 -0.188684 1245 0.826088 0.270953 -0.431755
-9.511636 -8.179592 -0.184812 1257 0.842952 0.285787 -0.376043
-9.510401 -8.178513 -0.180939 1263 0.860722 0.301320 -0.320316
-9.509344 -8.177580 -0.177065 1269 0.875926 0.314740 -0.264575
-9.508557 -8.176887 -0.173199 1271 0.887246 0.324716 -0.208949
-9.508335 -8.176674 -0.169351 1281 0.890444 0.327776 -0.153583
-9.507991 -8.176357 -0.165493 1273 0.895397 0.332331 -0.098072
-9.507583 -8.175990 -0.161634 1273 0.901270 0.337614 -0.042547
-9.507017 -8.175485 -0.157768 1275 0.909407 0.344887 0.013079
-9.507116 -8.175545 -0.153917 1277 0.907980 0.344023 0.068489
-9.508433 -8.176662 -0.150091 1267 0.889030 0.327940 0.123540
-9.509194 -8.177288 -0.146246 1273 0.878080 0.318939 0.178863
-9.509892 -8.177881 -0.142403 1265 0.868036 0.310404 0.234158
-9.510603 -8.178473 -0.138557 1259 0.857813 0.301883 0.289497
-9.511029 -8.178813 -0.134716 1235 0.851679 0.296998 0.344763
-9.512896 -8.180398 -0.130886 1229 0.824825 0.274192 0.399871
-9.514378 -8.181647 -0.127046 1207 0.803501 0.256216 0.455122
-9.516737 -8.183659 -0.123224 1191 0.769553 0.227276 0.510115
-9.519595 -8.186105 -0.119398 1167 0.728429 0.192080 0.565166
-9.521861 -8.188025 -0.115564 1133 0.695826 0.164444 0.620331
-9.524483 -8.190269 -0.111730 1079 0.658104 0.132156 0.675497
-9.528239 -8.193482 -0.107908 1017 0.604053 0.085927 0.730489
-9.533429 -8.197920 -0.104099 925 0.529378 0.022079 0.785295
-9.537573 -8.197005 -0.220005 903 0.469757 0.035238 -0.882417
-9.531409 -8.191681 -0.216020 993 0.558442 0.111847 -0.825079
-9.527023 -8.187902 -0.212065 1065 0.621549 0.166214 -0.768172
-9.523755 -8.185068 -0.208143 1119 0.668574 0.206995 -0.711741
-9.521144 -8.182807 -0.204239 1155 0.706144 0.239530 -0.655568
-9.518867 -8.180832 -0.200331 1185 0.738912 0.267948 -0.599338
-9.517318 -8.179473 -0.196451 1211 0.761197 0.287502 -0.543511
-9.515868 -8.178212 -0.192568 1237 0.782054 0.305642 -0.487640
-9.513471 -8.176132 -0.188673 1243 0.816551 0.335570 -0.431597
-9.512364 -8.175165 -0.184799 1269 0.832469 0.349484 -0.375856
-9.511849 -8.174695 -0.180941 1279 0.839878 0.356249 -0.320345
-9.511069 -8.174006 -0.177076 1289 0.851103 0.366156 -0.264734
-9.509833 -8.172927 -0.173202 1279 0.868887 0.381689 -0.208993
-9.509883 -8.172954 -0.169353 1295 0.868173 0.381305 -0.153611
-9.509760 -8.172824 -0.165493 1301 0.869943 0.383171 -0.098072
-9.509244 -8.172368 -0.161636 1299 0.877367 0.389730 -0.042575
-9.509015 -8.172149 -0.157778 1285 0.880660 0.392886 0.012935
-9.508607 -8.171783 -0.153919 1283 0.886533 0.398142 0.068461
-9.508548 -8.171703 -0.150070 1271 0.887384 0.399295 0.123842
-9.510300 -8.173190 -0.146240 1279 0.862176 0.377902 0.178950
-9.511290 -8.174028 -0.142404 1273 0.847933 0.365840 0.234144
-9.511765 -8.174417 -0.138563 1261 0.841100 0.360256 0.289410
-9.513191 -8.175625 -0.134724 1253 0.820572 0.342870 0.344648
-9.514508 -8.176727 -0.130886 1231 0.801622 0.327007 0.399871
-9.516311 -8.178263 -0.127056 1225 0.775687 0.304915 0.454979
-9.517906 -8.179610 -0.123218 1209 0.752730 0.285526 0.510202
-9.520158 -8.181532 -0.119394 1179 0.720333 0.257876 0.565223
-9.522524 -8.183536 -0.115562 1141 0.686289 0.229047 0.620360
-9.525274 -8.185889 -0.111736 1105 0.646715 0.195181 0.675410
-9.529351 -8.189376 -0.107914 1045 0.588053 0.145013 0.730403
-9.533372 -8.192807 -0.104092 951 0.530202 0.095642 0.785396
-9.539175 -8.197778 -0.100279 835 0.446704 0.024123 0.840259
-9.538400 -8.192549 -0.219992 921 0.457860 0.099361 -0.882230
-9.533576 -8.188386 -0.216030 1015 0.527265 0.159257 -0.825223
-9.528976 -8.184411 -0.212076 1077 0.593446 0.216450 -0.768331
-9.525466 -8.181380 -0.208145 1135 0.643957 0.260058 -0.711770
-9.522306 -8.178652 -0.204224 1175 0.689417 0.299317 -0.655352
-9.520200 -8.176817 -0.200325 1205 0.719729 0.325718 -0.599252
-9.518864 -8.175653 -0.196443 1225 0.738954 0.342458 -0.543396
-9.516851 -8.173909 -0.192554 1241 0.767907 0.367556 -0.487439
-9.514690 -8.172034 -0.188667 1249 0.799001 0.394533 -0.431511
-9.513518 -8.171002 -0.184793 1269 0.815865 0.409380 -0.375770
-9.512953 -8.170497 -0.180927 1279 0.824002 0.416653 -0.320144
-9.512011 -8.169662 -0.177061 1285 0.837559 0.428659 -0.264518
-9.511110 -8.168870 -0.173197 1297 0.850513 0.440062 -0.208921
-9.511209 -8.168945 -0.169346 1307 0.849099 0.438978 -0.153511
-9.510928 -8.168676 -0.165487 1311 0.853134 0.442848 -0.097986
-9.510078 -8.167933 -0.161623 1307 0.865360 0.453537 -0.042388
-9.509892 -8.167755 -0.157774 1305 0.868036 0.456103 0.012993
-9.509769 -8.167628 -0.153925 1293 0.869806 0.457928 0.068374
-9.510430 -8.168170 -0.150082 1291 0.860297 0.450134 0.123669
-9.511405 -8.168993 -0.146246 1281 0.846273 0.438292 0.178863
-9.511667 -8.169201 -0.142395 1279 0.842499 0.435301 0.234273
-9.512763 -8.170115 -0.138557 1279 0.826733 0.422142 0.289497
-9.514345 -8.171462 -0.134729 1259 0.803968 0.402766 0.344576
-9.515719 -8.172621 -0.130892 1247 0.784195 0.386094 0.399784
-9.517586 -8.174205 -0.127060 1239 0.757341 0.363302 0.454921
-9.519224 -8.175595 -0.123222 1219 0.733767 0.343295 0.510144
-9.521370 -8.177411 -0.119390 1185 0.702892 0.317169 0.565281
-9.524292 -8.179905 -0.115574 1171 0.660848 0.281286 0.620187
-9.526658 -8.181909 -0.111740 1131 0.626804 0.252456 0.675353
-9.529572 -8.184396 -0.107902 1073 0.584884 0.216669 0.730576
-9.534269 -8.188408 -0.104097 1007 0.517289 0.158941 0.785324
-9.540009 -8.193329 -0.100284 901 0.434711 0.088136 0.840187
-9.539013 -8.187912 -0.219959 961 0.449037 0.166077 -0.881755
-9.534403 -8.183930 -0.216005 1039 0.515368 0.223366 -0.824863
-9.529967 -8.180102 -0.212061 1095 0.579189 0.278445 -0.768115
-9.526635 -8.177233 -0.208130 1147 0.627133 0.319735 -0.711554
-9.524302 -8.175202 -0.204233 1177 0.660711 0.348949 -0.655482
-9.522188 -8.173375 -0.200334 1217 0.691119 0.375240 -0.599381
-9.520133 -8.171589 -0.196436 1229 0.720690 0.400941 -0.543295
-9.518519 -8.170180 -0.192556 1249 0.743907 0.421208 -0.487467
-9.516671 -8.168583 -0.188667 1265 0.770500 0.444193 -0.431511
-9.515351 -8.167421 -0.184793 1273 0.789491 0.460906 -0.375770
-9.514722 -8.166866 -0.180927 1281 0.798548 0.468892 -0.320144
-9.513935 -8.166172 -0.177072 1295 0.809868 0.478882 -0.264676
-9.513206 -8.165533 -0.173206 1307 0.820366 0.488075 -0.209050
-9.512535 -8.164936 -0.169340 1303 0.830012 0.496665 -0.153424
-9.512019 -8.164465 -0.165483 1307 0.837436 0.503444 -0.097928
-9.512060 -8.164484 -0.161632 1305 0.836846 0.503170 -0.042518
-9.512386 -8.164741 -0.157791 1311 0.832153 0.499478 0.012748
-9.512984 -8.165235 -0.153948 1307 0.823549 0.492370 0.068043
-9.513852 -8.165966 -0.150112 1295 0.811062 0.481846 0.123238
-9.513844 -8.165936 -0.146263 1291 0.811186 0.482271 0.178619
-9.514327 -8.166333 -0.142410 1293 0.804229 0.476563 0.234058
-9.515587 -8.167393 -0.138584 1287 0.786102 0.461318 0.289108
-9.516177 -8.167880 -0.134729 1265 0.777608 0.454306 0.344576
-9.517601 -8.169087 -0.130901 1249 0.757121 0.436934 0.399655
-9.519860 -8.171001 -0.127069 1241 0.724614 0.409394 0.454792
-9.521505 -8.172398 -0.123239 1225 0.700944 0.389305 0.509899
-9.523537 -8.174116 -0.119409 1203 0.671716 0.364578 0.565007
-9.525846 -8.176078 -0.115576 1181 0.638495 0.336352 0.620158
-9.528769 -8.178572 -0.111750 1147 0.596438 0.300469 0.675209
-9.532788 -8.182003 -0.107937 1089 0.538600 0.251098 0.730072
-9.537150 -8.185728 -0.104113 1019 0.475835 0.197500 0.785094
-9.541399 -8.189355 -0.100288 921 0.414704 0.145315 0.840130
-9.548977 -8.195842 -0.096495 757 0.305670 0.051979 0.894705
-9.540517 -8.184134 -0.219963 969 0.427397 0.220443 -0.881813
-9.535573 -8.179881 -0.215999 1051 0.498532 0.281629 -0.824777
-9.531350 -8.176234 -0.212053 1109 0.559292 0.334102 -0.768000
-9.527919 -8.173266 -0.208124 1147 0.608664 0.376804 -0.711467
-9.525628 -8.171292 -0.204225 1191 0.641624 0.405209 -0.655367
-9.523572 -8.169507 -0.200329 1207 0.671208 0.430896 -0.599309
-9.522079 -8.168204 -0.196447 1233 0.692683 0.449640 -0.543453
-9.520288 -8.166649 -0.192556 1251 0.718453 0.472021 -0.487467
-9.519289 -8.165773 -0.188692 1271 0.732834 0.484618 -0.431870
-9.517782 -8.164455 -0.184811 1277 0.754514 0.503581 -0.376029
-9.516440 -8.163285 -0.180939 1287 0.773821 0.520418 -0.320316
-9.516602 -8.163408 -0.177088 1303 0.771502 0.518648 -0.264906
-9.515710 -8.162623 -0.173223 1313 0.784332 0.529941 -0.209295
-9.514582 -8.161634 -0.169350 1317 0.800565 0.544171 -0.153568
-9.514629 -8.161660 -0.165499 1321 0.799879 0.543800 -0.098158
-9.514450 -8.161491 -0.161650 1317 0.802459 0.546229 -0.042777
-9.514883 -8.161838 -0.157808 1317 0.796229 0.541248 0.012504
-9.514981 -8.161900 -0.153957 1297 0.794816 0.540356 0.067914
-9.514852 -8.161777 -0.150108 1295 0.796682 0.542126 0.123295
-9.515776 -8.162552 -0.146263 1299 0.783385 0.530970 0.178619
-9.516488 -8.163130 -0.142429 1285 0.773135 0.522655 0.233784
-9.517470 -8.163959 -0.138584 1275 0.759001 0.510730 0.289108
-9.518067 -8.164454 -0.134741 1265 0.750411 0.503595 0.344403
-9.518829 -8.165081 -0.130905 1265 0.739448 0.494580 0.399597
-9.520352 -8.166371 -0.127067 1241 0.717534 0.476014 0.454820
-9.522440 -8.168146 -0.123236 1233 0.687496 0.450477 0.509943
-9.524706 -8.170067 -0.119413 1209 0.654893 0.422841 0.564950
-9.527066 -8.172078 -0.115579 1173 0.620931 0.393902 0.620115
-9.530259 -8.174795 -0.111761 1143 0.574990 0.354808 0.675051
-9.533565 -8.177611 -0.107933 1101 0.527430 0.314287 0.730130
-9.537428 -8.180903 -0.104111 1033 0.471842 0.266919 0.785122
-9.542797 -8.185488 -0.100302 951 0.394588 0.200958 0.839928
-9.548593 -8.190435 -0.096489 799 0.311200 0.129768 0.894792
-9.541409 -8.179940 -0.219948 987 0.414567 0.280778 -0.881597
-9.537578 -8.176636 -0.215999 1061 0.469688 0.328325 -0.824777
-9.534083 -8.173619 -0.212068 1121 0.519965 0.371727 -0.768216
-9.530859 -8.170841 -0.208147 1155 0.566359 0.411699 -0.711798
-9.528189 -8.168538 -0.204243 1187 0.604780 0.444838 -0.655626
-9.525748 -8.166418 -0.200336 1209 0.639895 0.475341 -0.599410
-9.524300 -8.165156 -0.196453 1245 0.660739 0.493496 -0.543539
-9.522351 -8.163476 -0.192566 1259 0.688772 0.517674 -0.487611
-9.520624 -8.161968 -0.188684 1273 0.713623 0.539368 -0.431755
-9.519616 -8.161086 -0.184811 1281 0.728127 0.552061 -0.376029
-9.518994 -8.160539 -0.180954 1305 0.737074 0.559937 -0.320532
-9.518272 -8.159893 -0.177088 1323 0.747461 0.569227 -0.264906
-9.516595 -8.158436 -0.173208 1315 0.771598 0.590194 -0.209079
-9.516145 -8.158028 -0.169350 1331 0.778075 0.596067 -0.153568
-9.516792 -8.158570 -0.165516 1335 0.768758 0.588259 -0.098403
-9.516562 -8.158351 -0.161657 1325 0.772065 0.591415 -0.042878
-9.516218 -8.158035 -0.157810 1319 0.777018 0.595957 0.012475
-9.516095 -8.157907 -0.153952 1313 0.778788 0.597810 0.067986
-9.516357 -8.158113 -0.150110 1303 0.775015 0.594846 0.123266
-9.517226 -8.158847 -0.146274 1297 0.762514 0.584280 0.178461
-9.518093 -8.159563 -0.142429 1283 0.750041 0.573975 0.233784
-9.519182 -8.160485 -0.138594 1285 0.734370 0.560706 0.288964
-9.520116 -8.161266 -0.134758 1271 0.720937 0.549467 0.344159
-9.521433 -8.162368 -0.130920 1271 0.701987 0.533619 0.399382
-9.522914 -8.163616 -0.127083 1253 0.680676 0.515657 0.454590
-9.524723 -8.165147 -0.123253 1239 0.654646 0.493633 0.509698
-9.526369 -8.166543 -0.119413 1219 0.630962 0.473544 0.564950
-9.529185 -8.168932 -0.115597 1177 0.590441 0.439170 0.619856
-9.532092 -8.171412 -0.111771 1143 0.548617 0.403480 0.674907
-9.535691 -8.174472 -0.107941 1113 0.496830 0.359460 0.730015
-9.540160 -8.178288 -0.104126 1055 0.432529 0.304545 0.784907
-9.544745 -8.182202 -0.100309 951 0.366554 0.248230 0.839828
-9.551325 -8.187821 -0.096502 823 0.271886 0.167380 0.894605
-9.543536 -8.176900 -0.219955 1005 0.383953 0.324524 -0.881698
-9.538756 -8.172791 -0.215992 1065 0.452728 0.383652 -0.824676
-9.535426 -8.169923 -0.212070 1135 0.500645 0.424913 -0.768245
-9.532594 -8.167472 -0.208156 1163 0.541399 0.460179 -0.711928
-9.530202 -8.165400 -0.204250 1191 0.575813 0.489996 -0.655726
-9.527811 -8.163328 -0.200354 1217 0.610214 0.519801 -0.599669
-9.525970 -8.161738 -0.196464 1253 0.636698 0.542675 -0.543698
-9.524249 -8.160239 -0.192573 1269 0.661466 0.564246 -0.487712
-9.522139 -8.158412 -0.188686 1263 0.691832 0.590537 -0.431784
-9.521016 -8.157431 -0.184812 1277 0.707983 0.604657 -0.376043
-9.520844 -8.157268 -0.180963 1303 0.710453 0.607003 -0.320662
-9.519994 -8.156525 -0.177097 1319 0.722693 0.617693 -0.265036
-9.519428 -8.156017 -0.173231 1325 0.730830 0.624993 -0.209410
-9.518986 -8.155617 -0.169374 1333 0.737197 0.630756 -0.153914
-9.517686 -8.154489 -0.165510 1309 0.755900 0.646989 -0.098316
-9.517455 -8.154269 -0.161651 1325 0.759221 0.650145 -0.042791
-9.517447 -8.154240 -0.157802 1311 0.759331 0.650571 0.012590
-9.518150 -8.154824 -0.153969 1319 0.749218 0.642159 0.067741
-9.519255 -8.155745 -0.150133 1319 0.733328 0.628917 0.122935
-9.519674 -8.156093 -0.146290 1303 0.727290 0.623909 0.178230
-9.520335 -8.156635 -0.142446 1293 0.717781 0.616101 0.233540
-9.521367 -8.157500 -0.138611 1285 0.702933 0.603655 0.288720
-9.522742 -8.158659 -0.134773 1287 0.683146 0.586983 0.343943
-9.524002 -8.159719 -0.130936 1269 0.665020 0.571724 0.399151
-9.524315 -8.159963 -0.127094 1255 0.660519 0.568225 0.454432
-9.525782 -8.161212 -0.123257 1231 0.639415 0.550250 0.509640
-9.528211 -8.163264 -0.119423 1217 0.604465 0.520720 0.564806
-9.531363 -8.165940 -0.115604 1185 0.559114 0.482216 0.619756
-9.534391 -8.168526 -0.111778 1147 0.515533 0.445016 0.674806
-9.537306 -8.171000 -0.107952 1103 0.473599 0.409421 0.729856
-9.541283 -8.174389 -0.104128 1055 0.416378 0.360654 0.784878
-9.545924 -8.178344 -0.100313 963 0.349594 0.303749 0.839770
-9.553009 -8.184389 -0.096514 847 0.247653 0.216765 0.894432
-9.546663 -8.174925 -0.219986 995 0.338959 0.352942 -0.882144
-9.541677 -8.170629 -0.216024 1061 0.410697 0.414759 -0.825136
-9.537784 -8.167276 -0.212086 1111 0.466724 0.462992 -0.768475
-9.535172 -8.165015 -0.208170 1157 0.504295 0.495526 -0.712129
-9.532887 -8.163048 -0.204273 1191 0.537172 0.523835 -0.656057
-9.530383 -8.160878 -0.200367 1215 0.573206 0.555052 -0.599856
-9.528214 -8.159009 -0.196480 1225 0.604410 0.581947 -0.543928
-9.525708 -8.156837 -0.192573 1253 0.640471 0.613192 -0.487712
-9.524046 -8.155396 -0.188694 1267 0.664389 0.633926 -0.431899
-9.524251 -8.155560 -0.184841 1293 0.661438 0.631579 -0.376460
-9.524021 -8.155341 -0.180994 1305 0.664745 0.634722 -0.321108
-9.522302 -8.153843 -0.177112 1303 0.689486 0.656279 -0.265252
-9.520844 -8.152575 -0.173231 1309 0.710453 0.674529 -0.209410
-9.520780 -8.152502 -0.169382 1327 0.711386 0.675572 -0.154029
-9.520428 -8.152179 -0.165533 1319 0.716450 0.680224 -0.098647
-9.520476 -8.152204 -0.161684 1331 0.715750 0.679867 -0.043266
-9.520744 -8.152419 -0.157831 1329 0.711894 0.676766 0.012173
-9.521285 -8.152857 -0.153990 1317 0.704114 0.670467 0.067439
-9.521598 -8.153112 -0.150146 1303 0.699613 0.666790 0.122748
-9.521476 -8.152986 -0.146297 1303 0.701369 0.668615 0.178130
-9.521958 -8.153381 -0.142456 1277 0.694426 0.662920 0.233396
-9.523497 -8.154673 -0.138616 1279 0.672292 0.644341 0.288648
-9.524921 -8.155880 -0.134788 1277 0.651792 0.626969 0.343727
-9.525904 -8.156695 -0.130943 1275 0.637658 0.615237 0.399051
-9.527164 -8.157756 -0.127106 1257 0.619518 0.599978 0.454259
-9.529202 -8.159482 -0.123285 1241 0.590194 0.575141 0.509238
-9.531010 -8.161010 -0.119444 1205 0.564191 0.553159 0.564504
-9.533156 -8.162826 -0.115612 1183 0.533303 0.527032 0.619640
-9.535743 -8.165018 -0.111788 1149 0.496089 0.495485 0.674662
-9.538836 -8.167653 -0.107962 1105 0.451589 0.457572 0.729712
-9.542862 -8.171078 -0.104137 1057 0.393655 0.408296 0.784748
-9.547618 -8.175131 -0.100321 981 0.325224 0.349978 0.839655
-9.553420 -8.180086 -0.096508 845 0.241739 0.278679 0.894518
-9.549134 -8.172277 -0.219999 1013 0.303406 0.391034 -0.882331
-9.543906 -8.167785 -0.216030 1057 0.378629 0.455678 -0.825223
-9.540069 -8.164489 -0.212101 1113 0.433846 0.503101 -0.768690
-9.537292 -8.162094 -0.208187 1161 0.473805 0.537557 -0.712374
-9.534288 -8.159506 -0.204273 1189 0.517015 0.574798 -0.656057
-9.531835 -8.157384 -0.200367 1207 0.552321 0.605329 -0.599856
-9.530228 -8.155984 -0.196487 1229 0.575443 0.625473 -0.544029
-9.528835 -8.154778 -0.192604 1265 0.595477 0.642831 -0.488158
-9.527216 -8.153362 -0.188724 1277 0.618777 0.663195 -0.432331
-9.526821 -8.153011 -0.184866 1293 0.624458 0.668244 -0.376820
-9.526371 -8.152603 -0.181009 1303 0.630934 0.674117 -0.321323
-9.524586 -8.151056 -0.177130 1303 0.656622 0.696374 -0.265511
-9.523679 -8.150270 -0.173263 1321 0.669671 0.707681 -0.209870
-9.523458 -8.150058 -0.169405 1313 0.672855 0.710741 -0.154360
-9.523106 -8.149734 -0.165548 1321 0.677918 0.715407 -0.098863
-9.522540 -8.149227 -0.161690 1309 0.686055 0.722693 -0.043352
-9.523252 -8.149820 -0.157856 1313 0.675819 0.714158 0.011813
-9.523907 -8.150356 -0.154013 1313 0.666392 0.706446 0.067108
-9.524061 -8.150473 -0.150162 1309 0.664169 0.704772 0.122518
-9.524373 -8.150715 -0.146320 1297 0.659682 0.701287 0.177799
-9.524806 -8.151076 -0.142479 1283 0.653452 0.696086 0.233065
-9.526167 -8.152221 -0.138641 1291 0.633871 0.679620 0.288288
-9.527214 -8.153100 -0.134804 1271 0.618804 0.666968 0.343497
-9.528253 -8.153957 -0.130958 1253 0.603861 0.654632 0.398835
-9.530069 -8.155494 -0.127128 1255 0.577721 0.632526 0.453943
-9.531815 -8.156974 -0.123299 1229 0.552610 0.611230 0.509036
-9.533694 -8.158559 -0.119469 1211 0.525564 0.588424 0.564144
-9.535891 -8.160422 -0.115637 1181 0.493962 0.561611 0.619281
-9.538371 -8.162525 -0.111803 1139 0.458271 0.531354 0.674446
-9.541285 -8.164999 -0.107975 1095 0.416351 0.495760 0.729525
-9.545261 -8.168388 -0.104153 1041 0.359130 0.446992 0.784518
-9.550409 -8.172770 -0.100344 951 0.285059 0.383953 0.839324
-9.556775 -8.178194 -0.096538 817 0.193466 0.305903 0.894087
-9.551982 -8.169859 -0.220034 1027 0.262432 0.425833 -0.882834
-9.547531 -8.166033 -0.216078 1075 0.326472 0.480885 -0.825913
-9.543644 -8.162686 -0.212141 1125 0.382403 0.529035 -0.769266
-9.540525 -8.159999 -0.208218 1173 0.427274 0.567704 -0.712820
-9.538641 -8.158368 -0.204319 1203 0.454388 0.591168 -0.656719
-9.536293 -8.156352 -0.200422 1219 0.488171 0.620176 -0.600647
-9.533510 -8.153951 -0.196518 1227 0.528212 0.654728 -0.544475
-9.531505 -8.152213 -0.192629 1257 0.557069 0.679730 -0.488518
-9.529721 -8.150665 -0.188740 1275 0.582729 0.702000 -0.432561
-9.528428 -8.149545 -0.184866 1279 0.601336 0.718124 -0.376820
-9.528042 -8.149186 -0.181009 1293 0.606894 0.723283 -0.321323
-9.527704 -8.148876 -0.177151 1309 0.611751 0.727743 -0.265813
-9.526577 -8.147902 -0.173286 1317 0.627971 0.741767 -0.210201
-9.525855 -8.147255 -0.169422 1307 0.638358 0.751070 -0.154604
-9.525332 -8.146792 -0.165563 1315 0.645878 0.757725 -0.099079
-9.524817 -8.146335 -0.161707 1305 0.653287 0.764312 -0.043597
-9.525528 -8.146927 -0.157863 1315 0.643065 0.755790 0.011712
-9.525912 -8.147225 -0.154020 1317 0.637535 0.751495 0.067007
-9.525333 -8.146720 -0.150164 1311 0.645864 0.758768 0.122489
-9.525988 -8.147256 -0.146320 1299 0.636451 0.751056 0.177799
-9.527476 -8.148512 -0.142492 1285 0.615031 0.732984 0.232878
-9.528571 -8.149426 -0.138656 1277 0.599278 0.719825 0.288072
-9.529057 -8.149822 -0.134813 1275 0.592294 0.714131 0.343367
-9.529817 -8.150449 -0.130970 1251 0.581357 0.705115 0.398662
-9.532182 -8.152452 -0.127146 1247 0.547327 0.676285 0.453684
-9.534270 -8.154228 -0.123314 1235 0.517276 0.650735 0.508820
-9.536856 -8.156422 -0.119490 1211 0.480076 0.619175 0.563842
-9.539393 -8.158565 -0.115665 1177 0.443561 0.588342 0.618878
-9.541046 -8.159954 -0.111826 1149 0.419781 0.568349 0.674115
-9.544083 -8.162532 -0.108000 1099 0.376091 0.531258 0.729166
-9.548337 -8.166151 -0.104175 1027 0.314877 0.479184 0.784202
-9.552309 -8.169534 -0.100353 943 0.257725 0.430512 0.839194
-9.558624 -8.174910 -0.096548 821 0.166859 0.353161 0.893943
-9.551147 -8.164172 -0.216118 1073 0.274439 0.507657 -0.826489
-9.546803 -8.160450 -0.212173 1129 0.336942 0.561213 -0.769726
-9.543579 -8.157671 -0.208240 1169 0.383336 0.601199 -0.713137
-9.540739 -8.155229 -0.204336 1185 0.424200 0.636341 -0.656964
-9.537506 -8.152444 -0.200415 1201 0.470717 0.676409 -0.600547
-9.535395 -8.150616 -0.196527 1229 0.501098 0.702714 -0.544604
-9.533944 -8.149354 -0.192646 1245 0.521969 0.720868 -0.488762
-9.532547 -8.148142 -0.188763 1255 0.542071 0.738309 -0.432892
-9.531547 -8.147266 -0.184898 1265 0.556466 0.750905 -0.377280
-9.530874 -8.146669 -0.181032 1285 0.566140 0.759495 -0.321655
-9.529189 -8.145218 -0.177153 1283 0.590386 0.780380 -0.265842
-9.528290 -8.144426 -0.173288 1297 0.603326 0.791769 -0.210230
-9.528289 -8.144403 -0.169437 1305 0.603340 0.792099 -0.154820
-9.528885 -8.144897 -0.165594 1313 0.594763 0.784991 -0.099525
-9.528984 -8.144958 -0.161743 1311 0.593336 0.784126 -0.044115
-9.529139 -8.145075 -0.157904 1309 0.591113 0.782438 0.011122
-9.529181 -8.145094 -0.154053 1309 0.590510 0.782164 0.066533
-9.528893 -8.144818 -0.150194 1309 0.594640 0.786130 0.122058
-9.529533 -8.145355 -0.146351 1297 0.585433 0.778404 0.177353
-9.530130 -8.145848 -0.142507 1289 0.576843 0.771310 0.232662
-9.530954 -8.146524 -0.138674 1279 0.564987 0.761581 0.287813
-9.532044 -8.147446 -0.134836 1261 0.549303 0.748326 0.343036
-9.533976 -8.149064 -0.131006 1251 0.521516 0.725039 0.398144
-9.535955 -8.150748 -0.127174 1251 0.493029 0.700807 0.453281
-9.537216 -8.151809 -0.123339 1221 0.474889 0.685548 0.508461
-9.538918 -8.153234 -0.119499 1193 0.450409 0.665047 0.563712
-9.541286 -8.155236 -0.115675 1171 0.416323 0.636231 0.618734
-9.543544 -8.157151 -0.111843 1121 0.383844 0.608678 0.673871
-9.546850 -8.159952 -0.108013 1085 0.336270 0.568376 0.728979
-9.550884 -8.163384 -0.104200 1023 0.278226 0.518991 0.783842
-9.555475 -8.167291 -0.100376 933 0.212169 0.462786 0.838863
-9.562462 -8.173238 -0.096577 797 0.111642 0.377216 0.893525
-9.555124 -8.162331 -0.216158 1075 0.217218 0.534154 -0.827065
-9.550282 -8.158175 -0.212206 1113 0.286898 0.593940 -0.770201
-9.546836 -8.155208 -0.208275 1145 0.336476 0.636643 -0.713640
-9.544153 -8.152905 -0.204370 1167 0.375075 0.669768 -0.657453
-9.541605 -8.150706 -0.200464 1197 0.411740 0.701410 -0.601252
-9.539378 -8.148780 -0.196566 1225 0.443781 0.729129 -0.545165
-9.536760 -8.146526 -0.192661 1239 0.481448 0.761554 -0.488978
-9.535133 -8.145118 -0.188780 1245 0.504857 0.781821 -0.433136
-9.534961 -8.144956 -0.184931 1267 0.507341 0.784154 -0.377755
-9.534395 -8.144450 -0.181064 1287 0.515478 0.791426 -0.322115
-9.533281 -8.143476 -0.177191 1287 0.531505 0.805450 -0.266388
-9.532716 -8.142969 -0.173334 1307 0.539642 0.812736 -0.210892
-9.532586 -8.142849 -0.169485 1297 0.541509 0.814465 -0.155511
-9.532300 -8.142573 -0.165626 1307 0.545625 0.818431 -0.099986
-9.531284 -8.141698 -0.161762 1293 0.560239 0.831028 -0.044388
-9.531726 -8.142052 -0.157921 1303 0.553886 0.825937 0.010878
-9.531768 -8.142071 -0.154070 1291 0.553282 0.825662 0.066288
-9.531587 -8.141885 -0.150211 1289 0.555889 0.828338 0.121813
-9.532290 -8.142471 -0.146377 1287 0.545762 0.819899 0.176979
-9.533501 -8.143482 -0.142540 1277 0.528349 0.805354 0.232187
-9.534698 -8.144494 -0.138704 1289 0.511128 0.790795 0.287381
-9.535466 -8.145128 -0.134859 1259 0.500068 0.781670 0.342705
-9.536335 -8.145845 -0.131025 1243 0.487568 0.771351 0.397871
-9.537088 -8.146480 -0.127180 1217 0.476727 0.762226 0.453194
-9.539353 -8.148387 -0.123348 1211 0.444138 0.734782 0.508331
-9.542111 -8.150721 -0.119522 1197 0.404454 0.701204 0.563381
-9.544649 -8.152878 -0.115698 1161 0.367940 0.670165 0.618403
-9.546738 -8.154638 -0.111866 1123 0.337889 0.644835 0.673540
-9.549723 -8.157167 -0.108040 1073 0.294939 0.608444 0.728590
-9.554034 -8.160829 -0.104216 1003 0.232902 0.555766 0.783612
-9.559175 -8.165203 -0.100407 921 0.158941 0.492823 0.838417
-9.567052 -8.171913 -0.096613 769 0.045598 0.396276 0.893007
-9.557933 -8.159482 -0.216184 1037 0.176807 0.575141 -0.827439
-9.553981 -8.156089 -0.212246 1095 0.233671 0.623964 -0.770777
-9.550364 -8.152982 -0.208317 1131 0.285718 0.668670 -0.714244
-9.547647 -8.150643 -0.204401 1165 0.324798 0.702316 -0.657899
-9.545469 -8.148767 -0.200504 1191 0.356139 0.729307 -0.601827
-9.542857 -8.146505 -0.196598 1205 0.393723 0.761855 -0.545626
-9.540238 -8.144252 -0.192694 1215 0.431404 0.794280 -0.489453
-9.538662 -8.142892 -0.188812 1237 0.454086 0.813848 -0.433597
-9.538439 -8.142680 -0.184963 1261 0.457297 0.816894 -0.378216
-9.537703 -8.142034 -0.181097 1269 0.467890 0.826198 -0.322590
-9.537030 -8.141438 -0.177231 1285 0.477564 0.834774 -0.266964
-9.536472 -8.140939 -0.173374 1285 0.485592 0.841950 -0.211467
-9.535787 -8.140343 -0.169508 1285 0.495458 0.850527 -0.155841
-9.535450 -8.140033 -0.165651 1287 0.500302 0.854986 -0.100345
-9.535098 -8.139709 -0.161793 1279 0.505365 0.859638 -0.044834
-9.534862 -8.139497 -0.157944 1271 0.508768 0.862698 0.010547
-9.535745 -8.140229 -0.154110 1291 0.496062 0.852159 0.065712
-9.536278 -8.140659 -0.150267 1289 0.488391 0.845971 0.121007
-9.536654 -8.140965 -0.146414 1279 0.482971 0.841566 0.176446
-9.537478 -8.141642 -0.142580 1279 0.471115 0.831837 0.231612
-9.538568 -8.142561 -0.138733 1273 0.455445 0.818609 0.286964
-9.539886 -8.143664 -0.134907 1257 0.436467 0.802733 0.342014
-9.540647 -8.144291 -0.131061 1235 0.425531 0.793718 0.397353
-9.541686 -8.145163 -0.127216 1211 0.410574 0.781176 0.452676
-9.543724 -8.146874 -0.123384 1205 0.381250 0.756545 0.507813
-9.545811 -8.148647 -0.119552 1179 0.351227 0.731036 0.562950
-9.548184 -8.150644 -0.115730 1147 0.317073 0.702302 0.617943
-9.550329 -8.152460 -0.111887 1105 0.286212 0.676176 0.673238
-9.553871 -8.155464 -0.108068 1047 0.235249 0.632952 0.728187
-9.558803 -8.159650 -0.104259 973 0.164293 0.572726 0.782993
-9.564942 -8.164879 -0.100447 879 0.075951 0.497489 0.837842
-9.573375 -8.172050 -0.096659 687 -0.045378 0.394300 0.892346
-9.562399 -8.158428 -0.216238 1043 0.112547 0.590304 -0.828216
-9.557940 -8.154608 -0.212294 1091 0.176711 0.645274 -0.771467
-9.554152 -8.151361 -0.208355 1121 0.231215 0.691983 -0.714791
-9.550764 -8.148449 -0.204433 1141 0.279955 0.733890 -0.658359
-9.548644 -8.146614 -0.200535 1165 0.310459 0.760291 -0.602273
-9.546140 -8.144458 -0.196630 1207 0.346493 0.791316 -0.546086
-9.544020 -8.142637 -0.192741 1217 0.376996 0.817512 -0.490129
-9.543120 -8.141846 -0.188867 1235 0.389936 0.828901 -0.434388
-9.541508 -8.140451 -0.184986 1255 0.413140 0.848962 -0.378547
-9.540272 -8.139373 -0.181112 1261 0.430924 0.864482 -0.322806
-9.539485 -8.138691 -0.177248 1275 0.442244 0.874293 -0.267208
-9.538914 -8.138179 -0.173391 1271 0.450464 0.881662 -0.211712
-9.539026 -8.138253 -0.169540 1287 0.448844 0.880591 -0.156302
-9.538839 -8.138076 -0.165682 1281 0.451534 0.883144 -0.100791
-9.539215 -8.138382 -0.161838 1285 0.446127 0.878739 -0.045482
-9.539427 -8.138539 -0.157987 1287 0.443081 0.876475 0.009928
-9.538970 -8.138125 -0.154131 1281 0.449654 0.882430 0.065410
-9.538618 -8.137815 -0.150272 1267 0.454717 0.886890 0.120935
-9.539600 -8.138631 -0.146437 1269 0.440584 0.875157 0.176115
-9.540647 -8.139510 -0.142601 1259 0.425531 0.862506 0.231310
-9.541694 -8.140374 -0.138765 1245 0.410464 0.850074 0.286504
-9.542840 -8.141336 -0.134930 1241 0.393970 0.836228 0.341684
-9.543494 -8.141873 -0.131075 1223 0.384557 0.828503 0.397151
-9.545189 -8.143304 -0.127245 1215 0.360173 0.807920 0.452259
-9.546507 -8.144406 -0.123409 1183 0.341210 0.792057 0.507453
-9.548380 -8.145986 -0.119577 1159 0.314260 0.769334 0.562590
-9.551475 -8.148604 -0.115751 1135 0.269732 0.731653 0.617640
-9.554560 -8.151217 -0.111923 1083 0.225342 0.694055 0.672720
-9.557659 -8.153844 -0.108095 1019 0.180745 0.656265 0.727799
-9.562692 -8.158114 -0.104288 947 0.108335 0.594818 0.782576
-9.569743 -8.164111 -0.100489 845 0.006875 0.508535 0.837238
-9.567236 -8.157709 -0.216310 991 0.042950 0.600650 -0.829252
-9.562449 -8.153609 -0.212347 1059 0.111820 0.659641 -0.772230
-9.558440 -8.150173 -0.208410 1101 0.169507 0.709081 -0.715582
-9.555758 -8.147871 -0.204494 1133 0.208093 0.742206 -0.659237
-9.552811 -8.145336 -0.200580 1161 0.250508 0.778679 -0.602921
-9.549686 -8.142656 -0.196669 1181 0.295461 0.817237 -0.546647
-9.547624 -8.140878 -0.192781 1195 0.325141 0.842829 -0.490705
-9.546288 -8.139714 -0.188898 1227 0.344366 0.859569 -0.434834
-9.545281 -8.138830 -0.185024 1243 0.358842 0.872290 -0.379093
-9.543939 -8.137675 -0.181152 1245 0.378163 0.888907 -0.323381
-9.542533 -8.136456 -0.177278 1245 0.398389 0.906457 -0.267640
-9.542025 -8.136006 -0.173412 1253 0.405703 0.912920 -0.212014
-9.541966 -8.135927 -0.169563 1263 0.406540 0.914059 -0.156633
-9.541609 -8.135610 -0.165705 1263 0.411685 0.918629 -0.101122
-9.541763 -8.135727 -0.161854 1269 0.409462 0.916941 -0.045712
-9.541975 -8.135885 -0.158012 1263 0.406416 0.914663 0.009568
-9.541682 -8.135616 -0.154154 1261 0.410629 0.918532 0.065079
-9.541895 -8.135776 -0.150303 1259 0.407569 0.916241 0.120489
-9.542605 -8.136368 -0.146459 1259 0.397346 0.907720 0.175799
-9.543652 -8.137233 -0.142624 1247 0.382293 0.895274 0.230979
-9.545190 -8.138524 -0.138796 1241 0.360160 0.876694 0.286058
-9.546452 -8.139585 -0.134958 1243 0.342005 0.861435 0.341281
-9.547383 -8.140350 -0.131113 1215 0.328599 0.850417 0.396605
-9.548857 -8.141593 -0.127275 1199 0.307399 0.832537 0.451827
-9.550567 -8.143038 -0.123445 1169 0.282795 0.811748 0.506935
-9.552826 -8.144938 -0.119612 1135 0.250288 0.784401 0.562086
-9.555541 -8.147228 -0.115787 1115 0.211222 0.751454 0.617122
-9.558627 -8.149842 -0.111959 1061 0.166818 0.713842 0.672202
-9.562603 -8.153215 -0.108137 987 0.109611 0.665308 0.727194
-9.567536 -8.157402 -0.104320 905 0.038627 0.605069 0.782115
-9.574530 -8.163342 -0.100521 791 -0.061996 0.519595 0.836777
-9.568120 -8.153499 -0.212435 1005 0.030229 0.661232 -0.773496
-9.563276 -8.149343 -0.208473 1065 0.099923 0.721033 -0.716489
-9.559495 -8.146102 -0.204544 1105 0.154331 0.767660 -0.659957
-9.556478 -8.143513 -0.200621 1143 0.197747 0.804915 -0.603511
-9.554864 -8.142118 -0.196739 1177 0.220964 0.824976 -0.547655
-9.552967 -8.140487 -0.192850 1203 0.248257 0.848455 -0.491698
-9.550897 -8.138701 -0.188951 1223 0.278048 0.874142 -0.435597
-9.549447 -8.137440 -0.185070 1237 0.298905 0.892296 -0.379755
-9.547606 -8.135851 -0.181190 1241 0.325388 0.915157 -0.323928
-9.546428 -8.134828 -0.177317 1249 0.342348 0.929880 -0.268201
-9.546142 -8.134566 -0.173460 1259 0.346465 0.933640 -0.212705
-9.546288 -8.134675 -0.169609 1275 0.344366 0.932076 -0.157295
-9.545510 -8.133988 -0.165743 1259 0.355549 0.941956 -0.101669
-9.545658 -8.134098 -0.161892 1263 0.353422 0.940378 -0.046259
-9.545983 -8.134354 -0.158050 1261 0.348743 0.936700 0.009022
-9.546068 -8.134414 -0.154199 1267 0.347522 0.935836 0.064432
-9.546673 -8.134902 -0.150356 1273 0.338822 0.928810 0.119727
-9.546657 -8.134878 -0.146496 1263 0.339055 0.929153 0.175266
-9.546747 -8.134932 -0.142647 1231 0.337752 0.928385 0.230648
-9.547794 -8.135798 -0.138811 1223 0.322685 0.915912 0.285842
-9.549226 -8.136997 -0.134971 1209 0.302088 0.898663 0.341094
-9.551769 -8.139149 -0.131147 1207 0.265492 0.867706 0.396115
-9.553579 -8.140677 -0.127317 1185 0.239448 0.845710 0.451223
-9.555510 -8.142298 -0.123487 1159 0.211675 0.822397 0.506331
-9.557442 -8.143930 -0.119646 1129 0.183874 0.798905 0.561597
-9.558922 -8.145166 -0.115808 1091 0.162577 0.781121 0.616820
-9.562343 -8.148066 -0.111990 1045 0.113357 0.739406 0.671756
-9.567332 -8.152294 -0.108171 965 0.041564 0.678563 0.726705
-9.573214 -8.157285 -0.104368 879 -0.043059 0.606756 0.781425
-9.578190 -8.161512 -0.100550 707 -0.114660 0.545927 0.836360
-9.572237 -8.152157 -0.212482 971 -0.029008 0.680539 -0.774173
-9.566951 -8.147637 -0.208511 1015 0.047053 0.745568 -0.717036
-9.563377 -8.144573 -0.204582 1071 0.098469 0.789656 -0.660504
-9.561144 -8.142654 -0.200683 1127 0.130605 0.817265 -0.604403
-9.559195 -8.140973 -0.196785 1151 0.158653 0.841456 -0.548316
-9.557640 -8.139622 -0.192903 1185 0.181020 0.860900 -0.492460
-9.555626 -8.137892 -0.189014 1205 0.210000 0.885792 -0.436503
-9.553835 -8.136352 -0.185125 1221 0.235770 0.907953 -0.380547
-9.551829 -8.134615 -0.181236 1229 0.264627 0.932940 -0.324590
-9.550259 -8.133262 -0.177355 1239 0.287227 0.952412 -0.268748
-9.549417 -8.132526 -0.173490 1237 0.299344 0.962992 -0.213137
-9.549900 -8.132922 -0.169647 1247 0.292387 0.957297 -0.157841
-9.550447 -8.133368 -0.165804 1261 0.284511 0.950889 -0.102547
-9.550495 -8.133379 -0.161943 1261 0.283824 0.950724 -0.046993
-9.549694 -8.132685 -0.158079 1267 0.295351 0.960714 0.008605
-9.549736 -8.132703 -0.154228 1263 0.294747 0.960453 0.064015
-9.550569 -8.133386 -0.150394 1263 0.282768 0.950628 0.119180
-9.550431 -8.133259 -0.146534 1239 0.284744 0.952453 0.174720
-9.551149 -8.133843 -0.142691 1231 0.274411 0.944042 0.230015
-9.552131 -8.134659 -0.138855 1215 0.260291 0.932309 0.285209
-9.553507 -8.135818 -0.135017 1199 0.240491 0.915637 0.340432
-9.555494 -8.137478 -0.131187 1183 0.211894 0.891747 0.395540
-9.557311 -8.139016 -0.127346 1161 0.185754 0.869614 0.450806
-9.558842 -8.140300 -0.123508 1133 0.163730 0.851144 0.506029
-9.561109 -8.142205 -0.119686 1105 0.131113 0.823728 0.561022
-9.564095 -8.144734 -0.115858 1059 0.088150 0.787337 0.616101
-9.567864 -8.147921 -0.112038 997 0.033907 0.741492 0.671065
-9.572790 -8.152101 -0.108219 907 -0.036967 0.681349 0.726015
-9.578777 -8.157181 -0.104416 793 -0.123113 0.608252 0.780734
-9.579142 -8.153187 -0.212593 899 -0.128355 0.665720 -0.775770
-9.573685 -8.148513 -0.208612 979 -0.049838 0.732971 -0.718489
-9.569005 -8.144517 -0.204670 1029 0.017495 0.790466 -0.661770
-9.565268 -8.141320 -0.200731 1079 0.071272 0.836462 -0.605093
-9.563090 -8.139443 -0.196833 1119 0.102599 0.863466 -0.549007
-9.561029 -8.137665 -0.192934 1149 0.132252 0.889058 -0.492906
-9.559572 -8.136412 -0.189052 1173 0.153219 0.907088 -0.437050
-9.558451 -8.135429 -0.185179 1201 0.169356 0.921222 -0.381324
-9.557500 -8.134603 -0.181305 1227 0.183037 0.933119 -0.325583
-9.556437 -8.133677 -0.177441 1229 0.198337 0.946443 -0.269985
-9.555087 -8.132514 -0.173557 1221 0.217753 0.963170 -0.214101
-9.554465 -8.131968 -0.169691 1239 0.226700 0.971033 -0.158475
-9.553843 -8.131417 -0.165834 1231 0.235660 0.978950 -0.102978
-9.553385 -8.131003 -0.161968 1231 0.242247 0.984905 -0.047352
-9.553141 -8.130785 -0.158119 1237 0.245760 0.988048 0.008029
-9.553468 -8.131041 -0.154266 1241 0.241053 0.984370 0.063468
-9.554229 -8.131668 -0.150423 1241 0.230103 0.975341 0.118763
-9.554491 -8.131876 -0.146572 1227 0.226330 0.972350 0.174173
-9.554317 -8.131697 -0.142723 1205 0.228827 0.974930 0.229554
-9.555022 -8.132284 -0.138878 1191 0.218686 0.966477 0.284878
-9.557224 -8.134141 -0.135046 1179 0.187002 0.939760 0.340014
-9.559668 -8.136193 -0.131222 1163 0.151847 0.910231 0.395036
-9.561706 -8.137904 -0.127392 1143 0.122523 0.885614 0.450144
-9.563137 -8.139106 -0.123552 1113 0.101927 0.868324 0.505396
-9.565168 -8.140821 -0.119713 1077 0.072699 0.843638 0.560633
-9.569101 -8.144140 -0.115900 1015 0.016110 0.795886 0.615497
-9.573479 -8.147852 -0.112085 959 -0.046874 0.742480 0.670389
-9.578075 -8.151751 -0.108259 853 -0.113014 0.686385 0.725439
-9.583628 -8.156447 -0.104448 661 -0.192903 0.618804 0.780274
-9.578756 -8.147984 -0.208685 911 -0.122811 0.740586 -0.719539
-9.574462 -8.144309 -0.204738 997 -0.061021 0.793457 -0.662748
-9.570724 -8.141112 -0.200809 1043 -0.007231 0.839453 -0.606216
-9.567371 -8.138250 -0.196888 1079 0.041001 0.880632 -0.549798
-9.565031 -8.136241 -0.192982 1111 0.074675 0.909545 -0.493597
-9.563525 -8.134937 -0.189100 1147 0.096342 0.928302 -0.437741
-9.562012 -8.133627 -0.185219 1173 0.118118 0.947156 -0.381899
-9.560163 -8.132030 -0.181328 1187 0.144725 0.970141 -0.325913
-9.559097 -8.131104 -0.177454 1205 0.160053 0.983451 -0.270172
-9.558927 -8.130941 -0.173595 1217 0.162509 0.985797 -0.214647
-9.558682 -8.130724 -0.169737 1213 0.166022 0.988926 -0.159136
-9.557675 -8.129840 -0.165872 1225 0.180512 1.001646 -0.103525
-9.556546 -8.128865 -0.161999 1219 0.196759 1.015670 -0.047798
-9.556651 -8.128933 -0.158148 1217 0.195249 1.014696 0.007612
-9.556801 -8.129044 -0.154297 1213 0.193095 1.013104 0.063022
-9.557733 -8.129809 -0.150452 1221 0.179689 1.002085 0.118345
-9.559114 -8.130961 -0.146625 1211 0.159806 0.985509 0.173410
-9.560431 -8.132064 -0.142788 1205 0.140869 0.969647 0.228619
-9.561755 -8.133172 -0.138950 1185 0.121810 0.953702 0.283842
-9.563009 -8.134227 -0.135103 1171 0.103765 0.938525 0.339194
-9.564220 -8.135238 -0.131266 1155 0.086338 0.923980 0.394403
-9.566321 -8.136997 -0.127434 1125 0.056109 0.898663 0.449540
-9.568809 -8.139093 -0.123600 1085 0.020322 0.868502 0.504705
-9.571623 -8.141468 -0.119776 1039 -0.020171 0.834335 0.559727
-9.575564 -8.144807 -0.115953 983 -0.076884 0.786294 0.614734
-9.579834 -8.148414 -0.112139 905 -0.138317 0.734398 0.669612
-9.586990 -8.154487 -0.108339 755 -0.241286 0.647017 0.724288
-9.584664 -8.148259 -0.208771 803 -0.207819 0.736621 -0.720777
-9.580091 -8.144354 -0.204826 923 -0.142022 0.792812 -0.664014
-9.576974 -8.141681 -0.200903 997 -0.097165 0.831275 -0.607568
-9.574569 -8.139623 -0.196997 1047 -0.062558 0.860887 -0.551367
-9.571160 -8.136704 -0.193066 1085 -0.013516 0.902876 -0.494806
-9.568983 -8.134828 -0.189167 1113 0.017811 0.929880 -0.438705
-9.567477 -8.133526 -0.185285 1141 0.039478 0.948611 -0.382849
-9.565628 -8.131943 -0.181396 1165 0.066085 0.971389 -0.326892
-9.563779 -8.130346 -0.177507 1175 0.092692 0.994360 -0.270935
-9.563158 -8.129799 -0.173641 1189 0.101625 1.002236 -0.215309
-9.562307 -8.129054 -0.169775 1189 0.113865 1.012953 -0.159683
-9.561850 -8.128654 -0.165918 1189 0.120451 1.018716 -0.104187
-9.562061 -8.128813 -0.162067 1201 0.117405 1.016425 -0.048777
-9.561996 -8.128740 -0.158207 1199 0.118338 1.017468 0.006763
-9.562600 -8.129227 -0.154364 1193 0.109652 1.010469 0.062058
-9.563526 -8.130001 -0.150518 1189 0.096328 0.999327 0.117396
-9.564850 -8.131095 -0.146681 1187 0.077282 0.983588 0.172605
-9.565561 -8.131688 -0.142837 1183 0.067045 0.975053 0.227914
-9.566273 -8.132267 -0.138983 1163 0.056809 0.966724 0.283367
-9.567420 -8.133229 -0.135147 1137 0.040301 0.952878 0.338561
-9.569129 -8.134660 -0.131307 1113 0.015712 0.932296 0.393813
-9.571337 -8.136525 -0.127476 1091 -0.016055 0.905455 0.448935
-9.574273 -8.138990 -0.123649 1053 -0.058304 0.869984 0.504000
-9.577815 -8.141980 -0.119829 1005 -0.109268 0.826966 0.558964
