434
-13.911499 -12.346876 -0.185061 593 0.892475 -0.520363 -0.156272
-13.911822 -12.347136 -0.179348 741 0.887823 -0.524095 -0.074071
-13.909672 -12.345206 -0.173611 793 0.918766 -0.496336 0.008476
-13.909349 -12.344881 -0.167894 815 0.923404 -0.491657 0.090735
-13.909938 -12.345375 -0.162189 827 0.914937 -0.498765 0.172821
-13.910147 -12.345537 -0.156479 815 0.911932 -0.501098 0.254979
-13.911783 -12.346961 -0.150780 781 0.888385 -0.521584 0.336979
-13.913362 -12.348329 -0.145090 701 0.865676 -0.541262 0.418850
-13.917038 -12.344113 -0.196526 587 0.812778 -0.480611 -0.321236
-13.914795 -12.342093 -0.190788 777 0.845052 -0.451548 -0.238675
-13.912163 -12.339725 -0.185043 877 0.882924 -0.417462 -0.156013
-13.910076 -12.337842 -0.179306 923 0.912948 -0.390375 -0.073467
-13.907663 -12.335679 -0.173571 953 0.947664 -0.359254 0.009051
-13.906010 -12.334185 -0.167850 955 0.971458 -0.337752 0.091368
-13.906610 -12.334679 -0.162148 961 0.962827 -0.344860 0.173411
-13.907522 -12.335467 -0.156441 953 0.949695 -0.356208 0.255526
-13.908292 -12.336118 -0.150747 919 0.938621 -0.365566 0.337454
-13.910468 -12.338020 -0.145054 887 0.907308 -0.392941 0.419368
-13.914017 -12.341136 -0.139374 823 0.856249 -0.437771 0.501095
-13.916957 -12.343715 -0.133686 713 0.813944 -0.474875 0.582936
-13.925978 -12.344321 -0.202332 735 0.684148 -0.483602 -0.404776
-13.915406 -12.334920 -0.196482 877 0.836256 -0.348331 -0.320603
-13.911574 -12.331487 -0.190725 953 0.891391 -0.298932 -0.237769
-13.907623 -12.327964 -0.184969 991 0.948240 -0.248243 -0.154948
-13.905268 -12.325843 -0.179241 1023 0.982134 -0.217726 -0.072531
-13.904661 -12.325279 -0.173525 1037 0.990861 -0.209616 0.009713
-13.903766 -12.324454 -0.167810 1045 1.003746 -0.197747 0.091944
-13.903440 -12.324123 -0.162104 1047 1.008425 -0.192985 0.174044
-13.904414 -12.324963 -0.156406 1045 0.994415 -0.205061 0.256030
-13.905341 -12.325753 -0.150702 1027 0.981077 -0.216436 0.338102
-13.907409 -12.327563 -0.145020 1005 0.951328 -0.242480 0.419857
-13.910462 -12.330242 -0.139332 971 0.907390 -0.281025 0.501699
-13.913403 -12.332821 -0.133646 907 0.865086 -0.318129 0.583512
-13.918321 -12.337142 -0.127977 807 0.794322 -0.380303 0.665080
-13.924802 -12.335853 -0.208004 787 0.701067 -0.361751 -0.486387
-13.916754 -12.328692 -0.202190 893 0.816867 -0.258727 -0.402733
-13.912306 -12.324732 -0.196426 981 0.880866 -0.201740 -0.319798
-13.908745 -12.321540 -0.190678 1027 0.932103 -0.155813 -0.237092
-13.906551 -12.319567 -0.184940 1051 0.963664 -0.127422 -0.154531
-13.905726 -12.318811 -0.179224 1083 0.975533 -0.116554 -0.072287
-13.904179 -12.317410 -0.173504 1097 0.997804 -0.096397 0.010016
-13.902646 -12.316021 -0.167784 1103 1.019855 -0.076404 0.092318
-13.902367 -12.315741 -0.162075 1093 1.023876 -0.072369 0.174462
-13.903230 -12.316481 -0.156380 1089 1.011457 -0.083018 0.256404
-13.904972 -12.317996 -0.150690 1083 0.986387 -0.104822 0.338274
-13.906818 -12.319603 -0.144999 1063 0.959822 -0.127943 0.420159
-13.908079 -12.320682 -0.139311 1043 0.941681 -0.143463 0.502001
-13.910295 -12.322627 -0.133619 1001 0.909805 -0.171456 0.583900
-13.914228 -12.326081 -0.127947 939 0.853202 -0.221156 0.665512
-13.918933 -12.330217 -0.122269 843 0.785512 -0.280668 0.747210
-13.928696 -12.332028 -0.213745 753 0.645041 -0.306726 -0.568992
-13.920037 -12.324333 -0.207916 915 0.769622 -0.196004 -0.485121
-13.914782 -12.319654 -0.202147 985 0.845244 -0.128684 -0.402114
-13.910009 -12.315397 -0.196375 1039 0.913908 -0.067430 -0.319064
-13.906823 -12.312551 -0.190634 1075 0.959753 -0.026470 -0.236459
-13.905339 -12.311212 -0.184912 1095 0.981104 -0.007204 -0.154128
-13.905010 -12.310893 -0.179203 1119 0.985839 -0.002621 -0.071985
-13.904959 -12.310811 -0.173494 1135 0.986580 -0.001441 0.010159
-13.904452 -12.310330 -0.167788 1141 0.993866 0.005475 0.092260
-13.903954 -12.309858 -0.162081 1137 1.001042 0.012267 0.174375
-13.904157 -12.310015 -0.156380 1125 0.998120 0.010017 0.256404
-13.905084 -12.310803 -0.150684 1125 0.984782 -0.001331 0.338361
-13.906394 -12.311934 -0.144997 1111 0.965928 -0.017605 0.420188
-13.907966 -12.313293 -0.139297 1101 0.943314 -0.037159 0.502203
-13.909595 -12.314711 -0.133608 1065 0.919877 -0.057550 0.584059
-13.913143 -12.317824 -0.127928 1017 0.868818 -0.102352 0.665785
-13.917673 -12.321801 -0.122252 949 0.803639 -0.159572 0.747454
-13.923965 -12.327348 -0.116585 841 0.713101 -0.239379 0.828994
-13.935702 -12.330976 -0.219530 661 0.544226 -0.291577 -0.652229
-13.925406 -12.321836 -0.213678 881 0.692368 -0.160080 -0.568028
-13.918880 -12.316035 -0.207878 973 0.786267 -0.076610 -0.484574
-13.914221 -12.311877 -0.202114 1035 0.853312 -0.016782 -0.401639
-13.910548 -12.308600 -0.196365 1083 0.906155 0.030367 -0.318920
-13.908304 -12.306578 -0.190630 1119 0.938443 0.059471 -0.236402
-13.906763 -12.305196 -0.184908 1129 0.960618 0.079354 -0.154071
-13.905712 -12.304231 -0.179193 1149 0.975739 0.093241 -0.071841
-13.904725 -12.303329 -0.173481 1165 0.989941 0.106208 0.010346
-13.904005 -12.302667 -0.167774 1161 1.000301 0.115745 0.092461
-13.903996 -12.302625 -0.162064 1159 1.000425 0.116348 0.174620
-13.903994 -12.302589 -0.156364 1151 1.000466 0.116856 0.256634
-13.905240 -12.303669 -0.150677 1161 0.982532 0.101323 0.338462
-13.906272 -12.304549 -0.144981 1155 0.967684 0.088657 0.420418
-13.907624 -12.305719 -0.139294 1123 0.948227 0.071821 0.502246
-13.910302 -12.308053 -0.133608 1097 0.909696 0.038243 0.584059
-13.913193 -12.310585 -0.127932 1061 0.868104 0.001811 0.665728
-13.916963 -12.313890 -0.122250 1019 0.813862 -0.045749 0.747483
-13.922086 -12.318400 -0.116579 941 0.740147 -0.110640 0.829080
-13.930195 -12.325540 -0.110922 809 0.623470 -0.213362 0.910476
-13.932291 -12.320365 -0.219456 835 0.593309 -0.138907 -0.651164
-13.925163 -12.314036 -0.213648 957 0.695867 -0.047848 -0.567596
-13.920014 -12.309448 -0.207867 1039 0.769951 0.018168 -0.484416
-13.915851 -12.305741 -0.202112 1085 0.829861 0.071505 -0.401611
-13.912885 -12.303084 -0.196369 1125 0.872537 0.109734 -0.318977
-13.910252 -12.300731 -0.190634 1143 0.910423 0.143600 -0.236459
-13.907562 -12.298321 -0.184900 1143 0.949119 0.178275 -0.153956
-13.907063 -12.297849 -0.179193 1183 0.956309 0.185068 -0.071841
-13.906615 -12.297425 -0.173485 1187 0.962745 0.191160 0.010289
-13.905295 -12.296235 -0.167772 1181 0.981736 0.208285 0.092490
-13.905293 -12.296201 -0.162073 1187 0.981763 0.208779 0.174490
-13.905992 -12.296792 -0.156380 1179 0.971719 0.200272 0.256404
-13.906587 -12.297280 -0.150677 1165 0.963156 0.193246 0.338462
-13.907560 -12.298118 -0.144991 1161 0.949146 0.181198 0.420274
-13.909686 -12.299973 -0.139297 1161 0.918560 0.154509 0.502203
-13.911592 -12.301621 -0.133617 1127 0.891144 0.130784 0.583929
-13.914538 -12.304195 -0.127930 1103 0.848743 0.093748 0.665756
-13.918576 -12.307739 -0.122257 1041 0.790644 0.042758 0.747382
-13.923169 -12.311778 -0.116579 981 0.724559 -0.015355 0.829080
-13.929017 -12.316910 -0.110916 881 0.640416 -0.089193 0.910562
-13.941010 -12.327489 -0.105267 673 0.467849 -0.241410 0.991843
-13.941049 -12.320544 -0.225262 777 0.467300 -0.141487 -0.734704
-13.931942 -12.312475 -0.219423 897 0.598331 -0.025386 -0.650690
-13.924814 -12.306146 -0.213615 977 0.700889 0.065687 -0.567121
-13.919268 -12.301219 -0.207838 1041 0.780696 0.136574 -0.483999
-13.915927 -12.298231 -0.202087 1105 0.828764 0.179565 -0.401251
-13.913741 -12.296265 -0.196360 1147 0.860214 0.207860 -0.318848
-13.911705 -12.294448 -0.190632 1161 0.889511 0.234000 -0.236431
-13.909894 -12.292811 -0.184902 1171 0.915569 0.257547 -0.153985
-13.909502 -12.292433 -0.179205 1205 0.921208 0.262995 -0.072013
-13.908244 -12.291290 -0.173483 1207 0.939307 0.279433 0.010318
-13.907244 -12.290375 -0.167778 1205 0.953702 0.292607 0.092404
-13.907616 -12.290686 -0.162077 1203 0.948350 0.288133 0.174433
-13.908217 -12.291180 -0.156384 1211 0.939692 0.281025 0.256346
-13.908916 -12.291770 -0.150688 1195 0.929633 0.272531 0.338303
-13.909290 -12.292068 -0.144997 1171 0.924254 0.268250 0.420188
-13.909657 -12.292371 -0.139296 1145 0.918985 0.263886 0.502217
-13.912554 -12.294893 -0.133617 1145 0.877298 0.227592 0.583929
-13.916209 -12.298100 -0.127947 1133 0.824702 0.181445 0.665512
-13.918888 -12.300434 -0.122261 1089 0.786157 0.147868 0.747325
-13.923303 -12.304311 -0.116585 1029 0.722638 0.092088 0.828994
-13.929759 -12.309992 -0.110918 943 0.629741 0.010346 0.910533
-13.937591 -12.316870 -0.105253 791 0.517056 -0.088616 0.992044
-13.940856 -12.312795 -0.225229 781 0.470072 -0.029982 -0.734229
-13.932793 -12.305649 -0.219406 937 0.586091 0.072836 -0.650445
-13.925941 -12.299566 -0.213606 1013 0.684670 0.160355 -0.566992
-13.920124 -12.294400 -0.207819 1069 0.768373 0.234686 -0.483726
-13.916287 -12.290976 -0.202072 1111 0.823577 0.283962 -0.401035
-13.915080 -12.289883 -0.196348 1149 0.840949 0.299687 -0.318675
-13.914255 -12.289129 -0.190643 1171 0.852818 0.310527 -0.236589
-13.911778 -12.286917 -0.184908 1185 0.888454 0.342362 -0.154071
-13.909586 -12.284944 -0.179180 1211 0.920001 0.370753 -0.071654
-13.908427 -12.283887 -0.173468 1203 0.936673 0.385957 0.010534
-13.909404 -12.284724 -0.167782 1215 0.922622 0.373909 0.092346
-13.909833 -12.285077 -0.162090 1223 0.916447 0.368832 0.174246
-13.909612 -12.284853 -0.156391 1217 0.919630 0.372056 0.256246
-13.910419 -12.285537 -0.150696 1209 0.908008 0.362218 0.338188
-13.911401 -12.286368 -0.145000 1181 0.893888 0.350252 0.420145
-13.913087 -12.287827 -0.139320 1177 0.869627 0.329271 0.501872
-13.915317 -12.289773 -0.133638 1157 0.837546 0.301265 0.583627
-13.918377 -12.292443 -0.127960 1145 0.793512 0.262844 0.665325
-13.920609 -12.294391 -0.122267 1099 0.761389 0.234823 0.747238
-13.923890 -12.297252 -0.116589 1051 0.714185 0.193658 0.828936
-13.929523 -12.302198 -0.110916 983 0.633130 0.122482 0.910562
-13.935583 -12.307528 -0.105242 875 0.545941 0.045804 0.992203
-13.941178 -12.305347 -0.225204 845 0.465434 0.077172 -0.733870
-13.933712 -12.298737 -0.219387 965 0.572863 0.172293 -0.650172
-13.928123 -12.293768 -0.213610 1025 0.653274 0.243784 -0.567049
-13.924830 -12.290830 -0.207859 1087 0.700656 0.286061 -0.484301
-13.921376 -12.287758 -0.202110 1123 0.750356 0.330259 -0.401582
-13.917971 -12.284720 -0.196369 1147 0.799357 0.373964 -0.318977
-13.915502 -12.282514 -0.190634 1169 0.834884 0.405716 -0.236459
-13.914351 -12.281464 -0.184921 1209 0.851432 0.420824 -0.154258
-13.913795 -12.280949 -0.179214 1217 0.859432 0.428234 -0.072143
-13.912913 -12.280140 -0.173510 1235 0.872125 0.439870 0.009929
-13.912139 -12.279422 -0.167793 1237 0.883267 0.450203 0.092188
-13.912185 -12.279434 -0.162104 1229 0.882608 0.450025 0.174044
-13.912659 -12.279831 -0.156401 1221 0.875789 0.444316 0.256102
-13.912989 -12.280084 -0.150709 1217 0.871041 0.440680 0.338001
-13.914185 -12.281113 -0.145021 1217 0.853834 0.425874 0.419843
-13.915921 -12.282622 -0.139332 1191 0.828846 0.404152 0.501699
-13.918054 -12.284470 -0.133650 1173 0.798164 0.377573 0.583454
-13.919957 -12.286118 -0.127968 1149 0.770775 0.353861 0.665210
-13.922245 -12.288106 -0.122276 1119 0.737856 0.325251 0.747109
-13.926455 -12.291793 -0.116602 1071 0.677287 0.272202 0.828749
-13.931159 -12.295917 -0.110924 999 0.609597 0.212868 0.910447
-13.937935 -12.301870 -0.105265 903 0.512103 0.127202 0.991872
-13.952574 -12.314769 -0.099630 701 0.301471 -0.058387 1.072951
-13.942759 -12.299021 -0.225203 887 0.442697 0.168203 -0.733855
-13.936836 -12.293764 -0.219406 979 0.527910 0.243839 -0.650445
-13.931127 -12.288703 -0.213619 1047 0.610063 0.316661 -0.567179
-13.927344 -12.285335 -0.207863 1099 0.664485 0.365127 -0.484359
-13.924429 -12.282741 -0.202129 1145 0.706433 0.402451 -0.401855
-13.921088 -12.279754 -0.196379 1171 0.754500 0.445428 -0.319121
-13.918611 -12.277541 -0.190653 1197 0.790150 0.477263 -0.236733
-13.916525 -12.275673 -0.184925 1203 0.820160 0.504144 -0.154316
-13.914821 -12.274144 -0.179205 1205 0.844681 0.526140 -0.072013
-13.914372 -12.273722 -0.173508 1215 0.851130 0.532219 0.009958
-13.914200 -12.273531 -0.167809 1221 0.853614 0.534963 0.091958
-13.914743 -12.273983 -0.162115 1245 0.845792 0.528459 0.173886
-13.915174 -12.274336 -0.156414 1243 0.839604 0.523382 0.255915
-13.915222 -12.274350 -0.150723 1221 0.838904 0.523176 0.337800
-13.916524 -12.275471 -0.145035 1211 0.820174 0.507053 0.419641
-13.919037 -12.277656 -0.139351 1193 0.784016 0.475616 0.501426
-13.920837 -12.279215 -0.133671 1185 0.758109 0.453181 0.583152
-13.922082 -12.280279 -0.127974 1151 0.740202 0.437867 0.665123
-13.924867 -12.282703 -0.122297 1107 0.700134 0.402986 0.746807
-13.928742 -12.286100 -0.116615 1079 0.644368 0.354108 0.828562
-13.934114 -12.290801 -0.110945 1021 0.567073 0.286473 0.910145
-13.940458 -12.296370 -0.105278 927 0.475794 0.206350 0.991684
-13.951962 -12.306491 -0.099630 751 0.310267 0.060720 1.072951
-13.946854 -12.294914 -0.225225 905 0.383775 0.227290 -0.734172
-13.940671 -12.289425 -0.219433 983 0.472734 0.306274 -0.650833
-13.935174 -12.284548 -0.213654 1051 0.551828 0.376447 -0.567682
-13.930619 -12.280510 -0.207880 1093 0.617363 0.434546 -0.484603
-13.927001 -12.277289 -0.202131 1145 0.669424 0.480885 -0.401884
-13.924079 -12.274689 -0.196398 1177 0.711469 0.518305 -0.319395
-13.922380 -12.273152 -0.190678 1191 0.735907 0.540411 -0.237092
-13.920897 -12.271827 -0.184958 1201 0.757259 0.559484 -0.154790
-13.919852 -12.270870 -0.179243 1229 0.772284 0.573247 -0.072560
-13.918971 -12.270059 -0.173538 1245 0.784963 0.584925 0.009526
-13.918246 -12.269391 -0.167833 1253 0.795392 0.594530 0.091613
-13.918294 -12.269405 -0.162132 1251 0.794706 0.594324 0.173641
-13.918390 -12.269468 -0.156431 1225 0.793320 0.593419 0.255670
-13.919097 -12.270054 -0.150747 1215 0.783152 0.584993 0.337454
-13.920179 -12.270983 -0.145052 1193 0.767577 0.571628 0.419397
-13.922206 -12.272739 -0.139370 1197 0.738418 0.546352 0.501152
-13.924110 -12.274388 -0.133690 1187 0.711016 0.522627 0.582879
-13.925575 -12.275658 -0.128000 1155 0.689939 0.504363 0.664749
-13.929075 -12.278709 -0.122320 1131 0.639579 0.460453 0.746476
-13.932349 -12.281564 -0.116642 1095 0.592472 0.419383 0.828174
-13.936949 -12.285582 -0.110966 1025 0.526291 0.361573 0.909843
-13.943297 -12.291156 -0.105299 931 0.434944 0.281368 0.991382
-13.953215 -12.299869 -0.099640 769 0.292250 0.156005 1.072807
-13.951653 -12.291704 -0.225273 917 0.314726 0.273478 -0.734862
-13.944780 -12.285628 -0.219463 1003 0.413606 0.360901 -0.651265
-13.939795 -12.281203 -0.213682 1059 0.485345 0.424570 -0.568085
-13.935567 -12.277448 -0.207928 1105 0.546174 0.478607 -0.485294
-13.931502 -12.273840 -0.202171 1139 0.604657 0.530517 -0.402459
-13.928317 -12.271007 -0.196430 1161 0.650488 0.571285 -0.319855
-13.927052 -12.269857 -0.190706 1199 0.668697 0.587820 -0.237495
-13.925781 -12.268716 -0.184994 1213 0.686975 0.604245 -0.155308
-13.923141 -12.266356 -0.179270 1221 0.724971 0.638193 -0.072949
-13.921380 -12.264770 -0.173550 1247 0.750302 0.661027 0.009354
-13.921649 -12.264975 -0.167849 1253 0.746432 0.658076 0.091382
-13.922517 -12.265720 -0.162163 1243 0.733945 0.647346 0.173195
-13.921793 -12.265052 -0.156458 1229 0.744360 0.656965 0.255282
-13.922500 -12.265637 -0.150764 1221 0.734192 0.648540 0.337210
-13.924574 -12.267442 -0.145082 1213 0.704347 0.622578 0.418965
-13.925720 -12.268422 -0.139395 1199 0.687853 0.608472 0.500792
-13.927684 -12.270115 -0.133715 1171 0.659600 0.584115 0.582519
-13.930246 -12.272349 -0.128029 1147 0.622729 0.551965 0.664332
-13.933463 -12.275162 -0.122351 1121 0.576445 0.511499 0.746030
-13.936418 -12.277725 -0.116674 1079 0.533934 0.474614 0.827713
-13.940023 -12.280870 -0.110983 1013 0.482051 0.429359 0.909598
-13.946751 -12.286777 -0.105324 929 0.385257 0.344379 0.991023
-13.958171 -12.296800 -0.099678 751 0.220937 0.200162 1.072260
-13.955474 -12.287805 -0.225296 891 0.259742 0.329587 -0.735193
-13.948666 -12.281777 -0.219486 1009 0.357703 0.416310 -0.651596
-13.942851 -12.276627 -0.213699 1061 0.441366 0.490422 -0.568330
-13.939219 -12.273406 -0.207951 1105 0.493619 0.536761 -0.485625
-13.935868 -12.270425 -0.202200 1133 0.541838 0.579656 -0.402877
-13.932634 -12.267543 -0.196459 1171 0.588369 0.621123 -0.320272
-13.930100 -12.265287 -0.190723 1185 0.624828 0.653576 -0.237740
-13.927958 -12.263364 -0.185007 1189 0.655661 0.681253 -0.155495
-13.926685 -12.262222 -0.179293 1201 0.673966 0.697678 -0.073280
-13.926301 -12.261848 -0.173586 1231 0.679496 0.703057 0.008836
-13.926675 -12.262146 -0.167894 1249 0.674117 0.698776 0.090735
-13.926779 -12.262217 -0.162193 1229 0.672622 0.697760 0.172764
-13.926443 -12.261892 -0.156496 1213 0.677452 0.702426 0.254735
-13.926654 -12.262041 -0.150795 1205 0.674419 0.700285 0.336764
-13.927679 -12.262915 -0.145109 1205 0.659668 0.687716 0.418577
-13.928656 -12.263754 -0.139412 1183 0.645617 0.675641 0.500548
-13.931065 -12.265833 -0.133728 1159 0.610955 0.645727 0.582332
-13.934068 -12.268449 -0.128052 1133 0.567745 0.608087 0.664001
-13.936469 -12.270535 -0.122368 1119 0.533193 0.578064 0.745785
-13.940182 -12.273785 -0.116695 1067 0.479774 0.531313 0.827411
-13.945333 -12.278280 -0.111027 1011 0.405661 0.466628 0.908965
-13.950976 -12.283222 -0.105345 919 0.324455 0.395521 0.990720
-13.962323 -12.293186 -0.099699 737 0.161192 0.252154 1.071958
-13.960316 -12.284636 -0.225334 867 0.190076 0.375185 -0.735740
-13.954379 -12.279393 -0.219538 985 0.275495 0.450615 -0.652344
-13.947791 -12.273557 -0.213747 1033 0.370286 0.534593 -0.569020
-13.943393 -12.269660 -0.207981 1095 0.433572 0.590661 -0.486057
-13.940371 -12.266975 -0.202240 1127 0.477057 0.629288 -0.403452
-13.936739 -12.263755 -0.196491 1155 0.529310 0.675627 -0.320733
-13.933941 -12.261251 -0.190758 1169 0.569570 0.711647 -0.238244
-13.933274 -12.260639 -0.185041 1201 0.579162 0.720456 -0.155985
-13.932010 -12.259506 -0.179329 1203 0.597357 0.736758 -0.073797
-13.930021 -12.257722 -0.173611 1209 0.625967 0.762432 0.008476
-13.929574 -12.257300 -0.167912 1213 0.632403 0.768497 0.090476
-13.930614 -12.258188 -0.162216 1229 0.617432 0.755722 0.172433
-13.931327 -12.258780 -0.156523 1225 0.607182 0.747214 0.254346
-13.931587 -12.258978 -0.150831 1197 0.603436 0.744360 0.336246
-13.933002 -12.260199 -0.145144 1201 0.583072 0.726796 0.418073
-13.934639 -12.261607 -0.139454 1195 0.559526 0.706529 0.499943
-13.936217 -12.262960 -0.133774 1157 0.536816 0.687057 0.581670
-13.939165 -12.265533 -0.128088 1133 0.494401 0.650035 0.663483
-13.941848 -12.267859 -0.122412 1101 0.455801 0.616568 0.745152
-13.945350 -12.270912 -0.116732 1057 0.405414 0.572644 0.826879
-13.949947 -12.274928 -0.111055 1001 0.339261 0.514861 0.908562
-13.956405 -12.280582 -0.105389 905 0.246350 0.433503 0.990087
-13.969688 -12.292246 -0.099741 697 0.055217 0.265684 1.071354
-13.967425 -12.283188 -0.225410 811 0.087779 0.396015 -0.736834
-13.959575 -12.276253 -0.219585 959 0.200738 0.495801 -0.653021
-13.952866 -12.270325 -0.213785 1019 0.297272 0.581096 -0.569567
-13.948538 -12.266484 -0.208019 1063 0.359542 0.636355 -0.486603
-13.944955 -12.263312 -0.202271 1115 0.411095 0.681994 -0.403898
-13.941274 -12.260042 -0.196522 1127 0.464062 0.729046 -0.321179
-13.939301 -12.258274 -0.190794 1155 0.492453 0.754487 -0.238762
-13.938243 -12.257316 -0.185080 1177 0.507670 0.768277 -0.156546
-13.937091 -12.256266 -0.179365 1193 0.524246 0.783385 -0.074315
-13.935493 -12.254843 -0.173655 1193 0.547231 0.803858 0.007843
-13.935434 -12.254750 -0.167955 1219 0.548081 0.805189 0.089857
-13.935865 -12.255104 -0.162264 1199 0.541879 0.800098 0.171742
-13.935636 -12.254872 -0.156555 1203 0.545186 0.803433 0.253886
-13.936775 -12.255844 -0.150867 1187 0.528788 0.789450 0.335728
-13.938190 -12.257065 -0.145180 1191 0.508425 0.771886 0.417555
-13.939826 -12.258473 -0.139490 1183 0.484892 0.751619 0.499426
-13.941632 -12.260025 -0.133810 1145 0.458903 0.729293 0.581152
-13.943316 -12.261484 -0.128120 1125 0.434670 0.708299 0.663023
-13.946271 -12.264050 -0.122433 1081 0.392159 0.671387 0.744850
-13.950594 -12.267819 -0.116758 1031 0.329958 0.617144 0.826505
-13.955802 -12.272373 -0.111088 965 0.255022 0.551622 0.908087
-13.961770 -12.277596 -0.105413 837 0.169150 0.476467 0.989742
-13.968406 -12.276289 -0.219681 909 0.073673 0.495279 -0.654402
-13.960499 -12.269313 -0.213867 999 0.187442 0.595655 -0.570747
-13.955319 -12.264737 -0.208088 1055 0.261965 0.661493 -0.487596
-13.950768 -12.260700 -0.202324 1095 0.327446 0.719578 -0.404661
-13.946647 -12.257051 -0.196568 1113 0.386753 0.772078 -0.321841
-13.944432 -12.255085 -0.190840 1137 0.418615 0.800373 -0.239423
-13.943281 -12.254034 -0.185127 1159 0.435177 0.815494 -0.157222
-13.942278 -12.253132 -0.179413 1173 0.449613 0.828475 -0.075006
-13.941837 -12.252716 -0.173706 1191 0.455952 0.834458 0.007109
-13.941559 -12.252435 -0.167997 1187 0.459959 0.838506 0.089253
-13.940953 -12.251872 -0.162302 1197 0.468673 0.846602 0.171195
-13.941100 -12.251971 -0.156601 1189 0.466559 0.845175 0.253224
-13.942076 -12.252809 -0.150906 1181 0.452522 0.833127 0.335167
-13.943010 -12.253592 -0.145220 1167 0.439074 0.821861 0.416980
-13.944526 -12.254896 -0.139530 1149 0.417270 0.803090 0.498850
-13.946225 -12.256356 -0.133841 1121 0.392818 0.782082 0.580706
-13.948576 -12.258393 -0.128157 1113 0.358993 0.752771 0.662490
-13.952026 -12.261395 -0.122478 1063 0.309347 0.709575 0.744202
-13.956236 -12.265068 -0.116804 1023 0.248779 0.656732 0.825843
-13.961656 -12.269803 -0.111132 921 0.170797 0.588602 0.907454
-13.969120 -12.276330 -0.105459 785 0.063395 0.494689 0.989080
-13.977055 -12.276328 -0.219778 823 -0.050771 0.494717 -0.655798
-13.967325 -12.267751 -0.213934 949 0.089220 0.618132 -0.571711
-13.961487 -12.262607 -0.208149 1013 0.173226 0.692148 -0.488474
-13.956373 -12.258081 -0.202368 1059 0.246803 0.757259 -0.405294
-13.953522 -12.255537 -0.196634 1103 0.287831 0.793869 -0.322790
-13.950925 -12.253234 -0.190899 1129 0.325196 0.827007 -0.240272
-13.949333 -12.251802 -0.185179 1153 0.348098 0.847604 -0.157970
-13.948508 -12.251049 -0.179464 1169 0.359967 0.858444 -0.075740
-13.945806 -12.248653 -0.173729 1157 0.398855 0.892914 0.006778
-13.945463 -12.248322 -0.168032 1167 0.403782 0.897689 0.088749
-13.945957 -12.248725 -0.162329 1173 0.396674 0.891884 0.170807
-13.946550 -12.249211 -0.156635 1179 0.388139 0.884886 0.252735
-13.947697 -12.250191 -0.150949 1161 0.371645 0.870794 0.334548
-13.949331 -12.251600 -0.145260 1151 0.348125 0.850513 0.416404
-13.951302 -12.253300 -0.139578 1125 0.319776 0.826060 0.498159
-13.952711 -12.254512 -0.133890 1085 0.299495 0.808620 0.580001
-13.954785 -12.256304 -0.128199 1059 0.269650 0.782836 0.661886
-13.958902 -12.259883 -0.122524 1039 0.210412 0.731338 0.743541
-13.963609 -12.263992 -0.116846 977 0.142694 0.672210 0.825238
-13.969638 -12.269263 -0.111183 869 0.055944 0.596369 0.906720
-13.983533 -12.281435 -0.105553 685 -0.143984 0.421236 0.987728
-13.976718 -12.268586 -0.214035 843 -0.045927 0.606111 -0.573164
-13.969293 -12.262032 -0.208218 947 0.060912 0.700422 -0.489466
-13.965604 -12.258769 -0.202471 1013 0.113988 0.747365 -0.406776
-13.960710 -12.254449 -0.196699 1061 0.184409 0.809525 -0.323725
-13.957907 -12.251954 -0.190964 1097 0.224738 0.845422 -0.241208
-13.956806 -12.250955 -0.185242 1129 0.240573 0.859803 -0.158877
-13.955152 -12.249474 -0.179520 1135 0.264380 0.881113 -0.076546
-13.953653 -12.248135 -0.173800 1145 0.285938 0.900378 0.005756
-13.952871 -12.247424 -0.168095 1135 0.297190 0.910601 0.087843
-13.953032 -12.247537 -0.162394 1145 0.294884 0.908982 0.169872
-13.953747 -12.248130 -0.156698 1153 0.284593 0.900447 0.251828
-13.954120 -12.248425 -0.150997 1139 0.279228 0.896207 0.333857
-13.954925 -12.249109 -0.145302 1129 0.267646 0.886355 0.415800
-13.956895 -12.250809 -0.139622 1103 0.239297 0.861902 0.497526
-13.958920 -12.252548 -0.133930 1069 0.210165 0.836873 0.579426
-13.961874 -12.255116 -0.128242 1035 0.167655 0.799920 0.661267
-13.965771 -12.258504 -0.122570 983 0.111587 0.751180 0.742879
-13.970753 -12.262846 -0.116892 911 0.039903 0.688704 0.824577
-13.979924 -12.270873 -0.111248 769 -0.092060 0.573206 0.905785
-13.978786 -12.263108 -0.208328 877 -0.075690 0.684930 -0.491049
-13.973112 -12.258097 -0.202541 961 0.005955 0.757039 -0.407783
-13.967778 -12.253396 -0.196762 1027 0.082702 0.824674 -0.324632
-13.965350 -12.251232 -0.191027 1055 0.117638 0.855810 -0.242114
-13.963030 -12.249174 -0.185299 1097 0.151024 0.885421 -0.159697
-13.960391 -12.246827 -0.179565 1115 0.188992 0.919191 -0.077193
-13.959509 -12.246018 -0.173849 1123 0.201685 0.930827 0.005051
-13.959118 -12.245653 -0.168142 1131 0.207311 0.936083 0.087166
-13.959106 -12.245609 -0.162443 1121 0.207476 0.936714 0.169167
-13.959595 -12.246005 -0.156740 1131 0.200450 0.931019 0.251224
-13.960238 -12.246541 -0.151047 1119 0.191188 0.923308 0.333138
-13.961050 -12.247231 -0.145351 1111 0.179510 0.913387 0.415095
-13.963189 -12.249070 -0.139660 1071 0.148732 0.886917 0.496979
-13.966420 -12.251884 -0.133980 1043 0.102242 0.846424 0.578706
-13.969812 -12.254829 -0.128302 1001 0.053433 0.804050 0.660404
-13.973711 -12.258220 -0.122618 941 -0.002662 0.755269 0.742188
-13.979203 -12.262999 -0.116947 845 -0.081687 0.686508 0.823785
-13.984176 -12.260255 -0.202654 863 -0.153233 0.725986 -0.409409
-13.977843 -12.254675 -0.196871 957 -0.062119 0.806273 -0.326200
-13.973552 -12.250883 -0.191105 1001 -0.000370 0.860832 -0.243236
-13.970800 -12.248439 -0.185371 1033 0.039217 0.896001 -0.160733
-13.969968 -12.247677 -0.179655 1065 0.051197 0.906965 -0.078488
-13.968534 -12.246388 -0.173935 1081 0.071821 0.925503 0.003814
-13.967532 -12.245486 -0.168221 1079 0.086242 0.938484 0.086030
-13.966969 -12.244966 -0.162502 1075 0.094352 0.945976 0.168318
-13.966803 -12.244781 -0.156794 1077 0.096740 0.948638 0.250447
-13.967453 -12.245323 -0.151100 1063 0.087381 0.940831 0.332375
-13.969421 -12.247024 -0.145409 1043 0.059059 0.916364 0.414260
-13.972100 -12.249342 -0.139734 1023 0.020514 0.883006 0.495915
-13.973913 -12.250900 -0.134033 985 -0.005571 0.860585 0.577944
-13.978023 -12.254474 -0.128361 933 -0.064699 0.809169 0.659555
-13.984167 -12.259830 -0.122694 849 -0.153109 0.732093 0.741095
-13.989711 -12.257362 -0.196989 857 -0.232875 0.767605 -0.327898
-13.983589 -12.251978 -0.191204 931 -0.144794 0.845079 -0.244661
-13.980503 -12.249243 -0.185463 983 -0.100390 0.884433 -0.162056
-13.978686 -12.247617 -0.179733 1009 -0.074249 0.907829 -0.079610
-13.977350 -12.246425 -0.174011 1025 -0.055025 0.924982 0.002720
-13.976470 -12.245615 -0.168295 1043 -0.042360 0.936632 0.084965
-13.975192 -12.244467 -0.162573 1043 -0.023972 0.953153 0.167296
-13.975287 -12.244530 -0.156872 1043 -0.025344 0.952247 0.249325
-13.977045 -12.246033 -0.151182 1017 -0.050634 0.930622 0.331195
-13.979288 -12.247976 -0.145489 995 -0.082908 0.902656 0.413109
-13.981916 -12.250246 -0.139805 961 -0.120726 0.869998 0.494893
-13.985545 -12.253397 -0.134123 911 -0.172938 0.824661 0.576649
-13.990931 -12.258083 -0.128452 803 -0.250425 0.757231 0.658246
-13.999964 -12.258613 -0.191387 781 -0.380399 0.749615 -0.247294
-13.991476 -12.251156 -0.185566 859 -0.258274 0.856907 -0.163538
-13.988724 -12.248712 -0.179823 913 -0.218673 0.892077 -0.080905
-13.987338 -12.247470 -0.174101 949 -0.198735 0.909943 0.001426
-13.986506 -12.246710 -0.168385 965 -0.186769 0.920879 0.083670
-13.985229 -12.245561 -0.162663 965 -0.168382 0.937414 0.166001
-13.985502 -12.245772 -0.156950 955 -0.172320 0.934368 0.248203
-13.987144 -12.247175 -0.151262 937 -0.195949 0.914183 0.330044
-13.989228 -12.248974 -0.145569 895 -0.225932 0.888303 0.411958
-13.993067 -12.252307 -0.139887 837 -0.281162 0.840345 0.493713
-13.999609 -12.258002 -0.134230 731 -0.375295 0.758398 0.575109
-14.001779 -12.252549 -0.174244 745 -0.406512 0.836860 -0.000632
-13.998353 -12.249532 -0.168493 785 -0.357223 0.880276 0.082116
-13.998237 -12.249399 -0.162773 793 -0.355549 0.882183 0.164418
-14.000375 -12.251238 -0.157082 789 -0.386314 0.855727 0.246303
