74
-30.483849 -26.134640 -0.193033 999 0.872523 -0.170179 -0.171580
-30.482414 -26.133350 -0.180692 1025 0.893161 -0.151627 0.005988
-30.482977 -26.133764 -0.168369 1017 0.885065 -0.157583 0.183298
-30.487989 -26.122797 -0.217725 951 0.812942 0.000220 -0.526861
-30.487944 -26.122698 -0.205395 1077 0.813601 0.001647 -0.349451
-30.483843 -26.119116 -0.193040 1131 0.872605 0.053186 -0.171681
-30.481920 -26.117397 -0.180703 1127 0.900269 0.077913 0.005830
-30.482584 -26.117908 -0.168378 1125 0.890718 0.070558 0.183168
-30.485422 -26.120279 -0.156062 1099 0.849882 0.036445 0.360377
-30.489599 -26.123796 -0.143747 1003 0.789780 -0.014161 0.537571
-30.499361 -26.116974 -0.230125 959 0.649322 0.084006 -0.705278
-30.492882 -26.111366 -0.217754 1089 0.742549 0.164691 -0.527278
-30.486446 -26.105783 -0.205392 1147 0.835144 0.245019 -0.349408
-30.483723 -26.103395 -0.193049 1191 0.874334 0.279379 -0.171810
-30.483290 -26.102968 -0.180722 1207 0.880564 0.285526 0.005557
-30.484190 -26.103678 -0.168407 1199 0.867610 0.275317 0.182751
-30.485975 -26.105139 -0.156086 1177 0.841923 0.254295 0.360031
-30.490910 -26.109308 -0.143776 1121 0.770926 0.194303 0.537154
-30.494812 -26.112587 -0.131463 991 0.714776 0.147127 0.714319
-30.507441 -26.107529 -0.230178 995 0.533070 0.219908 -0.706041
-30.496628 -26.098215 -0.217783 1129 0.688649 0.353916 -0.527695
-30.490799 -26.093159 -0.205428 1195 0.772517 0.426670 -0.349926
-30.488476 -26.091114 -0.193093 1237 0.805944 0.456090 -0.172444
-30.488087 -26.090712 -0.180766 1239 0.811543 0.461880 0.004923
-30.488045 -26.090616 -0.168446 1223 0.812146 0.463252 0.182190
-30.490715 -26.092840 -0.156130 1215 0.773725 0.431253 0.359398
-30.494720 -26.096207 -0.143816 1165 0.716093 0.382814 0.536578
-30.501791 -26.102186 -0.131514 1063 0.614358 0.296778 0.713585
-30.510469 -26.093967 -0.230201 1045 0.489489 0.415034 -0.706372
-30.502201 -26.086826 -0.217821 1163 0.608458 0.517783 -0.528242
-30.497942 -26.083120 -0.205477 1221 0.669740 0.571107 -0.350631
-30.494276 -26.079927 -0.193129 1243 0.722487 0.617048 -0.172962
-30.491671 -26.077641 -0.180795 1253 0.759976 0.649953 0.004506
-30.494293 -26.079819 -0.168490 1249 0.722240 0.618612 0.181557
-30.497299 -26.082325 -0.156182 1205 0.678989 0.582551 0.358650
-30.500244 -26.084784 -0.143864 1177 0.636615 0.547176 0.535887
-30.507595 -26.091003 -0.131560 1109 0.530847 0.457681 0.712923
-30.517876 -26.083849 -0.230250 1059 0.382924 0.560623 -0.707077
-30.509203 -26.076376 -0.217872 1153 0.507712 0.668148 -0.528976
-30.504786 -26.072533 -0.205519 1213 0.571271 0.723448 -0.351235
-30.502892 -26.070858 -0.193191 1243 0.598523 0.747543 -0.173854
-30.501619 -26.069710 -0.180858 1263 0.616828 0.764065 0.003600
-30.501289 -26.069365 -0.168540 1257 0.621576 0.769032 0.180837
-30.504366 -26.071922 -0.156232 1235 0.577309 0.732230 0.357931
-30.508091 -26.075047 -0.143920 1189 0.523711 0.687277 0.535082
-30.513430 -26.079548 -0.131608 1091 0.446896 0.622509 0.712233
-30.531002 -26.078295 -0.230337 1047 0.194056 0.640540 -0.708328
-30.519728 -26.068594 -0.217944 1135 0.356276 0.780119 -0.530012
-30.513226 -26.062977 -0.205584 1203 0.449832 0.860942 -0.352170
-30.510113 -26.060259 -0.193242 1231 0.494621 0.900049 -0.174587
-30.510511 -26.060541 -0.180920 1251 0.488885 0.895987 0.002708
-30.511477 -26.061302 -0.168604 1231 0.474998 0.885037 0.179916
-30.512873 -26.062429 -0.156287 1197 0.454910 0.868818 0.357139
-30.517145 -26.066021 -0.143971 1159 0.393435 0.817141 0.534348
-30.524668 -26.072380 -0.131676 1073 0.285197 0.725643 0.711254
-30.543610 -26.073225 -0.230420 977 0.012652 0.713486 -0.709523
-30.532097 -26.063339 -0.218019 1113 0.178303 0.855727 -0.531091
-30.527498 -26.059351 -0.205667 1171 0.244470 0.913112 -0.353364
-30.523441 -26.055826 -0.193322 1211 0.302843 0.963829 -0.175739
-30.522240 -26.054729 -0.180989 1219 0.320133 0.979609 0.001715
-30.522116 -26.054569 -0.168670 1213 0.321917 0.981914 0.178967
-30.524248 -26.056320 -0.156347 1175 0.291234 0.956721 0.356276
-30.529421 -26.060678 -0.144046 1111 0.216807 0.894011 0.533269
-30.540228 -26.069836 -0.131751 989 0.061310 0.762253 0.710175
-30.540972 -26.055044 -0.205745 1101 0.050606 0.975081 -0.354487
-30.537481 -26.052006 -0.193406 1145 0.100829 1.018799 -0.176947
-30.535536 -26.050280 -0.181068 1175 0.128822 1.043635 0.000578
-30.535933 -26.050564 -0.168746 1153 0.123113 1.039546 0.177873
-30.537329 -26.051693 -0.156417 1117 0.103024 1.023299 0.355269
-30.542675 -26.056189 -0.144116 1031 0.026099 0.958614 0.532262
-30.553408 -26.049461 -0.193502 1053 -0.128328 1.055409 -0.178328
-30.550745 -26.047121 -0.181158 1065 -0.090016 1.089082 -0.000717
-30.550976 -26.047258 -0.168826 1057 -0.093337 1.087106 0.176722
-30.555817 -26.051329 -0.156518 1009 -0.162989 1.028541 0.353816
