766
-6.715869 -6.013271 -0.184983 1481 0.931726 0.034813 -0.423113
-6.715524 -6.012947 -0.182206 1483 0.936687 0.039471 -0.383156
-6.714598 -6.012100 -0.179410 1495 0.950011 0.051656 -0.342925
-6.713166 -6.010809 -0.176610 1503 0.970614 0.070236 -0.302638
-6.712121 -6.009856 -0.173816 1497 0.985653 0.083944 -0.262436
-6.712267 -6.009975 -0.171044 1511 0.983554 0.082236 -0.222552
-6.711979 -6.009708 -0.168277 1517 0.987698 0.086078 -0.182738
-6.711642 -6.009391 -0.165498 1517 0.992549 0.090640 -0.142753
-6.711900 -6.009610 -0.162736 1529 0.988830 0.087484 -0.103012
-6.711562 -6.009293 -0.159959 1527 0.993694 0.092047 -0.063055
-6.711667 -6.009369 -0.157199 1521 0.992185 0.090956 -0.023343
-6.711700 -6.009388 -0.154428 1519 0.991711 0.090681 0.016528
-6.711854 -6.009500 -0.151668 1515 0.989495 0.089069 0.056240
-6.712378 -6.009962 -0.148904 1523 0.981955 0.082421 0.096010
-6.712468 -6.010024 -0.146144 1515 0.980659 0.081529 0.135722
-6.712621 -6.010150 -0.143382 1503 0.978456 0.079718 0.175463
-6.713314 -6.010756 -0.140618 1495 0.968487 0.070997 0.215233
-6.714434 -6.011740 -0.137872 1489 0.952371 0.056836 0.254744
-6.715505 -6.012689 -0.135125 1479 0.936961 0.043183 0.294269
-6.717124 -6.014124 -0.132386 1471 0.913668 0.022538 0.333679
-6.718300 -6.015166 -0.129640 1453 0.896749 0.007547 0.373190
-6.719315 -6.016057 -0.126884 1439 0.882142 -0.005276 0.412844
-6.721095 -6.017642 -0.124143 1411 0.856530 -0.028082 0.452283
-6.722767 -6.019120 -0.121404 1385 0.832475 -0.049351 0.491693
-6.724757 -6.020891 -0.118663 1361 0.803838 -0.074833 0.531132
-6.726368 -6.022319 -0.115913 1315 0.780661 -0.095374 0.570700
-6.728414 -6.024133 -0.113172 1269 0.751221 -0.121480 0.610139
-6.732051 -6.027370 -0.110450 1213 0.698892 -0.168053 0.649305
-6.736374 -6.031237 -0.107734 1109 0.636691 -0.223695 0.688384
-6.743681 -6.034549 -0.216243 989 0.531553 -0.271351 -0.872897
-6.738339 -6.029754 -0.213306 1165 0.608417 -0.202357 -0.830638
-6.734308 -6.026125 -0.210408 1239 0.666419 -0.150139 -0.788940
-6.730809 -6.022983 -0.207528 1299 0.716758 -0.104932 -0.747501
-6.728460 -6.020871 -0.204682 1347 0.750562 -0.074544 -0.706552
-6.726440 -6.019051 -0.201854 1379 0.779625 -0.048356 -0.665861
-6.724092 -6.016924 -0.199018 1409 0.813409 -0.017749 -0.625055
-6.721791 -6.014862 -0.196181 1427 0.846520 0.011917 -0.584235
-6.719883 -6.013143 -0.193362 1457 0.873971 0.036651 -0.543674
-6.717962 -6.011409 -0.190534 1467 0.901613 0.061605 -0.502983
-6.716811 -6.010362 -0.187741 1483 0.918169 0.076664 -0.462796
-6.716046 -6.009666 -0.184945 1493 0.929181 0.086681 -0.422566
-6.715548 -6.009198 -0.182168 1507 0.936344 0.093412 -0.382609
-6.714936 -6.008646 -0.179381 1521 0.945153 0.101357 -0.342508
-6.713891 -6.007691 -0.176587 1523 0.960185 0.115100 -0.302307
-6.713224 -6.007081 -0.173802 1527 0.969784 0.123875 -0.262235
-6.712613 -6.006514 -0.171025 1533 0.978573 0.132032 -0.222278
-6.712486 -6.006397 -0.168256 1533 0.980405 0.133720 -0.182436
-6.711938 -6.005894 -0.165479 1529 0.988288 0.140952 -0.142480
-6.711656 -6.005619 -0.162702 1521 0.992343 0.144910 -0.102523
-6.712020 -6.005931 -0.159940 1533 0.987108 0.140423 -0.062782
-6.712173 -6.006057 -0.157178 1541 0.984905 0.138612 -0.023041
-6.711892 -6.005784 -0.154410 1529 0.988947 0.142537 0.016787
-6.711700 -6.005601 -0.151631 1527 0.991711 0.145171 0.056772
-6.712289 -6.006114 -0.148877 1521 0.983238 0.137789 0.096398
-6.712813 -6.006577 -0.146125 1517 0.975698 0.131127 0.135995
-6.713345 -6.007032 -0.143371 1513 0.968041 0.124581 0.175621
-6.714479 -6.008031 -0.140624 1513 0.951726 0.110208 0.215146
-6.715214 -6.008679 -0.137870 1501 0.941153 0.100884 0.254772
-6.715417 -6.008841 -0.135099 1491 0.938230 0.098551 0.294643
-6.716704 -6.009983 -0.132361 1483 0.919713 0.082119 0.334039
-6.718211 -6.011318 -0.129613 1469 0.898025 0.062908 0.373578
-6.719780 -6.012702 -0.126874 1455 0.875452 0.042998 0.412988
-6.721278 -6.014030 -0.124126 1427 0.853895 0.023890 0.452528
-6.722833 -6.015415 -0.121387 1411 0.831522 0.003959 0.491938
-6.724773 -6.017136 -0.118646 1383 0.803611 -0.020802 0.531377
-6.726552 -6.018707 -0.115905 1355 0.778013 -0.043402 0.570815
-6.729089 -6.020964 -0.113170 1327 0.741513 -0.075882 0.610168
-6.731961 -6.023522 -0.110433 1267 0.700189 -0.112685 0.649549
-6.735367 -6.026552 -0.107703 1189 0.651181 -0.156286 0.688830
-6.740146 -6.030812 -0.104995 1075 0.582414 -0.217575 0.727794
-6.741966 -6.029228 -0.216147 1123 0.556232 -0.194790 -0.871516
-6.737374 -6.025112 -0.213233 1223 0.622303 -0.135566 -0.829587
-6.733014 -6.021191 -0.210328 1279 0.685033 -0.079148 -0.787789
-6.729304 -6.017862 -0.207440 1321 0.738418 -0.031245 -0.746235
-6.727719 -6.016429 -0.204619 1365 0.761224 -0.010628 -0.705645
-6.726295 -6.015146 -0.201808 1407 0.781711 0.007835 -0.665199
-6.724339 -6.013376 -0.198979 1433 0.809855 0.033296 -0.624494
-6.722361 -6.011600 -0.196160 1447 0.838314 0.058853 -0.583933
-6.721042 -6.010411 -0.193349 1473 0.857291 0.075965 -0.543487
-6.718862 -6.008441 -0.190522 1477 0.888660 0.104307 -0.502810
-6.717164 -6.006907 -0.187711 1491 0.913092 0.126379 -0.462364
-6.716342 -6.006155 -0.184917 1507 0.924920 0.137199 -0.422163
-6.715241 -6.005158 -0.182122 1517 0.940762 0.151545 -0.381947
-6.714623 -6.004597 -0.179347 1525 0.949654 0.159614 -0.342019
-6.714236 -6.004230 -0.176568 1525 0.955225 0.164896 -0.302033
-6.713570 -6.003619 -0.173783 1525 0.964803 0.173685 -0.261962
-6.712853 -6.002973 -0.170997 1531 0.975122 0.182982 -0.221875
-6.712684 -6.002799 -0.168227 1551 0.977551 0.185486 -0.182019
-6.712501 -6.002625 -0.165460 1547 0.980185 0.187990 -0.142206
-6.712373 -6.002493 -0.162690 1537 0.982031 0.189891 -0.102350
-6.712414 -6.002519 -0.159919 1549 0.981441 0.189514 -0.062479
-6.712456 -6.002545 -0.157159 1549 0.980830 0.189143 -0.022767
-6.712335 -6.002421 -0.154389 1545 0.982573 0.190927 0.017089
-6.712152 -6.002246 -0.151622 1539 0.985207 0.193445 0.056902
-6.712409 -6.002466 -0.148860 1537 0.981509 0.190275 0.096643
-6.713327 -6.003272 -0.146113 1537 0.968302 0.178680 0.136168
-6.714455 -6.004264 -0.143367 1541 0.952069 0.164409 0.175679
-6.714657 -6.004426 -0.140607 1529 0.949167 0.162077 0.215391
-6.715188 -6.004881 -0.137843 1515 0.941524 0.155531 0.255161
-6.715874 -6.005479 -0.135089 1507 0.931651 0.146928 0.294787
-6.716552 -6.006084 -0.132335 1491 0.921901 0.138221 0.334413
-6.718115 -6.007463 -0.129596 1477 0.899411 0.118379 0.373823
-6.719627 -6.008804 -0.126847 1463 0.877655 0.099086 0.413377
-6.721189 -6.010182 -0.124108 1449 0.855178 0.079258 0.452787
-6.723291 -6.012053 -0.121377 1435 0.824935 0.052335 0.492082
-6.724628 -6.013231 -0.118629 1411 0.805697 0.035389 0.531621
-6.726576 -6.014959 -0.115888 1371 0.777670 0.010525 0.571060
-6.729651 -6.017696 -0.113160 1355 0.733424 -0.028857 0.610312
-6.731761 -6.019560 -0.110417 1293 0.703064 -0.055677 0.649779
-6.734955 -6.022404 -0.107688 1237 0.657109 -0.096602 0.689046
-6.739244 -6.026220 -0.104974 1157 0.595395 -0.151504 0.728096
-6.746455 -6.029480 -0.219014 1045 0.491636 -0.198412 -0.912767
-6.740679 -6.024300 -0.216067 1175 0.574750 -0.123882 -0.870364
-6.736479 -6.020528 -0.213162 1261 0.635181 -0.069605 -0.828566
-6.732763 -6.017192 -0.210273 1313 0.688649 -0.021605 -0.786997
-6.729433 -6.014206 -0.207402 1351 0.736559 0.021358 -0.745688
-6.727307 -6.012294 -0.204576 1381 0.767152 0.048871 -0.705026
-6.725435 -6.010612 -0.201745 1419 0.794088 0.073069 -0.664293
-6.723527 -6.008892 -0.198917 1433 0.821539 0.097817 -0.623602
-6.722216 -6.007696 -0.196115 1461 0.840400 0.115024 -0.583285
-6.720736 -6.006369 -0.193303 1483 0.861696 0.134118 -0.542825
-6.719038 -6.004836 -0.190494 1493 0.886128 0.156176 -0.502408
-6.717720 -6.003646 -0.187692 1507 0.905092 0.173301 -0.462091
-6.716849 -6.002842 -0.184896 1515 0.917627 0.184869 -0.421861
-6.716183 -6.002232 -0.182111 1523 0.927205 0.193644 -0.381789
-6.715677 -6.001772 -0.179334 1533 0.934491 0.200265 -0.341832
-6.715234 -6.001362 -0.176557 1541 0.940865 0.206165 -0.301875
-6.715114 -6.001237 -0.173787 1551 0.942587 0.207963 -0.262019
-6.714937 -6.001070 -0.171018 1561 0.945132 0.210364 -0.222177
-6.714270 -6.000460 -0.168231 1565 0.954731 0.219139 -0.182077
-6.713393 -5.999663 -0.165446 1555 0.967348 0.230611 -0.142005
-6.713203 -5.999483 -0.162677 1547 0.970086 0.233197 -0.102163
-6.713251 -5.999501 -0.159907 1555 0.969393 0.232937 -0.062307
-6.713452 -5.999677 -0.157146 1555 0.966504 0.230405 -0.022580
-6.713550 -5.999747 -0.154386 1549 0.965091 0.229403 0.017132
-6.713646 -5.999815 -0.151626 1545 0.963712 0.228422 0.056844
-6.714178 -6.000270 -0.148862 1545 0.956055 0.221877 0.096614
-6.714921 -6.000926 -0.146117 1551 0.945366 0.212436 0.136110
-6.715234 -6.001188 -0.143355 1551 0.940865 0.208669 0.175851
-6.715212 -6.001164 -0.140586 1529 0.941181 0.209012 0.215693
-6.715898 -6.001762 -0.137832 1519 0.931308 0.200409 0.255319
-6.717089 -6.002804 -0.135085 1511 0.914169 0.185418 0.294844
-6.717669 -6.003309 -0.132333 1501 0.905826 0.178152 0.334441
-6.718361 -6.003915 -0.129579 1493 0.895871 0.169432 0.374067
-6.719699 -6.005093 -0.126830 1485 0.876619 0.152478 0.413621
-6.721535 -6.006721 -0.124099 1475 0.850197 0.129055 0.452916
-6.723748 -6.008692 -0.121368 1457 0.818356 0.100698 0.492211
-6.725465 -6.010213 -0.118617 1429 0.793656 0.078812 0.531794
-6.727419 -6.011935 -0.115876 1399 0.765540 0.054030 0.571233
-6.729682 -6.013941 -0.113143 1375 0.732978 0.025173 0.610557
-6.732162 -6.016156 -0.110408 1329 0.697294 -0.006703 0.649909
-6.735631 -6.019236 -0.107678 1281 0.647380 -0.051018 0.689190
-6.738819 -6.022072 -0.104949 1211 0.601508 -0.091820 0.728456
-6.742889 -6.025696 -0.102225 1111 0.542949 -0.143964 0.767650
-6.745265 -6.024766 -0.218932 1139 0.508761 -0.130585 -0.911587
-6.740582 -6.020571 -0.216020 1227 0.576143 -0.070229 -0.869688
-6.737195 -6.017529 -0.213140 1299 0.624876 -0.026456 -0.828249
-6.733422 -6.014150 -0.210252 1333 0.679167 0.022161 -0.786695
-6.729868 -6.010965 -0.207372 1373 0.730302 0.067992 -0.745256
-6.727413 -6.008759 -0.204536 1407 0.765622 0.099731 -0.704451
-6.725717 -6.007226 -0.201716 1437 0.790027 0.121789 -0.663875
-6.724349 -6.005986 -0.198905 1451 0.809711 0.139628 -0.623429
-6.722819 -6.004611 -0.196094 1477 0.831728 0.159415 -0.582983
-6.721228 -6.003170 -0.193282 1503 0.854616 0.180148 -0.542523
-6.719691 -6.001787 -0.190471 1505 0.876735 0.200045 -0.502077
-6.718533 -6.000748 -0.187678 1515 0.893394 0.214995 -0.461889
-6.717551 -5.999844 -0.184884 1527 0.907521 0.228004 -0.421688
-6.716940 -5.999291 -0.182098 1533 0.916316 0.235962 -0.381602
-6.716876 -5.999224 -0.179328 1565 0.917236 0.236923 -0.341746
-6.716216 -5.998620 -0.176541 1557 0.926731 0.245616 -0.301645
-6.715654 -5.998103 -0.173766 1561 0.934820 0.253053 -0.261717
-6.715428 -5.997886 -0.170997 1573 0.938073 0.256175 -0.221875
-6.714600 -5.997125 -0.168212 1565 0.949983 0.267125 -0.181803
-6.714255 -5.996815 -0.165433 1557 0.954950 0.271584 -0.141818
-6.714465 -5.996984 -0.162673 1567 0.951925 0.269156 -0.102105
-6.714667 -5.997146 -0.159911 1569 0.949023 0.266823 -0.062364
-6.714491 -5.996979 -0.157142 1565 0.951554 0.269224 -0.022523
-6.714322 -5.996805 -0.154374 1565 0.953983 0.271729 0.017305
-6.714405 -5.996874 -0.151612 1565 0.952789 0.270741 0.057046
-6.715097 -5.997480 -0.148858 1563 0.942834 0.262020 0.096672
-6.716008 -5.998278 -0.146113 1573 0.929723 0.250535 0.136168
-6.715838 -5.998104 -0.143344 1551 0.932172 0.253039 0.176010
-6.715704 -5.997980 -0.140575 1535 0.934100 0.254823 0.215851
-6.715962 -5.998184 -0.137815 1523 0.930388 0.251887 0.255564
-6.716921 -5.999033 -0.135068 1521 0.916591 0.239674 0.295089
-6.718209 -6.000175 -0.132321 1515 0.898059 0.223242 0.334614
-6.719225 -6.001067 -0.129575 1507 0.883439 0.210405 0.374125
-6.720240 -6.001958 -0.126819 1495 0.868832 0.197589 0.413780
-6.722237 -6.003723 -0.124087 1487 0.840098 0.172190 0.453089
-6.724289 -6.005543 -0.121356 1471 0.810575 0.146001 0.492384
-6.725417 -6.006535 -0.118600 1441 0.794342 0.131731 0.532038
-6.727196 -6.008106 -0.115859 1411 0.768744 0.109124 0.571477
-6.730062 -6.010657 -0.113132 1391 0.727509 0.072424 0.610715
-6.733032 -6.013300 -0.110404 1357 0.684772 0.034394 0.649967
-6.735688 -6.015651 -0.107669 1303 0.646557 0.000563 0.689319
-6.738665 -6.018301 -0.104932 1241 0.603724 -0.037564 0.728700
-6.742505 -6.021718 -0.102210 1157 0.548473 -0.086729 0.767866
-6.748434 -6.026993 -0.099515 1007 0.463163 -0.162625 0.806643
-6.744823 -6.020759 -0.218877 1183 0.515121 -0.072932 -0.910796
-6.740190 -6.016600 -0.215964 1253 0.581783 -0.013091 -0.868882
-6.736368 -6.013172 -0.213077 1309 0.636773 0.036233 -0.827343
-6.733206 -6.010344 -0.210204 1353 0.682275 0.076925 -0.786005
-6.730745 -6.008131 -0.207358 1393 0.717685 0.108767 -0.745055
-6.728179 -6.005826 -0.204515 1415 0.754603 0.141933 -0.704148
-6.726369 -6.004192 -0.201696 1437 0.780648 0.165445 -0.663587
-6.725106 -6.003059 -0.198892 1477 0.798822 0.181747 -0.623242
-6.723408 -6.001526 -0.196073 1503 0.823247 0.203805 -0.582681
-6.721768 -6.000050 -0.193261 1509 0.846849 0.225040 -0.542220
-6.720351 -5.998760 -0.190450 1519 0.867233 0.243599 -0.501774
-6.719080 -5.997620 -0.187657 1527 0.885524 0.260003 -0.461587
-6.718147 -5.996767 -0.184863 1529 0.898951 0.272277 -0.421386
-6.717691 -5.996356 -0.182086 1535 0.905510 0.278192 -0.381429
-6.717094 -5.995804 -0.179299 1553 0.914100 0.286137 -0.341328
-6.716749 -5.995479 -0.176530 1567 0.919061 0.290809 -0.301487
-6.716797 -5.995512 -0.173760 1569 0.918375 0.290336 -0.261631
-6.716130 -5.994902 -0.170985 1581 0.927973 0.299111 -0.221702
-6.715680 -5.994484 -0.168206 1569 0.934443 0.305128 -0.181717
-6.715785 -5.994560 -0.165446 1559 0.932934 0.304037 -0.142005
-6.715713 -5.994487 -0.162677 1563 0.933970 0.305087 -0.102163
-6.716084 -5.994806 -0.159915 1587 0.928632 0.300497 -0.062422
-6.716503 -5.995161 -0.157163 1597 0.922601 0.295385 -0.022825
-6.715998 -5.994700 -0.154386 1581 0.929867 0.302020 0.017132
-6.715386 -5.994133 -0.151609 1565 0.938676 0.310177 0.057089
-6.715862 -5.994545 -0.148856 1571 0.931829 0.304250 0.096700
-6.716548 -5.995144 -0.146102 1561 0.921956 0.295632 0.136326
-6.716911 -5.995456 -0.143340 1561 0.916735 0.291138 0.176067
-6.717274 -5.995768 -0.140578 1555 0.911507 0.286651 0.215808
-6.717701 -5.996130 -0.137826 1537 0.905366 0.281444 0.255405
-6.718281 -5.996635 -0.135072 1529 0.897023 0.274178 0.295031
-6.719353 -5.997584 -0.132327 1523 0.881593 0.260525 0.334528
-6.720143 -5.998275 -0.129571 1519 0.870231 0.250583 0.374182
-6.721335 -5.999317 -0.126824 1517 0.853079 0.235585 0.413707
-6.722833 -6.000645 -0.124076 1499 0.831522 0.216477 0.453247
-6.724290 -6.001930 -0.121337 1481 0.810561 0.197987 0.492657
-6.726399 -6.003794 -0.118606 1459 0.780215 0.171167 0.531952
-6.728823 -6.005951 -0.115871 1433 0.745334 0.140135 0.571305
-6.730987 -6.007859 -0.113130 1415 0.714199 0.112678 0.610744
-6.732598 -6.009286 -0.110379 1377 0.691023 0.092150 0.650326
-6.735254 -6.011637 -0.107654 1333 0.652807 0.058318 0.689535
-6.738491 -6.014524 -0.104924 1271 0.606228 0.016782 0.728815
-6.741854 -6.017510 -0.102195 1203 0.557838 -0.026181 0.768082
-6.746794 -6.021906 -0.099477 1113 0.486758 -0.089433 0.807190
-6.752344 -6.026838 -0.096774 839 0.406903 -0.160396 0.846082
-6.744741 -6.016904 -0.218831 1215 0.516301 -0.017461 -0.910134
-6.740423 -6.013039 -0.215926 1277 0.578427 0.038147 -0.868336
-6.736988 -6.009961 -0.213046 1329 0.627854 0.082435 -0.826897
-6.734358 -6.007604 -0.210200 1369 0.665699 0.116348 -0.785947
-6.732072 -6.005542 -0.207355 1403 0.698590 0.146022 -0.745012
-6.729932 -6.003630 -0.204526 1423 0.729382 0.173528 -0.704307
-6.727752 -6.001660 -0.201690 1453 0.760744 0.201877 -0.663501
-6.725935 -6.000033 -0.198871 1477 0.786891 0.225287 -0.622940
-6.724624 -5.998851 -0.196067 1503 0.805752 0.242295 -0.582595
-6.722982 -5.997361 -0.193257 1523 0.829381 0.263729 -0.542163
-6.722105 -5.996564 -0.190463 1533 0.841998 0.275200 -0.501962
-6.720786 -5.995375 -0.187659 1537 0.860976 0.292305 -0.461616
-6.718969 -5.993748 -0.184850 1541 0.887123 0.315714 -0.421199
-6.718639 -5.993438 -0.182073 1549 0.891871 0.320181 -0.381242
-6.718567 -5.993363 -0.179303 1563 0.892907 0.321258 -0.341386
-6.718454 -5.993247 -0.176534 1573 0.894533 0.322925 -0.301544
-6.718068 -5.992880 -0.173757 1565 0.900083 0.328208 -0.261587
-6.717450 -5.992320 -0.170980 1575 0.908975 0.336263 -0.221631
-6.716839 -5.991766 -0.168202 1571 0.917771 0.344235 -0.181659
-6.716670 -5.991592 -0.165435 1571 0.920200 0.346740 -0.141846
-6.716864 -5.991761 -0.162673 1569 0.917407 0.344304 -0.102105
-6.716695 -5.991587 -0.159904 1589 0.919843 0.346808 -0.062264
-6.716905 -5.991756 -0.157144 1583 0.916817 0.344379 -0.022551
-6.717156 -5.991968 -0.154382 1583 0.913208 0.341326 0.017190
-6.717196 -5.991994 -0.151622 1579 0.912632 0.340956 0.056902
-6.717287 -5.992056 -0.148851 1575 0.911322 0.340064 0.096772
-6.717328 -5.992082 -0.146091 1559 0.910732 0.339686 0.136485
-6.717579 -5.992295 -0.143329 1557 0.907123 0.336626 0.176226
-6.718552 -5.993143 -0.140584 1553 0.893119 0.324421 0.215722
-6.719568 -5.994034 -0.137837 1539 0.878506 0.311604 0.255247
-6.720478 -5.994833 -0.135093 1539 0.865408 0.300106 0.294729
-6.720994 -5.995288 -0.132329 1543 0.857984 0.293560 0.334499
-6.721421 -5.995651 -0.129567 1525 0.851844 0.288339 0.374240
-6.722164 -5.996292 -0.126813 1515 0.841148 0.279111 0.413866
-6.723444 -5.997426 -0.124076 1497 0.822733 0.262796 0.453247
-6.725014 -5.998811 -0.121326 1481 0.800140 0.242871 0.492815
-6.726898 -6.000475 -0.118596 1459 0.773032 0.218927 0.532096
-6.728790 -6.002147 -0.115855 1445 0.745815 0.194865 0.571535
-6.731059 -6.004160 -0.113122 1421 0.713163 0.165905 0.610859
-6.733820 -6.006605 -0.110385 1391 0.673438 0.130722 0.650240
-6.736356 -6.008862 -0.107650 1343 0.636952 0.098249 0.689593
-6.739993 -6.012085 -0.104930 1299 0.584616 0.051876 0.728729
-6.743293 -6.015022 -0.102201 1249 0.537138 0.009619 0.767995
-6.746754 -6.018095 -0.099469 1153 0.487334 -0.034600 0.807305
-6.752200 -6.022934 -0.096759 979 0.408975 -0.104225 0.846298
-6.745318 -6.013720 -0.218810 1229 0.508000 0.028350 -0.909832
-6.740516 -6.009418 -0.215888 1289 0.577090 0.090249 -0.867789
-6.737458 -6.006683 -0.213016 1343 0.621089 0.129604 -0.826465
-6.734941 -6.004428 -0.210170 1381 0.657308 0.162049 -0.785515
-6.732157 -6.001929 -0.207316 1413 0.697362 0.198007 -0.744451
-6.730403 -6.000352 -0.204496 1441 0.722604 0.220697 -0.703875
-6.728433 -5.998584 -0.201667 1469 0.750946 0.246137 -0.663170
-6.726245 -5.996607 -0.198840 1487 0.782431 0.274583 -0.622494
-6.725045 -5.995525 -0.196038 1509 0.799694 0.290150 -0.582177
-6.724105 -5.994678 -0.193242 1525 0.813223 0.302335 -0.541947
-6.722519 -5.993244 -0.190433 1535 0.836043 0.322966 -0.501530
-6.721579 -5.992398 -0.187648 1533 0.849566 0.335144 -0.461458
-6.721186 -5.992038 -0.184871 1563 0.855219 0.340325 -0.421501
-6.719979 -5.990948 -0.182067 1569 0.872591 0.356002 -0.381156
-6.719039 -5.990088 -0.179282 1571 0.886114 0.368379 -0.341084
-6.718322 -5.989440 -0.176498 1573 0.896433 0.377703 -0.301026
-6.717712 -5.988874 -0.173720 1573 0.905208 0.385847 -0.261055
-6.717914 -5.989049 -0.170959 1585 0.902299 0.383329 -0.221328
-6.718179 -5.989262 -0.168199 1591 0.898485 0.380262 -0.181616
-6.718003 -5.989095 -0.165429 1601 0.901023 0.382664 -0.141760
-6.717826 -5.988928 -0.162660 1593 0.903569 0.385072 -0.101918
-6.717706 -5.988804 -0.159900 1597 0.905291 0.386856 -0.062206
-6.717369 -5.988487 -0.157123 1585 0.910141 0.391418 -0.022249
-6.717676 -5.988741 -0.154370 1583 0.905723 0.387761 0.017362
-6.717934 -5.988960 -0.151610 1579 0.902011 0.384612 0.057074
-6.717800 -5.988837 -0.148841 1575 0.903939 0.386382 0.096916
-6.718444 -5.989392 -0.146087 1577 0.894677 0.378396 0.136542
-6.719080 -5.989941 -0.143333 1575 0.885524 0.370492 0.176168
-6.719395 -5.990217 -0.140580 1569 0.880989 0.366520 0.215780
-6.720248 -5.990958 -0.137826 1559 0.868715 0.355858 0.255405
-6.721593 -5.992143 -0.135089 1559 0.849367 0.338808 0.294787
-6.722398 -5.992848 -0.132333 1557 0.837786 0.328668 0.334441
-6.722705 -5.993104 -0.129573 1539 0.833367 0.324983 0.374154
-6.723665 -5.993952 -0.126826 1525 0.819549 0.312785 0.413679
-6.725177 -5.995280 -0.124078 1523 0.797800 0.293677 0.453218
-6.726347 -5.996314 -0.121331 1503 0.780963 0.278795 0.492744
-6.727965 -5.997735 -0.118592 1481 0.757684 0.258350 0.532154
-6.729422 -5.999020 -0.115844 1471 0.736717 0.239859 0.571693
-6.730920 -6.000347 -0.113095 1441 0.715167 0.220765 0.611247
-6.733632 -6.002741 -0.110370 1409 0.676141 0.186323 0.650456
-6.736449 -6.005242 -0.107642 1367 0.635614 0.150338 0.689708
-6.739804 -6.008222 -0.104913 1325 0.587340 0.107456 0.728974
-6.742790 -6.010865 -0.102176 1267 0.544370 0.069426 0.768355
-6.746476 -6.014139 -0.099454 1185 0.491334 0.022319 0.807521
-6.752559 -6.019543 -0.096749 1061 0.403809 -0.055437 0.846441
-6.744974 -6.009926 -0.218753 1247 0.512946 0.082942 -0.909012
-6.741426 -6.006748 -0.215873 1315 0.563999 0.128664 -0.867573
-6.738586 -6.004206 -0.213010 1359 0.604863 0.165240 -0.826379
-6.735634 -6.001564 -0.210147 1389 0.647339 0.203256 -0.785184
-6.733236 -5.999401 -0.207311 1433 0.681843 0.234377 -0.744379
-6.731097 -5.997488 -0.204473 1453 0.712614 0.261904 -0.703544
-6.729078 -5.995669 -0.201655 1471 0.741670 0.288078 -0.662997
-6.727870 -5.994580 -0.198852 1493 0.759049 0.303749 -0.622667
-6.726930 -5.993733 -0.196057 1521 0.772572 0.315934 -0.582451
-6.725240 -5.992207 -0.193238 1533 0.796888 0.337889 -0.541890
-6.723802 -5.990923 -0.190436 1543 0.817580 0.356365 -0.501573
-6.722980 -5.990170 -0.187652 1555 0.829409 0.367199 -0.461516
-6.722426 -5.989660 -0.184863 1569 0.837381 0.374540 -0.421386
-6.721703 -5.989006 -0.182078 1567 0.847782 0.383947 -0.381314
-6.720994 -5.988353 -0.179303 1577 0.857984 0.393346 -0.341386
-6.720537 -5.987943 -0.176524 1585 0.864557 0.399240 -0.301400
-6.719548 -5.987047 -0.173730 1583 0.878787 0.412131 -0.261199
-6.718936 -5.986479 -0.170955 1589 0.887596 0.420310 -0.221271
-6.719524 -5.986991 -0.168201 1599 0.879137 0.412941 -0.181645
-6.719565 -5.987017 -0.165441 1603 0.878547 0.412564 -0.141933
-6.719227 -5.986700 -0.162664 1599 0.883411 0.417126 -0.101976
-6.718778 -5.986283 -0.159896 1589 0.889867 0.423130 -0.062149
-6.718490 -5.986016 -0.157117 1581 0.894011 0.426972 -0.022163
-6.718803 -5.986278 -0.154365 1597 0.889511 0.423198 0.017434
-6.718781 -5.986253 -0.151595 1583 0.889826 0.423562 0.057290
-6.718654 -5.986123 -0.148837 1565 0.891651 0.425428 0.096974
-6.719564 -5.986921 -0.146091 1573 0.878560 0.413950 0.136485
-6.720594 -5.987813 -0.143346 1577 0.863741 0.401113 0.175981
-6.721174 -5.988318 -0.140592 1575 0.855398 0.393847 0.215607
-6.721867 -5.988924 -0.137837 1573 0.845422 0.385127 0.255247
-6.722672 -5.989629 -0.135083 1565 0.833841 0.374986 0.294873
-6.723246 -5.990128 -0.132329 1555 0.825580 0.367803 0.334499
-6.723826 -5.990632 -0.129577 1535 0.817237 0.360551 0.374096
-6.724842 -5.991524 -0.126821 1527 0.802616 0.347714 0.413751
-6.725759 -5.992315 -0.124076 1519 0.789423 0.336338 0.453247
-6.727320 -5.993693 -0.121337 1507 0.766960 0.316510 0.492657
-6.728820 -5.995021 -0.118589 1487 0.745382 0.297402 0.532197
-6.730332 -5.996349 -0.115838 1465 0.723626 0.278295 0.571780
-6.732329 -5.998113 -0.113107 1439 0.694892 0.252909 0.611074
-6.734543 -6.000071 -0.110364 1411 0.663037 0.224738 0.650542
-6.737254 -6.002478 -0.107638 1377 0.624025 0.190104 0.689765
-6.740659 -6.005494 -0.104909 1343 0.575031 0.146708 0.729031
-6.743757 -6.008237 -0.102182 1293 0.530463 0.107244 0.768269
-6.747379 -6.011460 -0.099450 1219 0.478347 0.060870 0.807578
-6.752656 -6.016143 -0.096740 1087 0.402416 -0.006511 0.846571
-6.746052 -6.007412 -0.218747 1261 0.497441 0.119113 -0.908926
-6.742442 -6.004183 -0.215858 1319 0.549378 0.165576 -0.867357
-6.739434 -6.001484 -0.212997 1365 0.592664 0.204409 -0.826192
-6.736972 -5.999286 -0.210151 1405 0.628087 0.236031 -0.785242
-6.734350 -5.996937 -0.207305 1437 0.665809 0.269835 -0.744292
-6.732596 -5.995361 -0.204486 1459 0.691050 0.292510 -0.703731
-6.731011 -5.993927 -0.201665 1489 0.713856 0.313141 -0.663141
-6.729096 -5.992215 -0.198846 1503 0.741410 0.337772 -0.622580
-6.728051 -5.991262 -0.196052 1525 0.756442 0.351487 -0.582379
-6.726627 -5.989979 -0.193240 1535 0.776936 0.369950 -0.541918
-6.724768 -5.988310 -0.190431 1539 0.803680 0.393964 -0.501501
-6.723772 -5.987420 -0.187636 1553 0.818012 0.406766 -0.461285
-6.722993 -5.986710 -0.184852 1559 0.829223 0.416982 -0.421228
-6.722606 -5.986342 -0.182075 1567 0.834787 0.422279 -0.381271
-6.722148 -5.985932 -0.179298 1587 0.841381 0.428179 -0.341314
-6.721055 -5.984942 -0.176503 1585 0.857106 0.442423 -0.301098
-6.720009 -5.983988 -0.173709 1579 0.872159 0.456151 -0.260897
-6.719882 -5.983872 -0.170949 1579 0.873984 0.457819 -0.221184
-6.720091 -5.984041 -0.168189 1583 0.870979 0.455383 -0.181472
-6.719922 -5.983867 -0.165420 1597 0.873408 0.457887 -0.141631
-6.719633 -5.983600 -0.162652 1599 0.877566 0.461729 -0.101803
-6.719079 -5.983089 -0.159875 1591 0.885538 0.469084 -0.061846
-6.718951 -5.982972 -0.157106 1585 0.887377 0.470765 -0.022005
-6.719482 -5.983428 -0.154353 1597 0.879741 0.464206 0.017607
-6.719621 -5.983539 -0.151591 1587 0.877737 0.462608 0.057348
-6.719565 -5.983466 -0.148831 1585 0.878547 0.463657 0.097060
-6.720306 -5.984121 -0.146077 1583 0.867885 0.454237 0.136686
-6.721546 -5.985213 -0.143340 1585 0.850039 0.438526 0.176067
-6.722511 -5.986054 -0.140596 1577 0.836160 0.426423 0.215549
-6.722932 -5.986410 -0.137834 1567 0.830101 0.421298 0.255290
-6.723617 -5.987008 -0.135079 1553 0.820242 0.412694 0.294931
-6.724591 -5.987857 -0.132333 1553 0.806232 0.400481 0.334441
-6.725276 -5.988455 -0.129579 1549 0.796373 0.391878 0.374067
-6.725907 -5.989010 -0.126826 1539 0.787296 0.383892 0.413679
-6.727257 -5.990188 -0.124078 1519 0.767873 0.366938 0.453218
-6.728602 -5.991372 -0.121341 1503 0.748518 0.349902 0.492600
-6.729667 -5.992314 -0.118585 1483 0.733190 0.336352 0.532254
-6.731396 -5.993834 -0.115844 1467 0.708312 0.314479 0.571693
-6.733716 -5.995886 -0.113111 1445 0.674934 0.284957 0.611017
-6.736210 -5.998100 -0.110375 1423 0.639051 0.253101 0.650384
-6.738368 -6.000000 -0.107633 1391 0.607998 0.225760 0.689837
-6.741016 -6.002344 -0.104909 1347 0.569899 0.192032 0.729031
-6.744267 -6.005230 -0.102170 1299 0.523121 0.150509 0.768441
-6.747855 -6.008404 -0.099448 1233 0.471492 0.104842 0.807607
-6.752522 -6.012548 -0.096732 1127 0.404344 0.045214 0.846686
-6.758725 -6.018061 -0.094026 917 0.315090 -0.034113 0.885621
-6.746810 -6.004457 -0.218724 1287 0.486532 0.161631 -0.908595
-6.743256 -6.001285 -0.215846 1347 0.537666 0.207270 -0.867185
-6.740254 -5.998593 -0.212983 1381 0.580863 0.246007 -0.825990
-6.737835 -5.996438 -0.210137 1415 0.615669 0.277012 -0.785041
-6.735324 -5.994188 -0.207292 1445 0.651799 0.309388 -0.744105
-6.733130 -5.992219 -0.204455 1457 0.683366 0.337717 -0.703285
-6.731222 -5.990500 -0.201636 1491 0.710817 0.362451 -0.662724
-6.729307 -5.988788 -0.198817 1505 0.738370 0.387082 -0.622163
-6.728149 -5.987748 -0.196014 1521 0.755036 0.402046 -0.581832
-6.727216 -5.986895 -0.193219 1537 0.768463 0.414320 -0.541616
-6.726058 -5.985855 -0.190425 1543 0.785121 0.429284 -0.501415
-6.725448 -5.985301 -0.187640 1557 0.793896 0.437256 -0.461343
-6.724627 -5.984548 -0.184854 1563 0.805711 0.448090 -0.421256
-6.723798 -5.983802 -0.182069 1573 0.817642 0.458827 -0.381185
-6.722963 -5.983047 -0.179284 1581 0.829655 0.469688 -0.341113
-6.722079 -5.982245 -0.176499 1589 0.842376 0.481228 -0.301041
-6.721468 -5.981677 -0.173722 1581 0.851165 0.489400 -0.261084
-6.721410 -5.981617 -0.170953 1601 0.852002 0.490264 -0.221242
-6.720961 -5.981199 -0.168176 1599 0.858458 0.496281 -0.181285
-6.721114 -5.981326 -0.165414 1601 0.856255 0.494449 -0.141544
-6.721477 -5.981638 -0.162664 1607 0.851034 0.489962 -0.101976
-6.721196 -5.981364 -0.159894 1607 0.855075 0.493907 -0.062120
-6.720795 -5.980997 -0.157117 1601 0.860845 0.499183 -0.022163
-6.720562 -5.980772 -0.154347 1589 0.864200 0.502422 0.017693
-6.721367 -5.981478 -0.151603 1599 0.852619 0.492261 0.057175
-6.722390 -5.982377 -0.148858 1611 0.837896 0.479328 0.096672
-6.722487 -5.982445 -0.146096 1589 0.836503 0.478353 0.136413
-6.722521 -5.982464 -0.143336 1573 0.836016 0.478079 0.176125
-6.722884 -5.982776 -0.140575 1583 0.830788 0.473585 0.215851
-6.723521 -5.983325 -0.137820 1583 0.821621 0.465688 0.255492
-6.724052 -5.983780 -0.135068 1551 0.813985 0.459143 0.295089
-6.724787 -5.984428 -0.132314 1537 0.803405 0.449819 0.334715
-6.725480 -5.985034 -0.129560 1539 0.793436 0.441098 0.374341
-6.727161 -5.986505 -0.126830 1543 0.769252 0.419932 0.413621
-6.729053 -5.988176 -0.124089 1535 0.742027 0.395891 0.453060
-6.730222 -5.989210 -0.121343 1519 0.725204 0.381010 0.492571
-6.731357 -5.990195 -0.118596 1497 0.708875 0.366842 0.532096
-6.732589 -5.991280 -0.115850 1483 0.691153 0.351227 0.571607
-6.734256 -5.992750 -0.113099 1455 0.667167 0.330074 0.611190
-6.736645 -5.994858 -0.110366 1429 0.632787 0.299749 0.650513
-6.739343 -5.997252 -0.107640 1389 0.593968 0.265300 0.689736
-6.741942 -5.999545 -0.104905 1351 0.556575 0.232305 0.729089
-6.745032 -6.002282 -0.102178 1313 0.512116 0.192924 0.768326
-6.748830 -6.005655 -0.099444 1249 0.457469 0.144396 0.807664
-6.753392 -6.009693 -0.096728 1155 0.391823 0.086290 0.846744
-6.760036 -6.015598 -0.094029 995 0.296229 0.001331 0.885578
-6.747856 -6.001638 -0.218711 1289 0.471479 0.202193 -0.908408
-6.744246 -5.998410 -0.215823 1347 0.523423 0.248635 -0.866854
-6.740746 -5.995281 -0.212953 1383 0.573783 0.293656 -0.825559
-6.738236 -5.993033 -0.210107 1407 0.609899 0.326006 -0.784609
-6.736378 -5.991364 -0.207278 1443 0.636629 0.350019 -0.743904
-6.734561 -5.989738 -0.204459 1473 0.662776 0.373415 -0.703343
-6.732969 -5.988311 -0.201648 1495 0.685685 0.393950 -0.662897
-6.731110 -5.986642 -0.198829 1509 0.712429 0.417963 -0.622336
-6.730065 -5.985703 -0.196025 1527 0.727468 0.431472 -0.581990
-6.729132 -5.984848 -0.193240 1543 0.740888 0.443774 -0.541918
-6.728359 -5.984145 -0.190446 1559 0.752010 0.453887 -0.501717
-6.727146 -5.983063 -0.187652 1571 0.769464 0.469455 -0.461516
-6.725553 -5.981622 -0.184842 1565 0.792387 0.490189 -0.421084
-6.724781 -5.980933 -0.182056 1575 0.803495 0.500103 -0.380997
-6.724339 -5.980523 -0.179278 1589 0.809855 0.506003 -0.341026
-6.723777 -5.980006 -0.176501 1599 0.817944 0.513440 -0.301069
-6.722892 -5.979202 -0.173717 1599 0.830678 0.525015 -0.261012
-6.722450 -5.978792 -0.170949 1599 0.837038 0.530908 -0.221184
-6.722105 -5.978482 -0.168172 1597 0.841998 0.535375 -0.181228
-6.722202 -5.978550 -0.165412 1609 0.840606 0.534394 -0.141515
-6.722460 -5.978769 -0.162650 1611 0.836894 0.531245 -0.101775
-6.722172 -5.978488 -0.159881 1607 0.841038 0.535286 -0.061933
-6.722655 -5.978908 -0.157128 1609 0.834088 0.529241 -0.022321
-6.723347 -5.979514 -0.154386 1611 0.824126 0.520521 0.017132
-6.723395 -5.979533 -0.151614 1607 0.823439 0.520247 0.057017
-6.723759 -5.979845 -0.148862 1609 0.818198 0.515759 0.096614
-6.724122 -5.980156 -0.146100 1597 0.812976 0.511286 0.136355
-6.724380 -5.980375 -0.143350 1573 0.809265 0.508137 0.175923
-6.724632 -5.980587 -0.140588 1577 0.805642 0.505084 0.215664
-6.724617 -5.980556 -0.137818 1567 0.805855 0.505530 0.255521
-6.725575 -5.981391 -0.135072 1559 0.792071 0.493516 0.295031
-6.726710 -5.982390 -0.132335 1559 0.775742 0.479142 0.334413
-6.726961 -5.982602 -0.129575 1545 0.772126 0.476089 0.374125
-6.727704 -5.983243 -0.126821 1535 0.761437 0.466868 0.413751
-6.729328 -5.984671 -0.124080 1533 0.738068 0.446320 0.453190
-6.730995 -5.986142 -0.121341 1525 0.714083 0.425153 0.492600
-6.732018 -5.987041 -0.118585 1497 0.699366 0.412221 0.532254
-6.733635 -5.988461 -0.115846 1475 0.676100 0.391789 0.571664
-6.735793 -5.990362 -0.113113 1455 0.645047 0.364434 0.610988
-6.738344 -5.992619 -0.110379 1429 0.608341 0.331961 0.650326
-6.740992 -5.994963 -0.107642 1407 0.570242 0.298232 0.689708
-6.743808 -5.997449 -0.104917 1369 0.529728 0.262466 0.728916
-6.746787 -6.000086 -0.102180 1325 0.486861 0.224525 0.768298
-6.749989 -6.002923 -0.099450 1259 0.440790 0.183702 0.807578
-6.754228 -6.006675 -0.096726 1163 0.379796 0.129720 0.846772
-6.760486 -6.012230 -0.094029 1011 0.289752 0.049790 0.885578
-6.749053 -5.998645 -0.218700 1295 0.454258 0.245259 -0.908249
-6.745435 -5.995423 -0.215821 1347 0.506312 0.291619 -0.866825
-6.742813 -5.993074 -0.212966 1387 0.544040 0.325416 -0.825746
-6.740127 -5.990675 -0.210111 1409 0.582688 0.359933 -0.784667
-6.737441 -5.988276 -0.207267 1447 0.621336 0.394451 -0.743746
-6.736023 -5.987000 -0.204455 1475 0.641741 0.412811 -0.703285
-6.734432 -5.985575 -0.201644 1497 0.664629 0.433311 -0.662839
-6.732454 -5.983798 -0.198815 1503 0.693095 0.458882 -0.622134
-6.731367 -5.982816 -0.196023 1527 0.708731 0.473009 -0.581962
-6.730706 -5.982213 -0.193236 1547 0.718240 0.481688 -0.541861
-6.729268 -5.980929 -0.190435 1557 0.738933 0.500164 -0.501559
-6.728167 -5.979933 -0.187640 1555 0.754775 0.514497 -0.461343
-6.727401 -5.979236 -0.184856 1567 0.765800 0.524521 -0.421285
-6.726511 -5.978426 -0.182061 1573 0.778603 0.536178 -0.381069
-6.726068 -5.978015 -0.179294 1599 0.784977 0.542092 -0.341257
-6.725611 -5.977606 -0.176517 1607 0.791550 0.547979 -0.301300
-6.724846 -5.976909 -0.173730 1597 0.802562 0.558002 -0.261199
-6.724501 -5.976585 -0.170962 1611 0.807522 0.562668 -0.221372
-6.724654 -5.976711 -0.168202 1607 0.805320 0.560857 -0.181659
-6.724696 -5.976737 -0.165431 1611 0.804716 0.560479 -0.141789
-6.724133 -5.976220 -0.162654 1613 0.812819 0.567917 -0.101832
-6.723852 -5.975959 -0.159886 1605 0.816860 0.571676 -0.062005
-6.724328 -5.976357 -0.157134 1617 0.810013 0.565947 -0.022407
-6.724480 -5.976483 -0.154372 1621 0.807824 0.564136 0.017333
-6.724570 -5.976545 -0.151612 1607 0.806534 0.563244 0.057046
-6.724723 -5.976671 -0.148851 1585 0.804332 0.561426 0.096772
-6.725144 -5.977027 -0.146098 1579 0.798273 0.556308 0.136384
-6.725723 -5.977532 -0.143346 1591 0.789944 0.549042 0.175981
-6.726367 -5.978087 -0.140592 1579 0.780675 0.541056 0.215607
-6.726948 -5.978593 -0.137839 1567 0.772318 0.533776 0.255218
-6.727150 -5.978755 -0.135078 1553 0.769409 0.531444 0.294945
-6.727458 -5.979010 -0.132325 1543 0.764977 0.527773 0.334557
-6.728417 -5.979859 -0.129571 1541 0.751180 0.515560 0.374182
-6.730582 -5.981766 -0.126847 1555 0.720024 0.488117 0.413377
-6.732038 -5.983051 -0.124099 1531 0.699078 0.469633 0.452916
-6.733334 -5.984186 -0.121362 1527 0.680429 0.453297 0.492298
-6.734574 -5.985263 -0.118615 1505 0.662591 0.437805 0.531823
-6.735638 -5.986205 -0.115859 1487 0.647277 0.424248 0.571477
-6.737305 -5.987675 -0.113118 1467 0.623291 0.403095 0.610916
-6.740184 -5.990212 -0.110393 1441 0.581872 0.366595 0.650125
-6.743051 -5.992748 -0.107665 1411 0.540617 0.330109 0.689377
-6.745278 -5.994706 -0.104922 1373 0.508576 0.301931 0.728844
-6.747983 -5.997107 -0.102187 1327 0.469654 0.267386 0.768197
-6.751508 -6.000215 -0.099458 1265 0.418931 0.222666 0.807463
-6.756630 -6.004754 -0.096747 1185 0.345237 0.157356 0.846470
-6.762769 -6.010201 -0.094041 1049 0.256902 0.078983 0.885405
-6.750536 -5.995973 -0.218696 1303 0.432920 0.283701 -0.908192
-6.747584 -5.993344 -0.215833 1353 0.475396 0.321532 -0.866997
-6.744457 -5.990552 -0.212970 1389 0.520391 0.361703 -0.825803
-6.741947 -5.988304 -0.210126 1417 0.556500 0.394046 -0.784882
-6.740025 -5.986584 -0.207295 1445 0.584156 0.418793 -0.744149
-6.738103 -5.984865 -0.204467 1473 0.611813 0.443527 -0.703458
-6.736140 -5.983102 -0.201650 1503 0.640060 0.468899 -0.662925
-6.734547 -5.981677 -0.198838 1513 0.662975 0.489400 -0.622465
-6.734216 -5.981367 -0.196059 1545 0.667737 0.493859 -0.582480
-6.732729 -5.980033 -0.193248 1549 0.689136 0.513056 -0.542033
-6.730913 -5.978407 -0.190438 1545 0.715263 0.536452 -0.501602
-6.730414 -5.977954 -0.187661 1559 0.722446 0.542970 -0.461645
-6.729698 -5.977293 -0.184877 1571 0.732744 0.552479 -0.421587
-6.728484 -5.976211 -0.182073 1571 0.750212 0.568047 -0.381242
-6.727929 -5.975701 -0.179298 1587 0.758199 0.575388 -0.341314
-6.727865 -5.975634 -0.176538 1595 0.759118 0.576349 -0.301602
-6.727745 -5.975510 -0.173768 1615 0.760847 0.578132 -0.261746
-6.727078 -5.974899 -0.170981 1617 0.770445 0.586928 -0.221645
-6.726579 -5.974446 -0.168214 1615 0.777622 0.593446 -0.181832
-6.726067 -5.973979 -0.165437 1613 0.784991 0.600163 -0.141875
-6.725729 -5.973661 -0.162660 1613 0.789855 0.604739 -0.101918
-6.725875 -5.973780 -0.159898 1609 0.787756 0.603024 -0.062177
-6.725811 -5.973699 -0.157140 1599 0.788675 0.604190 -0.022494
-6.726230 -5.974069 -0.154388 1607 0.782644 0.598866 0.017103
-6.727043 -5.974768 -0.151643 1607 0.770946 0.588808 0.056600
-6.727125 -5.974836 -0.148871 1603 0.769766 0.587834 0.096484
-6.727874 -5.975485 -0.146127 1607 0.758994 0.578496 0.135967
-6.728405 -5.975939 -0.143375 1611 0.751351 0.571964 0.175564
-6.728509 -5.976016 -0.140615 1591 0.749856 0.570853 0.215276
-6.728971 -5.976414 -0.137851 1577 0.743207 0.565124 0.255046
-6.729776 -5.977120 -0.135106 1559 0.731626 0.554970 0.294542
-6.730469 -5.977711 -0.132352 1549 0.721650 0.546462 0.334168
-6.731534 -5.978652 -0.129605 1545 0.706330 0.532926 0.373693
-6.732618 -5.979601 -0.126861 1553 0.690735 0.519272 0.413175
-6.734012 -5.980822 -0.124112 1543 0.670673 0.501701 0.452729
-6.735147 -5.981806 -0.121366 1521 0.654344 0.487547 0.492240
-6.735833 -5.982405 -0.118611 1505 0.644471 0.478923 0.531880
-6.737233 -5.983633 -0.115863 1483 0.624327 0.461256 0.571420
-6.739510 -5.985640 -0.113130 1461 0.591566 0.432378 0.610744
-6.742208 -5.988034 -0.110404 1443 0.552747 0.397936 0.649967
-6.744107 -5.989698 -0.107663 1411 0.525427 0.373991 0.689405
-6.746264 -5.991597 -0.104920 1367 0.494388 0.346664 0.728873
-6.749635 -5.994577 -0.102191 1321 0.445880 0.303790 0.768139
-6.753440 -5.997943 -0.099469 1283 0.391137 0.255358 0.807305
-6.757399 -6.001453 -0.096747 1193 0.334170 0.204855 0.846470
-6.763174 -6.006557 -0.094033 1079 0.251077 0.131415 0.885520
-6.752505 -5.994309 -0.218715 1321 0.404591 0.307646 -0.908465
-6.749385 -5.991524 -0.215852 1361 0.449483 0.347714 -0.867271
-6.746531 -5.988982 -0.212989 1397 0.490545 0.384290 -0.826077
-6.744181 -5.986883 -0.210153 1437 0.524356 0.414492 -0.785271
-6.741776 -5.984728 -0.207307 1457 0.558963 0.445503 -0.744321
-6.739581 -5.982772 -0.204480 1485 0.590544 0.473647 -0.703645
-6.737764 -5.981145 -0.201659 1509 0.616691 0.497056 -0.663055
-6.736347 -5.979870 -0.198848 1521 0.637075 0.515403 -0.622609
-6.734965 -5.978631 -0.196046 1529 0.656965 0.533227 -0.582292
-6.733815 -5.977598 -0.193242 1539 0.673507 0.548088 -0.541947
-6.732937 -5.976801 -0.190457 1549 0.686145 0.559560 -0.501875
-6.731506 -5.975512 -0.187657 1555 0.706734 0.578105 -0.461587
-6.730348 -5.974471 -0.184854 1561 0.723393 0.593082 -0.421256
-6.730060 -5.974204 -0.182084 1583 0.727537 0.596925 -0.381400
-6.729624 -5.973801 -0.179307 1603 0.733815 0.602722 -0.341444
-6.729112 -5.973334 -0.176530 1605 0.741176 0.609446 -0.301487
-6.728508 -5.972787 -0.173755 1605 0.749869 0.617315 -0.261559
-6.728493 -5.972756 -0.170995 1619 0.750082 0.617761 -0.221846
-6.728757 -5.972982 -0.168233 1623 0.746288 0.614509 -0.182105
-6.728196 -5.972465 -0.165456 1613 0.754356 0.621947 -0.142149
-6.727746 -5.972048 -0.162679 1621 0.760833 0.627950 -0.102192
-6.727240 -5.971588 -0.159911 1607 0.768113 0.634564 -0.062364
-6.727660 -5.971943 -0.157149 1607 0.762068 0.629459 -0.022623
-6.727869 -5.972112 -0.154397 1615 0.759063 0.627024 0.016974
-6.727580 -5.971845 -0.151620 1609 0.763221 0.630866 0.056931
-6.728385 -5.972550 -0.148875 1609 0.751639 0.620725 0.096427
-6.728973 -5.973049 -0.146121 1619 0.743180 0.613542 0.136053
-6.729280 -5.973318 -0.143371 1599 0.738761 0.609672 0.175621
-6.729973 -5.973909 -0.140616 1589 0.728792 0.601172 0.215262
-6.730666 -5.974514 -0.137862 1571 0.718817 0.592465 0.254887
-6.731141 -5.974927 -0.135110 1563 0.711983 0.586523 0.294484
-6.731883 -5.975568 -0.132356 1563 0.701307 0.577302 0.334110
-6.732794 -5.976367 -0.129609 1557 0.688203 0.565803 0.373636
-6.733592 -5.977051 -0.126855 1547 0.676718 0.555965 0.413262
-6.735160 -5.978436 -0.124116 1537 0.654159 0.536034 0.452672
-6.736561 -5.979664 -0.121379 1525 0.634001 0.518367 0.492053
-6.737360 -5.980362 -0.118623 1499 0.622502 0.508322 0.531708
-6.738816 -5.981633 -0.115874 1489 0.601556 0.490031 0.571262
-6.741465 -5.983976 -0.113151 1473 0.563436 0.456323 0.610441
-6.744449 -5.986606 -0.110423 1445 0.520500 0.418478 0.649693
-6.746558 -5.988470 -0.107680 1401 0.490154 0.391658 0.689161
-6.748183 -5.989898 -0.104932 1361 0.466779 0.371110 0.728700
-6.751168 -5.992527 -0.102204 1325 0.423829 0.333285 0.767952
-6.755023 -5.995930 -0.099481 1273 0.368358 0.284318 0.807132
-6.758940 -5.999396 -0.096749 1193 0.311996 0.234453 0.846441
-6.764757 -6.004543 -0.094045 1067 0.228299 0.160396 0.885348
-6.754549 -5.992880 -0.218741 1317 0.375178 0.328208 -0.908839
-6.750777 -5.989516 -0.215854 1359 0.429455 0.376612 -0.867300
-6.747768 -5.986830 -0.212991 1387 0.472748 0.415253 -0.826105
-6.745194 -5.984531 -0.210147 1427 0.509784 0.448337 -0.785184
-6.743055 -5.982619 -0.207309 1449 0.540562 0.475849 -0.744350
-6.741358 -5.981100 -0.204490 1481 0.564980 0.497701 -0.703789
-6.739654 -5.979574 -0.201678 1499 0.589494 0.519656 -0.663328
-6.738552 -5.978591 -0.198875 1513 0.605350 0.533804 -0.622997
-6.737065 -5.977259 -0.196063 1529 0.626749 0.552966 -0.582537
-6.735536 -5.975883 -0.193263 1541 0.648746 0.572767 -0.542249
-6.734266 -5.974742 -0.190459 1553 0.667023 0.589185 -0.501904
-6.733438 -5.973996 -0.187675 1575 0.678934 0.599916 -0.461846
-6.732504 -5.973156 -0.184880 1569 0.692374 0.612005 -0.421631
-6.732054 -5.972739 -0.182103 1585 0.698844 0.618002 -0.381674
-6.731717 -5.972422 -0.179336 1597 0.703695 0.622564 -0.341861
-6.730237 -5.971096 -0.176534 1583 0.724991 0.641644 -0.301544
-6.729787 -5.970679 -0.173757 1589 0.731468 0.647648 -0.261587
-6.730262 -5.971091 -0.171004 1603 0.724635 0.641720 -0.221976
-6.730255 -5.971067 -0.168244 1619 0.724731 0.642063 -0.182264
-6.729580 -5.970463 -0.165458 1609 0.734446 0.650756 -0.142177
-6.729299 -5.970190 -0.162688 1611 0.738487 0.654680 -0.102321
-6.729228 -5.970116 -0.159930 1621 0.739509 0.655744 -0.062638
-6.728778 -5.969698 -0.157153 1607 0.745986 0.661761 -0.022681
-6.728643 -5.969573 -0.154384 1591 0.747928 0.663558 0.017161
-6.729351 -5.970180 -0.151639 1605 0.737739 0.654824 0.056657
-6.730429 -5.971121 -0.148892 1607 0.722227 0.641288 0.096182
-6.731122 -5.971727 -0.146150 1607 0.712258 0.632567 0.135636
-6.731373 -5.971939 -0.143388 1593 0.708649 0.629514 0.175377
-6.731799 -5.972301 -0.140636 1579 0.702515 0.624307 0.214974
-6.732219 -5.972655 -0.137872 1579 0.696470 0.619216 0.254744
-6.732856 -5.973204 -0.135120 1565 0.687311 0.611312 0.294341
-6.733710 -5.973946 -0.132375 1571 0.675023 0.600636 0.333837
-6.734017 -5.974215 -0.129613 1549 0.670605 0.596767 0.373578
-6.734717 -5.974813 -0.126859 1537 0.660533 0.588163 0.413204
-6.735893 -5.975841 -0.124112 1531 0.643614 0.573371 0.452729
-6.737343 -5.977118 -0.121373 1521 0.622749 0.554997 0.492139
-6.738913 -5.978490 -0.118634 1503 0.600156 0.535258 0.531549
-6.740804 -5.980161 -0.115893 1485 0.572946 0.511211 0.570988
-6.742751 -5.981874 -0.113153 1467 0.544932 0.486566 0.610413
-6.744692 -5.983582 -0.110412 1447 0.517008 0.461990 0.649851
-6.747074 -5.985682 -0.107677 1407 0.482731 0.431774 0.689204
-6.749407 -5.987732 -0.104943 1371 0.449167 0.402279 0.728542
-6.752778 -5.990712 -0.102214 1333 0.400660 0.359398 0.767808
-6.756793 -5.994264 -0.099490 1269 0.342891 0.308291 0.807003
-6.760549 -5.997581 -0.096759 1197 0.288847 0.260566 0.846298
-6.765496 -6.001955 -0.094050 1077 0.217671 0.197630 0.885276
-6.756492 -5.990919 -0.218753 1327 0.347220 0.356420 -0.909012
-6.753532 -5.988284 -0.215890 1365 0.389813 0.394334 -0.867818
-6.751008 -5.986035 -0.213046 1397 0.426128 0.426697 -0.826897
-6.748056 -5.983393 -0.210183 1423 0.468604 0.464707 -0.785702
-6.744710 -5.980422 -0.207313 1441 0.516747 0.507458 -0.744408
-6.742796 -5.978710 -0.204494 1475 0.544287 0.532089 -0.703846
-6.741638 -5.977670 -0.201690 1493 0.560946 0.547052 -0.663501
-6.740326 -5.976487 -0.198888 1509 0.579827 0.564074 -0.623185
-6.738510 -5.974862 -0.196067 1523 0.605954 0.587457 -0.582595
-6.736813 -5.973342 -0.193257 1535 0.630372 0.609329 -0.542163
-6.736033 -5.972645 -0.190473 1549 0.641596 0.619360 -0.502105
-6.735695 -5.972328 -0.187694 1561 0.646461 0.623916 -0.462120
-6.734538 -5.971289 -0.184901 1575 0.663106 0.638866 -0.421933
-6.733983 -5.970778 -0.182124 1583 0.671092 0.646221 -0.381976
-6.733926 -5.970718 -0.179355 1587 0.671915 0.647085 -0.342134
-6.733196 -5.970058 -0.176568 1593 0.682419 0.656581 -0.302033
-6.732690 -5.969597 -0.173791 1597 0.689699 0.663215 -0.262077
-6.732030 -5.968995 -0.171016 1601 0.699194 0.671874 -0.222148
-6.731853 -5.968827 -0.168246 1609 0.701740 0.674296 -0.182292
-6.731341 -5.968359 -0.165469 1613 0.709108 0.681026 -0.142336
-6.731283 -5.968286 -0.162709 1615 0.709938 0.682076 -0.102623
-6.731872 -5.968799 -0.159957 1621 0.701465 0.674694 -0.063026
-6.731526 -5.968474 -0.157189 1613 0.706446 0.679373 -0.023199
-6.731238 -5.968207 -0.154410 1603 0.710590 0.683215 0.016787
-6.731987 -5.968856 -0.151666 1623 0.699812 0.673877 0.056269
-6.732470 -5.969275 -0.148913 1597 0.692862 0.667846 0.095880
-6.732286 -5.969086 -0.146144 1571 0.695510 0.670563 0.135722
-6.732544 -5.969306 -0.143382 1575 0.691798 0.667400 0.175463
-6.733069 -5.969754 -0.140630 1581 0.684244 0.660951 0.215060
-6.733762 -5.970359 -0.137885 1581 0.674275 0.652251 0.254556
-6.734840 -5.971301 -0.135140 1567 0.658763 0.638694 0.294053
-6.735912 -5.972235 -0.132394 1571 0.643339 0.625254 0.333564
-6.736499 -5.972748 -0.129640 1555 0.634893 0.617878 0.373190
-6.737298 -5.973432 -0.126885 1547 0.623394 0.608033 0.412830
-6.738706 -5.974667 -0.124137 1545 0.603134 0.590263 0.452369
-6.739665 -5.975501 -0.121392 1521 0.589336 0.578263 0.491866
-6.740848 -5.976536 -0.118646 1499 0.572314 0.563375 0.531377
-6.742410 -5.977914 -0.115895 1485 0.549838 0.543546 0.570959
-6.744960 -5.980157 -0.113172 1463 0.513152 0.511272 0.610139
-6.747455 -5.982358 -0.110437 1445 0.477249 0.479602 0.649492
-6.749283 -5.983965 -0.107698 1407 0.450951 0.456481 0.688902
-6.752163 -5.986501 -0.104961 1381 0.409510 0.419987 0.728283
-6.755148 -5.989131 -0.102233 1331 0.366561 0.382149 0.767535
-6.758028 -5.991667 -0.099496 1267 0.325121 0.345662 0.806916
-6.761833 -5.995033 -0.096765 1187 0.270370 0.297231 0.846211
-6.767327 -5.999895 -0.094062 1063 0.191325 0.227270 0.885103
-6.759053 -5.989360 -0.218791 1325 0.310370 0.378856 -0.909559
-6.755926 -5.986569 -0.215921 1367 0.355364 0.419013 -0.868264
-6.752532 -5.983547 -0.213040 1407 0.404200 0.462491 -0.826810
-6.749733 -5.981062 -0.210185 1427 0.444474 0.498250 -0.785731
-6.747160 -5.978764 -0.207341 1441 0.481496 0.531313 -0.744810
-6.744916 -5.976758 -0.204515 1467 0.513783 0.560177 -0.704148
-6.743099 -5.975132 -0.201694 1489 0.539924 0.583573 -0.663559
-6.741892 -5.974057 -0.198892 1509 0.557296 0.599038 -0.623242
-6.740517 -5.972824 -0.196090 1525 0.577076 0.616780 -0.582925
-6.738813 -5.971297 -0.193269 1539 0.601597 0.638756 -0.542336
-6.738048 -5.970601 -0.190484 1555 0.612602 0.648766 -0.502264
-6.737479 -5.970090 -0.187707 1567 0.620787 0.656121 -0.462307
-6.736770 -5.969437 -0.184920 1563 0.630989 0.665514 -0.422206
-6.736046 -5.968783 -0.182136 1573 0.641411 0.674927 -0.382149
-6.735492 -5.968287 -0.179359 1589 0.649377 0.682062 -0.342192
-6.734762 -5.967627 -0.176574 1593 0.659881 0.691558 -0.302120
-6.734095 -5.967017 -0.173797 1599 0.669479 0.700333 -0.262163
-6.733813 -5.966757 -0.171029 1597 0.673541 0.704079 -0.222336
-6.733419 -5.966396 -0.168250 1609 0.679208 0.709273 -0.182350
-6.732753 -5.965786 -0.165475 1607 0.688793 0.718048 -0.142422
