116
-24.175556 -21.156071 -0.180505 985 0.959959 -0.304462 -0.419077
-24.172535 -21.153370 -0.170623 1037 1.003430 -0.265602 -0.276890
-24.172091 -21.152931 -0.160757 1067 1.009825 -0.259290 -0.134934
-24.172199 -21.152981 -0.150896 1073 1.008260 -0.260003 0.006951
-24.173731 -21.154268 -0.141037 1037 0.986223 -0.278528 0.148807
-24.176809 -21.156900 -0.131179 979 0.941928 -0.316400 0.290649
-24.181019 -21.147846 -0.190404 1035 0.881360 -0.186124 -0.561509
-24.175537 -21.143002 -0.180507 1107 0.960233 -0.116417 -0.419106
-24.172226 -21.140057 -0.170627 1141 1.007876 -0.074044 -0.276948
-24.171843 -21.139668 -0.160768 1161 1.013392 -0.068445 -0.135092
-24.172773 -21.140438 -0.150903 1165 1.000000 -0.079532 0.006851
-24.173912 -21.141382 -0.141046 1127 0.983616 -0.093117 0.148678
-24.176771 -21.143827 -0.131200 1103 0.942477 -0.128300 0.290347
-24.180843 -21.147333 -0.121345 1023 0.883885 -0.178742 0.432146
-24.187080 -21.140415 -0.200307 1017 0.794143 -0.079203 -0.703998
-24.181635 -21.135607 -0.190410 1115 0.872495 -0.010017 -0.561595
-24.176458 -21.131033 -0.180521 1155 0.946978 0.055793 -0.419308
-24.172777 -21.127752 -0.170642 1179 0.999945 0.102997 -0.277164
-24.171900 -21.126936 -0.160778 1191 1.012569 0.114743 -0.135236
-24.171995 -21.126974 -0.150917 1187 1.011197 0.114194 0.006649
-24.173090 -21.127876 -0.141061 1175 0.995444 0.101213 0.148462
-24.175219 -21.129694 -0.131208 1157 0.964817 0.075059 0.290232
-24.179836 -21.133677 -0.121372 1101 0.898375 0.017756 0.431757
-24.186451 -21.139404 -0.111522 1017 0.803200 -0.064658 0.573484
-24.198118 -21.136818 -0.210254 941 0.635325 -0.027444 -0.847121
-24.188980 -21.128790 -0.200328 1075 0.766809 0.088067 -0.704301
-24.182600 -21.123165 -0.190427 1145 0.858609 0.168999 -0.561840
-24.178566 -21.119596 -0.180540 1179 0.916653 0.220347 -0.419581
-24.175991 -21.117287 -0.170665 1209 0.953702 0.253581 -0.277495
-24.175549 -21.116854 -0.160808 1245 0.960069 0.259811 -0.135667
-24.174782 -21.116133 -0.150943 1231 0.971101 0.270185 0.006275
-24.175421 -21.116644 -0.141090 1209 0.961908 0.262830 0.148045
-24.178335 -21.119144 -0.131242 1199 0.919973 0.226851 0.289743
-24.181959 -21.122253 -0.121400 1157 0.867830 0.182117 0.431354
-24.188065 -21.127541 -0.111555 1085 0.779982 0.106043 0.573009
-24.191795 -21.130741 -0.101703 955 0.726302 0.059992 0.714764
-24.199274 -21.124283 -0.210252 979 0.618694 0.152917 -0.847092
-24.190626 -21.116680 -0.200332 1093 0.743125 0.262308 -0.704358
-24.185946 -21.112545 -0.190450 1153 0.810472 0.321807 -0.562171
-24.182083 -21.109133 -0.180564 1213 0.866046 0.370904 -0.419926
-24.180058 -21.107306 -0.170696 1233 0.895191 0.397195 -0.277941
-24.179224 -21.106533 -0.160841 1259 0.907184 0.408310 -0.136142
-24.178177 -21.105564 -0.150978 1249 0.922251 0.422251 0.005772
-24.179161 -21.106369 -0.141122 1219 0.908090 0.410670 0.147585
-24.182961 -21.109640 -0.131279 1207 0.853422 0.363604 0.289210
-24.186363 -21.112562 -0.121429 1169 0.804462 0.321560 0.430937
-24.191248 -21.116779 -0.111591 1115 0.734178 0.260881 0.572491
-24.198231 -21.122812 -0.101739 1003 0.633706 0.174076 0.714246
-24.205301 -21.116261 -0.210298 1009 0.531972 0.268346 -0.847754
-24.198355 -21.110151 -0.200389 1113 0.631922 0.356249 -0.705178
-24.192738 -21.105202 -0.190492 1175 0.712745 0.427466 -0.562775
-24.187956 -21.100973 -0.180601 1229 0.781546 0.488309 -0.420459
-24.185192 -21.098522 -0.170728 1259 0.821313 0.523574 -0.278401
-24.183933 -21.097374 -0.160865 1271 0.839426 0.540095 -0.136487
-24.183813 -21.097214 -0.151016 1251 0.841154 0.542401 0.005225
-24.184353 -21.097628 -0.141162 1235 0.833388 0.536445 0.147009
-24.187210 -21.100075 -0.131317 1209 0.792277 0.501235 0.288664
-24.191891 -21.104105 -0.121469 1185 0.724930 0.443246 0.430362
-24.197226 -21.108707 -0.111627 1121 0.648169 0.377024 0.571973
-24.204210 -21.114758 -0.101787 1019 0.547670 0.289972 0.713556
-24.212971 -21.109663 -0.210346 1025 0.421620 0.363274 -0.848444
-24.205488 -21.103100 -0.200430 1129 0.529282 0.457709 -0.705768
-24.198988 -21.097382 -0.190528 1183 0.622811 0.539985 -0.563293
-24.195854 -21.094599 -0.180658 1235 0.667901 0.580026 -0.421279
-24.193686 -21.092659 -0.170789 1257 0.699105 0.607937 -0.279279
-24.190716 -21.090019 -0.160917 1259 0.741835 0.645919 -0.137236
-24.189888 -21.089239 -0.151052 1239 0.753746 0.657143 0.004707
-24.191095 -21.090250 -0.141206 1235 0.736374 0.642598 0.146376
-24.195051 -21.093643 -0.131363 1201 0.679455 0.593775 0.288002
-24.199455 -21.097431 -0.121517 1159 0.616087 0.539272 0.429671
-24.204634 -21.101894 -0.111677 1117 0.541577 0.475053 0.571254
-24.211229 -21.107592 -0.101827 1013 0.446676 0.393078 0.712980
-24.222967 -21.105103 -0.210418 1019 0.277787 0.428893 -0.849480
-24.213215 -21.096558 -0.200487 1093 0.418107 0.551841 -0.706588
-24.206871 -21.090979 -0.190584 1167 0.509386 0.632115 -0.564099
-24.202740 -21.087330 -0.180698 1197 0.568829 0.684615 -0.421854
-24.201361 -21.086082 -0.170837 1229 0.588671 0.702563 -0.279969
-24.200872 -21.085602 -0.160980 1231 0.595697 0.709479 -0.138142
-24.200695 -21.085402 -0.151121 1221 0.598249 0.712360 0.003714
-24.201077 -21.085674 -0.141260 1201 0.592760 0.708436 0.145599
-24.202894 -21.087214 -0.131408 1191 0.566606 0.686289 0.287354
-24.206844 -21.090601 -0.121564 1163 0.509770 0.637548 0.428995
-24.212578 -21.095554 -0.111721 1085 0.427274 0.566277 0.570620
-24.218956 -21.101049 -0.101875 979 0.335501 0.487211 0.712290
-24.224043 -21.092712 -0.200555 1053 0.262308 0.607168 -0.707567
-24.217319 -21.086807 -0.190654 1123 0.359048 0.692134 -0.565106
-24.212742 -21.082777 -0.180763 1181 0.424913 0.750123 -0.422790
-24.208933 -21.079414 -0.170885 1197 0.479719 0.798507 -0.280660
-24.207605 -21.078199 -0.161022 1207 0.498820 0.815988 -0.138746
-24.207829 -21.078350 -0.151161 1197 0.495609 0.813820 0.003138
-24.208876 -21.079205 -0.141315 1179 0.480542 0.801526 0.144808
-24.211447 -21.081398 -0.131460 1167 0.443548 0.769965 0.286606
-24.215914 -21.085232 -0.121614 1127 0.379274 0.714803 0.428275
-24.223114 -21.091450 -0.111782 1051 0.275674 0.625336 0.569743
-24.233147 -21.087378 -0.200615 975 0.131319 0.683929 -0.708430
-24.229673 -21.084301 -0.190734 1065 0.181294 0.728196 -0.566257
-24.223726 -21.079073 -0.180830 1139 0.266864 0.803419 -0.423754
-24.219860 -21.075651 -0.170953 1139 0.322493 0.852653 -0.281639
-24.219139 -21.074976 -0.161087 1161 0.332867 0.862369 -0.139682
-24.219900 -21.075594 -0.151233 1181 0.321917 0.853477 0.002102
-24.220613 -21.076166 -0.141378 1151 0.311653 0.845244 0.143901
-24.224424 -21.079428 -0.131527 1127 0.256820 0.798315 0.285642
-24.228823 -21.083200 -0.121681 1075 0.193534 0.744031 0.427311
-24.231627 -21.085592 -0.111824 971 0.153192 0.709616 0.569138
-24.241064 -21.081690 -0.190805 977 0.017399 0.765766 -0.567279
-24.237038 -21.078146 -0.180919 1065 0.075333 0.816757 -0.425034
-24.234114 -21.075552 -0.171035 1101 0.117405 0.854081 -0.282818
-24.233503 -21.074965 -0.161171 1127 0.126187 0.862533 -0.140890
-24.232332 -21.073889 -0.151296 1125 0.143037 0.878012 0.001196
-24.232443 -21.073940 -0.141437 1079 0.141446 0.877271 0.143052
-24.236242 -21.077196 -0.131593 1043 0.086778 0.830424 0.284692
-24.240974 -21.081263 -0.121746 989 0.018689 0.771914 0.426376
-24.248619 -21.075680 -0.171117 1027 -0.091306 0.852242 -0.283998
-24.246416 -21.073706 -0.161241 1051 -0.059608 0.880646 -0.141897
-24.245302 -21.072687 -0.151369 1049 -0.043581 0.895301 0.000146
-24.246677 -21.073833 -0.141510 1019 -0.063368 0.878807 0.142002
