760
-4.588307 -3.900241 -0.170325 1599 0.914601 -0.186917 -0.274716
-4.587359 -3.899425 -0.168441 1603 0.928241 -0.175178 -0.247608
-4.587337 -3.899393 -0.166591 1607 0.928556 -0.174718 -0.220989
-4.587492 -3.899522 -0.164741 1613 0.926327 -0.176574 -0.194370
-4.586979 -3.899076 -0.162873 1607 0.933709 -0.170155 -0.167493
-4.586793 -3.898912 -0.161014 1609 0.936385 -0.167795 -0.140745
-4.586892 -3.898984 -0.159173 1611 0.934958 -0.168831 -0.114255
-4.587041 -3.899106 -0.157323 1605 0.932817 -0.170588 -0.087637
-4.587246 -3.899270 -0.155482 1613 0.929867 -0.172948 -0.061147
-4.587509 -3.899476 -0.153640 1617 0.926080 -0.175912 -0.034644
-4.588049 -3.899927 -0.151807 1615 0.918313 -0.182399 -0.008270
-4.587863 -3.899761 -0.149947 1609 0.920989 -0.180011 0.018493
-4.587570 -3.899505 -0.148089 1595 0.925201 -0.176327 0.045227
-4.587997 -3.899858 -0.146256 1583 0.919061 -0.181407 0.071601
-4.588751 -3.900491 -0.144424 1581 0.908214 -0.190515 0.097960
-4.589904 -3.901460 -0.142606 1575 0.891624 -0.204457 0.124119
-4.590993 -3.902380 -0.140790 1569 0.875953 -0.217695 0.150248
-4.591591 -3.902874 -0.138957 1565 0.867350 -0.224803 0.176622
-4.592459 -3.903604 -0.137132 1559 0.854856 -0.235307 0.202881
-4.593334 -3.904342 -0.135297 1539 0.842266 -0.245924 0.229284
-4.594039 -3.904926 -0.133464 1519 0.832125 -0.254329 0.255658
-4.595185 -3.905889 -0.131646 1509 0.815639 -0.268185 0.281817
-4.596231 -3.906766 -0.129821 1485 0.800586 -0.280802 0.308076
-4.597035 -3.907448 -0.127986 1459 0.789018 -0.290617 0.334479
-4.598410 -3.908606 -0.126168 1431 0.769231 -0.307279 0.360637
-4.599669 -3.909666 -0.124341 1405 0.751118 -0.322531 0.386925
-4.601585 -3.911286 -0.122541 1361 0.723551 -0.345841 0.412824
-4.604854 -3.914055 -0.120763 1303 0.676512 -0.385682 0.438407
-4.607894 -3.916627 -0.118976 1243 0.632773 -0.422687 0.464119
-4.610045 -3.918450 -0.117173 1093 0.601823 -0.448920 0.490061
-4.610023 -3.918418 -0.115314 759 0.602139 -0.448457 0.516809
-4.608043 -3.914897 -0.202588 1191 0.630626 -0.397795 -0.738932
-4.604694 -3.912043 -0.200587 1295 0.678817 -0.356733 -0.710140
-4.602399 -3.910085 -0.198628 1355 0.711839 -0.328558 -0.681953
-4.600283 -3.908274 -0.196691 1401 0.742281 -0.302500 -0.654083
-4.598379 -3.906646 -0.194753 1437 0.769677 -0.279077 -0.626198
-4.596804 -3.905297 -0.192842 1465 0.792339 -0.259667 -0.598701
-4.595073 -3.903823 -0.190911 1485 0.817244 -0.238456 -0.570917
-4.593718 -3.902663 -0.189008 1507 0.836743 -0.221767 -0.543536
-4.593161 -3.902176 -0.187131 1533 0.844756 -0.214759 -0.516529
-4.592035 -3.901212 -0.185237 1553 0.860962 -0.200889 -0.489277
-4.590909 -3.900248 -0.183345 1561 0.877161 -0.187020 -0.462054
-4.590395 -3.899803 -0.181468 1577 0.884557 -0.180615 -0.435047
-4.590337 -3.899736 -0.179618 1595 0.885394 -0.179651 -0.408428
-4.590158 -3.899578 -0.177758 1599 0.887967 -0.177380 -0.381665
-4.589196 -3.898747 -0.175874 1603 0.901805 -0.165421 -0.354557
-4.588618 -3.898253 -0.173997 1613 0.910128 -0.158313 -0.327550
-4.588111 -3.897815 -0.172130 1615 0.917421 -0.152012 -0.300687
-4.587205 -3.897040 -0.170255 1613 0.930457 -0.140859 -0.273709
-4.586919 -3.896777 -0.168387 1619 0.934573 -0.137075 -0.246831
-4.586954 -3.896801 -0.166547 1625 0.934066 -0.137422 -0.220356
-4.586326 -3.896258 -0.164670 1625 0.943102 -0.129611 -0.193349
-4.585926 -3.895911 -0.162812 1621 0.948858 -0.124616 -0.166615
-4.585961 -3.895934 -0.160962 1621 0.948357 -0.124948 -0.139996
-4.585725 -3.895720 -0.159104 1625 0.951753 -0.121868 -0.113263
-4.585817 -3.895786 -0.157252 1629 0.950429 -0.122818 -0.086615
-4.586692 -3.896524 -0.155438 1635 0.937839 -0.133436 -0.060514
-4.587119 -3.896876 -0.153596 1637 0.931692 -0.138502 -0.034011
-4.587161 -3.896908 -0.151755 1627 0.931088 -0.138962 -0.007522
-4.587095 -3.896833 -0.149896 1617 0.932042 -0.137881 0.019227
-4.587016 -3.896759 -0.148047 1615 0.933174 -0.136818 0.045831
-4.587606 -3.897259 -0.146213 1609 0.924687 -0.144012 0.072220
-4.588376 -3.897892 -0.144389 1601 0.913606 -0.153120 0.098464
-4.589187 -3.898581 -0.142564 1597 0.901936 -0.163034 0.124723
-4.589834 -3.899123 -0.140731 1591 0.892625 -0.170831 0.151097
-4.590709 -3.899847 -0.138906 1587 0.880036 -0.181250 0.177356
-4.591520 -3.900536 -0.137082 1573 0.868372 -0.191164 0.203601
-4.592118 -3.901029 -0.135247 1557 0.859768 -0.198258 0.230004
-4.592937 -3.901711 -0.133414 1543 0.847981 -0.208069 0.256378
-4.593577 -3.902246 -0.131579 1533 0.838774 -0.215767 0.282781
-4.594616 -3.903116 -0.129754 1513 0.823824 -0.228285 0.309040
-4.596040 -3.904324 -0.127936 1491 0.803337 -0.245667 0.335198
-4.597249 -3.905335 -0.126119 1469 0.785937 -0.260212 0.361342
-4.598730 -3.906584 -0.124301 1439 0.764627 -0.278185 0.387500
-4.600325 -3.907931 -0.122493 1405 0.741677 -0.297567 0.413515
-4.602974 -3.910174 -0.120698 1367 0.703565 -0.329838 0.439342
-4.606122 -3.912837 -0.118920 1339 0.658269 -0.368156 0.464925
-4.608885 -3.915179 -0.117124 1273 0.618516 -0.401854 0.490766
-4.609256 -3.913604 -0.204455 1213 0.613178 -0.379192 -0.765795
-4.605900 -3.910757 -0.202455 1311 0.661466 -0.338228 -0.737018
-4.603278 -3.908519 -0.200488 1361 0.699187 -0.306027 -0.708716
-4.600826 -3.906421 -0.198522 1405 0.734473 -0.275838 -0.680428
-4.598581 -3.904512 -0.196586 1443 0.766775 -0.248370 -0.652572
-4.597120 -3.903262 -0.194663 1477 0.787797 -0.230384 -0.624903
-4.596058 -3.902347 -0.192769 1507 0.803076 -0.217222 -0.597651
-4.594768 -3.901237 -0.190866 1519 0.821635 -0.201249 -0.570270
-4.593584 -3.900231 -0.188964 1545 0.838671 -0.186773 -0.542903
-4.592628 -3.899408 -0.187079 1567 0.852427 -0.174934 -0.515780
-4.591894 -3.898773 -0.185193 1581 0.862986 -0.165795 -0.488644
-4.590767 -3.897810 -0.183299 1583 0.879205 -0.151940 -0.461392
-4.589534 -3.896755 -0.181405 1591 0.896948 -0.136760 -0.434140
-4.589134 -3.896408 -0.179538 1605 0.902697 -0.131768 -0.407277
-4.588677 -3.896005 -0.177671 1607 0.909277 -0.125967 -0.380414
-4.588213 -3.895609 -0.175803 1619 0.915953 -0.120269 -0.353536
-4.588427 -3.895779 -0.173963 1641 0.912872 -0.122715 -0.327061
-4.588411 -3.895754 -0.172113 1637 0.913105 -0.122358 -0.300442
-4.587677 -3.895120 -0.170236 1637 0.923664 -0.113233 -0.273435
-4.586714 -3.894289 -0.168351 1643 0.937524 -0.101278 -0.246313
-4.586030 -3.893704 -0.166476 1641 0.947362 -0.092860 -0.219334
-4.585686 -3.893399 -0.164619 1641 0.952309 -0.088472 -0.192615
-4.585785 -3.893472 -0.162778 1645 0.950889 -0.089522 -0.166126
-4.585934 -3.893594 -0.160926 1647 0.948741 -0.091278 -0.139478
-4.585755 -3.893436 -0.159078 1649 0.951321 -0.089004 -0.112888
-4.585676 -3.893361 -0.157228 1651 0.952453 -0.087927 -0.086270
-4.585660 -3.893336 -0.155377 1647 0.952686 -0.087567 -0.059637
-4.585874 -3.893507 -0.153527 1643 0.949606 -0.090026 -0.033018
-4.586300 -3.893860 -0.151694 1641 0.943479 -0.095107 -0.006644
-4.586114 -3.893695 -0.149846 1633 0.946155 -0.092733 0.019946
-4.586490 -3.893998 -0.148004 1629 0.940741 -0.097090 0.046450
-4.587580 -3.894919 -0.146188 1633 0.925057 -0.110341 0.072579
-4.587949 -3.895216 -0.144355 1623 0.919754 -0.114616 0.098953
-4.588155 -3.895379 -0.142505 1615 0.916790 -0.116962 0.125572
-4.588525 -3.895690 -0.140672 1607 0.911466 -0.121436 0.151946
-4.589279 -3.896323 -0.138839 1599 0.900612 -0.130544 0.178320
-4.590325 -3.897201 -0.137023 1587 0.885566 -0.143178 0.204450
-4.591029 -3.897785 -0.135188 1575 0.875432 -0.151579 0.230853
-4.591455 -3.898138 -0.133346 1565 0.869305 -0.156660 0.257356
-4.592210 -3.898771 -0.131522 1549 0.858444 -0.165768 0.283601
-4.593413 -3.899789 -0.129705 1535 0.841134 -0.180416 0.309745
-4.594951 -3.901080 -0.127887 1515 0.819000 -0.198989 0.335903
-4.596382 -3.902280 -0.126079 1495 0.798411 -0.216258 0.361917
-4.597585 -3.903298 -0.124251 1461 0.781100 -0.230902 0.388220
-4.599236 -3.904687 -0.122441 1439 0.757348 -0.250888 0.414263
-4.601665 -3.906742 -0.120648 1421 0.722398 -0.280459 0.440061
-4.604314 -3.908985 -0.118854 1395 0.684285 -0.312730 0.465874
-4.606799 -3.911081 -0.117061 1341 0.648526 -0.342891 0.491673
-4.609284 -3.913177 -0.115256 1271 0.612773 -0.373048 0.517644
-4.612161 -3.915616 -0.113469 1137 0.571374 -0.408142 0.543356
-4.610434 -3.912248 -0.206323 1199 0.596225 -0.359679 -0.792673
-4.606906 -3.909246 -0.204312 1309 0.646989 -0.316486 -0.763737
-4.604341 -3.907050 -0.202348 1371 0.683894 -0.284888 -0.735478
-4.601996 -3.905057 -0.200391 1409 0.717637 -0.256213 -0.707320
-4.599865 -3.903232 -0.198442 1451 0.748298 -0.229956 -0.679277
-4.597856 -3.901527 -0.196513 1479 0.777203 -0.205421 -0.651521
-4.596458 -3.900325 -0.194602 1513 0.797320 -0.188128 -0.624025
-4.595496 -3.899509 -0.192706 1539 0.811158 -0.176385 -0.596745
-4.594149 -3.898356 -0.190805 1551 0.830541 -0.159795 -0.569392
-4.593086 -3.897441 -0.188911 1567 0.845841 -0.146629 -0.542140
-4.592565 -3.896990 -0.187034 1587 0.853333 -0.140142 -0.515133
-4.591332 -3.895935 -0.185140 1597 0.871075 -0.124962 -0.487881
-4.589984 -3.894783 -0.183238 1603 0.890471 -0.108386 -0.460514
-4.589692 -3.894526 -0.181369 1613 0.894670 -0.104688 -0.433622
-4.589398 -3.894270 -0.179511 1635 0.898903 -0.101004 -0.406888
-4.588001 -3.893069 -0.177609 1635 0.919006 -0.083724 -0.379521
-4.587266 -3.892434 -0.175733 1631 0.929579 -0.074586 -0.352529
-4.587922 -3.892983 -0.173909 1645 0.920138 -0.082486 -0.326284
-4.587800 -3.892867 -0.172050 1649 0.921894 -0.080819 -0.299536
-4.586780 -3.891995 -0.170165 1655 0.936570 -0.068270 -0.272414
-4.586159 -3.891458 -0.168300 1659 0.945503 -0.060545 -0.245579
-4.585802 -3.891153 -0.166442 1659 0.950642 -0.056157 -0.218845
-4.585623 -3.890981 -0.164582 1663 0.953221 -0.053680 -0.192083
-4.585551 -3.890913 -0.162732 1665 0.954257 -0.052703 -0.165464
-4.585486 -3.890853 -0.160884 1665 0.955191 -0.051838 -0.138874
-4.585021 -3.890443 -0.159017 1659 0.961880 -0.045941 -0.112011
-4.585121 -3.890516 -0.157176 1661 0.960439 -0.046991 -0.085522
-4.585825 -3.891114 -0.155351 1663 0.950312 -0.055594 -0.059262
-4.585981 -3.891229 -0.153510 1663 0.948069 -0.057248 -0.032773
-4.585617 -3.890916 -0.151643 1661 0.953304 -0.052747 -0.005910
-4.585545 -3.890849 -0.149793 1651 0.954340 -0.051783 0.020709
-4.586256 -3.891441 -0.147969 1645 0.944110 -0.060301 0.046953
-4.587188 -3.892220 -0.146153 1641 0.930704 -0.071508 0.073083
-4.587224 -3.892244 -0.144303 1637 0.930182 -0.071855 0.099702
-4.587707 -3.892639 -0.142470 1639 0.923232 -0.077536 0.126076
-4.588796 -3.893559 -0.140655 1629 0.907562 -0.090774 0.152191
-4.589564 -3.894192 -0.138822 1619 0.896516 -0.099882 0.178565
-4.590375 -3.894881 -0.136996 1613 0.884845 -0.109796 0.204838
-4.590752 -3.895185 -0.135154 1599 0.879418 -0.114170 0.231342
-4.590609 -3.895062 -0.133306 1591 0.881476 -0.112400 0.257932
-4.591427 -3.895744 -0.131480 1571 0.869710 -0.122214 0.284205
-4.593307 -3.897329 -0.129680 1561 0.842657 -0.145020 0.310105
-4.594617 -3.898424 -0.127862 1543 0.823810 -0.160773 0.336263
-4.595599 -3.899253 -0.126027 1523 0.809676 -0.172701 0.362666
-4.597023 -3.900446 -0.124219 1495 0.789190 -0.189867 0.388680
-4.598446 -3.901653 -0.122401 1471 0.768716 -0.207235 0.414838
-4.600490 -3.903371 -0.120599 1453 0.739303 -0.231956 0.440766
-4.602363 -3.904949 -0.118789 1423 0.712354 -0.254658 0.466809
-4.604129 -3.906436 -0.116979 1385 0.686947 -0.276054 0.492853
-4.606778 -3.908679 -0.115184 1335 0.648828 -0.308328 0.518680
-4.609755 -3.911203 -0.113397 1265 0.605995 -0.344644 0.544392
-4.612695 -3.913677 -0.111602 1121 0.563690 -0.380242 0.570220
-4.611547 -3.912693 -0.109717 783 0.580211 -0.366084 0.597342
-4.611681 -3.910890 -0.208190 1199 0.578283 -0.340143 -0.819536
-4.605204 -3.905385 -0.204196 1367 0.671476 -0.260933 -0.762068
-4.602688 -3.903238 -0.202231 1419 0.707681 -0.230041 -0.733795
-4.600614 -3.901469 -0.200292 1461 0.737520 -0.204587 -0.705896
-4.599217 -3.900282 -0.198381 1497 0.757622 -0.187507 -0.678399
-4.597649 -3.898940 -0.196460 1513 0.780181 -0.168200 -0.650759
-4.595967 -3.897501 -0.194539 1543 0.804387 -0.147494 -0.623119
-4.594734 -3.896446 -0.192636 1565 0.822122 -0.132314 -0.595737
-4.593558 -3.895433 -0.190742 1569 0.839048 -0.117738 -0.568485
-4.592595 -3.894617 -0.188848 1581 0.852900 -0.105999 -0.541234
-4.591703 -3.893842 -0.186963 1599 0.865737 -0.094846 -0.514112
-4.590954 -3.893209 -0.185086 1613 0.876516 -0.085738 -0.487104
-4.590064 -3.892434 -0.183202 1625 0.889318 -0.074586 -0.459996
-4.589158 -3.891659 -0.181317 1633 0.902354 -0.063436 -0.432874
-4.588871 -3.891410 -0.179458 1645 0.906485 -0.059855 -0.406126
-4.587959 -3.890629 -0.177573 1649 0.919610 -0.048617 -0.379003
-4.587004 -3.889806 -0.175689 1643 0.933345 -0.036775 -0.351896
-4.586647 -3.889500 -0.173831 1653 0.938484 -0.032370 -0.325162
-4.586524 -3.889384 -0.171971 1659 0.940254 -0.030703 -0.298399
-4.586182 -3.889079 -0.170114 1671 0.945174 -0.026315 -0.271680
-4.585668 -3.888633 -0.168246 1673 0.952570 -0.019897 -0.244802
-4.585097 -3.888146 -0.166379 1671 0.960789 -0.012888 -0.217939
-4.584641 -3.887743 -0.164523 1671 0.967348 -0.007091 -0.191234
-4.584953 -3.887998 -0.162681 1671 0.962861 -0.010761 -0.164730
-4.585387 -3.888358 -0.160848 1671 0.956611 -0.015941 -0.138356
-4.585200 -3.888193 -0.158999 1671 0.959307 -0.013564 -0.111752
-4.585021 -3.888035 -0.157140 1671 0.961880 -0.011293 -0.085004
-4.585669 -3.888576 -0.155316 1679 0.952556 -0.019077 -0.058759
-4.586160 -3.888978 -0.153483 1685 0.945489 -0.024861 -0.032385
-4.585859 -3.888715 -0.151626 1673 0.949825 -0.021077 -0.005665
-4.585951 -3.888781 -0.149776 1669 0.948501 -0.022027 0.020953
-4.586555 -3.889281 -0.147952 1661 0.939808 -0.029221 0.047198
-4.586812 -3.889494 -0.146112 1647 0.936110 -0.032284 0.073673
-4.587017 -3.889657 -0.144269 1647 0.933160 -0.034631 0.100191
-4.588113 -3.890585 -0.142453 1657 0.917394 -0.047982 0.126320
-4.589145 -3.891449 -0.140637 1639 0.902540 -0.060414 0.152450
-4.589244 -3.891521 -0.138787 1629 0.901119 -0.061450 0.179068
-4.589949 -3.892106 -0.136964 1625 0.890972 -0.069869 0.205299
-4.590710 -3.892745 -0.135129 1617 0.880022 -0.079062 0.231701
-4.590965 -3.892944 -0.133287 1605 0.876358 -0.081927 0.258205
-4.591164 -3.893115 -0.131446 1587 0.873490 -0.084386 0.284694
-4.592652 -3.894357 -0.129638 1573 0.852084 -0.102256 0.310709
-4.594026 -3.895515 -0.127820 1555 0.832311 -0.118918 0.336867
-4.595058 -3.896379 -0.125995 1535 0.817464 -0.131350 0.363126
-4.596432 -3.897538 -0.124177 1523 0.797690 -0.148025 0.389284
-4.598133 -3.898975 -0.122367 1499 0.773217 -0.168701 0.415327
-4.599671 -3.900266 -0.120559 1481 0.751091 -0.187277 0.441342
-4.601152 -3.901515 -0.118741 1451 0.729780 -0.205249 0.467500
-4.603246 -3.903283 -0.116939 1421 0.699647 -0.230690 0.493428
-4.606122 -3.905708 -0.115142 1377 0.658269 -0.265581 0.519284
-4.608829 -3.907993 -0.113347 1327 0.619319 -0.298459 0.545112
-4.611542 -3.910285 -0.111552 1257 0.580280 -0.331436 0.570939
-4.612659 -3.909309 -0.210050 1193 0.564212 -0.317392 -0.846299
-4.608974 -3.906168 -0.208030 1307 0.617233 -0.272199 -0.817234
-4.605732 -3.903419 -0.206029 1365 0.663881 -0.232645 -0.788442
-4.603331 -3.901370 -0.204072 1415 0.698426 -0.203164 -0.760284
-4.601876 -3.900126 -0.202161 1459 0.719365 -0.185263 -0.732788
-4.600137 -3.898644 -0.200231 1493 0.744381 -0.163939 -0.705018
-4.598405 -3.897170 -0.198300 1515 0.769306 -0.142732 -0.677234
-4.596888 -3.895877 -0.196387 1537 0.791131 -0.124125 -0.649708
-4.595818 -3.894956 -0.194493 1561 0.806527 -0.110877 -0.622457
-4.595034 -3.894287 -0.192609 1583 0.817807 -0.101251 -0.595349
-4.593401 -3.892896 -0.190698 1587 0.841305 -0.081234 -0.567852
-4.592004 -3.891694 -0.188785 1603 0.861408 -0.063941 -0.540327
-4.591832 -3.891543 -0.186927 1623 0.863878 -0.061766 -0.513593
-4.591319 -3.891098 -0.185060 1635 0.871260 -0.055365 -0.486730
-4.590363 -3.890275 -0.183175 1647 0.885017 -0.043523 -0.459608
-4.588838 -3.888975 -0.181264 1647 0.906958 -0.024816 -0.432111
-4.587825 -3.888109 -0.179379 1641 0.921538 -0.012357 -0.404989
-4.587090 -3.887475 -0.177503 1653 0.932110 -0.003235 -0.377996
-4.586569 -3.887023 -0.175635 1663 0.939609 0.003269 -0.351119
-4.586062 -3.886584 -0.173770 1661 0.946903 0.009585 -0.324284
-4.585877 -3.886419 -0.171920 1669 0.949565 0.011959 -0.297665
-4.586032 -3.886548 -0.170079 1679 0.947335 0.010103 -0.271176
-4.585797 -3.886334 -0.168222 1679 0.950717 0.013183 -0.244457
-4.585789 -3.886316 -0.166371 1679 0.950827 0.013441 -0.217824
-4.585274 -3.885871 -0.164504 1675 0.958237 0.019845 -0.190960
-4.584910 -3.885558 -0.162646 1677 0.963479 0.024350 -0.164226
-4.585016 -3.885638 -0.160806 1679 0.961955 0.023197 -0.137752
-4.584994 -3.885606 -0.158956 1683 0.962271 0.023657 -0.111133
-4.585151 -3.885736 -0.157115 1687 0.960007 0.021787 -0.084644
-4.585577 -3.886088 -0.155282 1691 0.953880 0.016724 -0.058270
-4.585618 -3.886105 -0.153432 1689 0.953290 0.016477 -0.031651
-4.585212 -3.885751 -0.151574 1681 0.959129 0.021571 -0.004917
-4.585467 -3.885963 -0.149734 1677 0.955465 0.018521 0.021558
-4.586114 -3.886505 -0.147908 1675 0.946155 0.010724 0.047831
-4.586434 -3.886767 -0.146068 1659 0.941551 0.006954 0.074306
-4.586917 -3.887162 -0.144235 1657 0.934601 0.001269 0.100680
-4.587793 -3.887900 -0.142419 1655 0.921997 -0.009351 0.126810
-4.588612 -3.888582 -0.140595 1649 0.910210 -0.019163 0.153054
-4.588818 -3.888746 -0.138755 1643 0.907246 -0.021523 0.179529
-4.588738 -3.888672 -0.136905 1633 0.908399 -0.020459 0.206148
-4.589328 -3.889158 -0.135072 1623 0.899912 -0.027451 0.232522
-4.590260 -3.889938 -0.133246 1617 0.886499 -0.038675 0.258795
-4.591128 -3.890668 -0.131421 1609 0.874012 -0.049176 0.285054
-4.591769 -3.891204 -0.129588 1589 0.864784 -0.056891 0.311428
-4.592865 -3.892117 -0.127772 1571 0.849017 -0.070026 0.337558
-4.594631 -3.893604 -0.125962 1565 0.823604 -0.091422 0.363601
-4.596390 -3.895084 -0.124152 1549 0.798301 -0.112715 0.389644
-4.597151 -3.895724 -0.122327 1525 0.787351 -0.121926 0.415903
-4.598133 -3.896538 -0.120492 1513 0.773217 -0.133638 0.442306
-4.599784 -3.897928 -0.118682 1487 0.749465 -0.153638 0.468349
-4.601650 -3.899498 -0.116872 1455 0.722611 -0.176227 0.494392
-4.604186 -3.901644 -0.115079 1421 0.686124 -0.207105 0.520191
-4.606849 -3.903887 -0.113282 1383 0.647806 -0.239379 0.546047
-4.608992 -3.905703 -0.111482 1329 0.616972 -0.265509 0.571946
-4.611869 -3.908128 -0.109685 1249 0.575580 -0.300401 0.597802
-4.615580 -3.911261 -0.107915 1071 0.522181 -0.345481 0.623270
-4.613970 -3.908001 -0.211917 1157 0.545351 -0.298572 -0.873162
-4.610229 -3.904832 -0.209897 1295 0.599175 -0.252974 -0.844097
-4.606987 -3.902069 -0.207896 1363 0.645823 -0.213222 -0.815306
-4.604635 -3.900069 -0.205939 1413 0.679668 -0.184443 -0.787147
-4.602291 -3.898076 -0.203982 1451 0.713390 -0.155768 -0.758989
-4.600438 -3.896497 -0.202052 1493 0.740051 -0.133048 -0.731219
-4.598649 -3.894979 -0.200122 1519 0.765794 -0.111206 -0.703450
-4.597522 -3.894016 -0.198230 1545 0.782013 -0.097350 -0.676226
-4.596289 -3.892962 -0.196326 1565 0.799749 -0.082184 -0.648831
-4.595163 -3.891998 -0.194423 1581 0.815954 -0.068315 -0.621450
-4.594378 -3.891315 -0.192546 1599 0.827247 -0.058486 -0.594442
-4.592583 -3.889791 -0.190627 1605 0.853072 -0.036559 -0.566831
-4.591627 -3.888968 -0.188733 1627 0.866828 -0.024717 -0.539579
-4.590558 -3.888060 -0.186837 1635 0.882210 -0.011653 -0.512299
-4.589602 -3.887237 -0.184953 1641 0.895967 0.000189 -0.485191
-4.589031 -3.886750 -0.183087 1651 0.904179 0.007197 -0.458342
-4.588189 -3.886024 -0.181201 1657 0.916296 0.017643 -0.431205
-4.587562 -3.885481 -0.179336 1661 0.925318 0.025454 -0.404370
-4.587269 -3.885225 -0.177476 1675 0.929537 0.029139 -0.377608
-4.587196 -3.885157 -0.175628 1685 0.930587 0.030116 -0.351018
-4.586462 -3.884523 -0.173751 1685 0.941146 0.039241 -0.324011
-4.586006 -3.884120 -0.171884 1687 0.947705 0.045039 -0.297147
-4.586382 -3.884438 -0.170053 1691 0.942299 0.040463 -0.270802
-4.586203 -3.884280 -0.168202 1687 0.944872 0.042737 -0.244169
-4.585412 -3.883589 -0.166328 1681 0.956254 0.052678 -0.217205
-4.585168 -3.883382 -0.164468 1687 0.959767 0.055656 -0.190442
-4.585153 -3.883357 -0.162629 1693 0.959980 0.056016 -0.163982
-4.585081 -3.883290 -0.160779 1693 0.961016 0.056980 -0.137363
-4.585458 -3.883594 -0.158937 1697 0.955595 0.052606 -0.110860
-4.585493 -3.883617 -0.157098 1699 0.955088 0.052277 -0.084399
-4.585371 -3.883502 -0.155248 1697 0.956844 0.053931 -0.057780
-4.585356 -3.883476 -0.153398 1697 0.957057 0.054305 -0.031162
-4.585725 -3.883787 -0.151567 1695 0.951753 0.049831 -0.004816
-4.586208 -3.884182 -0.149734 1689 0.944803 0.044147 0.021558
-4.586307 -3.884255 -0.147883 1679 0.943376 0.043097 0.048191
-4.586563 -3.884468 -0.146050 1675 0.939692 0.040030 0.074565
-4.587103 -3.884919 -0.144218 1673 0.931925 0.033543 0.100925
-4.587309 -3.885083 -0.142377 1669 0.928961 0.031183 0.127414
-4.588120 -3.885757 -0.140552 1677 0.917291 0.021485 0.153673
-4.589053 -3.886538 -0.138728 1673 0.903864 0.010247 0.179917
-4.589144 -3.886603 -0.136888 1653 0.902553 0.009310 0.206392
-4.589621 -3.887005 -0.135055 1643 0.895692 0.003527 0.232766
-4.590717 -3.887918 -0.133239 1645 0.879926 -0.009609 0.258896
-4.591143 -3.888271 -0.131396 1631 0.873792 -0.014689 0.285414
-4.591455 -3.888526 -0.129554 1611 0.869305 -0.018357 0.311917
-4.592937 -3.889775 -0.127746 1605 0.847981 -0.036329 0.337932
-4.594653 -3.891213 -0.125936 1593 0.823289 -0.057018 0.363975
-4.595849 -3.892224 -0.124120 1581 0.806081 -0.071567 0.390104
-4.597272 -3.893418 -0.122302 1557 0.785608 -0.088747 0.416263
-4.598482 -3.894429 -0.120484 1539 0.768195 -0.103292 0.442421
-4.599963 -3.895677 -0.118667 1515 0.746885 -0.121250 0.468565
-4.601558 -3.897010 -0.116857 1489 0.723935 -0.140430 0.494608
-4.603089 -3.898308 -0.115039 1457 0.701911 -0.159106 0.520766
-4.605083 -3.899977 -0.113227 1425 0.673219 -0.183119 0.546838
-4.607895 -3.902354 -0.111442 1375 0.632760 -0.217321 0.572522
-4.611057 -3.905017 -0.109654 1323 0.587264 -0.255636 0.598248
-4.614041 -3.907533 -0.107858 1235 0.544329 -0.291838 0.624090
-4.616527 -3.909629 -0.106053 1029 0.508555 -0.321999 0.650061
-4.613208 -3.904938 -0.211835 1283 0.556315 -0.254501 -0.871982
-4.610080 -3.902287 -0.209844 1355 0.601323 -0.216357 -0.843334
-4.606667 -3.899384 -0.207843 1409 0.650426 -0.174588 -0.814543
-4.604158 -3.897244 -0.205876 1449 0.686529 -0.143796 -0.786241
-4.602362 -3.895720 -0.203946 1489 0.712367 -0.121868 -0.758471
-4.600452 -3.894099 -0.202018 1517 0.739852 -0.098544 -0.730730
-4.598450 -3.892386 -0.200078 1533 0.768655 -0.073896 -0.702816
-4.597437 -3.891521 -0.198184 1553 0.783234 -0.061450 -0.675565
-4.596475 -3.890704 -0.196290 1575 0.797073 -0.049694 -0.648313
-4.595014 -3.889454 -0.194377 1591 0.818095 -0.031708 -0.620788
-4.593830 -3.888448 -0.192485 1609 0.835131 -0.017235 -0.593565
-4.592490 -3.887303 -0.190581 1625 0.854410 -0.000762 -0.566169
-4.591314 -3.886290 -0.188678 1645 0.871336 0.013815 -0.538788
-4.590465 -3.885572 -0.186803 1649 0.883548 0.024147 -0.511809
-4.589723 -3.884930 -0.184928 1659 0.894224 0.033385 -0.484831
-4.589274 -3.884534 -0.183061 1665 0.900687 0.039083 -0.457968
-4.589095 -3.884376 -0.181201 1679 0.903260 0.041354 -0.431205
-4.588687 -3.884022 -0.179343 1683 0.909133 0.046449 -0.404471
-4.588074 -3.883492 -0.177466 1689 0.917949 0.054075 -0.377464
-4.587446 -3.882949 -0.175601 1703 0.926985 0.061886 -0.350629
-4.586982 -3.882553 -0.173734 1713 0.933668 0.067584 -0.323766
-4.586640 -3.882248 -0.171874 1709 0.938587 0.071975 -0.297004
-4.586511 -3.882138 -0.170026 1705 0.940440 0.073556 -0.270414
-4.586168 -3.881833 -0.168168 1695 0.945379 0.077944 -0.243680
-4.586089 -3.881759 -0.166318 1705 0.946512 0.079011 -0.217061
-4.586358 -3.881972 -0.164477 1711 0.942642 0.075944 -0.190572
-4.586336 -3.881953 -0.162637 1707 0.942958 0.076218 -0.164097
-4.585658 -3.881361 -0.160760 1701 0.952714 0.084736 -0.137090
-4.585080 -3.880867 -0.158895 1693 0.961029 0.091844 -0.110255
-4.585514 -3.881227 -0.157062 1699 0.954786 0.086664 -0.083881
-4.585279 -3.881013 -0.155213 1699 0.958168 0.089745 -0.057277
-4.585092 -3.880847 -0.153363 1693 0.960858 0.092132 -0.030658
-4.585910 -3.881529 -0.151540 1701 0.949091 0.082318 -0.004428
-4.586337 -3.881882 -0.149707 1699 0.942944 0.077241 0.021946
-4.586543 -3.882046 -0.147866 1691 0.939980 0.074881 0.048435
-4.587197 -3.882595 -0.146043 1691 0.930573 0.066980 0.074666
-4.587566 -3.882892 -0.144200 1699 0.925263 0.062709 0.101184
-4.587708 -3.883007 -0.142360 1697 0.923218 0.061052 0.127658
-4.588249 -3.883458 -0.140527 1693 0.915431 0.054565 0.154033
-4.588846 -3.883951 -0.138703 1679 0.906841 0.047471 0.180277
-4.589102 -3.884164 -0.136861 1661 0.903164 0.044404 0.206781
-4.589756 -3.884699 -0.135028 1659 0.893751 0.036706 0.233155
-4.590624 -3.885430 -0.133203 1657 0.881264 0.026188 0.259414
-4.590880 -3.885643 -0.131362 1647 0.877579 0.023125 0.285903
-4.591641 -3.886268 -0.129537 1629 0.866629 0.014134 0.312162
-4.593236 -3.887616 -0.127728 1619 0.843679 -0.005262 0.338191
-4.594717 -3.888851 -0.125920 1605 0.822369 -0.023032 0.364205
-4.595920 -3.889868 -0.124103 1591 0.805059 -0.037667 0.390349
-4.597187 -3.890922 -0.122287 1577 0.786829 -0.052833 0.416479
-4.598497 -3.892031 -0.120460 1561 0.767982 -0.068788 0.442766
-4.599877 -3.893182 -0.118642 1539 0.748127 -0.085350 0.468925
-4.601238 -3.894326 -0.116824 1519 0.728545 -0.101810 0.495083
-4.602220 -3.895155 -0.114999 1487 0.714412 -0.113738 0.521342
-4.603815 -3.896488 -0.113179 1455 0.691462 -0.132918 0.547529
-4.606521 -3.898773 -0.111384 1417 0.652526 -0.165795 0.573356
-4.609233 -3.901051 -0.109590 1373 0.613508 -0.198574 0.599169
-4.612389 -3.903721 -0.107812 1301 0.568095 -0.236991 0.624752
-4.616491 -3.907182 -0.106038 1203 0.509077 -0.286788 0.650277
-4.613921 -3.903097 -0.213687 1253 0.546051 -0.228010 -0.898629
-4.610907 -3.900530 -0.211694 1337 0.589419 -0.191078 -0.869953
-4.607886 -3.897970 -0.209701 1397 0.632890 -0.154241 -0.841277
-4.604921 -3.895452 -0.207717 1439 0.675551 -0.118012 -0.812730
-4.602791 -3.893642 -0.205779 1477 0.706199 -0.091968 -0.784845
-4.601172 -3.892265 -0.203858 1511 0.729492 -0.072157 -0.757205
-4.599997 -3.891252 -0.201955 1537 0.746398 -0.057581 -0.729824
-4.598699 -3.890149 -0.200042 1559 0.765073 -0.041711 -0.702298
-4.597416 -3.889060 -0.198138 1579 0.783536 -0.026041 -0.674903
-4.596510 -3.888285 -0.196254 1601 0.796572 -0.014888 -0.647795
-4.595056 -3.887041 -0.194343 1613 0.817491 0.003009 -0.620298
-4.593367 -3.885609 -0.192422 1627 0.841793 0.023615 -0.592658
-4.592412 -3.884785 -0.190537 1637 0.855535 0.035471 -0.565536
-4.591684 -3.884158 -0.188661 1659 0.866012 0.044493 -0.538543
-4.590936 -3.883524 -0.186786 1663 0.876770 0.053615 -0.511565
-4.589816 -3.882568 -0.184892 1665 0.892886 0.067371 -0.484313
-4.589032 -3.881884 -0.183017 1667 0.904166 0.077210 -0.457334
-4.588902 -3.881775 -0.181157 1683 0.906039 0.078781 -0.430572
-4.588388 -3.881330 -0.179290 1689 0.913435 0.085182 -0.403708
-4.587875 -3.880884 -0.177423 1695 0.920817 0.091601 -0.376845
-4.587582 -3.880628 -0.175565 1713 0.925030 0.095282 -0.350111
-4.587238 -3.880322 -0.173707 1713 0.929983 0.099686 -0.323377
-4.586946 -3.880067 -0.171847 1713 0.934182 0.103354 -0.296615
-4.586760 -3.879901 -0.169999 1711 0.936858 0.105745 -0.270025
-4.586752 -3.879883 -0.168149 1715 0.936975 0.106002 -0.243406
-4.586181 -3.879396 -0.166282 1719 0.945187 0.113010 -0.216543
-4.585945 -3.879182 -0.164434 1717 0.948583 0.116088 -0.189953
-4.586094 -3.879304 -0.162593 1711 0.946443 0.114335 -0.163464
-4.586079 -3.879279 -0.160743 1709 0.946656 0.114695 -0.136845
-4.585843 -3.879064 -0.158895 1705 0.950052 0.117786 -0.110255
-4.586098 -3.879277 -0.157052 1703 0.946381 0.114722 -0.083737
-4.586483 -3.879588 -0.155221 1709 0.940844 0.110249 -0.057392
-4.586403 -3.879514 -0.153371 1709 0.941997 0.111312 -0.030773
-4.586438 -3.879538 -0.151530 1703 0.941489 0.110966 -0.004284
-4.586707 -3.879751 -0.149690 1695 0.937620 0.107902 0.022191
-4.586913 -3.879914 -0.147849 1701 0.934656 0.105556 0.048680
-4.587276 -3.880218 -0.146016 1697 0.929435 0.101182 0.075054
-4.588100 -3.880908 -0.144193 1705 0.917579 0.091254 0.101284
-4.588478 -3.881211 -0.142360 1705 0.912138 0.086894 0.127658
-4.588897 -3.881557 -0.140517 1703 0.906107 0.081917 0.154176
-4.589495 -3.882050 -0.138694 1691 0.897504 0.074822 0.180407
-4.589473 -3.882032 -0.136844 1679 0.897826 0.075083 0.207025
-4.589507 -3.882042 -0.134994 1671 0.897332 0.074939 0.233644
-4.589983 -3.882444 -0.133161 1659 0.890485 0.069155 0.260018
-4.590858 -3.883168 -0.131337 1657 0.877895 0.058737 0.286263
-4.592062 -3.884186 -0.129519 1647 0.860571 0.044089 0.312421
-4.593158 -3.885098 -0.127704 1635 0.844805 0.030967 0.338536
-4.594304 -3.886060 -0.125888 1625 0.828311 0.017125 0.364666
-4.595685 -3.887212 -0.124070 1617 0.808441 0.000549 0.390824
-4.596995 -3.888321 -0.122253 1597 0.789594 -0.015406 0.416968
-4.598376 -3.889472 -0.120435 1581 0.769725 -0.031969 0.443126
-4.599736 -3.890616 -0.118617 1567 0.750151 -0.048428 0.469284
-4.600832 -3.891529 -0.116801 1543 0.734384 -0.061567 0.495414
-4.601985 -3.892498 -0.114974 1515 0.717794 -0.075508 0.521702
-4.603565 -3.893831 -0.113156 1491 0.695057 -0.094688 0.547860
-4.605837 -3.895730 -0.111354 1459 0.662371 -0.122012 0.573788
-4.608265 -3.897785 -0.109550 1411 0.627435 -0.151579 0.599745
-4.610978 -3.900063 -0.107755 1345 0.588396 -0.184358 0.625572
-4.614796 -3.903286 -0.105983 1279 0.533461 -0.230731 0.651069
-4.618506 -3.906419 -0.104201 1169 0.480082 -0.275811 0.676709
-4.616893 -3.903225 -0.215634 1193 0.503293 -0.229853 -0.926644
-4.613309 -3.900182 -0.213614 1321 0.554860 -0.186069 -0.897579
-4.609618 -3.897061 -0.211595 1379 0.607964 -0.141164 -0.868529
-4.606441 -3.894362 -0.209603 1415 0.653679 -0.102328 -0.839867
-4.604424 -3.892648 -0.207654 1457 0.682700 -0.077666 -0.811824
-4.602969 -3.891406 -0.205743 1499 0.703633 -0.059797 -0.784327
-4.601287 -3.889979 -0.203813 1525 0.727839 -0.039262 -0.756557
-4.599990 -3.888876 -0.201909 1553 0.746501 -0.023392 -0.729162
-4.598927 -3.887962 -0.200015 1579 0.761794 -0.010243 -0.701910
-4.597637 -3.886865 -0.198112 1599 0.780353 0.005544 -0.674529
-4.596689 -3.886049 -0.196218 1621 0.793992 0.017283 -0.647277
-4.595107 -3.884707 -0.194306 1627 0.816757 0.036593 -0.619766
-4.593368 -3.883226 -0.192386 1635 0.841779 0.057903 -0.592140
-4.592754 -3.882696 -0.190509 1649 0.850616 0.065529 -0.565133
-4.591956 -3.882013 -0.188634 1663 0.862094 0.075354 -0.538154
-4.591050 -3.881239 -0.186749 1671 0.875130 0.086493 -0.511032
-4.590151 -3.880471 -0.184865 1679 0.888070 0.097542 -0.483924
-4.589638 -3.880026 -0.182998 1685 0.895445 0.103944 -0.457061
-4.589900 -3.880246 -0.181155 1699 0.891679 0.100781 -0.430543
-4.589672 -3.880038 -0.179307 1707 0.894958 0.103772 -0.403953
-4.589158 -3.879594 -0.177440 1713 0.902354 0.110160 -0.377090
-4.588537 -3.879057 -0.175574 1717 0.911287 0.117889 -0.350241
-4.587625 -3.878276 -0.173688 1719 0.924412 0.129123 -0.323104
-4.587111 -3.877831 -0.171821 1717 0.931808 0.135528 -0.296241
-4.587210 -3.877903 -0.169980 1717 0.930381 0.134492 -0.269752
-4.587144 -3.877843 -0.168132 1727 0.931335 0.135357 -0.243162
-4.586738 -3.877489 -0.166274 1725 0.937174 0.140447 -0.216428
-4.585996 -3.876862 -0.164397 1721 0.947849 0.149470 -0.189421
-4.585361 -3.876312 -0.162532 1711 0.956988 0.157384 -0.162586
-4.585688 -3.876580 -0.160699 1709 0.952282 0.153528 -0.136212
-4.586506 -3.877262 -0.158885 1715 0.940515 0.143713 -0.110111
-4.587438 -3.878042 -0.157069 1721 0.927102 0.132492 -0.083982
-4.587480 -3.878059 -0.155219 1725 0.926498 0.132249 -0.057363
-4.587187 -3.877803 -0.153371 1719 0.930718 0.135929 -0.030773
-4.587443 -3.878016 -0.151530 1719 0.927033 0.132866 -0.004284
-4.587542 -3.878089 -0.149690 1709 0.925606 0.131816 0.022191
-4.587298 -3.877868 -0.147830 1703 0.929119 0.134996 0.048953
-4.587276 -3.877849 -0.145991 1701 0.929435 0.135267 0.075414
-4.588265 -3.878671 -0.144166 1717 0.915205 0.123443 0.101673
-4.589084 -3.879353 -0.142350 1721 0.903418 0.113628 0.127802
-4.589461 -3.879657 -0.140510 1721 0.897998 0.109254 0.154277
-4.589496 -3.879681 -0.138669 1701 0.897490 0.108908 0.180766
-4.589630 -3.879789 -0.136828 1685 0.895562 0.107354 0.207255
-4.589786 -3.879904 -0.134976 1677 0.893318 0.105700 0.233903
-4.589984 -3.880075 -0.133136 1669 0.890471 0.103240 0.260378
-4.590966 -3.880889 -0.131320 1667 0.876338 0.091529 0.286507
-4.592176 -3.881901 -0.129504 1663 0.858931 0.076966 0.312637
-4.593323 -3.882863 -0.127687 1649 0.842424 0.063124 0.338781
-4.594753 -3.884063 -0.125878 1641 0.821855 0.045859 0.364809
-4.595792 -3.884934 -0.124053 1629 0.806905 0.033327 0.391068
-4.596554 -3.885559 -0.122220 1609 0.795941 0.024332 0.417443
-4.598028 -3.886802 -0.120410 1597 0.774727 0.006449 0.443486
-4.599515 -3.888044 -0.118592 1579 0.753334 -0.011424 0.469644
-4.600669 -3.889013 -0.116777 1557 0.736731 -0.025365 0.495759
-4.602093 -3.890206 -0.114959 1541 0.716237 -0.042531 0.521917
-4.603573 -3.891455 -0.113139 1511 0.694947 -0.060500 0.548104
-4.605445 -3.893019 -0.111329 1485 0.668011 -0.083004 0.574148
-4.607204 -3.894499 -0.109510 1445 0.642701 -0.104300 0.600320
-4.609575 -3.896497 -0.107707 1389 0.608588 -0.133048 0.626263
-4.612958 -3.899349 -0.105928 1329 0.559910 -0.174083 0.651860
-4.616448 -3.902292 -0.104148 1255 0.509694 -0.216429 0.677471
-4.620998 -3.906124 -0.102382 1079 0.444227 -0.271567 0.702881
-4.619403 -3.903095 -0.217565 1137 0.467177 -0.227983 -0.954428
-4.615997 -3.900199 -0.215552 1307 0.516185 -0.186313 -0.925464
-4.611915 -3.896749 -0.213506 1377 0.574915 -0.136674 -0.896025
-4.608395 -3.893755 -0.211495 1423 0.625562 -0.093594 -0.867090
-4.605879 -3.891622 -0.209529 1453 0.661768 -0.062905 -0.838802
-4.604809 -3.890715 -0.207635 1493 0.677164 -0.049852 -0.811550
-4.603406 -3.889520 -0.205724 1525 0.697349 -0.032658 -0.784054
-4.600997 -3.887479 -0.203767 1547 0.732010 -0.003293 -0.755896
-4.599607 -3.886284 -0.201856 1579 0.752010 0.013900 -0.728399
-4.598594 -3.885418 -0.199960 1601 0.766583 0.026363 -0.701119
-4.596905 -3.883986 -0.198039 1619 0.790884 0.046967 -0.673478
-4.595508 -3.882798 -0.196128 1631 0.810987 0.064061 -0.645982
-4.594161 -3.881646 -0.194226 1635 0.830369 0.080637 -0.618615
-4.593084 -3.880732 -0.192332 1643 0.845868 0.093786 -0.591363
-4.592072 -3.879866 -0.190448 1657 0.860427 0.106249 -0.564255
-4.591558 -3.879421 -0.188581 1673 0.867823 0.112650 -0.537392
-4.591273 -3.879172 -0.186721 1687 0.871926 0.116232 -0.510629
-4.590980 -3.878916 -0.184863 1705 0.876139 0.119916 -0.483896
-4.590366 -3.878386 -0.182986 1705 0.884975 0.127542 -0.456888
-4.589617 -3.877752 -0.181111 1709 0.895754 0.136664 -0.429910
-4.589445 -3.877586 -0.179261 1717 0.898224 0.139055 -0.403291
-4.589095 -3.877288 -0.177403 1717 0.903260 0.143339 -0.376557
-4.588517 -3.876794 -0.175536 1721 0.911575 0.150447 -0.349694
-4.588068 -3.876398 -0.173669 1723 0.918038 0.156145 -0.322831
-4.587383 -3.875813 -0.171804 1715 0.927898 0.164564 -0.295996
-4.587482 -3.875885 -0.169963 1725 0.926471 0.163528 -0.269507
-4.587695 -3.876056 -0.168122 1739 0.923404 0.161068 -0.243018
-4.587402 -3.875800 -0.166263 1737 0.927623 0.164752 -0.216270
-4.586824 -3.875306 -0.164397 1735 0.935939 0.171860 -0.189421
-4.585975 -3.874573 -0.162522 1721 0.948151 0.182406 -0.162442
-4.586401 -3.874926 -0.160699 1727 0.942024 0.177325 -0.136212
-4.587334 -3.875707 -0.158883 1735 0.928598 0.166090 -0.110083
-4.587490 -3.875821 -0.157043 1733 0.926354 0.164447 -0.083608
-4.587474 -3.875810 -0.155192 1733 0.926587 0.164608 -0.056975
-4.587452 -3.875778 -0.153344 1729 0.926903 0.165068 -0.030385
-4.587438 -3.875753 -0.151504 1729 0.927102 0.165428 -0.003910
-4.587358 -3.875679 -0.149653 1723 0.928254 0.166492 0.022723
-4.587350 -3.875661 -0.147803 1711 0.928371 0.166752 0.049342
-4.588104 -3.876294 -0.145989 1717 0.917524 0.157644 0.075443
-4.588367 -3.876499 -0.144149 1719 0.913737 0.154694 0.101917
-4.588686 -3.876761 -0.142306 1719 0.909147 0.150924 0.128435
-4.589342 -3.877311 -0.140483 1719 0.899706 0.143010 0.154665
-4.589647 -3.877558 -0.138652 1701 0.895322 0.139456 0.181011
-4.589802 -3.877673 -0.136800 1687 0.893092 0.137803 0.207658
-4.589944 -3.877787 -0.134959 1679 0.891047 0.136159 0.234148
-4.590256 -3.878043 -0.133128 1673 0.886553 0.132478 0.260493
-4.591068 -3.878718 -0.131303 1675 0.874876 0.122767 0.286752
-4.592171 -3.879637 -0.129487 1671 0.859000 0.109542 0.312881
-4.592875 -3.880222 -0.127654 1659 0.848873 0.101124 0.339255
-4.593964 -3.881142 -0.125836 1643 0.833203 0.087889 0.365414
-4.595502 -3.882433 -0.124028 1631 0.811076 0.069313 0.391428
-4.596705 -3.883436 -0.122203 1627 0.793766 0.054881 0.417687
-4.597638 -3.884217 -0.120378 1603 0.780339 0.043643 0.443946
-4.599175 -3.885508 -0.118568 1589 0.758226 0.025067 0.469989
-4.601161 -3.887170 -0.116767 1581 0.729650 0.001153 0.495903
-4.602707 -3.888468 -0.114949 1557 0.707407 -0.017523 0.522061
-4.604016 -3.889562 -0.113132 1531 0.688573 -0.033262 0.548205
-4.605661 -3.890945 -0.111312 1499 0.664903 -0.053162 0.574392
-4.607313 -3.892334 -0.109502 1465 0.641130 -0.073148 0.600435
-4.609805 -3.894422 -0.107699 1427 0.605274 -0.103192 0.626378
-4.613010 -3.897128 -0.105910 1375 0.559162 -0.142128 0.652119
-4.616229 -3.899833 -0.104123 1315 0.512843 -0.181047 0.677831
-4.619441 -3.902531 -0.102336 1205 0.466628 -0.219867 0.703543
-4.620921 -3.903780 -0.100507 905 0.445332 -0.237839 0.729860
-4.619290 -3.900627 -0.217509 1251 0.468803 -0.192471 -0.953622
-4.615150 -3.897122 -0.215463 1335 0.528370 -0.142039 -0.924183
-4.611630 -3.894142 -0.213452 1395 0.579018 -0.099162 -0.895248
-4.608837 -3.891764 -0.211478 1447 0.619202 -0.064946 -0.866845
-4.606371 -3.889680 -0.209512 1491 0.654687 -0.034960 -0.838557
-4.604632 -3.888199 -0.207582 1523 0.679709 -0.013653 -0.810788
-4.603229 -3.887004 -0.205668 1549 0.699894 0.003544 -0.783248
-4.601660 -3.885677 -0.203748 1571 0.722474 0.022634 -0.755622
-4.600142 -3.884384 -0.201837 1595 0.744312 0.041241 -0.728126
-4.598973 -3.883379 -0.199933 1609 0.761135 0.055701 -0.700730
-4.597455 -3.882086 -0.198022 1629 0.782973 0.074304 -0.673234
-4.595324 -3.880289 -0.196082 1635 0.813635 0.100160 -0.645320
-4.594090 -3.879235 -0.194190 1653 0.831391 0.115326 -0.618097
-4.593299 -3.878559 -0.192304 1669 0.842774 0.125051 -0.590960
-4.592393 -3.877784 -0.190419 1671 0.855810 0.136204 -0.563838
-4.591716 -3.877206 -0.188542 1685 0.865552 0.144519 -0.536831
-4.591203 -3.876761 -0.186677 1689 0.872928 0.150924 -0.509996
-4.590753 -3.876364 -0.184819 1699 0.879404 0.156636 -0.483262
-4.590289 -3.875968 -0.182952 1703 0.886080 0.162334 -0.456399
-4.590060 -3.875761 -0.181092 1707 0.889373 0.165312 -0.429637
-4.589767 -3.875505 -0.179235 1715 0.893593 0.168996 -0.402917
-4.589366 -3.875157 -0.177377 1715 0.899363 0.174001 -0.376183
-4.588682 -3.874572 -0.175511 1721 0.909202 0.182419 -0.349334
-4.587947 -3.873938 -0.173635 1717 0.919781 0.191541 -0.322342
-4.587925 -3.873920 -0.171784 1723 0.920097 0.191802 -0.295709
-4.587974 -3.873944 -0.169944 1739 0.919390 0.191455 -0.269234
-4.587461 -3.873498 -0.168077 1733 0.926772 0.197874 -0.242371
-4.586997 -3.873102 -0.166221 1729 0.933448 0.203572 -0.215665
-4.586647 -3.872804 -0.164361 1733 0.938484 0.207860 -0.188903
-4.586518 -3.872681 -0.162513 1735 0.940343 0.209630 -0.162313
-4.587172 -3.873230 -0.160689 1739 0.930930 0.201730 -0.136068
-4.587549 -3.873534 -0.158856 1735 0.925503 0.197356 -0.109694
-4.587248 -3.873270 -0.156999 1727 0.929839 0.201153 -0.082975
-4.587127 -3.873154 -0.155149 1737 0.931575 0.202824 -0.056356
-4.587446 -3.873416 -0.153317 1739 0.926985 0.199054 -0.029996
-4.587702 -3.873629 -0.151486 1739 0.923308 0.195987 -0.003651
-4.587793 -3.873695 -0.149636 1733 0.921997 0.195040 0.022968
-4.588113 -3.873957 -0.147803 1731 0.917394 0.191270 0.049342
-4.588269 -3.874072 -0.145963 1731 0.915143 0.189613 0.075817
-4.588696 -3.874425 -0.144132 1723 0.909003 0.184536 0.102162
-4.589343 -3.874967 -0.142306 1719 0.899692 0.176735 0.128435
-4.590161 -3.875648 -0.140483 1721 0.887926 0.166938 0.154665
-4.590588 -3.876002 -0.138650 1707 0.881778 0.161843 0.181040
-4.590736 -3.876109 -0.136809 1703 0.879651 0.160306 0.207529
-4.590935 -3.876266 -0.134969 1703 0.876783 0.158046 0.234004
-4.590912 -3.876248 -0.133119 1681 0.877120 0.158307 0.260622
-4.590997 -3.876307 -0.131278 1671 0.875892 0.157456 0.287112
-4.591823 -3.876996 -0.129453 1669 0.864008 0.147542 0.313371
-4.593189 -3.878133 -0.127635 1663 0.844359 0.131182 0.339529
-4.594621 -3.879333 -0.125829 1659 0.823748 0.113916 0.365515
-4.595944 -3.880442 -0.124011 1657 0.804716 0.097961 0.391673
-4.597375 -3.881642 -0.122203 1641 0.784126 0.080692 0.417687
-4.598243 -3.882359 -0.120378 1613 0.771632 0.070376 0.443946
-4.598891 -3.882901 -0.118545 1605 0.762315 0.062579 0.470320
-4.600421 -3.884185 -0.116725 1589 0.740298 0.044102 0.496507
-4.602530 -3.885952 -0.114924 1569 0.709952 0.018679 0.522421
-4.604794 -3.887859 -0.113132 1559 0.677376 -0.008761 0.548205
-4.606161 -3.888996 -0.111304 1527 0.657706 -0.025118 0.574507
-4.607477 -3.890098 -0.109487 1493 0.638770 -0.040977 0.600651
-4.609236 -3.891577 -0.107667 1453 0.613466 -0.062256 0.626838
-4.611550 -3.893520 -0.105863 1399 0.580170 -0.090215 0.652795
-4.614598 -3.896085 -0.104077 1353 0.536315 -0.127120 0.678493
-4.618372 -3.899266 -0.102296 1283 0.482010 -0.172889 0.704119
-4.622703 -3.902909 -0.100522 1121 0.419692 -0.225307 0.729644
-4.614110 -3.893828 -0.215373 1361 0.543334 -0.094644 -0.922888
-4.610698 -3.890939 -0.213361 1425 0.592424 -0.053076 -0.893939
-4.608339 -3.888946 -0.211404 1475 0.626372 -0.024401 -0.865780
-4.606051 -3.886996 -0.209458 1511 0.659291 0.003657 -0.837780
-4.604148 -3.885381 -0.207519 1533 0.686673 0.026895 -0.809881
-4.602680 -3.884138 -0.205606 1557 0.707791 0.044778 -0.782356
-4.601112 -3.882810 -0.203685 1583 0.730357 0.063886 -0.754716
-4.599993 -3.881854 -0.201791 1607 0.746453 0.077642 -0.727464
-4.598653 -3.880708 -0.199880 1619 0.765739 0.094132 -0.699968
-4.596849 -3.879177 -0.197959 1629 0.791694 0.116160 -0.672327
-4.595837 -3.878312 -0.196065 1647 0.806253 0.128605 -0.645075
-4.595209 -3.877783 -0.194188 1673 0.815289 0.136218 -0.618068
-4.594311 -3.877016 -0.192304 1679 0.828208 0.147253 -0.590960
-4.593078 -3.875961 -0.190410 1687 0.845950 0.162433 -0.563709
-4.592065 -3.875095 -0.188525 1701 0.860530 0.174896 -0.536586
-4.591601 -3.874699 -0.186658 1703 0.867206 0.180591 -0.509723
-4.591095 -3.874261 -0.184791 1705 0.874485 0.186896 -0.482860
-4.590688 -3.873907 -0.182933 1707 0.880337 0.191987 -0.456126
-4.590459 -3.873699 -0.181075 1707 0.883638 0.194982 -0.429392
-4.589995 -3.873303 -0.179208 1715 0.890313 0.200680 -0.402529
-4.589709 -3.873054 -0.177360 1725 0.894430 0.204261 -0.375939
-4.588575 -3.872083 -0.175466 1725 0.910745 0.218234 -0.348687
-4.587670 -3.871309 -0.173591 1727 0.923767 0.229369 -0.321709
-4.587990 -3.871571 -0.171760 1737 0.919164 0.225599 -0.295363
-4.588316 -3.871840 -0.169927 1741 0.914471 0.221729 -0.268989
-4.587803 -3.871395 -0.168059 1737 0.921853 0.228131 -0.242112
-4.587339 -3.870999 -0.166202 1735 0.928529 0.233829 -0.215392
-4.586875 -3.870588 -0.164334 1733 0.935205 0.239743 -0.188514
-4.586967 -3.870668 -0.162496 1743 0.933880 0.238594 -0.162068
-4.587742 -3.871309 -0.160680 1747 0.922731 0.229369 -0.135939
-4.587777 -3.871332 -0.158830 1743 0.922224 0.229040 -0.109320
-4.587655 -3.871216 -0.156982 1737 0.923980 0.230707 -0.082730
-4.588530 -3.871940 -0.155166 1743 0.911390 0.220292 -0.056601
-4.588850 -3.872202 -0.153335 1751 0.906787 0.216522 -0.030255
-4.588493 -3.871897 -0.151477 1749 0.911925 0.220909 -0.003521
-4.588806 -3.872152 -0.149644 1749 0.907418 0.217239 0.022853
-4.589011 -3.872315 -0.147803 1733 0.904467 0.214896 0.049342
-4.588832 -3.872157 -0.145955 1727 0.907047 0.217167 0.075932
-4.589252 -3.872503 -0.144122 1731 0.901003 0.212189 0.102306
-4.589913 -3.873045 -0.142299 1737 0.891493 0.204392 0.128536
-4.590339 -3.873398 -0.140456 1725 0.885360 0.199311 0.155054
-4.590595 -3.873597 -0.138625 1715 0.881682 0.196450 0.181399
-4.591471 -3.874335 -0.136800 1719 0.869072 0.185829 0.207658
-4.591840 -3.874632 -0.134969 1717 0.863768 0.181558 0.234004
-4.591654 -3.874467 -0.133119 1701 0.866444 0.183932 0.260622
-4.592294 -3.875001 -0.131286 1695 0.857230 0.176248 0.286997
-4.593176 -3.875732 -0.129460 1693 0.844544 0.165730 0.313270
-4.594323 -3.876695 -0.127645 1683 0.828036 0.151874 0.339385
-4.595248 -3.877467 -0.125819 1675 0.814726 0.140766 0.365658
-4.596294 -3.878331 -0.124003 1667 0.799680 0.128334 0.391788
-4.597376 -3.879244 -0.122176 1653 0.784112 0.115196 0.418076
-4.598187 -3.879919 -0.120353 1639 0.772442 0.105484 0.444306
-4.599062 -3.880643 -0.118527 1621 0.759852 0.095069 0.470579
-4.600714 -3.882032 -0.116719 1601 0.736079 0.075083 0.496594
-4.602815 -3.883792 -0.114917 1581 0.705849 0.049759 0.522522
-4.604802 -3.885454 -0.113105 1569 0.677260 0.025845 0.548594
-4.606175 -3.886612 -0.111287 1543 0.657507 0.009183 0.574752
-4.607542 -3.887749 -0.109471 1511 0.637837 -0.007177 0.600881
-4.609357 -3.889271 -0.107650 1477 0.611724 -0.029077 0.627083
-4.611621 -3.891178 -0.105847 1431 0.579148 -0.056514 0.653025
-4.614670 -3.893743 -0.104060 1381 0.535279 -0.093422 0.678738
-4.617996 -3.896539 -0.102271 1317 0.487417 -0.133652 0.704479
-4.621599 -3.899566 -0.100492 1207 0.435575 -0.177205 0.730076
-4.621157 -3.897285 -0.219358 1271 0.441935 -0.144386 -0.980226
-4.616846 -3.893639 -0.217301 1353 0.503965 -0.091927 -0.950629
-4.613441 -3.890758 -0.215301 1405 0.552960 -0.050473 -0.921853
-4.610476 -3.888253 -0.213307 1461 0.595621 -0.014429 -0.893162
-4.608346 -3.886443 -0.211360 1493 0.626269 0.011616 -0.865147
-4.606556 -3.884926 -0.209430 1525 0.652025 0.033440 -0.837377
-4.604932 -3.883543 -0.207509 1547 0.675394 0.053341 -0.809737
-4.603642 -3.882446 -0.205596 1573 0.693952 0.069124 -0.782212
-4.602401 -3.881399 -0.203692 1597 0.711812 0.084191 -0.754817
-4.600997 -3.880204 -0.201781 1619 0.732010 0.101384 -0.727320
-4.599201 -3.878681 -0.199861 1635 0.757849 0.123298 -0.699694
-4.597127 -3.876926 -0.197923 1639 0.787694 0.148550 -0.671809
-4.596001 -3.875963 -0.196029 1659 0.803893 0.162406 -0.644558
-4.595494 -3.875524 -0.194161 1667 0.811193 0.168721 -0.617680
-4.594702 -3.874848 -0.192287 1683 0.822589 0.178450 -0.590716
-4.593747 -3.874039 -0.190391 1699 0.836324 0.190090 -0.563435
-4.593005 -3.873397 -0.188516 1711 0.847000 0.199325 -0.536457
-4.592612 -3.873057 -0.186658 1725 0.852660 0.204220 -0.509723
-4.591985 -3.872514 -0.184791 1721 0.861676 0.212031 -0.482860
-4.591022 -3.871697 -0.182906 1709 0.875535 0.223788 -0.455737
-4.590003 -3.870825 -0.181022 1701 0.890197 0.236333 -0.428629
-4.589831 -3.870674 -0.179164 1713 0.892673 0.238508 -0.401896
-4.590044 -3.870845 -0.177333 1731 0.889607 0.236045 -0.375550
-4.589131 -3.870063 -0.175448 1733 0.902745 0.247297 -0.348428
-4.587940 -3.869051 -0.173564 1729 0.919877 0.261859 -0.321320
-4.587932 -3.869033 -0.171714 1733 0.919994 0.262116 -0.294701
-4.588031 -3.869106 -0.169873 1737 0.918574 0.261067 -0.268212
-4.588244 -3.869276 -0.168042 1745 0.915507 0.258621 -0.241867
-4.588109 -3.869161 -0.166194 1757 0.917448 0.260278 -0.215277
-4.587658 -3.868764 -0.164327 1743 0.923939 0.265989 -0.188414
-4.587472 -3.868599 -0.162477 1745 0.926615 0.268363 -0.161795
-4.587678 -3.868763 -0.160646 1743 0.923651 0.266003 -0.135450
-4.587947 -3.868976 -0.158805 1753 0.919781 0.262936 -0.108960
-4.587420 -3.868531 -0.156947 1745 0.927363 0.269341 -0.082227
-4.587191 -3.868323 -0.155099 1745 0.930656 0.272332 -0.055637
-4.587332 -3.868438 -0.153258 1741 0.928632 0.270679 -0.029147
-4.587652 -3.868700 -0.151416 1743 0.924021 0.266909 -0.002644
-4.588143 -3.869102 -0.149592 1747 0.916961 0.261125 0.023601
-4.588348 -3.869266 -0.147752 1741 0.914011 0.258765 0.050076
-4.588832 -3.869661 -0.145919 1735 0.907047 0.253080 0.076450
-4.589365 -3.870105 -0.144097 1743 0.899377 0.246693 0.102666
-4.590134 -3.870738 -0.142272 1745 0.888310 0.237585 0.128925
