241
-18.028633 -15.982601 -0.158089 903 0.956007 -0.411438 0.007510
-18.027252 -15.981344 -0.150677 929 0.975876 -0.393353 0.114157
-18.027731 -15.981735 -0.143285 929 0.968988 -0.398979 0.220517
-18.030304 -15.983976 -0.135899 895 0.931966 -0.431225 0.326790
-18.031239 -15.975343 -0.172894 963 0.918519 -0.307001 -0.205512
-18.027224 -15.971756 -0.165467 1013 0.976288 -0.255393 -0.098648
-18.024864 -15.969626 -0.158051 1041 1.010236 -0.224752 0.008057
-18.024368 -15.969151 -0.150655 1049 1.017372 -0.217904 0.114474
-18.025297 -15.969930 -0.143269 1051 1.004006 -0.229115 0.220747
-18.026707 -15.971145 -0.135880 1023 0.983725 -0.246597 0.327064
-18.028490 -15.972689 -0.128489 997 0.958065 -0.268813 0.433409
-18.032486 -15.976184 -0.121117 935 0.900570 -0.319104 0.539481
-18.038918 -15.972578 -0.187747 919 0.808030 -0.267221 -0.419224
-18.032562 -15.966924 -0.180295 1007 0.899473 -0.185864 -0.312001
-18.028555 -15.963331 -0.172869 1065 0.957132 -0.134173 -0.205152
-18.026367 -15.961357 -0.165452 1093 0.988610 -0.105769 -0.098433
-18.024504 -15.959663 -0.158044 1123 1.015423 -0.081399 0.008157
-18.023726 -15.958936 -0.150647 1125 1.026620 -0.070929 0.114589
-18.024101 -15.959236 -0.143256 1107 1.021214 -0.075251 0.220934
-18.025026 -15.960012 -0.135871 1107 1.007903 -0.086421 0.327193
-18.026934 -15.961664 -0.128489 1075 0.980460 -0.110187 0.433409
-18.029940 -15.964292 -0.121112 1043 0.937208 -0.147991 0.539553
-18.033314 -15.967244 -0.113732 973 0.888660 -0.190474 0.645740
-18.042233 -15.975102 -0.106379 853 0.760332 -0.303543 0.751539
-18.043444 -15.967181 -0.195180 905 0.742905 -0.189569 -0.526174
-18.035330 -15.959965 -0.187707 1015 0.859652 -0.085735 -0.418648
-18.030342 -15.955514 -0.180266 1081 0.931417 -0.021694 -0.311583
-18.027712 -15.953146 -0.172852 1117 0.969262 0.012377 -0.204907
-18.026789 -15.952284 -0.165457 1151 0.982545 0.024782 -0.098504
-18.025948 -15.951506 -0.158053 1177 0.994648 0.035979 0.008028
-18.024410 -15.950109 -0.150653 1163 1.016768 0.056082 0.114503
-18.023415 -15.949191 -0.143258 1149 1.031093 0.069282 0.220906
-18.024006 -15.949679 -0.135865 1151 1.022586 0.062256 0.327280
-18.026083 -15.951471 -0.128482 1137 0.992700 0.036473 0.433510
-18.028486 -15.953558 -0.121108 1095 0.958120 0.006449 0.539611
-18.032635 -15.957191 -0.113734 1059 0.898430 -0.045831 0.645711
-18.037495 -15.961460 -0.106366 981 0.828503 -0.107251 0.751726
-18.053566 -15.966391 -0.210070 831 0.597261 -0.178193 -0.740418
-18.047380 -15.960876 -0.202607 847 0.686261 -0.098853 -0.633037
-18.040962 -15.955157 -0.195143 999 0.778610 -0.016562 -0.525641
-18.036201 -15.950916 -0.187703 1077 0.847110 0.044459 -0.418591
-18.032196 -15.947339 -0.180276 1123 0.904742 0.095930 -0.311728
-18.029026 -15.944491 -0.172854 1157 0.950354 0.136904 -0.204936
-18.026937 -15.942602 -0.165448 1173 0.980405 0.164087 -0.098375
-18.026331 -15.942027 -0.158051 1181 0.989132 0.172361 0.008057
-18.026213 -15.941883 -0.150662 1191 0.990833 0.174433 0.114373
-18.026203 -15.941846 -0.143271 1187 0.990971 0.174968 0.220719
-18.026527 -15.942095 -0.135880 1191 0.986305 0.171387 0.327064
-18.027992 -15.943352 -0.128503 1171 0.965228 0.153301 0.433208
-18.031439 -15.946360 -0.121131 1153 0.915637 0.110022 0.539280
-18.034927 -15.949412 -0.113751 1111 0.865442 0.066099 0.645467
-18.039957 -15.953822 -0.106381 1047 0.793073 0.002648 0.751510
-18.045532 -15.958701 -0.099009 949 0.712854 -0.067553 0.857582
-18.058151 -15.960219 -0.210095 777 0.531286 -0.089398 -0.740778
-18.048231 -15.951410 -0.202595 947 0.674021 0.037351 -0.632864
-18.041428 -15.945368 -0.195134 1051 0.771914 0.124293 -0.525512
-18.037209 -15.941593 -0.187699 1119 0.832619 0.178605 -0.418533
-18.034252 -15.938942 -0.180278 1147 0.875157 0.216752 -0.311756
-18.031567 -15.936532 -0.172873 1175 0.913798 0.251427 -0.205210
-18.029306 -15.934503 -0.165457 1195 0.946319 0.280627 -0.098504
-18.028154 -15.933443 -0.158063 1213 0.962895 0.295872 0.007884
-18.028263 -15.933495 -0.150674 1227 0.961331 0.295131 0.114201
-18.028475 -15.933646 -0.143283 1217 0.958285 0.292950 0.220546
-18.029329 -15.934368 -0.135907 1209 0.945990 0.282562 0.326675
-18.030533 -15.935392 -0.128520 1201 0.928673 0.267825 0.432963
-18.032936 -15.937479 -0.121146 1187 0.894094 0.237801 0.539064
-18.036432 -15.940524 -0.113764 1151 0.843789 0.193987 0.645280
-18.039921 -15.943575 -0.106394 1099 0.793594 0.150091 0.751323
-18.044624 -15.947688 -0.099017 1017 0.725918 0.090908 0.857467
-18.053757 -15.955729 -0.091653 847 0.594516 -0.024782 0.963424
-18.059124 -15.951255 -0.210082 817 0.517289 0.039588 -0.740591
-18.051460 -15.944448 -0.202607 989 0.627559 0.137521 -0.633037
-18.044603 -15.938347 -0.195147 1081 0.726220 0.225314 -0.525699
-18.040489 -15.934677 -0.187722 1145 0.785416 0.278116 -0.418864
-18.037916 -15.932365 -0.180306 1179 0.822438 0.311378 -0.312159
-18.034782 -15.929567 -0.172885 1201 0.867528 0.351638 -0.205382
-18.032091 -15.927150 -0.165480 1229 0.906251 0.386423 -0.098835
-18.031050 -15.926189 -0.158078 1233 0.921236 0.400241 0.007668
-18.031153 -15.926236 -0.150696 1239 0.919754 0.399569 0.113884
-18.032465 -15.927366 -0.143309 1229 0.900872 0.383308 0.220172
-18.033766 -15.928473 -0.135932 1223 0.882156 0.367377 0.326316
-18.034416 -15.929006 -0.128548 1219 0.872797 0.359720 0.432560
-18.036219 -15.930565 -0.121167 1197 0.846863 0.337285 0.538762
-18.038996 -15.932981 -0.113791 1165 0.806905 0.302527 0.644891
-18.042597 -15.936117 -0.106419 1127 0.755091 0.257396 0.750963
-18.048237 -15.941061 -0.099047 1045 0.673939 0.186262 0.857035
-18.056269 -15.948122 -0.091679 921 0.558373 0.084664 0.963050
-18.062050 -15.944398 -0.210103 891 0.475191 0.138248 -0.740893
-18.053720 -15.937012 -0.202622 1003 0.595038 0.244525 -0.633253
-18.047201 -15.931210 -0.195161 1097 0.688841 0.328009 -0.525900
-18.043465 -15.927882 -0.187731 1157 0.742604 0.375885 -0.418994
-18.041006 -15.925671 -0.180316 1179 0.777979 0.407706 -0.312303
-18.038475 -15.923400 -0.172911 1205 0.814397 0.440378 -0.205756
-18.035940 -15.921125 -0.165496 1237 0.850870 0.473105 -0.099066
-18.035398 -15.920599 -0.158110 1247 0.858664 0.480679 0.007208
-18.034996 -15.920216 -0.150712 1277 0.864454 0.486196 0.113654
-18.033573 -15.918917 -0.143321 1245 0.884927 0.504885 0.219999
-18.034712 -15.919879 -0.135945 1233 0.868543 0.491039 0.326129
-18.037498 -15.922302 -0.128567 1221 0.828448 0.456172 0.432287
-18.039951 -15.924439 -0.121194 1201 0.793155 0.425421 0.538373
-18.041588 -15.925835 -0.113814 1165 0.769608 0.405346 0.644560
-18.044643 -15.928498 -0.106436 1129 0.725643 0.367021 0.750719
-18.049717 -15.932938 -0.099066 1061 0.652643 0.303145 0.856762
-18.055363 -15.937889 -0.091693 949 0.571409 0.231901 0.962848
-18.067217 -15.939341 -0.210131 917 0.400845 0.211016 -0.741296
-18.059593 -15.932568 -0.202656 1017 0.510538 0.308469 -0.633742
-18.053074 -15.926779 -0.195204 1103 0.604341 0.391761 -0.526519
-18.047905 -15.922188 -0.187766 1155 0.678714 0.457819 -0.419497
-18.045006 -15.919579 -0.180342 1175 0.720429 0.495362 -0.312677
-18.043297 -15.918041 -0.172942 1217 0.745019 0.517482 -0.206202
-18.041761 -15.916645 -0.165541 1245 0.767111 0.537570 -0.099713
-18.040213 -15.915249 -0.158141 1255 0.789395 0.557659 0.006762
-18.039495 -15.914568 -0.150746 1267 0.799714 0.567457 0.113165
-18.039106 -15.914191 -0.143357 1245 0.805313 0.572877 0.219481
-18.040358 -15.915252 -0.135981 1233 0.787310 0.557618 0.325611
-18.042044 -15.916712 -0.128600 1223 0.763049 0.536610 0.431812
-18.044006 -15.918405 -0.121218 1207 0.734810 0.512253 0.538028
-18.045921 -15.920047 -0.113837 1169 0.707256 0.488624 0.644229
-18.048967 -15.922705 -0.106459 1135 0.663428 0.450381 0.750388
-18.054451 -15.927495 -0.099097 1085 0.584527 0.381456 0.856316
-18.061348 -15.933542 -0.091727 991 0.485290 0.294445 0.962359
-18.070562 -15.932660 -0.210150 913 0.352709 0.307138 -0.741569
-18.064257 -15.927052 -0.202689 1027 0.443438 0.387837 -0.634217
-18.057781 -15.921308 -0.195237 1095 0.536610 0.470484 -0.526994
-18.053286 -15.917313 -0.187804 1151 0.601295 0.527965 -0.420044
-18.050102 -15.914467 -0.180382 1193 0.647099 0.568911 -0.313253
-18.047295 -15.911951 -0.172969 1225 0.687496 0.605110 -0.206591
-18.044666 -15.909597 -0.165555 1233 0.725314 0.638976 -0.099915
-18.042946 -15.908044 -0.158154 1229 0.750068 0.661329 0.006575
-18.043993 -15.908929 -0.150778 1247 0.735002 0.648595 0.112704
-18.044701 -15.909517 -0.143393 1261 0.724820 0.640128 0.218963
-18.044525 -15.909314 -0.136006 1227 0.727345 0.643051 0.325251
-18.046000 -15.910579 -0.128627 1217 0.706131 0.624856 0.431424
-18.048388 -15.912651 -0.121253 1193 0.671771 0.595038 0.537524
-18.051073 -15.914978 -0.113877 1165 0.633130 0.561556 0.643654
-18.054626 -15.918077 -0.106496 1127 0.582002 0.516960 0.749855
-18.060261 -15.923000 -0.099133 1069 0.500933 0.446127 0.855798
-18.066608 -15.928563 -0.091756 969 0.409600 0.366087 0.961942
-18.075102 -15.926848 -0.210175 899 0.287392 0.390759 -0.741929
-18.068949 -15.921397 -0.202721 1017 0.375926 0.469194 -0.634677
-18.062864 -15.915997 -0.195267 1085 0.463472 0.546901 -0.527425
-18.058313 -15.911946 -0.187834 1141 0.528953 0.605178 -0.420476
-18.055120 -15.909094 -0.180413 1181 0.574894 0.646221 -0.313699
-18.052818 -15.907021 -0.173007 1209 0.608019 0.676052 -0.207138
-18.050894 -15.905293 -0.165599 1223 0.635710 0.700903 -0.100548
-18.049347 -15.903889 -0.158198 1239 0.657967 0.721115 0.005942
-18.048740 -15.903314 -0.150811 1231 0.666694 0.729389 0.112229
-18.048626 -15.903171 -0.143422 1227 0.668340 0.731448 0.218546
-18.049217 -15.903659 -0.136039 1209 0.659833 0.724422 0.324776
-18.051516 -15.905641 -0.128665 1199 0.626763 0.695908 0.430877
-18.054905 -15.908592 -0.121295 1201 0.577995 0.653438 0.536920
-18.057358 -15.910716 -0.113911 1167 0.542702 0.622880 0.643165
-18.059824 -15.912850 -0.106536 1107 0.507218 0.592170 0.749280
-18.065018 -15.917396 -0.099166 1049 0.432488 0.526771 0.855323
-18.072075 -15.923577 -0.091794 943 0.330946 0.437826 0.961395
-18.084341 -15.924985 -0.210253 837 0.154454 0.417572 -0.743051
-18.076445 -15.917987 -0.202779 999 0.268072 0.518264 -0.635512
-18.070295 -15.912536 -0.195325 1073 0.356551 0.596698 -0.528260
-18.066021 -15.908733 -0.187890 1135 0.418052 0.651408 -0.421281
-18.062168 -15.905308 -0.180463 1173 0.473489 0.700697 -0.314418
-18.059254 -15.902701 -0.173051 1185 0.515423 0.738199 -0.207771
-18.057386 -15.901014 -0.165642 1207 0.542291 0.762473 -0.101166
-18.055948 -15.899717 -0.158240 1231 0.562983 0.781135 0.005337
-18.054632 -15.898510 -0.150847 1219 0.581920 0.798507 0.111711
-18.054508 -15.898372 -0.143458 1205 0.583704 0.800496 0.218028
-18.056480 -15.900059 -0.136077 1211 0.555327 0.776222 0.324229
-18.058384 -15.901710 -0.128707 1199 0.527938 0.752470 0.430272
-18.060349 -15.903401 -0.121325 1167 0.499670 0.728127 0.536488
-18.063633 -15.906250 -0.113955 1143 0.452412 0.687140 0.642532
-18.066750 -15.908961 -0.106578 1107 0.407569 0.648128 0.748675
-18.071030 -15.912681 -0.099202 1027 0.345985 0.594613 0.854805
-18.079294 -15.919919 -0.091834 901 0.227071 0.490463 0.960819
-18.086027 -15.916617 -0.202853 967 0.130194 0.537968 -0.636576
-18.078289 -15.909772 -0.195389 1057 0.241533 0.636464 -0.529181
-18.071592 -15.903837 -0.187928 1107 0.337889 0.721856 -0.421828
-18.068068 -15.900696 -0.180510 1145 0.388605 0.767056 -0.315094
-18.066694 -15.899459 -0.173098 1173 0.408365 0.784853 -0.208447
-18.064548 -15.897527 -0.165690 1209 0.439239 0.812654 -0.101857
-18.062565 -15.895742 -0.158292 1205 0.467781 0.838328 0.004589
-18.062185 -15.895366 -0.150895 1201 0.473242 0.843748 0.111021
-18.062666 -15.895756 -0.143512 1193 0.466326 0.838136 0.217251
-18.064032 -15.896914 -0.136134 1217 0.446676 0.821477 0.323409
-18.065163 -15.897882 -0.128747 1189 0.430402 0.807536 0.429697
-18.067028 -15.899477 -0.121365 1153 0.403562 0.784593 0.535913
-18.070530 -15.902528 -0.113995 1111 0.353175 0.740696 0.641956
-18.075401 -15.906769 -0.106627 1067 0.283083 0.679675 0.747970
-18.080498 -15.911213 -0.099248 967 0.209753 0.615731 0.854143
-18.097858 -15.917027 -0.202956 795 -0.040041 0.532068 -0.638058
-18.087254 -15.907664 -0.195458 977 0.112547 0.666790 -0.530173
-18.080933 -15.902071 -0.187995 1067 0.203496 0.747269 -0.422792
-18.076811 -15.898408 -0.180569 1113 0.262802 0.799975 -0.315943
-18.073793 -15.895710 -0.173148 1157 0.306219 0.838794 -0.209166
-18.070824 -15.893059 -0.165736 1161 0.348949 0.876941 -0.102519
-18.069719 -15.892051 -0.158341 1183 0.364839 0.891445 0.003884
-18.070597 -15.892778 -0.150956 1189 0.352215 0.880976 0.110143
-18.070580 -15.892734 -0.143567 1179 0.352462 0.881620 0.216460
-18.070469 -15.892598 -0.136178 1169 0.354053 0.883569 0.322776
-18.071388 -15.893367 -0.128792 1139 0.340825 0.872509 0.429049
-18.074728 -15.896270 -0.121413 1143 0.292771 0.830740 0.535222
-18.077898 -15.899018 -0.114033 1097 0.247159 0.791193 0.641409
-18.080690 -15.901436 -0.106658 1023 0.206982 0.756408 0.747524
-18.087929 -15.907766 -0.099295 921 0.102832 0.665322 0.853467
-18.095928 -15.905676 -0.195527 879 -0.012267 0.695400 -0.531166
-18.089722 -15.900183 -0.188063 995 0.077035 0.774438 -0.423771
-18.085154 -15.896132 -0.180630 1061 0.142763 0.832716 -0.316821
-18.082134 -15.893434 -0.173209 1111 0.186207 0.871549 -0.210044
-18.080643 -15.892094 -0.165806 1129 0.207668 0.890828 -0.103526
-18.079048 -15.890655 -0.158406 1149 0.230611 0.911534 0.002949
-18.078491 -15.890117 -0.151009 1165 0.238624 0.919273 0.109381
-18.078863 -15.890415 -0.143618 1155 0.233273 0.914979 0.215726
-18.079193 -15.890656 -0.136225 1129 0.228525 0.911507 0.322100
-18.080929 -15.892152 -0.128846 1123 0.203551 0.889991 0.428272
-18.082956 -15.893893 -0.121464 1101 0.174378 0.864935 0.534488
-18.085793 -15.896356 -0.114087 1027 0.133569 0.829505 0.640632
-18.091282 -15.901137 -0.106715 951 0.054586 0.760703 0.746704
-18.101748 -15.901333 -0.188161 881 -0.095999 0.757890 -0.425181
-18.095207 -15.895555 -0.180709 977 -0.001894 0.841031 -0.317958
-18.090803 -15.891651 -0.173276 1043 0.061474 0.897195 -0.211008
-18.089815 -15.890738 -0.165871 1083 0.075690 0.910340 -0.104461
-18.088938 -15.889926 -0.158477 1113 0.088314 0.922018 0.001927
-18.087061 -15.888249 -0.151068 1105 0.115319 0.946141 0.108531
-18.086718 -15.887906 -0.143670 1095 0.120259 0.951081 0.214978
-18.087969 -15.888966 -0.136283 1085 0.102256 0.935836 0.321265
-18.090429 -15.891096 -0.128909 1063 0.066853 0.905181 0.427366
-18.092955 -15.893273 -0.121524 1029 0.030518 0.873854 0.533625
-18.097008 -15.896787 -0.114150 965 -0.027801 0.823302 0.639726
-18.106291 -15.904906 -0.106795 829 -0.161370 0.706474 0.745553
-18.108984 -15.898047 -0.180817 819 -0.200121 0.805162 -0.319512
-18.103382 -15.893096 -0.173371 939 -0.119518 0.876406 -0.212375
-18.100674 -15.890679 -0.165957 1009 -0.080548 0.911178 -0.105699
-18.098585 -15.888804 -0.158540 1045 -0.050497 0.938155 0.001021
-18.098085 -15.888322 -0.151143 1039 -0.043306 0.945098 0.107452
-18.099232 -15.889290 -0.143756 1041 -0.059800 0.931170 0.213740
-18.099384 -15.889383 -0.136355 1023 -0.061996 0.929826 0.320229
-18.100695 -15.890501 -0.128968 979 -0.080850 0.913743 0.426517
-18.104481 -15.893790 -0.121596 915 -0.135326 0.866417 0.532589
-18.115225 -15.893645 -0.166062 771 -0.289917 0.868502 -0.107209
-18.113396 -15.892015 -0.158642 869 -0.263598 0.891953 -0.000447
-18.112123 -15.890849 -0.151240 901 -0.245293 0.908735 0.106057
-18.111900 -15.890614 -0.143832 893 -0.242082 0.912124 0.212647
-18.113871 -15.892314 -0.136450 865 -0.270432 0.887658 0.318863
