766
-7.076804 -6.382565 -0.168772 1401 0.932796 -0.058462 -0.154343
-7.076243 -6.382046 -0.165835 1409 0.940872 -0.050998 -0.112084
-7.075851 -6.381684 -0.162897 1413 0.946512 -0.045783 -0.069810
-7.075514 -6.381365 -0.159958 1407 0.951362 -0.041193 -0.027523
-7.075066 -6.380946 -0.157032 1403 0.957805 -0.035169 0.014578
-7.075651 -6.381458 -0.154108 1401 0.949386 -0.042531 0.056650
-7.076664 -6.382352 -0.151201 1397 0.934814 -0.055395 0.098478
-7.077034 -6.382672 -0.148279 1393 0.929489 -0.059999 0.140521
-7.077396 -6.382983 -0.145369 1389 0.924282 -0.064479 0.182391
-7.078416 -6.383884 -0.142452 1379 0.909606 -0.077440 0.224362
-7.079534 -6.384884 -0.139546 1371 0.893517 -0.091827 0.266175
-7.080442 -6.385684 -0.136631 1359 0.880454 -0.103340 0.308118
-7.081994 -6.387073 -0.133732 1335 0.858122 -0.123326 0.349830
-7.083062 -6.388023 -0.130825 1317 0.842753 -0.136993 0.391657
-7.084131 -6.388959 -0.127909 1285 0.827378 -0.150461 0.433614
-7.086388 -6.390986 -0.125015 1247 0.794898 -0.179627 0.475254
-7.088646 -6.393013 -0.122122 1203 0.762411 -0.208793 0.516880
-7.091777 -6.395820 -0.119234 1149 0.717362 -0.249183 0.558434
-7.095622 -6.399273 -0.116352 1063 0.662035 -0.298864 0.599902
-7.101151 -6.400947 -0.207462 857 0.582482 -0.322953 -0.711033
-7.096695 -6.396905 -0.204409 1069 0.646598 -0.264792 -0.667105
-7.092618 -6.393222 -0.201361 1175 0.705259 -0.211798 -0.623249
-7.089518 -6.390414 -0.198349 1235 0.749862 -0.171401 -0.579911
-7.086846 -6.387986 -0.195345 1275 0.788311 -0.136465 -0.536688
-7.084559 -6.385910 -0.192358 1301 0.821217 -0.106592 -0.493710
-7.083305 -6.384766 -0.189396 1335 0.839261 -0.090133 -0.451091
-7.082206 -6.383765 -0.186432 1361 0.855075 -0.075731 -0.408443
-7.081114 -6.382758 -0.183479 1379 0.870787 -0.061241 -0.365954
-7.080072 -6.381815 -0.180525 1393 0.885778 -0.047670 -0.323451
-7.078811 -6.380663 -0.177572 1395 0.903919 -0.031094 -0.280961
-7.078153 -6.380044 -0.174625 1419 0.913387 -0.022188 -0.238558
-7.077278 -6.379244 -0.171681 1417 0.925977 -0.010676 -0.196199
-7.076452 -6.378480 -0.168736 1421 0.937867 0.000316 -0.153825
-7.076101 -6.378161 -0.165798 1427 0.942916 0.004906 -0.111551
-7.075604 -6.377692 -0.162861 1427 0.950065 0.011650 -0.069292
-7.075596 -6.377667 -0.159941 1427 0.950182 0.012014 -0.027278
-7.076343 -6.378331 -0.157026 1429 0.939431 0.002456 0.014665
-7.076167 -6.378149 -0.154099 1431 0.941963 0.005077 0.056780
-7.075991 -6.377980 -0.151169 1427 0.944494 0.007506 0.098938
-7.076507 -6.378435 -0.148245 1425 0.937071 0.000961 0.141010
-7.077199 -6.379043 -0.145342 1405 0.927115 -0.007787 0.182780
-7.078106 -6.379842 -0.142426 1411 0.914066 -0.019279 0.224737
-7.078846 -6.380498 -0.139513 1393 0.903418 -0.028720 0.266650
-7.080307 -6.381793 -0.136614 1381 0.882396 -0.047354 0.308362
-7.081313 -6.382694 -0.133698 1377 0.867919 -0.060315 0.350319
-7.082333 -6.383594 -0.130793 1355 0.853244 -0.073268 0.392118
-7.083772 -6.384881 -0.127884 1325 0.832537 -0.091786 0.433974
-7.085659 -6.386557 -0.124983 1295 0.805388 -0.115902 0.475715
-7.087972 -6.388626 -0.122089 1269 0.772106 -0.145672 0.517355
-7.090293 -6.390703 -0.119196 1229 0.738713 -0.175558 0.558981
-7.094075 -6.394106 -0.116314 1167 0.684292 -0.224518 0.600449
-7.097416 -6.397100 -0.113434 1069 0.636224 -0.267598 0.641888
-7.103648 -6.399284 -0.210430 795 0.546551 -0.299022 -0.753738
-7.098870 -6.394956 -0.207359 1065 0.615305 -0.236751 -0.709551
-7.094520 -6.391022 -0.204304 1161 0.677891 -0.180148 -0.665594
-7.091197 -6.388013 -0.201283 1235 0.725705 -0.136849 -0.622127
-7.088805 -6.385843 -0.198288 1287 0.760120 -0.105625 -0.579033
-7.086342 -6.383616 -0.195292 1311 0.795563 -0.073584 -0.535925
-7.084936 -6.382329 -0.192329 1331 0.815789 -0.055066 -0.493292
-7.083018 -6.380590 -0.189350 1365 0.843391 -0.030044 -0.450429
-7.081765 -6.379446 -0.186388 1385 0.861415 -0.013585 -0.407810
-7.081044 -6.378790 -0.183443 1403 0.871789 -0.004144 -0.365436
-7.079847 -6.377688 -0.180489 1417 0.889017 0.011712 -0.322933
-7.078909 -6.376825 -0.177536 1431 0.902512 0.024130 -0.280443
-7.078195 -6.376176 -0.174599 1437 0.912783 0.033468 -0.238184
-7.077369 -6.375412 -0.171654 1441 0.924666 0.044459 -0.195810
-7.076928 -6.375000 -0.168717 1455 0.931013 0.050387 -0.153551
-7.076751 -6.374832 -0.165787 1451 0.933558 0.052802 -0.111393
-7.076415 -6.374513 -0.162850 1451 0.938395 0.057392 -0.069134
-7.076777 -6.374825 -0.159937 1471 0.933187 0.052905 -0.027220
-7.076762 -6.374793 -0.157007 1463 0.933400 0.053365 0.014938
-7.076376 -6.374424 -0.154070 1447 0.938958 0.058675 0.057197
-7.076578 -6.374600 -0.151150 1443 0.936049 0.056143 0.099211
-7.076828 -6.374811 -0.148228 1437 0.932453 0.053104 0.141254
-7.077408 -6.375318 -0.145313 1425 0.924110 0.045811 0.183197
-7.078267 -6.376068 -0.142408 1429 0.911747 0.035018 0.224996
-7.078790 -6.376530 -0.139486 1419 0.904220 0.028370 0.267039
-7.079699 -6.377330 -0.136582 1405 0.891144 0.016864 0.308823
-7.081201 -6.378668 -0.133682 1399 0.869531 -0.002388 0.350549
-7.082374 -6.379713 -0.130766 1379 0.852653 -0.017427 0.392506
-7.083611 -6.380805 -0.127859 1361 0.834856 -0.033138 0.434334
-7.085596 -6.382581 -0.124968 1337 0.806294 -0.058696 0.475931
-7.087644 -6.384408 -0.122065 1307 0.776826 -0.084980 0.517701
-7.088922 -6.385544 -0.119158 1265 0.758439 -0.101323 0.559528
-7.090802 -6.387226 -0.116257 1219 0.731386 -0.125528 0.601269
-7.094206 -6.390285 -0.113367 1147 0.682412 -0.169541 0.642852
-7.098477 -6.394118 -0.110502 1049 0.620959 -0.224690 0.684075
-7.106061 -6.397607 -0.213390 757 0.511835 -0.274891 -0.796328
-7.101332 -6.393328 -0.210318 1071 0.579875 -0.213328 -0.752127
-7.096268 -6.388763 -0.207247 1173 0.652739 -0.147641 -0.707940
-7.092897 -6.385704 -0.204216 1241 0.701246 -0.103628 -0.664328
-7.090070 -6.383147 -0.201214 1283 0.741924 -0.066833 -0.621134
-7.087895 -6.381171 -0.198225 1319 0.773217 -0.038408 -0.578127
-7.086467 -6.379877 -0.195253 1353 0.793766 -0.019787 -0.535364
-7.084836 -6.378388 -0.192284 1377 0.817230 0.001640 -0.492645
-7.083031 -6.376750 -0.189314 1401 0.843199 0.025207 -0.449911
-7.081883 -6.375699 -0.186361 1415 0.859720 0.040329 -0.407422
-7.080463 -6.374413 -0.183399 1429 0.880152 0.058833 -0.364803
-7.078875 -6.372966 -0.180428 1439 0.902999 0.079656 -0.322055
-7.078279 -6.372411 -0.177492 1447 0.911575 0.087642 -0.279810
-7.077991 -6.372143 -0.174564 1453 0.915719 0.091498 -0.237681
-7.077109 -6.371336 -0.171619 1453 0.928412 0.103107 -0.195307
-7.076940 -6.371160 -0.168690 1459 0.930841 0.105638 -0.153163
-7.076980 -6.371185 -0.165760 1475 0.930265 0.105282 -0.111004
-7.076203 -6.370472 -0.162815 1471 0.941448 0.115539 -0.068630
-7.076244 -6.370498 -0.159893 1469 0.940858 0.115161 -0.026587
-7.076495 -6.370709 -0.156973 1463 0.937242 0.112129 0.015427
-7.076759 -6.370935 -0.154051 1465 0.933448 0.108877 0.057470
-7.077024 -6.371147 -0.151140 1471 0.929633 0.105824 0.099355
-7.076680 -6.370821 -0.148201 1445 0.934580 0.110516 0.141643
-7.077043 -6.371133 -0.145290 1445 0.929359 0.106029 0.183528
-7.078217 -6.372177 -0.142384 1455 0.912467 0.091004 0.225341
-7.078691 -6.372590 -0.139469 1451 0.905648 0.085062 0.267283
-7.079319 -6.373146 -0.136557 1431 0.896612 0.077062 0.309183
-7.080073 -6.373803 -0.133642 1407 0.885764 0.067608 0.351125
-7.081464 -6.375040 -0.130734 1395 0.865751 0.049811 0.392967
-7.083295 -6.376672 -0.127844 1385 0.839405 0.026332 0.434549
-7.084790 -6.378003 -0.124935 1371 0.817889 0.007177 0.476406
-7.086083 -6.379154 -0.122027 1343 0.799289 -0.009386 0.518247
-7.087634 -6.380542 -0.119118 1311 0.776970 -0.029351 0.560103
-7.090647 -6.383243 -0.116242 1275 0.733616 -0.068219 0.601485
-7.094114 -6.386338 -0.113352 1225 0.683736 -0.112753 0.643067
-7.097134 -6.389045 -0.110464 1149 0.640279 -0.151696 0.684621
-7.099882 -6.391502 -0.107567 1035 0.600739 -0.187051 0.726305
-7.105527 -6.393279 -0.213337 1017 0.519519 -0.212621 -0.795566
-7.099218 -6.387595 -0.210222 1141 0.610297 -0.130839 -0.750746
-7.094973 -6.383753 -0.207169 1213 0.671373 -0.075553 -0.706817
-7.091987 -6.381046 -0.204155 1277 0.714336 -0.036603 -0.663451
-7.089684 -6.378970 -0.201168 1321 0.747475 -0.006737 -0.620472
-7.087886 -6.377338 -0.198189 1355 0.773348 0.016748 -0.577609
-7.085990 -6.375606 -0.195210 1375 0.800627 0.041667 -0.534745
-7.084458 -6.374218 -0.192240 1393 0.822671 0.061639 -0.492012
-7.083197 -6.373067 -0.189287 1413 0.840811 0.078201 -0.449523
-7.082050 -6.372017 -0.186323 1427 0.857319 0.093309 -0.406875
-7.080797 -6.370873 -0.183371 1449 0.875343 0.109769 -0.364400
-7.079530 -6.369729 -0.180418 1463 0.893579 0.126228 -0.321911
-7.078710 -6.368972 -0.177473 1471 0.905373 0.137123 -0.279537
-7.077996 -6.368309 -0.174526 1457 0.915651 0.146660 -0.237134
-7.077555 -6.367897 -0.171589 1463 0.921990 0.152588 -0.194875
-7.077812 -6.368116 -0.168678 1477 0.918292 0.149439 -0.152990
-7.078223 -6.368478 -0.165756 1487 0.912378 0.144231 -0.110947
-7.077943 -6.368203 -0.162827 1479 0.916412 0.148183 -0.068803
-7.077229 -6.367554 -0.159891 1475 0.926683 0.157521 -0.026558
-7.076884 -6.367227 -0.156954 1465 0.931651 0.162228 0.015700
-7.076925 -6.367253 -0.154034 1475 0.931061 0.161857 0.057715
-7.077295 -6.367558 -0.151112 1471 0.925736 0.157466 0.099758
-7.077882 -6.368072 -0.148209 1467 0.917291 0.150070 0.141528
-7.078244 -6.368383 -0.145287 1479 0.912076 0.145597 0.183571
-7.078438 -6.368552 -0.142365 1471 0.909291 0.143161 0.225614
-7.078962 -6.369000 -0.139452 1455 0.901751 0.136718 0.267528
-7.079485 -6.369464 -0.136528 1441 0.894224 0.130043 0.309600
-7.080233 -6.370113 -0.133625 1427 0.883459 0.120705 0.351370
-7.081574 -6.371314 -0.130716 1413 0.864166 0.103422 0.393226
-7.083461 -6.372989 -0.127825 1399 0.837017 0.079320 0.434823
-7.085118 -6.374471 -0.124926 1393 0.813175 0.057996 0.476535
-7.085977 -6.375221 -0.122011 1369 0.800812 0.047210 0.518478
-7.088073 -6.377097 -0.119108 1341 0.770658 0.020212 0.560247
-7.090708 -6.379452 -0.116224 1309 0.732744 -0.013674 0.601744
-7.093679 -6.382110 -0.113337 1265 0.689994 -0.051917 0.643283
-7.096587 -6.384718 -0.110439 1201 0.648149 -0.089440 0.684981
-7.099341 -6.387182 -0.107544 1109 0.608527 -0.124897 0.726636
-7.102962 -6.390420 -0.104662 973 0.556424 -0.171483 0.768103
-7.108879 -6.392306 -0.216322 925 0.471287 -0.198618 -0.838515
-7.103220 -6.387203 -0.213224 1129 0.552713 -0.125199 -0.793940
-7.098268 -6.382738 -0.210154 1207 0.623964 -0.060953 -0.749767
-7.095106 -6.379880 -0.207131 1259 0.669459 -0.019828 -0.706271
-7.092448 -6.377467 -0.204126 1303 0.707702 0.014888 -0.663033
-7.090314 -6.375534 -0.201140 1353 0.738411 0.042703 -0.620069
-7.088250 -6.373658 -0.198162 1381 0.768106 0.069694 -0.577220
-7.086396 -6.371984 -0.195183 1399 0.794781 0.093783 -0.534357
-7.084752 -6.370495 -0.192211 1425 0.818438 0.115209 -0.491594
-7.083009 -6.368906 -0.189241 1437 0.843522 0.138070 -0.448861
-7.081749 -6.367755 -0.186289 1449 0.861648 0.154632 -0.406386
-7.080812 -6.366906 -0.183334 1461 0.875130 0.166845 -0.363868
-7.079936 -6.366106 -0.180389 1465 0.887734 0.178358 -0.321494
-7.079550 -6.365736 -0.177452 1479 0.893291 0.183682 -0.279235
-7.078941 -6.365181 -0.174515 1475 0.902052 0.191668 -0.236976
-7.078548 -6.364805 -0.171587 1487 0.907706 0.197074 -0.194846
-7.078267 -6.364543 -0.168650 1483 0.911747 0.200848 -0.152587
-7.077818 -6.364123 -0.165722 1485 0.918210 0.206892 -0.110458
-7.077482 -6.363805 -0.162785 1487 0.923040 0.211469 -0.068199
-7.077363 -6.363680 -0.159865 1497 0.924755 0.213266 -0.026184
-7.077774 -6.364042 -0.156942 1491 0.918841 0.208059 0.015873
-7.078150 -6.364355 -0.154030 1487 0.913435 0.203551 0.057773
-7.077757 -6.363993 -0.151102 1483 0.919088 0.208759 0.099902
-7.077896 -6.364104 -0.148182 1491 0.917085 0.207167 0.141916
-7.078538 -6.364660 -0.145268 1477 0.907850 0.199167 0.183845
-7.078901 -6.364973 -0.142346 1471 0.902629 0.194659 0.225888
-7.079746 -6.365722 -0.139441 1467 0.890471 0.183881 0.267686
-7.080654 -6.366522 -0.136536 1467 0.877401 0.172375 0.309485
-7.081457 -6.367229 -0.133621 1453 0.865847 0.162200 0.351427
-7.082631 -6.368273 -0.130714 1445 0.848955 0.147181 0.393255
-7.083924 -6.369411 -0.127808 1427 0.830355 0.130804 0.435067
-7.085419 -6.370740 -0.124909 1411 0.808839 0.111683 0.476780
-7.086921 -6.372078 -0.122000 1387 0.787227 0.092431 0.518636
-7.088591 -6.373574 -0.119101 1367 0.763200 0.070908 0.560348
-7.090199 -6.375006 -0.116201 1333 0.740065 0.050298 0.602075
-7.092673 -6.377211 -0.113306 1289 0.704470 0.018573 0.643729
-7.096245 -6.380399 -0.110426 1245 0.653075 -0.027300 0.685168
-7.099650 -6.383444 -0.107536 1189 0.604081 -0.071107 0.726751
-7.103487 -6.386891 -0.104654 1085 0.548870 -0.120705 0.768219
-7.106900 -6.386524 -0.216217 1081 0.499760 -0.115429 -0.837004
-7.101571 -6.381715 -0.213139 1189 0.576438 -0.046229 -0.792717
-7.097542 -6.378082 -0.210091 1259 0.634413 0.006045 -0.748861
-7.094540 -6.375375 -0.207079 1301 0.677603 0.044994 -0.705522
-7.091379 -6.372516 -0.204058 1331 0.723084 0.086126 -0.662055
-7.089531 -6.370834 -0.201078 1361 0.749677 0.110331 -0.619177
-7.088215 -6.369640 -0.198116 1397 0.768613 0.127511 -0.576559
-7.086152 -6.367765 -0.195137 1411 0.798294 0.154488 -0.533695
-7.084291 -6.366083 -0.192158 1433 0.825072 0.178687 -0.490832
-7.083409 -6.365277 -0.189213 1447 0.837765 0.190289 -0.448458
-7.082750 -6.364671 -0.186277 1465 0.847247 0.199002 -0.406213
-7.081329 -6.363384 -0.183315 1469 0.867693 0.217527 -0.363594
-7.080446 -6.362576 -0.180370 1475 0.880399 0.229149 -0.321220
-7.080551 -6.362652 -0.177450 1489 0.878883 0.228059 -0.279206
-7.079948 -6.362089 -0.174503 1501 0.887562 0.236154 -0.236803
-7.079220 -6.361426 -0.171568 1501 0.898039 0.245698 -0.194573
-7.078785 -6.361021 -0.168631 1491 0.904296 0.251523 -0.152314
-7.078714 -6.360946 -0.165711 1501 0.905318 0.252600 -0.110299
-7.078650 -6.360864 -0.162781 1513 0.906238 0.253780 -0.068141
-7.078523 -6.360732 -0.159863 1509 0.908063 0.255681 -0.026156
-7.078235 -6.360463 -0.156923 1501 0.912207 0.259550 0.016147
-7.078171 -6.360394 -0.154005 1497 0.913133 0.260545 0.058132
-7.078863 -6.361001 -0.151091 1505 0.903171 0.251811 0.100060
-7.079617 -6.361658 -0.148186 1507 0.892324 0.242357 0.141859
-7.079979 -6.361970 -0.145264 1497 0.887116 0.237870 0.183902
-7.080719 -6.362627 -0.142359 1495 0.876468 0.228415 0.225700
-7.081299 -6.363132 -0.139446 1483 0.868125 0.221150 0.267614
-7.081451 -6.363244 -0.136526 1483 0.865936 0.219537 0.309629
-7.082080 -6.363800 -0.133612 1473 0.856887 0.211537 0.351557
-7.083142 -6.364744 -0.130705 1463 0.841607 0.197953 0.393384
-7.084162 -6.365644 -0.127791 1443 0.826925 0.185006 0.435312
-7.085937 -6.367218 -0.124899 1423 0.801388 0.162358 0.476924
-7.087600 -6.368693 -0.122000 1419 0.777457 0.141137 0.518636
-7.089375 -6.370281 -0.119101 1389 0.751921 0.118283 0.560348
-7.091367 -6.372050 -0.116198 1357 0.723262 0.092836 0.602118
-7.093135 -6.373631 -0.113298 1323 0.697822 0.070085 0.643844
-7.095400 -6.375650 -0.110396 1281 0.665232 0.041035 0.685600
-7.098315 -6.378252 -0.107508 1227 0.623291 0.003595 0.727154
-7.102153 -6.381684 -0.104626 1155 0.568067 -0.045783 0.768621
-7.106375 -6.385467 -0.101742 1025 0.507314 -0.100218 0.810118
-7.110104 -6.385487 -0.219202 965 0.453661 -0.100506 -0.879954
-7.105529 -6.381366 -0.216139 1139 0.519492 -0.041207 -0.835882
-7.101172 -6.377439 -0.213083 1215 0.582180 0.015293 -0.791911
-7.097800 -6.374393 -0.210053 1275 0.630701 0.059121 -0.748314
-7.095128 -6.371980 -0.207048 1321 0.669143 0.093837 -0.705076
-7.092624 -6.369710 -0.204054 1355 0.705170 0.126502 -0.661997
-7.090280 -6.367591 -0.201058 1383 0.738899 0.156993 -0.618889
-7.088859 -6.366303 -0.198095 1413 0.759344 0.175524 -0.576256
-7.087277 -6.364866 -0.195124 1425 0.782109 0.196203 -0.533508
-7.085199 -6.362990 -0.192146 1435 0.812009 0.223194 -0.490659
-7.083680 -6.361602 -0.189186 1453 0.833861 0.243166 -0.448069
-7.082525 -6.360559 -0.186232 1469 0.850485 0.258171 -0.405566
-7.081965 -6.360039 -0.183296 1485 0.858540 0.265650 -0.363321
-7.081306 -6.359433 -0.180349 1481 0.868022 0.274370 -0.320918
-7.081033 -6.359165 -0.177422 1493 0.871947 0.278226 -0.278803
-7.080696 -6.358846 -0.174494 1505 0.876797 0.282816 -0.236674
-7.080129 -6.358333 -0.171557 1509 0.884955 0.290198 -0.194414
-7.079421 -6.357677 -0.168621 1519 0.895143 0.299639 -0.152170
-7.079084 -6.357358 -0.165682 1509 0.899994 0.304229 -0.109882
-7.079342 -6.357577 -0.162771 1503 0.896282 0.301080 -0.067997
-7.079809 -6.357982 -0.159859 1515 0.889559 0.295248 -0.026098
-7.079095 -6.357319 -0.156923 1509 0.899836 0.304792 0.016147
-7.078262 -6.356563 -0.153977 1507 0.911822 0.315666 0.058535
-7.079338 -6.357506 -0.151081 1511 0.896337 0.302102 0.100204
-7.080365 -6.358414 -0.148174 1511 0.881559 0.289032 0.142031
-7.080776 -6.358776 -0.145264 1501 0.875645 0.283824 0.183902
-7.081139 -6.359088 -0.142342 1501 0.870423 0.279337 0.225945
-7.082047 -6.359889 -0.139435 1499 0.857360 0.267811 0.267773
-7.083122 -6.360832 -0.136530 1491 0.841895 0.254240 0.309571
-7.083045 -6.360749 -0.133610 1475 0.843000 0.255441 0.351586
-7.083679 -6.361313 -0.130695 1471 0.833875 0.247324 0.393528
-7.085294 -6.362737 -0.127796 1457 0.810644 0.226830 0.435240
-7.086356 -6.363680 -0.124880 1435 0.795358 0.213266 0.477197
-7.087537 -6.364731 -0.121973 1427 0.778370 0.198145 0.519024
-7.089095 -6.366112 -0.119076 1403 0.755948 0.178268 0.560708
-7.090919 -6.367737 -0.116175 1365 0.729705 0.154893 0.602449
-7.093296 -6.369857 -0.113281 1345 0.695503 0.124389 0.644089
-7.095987 -6.372257 -0.110396 1305 0.656787 0.089851 0.685600
-7.098951 -6.374907 -0.107498 1269 0.614139 0.051725 0.727298
-7.101655 -6.377320 -0.104603 1193 0.575230 0.017008 0.768952
-7.106641 -6.381772 -0.101734 1093 0.503492 -0.047053 0.810233
-7.109116 -6.383977 -0.098829 901 0.467877 -0.078778 0.852031
-7.111313 -6.382716 -0.219198 1075 0.436268 -0.060637 -0.879897
-7.105431 -6.377425 -0.216093 1173 0.520898 0.015492 -0.835220
-7.101450 -6.373842 -0.213045 1237 0.578180 0.067052 -0.791364
-7.098890 -6.371530 -0.210041 1297 0.615017 0.100314 -0.748141
-7.095679 -6.368636 -0.207029 1337 0.661219 0.141953 -0.704803
-7.093230 -6.366423 -0.204033 1367 0.696457 0.173795 -0.661695
-7.091362 -6.364734 -0.201054 1395 0.723331 0.198097 -0.618832
-7.089458 -6.363008 -0.198074 1423 0.750727 0.222933 -0.575954
-7.087444 -6.361183 -0.195097 1439 0.779708 0.249190 -0.533120
-7.085967 -6.359838 -0.192135 1449 0.800956 0.268545 -0.490501
-7.084867 -6.358838 -0.189182 1461 0.816784 0.282933 -0.448012
-7.083937 -6.357995 -0.186228 1471 0.830163 0.295063 -0.405508
-7.083118 -6.357239 -0.183292 1477 0.841950 0.305944 -0.363264
-7.082668 -6.356820 -0.180355 1491 0.848427 0.311968 -0.321004
-7.082339 -6.356508 -0.177427 1501 0.853161 0.316462 -0.278875
-7.081939 -6.356138 -0.174488 1515 0.858911 0.321779 -0.236587
-7.080904 -6.355188 -0.171545 1521 0.873806 0.335453 -0.194242
-7.079797 -6.354181 -0.168591 1517 0.889737 0.349944 -0.151738
-7.079398 -6.353812 -0.165663 1501 0.895473 0.355247 -0.109609
-7.080208 -6.354526 -0.162760 1533 0.883823 0.344976 -0.067839
-7.080634 -6.354888 -0.159847 1527 0.877689 0.339769 -0.025925
-7.080185 -6.354469 -0.156910 1511 0.884152 0.345800 0.016334
-7.080603 -6.354838 -0.153998 1517 0.878135 0.340489 0.058233
-7.081245 -6.355395 -0.151093 1511 0.868900 0.332476 0.100031
-7.081007 -6.355162 -0.148165 1511 0.872324 0.335824 0.142161
-7.081271 -6.355388 -0.145243 1511 0.868523 0.332572 0.184204
-7.082067 -6.356087 -0.142338 1509 0.857072 0.322513 0.226003
-7.082486 -6.356443 -0.139425 1501 0.851041 0.317395 0.267916
-7.083170 -6.357042 -0.136513 1499 0.841202 0.308778 0.309816
-7.083861 -6.357648 -0.133598 1499 0.831261 0.300058 0.351758
-7.085042 -6.358699 -0.130692 1479 0.814266 0.284936 0.393571
-7.085894 -6.359442 -0.127787 1463 0.802006 0.274240 0.435370
-7.086411 -6.359898 -0.124863 1443 0.794569 0.267681 0.477442
-7.088242 -6.361529 -0.121973 1439 0.768222 0.244216 0.519024
-7.090778 -6.363786 -0.119089 1419 0.731736 0.211736 0.560521
-7.092995 -6.365756 -0.116186 1399 0.699832 0.183394 0.602290
-7.094545 -6.367143 -0.113287 1369 0.677534 0.163435 0.644003
-7.096377 -6.368761 -0.110386 1331 0.651174 0.140156 0.685744
-7.099180 -6.371261 -0.107491 1285 0.610839 0.104184 0.727398
-7.102584 -6.374306 -0.104611 1221 0.561865 0.060370 0.768837
-7.106262 -6.377587 -0.101719 1139 0.508940 0.013166 0.810449
-7.110428 -6.381314 -0.098835 1001 0.449002 -0.040459 0.851945
-7.110933 -6.378531 -0.219143 1127 0.441736 -0.000419 -0.879105
-7.105108 -6.373299 -0.216038 1205 0.525550 0.074860 -0.834429
-7.101617 -6.370146 -0.213007 1267 0.575779 0.120232 -0.790817
-7.099007 -6.367797 -0.210003 1319 0.613329 0.154029 -0.747594
-7.096600 -6.365626 -0.207007 1357 0.647963 0.185267 -0.704487
-7.094208 -6.363457 -0.204022 1381 0.682385 0.216470 -0.661537
-7.091318 -6.360850 -0.201008 1395 0.723962 0.253986 -0.618170
-7.089248 -6.358982 -0.198029 1417 0.753746 0.280861 -0.575307
-7.088261 -6.358082 -0.195076 1439 0.767948 0.293814 -0.532817
-7.087000 -6.356931 -0.192123 1453 0.786095 0.310370 -0.490328
-7.086013 -6.356030 -0.189169 1469 0.800297 0.323337 -0.447825
-7.085138 -6.355231 -0.186224 1487 0.812887 0.334836 -0.405451
-7.083983 -6.354188 -0.183270 1495 0.829505 0.349841 -0.362947
-7.083318 -6.353574 -0.180334 1507 0.839069 0.358678 -0.320702
-7.083037 -6.353313 -0.177406 1513 0.843117 0.362431 -0.278573
-7.082868 -6.353137 -0.174477 1523 0.845545 0.364962 -0.236429
-7.081930 -6.352288 -0.171532 1529 0.859041 0.377182 -0.194055
-7.080830 -6.351287 -0.168589 1527 0.874869 0.391583 -0.151709
-7.080767 -6.351205 -0.165669 1525 0.875775 0.392763 -0.109695
-7.080751 -6.351187 -0.162739 1545 0.876008 0.393017 -0.067537
-7.080513 -6.350955 -0.159821 1533 0.879432 0.396358 -0.025551
-7.080721 -6.351124 -0.156899 1523 0.876440 0.393929 0.016492
-7.081203 -6.351543 -0.153986 1529 0.869504 0.387898 0.058405
-7.081999 -6.352243 -0.151081 1529 0.858053 0.377827 0.100204
-7.081663 -6.351924 -0.148153 1523 0.862883 0.382417 0.142334
-7.081584 -6.351841 -0.145224 1517 0.864022 0.383610 0.184477
-7.082667 -6.352793 -0.142328 1509 0.848441 0.369909 0.226147
-7.083464 -6.353492 -0.139414 1507 0.836969 0.359858 0.268075
-7.084260 -6.354192 -0.136509 1511 0.825518 0.349786 0.309873
-7.085216 -6.355042 -0.133604 1503 0.811762 0.337553 0.351672
-7.085907 -6.355649 -0.130690 1489 0.801821 0.328819 0.393600
-7.086815 -6.356448 -0.127785 1471 0.788757 0.317320 0.435398
-7.088101 -6.357578 -0.124876 1469 0.770253 0.301066 0.477255
-7.089380 -6.358716 -0.121969 1445 0.751852 0.284689 0.519082
-7.090568 -6.359759 -0.119063 1419 0.734755 0.269684 0.560895
-7.092391 -6.361384 -0.116161 1413 0.708525 0.246302 0.602650
-7.094489 -6.363246 -0.113270 1385 0.678337 0.219510 0.644247
-7.097025 -6.365515 -0.110376 1355 0.641850 0.186858 0.685888
-7.099892 -6.368066 -0.107489 1313 0.600595 0.150159 0.727427
-7.102423 -6.370316 -0.104595 1257 0.564177 0.117782 0.769067
-7.105393 -6.372972 -0.101698 1189 0.521447 0.079567 0.810751
-7.110050 -6.377130 -0.098820 1081 0.454436 0.019739 0.852161
-7.115685 -6.382175 -0.095959 861 0.373360 -0.052850 0.893326
-7.109724 -6.373538 -0.219065 1147 0.459129 0.071423 -0.877983
-7.105477 -6.369710 -0.216009 1235 0.520240 0.126502 -0.834012
-7.101769 -6.366378 -0.212971 1287 0.573591 0.174447 -0.790299
-7.099315 -6.364159 -0.209974 1329 0.608897 0.206371 -0.747177
-7.096971 -6.362040 -0.206978 1371 0.642626 0.236861 -0.704069
-7.094354 -6.359683 -0.203983 1397 0.680279 0.270775 -0.660976
-7.092765 -6.358252 -0.201012 1421 0.703146 0.291365 -0.618228
-7.091352 -6.356957 -0.198052 1443 0.723475 0.309999 -0.575638
-7.089714 -6.355476 -0.195080 1453 0.747043 0.331309 -0.532875
-7.088447 -6.354332 -0.192118 1463 0.765272 0.347769 -0.490256
-7.087195 -6.353189 -0.189165 1487 0.783289 0.364214 -0.447767
-7.086040 -6.352145 -0.186213 1491 0.799906 0.379233 -0.405292
-7.085109 -6.351288 -0.183268 1509 0.813299 0.391569 -0.362918
-7.083953 -6.350245 -0.180313 1513 0.829937 0.406574 -0.320400
-7.083015 -6.349380 -0.177370 1511 0.843432 0.419020 -0.278055
-7.082678 -6.349076 -0.174440 1527 0.848283 0.423397 -0.235897
-7.082510 -6.348900 -0.171513 1533 0.850698 0.425929 -0.193782
-7.082326 -6.348725 -0.168593 1539 0.853346 0.428447 -0.151767
-7.082367 -6.348750 -0.165672 1535 0.852756 0.428083 -0.109738
-7.081492 -6.347951 -0.162727 1535 0.865346 0.439582 -0.067364
-7.081421 -6.347861 -0.159809 1533 0.866369 0.440879 -0.025379
-7.081951 -6.348331 -0.156895 1539 0.858739 0.434114 0.016550
-7.081894 -6.348256 -0.153977 1537 0.859562 0.435191 0.058535
-7.081760 -6.348131 -0.151047 1525 0.861490 0.436989 0.100693
-7.082235 -6.348544 -0.148134 1535 0.854657 0.431047 0.142607
-7.083150 -6.349336 -0.145229 1527 0.841491 0.419651 0.184406
-7.083842 -6.349944 -0.142325 1523 0.831535 0.410903 0.226190
-7.084861 -6.350843 -0.139420 1527 0.816873 0.397970 0.267988
-7.085056 -6.351012 -0.136498 1519 0.814067 0.395535 0.310031
-7.085636 -6.351504 -0.133585 1495 0.805718 0.388461 0.351945
-7.087250 -6.352942 -0.130695 1489 0.782493 0.367768 0.393528
-7.088199 -6.353786 -0.127779 1481 0.768840 0.355624 0.435485
-7.088898 -6.354384 -0.124876 1469 0.758782 0.347021 0.477255
-7.090401 -6.355723 -0.121967 1455 0.737156 0.327755 0.519111
-7.092225 -6.357348 -0.119076 1441 0.710913 0.304373 0.560708
-7.094168 -6.359066 -0.116175 1427 0.682954 0.279653 0.602449
-7.096166 -6.360841 -0.113274 1401 0.654207 0.254116 0.644190
-7.098215 -6.362667 -0.110382 1355 0.624725 0.227839 0.685801
-7.100472 -6.364679 -0.107479 1321 0.592252 0.198893 0.727571
-7.102681 -6.366641 -0.104586 1279 0.560465 0.170660 0.769197
-7.105813 -6.369435 -0.101688 1211 0.515403 0.130461 0.810895
-7.110140 -6.373297 -0.098814 1123 0.453146 0.074887 0.852247
-7.116328 -6.378824 -0.095959 959 0.364111 -0.004638 0.893326
-7.109666 -6.369640 -0.219017 1163 0.459966 0.127511 -0.877292
-7.105421 -6.365813 -0.215963 1235 0.521042 0.182577 -0.833350
-7.102370 -6.363069 -0.212950 1301 0.564946 0.222055 -0.789997
-7.100235 -6.361150 -0.209963 1343 0.595662 0.249671 -0.747019
-7.097739 -6.358888 -0.206957 1367 0.631573 0.282212 -0.703767
-7.095059 -6.356481 -0.203962 1395 0.670138 0.316846 -0.660674
-7.093261 -6.354849 -0.200983 1429 0.696011 0.340331 -0.617810
-7.091728 -6.353461 -0.198021 1439 0.718062 0.360304 -0.575191
-7.090636 -6.352468 -0.195068 1459 0.733780 0.374588 -0.532702
-7.089320 -6.351274 -0.192106 1475 0.752710 0.391768 -0.490084
-7.088550 -6.350568 -0.189159 1499 0.763790 0.401929 -0.447681
-7.087892 -6.349962 -0.186224 1505 0.773258 0.410643 -0.405451
-7.086408 -6.348624 -0.183262 1505 0.794610 0.429894 -0.362832
-7.085484 -6.347775 -0.180319 1513 0.807906 0.442114 -0.320486
-7.084426 -6.346817 -0.177374 1525 0.823131 0.455897 -0.278113
-7.083006 -6.345530 -0.174423 1521 0.843563 0.474415 -0.235652
-7.082781 -6.345311 -0.171494 1529 0.846801 0.477564 -0.193508
-7.082493 -6.345043 -0.168566 1529 0.850945 0.481420 -0.151379
-7.082926 -6.345412 -0.165653 1547 0.844715 0.476117 -0.109465
-7.083176 -6.345624 -0.162741 1555 0.841113 0.473064 -0.067566
-7.083161 -6.345592 -0.159811 1543 0.841333 0.473523 -0.025407
-7.083153 -6.345567 -0.156893 1553 0.841449 0.473880 0.016578
-7.083459 -6.345836 -0.153980 1545 0.837045 0.470010 0.058492
-7.083396 -6.345755 -0.151060 1529 0.837950 0.471177 0.100506
-7.083052 -6.345442 -0.148132 1535 0.842897 0.475685 0.142636
-7.083687 -6.345992 -0.145220 1529 0.833765 0.467767 0.184535
-7.084595 -6.346791 -0.142313 1527 0.820695 0.456275 0.226362
-7.085287 -6.347398 -0.139410 1515 0.810740 0.447541 0.268132
-7.086586 -6.348542 -0.136503 1517 0.792051 0.431075 0.309960
-7.087648 -6.349486 -0.133606 1511 0.776771 0.417497 0.351643
-7.088067 -6.349841 -0.130684 1489 0.770740 0.412385 0.393686
-7.088926 -6.350591 -0.127779 1477 0.758384 0.401593 0.435485
-7.090261 -6.351771 -0.124870 1475 0.739173 0.384619 0.477341
-7.091273 -6.352664 -0.121965 1469 0.724614 0.371768 0.519139
-7.092719 -6.353945 -0.119066 1455 0.703805 0.353340 0.560852
-7.094607 -6.355620 -0.116167 1439 0.676642 0.329237 0.602564
-7.096431 -6.357244 -0.113266 1415 0.650399 0.305869 0.644305
-7.098318 -6.358920 -0.110365 1371 0.623243 0.281752 0.686046
-7.100855 -6.361176 -0.107470 1333 0.586743 0.249293 0.727701
-7.103617 -6.363634 -0.104584 1297 0.546997 0.213925 0.769226
-7.106524 -6.366226 -0.101688 1249 0.505173 0.176629 0.810895
-7.110475 -6.369744 -0.098805 1163 0.448323 0.126015 0.852377
-7.116229 -6.374885 -0.095942 1023 0.365532 0.052040 0.893571
-7.122731 -6.380704 -0.093084 687 0.271976 -0.031684 0.934693
-7.110487 -6.366757 -0.219006 1191 0.448151 0.168992 -0.877134
-7.106452 -6.363132 -0.215958 1261 0.506209 0.221150 -0.833278
-7.103338 -6.360338 -0.212936 1309 0.551018 0.261348 -0.789796
-7.100616 -6.357874 -0.209932 1337 0.590180 0.296805 -0.746573
-7.098217 -6.355711 -0.206936 1379 0.624698 0.327927 -0.703465
-7.096251 -6.353936 -0.203957 1407 0.652986 0.353463 -0.660602
-7.095270 -6.353043 -0.201004 1439 0.667099 0.366314 -0.618112
-7.094178 -6.352050 -0.198050 1461 0.682810 0.380605 -0.575609
-7.092478 -6.350519 -0.195080 1477 0.707276 0.402629 -0.532875
-7.090456 -6.348686 -0.192101 1483 0.736367 0.429002 -0.490012
-7.089357 -6.347699 -0.189148 1501 0.752181 0.443205 -0.447522
-7.088915 -6.347288 -0.186220 1517 0.758542 0.449119 -0.405393
-7.087488 -6.345993 -0.183258 1515 0.779070 0.467753 -0.362774
-7.086500 -6.345093 -0.180313 1521 0.793285 0.480707 -0.320400
-7.085296 -6.343999 -0.177361 1529 0.810609 0.496446 -0.277925
-7.084135 -6.342948 -0.174418 1519 0.827316 0.511567 -0.235580
-7.083972 -6.342780 -0.171488 1535 0.829662 0.513982 -0.193422
-7.083468 -6.342318 -0.168562 1537 0.836914 0.520631 -0.151321
-7.083781 -6.342579 -0.165640 1555 0.832414 0.516878 -0.109278
-7.083557 -6.342361 -0.162722 1547 0.835631 0.520013 -0.067292
-7.083535 -6.342337 -0.159802 1541 0.835947 0.520356 -0.025278
-7.084442 -6.343137 -0.156897 1549 0.822897 0.508850 0.016521
-7.084435 -6.343112 -0.153977 1543 0.823000 0.509207 0.058535
-7.084587 -6.343224 -0.151056 1543 0.820812 0.507595 0.100564
-7.084517 -6.343148 -0.148136 1549 0.821820 0.508686 0.142578
-7.084110 -6.342772 -0.145208 1541 0.827680 0.514099 0.184708
-7.084318 -6.342941 -0.142286 1527 0.824681 0.511670 0.226751
-7.085380 -6.343884 -0.139391 1515 0.809402 0.498099 0.268405
-7.087008 -6.345323 -0.136492 1527 0.785979 0.477393 0.310118
-7.088244 -6.346416 -0.133595 1519 0.768195 0.461668 0.351801
-7.089251 -6.347303 -0.130690 1491 0.753705 0.448906 0.393600
-7.090110 -6.348053 -0.127773 1487 0.741348 0.438114 0.435571
-7.091389 -6.349190 -0.124876 1481 0.722940 0.421750 0.477255
-7.092731 -6.350377 -0.121969 1467 0.703633 0.404674 0.519082
-7.093974 -6.351464 -0.119072 1457 0.685747 0.389037 0.560765
-7.095469 -6.352795 -0.116163 1433 0.664238 0.369882 0.602621
-7.097413 -6.354513 -0.113272 1419 0.636265 0.345161 0.644219
-7.099566 -6.356433 -0.110369 1387 0.605288 0.317539 0.685988
-7.101774 -6.358394 -0.107477 1349 0.573515 0.289320 0.727600
-7.104207 -6.360558 -0.104572 1313 0.538510 0.258185 0.769398
-7.107338 -6.363351 -0.101685 1265 0.493461 0.218000 0.810938
-7.111239 -6.366819 -0.098803 1185 0.437332 0.168101 0.852406
-7.116553 -6.371564 -0.095932 1071 0.360873 0.099827 0.893715
-7.121755 -6.376209 -0.093062 825 0.286020 0.032994 0.935010
-7.111659 -6.364134 -0.218990 1213 0.431287 0.206735 -0.876904
-7.107574 -6.360458 -0.215944 1277 0.490065 0.259626 -0.833077
-7.104026 -6.357276 -0.212916 1317 0.541118 0.305409 -0.789508
-7.102012 -6.355451 -0.209927 1353 0.570091 0.331666 -0.746501
-7.100318 -6.353928 -0.206957 1397 0.594468 0.353580 -0.703767
-7.098402 -6.352188 -0.203978 1431 0.622036 0.378616 -0.660904
-7.096491 -6.350470 -0.200998 1445 0.649535 0.403336 -0.618026
-7.094958 -6.349082 -0.198036 1469 0.671593 0.423308 -0.575407
-7.093482 -6.347752 -0.195067 1477 0.692827 0.442443 -0.532688
-7.091403 -6.345877 -0.192087 1483 0.722741 0.469420 -0.489810
-7.089983 -6.344588 -0.189137 1491 0.743173 0.487972 -0.447364
-7.089373 -6.344033 -0.186199 1511 0.751948 0.495959 -0.405091
-7.088337 -6.343082 -0.183245 1507 0.766857 0.509639 -0.362587
-7.087566 -6.342376 -0.180309 1529 0.777951 0.519794 -0.320343
-7.086894 -6.341771 -0.177374 1539 0.787618 0.528500 -0.278113
-7.086509 -6.341402 -0.174437 1541 0.793155 0.533811 -0.235853
-7.086172 -6.341083 -0.171509 1557 0.798006 0.538401 -0.193724
-7.085884 -6.340815 -0.168579 1563 0.802150 0.542256 -0.151566
-7.085708 -6.340645 -0.165661 1557 0.804682 0.544706 -0.109580
-7.085421 -6.340376 -0.162733 1557 0.808812 0.548575 -0.067451
-7.085797 -6.340689 -0.159821 1559 0.803405 0.544068 -0.025551
-7.086488 -6.341295 -0.156916 1561 0.793464 0.535354 0.016247
-7.085976 -6.340826 -0.153980 1551 0.800826 0.542099 0.058492
-7.085535 -6.340414 -0.151053 1553 0.807172 0.548027 0.100607
-7.086219 -6.341012 -0.148148 1543 0.797333 0.539423 0.142406
-7.086861 -6.341569 -0.145235 1543 0.788092 0.531409 0.184319
-7.087070 -6.341738 -0.142313 1525 0.785087 0.528974 0.226362
-7.087810 -6.342394 -0.139408 1537 0.774438 0.519540 0.268161
-7.088550 -6.343037 -0.136505 1527 0.763790 0.510284 0.309931
-7.089675 -6.344031 -0.133598 1519 0.747605 0.495986 0.351758
-7.090318 -6.344587 -0.130684 1501 0.738350 0.487986 0.393686
-7.090785 -6.344992 -0.127771 1483 0.731633 0.482154 0.435600
-7.092455 -6.346474 -0.124872 1485 0.707606 0.460831 0.477312
-7.094343 -6.348149 -0.121981 1479 0.680436 0.436735 0.518909
-7.095844 -6.349472 -0.119083 1469 0.658845 0.417696 0.560607
-7.097403 -6.350854 -0.116175 1447 0.636410 0.397813 0.602449
-7.099458 -6.352672 -0.113281 1435 0.606839 0.371652 0.644089
-7.100904 -6.353952 -0.110375 1391 0.586036 0.353237 0.685902
-7.103490 -6.356258 -0.107479 1367 0.548829 0.320057 0.727571
-7.106084 -6.358559 -0.104593 1333 0.511506 0.286946 0.769096
-7.108132 -6.360384 -0.101683 1273 0.482038 0.260689 0.810967
-7.111159 -6.363070 -0.098795 1195 0.438484 0.222041 0.852521
-7.116200 -6.367565 -0.095926 1101 0.365950 0.157363 0.893801
-7.123744 -6.374310 -0.093073 925 0.257403 0.060315 0.934852
-7.113454 -6.361908 -0.219004 1235 0.405463 0.238762 -0.877105
-7.109691 -6.358519 -0.215965 1283 0.459602 0.287523 -0.833379
-7.106746 -6.355868 -0.212952 1333 0.501976 0.325669 -0.790026
-7.103745 -6.353175 -0.209940 1359 0.545159 0.364413 -0.746688
-7.101828 -6.351450 -0.206961 1395 0.572740 0.389236 -0.703825
-7.099973 -6.349775 -0.203981 1427 0.599429 0.413339 -0.660947
-7.097525 -6.347563 -0.200985 1441 0.634653 0.445167 -0.617839
-7.095719 -6.345938 -0.198015 1461 0.660642 0.468542 -0.575105
-7.093963 -6.344349 -0.195046 1467 0.685905 0.491410 -0.532386
-7.093199 -6.343650 -0.192101 1489 0.696903 0.501468 -0.490012
-7.091883 -6.342470 -0.189148 1513 0.715832 0.518442 -0.447522
-7.090952 -6.341613 -0.186203 1509 0.729232 0.530778 -0.405148
-7.090504 -6.341194 -0.183266 1513 0.735674 0.536802 -0.362889
-7.089565 -6.340343 -0.180321 1533 0.749190 0.549049 -0.320515
-7.089130 -6.339939 -0.177395 1531 0.755447 0.554860 -0.278415
-7.089011 -6.339813 -0.174465 1551 0.757156 0.556671 -0.236256
-7.087856 -6.338770 -0.171522 1563 0.773780 0.571683 -0.193911
-7.086910 -6.337913 -0.168577 1569 0.787392 0.584012 -0.151537
-7.086574 -6.337594 -0.165649 1573 0.792222 0.588602 -0.109407
-7.086454 -6.337469 -0.162729 1567 0.793951 0.590400 -0.067393
-7.086760 -6.337738 -0.159807 1565 0.789546 0.586530 -0.025350
-7.086968 -6.337907 -0.156897 1573 0.786555 0.584101 0.016521
-7.087394 -6.338270 -0.153984 1561 0.780421 0.578873 0.058434
-7.087597 -6.338432 -0.151064 1555 0.777505 0.576548 0.100449
-7.088183 -6.338944 -0.148159 1553 0.769073 0.569179 0.142247
-7.088545 -6.339257 -0.145237 1551 0.763866 0.564678 0.184290
-7.088579 -6.339275 -0.142317 1535 0.763372 0.564417 0.226305
-7.089382 -6.339967 -0.139414 1531 0.751818 0.554462 0.268075
-7.090123 -6.340624 -0.136509 1519 0.741156 0.545008 0.309873
-7.091358 -6.341718 -0.133602 1525 0.723386 0.529262 0.351701
-7.092644 -6.342848 -0.130705 1517 0.704882 0.513008 0.393384
-7.093231 -6.343361 -0.127791 1501 0.696436 0.505626 0.435312
-7.094517 -6.344491 -0.124893 1493 0.677932 0.489365 0.477010
-7.096243 -6.346016 -0.121994 1487 0.653102 0.467424 0.518722
-7.097578 -6.347196 -0.119085 1481 0.633892 0.450443 0.560578
-7.098877 -6.348341 -0.116188 1457 0.615202 0.433970 0.602262
-7.100261 -6.349570 -0.113281 1431 0.595285 0.416289 0.644089
-7.102204 -6.351288 -0.110380 1401 0.567333 0.391569 0.685830
-7.104909 -6.353689 -0.107494 1377 0.528411 0.357017 0.727355
-7.107446 -6.355945 -0.104599 1337 0.491904 0.324558 0.769010
-7.109809 -6.358050 -0.101696 1291 0.457908 0.294274 0.810780
-7.113221 -6.361088 -0.098806 1213 0.408811 0.250562 0.852362
-7.117514 -6.364901 -0.095932 1121 0.347041 0.195695 0.893715
-7.123799 -6.370513 -0.093065 953 0.256614 0.114949 0.934967
-7.114560 -6.358916 -0.218990 1239 0.389545 0.281814 -0.876904
-7.110901 -6.355620 -0.215952 1295 0.442196 0.329237 -0.833191
-7.107738 -6.352790 -0.212931 1337 0.487705 0.369957 -0.789724
-7.104626 -6.349982 -0.209919 1367 0.532480 0.410361 -0.746386
-7.102716 -6.348264 -0.206940 1407 0.559965 0.435074 -0.703522
-7.100693 -6.346446 -0.203961 1429 0.589069 0.461235 -0.660659
-7.098839 -6.344770 -0.200981 1453 0.615751 0.485352 -0.617782
-7.097202 -6.343290 -0.198011 1463 0.639305 0.506648 -0.575048
-7.095886 -6.342096 -0.195059 1473 0.658234 0.523828 -0.532573
-7.095108 -6.341396 -0.192114 1491 0.669431 0.533900 -0.490199
-7.094184 -6.340547 -0.189169 1511 0.682728 0.546112 -0.447825
-7.092596 -6.339116 -0.186209 1509 0.705575 0.566702 -0.405235
-7.091602 -6.338209 -0.183254 1513 0.719880 0.579752 -0.362717
-7.090943 -6.337603 -0.180317 1523 0.729362 0.588472 -0.320458
-7.089620 -6.336416 -0.177364 1533 0.748394 0.605556 -0.277969
-7.088955 -6.335803 -0.174429 1551 0.757965 0.614372 -0.235738
-7.088513 -6.335390 -0.171501 1549 0.764325 0.620314 -0.193609
-7.088281 -6.335165 -0.168573 1547 0.767660 0.623552 -0.151479
-7.088266 -6.335147 -0.165653 1563 0.767879 0.623813 -0.109465
-7.088314 -6.335166 -0.162733 1573 0.767186 0.623538 -0.067451
-7.088139 -6.334998 -0.159815 1563 0.769704 0.625953 -0.025465
-7.087962 -6.334828 -0.156885 1561 0.772250 0.628403 0.016693
-7.088101 -6.334940 -0.153975 1559 0.770253 0.626790 0.058564
-7.088919 -6.335647 -0.151070 1553 0.758480 0.616616 0.100362
-7.090043 -6.336641 -0.148163 1547 0.742309 0.602317 0.142190
-7.089860 -6.336465 -0.145245 1547 0.744943 0.604849 0.184175
-7.089950 -6.336526 -0.142325 1535 0.743646 0.603971 0.226190
-7.090754 -6.337234 -0.139420 1533 0.732079 0.593782 0.267988
-7.091983 -6.338321 -0.136522 1523 0.714398 0.578139 0.309686
-7.093338 -6.339508 -0.133614 1517 0.694899 0.561062 0.351528
-7.093694 -6.339813 -0.130703 1503 0.689774 0.556671 0.393413
-7.094007 -6.340075 -0.127791 1489 0.685273 0.552905 0.435312
-7.095719 -6.341599 -0.124891 1491 0.660642 0.530977 0.477039
-7.097398 -6.343074 -0.121990 1485 0.636485 0.509756 0.518780
-7.098466 -6.344025 -0.119085 1471 0.621116 0.496068 0.560578
-7.100136 -6.345492 -0.116186 1455 0.597089 0.474964 0.602290
-7.102073 -6.347218 -0.113285 1425 0.569213 0.450127 0.644032
-7.103904 -6.348835 -0.110384 1405 0.542874 0.426862 0.685772
-7.106008 -6.350705 -0.107493 1375 0.512597 0.399953 0.727370
-7.108601 -6.353003 -0.104597 1335 0.475287 0.366890 0.769039
-7.111571 -6.355646 -0.101709 1291 0.432556 0.328860 0.810593
-7.114823 -6.358534 -0.098810 1223 0.385765 0.287310 0.852305
-7.119375 -6.362584 -0.095934 1135 0.320263 0.229033 0.893686
-7.124744 -6.367371 -0.093063 983 0.243015 0.160156 0.934996
-7.115744 -6.355834 -0.218979 1247 0.372509 0.326157 -0.876746
-7.112191 -6.352645 -0.215950 1305 0.423630 0.372043 -0.833163
-7.109741 -6.350432 -0.212944 1349 0.458882 0.403885 -0.789911
-7.106628 -6.347639 -0.209932 1381 0.503677 0.444069 -0.746573
-7.103627 -6.344945 -0.206919 1391 0.546853 0.482834 -0.703220
-7.101556 -6.343077 -0.203941 1421 0.576657 0.509708 -0.660371
-7.099743 -6.341444 -0.200962 1443 0.602743 0.533207 -0.617508
-7.098644 -6.340458 -0.198008 1471 0.618557 0.547395 -0.575005
-7.097937 -6.339802 -0.195072 1481 0.628725 0.556836 -0.532760
-7.096894 -6.338860 -0.192118 1487 0.643737 0.570386 -0.490256
-7.095844 -6.337909 -0.189175 1511 0.658845 0.584067 -0.447911
-7.094808 -6.336958 -0.186220 1519 0.673747 0.597755 -0.405393
-7.093219 -6.335527 -0.183260 1523 0.696615 0.618345 -0.362803
-7.091784 -6.334240 -0.180307 1521 0.717259 0.636862 -0.320314
-7.090965 -6.333484 -0.177363 1539 0.729046 0.647737 -0.277954
-7.090510 -6.333072 -0.174435 1547 0.735592 0.653665 -0.235825
-7.090179 -6.332759 -0.171507 1549 0.740353 0.658172 -0.193695
-7.089731 -6.332340 -0.168579 1551 0.746796 0.664203 -0.151566
-7.089989 -6.332559 -0.165659 1579 0.743084 0.661047 -0.109551
-7.090261 -6.332779 -0.162747 1585 0.739173 0.657884 -0.067652
-7.089805 -6.332366 -0.159819 1571 0.745732 0.663826 -0.025523
-7.089741 -6.332284 -0.156900 1557 0.746652 0.665006 0.016477
-7.090047 -6.332553 -0.153978 1565 0.742254 0.661136 0.058521
-7.090424 -6.332866 -0.151066 1551 0.736827 0.656629 0.100420
-7.090836 -6.333228 -0.148153 1561 0.730899 0.651421 0.142334
-7.091142 -6.333483 -0.145241 1553 0.726494 0.647751 0.184233
-7.091784 -6.334040 -0.142328 1535 0.717259 0.639737 0.226147
-7.092804 -6.334939 -0.139433 1535 0.702584 0.626804 0.267801
-7.093552 -6.335589 -0.136519 1519 0.691819 0.617453 0.309729
-7.094564 -6.336483 -0.133621 1509 0.677260 0.604588 0.351427
-7.095962 -6.337713 -0.130724 1515 0.657143 0.586894 0.393111
-7.096604 -6.338269 -0.127812 1507 0.647909 0.578887 0.435010
-7.097394 -6.338962 -0.124895 1487 0.636540 0.568918 0.476981
-7.098791 -6.340193 -0.121998 1487 0.616437 0.551210 0.518665
-7.100356 -6.341581 -0.119099 1465 0.593920 0.531238 0.560377
-7.102013 -6.343048 -0.116200 1441 0.570078 0.510127 0.602089
-7.103361 -6.344228 -0.113293 1419 0.550682 0.493153 0.643916
-7.105305 -6.345946 -0.110390 1395 0.522710 0.468432 0.685686
-7.107891 -6.348252 -0.107506 1371 0.485503 0.435253 0.727183
-7.110491 -6.350559 -0.104611 1339 0.448097 0.402053 0.768837
-7.113365 -6.353103 -0.101715 1287 0.406739 0.365449 0.810506
-7.117098 -6.356427 -0.098833 1223 0.353031 0.317622 0.851974
-7.122090 -6.360871 -0.095965 1137 0.281204 0.253684 0.893240
-7.127795 -6.365946 -0.093092 999 0.199112 0.180663 0.934578
-7.117835 -6.353710 -0.218990 1251 0.342424 0.356715 -0.876904
-7.114457 -6.350673 -0.215971 1301 0.391027 0.400413 -0.833465
-7.111938 -6.348416 -0.212965 1339 0.427274 0.432893 -0.790213
-7.109322 -6.346060 -0.209961 1383 0.464913 0.466793 -0.746990
-7.106754 -6.343754 -0.206965 1407 0.501866 0.499972 -0.703882
-7.104997 -6.342165 -0.203995 1433 0.527142 0.522833 -0.661148
-7.103135 -6.340497 -0.201016 1459 0.553934 0.546833 -0.618285
-7.101722 -6.339218 -0.198053 1475 0.574270 0.565234 -0.575652
-7.100840 -6.338410 -0.195108 1487 0.586956 0.576863 -0.533278
-7.099741 -6.337424 -0.192156 1507 0.602770 0.591052 -0.490803
-7.098215 -6.336043 -0.189194 1505 0.624725 0.610921 -0.448184
-7.096570 -6.334555 -0.186224 1515 0.648396 0.632327 -0.405451
-7.095304 -6.333411 -0.183271 1523 0.666611 0.648787 -0.362961
-7.094806 -6.332956 -0.180344 1539 0.673774 0.655339 -0.320846
-7.094469 -6.332637 -0.177416 1545 0.678625 0.659929 -0.278717
-7.093363 -6.331644 -0.174463 1549 0.694542 0.674213 -0.236228
-7.092537 -6.330880 -0.171528 1555 0.706426 0.685205 -0.193997
-7.092626 -6.330955 -0.168608 1575 0.705143 0.684128 -0.151983
-7.092731 -6.331031 -0.165686 1573 0.703633 0.683037 -0.109940
-7.092667 -6.330949 -0.162767 1571 0.704553 0.684217 -0.067940
-7.092323 -6.330637 -0.159840 1561 0.709506 0.688704 -0.025825
-7.092203 -6.330512 -0.156920 1561 0.711228 0.690501 0.016190
-7.092187 -6.330480 -0.153999 1565 0.711462 0.690961 0.058219
-7.092550 -6.330792 -0.151087 1563 0.706240 0.686474 0.100118
-7.093193 -6.331348 -0.148174 1561 0.696985 0.678474 0.142031
-7.093506 -6.331611 -0.145262 1555 0.692484 0.674687 0.183931
-7.093652 -6.331729 -0.142342 1543 0.690385 0.672992 0.225945
-7.094784 -6.332730 -0.139444 1545 0.674097 0.658591 0.267643
-7.095363 -6.333221 -0.136532 1519 0.665761 0.651524 0.309542
-7.096320 -6.334072 -0.133627 1511 0.651991 0.639277 0.351341
-7.098270 -6.335798 -0.130735 1513 0.623936 0.614448 0.392952
-7.098745 -6.336196 -0.127823 1507 0.617103 0.608719 0.434852
-7.099653 -6.336996 -0.124916 1497 0.604039 0.597206 0.476679
-7.101540 -6.338671 -0.122017 1501 0.576884 0.573103 0.518391
-7.102714 -6.339701 -0.119120 1477 0.559992 0.558284 0.560075
-7.103943 -6.340788 -0.116213 1451 0.542311 0.542648 0.601902
-7.105669 -6.342312 -0.113312 1431 0.517475 0.520720 0.643643
-7.107886 -6.344267 -0.110411 1405 0.485578 0.492590 0.685384
-7.110591 -6.346667 -0.107525 1379 0.446656 0.458059 0.726909
-7.113072 -6.348866 -0.104630 1347 0.410958 0.426416 0.768564
-7.115498 -6.351022 -0.101727 1289 0.376050 0.395397 0.810334
-7.118861 -6.354009 -0.098837 1229 0.327659 0.352414 0.851916
-7.123084 -6.357764 -0.095963 1155 0.266898 0.298390 0.893269
-7.128684 -6.362747 -0.093090 1021 0.186323 0.226686 0.934607
-7.119806 -6.351706 -0.219013 1259 0.314068 0.385552 -0.877235
-7.116315 -6.348581 -0.215983 1303 0.364297 0.430519 -0.833638
-7.113201 -6.345787 -0.212961 1335 0.409099 0.470717 -0.790156
-7.110690 -6.343524 -0.209965 1375 0.445229 0.503279 -0.747048
-7.108500 -6.341562 -0.206978 1403 0.476741 0.531512 -0.704069
-7.106589 -6.339844 -0.203999 1427 0.504240 0.556225 -0.661206
-7.104784 -6.338220 -0.201019 1445 0.530209 0.579594 -0.618328
-7.103419 -6.336990 -0.198057 1473 0.549852 0.597295 -0.575709
-7.102215 -6.335896 -0.195105 1487 0.567176 0.613034 -0.533235
-7.100899 -6.334702 -0.192152 1491 0.586105 0.630214 -0.490745
-7.099464 -6.333414 -0.189190 1503 0.606756 0.648746 -0.448127
-7.098050 -6.332133 -0.186228 1519 0.627099 0.667181 -0.405508
-7.096735 -6.330940 -0.183275 1523 0.646022 0.684347 -0.363019
-7.096496 -6.330721 -0.180348 1535 0.649459 0.687496 -0.320904
-7.096005 -6.330259 -0.177420 1539 0.656526 0.694145 -0.278774
-7.095277 -6.329596 -0.174484 1561 0.667003 0.703681 -0.236530
-7.095647 -6.329916 -0.171562 1571 0.661678 0.699078 -0.194487
-7.095638 -6.329890 -0.168642 1581 0.661809 0.699455 -0.152472
-7.095197 -6.329478 -0.165714 1581 0.668148 0.705383 -0.110343
-7.094364 -6.328722 -0.162779 1565 0.680134 0.716257 -0.068112
-7.093859 -6.328259 -0.159844 1551 0.687400 0.722919 -0.025882
-7.094718 -6.329009 -0.156948 1563 0.675044 0.712127 0.015787
-7.095143 -6.329372 -0.154036 1569 0.668930 0.706906 0.057686
-7.094569 -6.328852 -0.151098 1563 0.677184 0.714384 0.099960
-7.094610 -6.328877 -0.148178 1555 0.676594 0.714028 0.141974
-7.095140 -6.329332 -0.145266 1547 0.668972 0.707482 0.183873
-7.095454 -6.329596 -0.142353 1545 0.664450 0.703681 0.225787
-7.096033 -6.330101 -0.139441 1543 0.656121 0.696416 0.267686
-7.096620 -6.330600 -0.136538 1527 0.647675 0.689239 0.309456
-7.097639 -6.331500 -0.133631 1511 0.633013 0.676285 0.351283
-7.099037 -6.332731 -0.130734 1509 0.612897 0.658577 0.392967
-7.100218 -6.333768 -0.127827 1503 0.595909 0.643655 0.434794
-7.101560 -6.334955 -0.124930 1497 0.576596 0.626571 0.476478
-7.102691 -6.335942 -0.122023 1491 0.560321 0.612376 0.518305
-7.104033 -6.337129 -0.119114 1463 0.541015 0.595292 0.560161
-7.105815 -6.338697 -0.116224 1455 0.515375 0.572733 0.601744
-7.107646 -6.340315 -0.113323 1431 0.489029 0.549454 0.643485
-7.109688 -6.342134 -0.110422 1401 0.459650 0.523279 0.685226
-7.111364 -6.343607 -0.107523 1367 0.435534 0.502086 0.726938
-7.113741 -6.345713 -0.104630 1341 0.401332 0.471781 0.768564
-7.117153 -6.348737 -0.101740 1303 0.352235 0.428275 0.810147
-7.120404 -6.351624 -0.098850 1225 0.305464 0.386732 0.851729
-7.125068 -6.355774 -0.095974 1143 0.238350 0.327021 0.893111
-7.130885 -6.360950 -0.093111 1007 0.154653 0.252545 0.934305
-7.122509 -6.350438 -0.219050 1275 0.275173 0.403795 -0.877767
-7.119185 -6.347457 -0.216019 1315 0.323001 0.446690 -0.834156
-7.115904 -6.344521 -0.212998 1353 0.370211 0.488933 -0.790688
