754
-10.198091 -8.915086 -0.168957 1047 0.976412 -0.253869 -0.348772
-10.197258 -8.914337 -0.164792 1049 0.988391 -0.243098 -0.288844
-10.196746 -8.913875 -0.160624 1043 0.995759 -0.236443 -0.228873
-10.196843 -8.913935 -0.156464 1047 0.994360 -0.237307 -0.169017
-10.196827 -8.913909 -0.152304 1029 0.994593 -0.236937 -0.109161
-10.198026 -8.914931 -0.148158 1027 0.977345 -0.251647 -0.049506
-10.199338 -8.916053 -0.144021 1009 0.958463 -0.267784 0.010019
-10.200692 -8.917215 -0.139872 991 0.938978 -0.284511 0.069717
-10.202822 -8.919062 -0.135731 955 0.908337 -0.311076 0.129300
-10.204574 -8.920562 -0.131591 913 0.883130 -0.332661 0.188868
-10.208243 -8.923751 -0.127471 859 0.830328 -0.378547 0.248149
-10.214292 -8.929015 -0.123366 753 0.743303 -0.454292 0.307213
-10.215043 -8.924862 -0.202521 771 0.732490 -0.394533 -0.831708
-10.208480 -8.919111 -0.198239 875 0.826925 -0.311790 -0.770096
-10.205276 -8.916294 -0.194018 937 0.873031 -0.271255 -0.709362
-10.202740 -8.914054 -0.189812 987 0.909517 -0.239022 -0.648844
-10.200366 -8.911960 -0.185616 1023 0.943671 -0.208889 -0.588470
-10.198816 -8.910584 -0.181435 1045 0.965969 -0.189102 -0.528312
-10.197649 -8.909546 -0.177253 1075 0.982765 -0.174159 -0.468139
-10.197102 -8.909035 -0.173085 1085 0.990641 -0.166804 -0.408168
-10.196482 -8.908483 -0.168919 1095 0.999560 -0.158859 -0.348226
-10.195806 -8.907873 -0.164752 1089 1.009289 -0.150091 -0.288269
-10.195031 -8.907166 -0.160577 1095 1.020432 -0.139909 -0.228197
-10.194517 -8.906704 -0.156409 1083 1.027828 -0.133267 -0.168226
-10.195390 -8.907445 -0.152264 1095 1.015272 -0.143929 -0.108585
-10.197077 -8.908897 -0.148135 1085 0.990998 -0.164828 -0.049175
-10.198447 -8.910074 -0.143988 1053 0.971280 -0.181761 0.010494
-10.199255 -8.910753 -0.139844 1037 0.959657 -0.191531 0.070120
-10.200560 -8.911866 -0.135695 1013 0.940885 -0.207544 0.129818
-10.202469 -8.913522 -0.131554 971 0.913414 -0.231366 0.189400
-10.205975 -8.916563 -0.127434 935 0.862972 -0.275125 0.248681
-10.209757 -8.919850 -0.123313 875 0.808551 -0.322424 0.307976
-10.213370 -8.922983 -0.119181 785 0.756559 -0.367501 0.367429
-10.215741 -8.919737 -0.206673 787 0.722446 -0.320791 -0.891449
-10.209796 -8.914513 -0.202397 889 0.807989 -0.245623 -0.829924
-10.206038 -8.911217 -0.198169 951 0.862053 -0.198200 -0.769089
-10.204275 -8.909658 -0.193978 1009 0.887425 -0.175778 -0.708787
-10.201789 -8.907467 -0.189772 1045 0.923198 -0.144245 -0.648269
-10.199308 -8.905282 -0.185567 1063 0.958889 -0.112808 -0.587765
-10.197595 -8.903758 -0.181388 1085 0.983547 -0.090880 -0.527636
-10.196152 -8.902473 -0.177205 1101 1.004308 -0.072397 -0.467449
-10.195320 -8.901725 -0.173030 1111 1.016274 -0.061625 -0.407377
-10.194921 -8.901362 -0.168872 1115 1.022023 -0.056411 -0.347549
-10.194742 -8.901189 -0.164714 1127 1.024589 -0.053913 -0.287722
-10.194733 -8.901155 -0.160554 1121 1.024727 -0.053433 -0.227866
-10.195604 -8.901896 -0.156409 1127 1.012185 -0.064095 -0.168226
-10.195923 -8.902146 -0.152257 1123 1.007601 -0.067690 -0.108485
-10.196183 -8.902353 -0.148106 1103 1.003855 -0.070668 -0.048758
-10.196502 -8.902617 -0.143954 1091 0.999272 -0.074469 0.010983
-10.197701 -8.903639 -0.139807 1085 0.982010 -0.089165 0.070652
-10.199772 -8.905428 -0.135674 1071 0.952220 -0.114907 0.130120
-10.201851 -8.907225 -0.131533 1035 0.922306 -0.140760 0.189703
-10.204427 -8.909443 -0.127408 1011 0.885243 -0.172677 0.249055
-10.206725 -8.911428 -0.123265 949 0.852173 -0.201246 0.308667
-10.210671 -8.914849 -0.119143 891 0.795392 -0.250466 0.367976
-10.216543 -8.919966 -0.115039 783 0.710906 -0.324085 0.427026
-10.219791 -8.917563 -0.210875 751 0.664169 -0.289519 -0.951909
-10.213129 -8.911730 -0.206582 883 0.760030 -0.205582 -0.890139
-10.208385 -8.907568 -0.202340 951 0.828283 -0.145699 -0.829103
-10.204796 -8.904412 -0.198111 999 0.879933 -0.100294 -0.768254
-10.202748 -8.902615 -0.193923 1049 0.909394 -0.074428 -0.707995
-10.201150 -8.901191 -0.189732 1087 0.932392 -0.053941 -0.647693
-10.198990 -8.899295 -0.185534 1091 0.963472 -0.026662 -0.587290
-10.197667 -8.898116 -0.181361 1115 0.982504 -0.009701 -0.527247
-10.196941 -8.897456 -0.177186 1131 0.992947 -0.000206 -0.467175
-10.196166 -8.896763 -0.173020 1145 1.004102 0.009770 -0.407233
-10.194935 -8.895662 -0.168847 1149 1.021817 0.025605 -0.347190
-10.194160 -8.894968 -0.164681 1147 1.032960 0.035595 -0.287247
-10.194860 -8.895555 -0.160538 1147 1.022888 0.027156 -0.227636
-10.195464 -8.896057 -0.156384 1141 1.014202 0.019924 -0.167866
-10.195221 -8.895835 -0.152226 1137 1.017701 0.023121 -0.108039
-10.196595 -8.897005 -0.148087 1141 0.997928 0.006285 -0.048485
-10.197681 -8.897929 -0.143952 1131 0.982298 -0.007012 0.011012
-10.198149 -8.898327 -0.139800 1111 0.975575 -0.012734 0.070753
-10.199851 -8.899778 -0.135659 1101 0.951081 -0.033619 0.130336
-10.202149 -8.901763 -0.131526 1079 0.918011 -0.062174 0.189803
-10.204386 -8.903701 -0.127394 1043 0.885833 -0.090057 0.249256
-10.206408 -8.905441 -0.123252 997 0.856743 -0.115100 0.308854
-10.210027 -8.908580 -0.119132 961 0.804668 -0.160258 0.368134
-10.214578 -8.912528 -0.115016 887 0.739187 -0.217067 0.427357
-10.220789 -8.917926 -0.110909 765 0.649816 -0.294733 0.486451
-10.222798 -8.914598 -0.215062 725 0.620904 -0.246858 -1.012154
-10.217547 -8.910009 -0.210801 865 0.696457 -0.180828 -0.950844
-10.212477 -8.905565 -0.206540 947 0.769416 -0.116883 -0.889535
-10.208285 -8.901883 -0.202304 1015 0.829724 -0.063903 -0.828585
-10.205522 -8.899460 -0.198090 1065 0.869490 -0.029036 -0.767952
-10.203042 -8.897275 -0.193894 1093 0.905167 0.002401 -0.707578
-10.200939 -8.895421 -0.189696 1113 0.935424 0.029077 -0.647175
-10.199503 -8.894143 -0.185515 1121 0.956089 0.047464 -0.587017
-10.198506 -8.893246 -0.181351 1145 0.970429 0.060377 -0.527103
-10.197120 -8.892018 -0.177169 1155 0.990381 0.078037 -0.466931
-10.196181 -8.891176 -0.172993 1163 1.003883 0.090153 -0.406844
-10.195612 -8.890660 -0.168837 1165 1.012075 0.097577 -0.347046
-10.195056 -8.890156 -0.164670 1175 1.020075 0.104836 -0.287089
-10.195813 -8.890798 -0.160527 1175 1.009180 0.095601 -0.227477
-10.196459 -8.891343 -0.156382 1165 0.999890 0.087752 -0.167837
-10.196450 -8.891311 -0.152222 1169 1.000013 0.088218 -0.107981
-10.197420 -8.892136 -0.148087 1159 0.986058 0.076349 -0.048485
-10.198073 -8.892688 -0.143933 1149 0.976659 0.068404 0.011285
-10.198441 -8.892986 -0.139781 1153 0.971376 0.064109 0.071026
-10.200130 -8.894437 -0.135651 1137 0.947060 0.043238 0.130451
-10.201547 -8.895650 -0.131505 1113 0.926683 0.025784 0.190105
-10.203300 -8.897151 -0.127373 1079 0.901449 0.004185 0.249559
-10.206210 -8.899671 -0.123248 1051 0.859583 -0.032068 0.308911
-10.209218 -8.902277 -0.119111 1015 0.816304 -0.069570 0.368436
-10.212838 -8.905401 -0.114989 959 0.764216 -0.114523 0.427746
-10.217005 -8.909013 -0.110865 857 0.704264 -0.166488 0.487084
-10.227388 -8.913231 -0.219289 617 0.554860 -0.227180 -1.072974
-10.221437 -8.908029 -0.215003 831 0.640485 -0.152327 -1.011305
-10.216912 -8.904058 -0.210759 947 0.705595 -0.095203 -0.950240
-10.212281 -8.899995 -0.206506 1009 0.772229 -0.036734 -0.889046
-10.209026 -8.897142 -0.202283 1059 0.819062 0.004309 -0.828283
-10.206377 -8.894816 -0.198079 1085 0.857182 0.037776 -0.767794
-10.203556 -8.892337 -0.193875 1103 0.897771 0.073454 -0.707305
-10.201460 -8.890490 -0.189677 1129 0.927932 0.100033 -0.646902
-10.200180 -8.889353 -0.185504 1149 0.946347 0.116389 -0.586859
-10.199077 -8.888364 -0.181330 1165 0.962223 0.130619 -0.526801
-10.198017 -8.887418 -0.177157 1177 0.977468 0.144231 -0.466758
-10.197080 -8.886577 -0.172992 1187 0.990957 0.156334 -0.406830
-10.196403 -8.885967 -0.168826 1181 1.000699 0.165102 -0.346887
-10.196607 -8.886131 -0.164675 1189 0.997763 0.162742 -0.287161
-10.197151 -8.886578 -0.160531 1191 0.989928 0.156320 -0.227535
-10.196817 -8.886264 -0.156363 1191 0.994730 0.160835 -0.167564
-10.196361 -8.885845 -0.152205 1177 1.001303 0.166859 -0.107736
-10.197055 -8.886438 -0.148062 1173 0.991314 0.158324 -0.048125
-10.197821 -8.887074 -0.143918 1163 0.980295 0.149171 0.011501
-10.199566 -8.888582 -0.139788 1167 0.955184 0.127477 0.070925
-10.201318 -8.890082 -0.135648 1147 0.929977 0.105892 0.130494
-10.202401 -8.891007 -0.131503 1125 0.914388 0.092582 0.190134
-10.203927 -8.892310 -0.127364 1101 0.892433 0.073838 0.249688
-10.206553 -8.894578 -0.123238 1079 0.854643 0.041207 0.309055
-10.209682 -8.897289 -0.119111 1047 0.809621 0.002196 0.368436
-10.212905 -8.900077 -0.114981 993 0.763255 -0.037914 0.427861
-10.216311 -8.903020 -0.110852 923 0.714240 -0.080260 0.487271
-10.221138 -8.907213 -0.106736 819 0.644794 -0.140595 0.546494
-10.227086 -8.907695 -0.219252 761 0.559210 -0.147525 -1.072441
-10.221127 -8.902472 -0.214967 887 0.644958 -0.072369 -1.010787
-10.216765 -8.898663 -0.210721 975 0.707709 -0.017564 -0.949693
-10.212738 -8.895126 -0.206485 1037 0.765656 0.033317 -0.888744
-10.209150 -8.891986 -0.202254 1081 0.817278 0.078503 -0.827866
-10.206940 -8.890040 -0.198058 1109 0.849086 0.106496 -0.767492
-10.205064 -8.888384 -0.193867 1129 0.876077 0.130331 -0.707190
-10.202805 -8.886390 -0.189681 1149 0.908584 0.159023 -0.646959
-10.200750 -8.884584 -0.185483 1165 0.938141 0.184999 -0.586556
-10.200025 -8.883925 -0.181317 1171 0.948583 0.194481 -0.526614
-10.199412 -8.883366 -0.177161 1183 0.957393 0.202536 -0.466815
-10.199517 -8.883447 -0.172999 1211 0.955884 0.201369 -0.406931
-10.199067 -8.883033 -0.168843 1211 0.962360 0.207325 -0.347132
-10.197675 -8.881800 -0.164670 1201 0.982394 0.225067 -0.287089
-10.196948 -8.881141 -0.160504 1201 0.992850 0.234549 -0.227146
-10.196877 -8.881059 -0.156356 1199 0.993880 0.235729 -0.167463
-10.197421 -8.881505 -0.152201 1193 0.986044 0.229307 -0.107679
-10.198832 -8.882724 -0.148074 1201 0.965750 0.211771 -0.048298
-10.199428 -8.883221 -0.143922 1193 0.957173 0.204621 0.011443
-10.199860 -8.883567 -0.139779 1169 0.950957 0.199640 0.071055
-10.201163 -8.884681 -0.135630 1167 0.932199 0.183613 0.130753
-10.202412 -8.885753 -0.131493 1147 0.914237 0.168190 0.190278
-10.204605 -8.887633 -0.127362 1135 0.882677 0.141130 0.249717
-10.207451 -8.890091 -0.123235 1099 0.841731 0.105769 0.309098
-10.210197 -8.892465 -0.119109 1069 0.802212 0.071615 0.368465
-10.212327 -8.894295 -0.114968 1009 0.771571 0.045282 0.428048
-10.215285 -8.896851 -0.110831 953 0.729005 0.008508 0.487573
-10.220113 -8.901031 -0.106713 883 0.659545 -0.051636 0.546825
-10.229363 -8.909073 -0.102631 757 0.526442 -0.167353 0.605559
-10.226827 -8.902074 -0.219207 815 0.562942 -0.066647 -1.071794
-10.221634 -8.897541 -0.214946 919 0.637658 -0.001427 -1.010485
-10.217556 -8.893970 -0.210700 999 0.696333 0.049962 -0.949391
-10.213260 -8.890196 -0.206464 1045 0.758151 0.104259 -0.888441
-10.209722 -8.887104 -0.202235 1089 0.809059 0.148746 -0.827592
-10.206630 -8.884385 -0.198022 1119 0.853545 0.187867 -0.766974
-10.205024 -8.882967 -0.193841 1139 0.876653 0.208271 -0.706815
-10.203531 -8.881647 -0.189660 1161 0.898128 0.227263 -0.646657
-10.201975 -8.880280 -0.185479 1173 0.920522 0.246940 -0.586499
-10.201205 -8.879579 -0.181313 1191 0.931596 0.257026 -0.526556
-10.200473 -8.878927 -0.177148 1203 0.942134 0.266398 -0.466628
-10.199364 -8.877931 -0.172974 1203 0.958093 0.280737 -0.406571
-10.199234 -8.877807 -0.168824 1211 0.959959 0.282521 -0.346859
-10.199615 -8.878119 -0.164672 1225 0.954484 0.278020 -0.287118
-10.198775 -8.877363 -0.160508 1219 0.966559 0.288902 -0.227204
-10.198711 -8.877288 -0.156358 1207 0.967479 0.289986 -0.167492
-10.199809 -8.878213 -0.152220 1217 0.951685 0.276675 -0.107952
-10.200666 -8.878940 -0.148076 1217 0.939349 0.266219 -0.048326
-10.201098 -8.879301 -0.143924 1207 0.933133 0.261019 0.011415
-10.202027 -8.880085 -0.139788 1195 0.919767 0.249739 0.070925
-10.203382 -8.881248 -0.135651 1187 0.900282 0.232998 0.130451
-10.204252 -8.881974 -0.131507 1165 0.887754 0.222556 0.190077
-10.205453 -8.882998 -0.127360 1149 0.870478 0.207819 0.249746
-10.207914 -8.885118 -0.123236 1127 0.835062 0.177329 0.309084
-10.211257 -8.888011 -0.119107 1091 0.786967 0.135696 0.368494
-10.214160 -8.890510 -0.114980 1051 0.745197 0.099745 0.427875
-10.217283 -8.893214 -0.110852 999 0.700258 0.060829 0.487271
-10.221449 -8.896825 -0.106728 935 0.640320 0.008878 0.546609
-10.226446 -8.901145 -0.102601 815 0.568417 -0.053282 0.605990
-10.226957 -8.896912 -0.219178 851 0.561062 0.007629 -1.071377
-10.222269 -8.892806 -0.214925 945 0.628519 0.066702 -1.010182
-10.217964 -8.889040 -0.210679 1009 0.690460 0.120890 -0.949089
-10.213652 -8.885280 -0.206433 1051 0.752511 0.174996 -0.887995
-10.210783 -8.882751 -0.202231 1093 0.793786 0.211373 -0.827535
-10.208785 -8.881001 -0.198031 1139 0.822534 0.236552 -0.767103
-10.207078 -8.879485 -0.193852 1165 0.847096 0.258370 -0.706974
-10.205701 -8.878264 -0.189669 1189 0.866911 0.275934 -0.646787
-10.204030 -8.876797 -0.185488 1209 0.890951 0.297052 -0.586628
-10.202600 -8.875526 -0.181308 1207 0.911534 0.315330 -0.526485
-10.201647 -8.874685 -0.177142 1217 0.925242 0.327433 -0.466542
-10.200859 -8.873979 -0.172976 1223 0.936577 0.337601 -0.406600
-10.200800 -8.873898 -0.168828 1225 0.937428 0.338767 -0.346916
-10.200783 -8.873871 -0.164668 1229 0.937675 0.339151 -0.287060
-10.200235 -8.873362 -0.160512 1223 0.945551 0.346479 -0.227262
-10.200660 -8.873715 -0.156369 1235 0.939445 0.341388 -0.167650
-10.201367 -8.874310 -0.152224 1235 0.929263 0.332839 -0.108010
-10.201295 -8.874228 -0.148064 1221 0.930306 0.334019 -0.048154
-10.201613 -8.874476 -0.143924 1211 0.925723 0.330438 0.011415
-10.203522 -8.876118 -0.139792 1215 0.898265 0.306822 0.070868
-10.205104 -8.877479 -0.135653 1197 0.875501 0.287241 0.130422
-10.205754 -8.878015 -0.131510 1175 0.866142 0.279529 0.190033
-10.207224 -8.879277 -0.127372 1155 0.844997 0.261362 0.249573
-10.209310 -8.881067 -0.123240 1131 0.814987 0.235606 0.309026
-10.212375 -8.883713 -0.119113 1105 0.770884 0.197541 0.368408
-10.215285 -8.886220 -0.114976 1069 0.729005 0.161466 0.427933
-10.217797 -8.888390 -0.110841 1021 0.692862 0.130249 0.487429
-10.222020 -8.892041 -0.106728 967 0.632101 0.077707 0.546609
-10.226741 -8.896131 -0.102601 859 0.564177 0.018868 0.605990
-10.227847 -8.892204 -0.219157 879 0.548260 0.075361 -1.071074
-10.222832 -8.887819 -0.214894 953 0.620423 0.138454 -1.009736
-10.218960 -8.884439 -0.210667 1019 0.676135 0.187085 -0.948916
-10.215259 -8.881199 -0.206439 1079 0.729389 0.233712 -0.888082
-10.212560 -8.878825 -0.202233 1109 0.768222 0.267866 -0.827564
-10.210448 -8.876978 -0.198035 1137 0.798603 0.294445 -0.767161
-10.208352 -8.875130 -0.193848 1153 0.828764 0.321038 -0.706916
-10.206966 -8.873902 -0.189666 1179 0.848702 0.338698 -0.646744
-10.206027 -8.873060 -0.185490 1201 0.862218 0.350815 -0.586657
-10.204689 -8.871882 -0.181319 1211 0.881469 0.367762 -0.526643
-10.203141 -8.870507 -0.177148 1215 0.903740 0.387549 -0.466628
-10.202805 -8.870193 -0.172990 1225 0.908584 0.392077 -0.406801
-10.202896 -8.870259 -0.168839 1241 0.907267 0.391116 -0.347074
-10.203001 -8.870325 -0.164679 1247 0.905757 0.390169 -0.287218
-10.202934 -8.870252 -0.160529 1243 0.906718 0.391226 -0.227506
-10.202920 -8.870212 -0.156379 1253 0.906924 0.391802 -0.167794
-10.202741 -8.870038 -0.152220 1237 0.909503 0.394300 -0.107952
-10.203115 -8.870343 -0.148078 1219 0.904111 0.389909 -0.048355
-10.204037 -8.871119 -0.143933 1211 0.890855 0.378753 0.011285
-10.204745 -8.871714 -0.139788 1199 0.880660 0.370190 0.070925
-10.205999 -8.872778 -0.135651 1189 0.862616 0.354877 0.130451
-10.207027 -8.873660 -0.131507 1185 0.847823 0.342184 0.190077
-10.208944 -8.875295 -0.127375 1181 0.820242 0.318664 0.249530
-10.210966 -8.877034 -0.123244 1153 0.791152 0.293636 0.308969
-10.212547 -8.878394 -0.119105 1121 0.768401 0.274068 0.368523
-10.215671 -8.881084 -0.114978 1091 0.723461 0.235359 0.427904
-10.219673 -8.884547 -0.110854 1041 0.665870 0.185534 0.487242
-10.223471 -8.887820 -0.106732 997 0.611230 0.138441 0.546551
-10.227580 -8.891374 -0.102599 909 0.552102 0.087313 0.606019
-10.234346 -8.897236 -0.098490 777 0.454745 0.002964 0.665141
-10.229183 -8.887771 -0.219153 931 0.529035 0.139154 -1.071017
-10.224388 -8.883576 -0.214890 985 0.598029 0.199503 -1.009679
-10.220516 -8.880196 -0.210662 1037 0.653740 0.248147 -0.948844
-10.217256 -8.877337 -0.206441 1097 0.700656 0.289272 -0.888111
-10.214719 -8.875109 -0.202235 1129 0.737156 0.321340 -0.827592
-10.213113 -8.873691 -0.198054 1165 0.760264 0.341745 -0.767434
-10.210845 -8.871703 -0.193858 1177 0.792894 0.370341 -0.707060
-10.208735 -8.869856 -0.189669 1203 0.823247 0.396921 -0.646787
-10.207462 -8.868726 -0.185496 1215 0.841566 0.413181 -0.586744
-10.206907 -8.868224 -0.181330 1237 0.849552 0.420399 -0.526801
-10.206345 -8.867713 -0.177163 1243 0.857648 0.427754 -0.466844
-10.205293 -8.866773 -0.172999 1241 0.872784 0.441284 -0.406931
-10.204331 -8.865925 -0.168835 1239 0.886615 0.453482 -0.347017
-10.203946 -8.865561 -0.164677 1241 0.892159 0.458724 -0.287190
-10.204044 -8.865621 -0.160527 1237 0.890746 0.457860 -0.227477
-10.203866 -8.865448 -0.156367 1243 0.893312 0.460343 -0.167621
-10.203743 -8.865316 -0.152219 1239 0.895082 0.462237 -0.107938
-10.204835 -8.866248 -0.148082 1227 0.879370 0.448831 -0.048413
-10.206588 -8.867748 -0.143952 1231 0.854149 0.427246 0.011012
-10.207224 -8.868286 -0.139809 1219 0.844997 0.419507 0.070623
-10.207769 -8.868731 -0.135655 1211 0.837148 0.413113 0.130393
-10.209351 -8.870092 -0.131528 1205 0.814397 0.393518 0.189774
-10.210721 -8.871256 -0.127379 1193 0.794678 0.376777 0.249472
-10.212132 -8.872460 -0.123240 1151 0.774370 0.359446 0.309026
-10.214701 -8.874672 -0.119117 1135 0.737417 0.327625 0.368350
-10.217554 -8.877123 -0.114991 1089 0.696361 0.292360 0.427717
-10.220847 -8.879966 -0.110862 1055 0.648979 0.251454 0.487127
-10.224027 -8.882712 -0.106734 1003 0.603230 0.211935 0.546523
-10.228917 -8.886942 -0.102607 927 0.532864 0.151078 0.605904
-10.235960 -8.893035 -0.098506 801 0.431527 0.063409 0.664911
-10.230520 -8.883551 -0.219138 929 0.509797 0.199874 -1.070801
-10.226265 -8.879833 -0.214892 989 0.571025 0.253362 -1.009708
-10.222571 -8.876600 -0.210664 1055 0.624170 0.299879 -0.948873
-10.219196 -8.873655 -0.206443 1107 0.672731 0.342252 -0.888139
-10.216320 -8.871134 -0.202239 1131 0.714117 0.378533 -0.827650
-10.214656 -8.869674 -0.198048 1163 0.738062 0.399542 -0.767348
-10.212723 -8.867974 -0.193860 1181 0.765876 0.423994 -0.707089
-10.211514 -8.866895 -0.189687 1199 0.783262 0.439527 -0.647046
-10.210512 -8.866003 -0.185511 1231 0.797683 0.452357 -0.586959
-10.209281 -8.864917 -0.181340 1235 0.815398 0.467987 -0.526945
-10.208279 -8.864027 -0.177174 1257 0.829820 0.480789 -0.467003
-10.207446 -8.863276 -0.173011 1257 0.841799 0.491602 -0.407103
-10.206664 -8.862576 -0.168845 1247 0.853051 0.501674 -0.347161
-10.206100 -8.862065 -0.164687 1253 0.861161 0.509015 -0.287333
-10.206199 -8.862138 -0.160537 1253 0.859748 0.507972 -0.227621
-10.206191 -8.862106 -0.156388 1253 0.859857 0.508425 -0.167923
-10.206514 -8.862362 -0.152236 1253 0.855206 0.504748 -0.108182
-10.207209 -8.862942 -0.148091 1227 0.845216 0.496405 -0.048542
-10.207861 -8.863492 -0.143948 1227 0.835830 0.488487 0.011069
-10.208286 -8.863833 -0.139806 1221 0.829710 0.483575 0.070666
-10.209703 -8.865046 -0.135667 1217 0.809320 0.466134 0.130221
-10.211179 -8.866314 -0.131530 1185 0.788092 0.447884 0.189746
-10.213095 -8.867949 -0.127398 1181 0.760524 0.424364 0.249199
-10.215068 -8.869639 -0.123267 1161 0.732134 0.400036 0.308638
-10.216699 -8.871036 -0.119128 1133 0.708669 0.379947 0.368192
-10.218892 -8.872916 -0.114995 1093 0.677109 0.352887 0.427659
-10.222788 -8.876287 -0.110873 1061 0.621055 0.304380 0.486969
-10.226854 -8.879785 -0.106749 1001 0.562544 0.254062 0.546307
-10.231475 -8.883776 -0.102624 935 0.496062 0.196635 0.605659
-10.236920 -8.888484 -0.098513 827 0.417709 0.128890 0.664810
-10.233178 -8.880484 -0.219155 931 0.471554 0.244003 -1.071046
-10.228761 -8.876632 -0.214911 1005 0.535114 0.299426 -1.009981
-10.224732 -8.873111 -0.210673 1061 0.593076 0.350088 -0.949003
-10.220924 -8.869780 -0.206446 1097 0.647867 0.398018 -0.888183
-10.219304 -8.868361 -0.202254 1127 0.671181 0.418423 -0.827866
-10.217548 -8.866810 -0.198075 1151 0.696443 0.440748 -0.767736
-10.214500 -8.864147 -0.193862 1181 0.740298 0.479060 -0.707118
-10.212674 -8.862540 -0.189683 1191 0.766576 0.502182 -0.646988
-10.212338 -8.862226 -0.185525 1203 0.771406 0.506710 -0.587161
-10.211279 -8.861294 -0.181351 1231 0.786651 0.520116 -0.527103
-10.210333 -8.860445 -0.177186 1259 0.800263 0.532329 -0.467175
-10.209331 -8.859554 -0.173012 1257 0.814685 0.545145 -0.407118
-10.209095 -8.859325 -0.168864 1253 0.818074 0.548438 -0.347434
-10.209362 -8.859539 -0.164712 1257 0.814232 0.545364 -0.287693
-10.209353 -8.859507 -0.160561 1275 0.814356 0.545831 -0.227967
-10.208727 -8.858948 -0.156396 1255 0.823371 0.553872 -0.168039
-10.208499 -8.858726 -0.152247 1235 0.826650 0.557069 -0.108341
-10.209370 -8.859467 -0.148103 1235 0.814122 0.546407 -0.048715
-10.209965 -8.859961 -0.143958 1235 0.805560 0.539299 0.010925
-10.210390 -8.860303 -0.139817 1219 0.799440 0.534373 0.070508
-10.212199 -8.861844 -0.135686 1193 0.773409 0.512199 0.129947
-10.213894 -8.863303 -0.131547 1191 0.749025 0.491204 0.189501
-10.214815 -8.864079 -0.127402 1179 0.735770 0.480034 0.249141
-10.217448 -8.866340 -0.123276 1177 0.697884 0.447513 0.308508
-10.220131 -8.868650 -0.119151 1149 0.659284 0.414265 0.367861
-10.222764 -8.870911 -0.115016 1115 0.621398 0.381744 0.427357
-10.225062 -8.872881 -0.110883 1069 0.588328 0.353395 0.486825
-10.228518 -8.875859 -0.106753 1019 0.538613 0.310541 0.546249
-10.233409 -8.880090 -0.102635 943 0.468234 0.249671 0.605501
-10.238137 -8.884171 -0.098519 835 0.400200 0.190954 0.664724
-10.235780 -8.877260 -0.219174 949 0.434121 0.290384 -1.071319
-10.230921 -8.873030 -0.214923 1017 0.504034 0.351254 -1.010154
-10.226999 -8.869599 -0.210685 1047 0.560459 0.400612 -0.949175
-10.223895 -8.866895 -0.206471 1091 0.605124 0.439527 -0.888542
-10.221139 -8.864477 -0.202258 1127 0.644780 0.474312 -0.827924
-10.218871 -8.862490 -0.198060 1161 0.677411 0.502909 -0.767521
-10.217421 -8.861213 -0.193888 1187 0.698282 0.521282 -0.707492
-10.215985 -8.859950 -0.189708 1209 0.718933 0.539450 -0.647348
-10.214103 -8.858286 -0.185517 1213 0.746020 0.563395 -0.587046
-10.212929 -8.857255 -0.181355 1233 0.762912 0.578229 -0.527161
-10.211989 -8.856415 -0.177180 1249 0.776428 0.590318 -0.467089
-10.211541 -8.856002 -0.173022 1259 0.782877 0.596259 -0.407262
-10.212079 -8.856454 -0.168879 1261 0.775138 0.589755 -0.347650
-10.211743 -8.856140 -0.164721 1259 0.779968 0.594269 -0.287823
-10.211009 -8.855475 -0.160565 1263 0.790534 0.603834 -0.228024
-10.211605 -8.855971 -0.156422 1253 0.781958 0.596698 -0.168413
-10.212427 -8.856663 -0.152278 1253 0.770130 0.586750 -0.108787
-10.212624 -8.856820 -0.148127 1241 0.767303 0.584486 -0.049060
-10.212773 -8.856929 -0.143975 1225 0.765149 0.582921 0.010681
-10.213593 -8.857620 -0.139842 1225 0.753362 0.572973 0.070148
-10.214622 -8.858488 -0.135695 1217 0.738556 0.560486 0.129818
-10.215656 -8.859364 -0.131560 1209 0.723667 0.547889 0.189314
-10.217076 -8.860577 -0.127421 1187 0.703235 0.530435 0.248868
-10.218990 -8.862209 -0.123280 1159 0.675695 0.506943 0.308451
-10.221070 -8.863993 -0.119149 1139 0.645768 0.481283 0.367890
-10.223981 -8.866499 -0.115023 1111 0.603889 0.445222 0.427256
-10.227380 -8.869420 -0.110904 1069 0.554984 0.403192 0.486523
-10.230900 -8.872447 -0.106774 1007 0.504336 0.359638 0.545947
-10.235072 -8.876051 -0.102650 933 0.444302 0.307783 0.605285
-10.240966 -8.881131 -0.098536 839 0.359501 0.234686 0.664479
-10.240155 -8.875472 -0.219224 959 0.371165 0.316112 -1.072039
-10.235120 -8.871078 -0.214963 1027 0.443616 0.379343 -1.010729
-10.230970 -8.867467 -0.210726 1071 0.503321 0.431294 -0.949765
-10.227212 -8.864184 -0.206498 1099 0.557399 0.478525 -0.888931
-10.224400 -8.861726 -0.202292 1131 0.597865 0.513900 -0.828413
-10.222729 -8.860259 -0.198102 1169 0.621905 0.535004 -0.768125
-10.220902 -8.858651 -0.193913 1191 0.648183 0.558140 -0.707851
-10.219132 -8.857100 -0.189732 1205 0.673651 0.580465 -0.647693
-10.218130 -8.856209 -0.185559 1227 0.688073 0.593282 -0.587650
-10.216686 -8.854939 -0.181388 1233 0.708848 0.611545 -0.527636
-10.214689 -8.853177 -0.177199 1239 0.737581 0.636904 -0.467362
-10.214128 -8.852680 -0.173041 1249 0.745664 0.644053 -0.407535
-10.214175 -8.852690 -0.168891 1249 0.744977 0.643915 -0.347823
-10.214003 -8.852524 -0.164733 1249 0.747461 0.646303 -0.287995
-10.214044 -8.852541 -0.160582 1265 0.746871 0.646056 -0.228269
-10.213809 -8.852312 -0.156434 1255 0.750247 0.649349 -0.168585
-10.213963 -8.852427 -0.152283 1239 0.748037 0.647703 -0.108859
-10.213456 -8.851958 -0.148125 1223 0.755324 0.654440 -0.049031
-10.213434 -8.851926 -0.143977 1219 0.755639 0.654907 0.010652
-10.214860 -8.853132 -0.139838 1217 0.735125 0.637548 0.070206
-10.216441 -8.854491 -0.135709 1207 0.712374 0.617995 0.129616
-10.218030 -8.855845 -0.131570 1195 0.689513 0.598510 0.189170
-10.220173 -8.857677 -0.127438 1185 0.658680 0.572150 0.248623
-10.222301 -8.859508 -0.123305 1165 0.628067 0.545817 0.308091
-10.224323 -8.861234 -0.119174 1145 0.598962 0.520981 0.367530
-10.226850 -8.863401 -0.115041 1103 0.562613 0.489791 0.426997
-10.230371 -8.866428 -0.110921 1059 0.511938 0.446237 0.486278
-10.235042 -8.870455 -0.106805 1025 0.444742 0.388303 0.545501
-10.238895 -8.873770 -0.102671 951 0.389291 0.340606 0.604983
-10.243736 -8.877950 -0.098555 825 0.319639 0.280463 0.664206
-10.251665 -8.884795 -0.094449 637 0.205555 0.181967 0.723285
-10.242252 -8.871806 -0.219226 961 0.340990 0.368859 -1.072067
-10.238159 -8.868236 -0.214988 1021 0.399885 0.420234 -1.011089
-10.234018 -8.864631 -0.210751 1059 0.459465 0.472103 -0.950125
-10.230083 -8.861201 -0.206515 1099 0.516082 0.521447 -0.889175
-10.227377 -8.858833 -0.202309 1123 0.555025 0.555519 -0.828657
-10.225159 -8.856894 -0.198111 1159 0.586942 0.583429 -0.768254
-10.223559 -8.855485 -0.193932 1175 0.609954 0.603696 -0.708125
-10.222613 -8.854636 -0.189767 1191 0.623566 0.615909 -0.648197
-10.221007 -8.853232 -0.185586 1211 0.646674 0.636108 -0.588039
-10.219671 -8.852053 -0.181403 1225 0.665898 0.653082 -0.527851
-10.218838 -8.851304 -0.177239 1229 0.677891 0.663853 -0.467938
-10.218659 -8.851131 -0.173089 1245 0.680457 0.666337 -0.408226
-10.217713 -8.850298 -0.168925 1247 0.694069 0.678330 -0.348312
-10.216873 -8.849541 -0.164759 1241 0.706158 0.689225 -0.288369
-10.217029 -8.849655 -0.160609 1255 0.703921 0.687579 -0.228657
-10.216573 -8.849236 -0.156451 1241 0.710481 0.693616 -0.168830
-10.217438 -8.849971 -0.152306 1243 0.698035 0.683037 -0.109190
-10.218699 -8.851043 -0.148169 1235 0.679881 0.667613 -0.049664
-10.219017 -8.851291 -0.144028 1225 0.675311 0.664046 0.009918
-10.219115 -8.851351 -0.139878 1215 0.673898 0.663181 0.069630
-10.219930 -8.852035 -0.135733 1199 0.662179 0.653342 0.129271
-10.221568 -8.853438 -0.131594 1185 0.638605 0.633144 0.188825
-10.223818 -8.855361 -0.127471 1177 0.606235 0.605480 0.248149
-10.225172 -8.856524 -0.123334 1151 0.586750 0.588740 0.307674
-10.226598 -8.857730 -0.119185 1123 0.566236 0.571395 0.367372
-10.229948 -8.860617 -0.115065 1097 0.518030 0.529859 0.426652
-10.233851 -8.863965 -0.110944 1063 0.461867 0.481681 0.485947
-10.237705 -8.867281 -0.106822 1019 0.406416 0.433970 0.545256
-10.241993 -8.870983 -0.102698 941 0.344722 0.380701 0.604595
-10.247218 -8.875487 -0.098578 837 0.269540 0.315893 0.663875
-10.253500 -8.880898 -0.094462 621 0.179154 0.238034 0.723098
-10.245798 -8.869603 -0.219268 967 0.289972 0.400557 -1.072672
-10.240932 -8.865380 -0.215005 1017 0.359981 0.461318 -1.011333
-10.237621 -8.862485 -0.210784 1067 0.407624 0.502977 -0.950600
-10.233473 -8.858873 -0.206547 1091 0.467314 0.554942 -0.889636
-10.229979 -8.855824 -0.202327 1125 0.517591 0.598811 -0.828916
-10.227654 -8.853792 -0.198130 1151 0.551032 0.628053 -0.768528
-10.226105 -8.852432 -0.193949 1175 0.573330 0.647620 -0.708369
-10.224711 -8.851211 -0.189767 1191 0.593378 0.665198 -0.648197
-10.223056 -8.849744 -0.185586 1205 0.617199 0.686302 -0.588039
-10.221442 -8.848332 -0.181416 1201 0.640416 0.706611 -0.528039
-10.220773 -8.847731 -0.177249 1215 0.650049 0.715269 -0.468082
-10.220366 -8.847361 -0.173093 1233 0.655908 0.720594 -0.408283
-10.220415 -8.847385 -0.168942 1249 0.655195 0.720237 -0.348557
-10.219909 -8.846917 -0.164784 1241 0.662481 0.726974 -0.288729
-10.219736 -8.846750 -0.160626 1233 0.664965 0.729376 -0.228902
-10.220112 -8.847055 -0.156483 1237 0.659558 0.724985 -0.169290
-10.220039 -8.846974 -0.152323 1233 0.660601 0.726151 -0.109434
-10.220527 -8.847364 -0.148181 1217 0.653589 0.720539 -0.049837
-10.221620 -8.848294 -0.144046 1229 0.637864 0.707160 0.009659
-10.221987 -8.848594 -0.139893 1209 0.632581 0.702851 0.069415
-10.222248 -8.848800 -0.135741 1183 0.628821 0.699887 0.129156
-10.223893 -8.850195 -0.131612 1173 0.605151 0.679812 0.188566
-10.226029 -8.852020 -0.127480 1163 0.574414 0.653548 0.248019
-10.228002 -8.853710 -0.123349 1151 0.546037 0.629233 0.307458
-10.230137 -8.855536 -0.119218 1125 0.515313 0.602955 0.366897
-10.233772 -8.858660 -0.115096 1107 0.463005 0.558016 0.426206
-10.237171 -8.861581 -0.110966 1049 0.414100 0.515986 0.485631
-10.239917 -8.863939 -0.106831 999 0.374595 0.482051 0.545127
-10.244318 -8.867726 -0.102708 913 0.311268 0.427562 0.604451
-10.250551 -8.873102 -0.098601 793 0.221582 0.350211 0.663544
-10.249736 -8.867860 -0.219306 933 0.233314 0.425641 -1.073218
-10.244813 -8.863580 -0.215054 1001 0.304147 0.487225 -1.012039
-10.241331 -8.860544 -0.210824 1055 0.354245 0.530902 -0.951175
-10.236736 -8.856545 -0.206580 1083 0.420358 0.588438 -0.890110
-10.233192 -8.853461 -0.202361 1103 0.471348 0.632814 -0.829405
-10.231691 -8.852148 -0.198178 1141 0.492947 0.651709 -0.769218
-10.230802 -8.851356 -0.194003 1171 0.505749 0.663112 -0.709146
-10.228472 -8.849319 -0.189807 1179 0.539272 0.692409 -0.648772
-10.227142 -8.848146 -0.185635 1189 0.558400 0.709287 -0.588744
-10.226089 -8.847208 -0.181460 1215 0.573563 0.722789 -0.528672
-10.224532 -8.845840 -0.177289 1229 0.595957 0.742466 -0.468657
-10.223694 -8.845097 -0.173125 1227 0.608019 0.753169 -0.408744
-10.222405 -8.843966 -0.168952 1225 0.626557 0.769444 -0.348700
-10.222013 -8.843597 -0.164794 1219 0.632197 0.774740 -0.288873
-10.222715 -8.844183 -0.160651 1221 0.622098 0.766315 -0.229262
-10.222878 -8.844306 -0.156499 1231 0.619751 0.764545 -0.169521
-10.223031 -8.844420 -0.152348 1215 0.617556 0.762898 -0.109794
-10.224010 -8.845240 -0.148213 1215 0.603463 0.751111 -0.050298
-10.225096 -8.846164 -0.144076 1221 0.587848 0.737815 0.009228
-10.225973 -8.846898 -0.139931 1207 0.575223 0.727249 0.068868
-10.226732 -8.847528 -0.135787 1183 0.564301 0.718179 0.128494
-10.228264 -8.848838 -0.131650 1173 0.542263 0.699338 0.188019
-10.230180 -8.850472 -0.127518 1161 0.514696 0.675819 0.247472
-10.232038 -8.852064 -0.123378 1151 0.487966 0.652917 0.307041
-10.234238 -8.853938 -0.119244 1119 0.456309 0.625953 0.366523
-10.237311 -8.856579 -0.115119 1083 0.412083 0.587957 0.425875
-10.241052 -8.859796 -0.110997 1047 0.358266 0.541673 0.485184
-10.244735 -8.862955 -0.106875 979 0.305272 0.496213 0.544494
-10.248922 -8.866559 -0.102742 893 0.245019 0.444357 0.603961
-10.255141 -8.871921 -0.098637 771 0.155538 0.367213 0.663026
-10.254049 -8.866334 -0.219363 921 0.171250 0.447596 -1.074039
-10.249133 -8.862060 -0.215102 991 0.241986 0.509097 -1.012729
-10.245425 -8.858828 -0.210873 1031 0.295337 0.555601 -0.951880
-10.241439 -8.855362 -0.206635 1067 0.352695 0.605467 -0.890902
-10.238556 -8.852848 -0.202422 1105 0.394176 0.641638 -0.830283
-10.235727 -8.850389 -0.198218 1137 0.434875 0.677026 -0.769794
-10.233183 -8.848169 -0.194022 1159 0.471486 0.708957 -0.709420
-10.231180 -8.846414 -0.189824 1167 0.500302 0.734219 -0.649017
-10.229801 -8.845193 -0.185651 1191 0.520144 0.751784 -0.588974
-10.228351 -8.843917 -0.181470 1201 0.541015 0.770143 -0.528816
-10.227241 -8.842934 -0.177306 1207 0.556987 0.784291 -0.468902
-10.227339 -8.843007 -0.173156 1215 0.555574 0.783234 -0.409190
-10.227103 -8.842778 -0.168998 1219 0.558963 0.786527 -0.349362
-10.226547 -8.842274 -0.164840 1219 0.566963 0.793786 -0.289535
-10.226090 -8.841855 -0.160672 1213 0.573536 0.799810 -0.229564
-10.226083 -8.841837 -0.156523 1215 0.573645 0.800071 -0.169866
-10.226401 -8.842086 -0.152381 1207 0.569062 0.796490 -0.110269
-10.228273 -8.843678 -0.148251 1223 0.542126 0.773574 -0.050844
-10.229580 -8.844792 -0.144112 1213 0.523327 0.757547 0.008710
-10.229343 -8.844563 -0.139954 1185 0.526730 0.760854 0.068537
-10.229660 -8.844812 -0.135802 1179 0.522174 0.757259 0.128278
-10.230859 -8.845835 -0.131667 1165 0.504926 0.742549 0.187774
-10.232888 -8.847567 -0.127536 1159 0.475726 0.717630 0.247213
-10.234974 -8.849342 -0.123402 1139 0.445716 0.692079 0.306695
-10.237279 -8.851321 -0.119269 1109 0.412550 0.663606 0.366163
-10.240517 -8.854095 -0.115142 1061 0.365964 0.623689 0.425544
-10.244093 -8.857164 -0.111022 1021 0.314507 0.579532 0.484825
-10.247606 -8.860183 -0.106892 955 0.263955 0.536102 0.544249
-10.252567 -8.864455 -0.102774 869 0.192574 0.474628 0.603501
-10.258801 -8.869817 -0.098658 725 0.102873 0.397483 0.662724
-10.259035 -8.865376 -0.219428 889 0.099511 0.461373 -1.074974
-10.253389 -8.860477 -0.215150 975 0.180745 0.531862 -1.013420
-10.249120 -8.856773 -0.210904 1009 0.242178 0.585158 -0.952326
-10.245086 -8.853259 -0.206677 1043 0.300222 0.635723 -0.891506
-10.241206 -8.849887 -0.202439 1073 0.356043 0.684244 -0.830528
-10.238599 -8.847618 -0.198243 1125 0.393559 0.716889 -0.770154
-10.236829 -8.846066 -0.194054 1141 0.419027 0.739214 -0.709880
-10.235280 -8.844705 -0.189872 1163 0.441311 0.758809 -0.649708
-10.233880 -8.843477 -0.185691 1181 0.461455 0.776469 -0.589549
-10.232947 -8.842642 -0.181525 1195 0.474875 0.788490 -0.529607
-10.231277 -8.841175 -0.177346 1191 0.498902 0.809594 -0.469478
-10.230708 -8.840672 -0.173178 1199 0.507094 0.816839 -0.409506
-10.230252 -8.840253 -0.169020 1215 0.513653 0.822863 -0.349679
-10.229647 -8.839700 -0.164864 1197 0.522367 0.830822 -0.289880
-10.229957 -8.839956 -0.160712 1205 0.517907 0.827131 -0.230139
-10.229836 -8.839825 -0.156554 1209 0.519636 0.829024 -0.170312
-10.230209 -8.840131 -0.152411 1201 0.514271 0.824620 -0.110700
-10.231529 -8.841245 -0.148274 1209 0.495279 0.808592 -0.051175
-10.231954 -8.841599 -0.144131 1185 0.489173 0.803488 0.008436
-10.232385 -8.841946 -0.139979 1165 0.482971 0.798507 0.068177
-10.233526 -8.842914 -0.135842 1167 0.466546 0.784579 0.127703
-10.235171 -8.844307 -0.131703 1157 0.442875 0.764531 0.187256
-10.236811 -8.845710 -0.127564 1141 0.419287 0.744346 0.246810
-10.238008 -8.846718 -0.123427 1111 0.402066 0.729842 0.306336
-10.240869 -8.849161 -0.119292 1073 0.360901 0.694687 0.365832
-10.244234 -8.852048 -0.115172 1035 0.312476 0.653150 0.425113
-10.246973 -8.854401 -0.111037 991 0.273066 0.619298 0.484609
-10.251323 -8.858136 -0.106913 933 0.210481 0.565549 0.543947
-10.256831 -8.862879 -0.102801 829 0.131223 0.497310 0.603113
-10.263902 -8.868958 -0.098691 659 0.029488 0.409833 0.662249
-10.264462 -8.864701 -0.219500 823 0.021420 0.471088 -1.076010
-10.258206 -8.859281 -0.215205 941 0.111436 0.549083 -1.014211
-10.253993 -8.855619 -0.210969 991 0.172059 0.601762 -0.953262
-10.250286 -8.852402 -0.206740 1031 0.225396 0.648059 -0.892413
-10.245853 -8.848550 -0.202494 1067 0.289176 0.703482 -0.831319
-10.242855 -8.845936 -0.198283 1101 0.332318 0.741094 -0.770729
-10.240531 -8.843905 -0.194085 1123 0.365758 0.770308 -0.710326
-10.238649 -8.842256 -0.189896 1149 0.392832 0.794047 -0.650053
-10.237312 -8.841092 -0.185723 1169 0.412070 0.810788 -0.590010
-10.236309 -8.840201 -0.181550 1177 0.426505 0.823604 -0.529967
-10.235243 -8.839261 -0.177386 1181 0.441846 0.837134 -0.470053
-10.234354 -8.838470 -0.173211 1187 0.454635 0.848509 -0.409981
-10.233904 -8.838058 -0.169053 1189 0.461112 0.854437 -0.350154
-10.233391 -8.837596 -0.164897 1191 0.468494 0.861092 -0.290355
-10.233098 -8.837324 -0.160737 1195 0.472707 0.865003 -0.230499
-10.233147 -8.837335 -0.156588 1185 0.472007 0.864852 -0.170801
-10.234409 -8.838407 -0.152451 1189 0.453839 0.849429 -0.111276
-10.235067 -8.838950 -0.148307 1205 0.444371 0.841607 -0.051650
-10.234881 -8.838771 -0.144149 1179 0.447047 0.844187 0.008177
-10.236747 -8.840370 -0.140017 1169 0.420207 0.821175 0.067630
-10.237839 -8.841287 -0.135871 1151 0.404495 0.807989 0.127285
-10.238647 -8.841965 -0.131726 1141 0.392859 0.798232 0.186926
-10.240619 -8.843641 -0.127595 1115 0.364496 0.774109 0.246364
-10.242763 -8.845473 -0.123463 1097 0.333649 0.747749 0.305818
-10.245459 -8.847782 -0.119338 1069 0.294857 0.714529 0.365170
-10.248482 -8.850373 -0.115201 1017 0.251358 0.677246 0.424695
-10.252443 -8.853765 -0.111079 969 0.194357 0.628451 0.484005
-10.257020 -8.857699 -0.106963 891 0.128506 0.571834 0.543228
-10.262202 -8.862147 -0.102843 795 0.053941 0.507835 0.602508
-10.269430 -8.868366 -0.098733 551 -0.050058 0.418354 0.661645
-10.269981 -8.863776 -0.219573 687 -0.057989 0.484398 -1.077060
-10.264172 -8.858743 -0.215285 869 0.025605 0.556822 -1.015362
-10.258908 -8.854182 -0.211026 949 0.101336 0.622441 -0.954082
-10.255037 -8.850816 -0.206788 1005 0.157034 0.670879 -0.893103
-10.251656 -8.847878 -0.202567 1047 0.205692 0.713143 -0.832369
-10.248331 -8.844984 -0.198355 1079 0.253526 0.754789 -0.771765
-10.245389 -8.842426 -0.194142 1109 0.295859 0.791591 -0.711146
-10.243556 -8.840826 -0.189954 1125 0.322232 0.814616 -0.650887
-10.242390 -8.839802 -0.185780 1149 0.339014 0.829354 -0.590830
-10.240777 -8.838377 -0.181599 1155 0.362218 0.849854 -0.530672
-10.239602 -8.837345 -0.177426 1177 0.379123 0.864701 -0.470628
-10.238763 -8.836603 -0.173260 1191 0.391199 0.875377 -0.410686
-10.238471 -8.836331 -0.169102 1187 0.395397 0.879288 -0.350859
-10.238185 -8.836067 -0.164944 1195 0.399514 0.883089 -0.291031
-10.238234 -8.836078 -0.160783 1185 0.398814 0.882938 -0.231161
-10.238502 -8.836290 -0.156642 1187 0.394958 0.879878 -0.171578
-10.238876 -8.836596 -0.152489 1191 0.389566 0.875487 -0.111823
-10.239528 -8.837132 -0.148347 1191 0.380194 0.867761 -0.052226
-10.239896 -8.837432 -0.144194 1173 0.374897 0.863453 0.007530
-10.240995 -8.838355 -0.140048 1167 0.359076 0.850170 0.067185
-10.242470 -8.839610 -0.135920 1155 0.337861 0.832112 0.126580
-10.243944 -8.840865 -0.131781 1133 0.316647 0.814054 0.186134
-10.245320 -8.842020 -0.127633 1103 0.296847 0.797436 0.245817
-10.247123 -8.843557 -0.123494 1073 0.270912 0.775317 0.305372
-10.250429 -8.846387 -0.119374 1055 0.223338 0.734604 0.364652
-10.253283 -8.848837 -0.115239 993 0.182282 0.699352 0.424148
-10.257471 -8.852427 -0.111125 921 0.122015 0.647703 0.483343
-10.262929 -8.857120 -0.107005 845 0.043485 0.580177 0.542623
-10.268559 -8.861954 -0.102893 697 -0.037529 0.510621 0.601789
-10.270576 -8.858374 -0.215375 759 -0.066538 0.562133 -1.016657
-10.265484 -8.853952 -0.211114 873 0.006724 0.625748 -0.955348
-10.260775 -8.849870 -0.206860 949 0.074483 0.684491 -0.894139
-10.256782 -8.846412 -0.202634 999 0.131936 0.734247 -0.833334
-10.254168 -8.844136 -0.198418 1053 0.169548 0.766987 -0.772672
-10.251460 -8.841783 -0.194215 1085 0.208505 0.800853 -0.712197
-10.248847 -8.839506 -0.190018 1103 0.246103 0.833607 -0.651808
-10.246401 -8.837371 -0.185813 1125 0.281300 0.864331 -0.591305
-10.245122 -8.836248 -0.181639 1129 0.299701 0.880482 -0.531247
-10.244452 -8.835647 -0.177474 1159 0.309334 0.889140 -0.471319
-10.243784 -8.835045 -0.173308 1159 0.318953 0.897799 -0.411377
-10.242717 -8.834105 -0.169133 1161 0.334307 0.911328 -0.351305
-10.242489 -8.833883 -0.164984 1185 0.337587 0.914512 -0.291607
-10.243246 -8.834526 -0.160842 1177 0.326692 0.905263 -0.232010
-10.243408 -8.834635 -0.156680 1171 0.324359 0.903699 -0.172125
-10.243058 -8.834320 -0.152522 1159 0.329395 0.908227 -0.112298
-10.244213 -8.835286 -0.148385 1163 0.312778 0.894327 -0.052772
-10.244966 -8.835922 -0.144242 1157 0.301951 0.885174 0.006839
-10.245893 -8.836693 -0.140095 1141 0.288613 0.874087 0.066508
-10.246984 -8.837623 -0.135951 1129 0.272916 0.860708 0.126134
-10.247750 -8.838260 -0.131806 1113 0.261883 0.851542 0.185774
-10.249829 -8.840026 -0.127675 1087 0.231969 0.826129 0.245213
-10.252419 -8.842245 -0.123540 1049 0.194701 0.794198 0.304710
-10.256444 -8.845687 -0.119427 1021 0.136794 0.744676 0.363889
-10.260355 -8.849044 -0.115304 963 0.080520 0.696374 0.423213
-10.263768 -8.851964 -0.111176 891 0.031410 0.654358 0.482609
-10.269171 -8.856602 -0.107054 783 -0.046325 0.587628 0.541918
-10.277394 -8.858653 -0.215472 507 -0.164649 0.558112 -1.018053
-10.271463 -8.853528 -0.211194 787 -0.079313 0.631854 -0.956499
-10.266862 -8.849537 -0.206940 891 -0.013104 0.689280 -0.895290
-10.263089 -8.846270 -0.202712 957 0.041180 0.736291 -0.834456
-10.260261 -8.843811 -0.198498 1017 0.081879 0.771667 -0.773823
-10.257483 -8.841387 -0.194295 1049 0.121851 0.806548 -0.713348
-10.254485 -8.838787 -0.190081 1079 0.164979 0.843954 -0.652715
-10.251821 -8.836461 -0.185876 1095 0.203318 0.877422 -0.592211
-10.250264 -8.835108 -0.181695 1111 0.225712 0.896893 -0.532053
-10.249205 -8.834175 -0.177521 1141 0.240957 0.910313 -0.471995
-10.248145 -8.833228 -0.173346 1139 0.256202 0.923939 -0.411923
-10.248193 -8.833253 -0.169196 1143 0.255516 0.923582 -0.352211
-10.247744 -8.832839 -0.165040 1143 0.261979 0.929537 -0.292413
-10.246897 -8.832089 -0.160865 1131 0.274164 0.940323 -0.232341
-10.247493 -8.832585 -0.156722 1145 0.265588 0.933187 -0.172729
-10.248306 -8.833270 -0.152577 1145 0.253883 0.923335 -0.113089
-10.248901 -8.833765 -0.148432 1157 0.245321 0.916213 -0.053449
-10.249440 -8.834204 -0.144280 1137 0.237568 0.909901 0.006292
-10.250595 -8.835170 -0.140134 1115 0.220951 0.896001 0.065947
-10.252845 -8.837093 -0.136010 1107 0.188581 0.868324 0.125285
-10.254717 -8.838685 -0.131871 1085 0.161644 0.845422 0.184839
-10.256081 -8.839842 -0.127732 1043 0.142022 0.828777 0.244393
-10.258614 -8.842003 -0.123599 1005 0.105577 0.797683 0.303861
-10.261912 -8.844826 -0.119469 975 0.058112 0.757066 0.363285
-10.266776 -8.849000 -0.115351 917 -0.011869 0.697006 0.422537
-10.271077 -8.852674 -0.111228 813 -0.073755 0.644149 0.481861
-10.277480 -8.858175 -0.107121 615 -0.165884 0.564987 0.540954
-10.280207 -8.855700 -0.211327 571 -0.205115 0.600609 -0.958413
-10.273935 -8.850281 -0.207043 799 -0.114880 0.678577 -0.896772
-10.269276 -8.846246 -0.202790 903 -0.047835 0.736634 -0.835578
-10.265511 -8.842972 -0.198561 963 0.006340 0.783742 -0.774729
-10.262960 -8.840759 -0.194356 1003 0.043032 0.815577 -0.714226
-10.261013 -8.839061 -0.190167 1049 0.071052 0.840016 -0.653952
-10.258739 -8.837079 -0.185969 1075 0.103765 0.868530 -0.593549
-10.257069 -8.835612 -0.181779 1103 0.127806 0.889634 -0.533262
-10.255285 -8.834061 -0.177600 1101 0.153466 0.911960 -0.473132
-10.253892 -8.832840 -0.173417 1115 0.173514 0.929524 -0.412945
-10.252832 -8.831908 -0.169244 1125 0.188759 0.942930 -0.352902
-10.252540 -8.831635 -0.165086 1131 0.192972 0.946855 -0.293075
-10.252807 -8.831837 -0.160933 1121 0.189129 0.943959 -0.233319
-10.252792 -8.831810 -0.156773 1125 0.189335 0.944343 -0.173463
-10.252954 -8.831919 -0.152623 1125 0.187016 0.942779 -0.113751
-10.253882 -8.832703 -0.148478 1117 0.173651 0.931500 -0.054111
-10.254478 -8.833198 -0.144324 1105 0.165075 0.924378 0.005659
-10.256449 -8.834873 -0.140193 1097 0.136725 0.900269 0.065098
-10.258378 -8.836508 -0.136061 1079 0.108966 0.876749 0.124551
-10.259853 -8.837762 -0.131915 1043 0.087738 0.858705 0.184206
-10.263048 -8.840494 -0.127797 1025 0.041770 0.819391 0.243458
-10.265915 -8.842945 -0.123660 985 0.000521 0.784126 0.302983
-10.268611 -8.845240 -0.119525 913 -0.038270 0.751111 0.362479
-10.272530 -8.848589 -0.115403 833 -0.094654 0.702920 0.421789
-10.279266 -8.854381 -0.111295 693 -0.191586 0.619586 0.480897
-10.282188 -8.851911 -0.207160 623 -0.233630 0.655126 -0.898456
-10.276762 -8.847216 -0.202901 807 -0.155552 0.722679 -0.837175
-10.272656 -8.843660 -0.198664 903 -0.096479 0.773835 -0.776211
-10.269545 -8.840961 -0.194442 965 -0.051704 0.812668 -0.715463
-10.266768 -8.838552 -0.190238 1011 -0.011760 0.847329 -0.654974
-10.264657 -8.836706 -0.186040 1045 0.018621 0.873895 -0.594571
-10.262766 -8.835063 -0.181849 1055 0.045831 0.897538 -0.534269
-10.261642 -8.834081 -0.177666 1073 0.061996 0.911672 -0.474082
-10.260370 -8.832952 -0.173493 1089 0.080301 0.927918 -0.414039
-10.259196 -8.831920 -0.169320 1095 0.097192 0.942765 -0.353995
-10.258349 -8.831170 -0.165145 1097 0.109378 0.953551 -0.293923
-10.257895 -8.830766 -0.160977 1101 0.115909 0.959369 -0.233952
-10.258545 -8.831303 -0.156834 1095 0.106565 0.951643 -0.174341
-10.259751 -8.832318 -0.152697 1093 0.089206 0.937030 -0.114815
-10.260458 -8.832911 -0.148543 1081 0.079038 0.928508 -0.055046
-10.261551 -8.833829 -0.144398 1071 0.063313 0.915294 0.004594
-10.263253 -8.835266 -0.140258 1057 0.038819 0.894615 0.064163
-10.265013 -8.836760 -0.136119 1037 0.013502 0.873127 0.123717
-10.266887 -8.838352 -0.131987 1013 -0.013461 0.850211 0.183170
-10.269469 -8.840549 -0.127852 983 -0.050620 0.818596 0.242667
-10.272555 -8.843188 -0.123715 925 -0.095024 0.780627 0.302192
-10.275585 -8.845773 -0.119590 845 -0.138619 0.743441 0.361544
-10.281166 -8.850558 -0.115477 717 -0.218920 0.674584 0.420724
-10.285122 -8.849050 -0.203017 593 -0.275838 0.696292 -0.838844
-10.280397 -8.844966 -0.198764 785 -0.207860 0.755049 -0.777650
-10.276847 -8.841889 -0.194543 883 -0.156773 0.799316 -0.716916
-10.273849 -8.839289 -0.190329 951 -0.113631 0.836736 -0.656283
-10.271347 -8.837111 -0.186124 983 -0.077639 0.868063 -0.595780
-10.268953 -8.835040 -0.181918 1011 -0.043197 0.897867 -0.535262
-10.267510 -8.833770 -0.177737 1029 -0.022435 0.916145 -0.475103
-10.266842 -8.833169 -0.173569 1053 -0.012816 0.924790 -0.415132
-10.266604 -8.832952 -0.169402 1065 -0.009400 0.927918 -0.355175
-10.266369 -8.832723 -0.165242 1067 -0.006010 0.931212 -0.295319
-10.265423 -8.831889 -0.161069 1063 0.007602 0.943204 -0.235276
-10.264967 -8.831470 -0.156901 1063 0.014161 0.949242 -0.175305
-10.265781 -8.832155 -0.152756 1063 0.002443 0.939376 -0.115665
-10.266767 -8.832981 -0.148610 1047 -0.011732 0.927493 -0.056010
-10.267532 -8.833616 -0.144456 1031 -0.022751 0.918354 0.003760
-10.268177 -8.834146 -0.140303 1001 -0.032027 0.910738 0.063515
-10.269830 -8.835549 -0.136164 979 -0.055807 0.890540 0.123069
-10.272143 -8.837521 -0.132031 943 -0.089097 0.862176 0.182537
-10.275557 -8.840442 -0.127902 899 -0.138207 0.820146 0.241947
-10.280475 -8.844644 -0.123793 833 -0.208971 0.759687 0.301069
-10.284946 -8.848473 -0.119668 705 -0.273313 0.704594 0.360422
-10.286100 -8.844384 -0.194674 727 -0.289917 0.763420 -0.718801
-10.282434 -8.841208 -0.190446 843 -0.237170 0.809114 -0.657967
-10.279429 -8.838602 -0.186232 901 -0.193932 0.846616 -0.597334
-10.277539 -8.836959 -0.182032 949 -0.166735 0.870259 -0.536902
-10.275365 -8.835063 -0.177834 983 -0.135449 0.897538 -0.476499
-10.273965 -8.833848 -0.173653 1007 -0.115305 0.915020 -0.416341
-10.272904 -8.832915 -0.169478 1005 -0.100047 0.928440 -0.356269
-10.272790 -8.832792 -0.165311 1025 -0.098400 0.930210 -0.296312
-10.272448 -8.832471 -0.161153 1025 -0.093474 0.934834 -0.236485
-10.271658 -8.831779 -0.156976 1015 -0.082112 0.944796 -0.176384
-10.272472 -8.832448 -0.152821 1009 -0.093831 0.935163 -0.116600
-10.273514 -8.833331 -0.148677 999 -0.108815 0.922457 -0.056974
-10.274607 -8.834248 -0.144530 973 -0.124540 0.909270 0.002695
-10.275649 -8.835115 -0.140383 935 -0.139538 0.896783 0.062364
-10.277629 -8.836799 -0.136243 907 -0.168025 0.872564 0.121933
-10.280445 -8.839200 -0.132107 861 -0.208546 0.838012 0.181443
-10.283746 -8.842023 -0.127978 771 -0.256038 0.797395 0.240854
-10.287784 -8.845464 -0.123856 585 -0.314136 0.747886 0.300163
