765
-6.422163 -5.582960 -0.190452 1485 0.928652 -0.081227 -0.435755
-6.420774 -5.581745 -0.187799 1497 0.948638 -0.063745 -0.397583
-6.420057 -5.581102 -0.185174 1523 0.958957 -0.054490 -0.359813
-6.418659 -5.579879 -0.182521 1517 0.979067 -0.036891 -0.321640
-6.417710 -5.579045 -0.179878 1527 0.992727 -0.024892 -0.283612
-6.417807 -5.579114 -0.177276 1547 0.991327 -0.025886 -0.246173
-6.417247 -5.578611 -0.174640 1543 0.999389 -0.018648 -0.208245
-6.416183 -5.577678 -0.172006 1543 1.014696 -0.005228 -0.170345
-6.415898 -5.577408 -0.169387 1543 1.018799 -0.001338 -0.132662
-6.416718 -5.578112 -0.166793 1553 1.006998 -0.011472 -0.095338
-6.416931 -5.578279 -0.164192 1553 1.003931 -0.013873 -0.057914
-6.415754 -5.577248 -0.161548 1543 1.020871 0.000961 -0.019871
-6.415405 -5.576928 -0.158931 1543 1.025893 0.005564 0.017784
-6.416162 -5.577569 -0.156337 1547 1.014998 -0.003657 0.055108
-6.416643 -5.577976 -0.153734 1543 1.008075 -0.009516 0.092561
-6.416855 -5.578144 -0.151122 1529 1.005029 -0.011931 0.130144
-6.417336 -5.578551 -0.148521 1545 0.998106 -0.017784 0.167568
-6.418142 -5.579241 -0.145925 1535 0.986511 -0.027711 0.204921
-6.419232 -5.580170 -0.143339 1527 0.970827 -0.041083 0.242130
-6.420039 -5.580859 -0.140745 1519 0.959211 -0.050998 0.279453
-6.420796 -5.581513 -0.138141 1511 0.948323 -0.060404 0.316921
-6.421496 -5.582097 -0.135547 1501 0.938251 -0.068809 0.354245
-6.422578 -5.583033 -0.132949 1483 0.922683 -0.082277 0.391626
-6.423711 -5.584005 -0.130363 1465 0.906382 -0.096259 0.428834
-6.424964 -5.585083 -0.127767 1443 0.888351 -0.111772 0.466187
-6.426763 -5.586632 -0.125186 1413 0.862465 -0.134056 0.503324
-6.428894 -5.588471 -0.122604 1389 0.831803 -0.160519 0.540475
-6.431196 -5.590452 -0.120031 1363 0.798678 -0.189026 0.577496
-6.433766 -5.592672 -0.117456 1323 0.761705 -0.220964 0.614547
-6.436118 -5.594702 -0.114873 1261 0.727859 -0.250171 0.651712
-6.439794 -5.597881 -0.112312 1191 0.674968 -0.295913 0.688561
-6.445064 -5.602450 -0.109773 1043 0.599141 -0.361655 0.725093
-6.443860 -5.598559 -0.214628 1153 0.616465 -0.305670 -0.783612
-6.439826 -5.595051 -0.211881 1255 0.674508 -0.255194 -0.744086
-6.436347 -5.592009 -0.209152 1323 0.724566 -0.211428 -0.704820
-6.433363 -5.589404 -0.206449 1365 0.767502 -0.173946 -0.665928
-6.430379 -5.586798 -0.203735 1393 0.810438 -0.136451 -0.626878
-6.428657 -5.585294 -0.201064 1425 0.835213 -0.114805 -0.588446
-6.427388 -5.584171 -0.198413 1463 0.853470 -0.098647 -0.550302
-6.425771 -5.582758 -0.195752 1483 0.876735 -0.078318 -0.512014
-6.423892 -5.581112 -0.193082 1493 0.903774 -0.054634 -0.473597
-6.422283 -5.579693 -0.190421 1505 0.926923 -0.034216 -0.435309
-6.421113 -5.578668 -0.187778 1517 0.943760 -0.019471 -0.397281
-6.419893 -5.577594 -0.185136 1533 0.961317 -0.004014 -0.359266
-6.419113 -5.576901 -0.182500 1541 0.972535 0.005955 -0.321338
-6.418885 -5.576687 -0.179881 1559 0.975815 0.009036 -0.283655
-6.418324 -5.576184 -0.177255 1555 0.983890 0.016274 -0.245871
-6.417260 -5.575252 -0.174610 1547 0.999197 0.029681 -0.207813
-6.416303 -5.574411 -0.171975 1553 1.012967 0.041783 -0.169899
-6.416302 -5.574395 -0.169366 1551 1.012980 0.042010 -0.132360
-6.416393 -5.574457 -0.166755 1561 1.011677 0.041118 -0.094792
-6.416384 -5.574433 -0.164146 1551 1.011800 0.041468 -0.057252
-6.416256 -5.574319 -0.161537 1553 1.013646 0.043107 -0.019712
-6.416191 -5.574240 -0.158916 1559 1.014579 0.044240 0.018000
-6.416778 -5.574739 -0.156324 1559 1.006133 0.037063 0.055295
-6.417152 -5.575054 -0.153722 1559 1.000754 0.032528 0.092734
-6.416854 -5.574784 -0.151103 1551 1.005042 0.036418 0.130417
-6.417619 -5.575432 -0.148509 1559 0.994031 0.027094 0.167741
-6.418928 -5.576551 -0.145921 1555 0.975197 0.010991 0.204978
-6.419791 -5.577297 -0.143327 1541 0.962779 0.000254 0.242302
-6.420329 -5.577747 -0.140724 1539 0.955040 -0.006216 0.279755
-6.420639 -5.577999 -0.138122 1533 0.950580 -0.009845 0.317194
-6.421453 -5.578696 -0.135528 1523 0.938868 -0.019869 0.354518
-6.422805 -5.579858 -0.132940 1507 0.919418 -0.036590 0.391755
-6.424171 -5.581034 -0.130351 1483 0.899761 -0.053516 0.429007
-6.425538 -5.582196 -0.127754 1465 0.880090 -0.070236 0.466374
-6.426557 -5.583069 -0.125158 1439 0.865429 -0.082791 0.503727
-6.427867 -5.584203 -0.122571 1411 0.846582 -0.099107 0.540950
-6.430430 -5.586416 -0.119996 1395 0.809704 -0.130948 0.578000
-6.433773 -5.589306 -0.117437 1365 0.761602 -0.172533 0.614820
-6.436188 -5.591385 -0.114854 1305 0.726851 -0.202447 0.651986
-6.438483 -5.593373 -0.112270 1251 0.693829 -0.231050 0.689165
-6.442492 -5.596841 -0.109718 1141 0.636149 -0.280950 0.725885
-6.447379 -5.601072 -0.107169 947 0.565831 -0.341827 0.762561
-6.446169 -5.597261 -0.217286 1111 0.583244 -0.286994 -0.821856
-6.441974 -5.593605 -0.214530 1239 0.643600 -0.234391 -0.782202
-6.438827 -5.590852 -0.211807 1313 0.688882 -0.194776 -0.743022
-6.435723 -5.588141 -0.209094 1347 0.733547 -0.155771 -0.703986
-6.432527 -5.585353 -0.206384 1377 0.779529 -0.115655 -0.664993
-6.429869 -5.583030 -0.203679 1419 0.817772 -0.082236 -0.626072
-6.427927 -5.581336 -0.201009 1449 0.845717 -0.057859 -0.587655
-6.426317 -5.579930 -0.198348 1475 0.868880 -0.037626 -0.549367
-6.425097 -5.578856 -0.195695 1499 0.886437 -0.022175 -0.511194
-6.423609 -5.577542 -0.193044 1509 0.907850 -0.003266 -0.473051
-6.422105 -5.576228 -0.190383 1525 0.929489 0.015636 -0.434763
-6.420822 -5.575105 -0.187740 1525 0.947945 0.031794 -0.396734
-6.419552 -5.573981 -0.185087 1543 0.966223 0.047972 -0.358561
-6.418708 -5.573238 -0.182453 1545 0.978367 0.058661 -0.320662
-6.418977 -5.573462 -0.179851 1563 0.974497 0.055437 -0.283223
-6.418472 -5.573002 -0.177224 1573 0.981763 0.062057 -0.245424
-6.417785 -5.572401 -0.174598 1569 0.991643 0.070702 -0.207640
-6.417450 -5.572095 -0.171979 1563 0.996466 0.075107 -0.169957
-6.416337 -5.571114 -0.169336 1565 1.012480 0.089220 -0.131928
-6.416045 -5.570850 -0.166717 1575 1.016679 0.093021 -0.094245
-6.416647 -5.571350 -0.164125 1573 1.008020 0.085824 -0.056950
-6.416787 -5.571461 -0.161514 1571 1.006003 0.084225 -0.019381
-6.416723 -5.571396 -0.158904 1583 1.006929 0.085165 0.018173
-6.416714 -5.571373 -0.156293 1573 1.007053 0.085495 0.055741
-6.416968 -5.571582 -0.153692 1573 1.003403 0.082489 0.093165
-6.417683 -5.572181 -0.151098 1563 0.993111 0.073865 0.130489
-6.417936 -5.572390 -0.148486 1571 0.989475 0.070860 0.168072
-6.418354 -5.572749 -0.145885 1573 0.983458 0.065694 0.205496
-6.419223 -5.573487 -0.143289 1565 0.970957 0.055080 0.242849
-6.420031 -5.574177 -0.140695 1557 0.959328 0.045152 0.280172
-6.421007 -5.575007 -0.138110 1547 0.945283 0.033207 0.317367
-6.421764 -5.575647 -0.135505 1533 0.934395 0.024000 0.354849
-6.422854 -5.576577 -0.132919 1517 0.918711 0.010614 0.392057
-6.424263 -5.577795 -0.130330 1507 0.898437 -0.006909 0.429309
-6.425346 -5.578717 -0.127735 1493 0.882855 -0.020178 0.466647
-6.426769 -5.579936 -0.125146 1463 0.862382 -0.037715 0.503899
-6.428788 -5.581676 -0.122566 1437 0.833326 -0.062750 0.541022
-6.430529 -5.583184 -0.119985 1423 0.808277 -0.084445 0.578158
-6.432774 -5.585108 -0.117402 1383 0.775975 -0.112129 0.615324
-6.435238 -5.587236 -0.114829 1349 0.740525 -0.142749 0.652345
-6.438142 -5.589746 -0.112253 1299 0.698741 -0.178865 0.689410
-6.441153 -5.592347 -0.109685 1221 0.655414 -0.216292 0.726360
-6.445487 -5.596097 -0.107120 1109 0.593055 -0.270247 0.763266
-6.449780 -5.599806 -0.104566 813 0.531286 -0.323611 0.800014
-6.449394 -5.596691 -0.219968 1005 0.536836 -0.278795 -0.860446
-6.444589 -5.592513 -0.217195 1201 0.605974 -0.218680 -0.820547
-6.440216 -5.588694 -0.214429 1287 0.668896 -0.163730 -0.780748
-6.437842 -5.586625 -0.211744 1339 0.703057 -0.133960 -0.742115
-6.435022 -5.584169 -0.209039 1379 0.743633 -0.098620 -0.703194
-6.431924 -5.581465 -0.206327 1403 0.788208 -0.059711 -0.664173
-6.429932 -5.579720 -0.203649 1447 0.816867 -0.034607 -0.625640
-6.428599 -5.578548 -0.200996 1471 0.836050 -0.017742 -0.587468
-6.426770 -5.576952 -0.198327 1489 0.862362 0.005221 -0.549065
-6.424722 -5.575166 -0.195648 1499 0.891830 0.030916 -0.510518
-6.423339 -5.573943 -0.192996 1529 0.911733 0.048514 -0.472360
-6.422771 -5.573447 -0.190370 1547 0.919905 0.055649 -0.434576
-6.421941 -5.572705 -0.187734 1551 0.931850 0.066332 -0.396647
-6.420601 -5.571539 -0.185083 1563 0.951129 0.083107 -0.358504
-6.419927 -5.570938 -0.182456 1565 0.960823 0.091752 -0.320705
-6.419316 -5.570386 -0.179830 1573 0.969619 0.099697 -0.282921
-6.418416 -5.569602 -0.177194 1581 0.982566 0.110976 -0.244993
-6.418138 -5.569338 -0.174575 1585 0.986566 0.114777 -0.207309
-6.417896 -5.569125 -0.171958 1575 0.990051 0.117837 -0.169655
-6.417612 -5.568855 -0.169340 1589 0.994133 0.121727 -0.131986
-6.417320 -5.568592 -0.166721 1587 0.998339 0.125508 -0.094302
-6.417199 -5.568470 -0.164111 1579 1.000075 0.127264 -0.056748
-6.416971 -5.568257 -0.161493 1571 1.003355 0.130331 -0.019079
-6.416893 -5.568178 -0.158883 1577 1.004480 0.131463 0.018475
-6.417323 -5.568535 -0.156282 1577 0.998291 0.126331 0.055899
-6.417520 -5.568703 -0.153680 1579 0.995458 0.123909 0.093338
-6.417845 -5.568969 -0.151067 1571 0.990785 0.120087 0.130935
-6.418432 -5.569468 -0.148475 1579 0.982333 0.112904 0.168230
-6.418636 -5.569629 -0.145873 1571 0.979403 0.110585 0.205669
-6.419507 -5.570368 -0.143279 1567 0.966868 0.099957 0.242993
-6.420816 -5.571487 -0.140691 1563 0.948035 0.083855 0.280230
-6.421127 -5.571754 -0.138090 1553 0.943561 0.080013 0.317655
-6.421714 -5.572239 -0.135486 1537 0.935115 0.073035 0.355122
-6.422797 -5.573175 -0.132890 1523 0.919527 0.059567 0.392475
-6.424099 -5.574288 -0.130302 1521 0.900797 0.043553 0.429712
-6.425749 -5.575704 -0.127723 1511 0.877058 0.023176 0.466820
-6.427052 -5.576817 -0.125137 1483 0.858307 0.007163 0.504029
-6.428462 -5.578035 -0.122548 1469 0.838019 -0.010360 0.541281
-6.430762 -5.580016 -0.119964 1455 0.804929 -0.038867 0.578460
-6.433057 -5.581989 -0.117393 1415 0.771907 -0.067251 0.615453
-6.435472 -5.584068 -0.114818 1373 0.737156 -0.097165 0.652504
-6.438092 -5.586337 -0.112233 1331 0.699455 -0.129816 0.689698
-6.440897 -5.588748 -0.109657 1271 0.659099 -0.164505 0.726763
-6.444502 -5.591871 -0.107097 1187 0.607230 -0.209438 0.763597
-6.449679 -5.596348 -0.104547 1029 0.532740 -0.273855 0.800288
-6.447941 -5.591773 -0.219879 1151 0.557749 -0.208031 -0.859166
-6.443469 -5.587883 -0.217113 1253 0.622091 -0.152060 -0.819367
-6.440307 -5.585130 -0.214391 1331 0.667586 -0.112451 -0.780201
-6.437161 -5.582391 -0.211679 1365 0.712854 -0.073035 -0.741180
-6.434234 -5.579828 -0.208967 1397 0.754967 -0.036157 -0.702158
-6.431852 -5.577752 -0.206279 1429 0.789244 -0.006292 -0.663482
-6.429966 -5.576115 -0.203611 1461 0.816380 0.017262 -0.625094
-6.427918 -5.574313 -0.200933 1487 0.845847 0.043190 -0.586561
-6.426421 -5.573006 -0.198270 1505 0.867384 0.061996 -0.548245
-6.425804 -5.572462 -0.195644 1521 0.876262 0.069824 -0.510461
-6.424641 -5.571430 -0.192991 1535 0.892996 0.084671 -0.472288
-6.423358 -5.570306 -0.190349 1553 0.911459 0.100849 -0.434273
-6.422187 -5.569282 -0.187705 1551 0.928309 0.115580 -0.396230
-6.420968 -5.568207 -0.185062 1561 0.945846 0.131051 -0.358202
-6.420351 -5.567663 -0.182426 1575 0.954724 0.138873 -0.320274
-6.419897 -5.567252 -0.179809 1579 0.961256 0.144787 -0.282619
-6.419392 -5.566806 -0.177181 1589 0.968521 0.151209 -0.244806
-6.418880 -5.566352 -0.174564 1591 0.975890 0.157740 -0.207151
-6.418427 -5.565942 -0.171937 1585 0.982408 0.163641 -0.169353
-6.417809 -5.565397 -0.169311 1587 0.991300 0.171483 -0.131568
-6.417800 -5.565373 -0.166700 1593 0.991430 0.171826 -0.094000
-6.418224 -5.565724 -0.164108 1601 0.985331 0.166776 -0.056705
-6.418046 -5.565560 -0.161489 1587 0.987890 0.169137 -0.019022
-6.417925 -5.565438 -0.158880 1581 0.989633 0.170893 0.018518
-6.418292 -5.565748 -0.156278 1595 0.984350 0.166426 0.055957
-6.418504 -5.565915 -0.153667 1591 0.981297 0.164025 0.093525
-6.418375 -5.565786 -0.151058 1581 0.983156 0.165884 0.131065
-6.418849 -5.566186 -0.148454 1593 0.976336 0.160128 0.168532
-6.419337 -5.566601 -0.145862 1583 0.969317 0.154159 0.205827
-6.419712 -5.566903 -0.143260 1571 0.963918 0.149809 0.243266
-6.420298 -5.567401 -0.140657 1573 0.955486 0.142646 0.280719
-6.421098 -5.568084 -0.138061 1559 0.943973 0.132821 0.318072
-6.422252 -5.569063 -0.135475 1549 0.927369 0.118729 0.355281
-6.423433 -5.570084 -0.132888 1541 0.910382 0.104040 0.392503
-6.424751 -5.571211 -0.130302 1531 0.891418 0.087827 0.429712
-6.426499 -5.572711 -0.127721 1527 0.866266 0.066243 0.466849
-6.427916 -5.573923 -0.125133 1511 0.845875 0.048802 0.504086
-6.429331 -5.575134 -0.122535 1493 0.825518 0.031382 0.541468
-6.431179 -5.576734 -0.119954 1463 0.798925 0.008357 0.578604
-6.432928 -5.578234 -0.117376 1433 0.773759 -0.013228 0.615698
-6.434946 -5.579975 -0.114793 1397 0.744724 -0.038277 0.652863
-6.437687 -5.582336 -0.112218 1361 0.705287 -0.072246 0.689914
-6.440315 -5.584599 -0.109643 1301 0.667476 -0.104808 0.726964
-6.443111 -5.587002 -0.107057 1233 0.627243 -0.139381 0.764173
-6.447723 -5.591000 -0.104511 1139 0.560884 -0.196910 0.800806
-6.452794 -5.592343 -0.222614 1049 0.487918 -0.216230 -0.898518
-6.448258 -5.588391 -0.219838 1217 0.553186 -0.159367 -0.858576
-6.444006 -5.584692 -0.217082 1289 0.614365 -0.106146 -0.818921
-6.440681 -5.581805 -0.214362 1347 0.662207 -0.064610 -0.779784
-6.437415 -5.578960 -0.211641 1385 0.709198 -0.023670 -0.740633
-6.434700 -5.576595 -0.208936 1421 0.748264 0.010360 -0.701712
-6.432269 -5.574470 -0.206251 1451 0.783241 0.040933 -0.663079
-6.430156 -5.572635 -0.203573 1471 0.813642 0.067334 -0.624547
-6.428895 -5.571518 -0.200919 1501 0.831789 0.083409 -0.586360
-6.427554 -5.570352 -0.198266 1523 0.851082 0.100184 -0.548187
-6.426334 -5.569278 -0.195613 1543 0.868640 0.115642 -0.510014
-6.425115 -5.568204 -0.192970 1555 0.886176 0.131092 -0.471986
-6.423506 -5.566798 -0.190309 1559 0.909332 0.151319 -0.433698
-6.422505 -5.565915 -0.187675 1573 0.923733 0.164025 -0.395799
-6.421824 -5.565321 -0.185039 1571 0.933531 0.172574 -0.357871
-6.421214 -5.564768 -0.182412 1595 0.942306 0.180533 -0.320072
-6.420596 -5.564224 -0.179786 1593 0.951198 0.188361 -0.282288
-6.420255 -5.563911 -0.177169 1595 0.956103 0.192862 -0.244633
-6.420403 -5.564030 -0.174568 1599 0.953976 0.191147 -0.207209
-6.419849 -5.563534 -0.171941 1609 0.961949 0.198289 -0.169410
-6.418112 -5.562015 -0.169290 1601 0.986943 0.220141 -0.131266
-6.417602 -5.561563 -0.166663 1595 0.994278 0.226645 -0.093468
-6.418366 -5.562210 -0.164079 1599 0.983286 0.217335 -0.056288
-6.418570 -5.562370 -0.161468 1597 0.980350 0.215036 -0.018720
-6.418392 -5.562206 -0.158859 1599 0.982909 0.217397 0.018820
-6.418384 -5.562183 -0.156249 1599 0.983026 0.217726 0.056374
-6.419084 -5.562780 -0.153655 1609 0.972954 0.209136 0.093698
-6.419558 -5.563181 -0.151052 1605 0.966134 0.203366 0.131151
-6.419883 -5.563447 -0.148450 1599 0.961462 0.199537 0.168590
-6.419640 -5.563220 -0.145843 1595 0.964954 0.202803 0.206101
-6.419569 -5.563148 -0.143222 1587 0.965976 0.203839 0.243813
-6.420546 -5.563979 -0.140638 1571 0.951918 0.191881 0.280993
-6.421636 -5.564908 -0.138051 1569 0.936234 0.178515 0.318216
-6.422392 -5.565548 -0.135457 1567 0.925359 0.169308 0.355540
-6.423368 -5.566379 -0.132861 1549 0.911315 0.157349 0.392892
-6.424778 -5.567597 -0.130273 1537 0.891027 0.139826 0.430129
-6.426087 -5.568717 -0.127685 1533 0.872194 0.123710 0.467367
-6.427723 -5.570119 -0.125106 1525 0.848653 0.103539 0.504475
-6.429528 -5.571661 -0.122526 1507 0.822678 0.081350 0.541597
-6.431270 -5.573170 -0.119937 1481 0.797615 0.059636 0.578849
-6.433075 -5.574713 -0.117357 1455 0.771646 0.037433 0.615971
-6.434818 -5.576206 -0.114766 1425 0.746569 0.015952 0.653252
-6.437452 -5.578475 -0.112192 1397 0.708669 -0.016693 0.690288
-6.440129 -5.580788 -0.109617 1341 0.670152 -0.049975 0.727338
-6.442820 -5.583099 -0.107042 1281 0.631428 -0.083224 0.764388
-6.446553 -5.586321 -0.104480 1207 0.577714 -0.129583 0.801252
-6.451661 -5.590742 -0.101930 1067 0.504219 -0.193198 0.837942
-6.452509 -5.588759 -0.222564 1159 0.492020 -0.164663 -0.897799
-6.446699 -5.583720 -0.219747 1255 0.575615 -0.092163 -0.857266
-6.443545 -5.580974 -0.217025 1325 0.621000 -0.052651 -0.818101
-6.440724 -5.578517 -0.214322 1373 0.661589 -0.017296 -0.779209
-6.437676 -5.575863 -0.211608 1407 0.705445 0.020892 -0.740158
-6.435465 -5.573928 -0.208921 1439 0.737259 0.048733 -0.701496
-6.433083 -5.571852 -0.206235 1465 0.771529 0.078599 -0.662849
-6.431084 -5.570115 -0.203557 1497 0.800291 0.103594 -0.624317
-6.429256 -5.568519 -0.200887 1515 0.826595 0.126557 -0.585899
-6.427532 -5.567014 -0.198226 1527 0.851398 0.148211 -0.547612
-6.426101 -5.565757 -0.195575 1543 0.871988 0.166303 -0.509468
-6.425370 -5.565114 -0.192939 1557 0.882506 0.175552 -0.471540
-6.424200 -5.564088 -0.190296 1569 0.899342 0.190316 -0.433511
-6.422931 -5.562965 -0.187654 1581 0.917599 0.206474 -0.395497
-6.422313 -5.562420 -0.185027 1587 0.926491 0.214316 -0.357698
-6.421575 -5.561769 -0.182391 1597 0.937112 0.223681 -0.319770
-6.420851 -5.561133 -0.179765 1603 0.947527 0.232834 -0.281986
-6.420949 -5.561202 -0.177154 1613 0.946120 0.231839 -0.244417
-6.420608 -5.560889 -0.174537 1607 0.951026 0.236347 -0.206763
-6.419707 -5.560105 -0.171901 1605 0.963993 0.247626 -0.168835
-6.418870 -5.559355 -0.169277 1615 0.976034 0.258418 -0.131079
-6.418855 -5.559340 -0.166667 1605 0.976247 0.258631 -0.093525
-6.419400 -5.559796 -0.164073 1617 0.968405 0.252072 -0.056202
-6.419278 -5.559674 -0.161464 1619 0.970161 0.253828 -0.018662
-6.419263 -5.559644 -0.158855 1619 0.970381 0.254254 0.018878
-6.419637 -5.559960 -0.156251 1633 0.964995 0.249712 0.056345
-6.419558 -5.559880 -0.153642 1621 0.966134 0.250864 0.093885
-6.419387 -5.559709 -0.151023 1603 0.968597 0.253321 0.131568
-6.419918 -5.560167 -0.148431 1605 0.960954 0.246734 0.168863
-6.420731 -5.560849 -0.145835 1611 0.949256 0.236916 0.206216
-6.421381 -5.561397 -0.143243 1599 0.939904 0.229033 0.243511
-6.421685 -5.561656 -0.140642 1591 0.935527 0.225307 0.280935
-6.422442 -5.562297 -0.138046 1585 0.924639 0.216086 0.318288
-6.423639 -5.563318 -0.135459 1575 0.907418 0.201397 0.355511
-6.424615 -5.564148 -0.132863 1565 0.893373 0.189452 0.392863
-6.425046 -5.564506 -0.130262 1553 0.887171 0.184299 0.430288
-6.425846 -5.565188 -0.127668 1539 0.875658 0.174488 0.467612
-6.428480 -5.567458 -0.125102 1535 0.837758 0.141823 0.504532
-6.430449 -5.569149 -0.122522 1511 0.809429 0.117494 0.541655
-6.430979 -5.569592 -0.119918 1489 0.801807 0.111120 0.579122
-6.433111 -5.571431 -0.117336 1465 0.771125 0.084657 0.616273
-6.435405 -5.573404 -0.114763 1441 0.738123 0.056274 0.653295
-6.437601 -5.575293 -0.112180 1407 0.706522 0.029090 0.690460
-6.440334 -5.577647 -0.109605 1367 0.667202 -0.004782 0.727511
-6.442692 -5.579669 -0.107023 1311 0.633274 -0.033873 0.764662
-6.446482 -5.582933 -0.104461 1243 0.578736 -0.080836 0.801525
-6.450824 -5.586692 -0.101905 1145 0.516267 -0.134921 0.838302
-6.455888 -5.591055 -0.099357 899 0.443404 -0.197699 0.874964
-6.452077 -5.585224 -0.222507 1211 0.498237 -0.113803 -0.896978
-6.447379 -5.581137 -0.219734 1289 0.565831 -0.054998 -0.857079
-6.443565 -5.577819 -0.216985 1337 0.620712 -0.007252 -0.817525
-6.440745 -5.575363 -0.214280 1387 0.661287 0.028082 -0.778604
-6.438024 -5.573005 -0.211576 1433 0.700436 0.062009 -0.739698
-6.434933 -5.570308 -0.208864 1461 0.744909 0.100815 -0.700676
-6.432821 -5.568472 -0.206186 1483 0.775303 0.127237 -0.662144
-6.431212 -5.567067 -0.203525 1513 0.798452 0.147449 -0.623856
-6.429667 -5.565711 -0.200864 1529 0.820681 0.166962 -0.585568
-6.428772 -5.564918 -0.198228 1545 0.833559 0.178371 -0.547640
-6.427496 -5.563803 -0.195577 1555 0.851919 0.194412 -0.509496
-6.426000 -5.562496 -0.192926 1571 0.873442 0.213218 -0.471353
-6.424610 -5.561280 -0.190273 1569 0.893442 0.230721 -0.433180
-6.423326 -5.560157 -0.187631 1583 0.911918 0.246878 -0.395166
-6.423318 -5.560133 -0.185020 1593 0.912035 0.247221 -0.357597
-6.422864 -5.559738 -0.182393 1607 0.918567 0.252902 -0.319799
-6.421701 -5.558705 -0.179759 1609 0.935301 0.267770 -0.281899
-6.421127 -5.558203 -0.177133 1617 0.943561 0.274988 -0.244115
-6.420615 -5.557750 -0.174507 1619 0.950923 0.281505 -0.206331
-6.420281 -5.557445 -0.171888 1625 0.955733 0.285896 -0.168647
-6.419876 -5.557083 -0.169269 1625 0.961558 0.291104 -0.130964
-6.419535 -5.556770 -0.166652 1625 0.966463 0.295612 -0.093309
-6.419633 -5.556839 -0.164050 1629 0.965057 0.294617 -0.055871
-6.420001 -5.557148 -0.161449 1623 0.959760 0.290171 -0.018446
-6.420382 -5.557456 -0.158847 1623 0.954278 0.285739 0.018993
-6.420749 -5.557765 -0.156255 1625 0.948995 0.281293 0.056288
-6.420344 -5.557403 -0.153638 1613 0.954827 0.286500 0.093942
-6.419897 -5.557000 -0.151010 1603 0.961256 0.292298 0.131755
-6.420485 -5.557499 -0.148416 1613 0.952796 0.285121 0.169079
-6.421630 -5.558471 -0.145830 1605 0.936323 0.271132 0.206288
-6.422282 -5.559020 -0.143237 1597 0.926937 0.263235 0.243597
-6.422649 -5.559328 -0.140634 1599 0.921661 0.258803 0.281050
-6.423895 -5.560399 -0.138048 1593 0.903733 0.243393 0.318259
-6.424822 -5.561180 -0.135463 1585 0.890396 0.232155 0.355453
-6.425126 -5.561439 -0.132850 1571 0.886018 0.228429 0.393050
-6.425939 -5.562121 -0.130256 1561 0.874320 0.218618 0.430374
-6.427193 -5.563199 -0.127670 1553 0.856276 0.203105 0.467583
-6.428998 -5.564742 -0.125089 1545 0.830307 0.180903 0.504719
-6.430414 -5.565953 -0.122501 1523 0.809930 0.163483 0.541957
-6.431610 -5.566974 -0.119914 1513 0.792723 0.148787 0.579180
-6.433295 -5.568425 -0.117324 1483 0.768483 0.127909 0.616446
-6.435427 -5.570251 -0.114753 1453 0.737801 0.101638 0.653439
-6.438217 -5.572661 -0.112176 1423 0.697657 0.066963 0.690518
-6.440858 -5.574924 -0.109601 1393 0.659661 0.034401 0.727568
-6.443316 -5.577045 -0.107028 1339 0.624293 0.003883 0.764590
-6.446390 -5.579695 -0.104450 1275 0.580060 -0.034250 0.801683
-6.449960 -5.582769 -0.101880 1181 0.528692 -0.078476 0.838662
-6.455626 -5.587662 -0.099338 1019 0.447170 -0.148883 0.875237
-6.452020 -5.581724 -0.222457 1245 0.499053 -0.063443 -0.896259
-6.447648 -5.577933 -0.219692 1315 0.561961 -0.008892 -0.856475
-6.443721 -5.574517 -0.216955 1359 0.618468 0.040260 -0.817094
-6.440787 -5.571961 -0.214242 1403 0.660684 0.077035 -0.778058
-6.438285 -5.569794 -0.211545 1445 0.696683 0.108211 -0.739252
-6.435911 -5.567725 -0.208860 1479 0.730837 0.137981 -0.700619
-6.434188 -5.566221 -0.206189 1511 0.755633 0.159620 -0.662187
-6.432196 -5.564476 -0.203521 1515 0.784291 0.184732 -0.623799
-6.430644 -5.563127 -0.200858 1529 0.806623 0.204141 -0.585482
-6.429580 -5.562195 -0.198215 1551 0.821930 0.217554 -0.547453
-6.428410 -5.561170 -0.195571 1569 0.838767 0.232299 -0.509410
-6.427141 -5.560061 -0.192920 1579 0.857024 0.248257 -0.471266
-6.425694 -5.558789 -0.190267 1585 0.877847 0.266562 -0.433094
-6.424524 -5.557764 -0.187623 1595 0.894684 0.281306 -0.395050
-6.423743 -5.557071 -0.184999 1599 0.905922 0.291275 -0.357295
-6.422679 -5.556138 -0.182355 1597 0.921229 0.304702 -0.319252
-6.421948 -5.555494 -0.179729 1607 0.931747 0.313972 -0.281468
-6.421827 -5.555373 -0.177120 1621 0.933489 0.315707 -0.243928
-6.421649 -5.555209 -0.174501 1623 0.936049 0.318068 -0.206245
-6.421478 -5.555052 -0.171892 1629 0.938512 0.320332 -0.168705
-6.420910 -5.554542 -0.169265 1633 0.946683 0.327666 -0.130907
-6.420179 -5.553899 -0.166639 1633 0.957201 0.336921 -0.093122
-6.420391 -5.554066 -0.164037 1637 0.954148 0.334513 -0.055684
-6.420978 -5.554565 -0.161445 1631 0.945702 0.327337 -0.018389
-6.421473 -5.554973 -0.158851 1633 0.938580 0.321464 0.018935
-6.421613 -5.555083 -0.156242 1631 0.936563 0.319886 0.056475
-6.421216 -5.554729 -0.153623 1615 0.942278 0.324977 0.094158
-6.421689 -5.555129 -0.151031 1619 0.935472 0.319220 0.131453
-6.422404 -5.555727 -0.148437 1621 0.925188 0.310617 0.168777
-6.423104 -5.556325 -0.145843 1611 0.915116 0.302013 0.206101
-6.423145 -5.556337 -0.143232 1607 0.914526 0.301841 0.243669
-6.423229 -5.556406 -0.140622 1603 0.913311 0.300847 0.281223
-6.424864 -5.557808 -0.138053 1595 0.889792 0.280675 0.318187
-6.426018 -5.558787 -0.135467 1587 0.873181 0.266590 0.355396
-6.426719 -5.559384 -0.132861 1575 0.863096 0.258000 0.392892
-6.427745 -5.560251 -0.130277 1573 0.848338 0.245520 0.430072
-6.428658 -5.561031 -0.127681 1559 0.835199 0.234302 0.467424
-6.429698 -5.561911 -0.125085 1549 0.820235 0.221637 0.504777
-6.430838 -5.562890 -0.122499 1531 0.803831 0.207551 0.541986
-6.432474 -5.564292 -0.119911 1517 0.780291 0.187380 0.579223
-6.434392 -5.565935 -0.117330 1489 0.752696 0.163737 0.616360
-6.436517 -5.567766 -0.114747 1467 0.722124 0.137391 0.653525
-6.438600 -5.569556 -0.112165 1443 0.692148 0.111635 0.690676
-6.441283 -5.571861 -0.109599 1401 0.653541 0.078476 0.727597
-6.444300 -5.574455 -0.107023 1365 0.610132 0.041152 0.764662
-6.447041 -5.576816 -0.104448 1303 0.570695 0.007177 0.801712
-6.450781 -5.580030 -0.101877 1233 0.516885 -0.039066 0.838705
-6.455845 -5.584395 -0.099328 1095 0.444021 -0.101872 0.875381
-6.452090 -5.578265 -0.222419 1257 0.498051 -0.013674 -0.895712
-6.447555 -5.574341 -0.219644 1323 0.563299 0.042792 -0.855784
-6.443904 -5.571171 -0.216915 1371 0.615833 0.088404 -0.816518
-6.440687 -5.568376 -0.214193 1411 0.662118 0.128616 -0.777353
-6.438525 -5.566491 -0.211517 1451 0.693225 0.155737 -0.738849
-6.436922 -5.565092 -0.208845 1481 0.716292 0.175867 -0.700403
-6.435037 -5.563454 -0.206176 1509 0.743413 0.199435 -0.662000
-6.432932 -5.561611 -0.203498 1523 0.773704 0.225952 -0.623468
-6.431592 -5.560445 -0.200845 1533 0.792984 0.242734 -0.585295
-6.429876 -5.558948 -0.198184 1545 0.817676 0.264271 -0.547007
-6.428656 -5.557873 -0.195543 1573 0.835227 0.279742 -0.509007
-6.428039 -5.557329 -0.192905 1579 0.844105 0.287564 -0.471050
-6.427088 -5.556495 -0.190271 1579 0.857792 0.299564 -0.433151
-6.426308 -5.555801 -0.187635 1599 0.869010 0.309553 -0.395223
-6.425138 -5.554776 -0.185003 1603 0.885847 0.324297 -0.357353
-6.424521 -5.554232 -0.182376 1611 0.894725 0.332126 -0.319554
-6.424010 -5.553779 -0.179748 1613 0.902080 0.338644 -0.281741
-6.423066 -5.552952 -0.177114 1619 0.915658 0.350547 -0.243842
-6.422612 -5.552540 -0.174497 1619 0.922189 0.356475 -0.206187
-6.422427 -5.552370 -0.171888 1635 0.924851 0.358918 -0.168647
-6.422028 -5.552015 -0.169269 1647 0.930594 0.364029 -0.130964
-6.421525 -5.551569 -0.166643 1629 0.937832 0.370444 -0.093180
-6.421396 -5.551440 -0.164033 1639 0.939692 0.372303 -0.055626
-6.421324 -5.551368 -0.161424 1637 0.940728 0.373333 -0.018086
-6.421372 -5.551387 -0.158813 1633 0.940035 0.373065 0.019482
-6.421959 -5.551886 -0.156221 1637 0.931589 0.365882 0.056777
-6.422334 -5.552202 -0.153629 1625 0.926189 0.361333 0.094072
-6.422822 -5.552603 -0.151025 1635 0.919170 0.355570 0.131540
-6.423465 -5.553144 -0.148431 1635 0.909922 0.347782 0.168863
-6.423833 -5.553452 -0.145830 1629 0.904625 0.343350 0.206288
-6.424257 -5.553803 -0.143228 1621 0.898526 0.338301 0.243727
-6.425127 -5.554542 -0.140643 1613 0.886005 0.327666 0.280921
-6.426047 -5.555330 -0.138048 1605 0.872770 0.316332 0.318259
-6.426641 -5.555822 -0.135454 1599 0.864221 0.309251 0.355583
-6.427009 -5.556131 -0.132852 1585 0.858924 0.304805 0.393021
-6.428318 -5.557251 -0.130266 1585 0.840091 0.288689 0.430230
-6.429458 -5.558216 -0.127679 1573 0.823686 0.274802 0.467453
-6.430597 -5.559194 -0.125081 1559 0.807302 0.260730 0.504834
-6.432077 -5.560455 -0.122493 1543 0.786006 0.242590 0.542072
-6.432657 -5.560947 -0.119901 1521 0.777663 0.235510 0.579367
-6.434243 -5.562300 -0.117311 1491 0.754837 0.216038 0.616633
-6.437090 -5.564752 -0.114745 1475 0.713877 0.180759 0.653554
-6.439441 -5.566768 -0.112161 1459 0.680045 0.151751 0.690734
-6.441636 -5.568656 -0.109590 1423 0.648464 0.124588 0.727727
-6.444370 -5.571011 -0.107013 1377 0.609130 0.090702 0.764806
-6.448450 -5.574522 -0.104452 1323 0.550421 0.040185 0.801655
-6.451849 -5.577440 -0.101882 1255 0.501516 -0.001798 0.838633
-6.455866 -5.580902 -0.099319 1147 0.443719 -0.051615 0.875511
-6.452358 -5.575060 -0.222379 1269 0.494195 0.032446 -0.895137
-6.447986 -5.571271 -0.219623 1329 0.557097 0.086963 -0.855482
-6.444662 -5.568384 -0.216892 1379 0.604925 0.128499 -0.816187
-6.442451 -5.566449 -0.214204 1419 0.636739 0.156341 -0.777511
-6.440728 -5.564959 -0.211534 1459 0.661528 0.177781 -0.739094
-6.438516 -5.563024 -0.208856 1483 0.693356 0.205623 -0.700561
-6.435745 -5.560616 -0.206153 1511 0.733231 0.240271 -0.661669
-6.433796 -5.558929 -0.203483 1519 0.761272 0.264545 -0.623252
-6.432577 -5.557855 -0.200841 1533 0.778809 0.279996 -0.585237
-6.431129 -5.556597 -0.198179 1557 0.799646 0.298095 -0.546935
-6.429520 -5.555192 -0.195527 1567 0.822795 0.318315 -0.508777
-6.428237 -5.554068 -0.192874 1575 0.841257 0.334486 -0.470604
-6.427569 -5.553473 -0.190250 1583 0.850870 0.343048 -0.432849
-6.426952 -5.552929 -0.187623 1593 0.859748 0.350877 -0.395050
-6.426058 -5.552151 -0.184987 1609 0.872612 0.362067 -0.357122
-6.425335 -5.551500 -0.182361 1629 0.883013 0.371439 -0.319338
-6.424385 -5.550666 -0.179727 1623 0.896680 0.383439 -0.281439
-6.424206 -5.550502 -0.177108 1623 0.899260 0.385799 -0.243756
-6.424531 -5.550769 -0.174516 1643 0.894581 0.381957 -0.206461
-6.423737 -5.550076 -0.171880 1645 0.906004 0.391926 -0.168533
-6.423615 -5.549953 -0.169271 1647 0.907761 0.393696 -0.130993
-6.423493 -5.549833 -0.166662 1637 0.909517 0.395425 -0.093453
-6.422869 -5.549280 -0.164035 1637 0.918491 0.403377 -0.055655
-6.422691 -5.549117 -0.161428 1641 0.921057 0.405723 -0.018144
-6.422846 -5.549242 -0.158826 1647 0.918827 0.403926 0.019295
-6.423270 -5.549592 -0.156225 1649 0.912721 0.398890 0.056719
-6.423927 -5.550148 -0.153631 1639 0.903274 0.390890 0.094043
-6.423735 -5.549970 -0.151021 1631 0.906032 0.393449 0.131597
-6.423720 -5.549940 -0.148412 1625 0.906251 0.393881 0.169137
-6.424484 -5.550587 -0.145816 1631 0.895260 0.384571 0.206489
-6.425297 -5.551270 -0.143232 1629 0.883562 0.374746 0.243669
-6.426324 -5.552149 -0.140636 1613 0.868784 0.362101 0.281022
-6.427364 -5.553030 -0.138051 1611 0.853820 0.349422 0.318216
-6.428064 -5.553627 -0.135457 1607 0.843748 0.340832 0.355540
-6.428595 -5.554070 -0.132854 1605 0.836105 0.334458 0.392993
-6.429019 -5.554421 -0.130252 1593 0.830005 0.329409 0.430432
-6.430045 -5.555301 -0.127666 1575 0.815241 0.316743 0.467640
-6.431468 -5.556505 -0.125078 1561 0.794767 0.299419 0.504878
-6.432778 -5.557625 -0.122491 1551 0.775920 0.283310 0.542101
-6.434081 -5.558738 -0.119903 1539 0.757169 0.267290 0.579338
-6.435886 -5.560280 -0.117322 1509 0.731201 0.245108 0.616475
-6.438075 -5.562162 -0.114740 1485 0.699702 0.218028 0.653626
-6.440425 -5.564178 -0.112167 1459 0.665891 0.189020 0.690647
-6.442897 -5.566299 -0.109594 1429 0.630324 0.158502 0.727669
-6.446027 -5.568992 -0.107026 1395 0.585288 0.119751 0.764619
-6.449378 -5.571875 -0.104457 1355 0.537070 0.078270 0.801583
-6.451955 -5.574088 -0.101873 1285 0.499993 0.046428 0.838762
-6.456021 -5.577584 -0.099309 1183 0.441489 -0.003870 0.875655
-6.462084 -5.582817 -0.096765 1011 0.354252 -0.079169 0.912259
-6.453109 -5.572393 -0.222364 1303 0.483389 0.070819 -0.894921
-6.449346 -5.569125 -0.219625 1355 0.537529 0.117837 -0.855511
-6.445746 -5.566005 -0.216886 1399 0.589330 0.162728 -0.816101
-6.443202 -5.563796 -0.214191 1441 0.625933 0.194515 -0.777324
-6.441315 -5.562157 -0.211521 1477 0.653082 0.218096 -0.738907
-6.439430 -5.560519 -0.208843 1499 0.680203 0.241664 -0.700374
-6.437268 -5.558634 -0.206165 1513 0.711318 0.268792 -0.661842
-6.434936 -5.556606 -0.203477 1527 0.744868 0.297972 -0.623165
-6.432823 -5.554770 -0.200809 1543 0.775269 0.324386 -0.584777
-6.431441 -5.553563 -0.198158 1563 0.795159 0.341752 -0.546633
-6.430321 -5.552588 -0.195514 1567 0.811268 0.355782 -0.508590
-6.429483 -5.551852 -0.192878 1575 0.823330 0.366369 -0.470662
-6.428533 -5.551018 -0.190244 1583 0.836997 0.378369 -0.432763
-6.427094 -5.549754 -0.187591 1595 0.857703 0.396557 -0.394590
-6.426809 -5.549498 -0.184974 1623 0.861806 0.400241 -0.356935
-6.426687 -5.549376 -0.182365 1637 0.863562 0.401998 -0.319396
-6.425786 -5.548592 -0.179729 1627 0.876523 0.413277 -0.281468
-6.425389 -5.548237 -0.177112 1631 0.882238 0.418389 -0.243813
-6.424829 -5.547734 -0.174495 1637 0.890293 0.425627 -0.206158
-6.424374 -5.547323 -0.171867 1633 0.896838 0.431534 -0.168345
-6.424479 -5.547399 -0.169267 1645 0.895329 0.430443 -0.130935
-6.424187 -5.547137 -0.166648 1649 0.899528 0.434217 -0.093252
-6.423896 -5.546874 -0.164041 1649 0.903720 0.437997 -0.055741
-6.424214 -5.547133 -0.161439 1641 0.899143 0.434272 -0.018302
-6.424750 -5.547582 -0.158845 1649 0.891432 0.427809 0.019021
-6.425182 -5.547941 -0.156244 1645 0.885216 0.422642 0.056446
-6.425160 -5.547918 -0.153632 1639 0.885531 0.422979 0.094029
-6.425202 -5.547930 -0.151023 1633 0.884927 0.422807 0.131568
-6.425802 -5.548443 -0.148429 1643 0.876289 0.415425 0.168892
-6.426227 -5.548794 -0.145837 1639 0.870176 0.410375 0.206187
-6.426367 -5.548905 -0.143226 1623 0.868166 0.408776 0.243755
-6.427018 -5.549454 -0.140632 1613 0.858794 0.400873 0.281079
-6.427988 -5.550277 -0.138048 1613 0.844839 0.389031 0.318259
-6.428695 -5.550868 -0.135454 1605 0.834664 0.380530 0.355583
-6.429452 -5.551508 -0.132860 1593 0.823776 0.371322 0.392906
-6.430479 -5.552389 -0.130264 1591 0.808997 0.358643 0.430259
-6.431292 -5.553071 -0.127670 1583 0.797299 0.348832 0.467583
-6.432212 -5.553859 -0.125074 1561 0.784064 0.337491 0.504935
-6.433401 -5.554873 -0.122487 1553 0.766953 0.322905 0.542158
-6.435157 -5.556366 -0.119907 1543 0.741691 0.301423 0.579280
-6.436573 -5.557578 -0.117318 1519 0.721314 0.283982 0.616532
-6.438542 -5.559269 -0.114738 1489 0.692985 0.259653 0.653655
-6.441120 -5.561482 -0.112163 1473 0.655888 0.227812 0.690705
-6.443470 -5.563498 -0.109580 1437 0.622077 0.198803 0.727870
-6.446827 -5.566374 -0.107021 1403 0.573776 0.157425 0.764691
-6.449852 -5.568974 -0.104444 1357 0.530250 0.120012 0.801770
-6.452812 -5.571512 -0.101867 1291 0.487657 0.083491 0.838849
-6.456275 -5.574493 -0.099298 1199 0.437833 0.040603 0.875813
-6.461729 -5.579189 -0.096748 1055 0.359357 -0.026964 0.912503
-6.454831 -5.570636 -0.222373 1315 0.458608 0.096102 -0.895050
-6.450338 -5.566754 -0.219610 1355 0.523258 0.151957 -0.855295
-6.446844 -5.563725 -0.216880 1397 0.573529 0.195538 -0.816014
-6.444625 -5.561798 -0.214193 1441 0.605460 0.223263 -0.777353
-6.442244 -5.559722 -0.211505 1473 0.639717 0.253135 -0.738676
-6.440138 -5.557893 -0.208827 1497 0.670021 0.279454 -0.700144
-6.438309 -5.556297 -0.206157 1505 0.696333 0.302418 -0.661727
-6.436367 -5.554616 -0.203489 1529 0.724278 0.326603 -0.623338
-6.434311 -5.552824 -0.200811 1557 0.753862 0.352386 -0.584806
-6.433304 -5.551947 -0.198177 1577 0.768353 0.365003 -0.546906
-6.432418 -5.551162 -0.195541 1587 0.781100 0.376303 -0.508978
-6.431035 -5.549953 -0.192890 1587 0.800997 0.393696 -0.470835
-6.430084 -5.549119 -0.190254 1599 0.814678 0.405696 -0.432907
-6.429247 -5.548384 -0.187620 1611 0.826726 0.416269 -0.395007
-6.428127 -5.547409 -0.184976 1625 0.842842 0.430299 -0.356964
-6.427673 -5.546998 -0.182359 1637 0.849374 0.436213 -0.319309
-6.427168 -5.546552 -0.179731 1633 0.856640 0.442628 -0.281496
-6.426657 -5.546098 -0.177114 1643 0.863988 0.449160 -0.243842
-6.426422 -5.545878 -0.174505 1653 0.867370 0.452330 -0.206302
-6.426074 -5.545573 -0.171888 1657 0.872379 0.456714 -0.168647
-6.426016 -5.545501 -0.169278 1657 0.873216 0.457750 -0.131094
-6.425838 -5.545337 -0.166660 1653 0.875775 0.460110 -0.093424
-6.425327 -5.544884 -0.164041 1647 0.883130 0.466628 -0.055741
-6.425694 -5.545192 -0.161439 1655 0.877847 0.462203 -0.018302
-6.426125 -5.545550 -0.158847 1645 0.871645 0.457050 0.018993
-6.426386 -5.545753 -0.156246 1659 0.867892 0.454127 0.056417
-6.426322 -5.545688 -0.153636 1647 0.868811 0.455060 0.093971
-6.426193 -5.545558 -0.151027 1643 0.870664 0.456933 0.131511
-6.426723 -5.546016 -0.148433 1635 0.863041 0.450340 0.168834
-6.427324 -5.546515 -0.145831 1635 0.854396 0.443164 0.206273
-6.427635 -5.546767 -0.143230 1629 0.849916 0.439534 0.243698
-6.427670 -5.546787 -0.140628 1621 0.849415 0.439253 0.281137
-6.428150 -5.547194 -0.138027 1613 0.842506 0.433394 0.318561
-6.429460 -5.548299 -0.135438 1615 0.823659 0.417497 0.355813
-6.430883 -5.549519 -0.132861 1603 0.803186 0.399939 0.392892
-6.431795 -5.550299 -0.130266 1601 0.790061 0.388715 0.430230
-6.432496 -5.550883 -0.127672 1597 0.779975 0.380317 0.467554
-6.433366 -5.551622 -0.125078 1571 0.767461 0.369683 0.504878
-6.435228 -5.553221 -0.122497 1557 0.740669 0.346671 0.542014
-6.436977 -5.554708 -0.119916 1541 0.715503 0.325278 0.579151
-6.438833 -5.556300 -0.117336 1529 0.688793 0.302370 0.616273
-6.440695 -5.557885 -0.114755 1505 0.662008 0.279564 0.653410
-6.442168 -5.559153 -0.112167 1475 0.640807 0.261321 0.690647
-6.444519 -5.561169 -0.109584 1453 0.606983 0.232312 0.727813
-6.447266 -5.563523 -0.107019 1417 0.567457 0.198447 0.764719
-6.450340 -5.566159 -0.104440 1369 0.523231 0.160519 0.801827
-6.453804 -5.569141 -0.101871 1313 0.473386 0.117611 0.838791
-6.457211 -5.572066 -0.099302 1229 0.424364 0.075526 0.875755
-6.462339 -5.576480 -0.096753 1093 0.350582 0.012014 0.912432
-6.454809 -5.567185 -0.222335 1317 0.458923 0.145754 -0.894504
-6.450649 -5.563592 -0.219579 1357 0.518785 0.197452 -0.854849
-6.446665 -5.560133 -0.216831 1401 0.576109 0.247221 -0.815309
-6.444773 -5.558488 -0.214162 1443 0.603326 0.270892 -0.776907
-6.443050 -5.556998 -0.211492 1469 0.628121 0.292332 -0.738489
-6.441221 -5.555402 -0.208822 1493 0.654433 0.315296 -0.700072
-6.439499 -5.553912 -0.206151 1513 0.679215 0.336729 -0.661640
-6.437620 -5.552266 -0.203483 1533 0.706247 0.360413 -0.623252
-6.435946 -5.550811 -0.200822 1555 0.730336 0.381353 -0.584964
-6.434897 -5.549892 -0.198179 1575 0.745430 0.394574 -0.546935
-6.433444 -5.548627 -0.195525 1579 0.766336 0.412776 -0.508748
-6.432055 -5.547412 -0.192884 1583 0.786322 0.430258 -0.470748
-6.431656 -5.547058 -0.190255 1607 0.792064 0.435349 -0.432921
-6.430876 -5.546379 -0.187631 1623 0.803289 0.445119 -0.395166
-6.429593 -5.545257 -0.184987 1623 0.821745 0.461263 -0.357122
-6.429195 -5.544901 -0.182361 1641 0.827474 0.466388 -0.319338
-6.428464 -5.544258 -0.179735 1643 0.837992 0.475636 -0.281554
-6.428130 -5.543952 -0.177116 1647 0.842794 0.480041 -0.243871
-6.427782 -5.543633 -0.174499 1653 0.847803 0.484631 -0.206216
-6.427270 -5.543180 -0.171882 1665 0.855171 0.491149 -0.168561
-6.427142 -5.543066 -0.169273 1675 0.857010 0.492789 -0.131022
-6.426589 -5.542570 -0.166656 1671 0.864969 0.499924 -0.093367
-6.426347 -5.542343 -0.164037 1657 0.868454 0.503190 -0.055684
-6.426438 -5.542418 -0.161435 1653 0.867144 0.502113 -0.018245
-6.426932 -5.542826 -0.158834 1657 0.860036 0.496240 0.019180
-6.427802 -5.543564 -0.156249 1653 0.847515 0.485626 0.056374
-6.427894 -5.543626 -0.153648 1647 0.846190 0.484734 0.093798
-6.427546 -5.543321 -0.151031 1647 0.851199 0.489118 0.131453
-6.427920 -5.543622 -0.148427 1643 0.845820 0.484789 0.168921
-6.428124 -5.543784 -0.145828 1633 0.842883 0.482456 0.206317
-6.428492 -5.544092 -0.143224 1629 0.837587 0.478024 0.243784
-6.429249 -5.544732 -0.140630 1627 0.826698 0.468817 0.281108
-6.430225 -5.545563 -0.138046 1611 0.812654 0.456858 0.318288
-6.431209 -5.546400 -0.135459 1615 0.798493 0.444817 0.355511
-6.431293 -5.546455 -0.132850 1599 0.797285 0.444028 0.393050
-6.432220 -5.547236 -0.130254 1589 0.783948 0.432790 0.430403
-6.434026 -5.548779 -0.127683 1585 0.757965 0.410588 0.467396
-6.435555 -5.550090 -0.125095 1569 0.735962 0.391727 0.504633
-6.437247 -5.551534 -0.122516 1569 0.711619 0.370945 0.541741
-6.438557 -5.552653 -0.119928 1553 0.692765 0.354849 0.578978
-6.440143 -5.554006 -0.117339 1533 0.669946 0.335378 0.616230
-6.441948 -5.555549 -0.114759 1505 0.643977 0.313176 0.653352
-6.443414 -5.556796 -0.112171 1479 0.622880 0.295234 0.690590
-6.446105 -5.559107 -0.109596 1455 0.584163 0.261986 0.727640
-6.448569 -5.561222 -0.107023 1417 0.548713 0.231551 0.764662
-6.451537 -5.563766 -0.104446 1373 0.506003 0.194947 0.801741
-6.454895 -5.566642 -0.101877 1317 0.457688 0.153569 0.838705
-6.458351 -5.569618 -0.099307 1247 0.407960 0.110743 0.875683
-6.463146 -5.573728 -0.096750 1113 0.338966 0.051608 0.912475
-6.466893 -5.576949 -0.094179 813 0.285053 0.005262 0.949468
-6.456153 -5.564714 -0.222329 1327 0.439589 0.181308 -0.894417
-6.452554 -5.561594 -0.219591 1379 0.491369 0.226199 -0.855022
-6.449732 -5.559152 -0.216886 1415 0.531979 0.261334 -0.816101
-6.446792 -5.556603 -0.214183 1443 0.574277 0.298013 -0.777209
-6.444304 -5.554436 -0.211486 1475 0.610077 0.329189 -0.738403
-6.442637 -5.552987 -0.208816 1497 0.634063 0.350040 -0.699986
-6.440695 -5.551307 -0.206148 1525 0.662008 0.374211 -0.661597
-6.438640 -5.549513 -0.203470 1539 0.691572 0.400029 -0.623065
-6.437413 -5.548447 -0.200826 1565 0.709225 0.415363 -0.585022
-6.436073 -5.547280 -0.198173 1569 0.728511 0.432159 -0.546849
-6.434187 -5.545642 -0.195514 1589 0.755646 0.455726 -0.508590
-6.433350 -5.544906 -0.192878 1595 0.767687 0.466312 -0.470662
-6.433016 -5.544602 -0.190261 1615 0.772497 0.470690 -0.433007
-6.432065 -5.543767 -0.187627 1627 0.786178 0.482703 -0.395108
-6.431271 -5.543074 -0.184991 1633 0.797601 0.492672 -0.357180
-6.430717 -5.542579 -0.182374 1641 0.805574 0.499794 -0.319525
-6.429816 -5.541794 -0.179738 1645 0.818541 0.511094 -0.281597
-6.428802 -5.540911 -0.177104 1639 0.833127 0.523794 -0.243698
-6.428249 -5.540415 -0.174478 1651 0.841086 0.530936 -0.205914
-6.427567 -5.539820 -0.171861 1659 0.850897 0.539492 -0.168259
-6.427778 -5.539988 -0.169261 1661 0.847865 0.537076 -0.130849
-6.428316 -5.540438 -0.166658 1673 0.840118 0.530600 -0.093396
-6.428195 -5.540316 -0.164049 1667 0.841861 0.532356 -0.055856
-6.427747 -5.539912 -0.161432 1657 0.848310 0.538167 -0.018202
-6.427944 -5.540080 -0.158830 1655 0.845470 0.535752 0.019237
-6.428977 -5.540952 -0.156244 1665 0.830609 0.523204 0.056446
-6.429083 -5.541028 -0.153644 1661 0.829086 0.522113 0.093856
-6.429118 -5.541048 -0.151033 1649 0.828578 0.521825 0.131424
-6.429215 -5.541117 -0.148433 1643 0.827186 0.520830 0.168834
-6.429249 -5.541136 -0.145822 1643 0.826698 0.520562 0.206403
-6.429787 -5.541586 -0.143230 1633 0.818952 0.514085 0.243698
-6.430884 -5.542508 -0.140643 1639 0.803172 0.500816 0.280921
-6.431804 -5.543296 -0.138048 1625 0.789931 0.489482 0.318259
-6.432611 -5.543972 -0.135463 1621 0.778322 0.479753 0.355453
-6.433481 -5.544710 -0.132869 1607 0.765800 0.469132 0.392777
-6.434295 -5.545393 -0.130275 1587 0.754089 0.459307 0.430101
-6.435159 -5.546125 -0.127679 1573 0.741657 0.448776 0.467453
-6.436858 -5.547577 -0.125100 1579 0.717211 0.427884 0.504561
-6.438387 -5.548887 -0.122522 1569 0.695215 0.409037 0.541655
-6.439527 -5.549852 -0.119926 1545 0.678810 0.395150 0.579007
-6.440942 -5.551063 -0.117338 1529 0.658454 0.377724 0.616244
-6.443187 -5.552986 -0.114765 1511 0.626146 0.350053 0.653266
-6.445383 -5.554861 -0.112182 1485 0.594551 0.323076 0.690432
-6.447464 -5.556637 -0.109599 1455 0.564610 0.297526 0.727597
-6.449985 -5.558793 -0.107026 1425 0.528336 0.266501 0.764619
-6.452896 -5.561295 -0.104450 1385 0.486449 0.230501 0.801683
-6.456636 -5.564510 -0.101888 1339 0.432639 0.184244 0.838547
-6.459724 -5.567146 -0.099311 1251 0.388207 0.146317 0.875626
-6.464066 -5.570876 -0.096746 1137 0.325731 0.092644 0.912532
-6.470682 -5.576573 -0.094209 885 0.230535 0.010676 0.949036
-6.457789 -5.562603 -0.222341 1335 0.416049 0.211681 -0.894590
-6.454352 -5.559632 -0.219611 1381 0.465503 0.254432 -0.855309
-6.451134 -5.556850 -0.216890 1417 0.511801 0.294459 -0.816158
-6.448363 -5.554442 -0.214185 1459 0.551677 0.329107 -0.777237
-6.446308 -5.552663 -0.211507 1471 0.581240 0.354705 -0.738705
-6.444252 -5.550884 -0.208829 1503 0.610825 0.380303 -0.700173
-6.441480 -5.548476 -0.206134 1517 0.650708 0.414944 -0.661396
-6.439978 -5.547177 -0.203473 1539 0.672320 0.433641 -0.623108
-6.439423 -5.546680 -0.200845 1571 0.680306 0.440790 -0.585295
-6.438190 -5.545607 -0.198203 1579 0.698048 0.456227 -0.547281
-6.436630 -5.544251 -0.195541 1595 0.720498 0.475739 -0.508978
-6.435694 -5.543430 -0.192907 1597 0.733959 0.487554 -0.471079
-6.434680 -5.542548 -0.190273 1619 0.748552 0.500240 -0.433180
-6.433460 -5.541472 -0.187629 1629 0.766102 0.515725 -0.395137
-6.432510 -5.540639 -0.184995 1631 0.779776 0.527711 -0.357237
-6.431892 -5.540094 -0.182369 1633 0.788668 0.535553 -0.319453
-6.431274 -5.539549 -0.179742 1631 0.797560 0.543395 -0.281655
-6.430423 -5.538814 -0.177118 1639 0.809807 0.553968 -0.243899
-6.430033 -5.538452 -0.174499 1651 0.815412 0.559176 -0.206216
-6.430124 -5.538528 -0.171888 1663 0.814109 0.558085 -0.168647
-6.430562 -5.538893 -0.169296 1681 0.807803 0.552829 -0.131353
-6.430540 -5.538856 -0.166686 1683 0.808119 0.553364 -0.093799
-6.429923 -5.538311 -0.164060 1675 0.816997 0.561206 -0.056014
-6.429738 -5.538140 -0.161451 1665 0.819659 0.563670 -0.018475
-6.429566 -5.537969 -0.158841 1653 0.822136 0.566126 0.019079
-6.430542 -5.538799 -0.156257 1667 0.808091 0.554188 0.056259
-6.431250 -5.539404 -0.153663 1667 0.797903 0.545481 0.093583
-6.430683 -5.538896 -0.151046 1657 0.806061 0.552788 0.131237
-6.430781 -5.538964 -0.148435 1643 0.804654 0.551814 0.168806
-6.431318 -5.539413 -0.145843 1633 0.796929 0.545351 0.206101
-6.432188 -5.540152 -0.143257 1629 0.784407 0.534716 0.243309
-6.432938 -5.540785 -0.140663 1641 0.773615 0.525612 0.280633
-6.433363 -5.541136 -0.138061 1625 0.767502 0.520562 0.318072
-6.434232 -5.541875 -0.135465 1609 0.754994 0.509928 0.355424
-6.435273 -5.542755 -0.132881 1603 0.740017 0.497262 0.392604
-6.436299 -5.543621 -0.130294 1599 0.725259 0.484803 0.429827
-6.436886 -5.544120 -0.127691 1583 0.716813 0.477626 0.467280
-6.438033 -5.545092 -0.125104 1567 0.700306 0.463637 0.504504
-6.439449 -5.546303 -0.122516 1551 0.679936 0.446217 0.541741
-6.440758 -5.547409 -0.119930 1537 0.661095 0.430299 0.578950
-6.442061 -5.548522 -0.117341 1533 0.642351 0.414286 0.616201
-6.443371 -5.549642 -0.114745 1509 0.623504 0.398169 0.653554
-6.445779 -5.551699 -0.112171 1485 0.588856 0.368571 0.690590
-6.448583 -5.554095 -0.109605 1451 0.548507 0.334102 0.727511
-6.451777 -5.556838 -0.107038 1423 0.502552 0.294630 0.764446
-6.454575 -5.559227 -0.104461 1387 0.462292 0.260257 0.801525
-6.457210 -5.561482 -0.101886 1337 0.424378 0.227812 0.838575
-6.460729 -5.564507 -0.099317 1261 0.373744 0.184286 0.875539
-6.464915 -5.568095 -0.096753 1159 0.313519 0.132657 0.912432
-6.471758 -5.573976 -0.094215 955 0.215057 0.048040 0.948950
-6.458143 -5.559611 -0.222310 1333 0.410951 0.254734 -0.894144
-6.455202 -5.557062 -0.219596 1375 0.453270 0.291406 -0.855094
-6.452154 -5.554422 -0.216884 1415 0.497125 0.329395 -0.816072
-6.449114 -5.551789 -0.214172 1449 0.540871 0.367281 -0.777051
-6.446662 -5.549671 -0.211475 1473 0.576150 0.397751 -0.738245
-6.444719 -5.547990 -0.208806 1495 0.604108 0.421943 -0.699842
-6.443336 -5.546782 -0.206144 1527 0.624005 0.439321 -0.661540
-6.441720 -5.545370 -0.203483 1543 0.647257 0.459637 -0.623252
-6.440550 -5.544360 -0.200839 1559 0.664093 0.474168 -0.585209
-6.439819 -5.543715 -0.198213 1575 0.674611 0.483451 -0.547424
-6.438649 -5.542690 -0.195560 1593 0.691441 0.498202 -0.509252
-6.437210 -5.541440 -0.192918 1599 0.712148 0.516185 -0.471238
-6.435983 -5.540374 -0.190265 1611 0.729801 0.531526 -0.433065
-6.434643 -5.539208 -0.187623 1619 0.749087 0.548301 -0.395050
-6.433749 -5.538415 -0.184987 1629 0.761945 0.559711 -0.357122
-6.433239 -5.537963 -0.182371 1631 0.769286 0.566215 -0.319482
-6.432620 -5.537417 -0.179744 1635 0.778191 0.574071 -0.281684
-6.432272 -5.537113 -0.177127 1647 0.783200 0.578441 -0.244029
-6.431989 -5.536857 -0.174518 1657 0.787268 0.582126 -0.206489
-6.431478 -5.536404 -0.171892 1669 0.794623 0.588643 -0.168705
-6.431745 -5.536613 -0.169290 1669 0.790781 0.585638 -0.131266
