237
-18.550238 -16.144804 -0.152416 793 0.915088 -0.500768 0.007031
-18.551008 -16.145430 -0.144870 809 0.904001 -0.509770 0.115607
-18.551252 -16.135647 -0.175071 767 0.900488 -0.369010 -0.318940
-18.551142 -16.135509 -0.167522 895 0.902080 -0.367034 -0.210321
-18.549200 -16.133785 -0.159954 959 0.930018 -0.342225 -0.101429
-18.548645 -16.133272 -0.152397 1001 0.938004 -0.334843 0.007305
-18.547977 -16.132647 -0.144851 995 0.947609 -0.325841 0.115880
-18.548407 -16.132982 -0.137298 991 0.941434 -0.330671 0.224556
-18.549171 -16.133615 -0.129755 955 0.930429 -0.339783 0.333089
-18.552357 -16.136339 -0.122226 903 0.884598 -0.378972 0.441420
-18.554440 -16.138117 -0.114683 797 0.854629 -0.404550 0.549952
-18.557394 -16.130867 -0.182668 873 0.812119 -0.300236 -0.428249
-18.553190 -16.127174 -0.175083 989 0.872605 -0.247105 -0.319113
-18.549597 -16.124008 -0.167503 1049 0.924309 -0.201548 -0.210048
-18.547153 -16.121853 -0.159938 1075 0.959465 -0.170536 -0.101199
-18.545555 -16.120420 -0.152378 1087 0.982463 -0.149926 0.007578
-18.546259 -16.120993 -0.144834 1105 0.972336 -0.158159 0.116125
-18.547693 -16.122210 -0.137294 1095 0.951698 -0.175668 0.224614
-18.548290 -16.122692 -0.129751 1083 0.943108 -0.182611 0.333146
-18.549603 -16.123787 -0.122215 1039 0.924227 -0.198364 0.441578
-18.553448 -16.127098 -0.114681 987 0.868900 -0.246007 0.549981
-18.558746 -16.131659 -0.107160 883 0.792661 -0.311625 0.658197
-18.563412 -16.126186 -0.190254 885 0.725533 -0.232889 -0.537400
-18.556561 -16.120199 -0.182643 999 0.824112 -0.146742 -0.427890
-18.551699 -16.115938 -0.175062 1077 0.894066 -0.085433 -0.318810
-18.548441 -16.113071 -0.167491 1121 0.940940 -0.044185 -0.209875
-18.546497 -16.111343 -0.159923 1149 0.968906 -0.019320 -0.100983
-18.545448 -16.110394 -0.152379 1145 0.984000 -0.005653 0.007564
-18.545832 -16.110682 -0.144836 1151 0.978484 -0.009797 0.116096
-18.546700 -16.111403 -0.137292 1149 0.965997 -0.020171 0.224643
-18.547358 -16.111927 -0.129758 1129 0.956528 -0.027718 0.333046
-18.548889 -16.113226 -0.122219 1105 0.934491 -0.046408 0.441521
-18.551910 -16.115818 -0.114681 1055 0.891020 -0.083704 0.549981
-18.557039 -16.120222 -0.107162 981 0.817223 -0.147072 0.658168
-18.564039 -16.126272 -0.099641 867 0.716504 -0.234124 0.766384
-18.579155 -16.129786 -0.205505 767 0.499012 -0.284675 -0.756839
-18.571096 -16.122746 -0.197872 841 0.614962 -0.183380 -0.647012
-18.560806 -16.113783 -0.190221 983 0.763022 -0.054421 -0.536925
-18.554958 -16.108656 -0.182626 1075 0.847165 0.019348 -0.427645
-18.551134 -16.105309 -0.175048 1129 0.902190 0.067512 -0.318609
-18.549257 -16.103634 -0.167490 1159 0.929194 0.091608 -0.209861
-18.547592 -16.102152 -0.159929 1191 0.953153 0.112932 -0.101070
-18.546043 -16.100769 -0.152378 1195 0.975437 0.132828 0.007578
-18.545868 -16.100582 -0.144838 1197 0.977962 0.135518 0.116067
-18.546135 -16.100771 -0.137298 1187 0.974120 0.132801 0.224556
-18.546463 -16.101019 -0.129755 1177 0.969400 0.129233 0.333089
-18.548161 -16.102451 -0.122215 1139 0.944975 0.108623 0.441578
-18.551571 -16.105379 -0.114696 1123 0.895905 0.066496 0.549765
-18.555101 -16.108397 -0.107166 1071 0.845106 0.023080 0.658110
-18.560276 -16.112850 -0.099636 979 0.770651 -0.041001 0.766456
-18.571362 -16.122444 -0.092132 821 0.611147 -0.179044 0.874427
-18.578926 -16.119444 -0.205478 837 0.502305 -0.135875 -0.756451
-18.568199 -16.110096 -0.197830 943 0.656649 -0.001372 -0.646408
-18.562016 -16.104687 -0.190227 1043 0.745622 0.076459 -0.537012
-18.557821 -16.101002 -0.182641 1113 0.805971 0.129480 -0.427861
-18.553389 -16.097134 -0.175056 1173 0.869751 0.185136 -0.318724
-18.550123 -16.094257 -0.167486 1191 0.916735 0.226522 -0.209803
-18.548359 -16.092680 -0.159936 1203 0.942120 0.249218 -0.101170
-18.547575 -16.091972 -0.152391 1205 0.953400 0.259399 0.007391
-18.547293 -16.091681 -0.144842 1217 0.957462 0.263598 0.116010
-18.547726 -16.092018 -0.137310 1215 0.951232 0.258741 0.224384
-18.548380 -16.092558 -0.129766 1207 0.941819 0.250974 0.332931
-18.549858 -16.093801 -0.122238 1185 0.920550 0.233081 0.441247
-18.552494 -16.096048 -0.114704 1159 0.882622 0.200752 0.549650
-18.555361 -16.098486 -0.107175 1115 0.841374 0.165679 0.657981
-18.560156 -16.102613 -0.099649 1039 0.772380 0.106290 0.766269
-18.568199 -16.109552 -0.092132 939 0.656649 0.006449 0.874427
-18.579578 -16.109858 -0.205476 825 0.492919 0.002058 -0.756422
-18.570789 -16.102205 -0.197837 991 0.619381 0.112163 -0.646508
-18.564270 -16.096512 -0.190225 1071 0.713184 0.194083 -0.536983
-18.558737 -16.091677 -0.182638 1139 0.792798 0.263653 -0.427818
-18.555470 -16.088804 -0.175067 1183 0.839810 0.304984 -0.318882
-18.553492 -16.087042 -0.167509 1205 0.868269 0.330342 -0.210134
-18.550211 -16.084169 -0.159948 1215 0.915472 0.371672 -0.101343
-18.549707 -16.083691 -0.152400 1229 0.922718 0.378561 0.007261
-18.550039 -16.083942 -0.144859 1237 0.917942 0.374938 0.115765
-18.550079 -16.083939 -0.137319 1227 0.917366 0.374993 0.224254
-18.552015 -16.085571 -0.129798 1223 0.889511 0.351501 0.332470
-18.553541 -16.086864 -0.122259 1213 0.867555 0.332894 0.440945
-18.555914 -16.088881 -0.114734 1181 0.833415 0.303886 0.549218
-18.559875 -16.092274 -0.107202 1143 0.776414 0.255063 0.657592
-18.564177 -16.095963 -0.099678 1087 0.714529 0.201987 0.765851
-18.570848 -16.101719 -0.092159 1001 0.618530 0.119161 0.874038
-18.585758 -16.114607 -0.084663 823 0.404001 -0.066277 0.981895
-18.580559 -16.100569 -0.205463 883 0.478813 0.135710 -0.756235
-18.574095 -16.094927 -0.197851 1025 0.571820 0.216889 -0.646710
-18.568111 -16.089712 -0.190256 1105 0.657912 0.291920 -0.537429
-18.562305 -16.084642 -0.182659 1153 0.741451 0.364866 -0.428120
-18.558439 -16.081257 -0.175083 1207 0.797080 0.413579 -0.319113
-18.556454 -16.079487 -0.167524 1219 0.825649 0.439047 -0.210350
-18.555277 -16.078436 -0.159980 1223 0.842582 0.454169 -0.101803
-18.554165 -16.077436 -0.152427 1257 0.858581 0.468549 0.006873
-18.553833 -16.077097 -0.144889 1237 0.863357 0.473434 0.115333
-18.554478 -16.077629 -0.137355 1237 0.854081 0.465777 0.223736
-18.556143 -16.079027 -0.129825 1237 0.830122 0.445661 0.332082
-18.559330 -16.081753 -0.122297 1225 0.784263 0.406444 0.440398
-18.561422 -16.083527 -0.114765 1195 0.754157 0.380921 0.548772
-18.563179 -16.085009 -0.107234 1169 0.728882 0.359597 0.657132
-18.566473 -16.087826 -0.099706 1121 0.681486 0.319062 0.765449
-18.573036 -16.093479 -0.092178 1033 0.587052 0.237719 0.873765
-18.583471 -16.102482 -0.084669 877 0.436906 0.108184 0.981808
-18.584030 -16.094208 -0.205480 927 0.428865 0.227235 -0.756479
-18.576845 -16.087946 -0.197872 1043 0.532246 0.317333 -0.647012
-18.571598 -16.083366 -0.190273 1123 0.607744 0.383226 -0.537674
-18.566122 -16.078575 -0.182685 1167 0.686536 0.452165 -0.428494
-18.562349 -16.075277 -0.175107 1201 0.740820 0.499616 -0.319458
-18.560850 -16.073940 -0.167556 1215 0.762391 0.518854 -0.210810
-18.558872 -16.072182 -0.159997 1229 0.790850 0.544157 -0.102048
-18.557081 -16.070602 -0.152448 1243 0.816620 0.566880 0.006571
-18.557741 -16.071135 -0.144914 1253 0.807124 0.559224 0.114974
-18.558783 -16.071995 -0.137378 1253 0.792140 0.546846 0.223405
-18.558327 -16.071566 -0.129840 1245 0.798699 0.553021 0.331866
-18.560198 -16.073149 -0.122310 1219 0.771776 0.530243 0.440211
-18.563942 -16.076347 -0.114788 1199 0.717904 0.484220 0.548441
-18.566868 -16.078842 -0.107261 1167 0.675805 0.448323 0.656743
-18.570555 -16.082001 -0.099729 1115 0.622756 0.402876 0.765118
-18.576403 -16.087027 -0.092206 1035 0.538613 0.330561 0.873362
-18.585735 -16.095068 -0.084692 885 0.404330 0.214858 0.981477
-18.589064 -16.088837 -0.205520 933 0.356441 0.304517 -0.757055
-18.581715 -16.082443 -0.197904 1057 0.462182 0.396509 -0.647472
-18.575516 -16.077032 -0.190299 1117 0.551375 0.474367 -0.538048
-18.570814 -16.072927 -0.182706 1153 0.619024 0.533426 -0.428796
-18.567770 -16.070255 -0.175146 1209 0.662824 0.571875 -0.320019
-18.565228 -16.068014 -0.167579 1219 0.699407 0.604122 -0.211141
-18.563450 -16.066437 -0.160030 1237 0.724985 0.626818 -0.102523
-18.561287 -16.064520 -0.152473 1249 0.756106 0.654399 0.006211
-18.561440 -16.064627 -0.144943 1231 0.753910 0.652862 0.114556
-18.562866 -16.065823 -0.137403 1235 0.733382 0.635655 0.223046
-18.564415 -16.067122 -0.129875 1251 0.711098 0.616966 0.331362
-18.566006 -16.068460 -0.122346 1217 0.688210 0.597700 0.439693
-18.568098 -16.070232 -0.114814 1195 0.658104 0.572205 0.548067
-18.571177 -16.072853 -0.107286 1157 0.613809 0.534497 0.656384
-18.575811 -16.076834 -0.099769 1105 0.547121 0.477221 0.764542
-18.581881 -16.082048 -0.092245 1045 0.459795 0.402190 0.872801
-18.590490 -16.089453 -0.084724 897 0.335913 0.295653 0.981017
-18.593210 -16.082487 -0.205549 915 0.296778 0.395878 -0.757472
-18.587513 -16.077524 -0.197940 1031 0.378753 0.467287 -0.647990
-18.582754 -16.073376 -0.190349 1101 0.447225 0.526977 -0.538767
-18.577606 -16.068876 -0.182758 1155 0.521296 0.591717 -0.429544
-18.574177 -16.065872 -0.175189 1187 0.570640 0.634941 -0.320638
-18.571518 -16.063532 -0.167625 1223 0.608897 0.668615 -0.211803
-18.568911 -16.061243 -0.160070 1225 0.646413 0.701548 -0.103098
-18.568184 -16.060577 -0.152524 1249 0.656869 0.711125 0.005477
-18.567516 -16.059952 -0.144977 1235 0.666474 0.720127 0.114067
-18.567728 -16.060102 -0.137437 1239 0.663428 0.717959 0.222556
-18.568876 -16.061052 -0.129909 1227 0.646907 0.704292 0.330873
-18.570629 -16.062536 -0.122381 1213 0.621686 0.682941 0.439190
-18.574110 -16.065506 -0.114851 1177 0.571601 0.640211 0.547535
-18.577250 -16.068184 -0.107322 1141 0.526428 0.601679 0.655866
-18.581381 -16.071720 -0.099798 1111 0.466985 0.550798 0.764125
-18.587843 -16.077272 -0.092281 1021 0.374005 0.470909 0.872283
-18.598398 -16.086367 -0.084770 859 0.222131 0.340057 0.980355
-18.605415 -16.082914 -0.205650 853 0.121165 0.389730 -0.758926
-18.596397 -16.075079 -0.198011 1011 0.250919 0.502470 -0.649012
-18.587862 -16.067673 -0.190382 1091 0.373731 0.609034 -0.539242
-18.582443 -16.062950 -0.182792 1131 0.451699 0.676985 -0.430033
-18.579285 -16.060181 -0.175222 1171 0.497146 0.716834 -0.321113
-18.577284 -16.058413 -0.167663 1195 0.525934 0.742274 -0.212350
-18.575628 -16.056940 -0.160112 1215 0.549756 0.763461 -0.103702
-18.574451 -16.055893 -0.152559 1235 0.566688 0.778528 0.004974
-18.573732 -16.055231 -0.145013 1221 0.577035 0.788051 0.113549
-18.574274 -16.055658 -0.137481 1215 0.569241 0.781903 0.221923
-18.575155 -16.056379 -0.129945 1209 0.556562 0.771529 0.330355
-18.577469 -16.058338 -0.122423 1199 0.523272 0.743345 0.438585
-18.580442 -16.060871 -0.114894 1167 0.480487 0.706899 0.546916
-18.583754 -16.063700 -0.107366 1139 0.432845 0.666200 0.655233
-18.587605 -16.066990 -0.099834 1079 0.377435 0.618859 0.763607
-18.592350 -16.071053 -0.092306 993 0.309155 0.560404 0.871923
-18.603800 -16.080904 -0.084800 829 0.144410 0.418656 0.979923
-18.611816 -16.078318 -0.205696 767 0.029063 0.455870 -0.759587
-18.604509 -16.071966 -0.198078 987 0.134200 0.547258 -0.649976
-18.596476 -16.064991 -0.190454 1053 0.249794 0.647620 -0.540278
-18.590389 -16.059692 -0.182849 1113 0.337367 0.723859 -0.430854
-18.587620 -16.057257 -0.175285 1141 0.377216 0.758905 -0.322019
-18.584454 -16.054495 -0.167713 1179 0.422773 0.798644 -0.213069
-18.582632 -16.052872 -0.160163 1183 0.448982 0.821999 -0.104436
-18.581793 -16.052111 -0.152608 1203 0.461057 0.832949 0.004269
-18.580729 -16.051159 -0.145065 1193 0.476371 0.846643 0.112801
-18.581333 -16.051645 -0.137533 1189 0.467671 0.839645 0.221175
-18.582096 -16.052263 -0.129987 1193 0.456693 0.830753 0.329751
-18.583302 -16.053270 -0.122461 1167 0.439349 0.816263 0.438038
-18.586666 -16.056129 -0.114931 1143 0.390938 0.775125 0.546384
-18.590475 -16.059389 -0.107410 1095 0.336132 0.728223 0.654600
-18.595438 -16.063633 -0.099882 1027 0.264724 0.667160 0.762916
-18.601952 -16.069223 -0.092363 923 0.171003 0.586722 0.871103
-18.614836 -16.070955 -0.198158 883 -0.014381 0.561803 -0.651127
-18.605204 -16.062605 -0.190513 997 0.124211 0.681953 -0.541127
-18.599277 -16.057446 -0.182918 1067 0.209479 0.756188 -0.431846
-18.595455 -16.054113 -0.175340 1123 0.264477 0.804133 -0.322810
-18.592634 -16.051643 -0.167778 1141 0.305066 0.839673 -0.214005
-18.590296 -16.049589 -0.160211 1185 0.338712 0.869230 -0.105127
-18.589899 -16.049202 -0.152664 1185 0.344421 0.874801 0.003463
-18.589294 -16.048641 -0.145116 1185 0.353120 0.882869 0.112067
-18.588562 -16.047968 -0.137571 1173 0.363659 0.892557 0.220628
-18.590319 -16.049452 -0.130041 1163 0.338383 0.871206 0.328974
-18.593920 -16.052513 -0.122520 1155 0.286569 0.827158 0.437190
-18.595346 -16.053709 -0.114982 1119 0.266041 0.809951 0.545650
-18.597704 -16.055708 -0.107448 1083 0.232120 0.781190 0.654053
-18.604391 -16.061436 -0.099929 1007 0.135902 0.698776 0.762240
-18.614513 -16.070139 -0.092422 873 -0.009743 0.573549 0.870254
-18.616892 -16.062962 -0.190607 915 -0.043965 0.676821 -0.542479
-18.608913 -16.056042 -0.182992 1011 0.070833 0.776387 -0.432911
-18.603037 -16.050928 -0.175397 1081 0.155387 0.849964 -0.323631
-18.599550 -16.047882 -0.167818 1121 0.205555 0.893792 -0.214580
-18.597105 -16.045738 -0.160261 1137 0.240738 0.924639 -0.105846
-18.596601 -16.045259 -0.152713 1143 0.247983 0.931527 0.002758
-18.596090 -16.044790 -0.145168 1155 0.255338 0.938278 0.111319
-18.596308 -16.044930 -0.137626 1151 0.252209 0.936275 0.219837
-18.598070 -16.046410 -0.130096 1133 0.226851 0.914979 0.328182
-18.600706 -16.048655 -0.122560 1113 0.188924 0.882677 0.436614
-18.603477 -16.051006 -0.115036 1081 0.149048 0.848839 0.544873
-18.608276 -16.055103 -0.107507 1021 0.079999 0.789889 0.653204
-18.614254 -16.060225 -0.099983 929 -0.006010 0.716203 0.761463
-18.623096 -16.058548 -0.183099 893 -0.133240 0.740326 -0.434451
-18.615990 -16.052378 -0.175491 993 -0.030984 0.829107 -0.324983
-18.611952 -16.048864 -0.167915 1055 0.027115 0.879658 -0.215976
-18.608679 -16.045996 -0.160345 1083 0.074208 0.920934 -0.107055
-18.607058 -16.044569 -0.152784 1097 0.097535 0.941462 0.001736
-18.607943 -16.045292 -0.145248 1103 0.084802 0.931061 0.110168
-18.608374 -16.045628 -0.137706 1103 0.078599 0.926230 0.218686
-18.609186 -16.046291 -0.130161 1085 0.066908 0.916680 0.327247
-18.610727 -16.047583 -0.122623 1043 0.044734 0.898100 0.435708
-18.614370 -16.050684 -0.115091 997 -0.007684 0.853477 0.544082
-18.620178 -16.055655 -0.107568 927 -0.091251 0.781958 0.652326
-18.630375 -16.054665 -0.175600 877 -0.237966 0.796201 -0.326552
-18.624483 -16.049553 -0.168004 973 -0.153192 0.869751 -0.217257
-18.620882 -16.046408 -0.160425 1017 -0.101378 0.915006 -0.108206
-18.619986 -16.045601 -0.152870 1047 -0.088479 0.926615 0.000499
-18.618872 -16.044601 -0.145317 1049 -0.072452 0.940995 0.109175
-18.618696 -16.044416 -0.137767 1039 -0.069927 0.943657 0.217808
-18.621183 -16.046516 -0.130233 1021 -0.105714 0.913442 0.326211
-18.623999 -16.048906 -0.122697 973 -0.146221 0.879054 0.434643
-18.627977 -16.052292 -0.115165 875 -0.203469 0.830342 0.543017
-18.637323 -16.050653 -0.160541 841 -0.337944 0.853916 -0.109875
-18.634874 -16.048504 -0.152975 889 -0.302706 0.884845 -0.001012
-18.633810 -16.047552 -0.145412 903 -0.287392 0.898540 0.107808
-18.633244 -16.047026 -0.137855 887 -0.279241 0.906114 0.216542
