190
-20.322311 -17.924297 -0.149121 889 0.905318 -0.305011 0.126468
-20.321924 -17.923912 -0.140794 891 0.910889 -0.299467 0.246281
-20.326096 -17.916937 -0.174105 915 0.850870 -0.199105 -0.233014
-20.323524 -17.914618 -0.165770 991 0.887864 -0.165734 -0.113086
-20.321159 -17.912491 -0.157433 1035 0.921894 -0.135134 0.006871
-20.319284 -17.910807 -0.149106 1053 0.948872 -0.110901 0.126684
-20.319508 -17.910952 -0.140784 1041 0.945661 -0.112986 0.246425
-20.320478 -17.911764 -0.132468 1027 0.931692 -0.124677 0.366079
-20.323111 -17.914043 -0.124163 975 0.893819 -0.157473 0.485576
-20.327490 -17.917866 -0.115868 901 0.830808 -0.212470 0.604928
-20.329752 -17.909170 -0.182452 979 0.798260 -0.087354 -0.353115
-20.324043 -17.904097 -0.174084 1053 0.880399 -0.014353 -0.232712
-20.320753 -17.901154 -0.165744 1101 0.927740 0.027993 -0.112712
-20.319921 -17.900387 -0.157418 1125 0.939705 0.039025 0.007087
-20.319149 -17.899664 -0.149104 1133 0.950820 0.049426 0.126712
-20.319035 -17.899515 -0.140784 1143 0.952467 0.051567 0.246425
-20.320288 -17.900578 -0.132478 1115 0.934436 0.036281 0.365935
-20.322264 -17.902267 -0.124165 1101 0.906004 0.011966 0.485547
-20.325548 -17.905121 -0.115866 1049 0.858746 -0.029090 0.604957
-20.331127 -17.910004 -0.107573 961 0.778473 -0.099347 0.724281
-20.334175 -17.902061 -0.190793 965 0.734617 0.014929 -0.473129
-20.328354 -17.896904 -0.182427 1059 0.818376 0.089138 -0.352755
-20.324364 -17.893345 -0.174081 1129 0.875789 0.140348 -0.232669
-20.322048 -17.891266 -0.165753 1171 0.909105 0.170262 -0.112842
-20.320395 -17.889769 -0.157424 1181 0.932899 0.191805 0.007000
-20.319614 -17.889038 -0.149108 1175 0.944124 0.202316 0.126655
-20.319349 -17.888756 -0.140790 1169 0.947939 0.206378 0.246338
-20.321100 -17.890255 -0.132489 1175 0.922745 0.184807 0.365777
-20.324001 -17.892773 -0.124182 1151 0.881003 0.148581 0.485302
-20.327007 -17.895382 -0.115885 1103 0.837751 0.111038 0.604684
-20.330675 -17.898560 -0.107585 1035 0.784977 0.065316 0.724108
-20.336206 -17.903391 -0.099282 925 0.705390 -0.004199 0.843576
-20.352276 -17.907272 -0.207583 941 0.474175 -0.060047 -0.714712
-20.344589 -17.900457 -0.199198 909 0.584774 0.038010 -0.594064
-20.335089 -17.892065 -0.190793 1033 0.721472 0.158763 -0.473129
-20.329330 -17.886953 -0.182427 1111 0.804325 0.232312 -0.352755
-20.326361 -17.884298 -0.174094 1165 0.847055 0.270514 -0.232856
-20.323999 -17.882177 -0.165759 1175 0.881030 0.301032 -0.112928
-20.323727 -17.881889 -0.157450 1219 0.884955 0.305176 0.006626
-20.323658 -17.881790 -0.149131 1223 0.885943 0.306603 0.126324
-20.322830 -17.881025 -0.140815 1215 0.897853 0.317608 0.245979
-20.322989 -17.881121 -0.132504 1191 0.895576 0.316236 0.365561
-20.324745 -17.882622 -0.124194 1177 0.870300 0.294637 0.485130
-20.327482 -17.884991 -0.115899 1145 0.830918 0.260552 0.604482
-20.332130 -17.889038 -0.107602 1115 0.764037 0.202316 0.723863
-20.338827 -17.894882 -0.099313 1007 0.667682 0.118228 0.843130
-20.351664 -17.906134 -0.091038 835 0.482985 -0.043663 0.962194
-20.356434 -17.900110 -0.207616 809 0.414347 0.043005 -0.715187
-20.345951 -17.890846 -0.199197 977 0.565179 0.176299 -0.594050
-20.338030 -17.883841 -0.190812 1075 0.679153 0.277101 -0.473403
-20.333033 -17.879398 -0.182452 1133 0.751056 0.341017 -0.353115
-20.329578 -17.876324 -0.174111 1185 0.800757 0.385257 -0.233100
-20.326984 -17.873997 -0.165776 1207 0.838081 0.418739 -0.113173
-20.324953 -17.872173 -0.157458 1227 0.867308 0.444975 0.006511
-20.324730 -17.871933 -0.149140 1233 0.870519 0.448433 0.126194
-20.325487 -17.872564 -0.140836 1245 0.859624 0.439349 0.245676
-20.325647 -17.872660 -0.132525 1229 0.857319 0.437977 0.365259
-20.326691 -17.873528 -0.124219 1205 0.842307 0.425490 0.484770
-20.329262 -17.875750 -0.115914 1175 0.805313 0.393518 0.604266
-20.333649 -17.879568 -0.107619 1129 0.742192 0.338575 0.723619
-20.339678 -17.884819 -0.099324 1065 0.655442 0.263022 0.842971
-20.348118 -17.892199 -0.091035 927 0.534003 0.156842 0.962238
-20.357725 -17.890427 -0.207614 863 0.395768 0.182337 -0.715158
-20.347832 -17.881701 -0.199200 1013 0.538119 0.307893 -0.594093
-20.340637 -17.875332 -0.190823 1113 0.641638 0.399528 -0.473561
-20.335974 -17.871189 -0.182471 1165 0.708738 0.459136 -0.353388
-20.333500 -17.868969 -0.174134 1185 0.744332 0.491081 -0.233432
-20.331200 -17.866903 -0.165808 1203 0.777430 0.520802 -0.113633
-20.328714 -17.864687 -0.157483 1239 0.813189 0.552692 0.006151
-20.328554 -17.864496 -0.149163 1261 0.815494 0.555436 0.125864
-20.329084 -17.864929 -0.140860 1253 0.807865 0.549207 0.245331
-20.329357 -17.865126 -0.132550 1233 0.803941 0.546380 0.364899
-20.330671 -17.866232 -0.124242 1213 0.785032 0.530463 0.484439
-20.333740 -17.868889 -0.115945 1195 0.740875 0.492233 0.603820
-20.337620 -17.872263 -0.107651 1155 0.685054 0.443685 0.723158
-20.342554 -17.876549 -0.099353 1085 0.614056 0.382019 0.842554
-20.350903 -17.883852 -0.091065 965 0.493935 0.276936 0.961806
-20.362799 -17.883659 -0.207642 931 0.322767 0.279708 -0.715561
-20.352186 -17.874296 -0.199225 1033 0.475465 0.414430 -0.594453
-20.345106 -17.868036 -0.190846 1109 0.577337 0.504501 -0.473892
-20.341047 -17.864422 -0.182500 1173 0.635737 0.556507 -0.353806
-20.336634 -17.860514 -0.174155 1205 0.699242 0.612739 -0.233734
-20.334011 -17.858160 -0.165820 1251 0.736978 0.646605 -0.113806
-20.333012 -17.857239 -0.157506 1245 0.751358 0.659860 0.005820
-20.333334 -17.857483 -0.149194 1263 0.746720 0.656348 0.125417
-20.333168 -17.857298 -0.140885 1245 0.749108 0.659010 0.244971
-20.333933 -17.857924 -0.132581 1241 0.738103 0.650008 0.364453
-20.335957 -17.859659 -0.124280 1229 0.708985 0.625034 0.483892
-20.338642 -17.861980 -0.115985 1203 0.670344 0.591635 0.603245
-20.342310 -17.865158 -0.107682 1159 0.617569 0.545913 0.722712
-20.346140 -17.868483 -0.099381 1115 0.562462 0.498079 0.842151
-20.352938 -17.874411 -0.091092 995 0.464652 0.412783 0.961417
-20.364904 -17.874260 -0.207650 885 0.292469 0.414951 -0.715676
-20.356997 -17.867285 -0.199256 1037 0.406252 0.515313 -0.594899
-20.351673 -17.862562 -0.190896 1117 0.482847 0.583264 -0.474611
-20.347813 -17.859129 -0.182549 1181 0.538394 0.632663 -0.354511
-20.343910 -17.855669 -0.174201 1213 0.594544 0.682447 -0.234395
-20.340456 -17.852592 -0.165871 1233 0.644245 0.726714 -0.114539
-20.338852 -17.851149 -0.157540 1249 0.667325 0.747489 0.005331
-20.338741 -17.851006 -0.149232 1233 0.668917 0.749547 0.124871
-20.339834 -17.851923 -0.140925 1255 0.653191 0.736346 0.244396
-20.340597 -17.852543 -0.132621 1233 0.642214 0.727427 0.363878
-20.342289 -17.853996 -0.124322 1231 0.617871 0.706515 0.483288
-20.344091 -17.855532 -0.116011 1205 0.591937 0.684423 0.602871
-20.346224 -17.857361 -0.107709 1153 0.561255 0.658104 0.722324
-20.351711 -17.862137 -0.099417 1103 0.482298 0.589384 0.841633
-20.358629 -17.868170 -0.091128 1003 0.382760 0.502580 0.960899
-20.372128 -17.869587 -0.207696 873 0.188539 0.482189 -0.716338
-20.365038 -17.863333 -0.199317 1027 0.290548 0.572177 -0.595777
-20.357624 -17.856787 -0.190928 1105 0.397223 0.666364 -0.475072
-20.352839 -17.852539 -0.182576 1155 0.466079 0.727482 -0.354899
-20.348494 -17.848686 -0.174231 1189 0.528596 0.782919 -0.234827
-20.344633 -17.845266 -0.165894 1207 0.584143 0.832125 -0.114870
-20.344410 -17.845028 -0.157586 1229 0.587354 0.835556 0.004669
-20.345615 -17.846043 -0.149279 1249 0.570009 0.820956 0.124194
-20.345392 -17.845804 -0.140959 1249 0.573220 0.824386 0.243907
-20.345396 -17.845760 -0.132651 1225 0.573165 0.825018 0.363446
-20.347797 -17.847826 -0.124356 1215 0.538613 0.795296 0.482799
-20.349657 -17.849419 -0.116055 1177 0.511856 0.772380 0.602238
-20.352892 -17.852209 -0.107756 1139 0.465311 0.732230 0.721648
-20.358494 -17.857084 -0.099456 1069 0.384708 0.662083 0.841072
-20.366949 -17.864450 -0.091176 967 0.263049 0.556095 0.960209
-20.380558 -17.865753 -0.207764 817 0.067237 0.537351 -0.717316
-20.372364 -17.858524 -0.199363 1007 0.185136 0.641363 -0.596439
-20.365150 -17.852160 -0.190984 1081 0.288929 0.732943 -0.475877
-20.361149 -17.848614 -0.182637 1145 0.346506 0.783961 -0.355777
-20.358618 -17.846354 -0.174302 1187 0.382924 0.816482 -0.235849
-20.355591 -17.843657 -0.165969 1207 0.426478 0.855288 -0.115949
-20.352949 -17.841299 -0.157635 1227 0.464487 0.889209 0.003964
-20.351622 -17.840082 -0.149312 1223 0.483588 0.906718 0.123720
-20.351341 -17.839800 -0.141003 1231 0.487623 0.910780 0.243274
-20.352545 -17.840816 -0.132697 1205 0.470306 0.896152 0.362784
-20.354294 -17.842308 -0.124398 1175 0.445139 0.874691 0.482194
-20.356382 -17.844097 -0.116095 1151 0.415088 0.848949 0.601662
-20.361101 -17.848185 -0.107798 1129 0.347192 0.790136 0.721043
-20.366865 -17.853193 -0.099505 1059 0.264257 0.718069 0.840367
-20.374498 -17.859844 -0.091212 929 0.154427 0.622372 0.959691
-20.382114 -17.856062 -0.199443 937 0.044843 0.676793 -0.597590
-20.373753 -17.848690 -0.191052 1059 0.165157 0.782864 -0.476856
-20.367987 -17.843590 -0.182685 1107 0.248120 0.856249 -0.356468
-20.363628 -17.839735 -0.174340 1151 0.310829 0.911713 -0.236395
-20.361214 -17.837572 -0.166005 1177 0.345573 0.942834 -0.116467
-20.360115 -17.836567 -0.157681 1197 0.361381 0.957297 0.003302
-20.359770 -17.836224 -0.149373 1205 0.366348 0.962237 0.122842
-20.360147 -17.836523 -0.141061 1201 0.360914 0.957928 0.242439
-20.360962 -17.837194 -0.132746 1191 0.349196 0.948268 0.362079
-20.362276 -17.838301 -0.124448 1171 0.330287 0.932350 0.481475
-20.365801 -17.841339 -0.116149 1137 0.279571 0.888632 0.600885
-20.369526 -17.844559 -0.107846 1095 0.225973 0.842307 0.720353
-20.375071 -17.849375 -0.099555 1013 0.146193 0.773011 0.839648
-20.382305 -17.855675 -0.091264 855 0.042099 0.682364 0.958943
-20.384930 -17.847483 -0.191134 957 0.004336 0.800236 -0.478036
-20.379215 -17.842430 -0.182767 1055 0.086558 0.872934 -0.357647
-20.374146 -17.837944 -0.174407 1101 0.159504 0.937482 -0.237360
-20.370726 -17.834921 -0.166066 1145 0.208711 0.980981 -0.117345
-20.369577 -17.833866 -0.157742 1161 0.225232 0.996157 0.002425
-20.368862 -17.833197 -0.149426 1181 0.235523 1.005790 0.122079
-20.368298 -17.832663 -0.141110 1187 0.243647 1.013474 0.241734
-20.369453 -17.833630 -0.132804 1163 0.227016 0.999560 0.361245
-20.372253 -17.836035 -0.124497 1133 0.186728 0.964954 0.480770
-20.374655 -17.838102 -0.116194 1091 0.152176 0.935205 0.600238
-20.378613 -17.841526 -0.107901 1031 0.095230 0.885943 0.719561
-20.385916 -17.847879 -0.099610 923 -0.009852 0.794527 0.838856
-20.394358 -17.844505 -0.191197 847 -0.131319 0.843076 -0.478942
-20.391159 -17.841669 -0.182856 987 -0.085296 0.883885 -0.358928
-20.386082 -17.837193 -0.174496 1049 -0.012240 0.948295 -0.238640
-20.381577 -17.833204 -0.166142 1093 0.052582 1.005680 -0.118439
-20.378984 -17.830894 -0.157807 1109 0.089879 1.038915 0.001489
-20.378475 -17.830404 -0.149489 1123 0.097206 1.045968 0.121173
-20.379259 -17.831045 -0.141175 1127 0.085927 1.036747 0.240799
-20.379953 -17.831614 -0.132861 1109 0.075937 1.028569 0.360425
-20.381496 -17.832916 -0.124552 1065 0.053735 1.009825 0.479979
-20.385115 -17.836042 -0.116261 1027 0.001674 0.964844 0.599274
-20.390999 -17.841143 -0.107968 931 -0.082990 0.891459 0.718597
-20.393459 -17.843252 -0.099654 779 -0.118393 0.861106 0.838223
-20.402052 -17.840195 -0.182931 815 -0.242027 0.905099 -0.360007
-20.399359 -17.837799 -0.174586 945 -0.203277 0.939568 -0.239935
-20.395729 -17.834579 -0.166238 1011 -0.151051 0.985893 -0.119820
-20.394083 -17.833090 -0.157906 1053 -0.127367 1.007327 0.000065
-20.391985 -17.831215 -0.149579 1061 -0.097179 1.034304 0.119878
-20.391150 -17.830441 -0.141255 1057 -0.085158 1.045447 0.239648
-20.393459 -17.832418 -0.132941 1039 -0.118393 1.016987 0.359274
-20.396856 -17.835356 -0.124642 1003 -0.167270 0.974724 0.478684
-20.400602 -17.838583 -0.116339 917 -0.221170 0.928289 0.598151
-20.399588 -17.837660 -0.108016 769 -0.206570 0.941572 0.717907
-20.409946 -17.836439 -0.166341 805 -0.355618 0.959136 -0.121302
-20.408079 -17.834761 -0.158002 881 -0.328750 0.983286 -0.001316
-20.406034 -17.832935 -0.149663 923 -0.299330 1.009550 0.118669
-20.405298 -17.832247 -0.141337 901 -0.288737 1.019457 0.238468
-20.406729 -17.833458 -0.133019 885 -0.309320 1.002030 0.358151
