665
-11.285989 -9.984271 -0.163073 725 0.791124 -0.529831 -0.059320
-11.285266 -9.983606 -0.158438 743 0.801526 -0.520267 0.007371
-11.284762 -9.983133 -0.153801 735 0.808771 -0.513461 0.074090
-11.286401 -9.984563 -0.149191 689 0.785196 -0.534030 0.140421
-11.284567 -9.976930 -0.176908 797 0.811584 -0.424200 -0.258385
-11.282140 -9.974758 -0.172253 841 0.846506 -0.392955 -0.191406
-11.279996 -9.972841 -0.167595 877 0.877353 -0.365374 -0.124385
-11.279655 -9.972518 -0.162966 885 0.882252 -0.360722 -0.057780
-11.280190 -9.972971 -0.158354 883 0.874554 -0.367240 0.008579
-11.279742 -9.972554 -0.153727 883 0.881003 -0.361244 0.075155
-11.280285 -9.973001 -0.149103 861 0.873195 -0.367665 0.141687
-11.282630 -9.975052 -0.144510 841 0.839453 -0.397181 0.207773
-11.284694 -9.976862 -0.139908 811 0.809759 -0.423226 0.273989
-11.287202 -9.979048 -0.135303 737 0.773670 -0.454676 0.340248
-11.290430 -9.981885 -0.130714 601 0.727221 -0.495499 0.406277
-11.289383 -9.975231 -0.190836 735 0.742288 -0.399761 -0.458788
-11.284933 -9.971277 -0.186142 823 0.806314 -0.342870 -0.391248
-11.282223 -9.968866 -0.181477 877 0.845312 -0.308181 -0.324126
-11.280304 -9.967148 -0.176828 921 0.872921 -0.283454 -0.257234
-11.278973 -9.965945 -0.172186 953 0.892077 -0.266151 -0.190442
-11.277479 -9.964609 -0.167545 967 0.913565 -0.246926 -0.123665
-11.276544 -9.963748 -0.162910 979 0.927026 -0.234535 -0.056975
-11.275990 -9.963239 -0.158283 979 0.934999 -0.227208 0.009601
-11.275918 -9.963156 -0.153664 963 0.936028 -0.226014 0.076061
-11.277281 -9.964336 -0.149055 967 0.916419 -0.243002 0.142378
-11.278587 -9.965463 -0.144449 941 0.897620 -0.259207 0.208651
-11.280162 -9.966842 -0.139839 919 0.874965 -0.279049 0.274982
-11.282726 -9.969084 -0.135244 887 0.838067 -0.311309 0.341097
-11.286224 -9.972148 -0.130655 839 0.787735 -0.355398 0.407126
-11.289949 -9.975409 -0.126064 743 0.734137 -0.402313 0.473183
-11.289625 -9.969333 -0.195442 777 0.738803 -0.314891 -0.525061
-11.285735 -9.965868 -0.190754 863 0.794774 -0.265039 -0.457608
-11.281774 -9.962347 -0.186068 927 0.851775 -0.214378 -0.390183
-11.279402 -9.960232 -0.181410 977 0.885902 -0.183943 -0.323162
-11.278077 -9.959037 -0.176779 1005 0.904961 -0.166749 -0.256529
-11.277136 -9.958182 -0.172144 1019 0.918505 -0.154454 -0.189838
-11.276250 -9.957383 -0.167509 1027 0.931253 -0.142955 -0.123147
-11.275414 -9.956620 -0.162874 1033 0.943273 -0.131978 -0.056457
-11.275348 -9.956543 -0.158255 1045 0.944234 -0.130866 0.010004
-11.275112 -9.956310 -0.153635 1025 0.947623 -0.127518 0.076479
-11.275536 -9.956665 -0.149023 1027 0.941530 -0.132622 0.142838
-11.276402 -9.957408 -0.144407 1009 0.929057 -0.143312 0.209255
-11.277716 -9.958540 -0.139801 1003 0.910162 -0.159600 0.275529
-11.279454 -9.960054 -0.135201 975 0.885147 -0.181390 0.341716
-11.282229 -9.962480 -0.130606 923 0.845216 -0.216285 0.407831
-11.285402 -9.965260 -0.126017 881 0.799563 -0.256285 0.473860
-11.288689 -9.968140 -0.121418 801 0.752277 -0.297725 0.540032
-11.294372 -9.973133 -0.116846 667 0.670509 -0.369573 0.605817
-11.291862 -9.965500 -0.200073 801 0.706625 -0.259742 -0.591694
-11.286586 -9.960819 -0.195364 903 0.782534 -0.192395 -0.523939
-11.283345 -9.957933 -0.190693 943 0.829162 -0.150873 -0.456730
-11.281363 -9.956165 -0.186045 995 0.857689 -0.125432 -0.389853
-11.279267 -9.954285 -0.181387 1029 0.887837 -0.098373 -0.322831
-11.277887 -9.953048 -0.176754 1053 0.907692 -0.080575 -0.256169
-11.276175 -9.951520 -0.172104 1063 0.932337 -0.058593 -0.189263
-11.274632 -9.950134 -0.167463 1071 0.954525 -0.038655 -0.122486
-11.274022 -9.949569 -0.162836 1079 0.963307 -0.030518 -0.055910
-11.274613 -9.950065 -0.158234 1085 0.954800 -0.037653 0.010306
-11.275262 -9.950617 -0.153620 1083 0.945469 -0.045598 0.076694
-11.274637 -9.950052 -0.148993 1071 0.954456 -0.037475 0.143270
-11.274784 -9.950158 -0.144373 1049 0.952343 -0.038998 0.209745
-11.277137 -9.952203 -0.139778 1047 0.918491 -0.068418 0.275860
-11.280147 -9.954836 -0.135191 1041 0.875185 -0.106304 0.341860
-11.282761 -9.957128 -0.130596 1021 0.837573 -0.139278 0.407975
-11.284612 -9.958741 -0.125996 973 0.810939 -0.162495 0.474162
-11.286633 -9.960495 -0.121395 899 0.781862 -0.187730 0.540363
-11.290512 -9.963898 -0.116802 817 0.726041 -0.236690 0.606450
-11.296752 -9.969379 -0.112238 673 0.636259 -0.315563 0.672119
-11.294517 -9.961420 -0.204708 805 0.668423 -0.201040 -0.658385
-11.288745 -9.956300 -0.199991 905 0.751468 -0.127367 -0.590514
-11.285328 -9.953265 -0.195320 971 0.800634 -0.083704 -0.523306
-11.282363 -9.950628 -0.190647 1011 0.843295 -0.045763 -0.456068
-11.280487 -9.948953 -0.185997 1041 0.870286 -0.021653 -0.389162
-11.278562 -9.947227 -0.181349 1069 0.897991 0.003183 -0.322284
-11.276955 -9.945792 -0.176708 1089 0.921112 0.023821 -0.255507
-11.276289 -9.945184 -0.172081 1107 0.930690 0.032576 -0.188932
-11.275296 -9.944281 -0.167458 1117 0.944975 0.045571 -0.122414
-11.274687 -9.943715 -0.162830 1113 0.953743 0.053708 -0.055824
-11.275328 -9.944260 -0.158218 1117 0.944522 0.045872 0.010536
-11.274994 -9.943942 -0.153599 1113 0.949324 0.050442 0.076997
-11.273931 -9.942982 -0.148966 1099 0.964624 0.064260 0.143658
-11.274362 -9.943342 -0.144354 1087 0.958422 0.059073 0.210018
-11.276212 -9.944956 -0.139763 1083 0.931802 0.035855 0.276076
-11.278386 -9.946852 -0.135160 1059 0.900516 0.008576 0.342306
-11.280407 -9.948606 -0.130569 1039 0.871439 -0.016658 0.408363
-11.282971 -9.950848 -0.125975 1017 0.834540 -0.048919 0.474464
-11.286420 -9.953862 -0.121384 965 0.784922 -0.092294 0.540522
-11.289536 -9.956586 -0.116787 905 0.740079 -0.131484 0.606665
-11.293855 -9.960369 -0.112202 817 0.677946 -0.185918 0.672637
-11.300145 -9.965901 -0.107626 643 0.587436 -0.265519 0.738478
-11.297877 -9.958386 -0.209364 763 0.620067 -0.157391 -0.725378
-11.291886 -9.953089 -0.204638 879 0.706268 -0.081165 -0.657378
-11.287827 -9.949482 -0.199951 963 0.764682 -0.029269 -0.589939
-11.284190 -9.946258 -0.195272 1017 0.817004 0.017125 -0.522615
-11.281882 -9.944194 -0.190617 1057 0.850211 0.046819 -0.455637
-11.280169 -9.942666 -0.185966 1081 0.874869 0.068802 -0.388716
-11.278470 -9.941139 -0.181326 1097 0.899308 0.090771 -0.321953
-11.276913 -9.939753 -0.176683 1125 0.921716 0.110722 -0.255147
-11.274924 -9.937980 -0.172045 1131 0.950326 0.136231 -0.188414
-11.274314 -9.937413 -0.167419 1123 0.959108 0.144382 -0.121852
-11.274645 -9.937675 -0.162807 1135 0.954347 0.140609 -0.055493
-11.274685 -9.937690 -0.158197 1129 0.953770 0.140403 0.010838
-11.274231 -9.937266 -0.153570 1137 0.960302 0.146495 0.077414
-11.274272 -9.937281 -0.148960 1123 0.959712 0.146290 0.143745
-11.275358 -9.938216 -0.144354 1119 0.944083 0.132828 0.210018
-11.276934 -9.939582 -0.139755 1121 0.921414 0.113178 0.276191
-11.278076 -9.940572 -0.135149 1107 0.904975 0.098935 0.342464
-11.279871 -9.942128 -0.130548 1081 0.879151 0.076541 0.408666
-11.282556 -9.944463 -0.125952 1053 0.840523 0.042950 0.474795
-11.285000 -9.946599 -0.121359 1017 0.805354 0.012213 0.540881
-11.287890 -9.949125 -0.116762 973 0.763763 -0.024137 0.607025
-11.291833 -9.952578 -0.112181 905 0.707036 -0.073810 0.672939
-11.297043 -9.957139 -0.107601 805 0.632073 -0.139442 0.738838
-11.303835 -9.963102 -0.103022 591 0.534346 -0.225246 0.804723
-11.297411 -9.951724 -0.209324 851 0.626777 -0.061529 -0.724802
-11.291690 -9.946669 -0.204607 941 0.709095 0.011211 -0.656932
-11.288060 -9.943451 -0.199928 1003 0.761320 0.057509 -0.589608
-11.284863 -9.940608 -0.195255 1047 0.807316 0.098414 -0.522370
-11.282880 -9.938840 -0.190607 1089 0.835858 0.123854 -0.455493
-11.281067 -9.937214 -0.185957 1111 0.861943 0.147250 -0.388586
-11.278592 -9.935009 -0.181301 1117 0.897552 0.178975 -0.321593
-11.276871 -9.933474 -0.176662 1137 0.922320 0.201067 -0.254845
-11.275598 -9.932329 -0.172029 1151 0.940638 0.217534 -0.188183
-11.275213 -9.931962 -0.167412 1149 0.946168 0.222817 -0.121752
-11.275261 -9.931983 -0.162790 1151 0.945482 0.222515 -0.055248
-11.275683 -9.932338 -0.158190 1151 0.939404 0.217410 0.010939
-11.275674 -9.932302 -0.153568 1159 0.939541 0.217918 0.077443
-11.275764 -9.932367 -0.148958 1145 0.938237 0.216985 0.143773
-11.276802 -9.933251 -0.144352 1155 0.923308 0.204265 0.210047
-11.277619 -9.933946 -0.139748 1139 0.911548 0.194275 0.276291
-11.278913 -9.935071 -0.135141 1143 0.892941 0.178083 0.342579
-11.280105 -9.936097 -0.130545 1111 0.875789 0.163318 0.408709
-11.281687 -9.937456 -0.125935 1075 0.853024 0.143765 0.475040
-11.284145 -9.939606 -0.121342 1041 0.817649 0.112835 0.541126
-11.287205 -9.942273 -0.116755 1011 0.773629 0.074455 0.607126
-11.291912 -9.946404 -0.112177 955 0.705897 0.015012 0.672996
-11.297001 -9.950860 -0.107588 883 0.632677 -0.049097 0.739025
-11.302804 -9.955946 -0.103014 743 0.549179 -0.122276 0.804838
-11.303205 -9.950601 -0.214008 813 0.543416 -0.045365 -0.792198
-11.296656 -9.944817 -0.209276 923 0.637644 0.037859 -0.724112
-11.291541 -9.940283 -0.204565 977 0.711235 0.103093 -0.656327
-11.288358 -9.937455 -0.199894 1037 0.757039 0.143778 -0.589119
-11.285152 -9.934618 -0.195232 1079 0.803158 0.184601 -0.522040
-11.282131 -9.931939 -0.190559 1105 0.846630 0.223146 -0.454802
-11.280475 -9.930453 -0.185919 1137 0.870465 0.244525 -0.388040
-11.279377 -9.929458 -0.181295 1147 0.886258 0.258851 -0.321507
-11.278483 -9.928651 -0.176661 1165 0.899116 0.270459 -0.254831
-11.277980 -9.928192 -0.172043 1187 0.906361 0.277060 -0.188385
-11.277038 -9.927337 -0.167408 1173 0.919918 0.289368 -0.121694
-11.275600 -9.926044 -0.162777 1157 0.940597 0.307961 -0.055061
-11.275867 -9.926256 -0.158165 1171 0.936755 0.304915 0.011299
-11.276679 -9.926943 -0.153561 1179 0.925078 0.295035 0.077543
-11.277051 -9.927247 -0.148958 1165 0.919726 0.290658 0.143773
-11.278414 -9.928430 -0.144361 1175 0.900118 0.273643 0.209917
-11.279224 -9.929116 -0.139746 1169 0.888454 0.263763 0.276320
-11.279372 -9.929222 -0.135136 1157 0.886327 0.262240 0.342651
-11.280678 -9.930347 -0.130539 1133 0.867542 0.246048 0.408795
-11.283357 -9.932691 -0.125942 1119 0.828997 0.212333 0.474939
-11.285920 -9.934918 -0.121349 1083 0.792112 0.180279 0.541025
-11.287990 -9.936723 -0.116756 1043 0.762336 0.154317 0.607112
-11.291602 -9.939870 -0.112165 993 0.710357 0.109034 0.673169
-11.296195 -9.943902 -0.107580 927 0.644272 0.051018 0.739140
-11.300965 -9.948069 -0.102993 825 0.575635 -0.008933 0.805140
-11.308359 -9.954561 -0.098421 643 0.469249 -0.102352 0.870925
-11.302887 -9.944540 -0.213976 873 0.547985 0.041838 -0.791737
-11.297207 -9.939527 -0.209257 959 0.629713 0.113974 -0.723838
-11.292750 -9.935580 -0.204563 1009 0.693836 0.170756 -0.656299
-11.289731 -9.932899 -0.199890 1065 0.737279 0.209328 -0.589061
-11.287197 -9.930651 -0.195234 1103 0.773739 0.241684 -0.522068
-11.284825 -9.928538 -0.190578 1125 0.807865 0.272078 -0.455075
-11.283225 -9.927109 -0.185938 1135 0.830890 0.292648 -0.388313
-11.281180 -9.925292 -0.181290 1165 0.860310 0.318788 -0.321435
-11.279695 -9.923963 -0.176659 1171 0.881689 0.337916 -0.254802
-11.278809 -9.923151 -0.172033 1179 0.894437 0.349594 -0.188241
-11.277915 -9.922345 -0.167408 1173 0.907294 0.361189 -0.121694
-11.277517 -9.921978 -0.162790 1181 0.913016 0.366472 -0.055248
-11.277953 -9.922333 -0.158178 1197 0.906745 0.361367 0.011112
-11.278327 -9.922637 -0.153566 1197 0.901366 0.356990 0.077471
-11.278148 -9.922461 -0.148956 1187 0.903946 0.359528 0.143802
-11.279122 -9.923296 -0.144352 1181 0.889922 0.347508 0.210047
-11.279883 -9.923933 -0.139748 1175 0.878972 0.338342 0.276291
-11.279861 -9.923898 -0.135128 1149 0.879288 0.338849 0.342766
-11.281110 -9.924967 -0.130529 1139 0.861326 0.323467 0.408939
-11.283406 -9.926969 -0.125937 1133 0.828283 0.294665 0.475011
-11.285914 -9.929155 -0.121344 1117 0.792195 0.263200 0.541097
-11.288591 -9.931483 -0.116747 1073 0.753677 0.229705 0.607241
-11.291990 -9.934447 -0.112158 1021 0.704772 0.187057 0.673270
-11.296140 -9.938075 -0.107574 971 0.645068 0.134859 0.739227
-11.301567 -9.942828 -0.102995 883 0.566977 0.066469 0.805112
-11.307921 -9.948395 -0.098417 747 0.475547 -0.013626 0.870982
-11.303319 -9.939046 -0.213947 899 0.541769 0.120890 -0.791320
-11.298311 -9.934618 -0.209246 987 0.613823 0.184601 -0.723680
-11.294618 -9.931352 -0.204557 1035 0.666968 0.231599 -0.656212
-11.290933 -9.928092 -0.199879 1077 0.719990 0.278500 -0.588903
-11.287960 -9.925447 -0.195215 1111 0.762761 0.316551 -0.521795
-11.285809 -9.923538 -0.190567 1131 0.793718 0.344023 -0.454917
-11.284096 -9.922011 -0.185928 1149 0.818362 0.365991 -0.388169
-11.282609 -9.920682 -0.181286 1173 0.839755 0.385120 -0.321378
-11.281335 -9.919537 -0.176653 1189 0.858087 0.401600 -0.254716
-11.280888 -9.919121 -0.172035 1203 0.864523 0.407583 -0.188270
-11.280002 -9.918307 -0.167412 1197 0.877271 0.419287 -0.121752
-11.279385 -9.917750 -0.162794 1199 0.886149 0.427301 -0.055306
-11.279489 -9.917814 -0.158184 1219 0.884653 0.426382 0.011025
-11.279466 -9.917780 -0.153564 1219 0.884982 0.426876 0.077500
-11.280170 -9.918373 -0.148960 1195 0.874842 0.418341 0.143745
-11.280827 -9.918920 -0.144358 1185 0.865401 0.410478 0.209961
-11.281305 -9.919315 -0.139744 1175 0.858513 0.404783 0.276349
-11.282505 -9.920349 -0.135147 1165 0.841251 0.389909 0.342493
-11.284412 -9.922005 -0.130556 1169 0.813807 0.366087 0.408550
-11.286263 -9.923617 -0.125956 1153 0.787172 0.342884 0.474737
-11.288057 -9.925161 -0.121355 1125 0.761361 0.320668 0.540939
-11.290734 -9.927503 -0.116760 1099 0.722844 0.286981 0.607054
-11.293632 -9.930020 -0.112175 1049 0.681157 0.250755 0.673025
-11.297298 -9.933224 -0.107584 1005 0.628396 0.204663 0.739083
-11.302062 -9.937385 -0.102997 921 0.559855 0.144794 0.805083
-11.308360 -9.942908 -0.098421 795 0.469235 0.065316 0.870925
-11.304096 -9.933601 -0.213930 917 0.530586 0.199229 -0.791075
-11.299472 -9.929514 -0.209227 983 0.597124 0.258041 -0.723406
-11.296119 -9.926543 -0.204556 1053 0.645370 0.300785 -0.656198
-11.293196 -9.923964 -0.199892 1083 0.687428 0.337903 -0.589090
-11.290605 -9.921658 -0.195227 1121 0.724710 0.371082 -0.521968
-11.287853 -9.919218 -0.190573 1143 0.764298 0.406183 -0.455004
-11.285587 -9.917210 -0.185926 1155 0.796901 0.435081 -0.388140
-11.284038 -9.915817 -0.181284 1179 0.819199 0.455115 -0.321349
-11.282884 -9.914778 -0.176651 1197 0.835803 0.470072 -0.254687
-11.283151 -9.914992 -0.172050 1221 0.831961 0.466985 -0.188486
-11.282859 -9.914716 -0.167431 1215 0.836160 0.470964 -0.122025
-11.281860 -9.913819 -0.162807 1207 0.850527 0.483863 -0.055493
-11.281143 -9.913160 -0.158182 1201 0.860845 0.493345 0.011054
-11.280851 -9.912885 -0.153563 1205 0.865044 0.497310 0.077515
-11.281558 -9.913482 -0.148960 1195 0.854876 0.488720 0.143745
-11.282368 -9.914167 -0.144354 1181 0.843226 0.478854 0.210018
-11.283342 -9.915004 -0.139759 1193 0.829203 0.466820 0.276133
-11.284705 -9.916171 -0.135162 1191 0.809594 0.450025 0.342277
-11.286456 -9.917684 -0.130562 1173 0.784401 0.428262 0.408464
-11.288357 -9.919333 -0.125961 1161 0.757053 0.404523 0.474665
-11.289882 -9.920648 -0.121363 1123 0.735111 0.385614 0.540824
-11.292334 -9.922779 -0.116768 1115 0.699832 0.354945 0.606939
-11.295181 -9.925262 -0.112173 1061 0.658859 0.319213 0.673054
-11.299174 -9.928749 -0.107590 1011 0.601405 0.269046 0.738997
-11.303830 -9.932816 -0.103003 943 0.534414 0.210536 0.804996
-11.309203 -9.937512 -0.098423 841 0.457105 0.142955 0.870896
-11.305525 -9.928864 -0.213928 935 0.510031 0.267399 -0.791047
-11.301678 -9.925455 -0.209240 1007 0.565385 0.316441 -0.723594
-11.297383 -9.921658 -0.204544 1051 0.627175 0.371082 -0.656025
-11.293684 -9.918398 -0.199865 1099 0.680402 0.417984 -0.588701
-11.291871 -9.916771 -0.195227 1125 0.706487 0.441393 -0.521968
-11.290546 -9.915591 -0.190584 1161 0.725547 0.458367 -0.455162
-11.288565 -9.913823 -0.185946 1181 0.754061 0.483808 -0.388428
-11.286521 -9.912006 -0.181297 1201 0.783467 0.509948 -0.321536
-11.285741 -9.911300 -0.176670 1199 0.794692 0.520116 -0.254960
-11.284904 -9.910550 -0.172047 1203 0.806740 0.530902 -0.188442
-11.284295 -9.909985 -0.167429 1213 0.815494 0.539039 -0.121996
-11.284066 -9.909759 -0.162811 1231 0.818788 0.542291 -0.055550
-11.284000 -9.909682 -0.158201 1227 0.819735 0.543389 0.010781
-11.284543 -9.910130 -0.153599 1229 0.811927 0.536953 0.076997
-11.284471 -9.910045 -0.148979 1225 0.812970 0.538174 0.143471
-11.285444 -9.910880 -0.144382 1211 0.798960 0.526154 0.209615
-11.285987 -9.911326 -0.139771 1201 0.791152 0.519732 0.275961
-11.285914 -9.911242 -0.135160 1193 0.792195 0.520953 0.342306
-11.287553 -9.912657 -0.130562 1171 0.768620 0.500590 0.408464
-11.289729 -9.914554 -0.125969 1163 0.737307 0.473297 0.474551
-11.291741 -9.916301 -0.121378 1139 0.708354 0.448158 0.540608
-11.294044 -9.918295 -0.116774 1111 0.675229 0.419466 0.606853
-11.296942 -9.920814 -0.112188 1067 0.633528 0.383226 0.672838
-11.301105 -9.924442 -0.107605 1025 0.573632 0.331014 0.738781
-11.304992 -9.927838 -0.103012 973 0.517701 0.282150 0.804867
-11.309917 -9.932145 -0.098425 871 0.446827 0.220182 0.870867
-11.318987 -9.940074 -0.093863 713 0.316332 0.106098 0.936507
-11.307853 -9.924784 -0.213932 949 0.476535 0.326102 -0.791104
-11.303552 -9.920993 -0.209236 1009 0.538421 0.380646 -0.723536
-11.299421 -9.917344 -0.204550 1057 0.597851 0.433147 -0.656111
-11.295792 -9.914127 -0.199871 1095 0.650077 0.479431 -0.588788
-11.293243 -9.911879 -0.195215 1117 0.686742 0.511787 -0.521795
-11.291813 -9.910591 -0.190582 1159 0.707324 0.530312 -0.455133
-11.290377 -9.909312 -0.185942 1183 0.727990 0.548713 -0.388370
-11.288996 -9.908075 -0.181309 1197 0.747859 0.566510 -0.321709
-11.288217 -9.907370 -0.176683 1205 0.759070 0.576664 -0.255147
-11.287663 -9.906860 -0.172068 1225 0.767029 0.583992 -0.188745
-11.287215 -9.906443 -0.167450 1237 0.773478 0.590002 -0.122298
-11.286980 -9.906209 -0.162830 1247 0.776867 0.593364 -0.055824
-11.286582 -9.905843 -0.158213 1231 0.782589 0.598633 0.010608
-11.286686 -9.905907 -0.153603 1235 0.781094 0.597714 0.076939
-11.287661 -9.906743 -0.148996 1243 0.767070 0.585680 0.143227
-11.287927 -9.906956 -0.144396 1215 0.763241 0.582620 0.209414
-11.288122 -9.907098 -0.139784 1193 0.760428 0.580575 0.275774
-11.289768 -9.908521 -0.135185 1195 0.736744 0.560102 0.341946
-11.291181 -9.909738 -0.130587 1185 0.716422 0.542593 0.408104
-11.291991 -9.910423 -0.125982 1153 0.704758 0.532727 0.474363
-11.293566 -9.911789 -0.121384 1137 0.682104 0.513077 0.540522
-11.295466 -9.913437 -0.116783 1109 0.654756 0.489365 0.606723
-11.298428 -9.916006 -0.112196 1065 0.612149 0.452398 0.672723
-11.302590 -9.919635 -0.107613 1027 0.552253 0.400186 0.738666
-11.306540 -9.923079 -0.103020 977 0.495430 0.350637 0.804752
-11.311686 -9.927578 -0.098440 875 0.421387 0.285896 0.870651
-11.319426 -9.934346 -0.093866 743 0.310020 0.188512 0.936464
-11.310335 -9.920845 -0.213943 955 0.440817 0.382773 -0.791263
-11.305313 -9.916419 -0.209232 1009 0.513077 0.446457 -0.723478
-11.302398 -9.913845 -0.204569 1051 0.555025 0.483492 -0.656385
-11.300028 -9.911731 -0.199913 1101 0.589124 0.513914 -0.589392
-11.296999 -9.909057 -0.195250 1137 0.632705 0.552390 -0.522299
-11.295399 -9.907629 -0.190609 1173 0.655730 0.572932 -0.455521
-11.294400 -9.906732 -0.185974 1187 0.670097 0.585844 -0.388831
-11.292907 -9.905396 -0.181343 1201 0.691585 0.605055 -0.322198
-11.291080 -9.903769 -0.176704 1209 0.717863 0.628478 -0.255450
-11.289968 -9.902773 -0.172070 1229 0.733876 0.642804 -0.188773
-11.289414 -9.902264 -0.167454 1243 0.741835 0.650131 -0.122356
-11.289073 -9.901939 -0.162836 1239 0.746748 0.654797 -0.055910
-11.288726 -9.901622 -0.158218 1249 0.751742 0.659366 0.010536
-11.288886 -9.901729 -0.153616 1245 0.749437 0.657829 0.076752
-11.289754 -9.902472 -0.149012 1231 0.736950 0.647140 0.142996
-11.290232 -9.902867 -0.144400 1201 0.730075 0.641445 0.209356
-11.291101 -9.903613 -0.139805 1197 0.717561 0.630715 0.275471
-11.292577 -9.904879 -0.135206 1201 0.696333 0.612506 0.341644
-11.293940 -9.906046 -0.130608 1185 0.676725 0.595710 0.407802
-11.295018 -9.906973 -0.126001 1155 0.661205 0.582373 0.474090
-11.296431 -9.908190 -0.121393 1131 0.640883 0.564863 0.540392
-11.298945 -9.910368 -0.116810 1103 0.604698 0.533522 0.606335
-11.301893 -9.912938 -0.112213 1079 0.562284 0.496542 0.672478
-11.305454 -9.916036 -0.107622 1043 0.511046 0.451973 0.738536
-11.309625 -9.919671 -0.103039 985 0.451040 0.399665 0.804479
-11.315159 -9.924502 -0.098457 901 0.371412 0.330150 0.870407
-11.322028 -9.930501 -0.093880 757 0.272572 0.243839 0.936263
-11.313737 -9.917840 -0.213970 971 0.391871 0.426011 -0.791651
-11.308722 -9.913422 -0.209259 1015 0.464035 0.489585 -0.723867
-11.305531 -9.910599 -0.204588 1063 0.509948 0.530202 -0.656658
-11.302942 -9.908309 -0.199932 1097 0.547190 0.563148 -0.589665
-11.300132 -9.905812 -0.195269 1131 0.587628 0.599072 -0.522572
-11.298468 -9.904334 -0.190628 1171 0.611573 0.620341 -0.455795
-11.296925 -9.902964 -0.185986 1185 0.633775 0.640060 -0.389004
-11.294823 -9.901090 -0.181349 1199 0.664018 0.667023 -0.322284
-11.293612 -9.900009 -0.176716 1215 0.681445 0.682570 -0.255622
-11.293271 -9.899683 -0.172098 1233 0.686344 0.687263 -0.189176
-11.292816 -9.899260 -0.167480 1233 0.692889 0.693356 -0.122730
-11.292362 -9.898849 -0.162863 1237 0.699421 0.699270 -0.056299
-11.292304 -9.898767 -0.158253 1241 0.700258 0.700436 0.010032
-11.293008 -9.899361 -0.153648 1247 0.690131 0.691901 0.076291
-11.292943 -9.899283 -0.149029 1235 0.691064 0.693012 0.142752
-11.293097 -9.899397 -0.144419 1215 0.688855 0.691380 0.209083
-11.294565 -9.900657 -0.139820 1221 0.667723 0.673253 0.275256
-11.295377 -9.901344 -0.135216 1195 0.656046 0.663359 0.341500
-11.296350 -9.902180 -0.130621 1171 0.642049 0.651339 0.407615
-11.297494 -9.903155 -0.126015 1151 0.625583 0.637301 0.473889
-11.298679 -9.904174 -0.121407 1133 0.608527 0.622646 0.540191
-11.301421 -9.906550 -0.116821 1105 0.569076 0.588451 0.606176
-11.305429 -9.910039 -0.112240 1083 0.511403 0.538257 0.672090
-11.308374 -9.912607 -0.107643 1041 0.469029 0.501303 0.738234
-11.312424 -9.916136 -0.103060 979 0.410766 0.450532 0.804176
-11.317917 -9.920925 -0.098478 893 0.331728 0.381621 0.870104
-11.324341 -9.926534 -0.093903 739 0.239297 0.300922 0.935932
-11.317322 -9.914977 -0.213997 971 0.340290 0.467204 -0.792040
-11.313127 -9.911279 -0.209311 1033 0.400653 0.520418 -0.724615
-11.309152 -9.907785 -0.204622 1063 0.457846 0.570681 -0.657147
-11.306018 -9.905006 -0.199951 1087 0.502936 0.610667 -0.589939
-11.303314 -9.902617 -0.195295 1133 0.541838 0.645041 -0.522946
-11.301431 -9.900948 -0.190647 1173 0.568939 0.669068 -0.456068
-11.299774 -9.899477 -0.186007 1197 0.592774 0.690227 -0.389306
-11.298338 -9.898198 -0.181374 1207 0.613439 0.708628 -0.322644
-11.297127 -9.897102 -0.176741 1209 0.630866 0.724395 -0.255982
-11.296234 -9.896297 -0.172117 1217 0.643710 0.735976 -0.189450
-11.295892 -9.895986 -0.167498 1233 0.648636 0.740463 -0.122989
-11.295162 -9.895314 -0.162882 1229 0.659133 0.750123 -0.056572
-11.294941 -9.895096 -0.158264 1233 0.662317 0.753266 0.009874
-11.295363 -9.895451 -0.153652 1231 0.656238 0.748161 0.076234
-11.296288 -9.896237 -0.149055 1221 0.642941 0.736840 0.142378
-11.296661 -9.896542 -0.144444 1211 0.637562 0.732463 0.208723
-11.296814 -9.896655 -0.139833 1203 0.635367 0.730830 0.275068
-11.298120 -9.897766 -0.135237 1191 0.616581 0.714844 0.341198
-11.299313 -9.898792 -0.130640 1173 0.599415 0.700079 0.407342
-11.300508 -9.899818 -0.126032 1151 0.582222 0.685314 0.473644
-11.303191 -9.902138 -0.121447 1129 0.543608 0.651943 0.539615
-11.306046 -9.904613 -0.116852 1103 0.502538 0.616334 0.605730
-11.308722 -9.906942 -0.112257 1075 0.464035 0.582812 0.671845
-11.311953 -9.909750 -0.107668 1023 0.417545 0.542414 0.737874
-11.315564 -9.912884 -0.103077 971 0.365580 0.497324 0.803932
-11.320611 -9.917284 -0.098499 879 0.292963 0.434011 0.869802
-11.328358 -9.924046 -0.093925 739 0.181500 0.336722 0.935615
-11.321388 -9.912440 -0.214039 969 0.281780 0.503705 -0.792644
-11.316875 -9.908464 -0.209335 1021 0.346712 0.560911 -0.724960
-11.313183 -9.905197 -0.204657 1049 0.399843 0.607923 -0.657651
-11.309864 -9.902278 -0.199986 1091 0.447596 0.649926 -0.590442
-11.307387 -9.900086 -0.195330 1131 0.483232 0.681459 -0.523449
-11.305399 -9.898325 -0.190681 1173 0.511842 0.706803 -0.456557
-11.303523 -9.896649 -0.186041 1189 0.538833 0.730912 -0.389795
-11.301421 -9.894791 -0.181393 1189 0.569076 0.757657 -0.322917
-11.299821 -9.893363 -0.176752 1195 0.592101 0.778198 -0.256140
-11.299205 -9.892803 -0.172136 1209 0.600966 0.786253 -0.189723
-11.299195 -9.892769 -0.167526 1235 0.601103 0.786747 -0.123392
-11.299016 -9.892592 -0.162907 1217 0.603683 0.789286 -0.056932
-11.299170 -9.892707 -0.158297 1215 0.601473 0.787639 0.009399
-11.298503 -9.892098 -0.153681 1211 0.611065 0.796394 0.075817
-11.298488 -9.892057 -0.149061 1207 0.611285 0.796984 0.142292
-11.299186 -9.892645 -0.144457 1197 0.601240 0.788531 0.208536
-11.299786 -9.893148 -0.139853 1179 0.592609 0.781286 0.274781
-11.301692 -9.894804 -0.135262 1201 0.565179 0.757464 0.340838
-11.302496 -9.895483 -0.130657 1167 0.553611 0.747694 0.407097
-11.304636 -9.897329 -0.126066 1149 0.522819 0.721129 0.473155
-11.307647 -9.899946 -0.121479 1141 0.479499 0.683476 0.539155
-11.310331 -9.902267 -0.116884 1115 0.440872 0.650077 0.605270
-11.312564 -9.904206 -0.112291 1067 0.408749 0.622180 0.671356
-11.315192 -9.906484 -0.107687 1007 0.370931 0.589412 0.737601
-11.320025 -9.910685 -0.103109 953 0.301389 0.528967 0.803471
-11.325511 -9.915467 -0.098528 859 0.222460 0.460151 0.869385
-11.334311 -9.923141 -0.093967 697 0.095848 0.349745 0.935011
-11.325858 -9.910234 -0.214081 959 0.217465 0.535444 -0.793248
-11.321005 -9.905962 -0.209379 1001 0.287296 0.596918 -0.725594
-11.316704 -9.902172 -0.204683 1043 0.349182 0.651449 -0.658025
-11.313669 -9.899492 -0.200020 1081 0.392845 0.690007 -0.590932
-11.311071 -9.897208 -0.195354 1117 0.430224 0.722871 -0.523795
-11.308871 -9.895249 -0.190708 1145 0.461880 0.751056 -0.456946
-11.306818 -9.893440 -0.186060 1167 0.491424 0.777087 -0.390068
-11.305325 -9.892104 -0.181427 1187 0.512912 0.796311 -0.323406
-11.304382 -9.891263 -0.176794 1183 0.526469 0.808414 -0.256745
-11.303157 -9.890167 -0.172171 1197 0.544102 0.824180 -0.190227
-11.302986 -9.889984 -0.167551 1205 0.546558 0.826815 -0.123752
-11.303083 -9.890056 -0.162941 1207 0.545159 0.825786 -0.057421
-11.302855 -9.889831 -0.158321 1211 0.548452 0.829024 0.009054
-11.302456 -9.889462 -0.153704 1211 0.554188 0.834321 0.075486
-11.302561 -9.889526 -0.149094 1199 0.552678 0.833402 0.141817
-11.302876 -9.889775 -0.144493 1195 0.548136 0.829820 0.208018
-11.303292 -9.890121 -0.139879 1177 0.542154 0.824839 0.274406
-11.304938 -9.891530 -0.135281 1175 0.518470 0.804572 0.340565
-11.306582 -9.892952 -0.130692 1163 0.494813 0.784112 0.406594
-11.308490 -9.894593 -0.126091 1143 0.467369 0.760497 0.472795
-11.310900 -9.896681 -0.121496 1115 0.432694 0.730460 0.538910
-11.313521 -9.898952 -0.116901 1101 0.394972 0.697788 0.605025
-11.316531 -9.901568 -0.112314 1059 0.351666 0.660135 0.671025
-11.319767 -9.904369 -0.107727 1017 0.305107 0.619833 0.737025
-11.323717 -9.907801 -0.103134 943 0.248271 0.570462 0.803112
-11.329258 -9.912625 -0.098553 843 0.168546 0.501043 0.869025
-11.336412 -9.918863 -0.093973 669 0.065605 0.411287 0.934924
-11.331034 -9.908764 -0.214138 949 0.142996 0.556603 -0.794068
-11.325623 -9.904018 -0.209419 991 0.220855 0.624883 -0.726169
-11.321598 -9.900476 -0.204731 1037 0.278761 0.675846 -0.658716
-11.319057 -9.898234 -0.200075 1083 0.315316 0.708107 -0.591723
-11.315745 -9.895308 -0.195404 1111 0.362973 0.750219 -0.524514
-11.312435 -9.892393 -0.190733 1131 0.410601 0.792153 -0.457306
-11.310721 -9.890866 -0.186092 1147 0.435260 0.814122 -0.390529
-11.310056 -9.890259 -0.181467 1173 0.444838 0.822863 -0.323982
-11.308781 -9.889128 -0.176834 1185 0.463184 0.839137 -0.257320
-11.307443 -9.887934 -0.172201 1191 0.482436 0.856317 -0.190658
-11.306161 -9.886796 -0.167580 1189 0.500878 0.872687 -0.124169
-11.305493 -9.886188 -0.162952 1179 0.510483 0.881442 -0.057579
-11.305485 -9.886153 -0.158342 1183 0.510607 0.881936 0.008752
-11.305816 -9.886415 -0.153730 1193 0.505845 0.878176 0.075112
-11.307065 -9.887484 -0.149134 1197 0.487870 0.862794 0.141241
-11.307707 -9.888029 -0.144531 1205 0.478635 0.854945 0.207471
-11.308080 -9.888333 -0.139919 1181 0.473269 0.850568 0.273831
-11.308672 -9.888829 -0.135315 1171 0.464748 0.843432 0.340076
-11.310423 -9.890329 -0.130716 1137 0.439555 0.821848 0.406248
-11.313278 -9.892805 -0.126129 1129 0.398471 0.786226 0.472248
-11.315121 -9.894398 -0.121529 1121 0.371960 0.763310 0.538435
-11.317431 -9.896386 -0.116936 1093 0.338712 0.734700 0.604522
-11.320279 -9.898854 -0.112339 1053 0.297738 0.699187 0.670666
-11.324010 -9.902094 -0.107748 993 0.244058 0.652574 0.736723
-11.328950 -9.906388 -0.103170 923 0.172979 0.590784 0.802594
-11.335093 -9.911742 -0.098597 807 0.084596 0.513749 0.868392
-11.342960 -9.918596 -0.094021 583 -0.028610 0.415130 0.934234
-11.336648 -9.907804 -0.214201 917 0.062215 0.570421 -0.794975
-11.330303 -9.902238 -0.209467 977 0.153507 0.650502 -0.726860
-11.325218 -9.897776 -0.204765 1011 0.226673 0.714707 -0.659205
-11.321583 -9.894565 -0.200087 1055 0.278981 0.760909 -0.591896
-11.319424 -9.892663 -0.195438 1089 0.310047 0.788270 -0.525003
-11.317433 -9.890903 -0.190790 1119 0.338685 0.813587 -0.458126
-11.315331 -9.889042 -0.186142 1135 0.368928 0.840372 -0.391248
-11.313449 -9.887374 -0.181492 1157 0.396015 0.864372 -0.324342
-11.311681 -9.885805 -0.176853 1171 0.421455 0.886945 -0.257593
-11.310844 -9.885042 -0.172228 1173 0.433490 0.897922 -0.191047
-11.310341 -9.884583 -0.167610 1179 0.440735 0.904522 -0.124601
-11.310445 -9.884647 -0.163000 1183 0.439239 0.903603 -0.058270
-11.311092 -9.885200 -0.158396 1191 0.429922 0.895658 0.007975
-11.310858 -9.884967 -0.153778 1195 0.433297 0.899006 0.074421
-11.310848 -9.884932 -0.149158 1181 0.433435 0.899514 0.140896
-11.311773 -9.885717 -0.144564 1177 0.420124 0.888207 0.206996
-11.312422 -9.886270 -0.139950 1157 0.410794 0.880262 0.273385
-11.313339 -9.887048 -0.135344 1145 0.397593 0.869065 0.339658
-11.315584 -9.888987 -0.130751 1141 0.365292 0.841168 0.405745
-11.317393 -9.890542 -0.126162 1107 0.339261 0.818788 0.471774
-11.318529 -9.891513 -0.121555 1085 0.322918 0.804819 0.538061
-11.320832 -9.893494 -0.116951 1041 0.289780 0.776318 0.604306
-11.324677 -9.896832 -0.112370 1013 0.234453 0.728278 0.670219
-11.329002 -9.900596 -0.107786 951 0.172224 0.674131 0.736176
-11.333723 -9.904698 -0.103199 861 0.104300 0.615099 0.802176
-11.340771 -9.910830 -0.098629 753 0.002895 0.526881 0.867932
-11.341365 -9.906299 -0.214258 839 -0.005653 0.592074 -0.795795
-11.335459 -9.901114 -0.209532 941 0.079326 0.666666 -0.727795
-11.330606 -9.896857 -0.204828 983 0.149144 0.727921 -0.660111
-11.326688 -9.893406 -0.200142 1023 0.205527 0.777581 -0.592687
-11.323702 -9.890775 -0.195478 1071 0.248490 0.815440 -0.525579
-11.321881 -9.889156 -0.190828 1105 0.274686 0.838726 -0.458673
-11.319716 -9.887247 -0.186180 1115 0.305834 0.866197 -0.391795
-11.318668 -9.886313 -0.181547 1139 0.320915 0.879631 -0.325133
-11.317669 -9.885416 -0.176922 1161 0.335295 0.892543 -0.258586
-11.315999 -9.883932 -0.172281 1171 0.359323 0.913894 -0.191809
-11.315276 -9.883282 -0.167656 1171 0.369724 0.923253 -0.125263
-11.314715 -9.882767 -0.163040 1173 0.377792 0.930663 -0.058845
-11.313822 -9.881961 -0.158415 1163 0.390650 0.942258 0.007701
-11.314146 -9.882215 -0.153803 1161 0.385984 0.938608 0.074061
-11.315784 -9.883632 -0.149204 1183 0.362410 0.918217 0.140234
-11.316659 -9.884367 -0.144598 1175 0.349827 0.907637 0.206507
-11.316586 -9.884283 -0.139990 1159 0.350884 0.908845 0.272809
-11.317674 -9.885203 -0.135384 1147 0.335227 0.895603 0.339083
-11.319595 -9.886859 -0.130783 1131 0.307577 0.871782 0.405284
-11.321609 -9.888606 -0.126190 1097 0.278610 0.846643 0.471370
-11.323296 -9.890057 -0.121592 1063 0.254336 0.825772 0.537529
-11.325542 -9.891995 -0.116989 1045 0.222007 0.797876 0.603759
-11.328892 -9.894896 -0.112400 993 0.173816 0.756147 0.669788
-11.333563 -9.898949 -0.107824 931 0.106606 0.697829 0.735630
-11.339500 -9.904112 -0.103241 839 0.021173 0.623538 0.801572
-11.345720 -9.909515 -0.098665 683 -0.068322 0.545790 0.867414
-11.347975 -9.906079 -0.214336 743 -0.100760 0.595230 -0.796917
-11.341017 -9.899983 -0.209597 879 -0.000645 0.682941 -0.728730
-11.335881 -9.895486 -0.204885 935 0.073248 0.747653 -0.660932
-11.331800 -9.891901 -0.200199 1001 0.131964 0.799234 -0.593507
-11.328871 -9.889312 -0.195524 1055 0.174118 0.836489 -0.526241
-11.326435 -9.887162 -0.190868 1085 0.209163 0.867418 -0.459248
-11.324001 -9.885015 -0.186222 1107 0.244182 0.898320 -0.392399
-11.323003 -9.884130 -0.181589 1139 0.258549 0.911054 -0.325737
-11.322555 -9.883714 -0.176960 1151 0.264998 0.917037 -0.259133
-11.320843 -9.882186 -0.172321 1155 0.289629 0.939019 -0.192385
-11.319829 -9.881289 -0.167696 1165 0.304215 0.951932 -0.125838
-11.319163 -9.880681 -0.163071 1169 0.313793 0.960672 -0.059291
-11.318822 -9.880356 -0.158453 1161 0.318706 0.965352 0.007155
-11.319202 -9.880669 -0.153839 1161 0.313231 0.960851 0.073543
-11.319737 -9.881107 -0.149237 1167 0.305533 0.954539 0.139759
-11.319998 -9.881312 -0.144627 1147 0.301786 0.951589 0.206090
-11.320320 -9.881568 -0.140015 1137 0.297148 0.947911 0.272450
-11.321400 -9.882495 -0.135408 1135 0.281615 0.934573 0.338737
-11.323038 -9.883896 -0.130808 1097 0.258041 0.914416 0.404925
-11.325788 -9.886281 -0.126223 1091 0.218481 0.880097 0.470896
-11.328301 -9.888446 -0.121630 1051 0.182310 0.848949 0.536982
-11.330662 -9.890483 -0.117025 1011 0.148348 0.819638 0.603241
-11.333899 -9.893284 -0.112438 945 0.101776 0.779337 0.669241
-11.338401 -9.897196 -0.107853 881 0.036994 0.723050 0.735212
-11.345058 -9.902982 -0.103285 781 -0.058798 0.639799 0.800939
-11.350006 -9.907282 -0.098696 517 -0.129988 0.577927 0.866968
-11.357295 -9.908104 -0.214460 519 -0.234865 0.566098 -0.798701
-11.349290 -9.901088 -0.209696 801 -0.119683 0.667051 -0.730155
-11.343554 -9.896060 -0.204979 895 -0.037145 0.739393 -0.662284
-11.339408 -9.892426 -0.200293 961 0.022504 0.791687 -0.594860
-11.336204 -9.889604 -0.195620 1023 0.068610 0.832290 -0.527622
-11.333224 -9.886981 -0.190947 1059 0.111477 0.870025 -0.460385
-11.330288 -9.884399 -0.186283 1089 0.153727 0.907171 -0.393277
-11.328016 -9.882399 -0.181637 1115 0.186412 0.935959 -0.326428
-11.326735 -9.881261 -0.177004 1123 0.204855 0.952330 -0.259766
-11.325403 -9.880072 -0.172361 1137 0.224011 0.969441 -0.192960
-11.325119 -9.879805 -0.167744 1149 0.228100 0.973283 -0.126529
-11.324841 -9.879529 -0.163124 1139 0.232106 0.977249 -0.060054
-11.325157 -9.879791 -0.158512 1145 0.227551 0.973475 0.006306
-11.325538 -9.880089 -0.153900 1155 0.222076 0.969194 0.072666
-11.324637 -9.879291 -0.149277 1147 0.235029 0.980679 0.139183
-11.324516 -9.879156 -0.144657 1127 0.236772 0.982614 0.205658
-11.325878 -9.880324 -0.140059 1125 0.217177 0.965805 0.271817
-11.327459 -9.881683 -0.135460 1103 0.194426 0.946251 0.337989
-11.329268 -9.883241 -0.130859 1083 0.168396 0.923843 0.404191
-11.331791 -9.885411 -0.126266 1063 0.132101 0.892612 0.470277
-11.333874 -9.887201 -0.121674 1019 0.102132 0.866856 0.536349
-11.336608 -9.889570 -0.117079 977 0.062792 0.832770 0.602464
-11.341061 -9.893435 -0.112494 923 -0.001276 0.777169 0.668435
-11.345725 -9.897479 -0.107906 833 -0.068390 0.718974 0.734450
-11.352278 -9.903174 -0.103331 671 -0.162674 0.637027 0.800277
-11.356883 -9.901854 -0.209799 643 -0.228937 0.656032 -0.731637
-11.350427 -9.896203 -0.205065 825 -0.136039 0.737334 -0.663521
-11.345235 -9.891648 -0.200354 917 -0.061337 0.802870 -0.595737
-11.341090 -9.888014 -0.195667 973 -0.001702 0.855165 -0.528298
-11.338267 -9.885532 -0.191004 1015 0.038915 0.890869 -0.461205
-11.336171 -9.883680 -0.186346 1057 0.069076 0.917517 -0.394183
-11.334232 -9.881968 -0.181705 1083 0.096973 0.942162 -0.327406
-11.332236 -9.880200 -0.177057 1089 0.125693 0.967588 -0.260529
-11.330898 -9.879005 -0.172415 1107 0.144945 0.984782 -0.193737
-11.330613 -9.878738 -0.167797 1117 0.149048 0.988624 -0.127291
-11.330392 -9.878519 -0.163177 1137 0.152231 0.991780 -0.060816
-11.329712 -9.877912 -0.158552 1123 0.162015 1.000521 0.005730
-11.329151 -9.877396 -0.153936 1107 0.170083 1.007945 0.072148
-11.329581 -9.877744 -0.149323 1119 0.163895 1.002936 0.138522
-11.330999 -9.878953 -0.144714 1109 0.143490 0.985537 0.204838
-11.332759 -9.880474 -0.140125 1089 0.118173 0.963650 0.270867
-11.333782 -9.881345 -0.135519 1075 0.103450 0.951122 0.337140
-11.334599 -9.882024 -0.130905 1049 0.091704 0.941352 0.403529
-11.336960 -9.884061 -0.126312 1023 0.057728 0.912042 0.469615
-11.340034 -9.886714 -0.121714 971 0.013502 0.873868 0.535773
-11.343269 -9.889516 -0.117126 933 -0.033056 0.833553 0.601788
-11.347786 -9.893428 -0.112541 863 -0.098043 0.777265 0.667759
-11.354112 -9.898924 -0.107965 737 -0.189061 0.698186 0.733601
-11.359591 -9.897959 -0.205181 673 -0.267893 0.712072 -0.665191
-11.352674 -9.891919 -0.200449 833 -0.168368 0.798973 -0.597104
-11.347645 -9.887512 -0.195738 901 -0.096012 0.862382 -0.529320
-11.345274 -9.885412 -0.191082 963 -0.061900 0.892598 -0.462327
-11.342676 -9.883128 -0.186426 1003 -0.024521 0.925462 -0.395334
-11.339684 -9.880506 -0.181753 1025 0.018538 0.963197 -0.328097
-11.337908 -9.878928 -0.177113 1047 0.044089 0.985893 -0.261334
-11.336343 -9.877550 -0.172472 1067 0.066606 1.005722 -0.194558
-11.336122 -9.877331 -0.167852 1069 0.069790 1.008878 -0.128083
-11.336502 -9.877644 -0.163240 1091 0.064315 1.004377 -0.061723
-11.335602 -9.876830 -0.158606 1079 0.077268 1.016082 0.004953
-11.335486 -9.876704 -0.153986 1079 0.078929 1.017893 0.071428
-11.336348 -9.877440 -0.149382 1077 0.066538 1.007300 0.137673
-11.337059 -9.878027 -0.144768 1067 0.056301 0.998861 0.204061
-11.337878 -9.878721 -0.140163 1053 0.044514 0.988871 0.270320
-11.339906 -9.880469 -0.135563 1027 0.015341 0.963719 0.336507
-11.342534 -9.882733 -0.130978 1011 -0.022477 0.931143 0.402478
-11.344666 -9.884572 -0.126375 981 -0.053145 0.904687 0.468709
-11.347309 -9.886850 -0.121780 935 -0.091182 0.871905 0.534824
-11.351648 -9.890598 -0.117197 881 -0.153617 0.817978 0.600766
-11.357049 -9.895282 -0.112616 761 -0.231324 0.750590 0.666680
-11.363995 -9.895548 -0.200592 637 -0.331261 0.746761 -0.599162
-11.357756 -9.890089 -0.195868 801 -0.241492 0.825306 -0.531191
-11.353215 -9.886114 -0.191174 891 -0.176162 0.882499 -0.463651
-11.350173 -9.883441 -0.186510 957 -0.132389 0.920961 -0.396543
-11.348014 -9.881538 -0.181852 995 -0.101323 0.948336 -0.329522
-11.346293 -9.880019 -0.177202 1017 -0.076568 0.970196 -0.262615
-11.344241 -9.878210 -0.172554 1025 -0.047039 0.996226 -0.195737
-11.342578 -9.876731 -0.167913 1041 -0.023108 1.017509 -0.128960
-11.341961 -9.876173 -0.163288 1047 -0.014230 1.025536 -0.062414
-11.342002 -9.876187 -0.158667 1053 -0.014820 1.025330 0.004076
-11.342325 -9.876443 -0.154057 1047 -0.019471 1.021653 0.070407
-11.343306 -9.877271 -0.149450 1047 -0.033578 1.009742 0.136694
-11.344124 -9.877965 -0.144836 1031 -0.045351 0.999753 0.203083
-11.344992 -9.878695 -0.140230 1005 -0.057838 0.989255 0.269356
-11.347075 -9.880485 -0.135630 979 -0.087820 0.963499 0.335543
-11.349209 -9.882324 -0.131027 949 -0.118516 0.937030 0.401773
-11.351519 -9.884312 -0.126434 915 -0.151751 0.908433 0.467860
-11.355088 -9.887403 -0.121843 857 -0.203112 0.863960 0.533917
-11.360262 -9.891874 -0.117266 763 -0.277554 0.799618 0.599773
-11.368172 -9.893407 -0.196003 551 -0.391363 0.777567 -0.533133
-11.363468 -9.889298 -0.191311 767 -0.323687 0.836681 -0.465622
-11.359159 -9.885514 -0.186615 867 -0.261691 0.891130 -0.398054
-11.355997 -9.882750 -0.181942 923 -0.216189 0.930910 -0.330817
-11.352841 -9.879977 -0.177280 949 -0.170783 0.970799 -0.263737
-11.350782 -9.878160 -0.172632 969 -0.141158 0.996940 -0.196860
-11.349720 -9.877213 -0.167988 995 -0.125871 1.010579 -0.130040
-11.349718 -9.877186 -0.163368 1005 -0.125844 1.010963 -0.063565
-11.350041 -9.877441 -0.158756 1013 -0.130496 1.007286 0.002795
-11.349092 -9.876594 -0.154121 1001 -0.116829 1.019485 0.069486
-11.349732 -9.877139 -0.149508 995 -0.126050 1.011636 0.135860
-11.350826 -9.878065 -0.144901 975 -0.141789 0.998312 0.202147
-11.351588 -9.878703 -0.140287 951 -0.152753 0.989132 0.268536
-11.354338 -9.881072 -0.135693 931 -0.192313 0.955047 0.334637
-11.357029 -9.883386 -0.131098 877 -0.231036 0.921757 0.400752
-11.360272 -9.886194 -0.126509 815 -0.277704 0.881346 0.466781
-11.365609 -9.890813 -0.121929 697 -0.354492 0.814891 0.532680
-11.367688 -9.887086 -0.186722 675 -0.384406 0.868516 -0.399593
-11.364914 -9.884654 -0.182047 799 -0.344489 0.903507 -0.332327
-11.362592 -9.882603 -0.177391 863 -0.311076 0.933023 -0.265334
-11.360427 -9.880693 -0.172743 911 -0.279927 0.960494 -0.198457
-11.358480 -9.878990 -0.168083 935 -0.251921 0.985002 -0.131406
-11.357482 -9.878092 -0.163450 939 -0.237554 0.997928 -0.064745
-11.357189 -9.877817 -0.158821 947 -0.233341 1.001879 0.001860
-11.357344 -9.877931 -0.154200 951 -0.235564 1.000247 0.068349
-11.357943 -9.878419 -0.149588 933 -0.244182 0.993221 0.134709
-11.358761 -9.879113 -0.144972 907 -0.255955 0.983231 0.201126
-11.360180 -9.880323 -0.140364 871 -0.276373 0.965818 0.267428
-11.363812 -9.883464 -0.135784 831 -0.328640 0.920632 0.333327
-11.367833 -9.886937 -0.131191 761 -0.386492 0.870657 0.399414
-11.371848 -9.890403 -0.126610 597 -0.444261 0.820791 0.465327
-11.372747 -9.885448 -0.177509 621 -0.457201 0.892077 -0.267032
-11.370693 -9.883637 -0.172861 737 -0.427644 0.918135 -0.200155
-11.368690 -9.881878 -0.168201 775 -0.398814 0.943451 -0.133104
-11.366745 -9.880158 -0.163553 811 -0.370835 0.968192 -0.066227
-11.366135 -9.879607 -0.158916 815 -0.362053 0.976123 0.000493
-11.365729 -9.879233 -0.154289 801 -0.356221 0.981502 0.067068
-11.367650 -9.880889 -0.149689 801 -0.383857 0.957681 0.133255
-11.370520 -9.883350 -0.145092 775 -0.425147 0.922265 0.199399
-11.372653 -9.885190 -0.140490 695 -0.455843 0.895795 0.265615
-11.373139 -9.885579 -0.135868 533 -0.462841 0.890197 0.332119
