766
-8.718285 -7.541963 -0.171064 1203 0.978127 -0.162687 -0.191288
-8.717729 -7.541463 -0.167517 1207 0.986127 -0.155490 -0.140253
-8.717934 -7.541631 -0.163977 1217 0.983176 -0.157912 -0.089317
-8.718743 -7.542311 -0.160452 1219 0.971527 -0.167696 -0.038598
-8.719176 -7.542660 -0.156910 1211 0.965297 -0.172718 0.012366
-8.718662 -7.542205 -0.153362 1197 0.972693 -0.166166 0.063417
-8.718540 -7.542078 -0.149822 1185 0.974449 -0.164341 0.114352
-8.719579 -7.542953 -0.146297 1171 0.959506 -0.176931 0.165071
-8.721548 -7.544648 -0.142786 1161 0.931170 -0.201321 0.215589
-8.723356 -7.546197 -0.139265 1141 0.905154 -0.223606 0.266251
-8.724892 -7.547507 -0.135748 1105 0.883061 -0.242453 0.316856
-8.727247 -7.549525 -0.132234 1069 0.849168 -0.271488 0.367417
-8.730115 -7.551978 -0.128727 1005 0.807906 -0.306788 0.417877
-8.733353 -7.554767 -0.125219 933 0.761320 -0.346918 0.468352
-8.737488 -7.558326 -0.121725 815 0.701822 -0.398121 0.518625
-8.738668 -7.555301 -0.206886 855 0.684834 -0.354602 -0.706713
-8.733690 -7.550968 -0.203224 981 0.756463 -0.292257 -0.654022
-8.730636 -7.548317 -0.199621 1049 0.800414 -0.254110 -0.602181
-8.727644 -7.545703 -0.196009 1103 0.843460 -0.216498 -0.550209
-8.724594 -7.543061 -0.192406 1129 0.887343 -0.178481 -0.498368
-8.721924 -7.540733 -0.188810 1165 0.925764 -0.144986 -0.446627
-8.720975 -7.539891 -0.185245 1189 0.939417 -0.132869 -0.395332
-8.720974 -7.539870 -0.181705 1221 0.939431 -0.132568 -0.344396
-8.719634 -7.538699 -0.178144 1231 0.958710 -0.115724 -0.293159
-8.718130 -7.537380 -0.174572 1233 0.980350 -0.096746 -0.241763
-8.717787 -7.537066 -0.171034 1243 0.985290 -0.092225 -0.190857
-8.717551 -7.536840 -0.167486 1231 0.988679 -0.088973 -0.139806
-8.717592 -7.536860 -0.163946 1247 0.988089 -0.089261 -0.088871
-8.717641 -7.536873 -0.160406 1247 0.987389 -0.089446 -0.037936
-8.717845 -7.537042 -0.156874 1233 0.984453 -0.091882 0.012884
-8.718221 -7.537349 -0.153341 1235 0.979046 -0.096301 0.063719
-8.719195 -7.538176 -0.149816 1231 0.965022 -0.108197 0.114438
-8.719970 -7.538820 -0.146282 1221 0.953880 -0.117460 0.165287
-8.720224 -7.539023 -0.142752 1201 0.950216 -0.120383 0.216078
-8.721647 -7.540235 -0.139223 1187 0.929743 -0.137823 0.266856
-8.723454 -7.541783 -0.135712 1167 0.903740 -0.160094 0.317374
-8.726038 -7.543998 -0.132198 1137 0.866567 -0.191963 0.367935
-8.729560 -7.547025 -0.128708 1101 0.815892 -0.235523 0.418150
-8.732698 -7.549716 -0.125200 1041 0.770734 -0.274240 0.468625
-8.735437 -7.552070 -0.121685 955 0.731324 -0.308112 0.519201
-8.738689 -7.554859 -0.118175 823 0.684532 -0.348242 0.569704
-8.741253 -7.552883 -0.210449 853 0.647648 -0.319810 -0.757979
-8.735941 -7.548278 -0.206789 995 0.724079 -0.253547 -0.705317
-8.731112 -7.544094 -0.203136 1057 0.793567 -0.193349 -0.652756
-8.728228 -7.541584 -0.199533 1109 0.835062 -0.157233 -0.600914
-8.725628 -7.539311 -0.195938 1149 0.872468 -0.124527 -0.549188
-8.722849 -7.536893 -0.192343 1175 0.912454 -0.089735 -0.497461
-8.721126 -7.535386 -0.188763 1207 0.937249 -0.068054 -0.445950
-8.720283 -7.534650 -0.185207 1233 0.949379 -0.057461 -0.394785
-8.719669 -7.534095 -0.181661 1247 0.958203 -0.049474 -0.343763
-8.718500 -7.533064 -0.178099 1255 0.975026 -0.034641 -0.292512
-8.717880 -7.532517 -0.174541 1263 0.983945 -0.026771 -0.241317
-8.718369 -7.532924 -0.171018 1283 0.976919 -0.032631 -0.190627
-8.717863 -7.532460 -0.167461 1275 0.984192 -0.025955 -0.139447
-8.716914 -7.531619 -0.163908 1265 0.997845 -0.013852 -0.088324
-8.716785 -7.531499 -0.160368 1263 0.999698 -0.012123 -0.037389
-8.717324 -7.531940 -0.156845 1265 0.991945 -0.018470 0.013301
-8.718036 -7.532536 -0.153311 1263 0.981708 -0.027046 0.064150
-8.718675 -7.533075 -0.149788 1255 0.972515 -0.034799 0.114841
-8.719606 -7.533859 -0.146263 1249 0.959108 -0.046078 0.165560
-8.720921 -7.534979 -0.142734 1239 0.940199 -0.062195 0.216337
-8.721347 -7.535322 -0.139202 1219 0.934066 -0.067135 0.267158
-8.722485 -7.536296 -0.135687 1201 0.917695 -0.081145 0.317733
-8.724627 -7.538119 -0.132164 1179 0.886876 -0.107374 0.368424
-8.727260 -7.540381 -0.128660 1157 0.848990 -0.139923 0.418841
-8.730070 -7.542791 -0.125154 1099 0.808551 -0.174598 0.469287
-8.732602 -7.544956 -0.121639 1035 0.772119 -0.205754 0.519863
-8.736838 -7.548601 -0.118145 965 0.711167 -0.258199 0.570136
-8.741521 -7.552629 -0.114649 851 0.643792 -0.316153 0.620438
-8.743716 -7.550276 -0.214023 809 0.612204 -0.282294 -0.809403
-8.738347 -7.545615 -0.210354 971 0.689458 -0.215235 -0.756612
-8.734016 -7.541864 -0.206709 1061 0.751770 -0.161260 -0.704166
-8.730199 -7.538549 -0.203081 1111 0.806699 -0.113563 -0.651965
-8.727200 -7.535942 -0.199478 1159 0.849854 -0.076054 -0.600123
-8.724928 -7.533964 -0.195890 1195 0.882540 -0.047595 -0.548497
-8.723758 -7.532933 -0.192327 1223 0.899377 -0.032761 -0.497231
-8.722369 -7.531713 -0.188755 1247 0.919356 -0.015204 -0.445835
-8.720153 -7.529778 -0.185179 1253 0.951246 0.012638 -0.394382
-8.718863 -7.528657 -0.181616 1265 0.969811 0.028768 -0.343116
-8.718520 -7.528340 -0.178068 1271 0.974737 0.033331 -0.292065
-8.718675 -7.528459 -0.174536 1291 0.972515 0.031615 -0.241245
-8.718666 -7.528430 -0.170996 1301 0.972638 0.032034 -0.190310
-8.718495 -7.528255 -0.167457 1291 0.975094 0.034552 -0.139389
-8.718422 -7.528176 -0.163917 1291 0.976151 0.035691 -0.088454
-8.717752 -7.527581 -0.160362 1287 0.985784 0.044246 -0.037303
-8.717842 -7.527636 -0.156832 1293 0.984494 0.043457 0.013489
-8.717998 -7.527755 -0.153290 1295 0.982257 0.041749 0.064453
-8.718088 -7.527825 -0.149759 1275 0.980954 0.040740 0.115258
-8.718964 -7.528554 -0.146234 1265 0.968357 0.030250 0.165978
-8.720000 -7.529428 -0.142710 1271 0.953441 0.017674 0.216683
-8.721196 -7.530445 -0.139183 1249 0.936234 0.003039 0.267431
-8.722674 -7.531712 -0.135664 1233 0.914965 -0.015190 0.318064
-8.724653 -7.533401 -0.132152 1213 0.886492 -0.039492 0.368596
-8.726738 -7.535181 -0.128641 1185 0.856496 -0.065104 0.419115
-8.729150 -7.537240 -0.125128 1153 0.821793 -0.094729 0.469661
-8.731683 -7.539405 -0.121612 1099 0.785347 -0.125878 0.520251
-8.735148 -7.542391 -0.118114 1047 0.735482 -0.168842 0.570582
-8.739611 -7.546216 -0.114618 951 0.671277 -0.223880 0.620884
-8.743412 -7.549489 -0.111116 801 0.616581 -0.270974 0.671273
-8.747738 -7.549008 -0.217621 723 0.554339 -0.264051 -0.861173
-8.740312 -7.542588 -0.213901 937 0.661191 -0.171682 -0.807648
-8.735376 -7.538311 -0.210251 1035 0.732202 -0.110139 -0.755130
-8.731993 -7.535368 -0.206629 1103 0.780888 -0.067793 -0.703015
-8.729221 -7.532955 -0.203035 1151 0.820764 -0.033077 -0.651303
-8.727277 -7.531260 -0.199446 1203 0.848743 -0.008686 -0.599662
-8.725723 -7.529906 -0.195875 1233 0.871096 0.010799 -0.548281
-8.724049 -7.528448 -0.192304 1251 0.895191 0.031773 -0.496900
-8.722503 -7.527087 -0.188734 1277 0.917435 0.051354 -0.445533
-8.721326 -7.526064 -0.185169 1285 0.934368 0.066078 -0.394238
-8.720486 -7.525312 -0.181616 1297 0.946457 0.076898 -0.343116
-8.719038 -7.524051 -0.178053 1309 0.967286 0.095038 -0.291850
-8.718417 -7.523490 -0.174497 1317 0.976219 0.103113 -0.240684
-8.718131 -7.523230 -0.170957 1317 0.980336 0.106853 -0.189749
-8.717183 -7.522388 -0.167404 1303 0.993976 0.118969 -0.138626
-8.717388 -7.522556 -0.163872 1311 0.991025 0.116554 -0.087806
-8.717544 -7.522661 -0.160341 1301 0.988789 0.115038 -0.037001
-8.717143 -7.522302 -0.156793 1303 0.994552 0.120204 0.014050
-8.717790 -7.522849 -0.153271 1309 0.985249 0.112335 0.064726
-8.719049 -7.523913 -0.149753 1299 0.967122 0.097028 0.115345
-8.720086 -7.524789 -0.146227 1289 0.952206 0.084424 0.166078
-8.720626 -7.525230 -0.142694 1293 0.944439 0.078078 0.216913
-8.721764 -7.526204 -0.139177 1279 0.928069 0.064061 0.267517
-8.723692 -7.527844 -0.135668 1261 0.900323 0.040466 0.318007
-8.725001 -7.528957 -0.132139 1245 0.881483 0.024452 0.368784
-8.726977 -7.530646 -0.128630 1225 0.853051 0.000151 0.419273
-8.728401 -7.531858 -0.125111 1183 0.832565 -0.017290 0.469906
-8.730143 -7.533343 -0.121591 1143 0.807508 -0.038655 0.520553
-8.733780 -7.536454 -0.118090 1097 0.755173 -0.083422 0.570928
-8.737530 -7.539677 -0.114590 1027 0.701218 -0.129796 0.621287
-8.742206 -7.543699 -0.111093 935 0.633940 -0.187661 0.671604
-8.745864 -7.542545 -0.217541 931 0.581302 -0.171058 -0.860022
-8.739548 -7.537078 -0.213846 1035 0.672183 -0.092397 -0.806857
-8.735167 -7.533292 -0.210211 1099 0.735221 -0.037921 -0.754555
-8.731833 -7.530398 -0.206591 1149 0.783179 0.003719 -0.702468
-8.728949 -7.527887 -0.202986 1197 0.824688 0.039848 -0.650598
-8.727395 -7.526534 -0.199415 1231 0.847041 0.059313 -0.599216
-8.725507 -7.524880 -0.195835 1263 0.874211 0.083114 -0.547706
-8.723725 -7.523330 -0.192266 1273 0.899843 0.105412 -0.496353
-8.722999 -7.522691 -0.188709 1295 0.910299 0.114612 -0.445173
-8.721715 -7.521563 -0.185148 1317 0.928769 0.130839 -0.393936
-8.721159 -7.521066 -0.181600 1325 0.936769 0.137988 -0.342886
-8.720544 -7.520510 -0.178055 1327 0.945620 0.145988 -0.291878
-8.719092 -7.519242 -0.174482 1329 0.966504 0.164238 -0.240468
-8.718079 -7.518351 -0.170929 1319 0.981091 0.177054 -0.189346
-8.718234 -7.518470 -0.167396 1317 0.978854 0.175346 -0.138511
-8.718054 -7.518301 -0.163858 1321 0.981448 0.177775 -0.087605
-8.717826 -7.518084 -0.160320 1321 0.984727 0.180896 -0.036698
-8.718642 -7.518769 -0.156795 1327 0.972981 0.171044 0.014021
-8.718848 -7.518923 -0.153263 1329 0.970017 0.168828 0.064841
-8.719665 -7.519609 -0.149740 1325 0.958271 0.158955 0.115532
-8.720760 -7.520541 -0.146223 1307 0.942505 0.145542 0.166136
-8.721014 -7.520744 -0.142681 1297 0.938855 0.142626 0.217100
-8.722224 -7.521760 -0.139166 1283 0.921441 0.128005 0.267676
-8.724137 -7.523398 -0.135654 1283 0.893915 0.104438 0.318208
-8.725283 -7.524366 -0.132128 1261 0.877435 0.090510 0.368942
-8.726541 -7.525430 -0.128610 1251 0.859336 0.075196 0.419561
-8.728740 -7.527308 -0.125099 1217 0.827693 0.048178 0.470078
-8.730873 -7.529137 -0.121586 1189 0.796997 0.021859 0.520625
-8.733130 -7.531056 -0.118063 1133 0.764517 -0.005749 0.571316
-8.737484 -7.534791 -0.114578 1081 0.701877 -0.059491 0.621460
-8.741784 -7.538485 -0.111074 1013 0.640005 -0.112643 0.671877
-8.745584 -7.541743 -0.107572 869 0.585337 -0.159517 0.722266
-8.750008 -7.541566 -0.221146 843 0.521680 -0.156972 -0.911893
-8.744125 -7.536483 -0.217468 995 0.606317 -0.083834 -0.858972
-8.739190 -7.532207 -0.213806 1079 0.677328 -0.022312 -0.806281
-8.735316 -7.528851 -0.210178 1129 0.733067 0.025976 -0.754080
-8.732103 -7.526060 -0.206566 1187 0.779296 0.066133 -0.702109
-8.729717 -7.523985 -0.202970 1217 0.813628 0.095992 -0.650367
-8.728263 -7.522716 -0.199398 1253 0.834554 0.114249 -0.598972
-8.726375 -7.521075 -0.195829 1271 0.861724 0.137864 -0.547619
-8.724210 -7.519189 -0.192242 1295 0.892872 0.164999 -0.496008
-8.722535 -7.517731 -0.188671 1303 0.916968 0.185973 -0.444626
-8.721814 -7.517086 -0.185125 1321 0.927342 0.195256 -0.393605
-8.721642 -7.516924 -0.181576 1337 0.929826 0.197589 -0.342540
-8.720744 -7.516131 -0.178030 1339 0.942738 0.208999 -0.291519
-8.719397 -7.514954 -0.174469 1339 0.962127 0.225932 -0.240281
-8.718783 -7.514400 -0.170921 1343 0.970950 0.233904 -0.189231
-8.719103 -7.514666 -0.167391 1333 0.966353 0.230076 -0.138440
-8.719485 -7.514967 -0.163858 1335 0.960851 0.225746 -0.087605
-8.719078 -7.514602 -0.160320 1343 0.966710 0.230995 -0.036698
-8.719234 -7.514720 -0.156790 1335 0.964460 0.229300 0.014093
-8.719709 -7.515112 -0.153257 1329 0.957626 0.223661 0.064927
-8.719814 -7.515182 -0.149727 1327 0.956117 0.222652 0.115719
-8.720241 -7.515525 -0.146194 1315 0.949983 0.217719 0.166553
-8.721775 -7.516834 -0.142675 1317 0.927905 0.198886 0.217186
-8.723256 -7.518088 -0.139168 1307 0.906594 0.180841 0.267647
-8.724066 -7.518768 -0.135643 1297 0.894944 0.171058 0.318366
-8.725652 -7.520127 -0.132124 1293 0.872125 0.151504 0.368999
-8.727523 -7.521710 -0.128603 1269 0.845202 0.128725 0.419661
-8.729331 -7.523259 -0.125093 1245 0.819186 0.106434 0.470165
-8.730967 -7.524653 -0.121574 1217 0.795653 0.086380 0.520798
-8.733557 -7.526860 -0.118059 1177 0.758384 0.054620 0.571373
-8.737079 -7.529873 -0.114559 1137 0.707709 0.011273 0.621733
-8.740551 -7.532851 -0.111059 1075 0.657747 -0.031581 0.672093
-8.745405 -7.537020 -0.107563 973 0.587902 -0.091566 0.722395
-8.751200 -7.541988 -0.104069 811 0.504528 -0.163044 0.772668
-8.748696 -7.535784 -0.221081 929 0.540548 -0.073776 -0.910958
-8.742992 -7.530849 -0.217403 1037 0.622619 -0.002772 -0.858037
-8.739053 -7.527442 -0.213764 1105 0.679304 0.046250 -0.805677
-8.735735 -7.524561 -0.210153 1161 0.727043 0.087704 -0.753720
-8.733064 -7.522248 -0.206549 1209 0.765478 0.120986 -0.701864
-8.730343 -7.519886 -0.202955 1245 0.804627 0.154969 -0.650152
-8.727849 -7.517719 -0.199358 1255 0.840510 0.186152 -0.598396
-8.726780 -7.516787 -0.195804 1275 0.855892 0.199558 -0.547260
-8.725618 -7.515762 -0.192242 1305 0.872605 0.214309 -0.496008
-8.723894 -7.514256 -0.188671 1321 0.897414 0.235976 -0.444626
-8.722996 -7.513463 -0.185116 1325 0.910340 0.247386 -0.393475
-8.722603 -7.513113 -0.181568 1339 0.915994 0.252422 -0.342425
-8.721434 -7.512082 -0.178015 1343 0.932817 0.267255 -0.291303
-8.720586 -7.511338 -0.174459 1333 0.945016 0.277958 -0.240137
-8.720299 -7.511078 -0.170921 1335 0.949146 0.281704 -0.189231
-8.720347 -7.511092 -0.167391 1351 0.948446 0.281499 -0.138440
-8.720659 -7.511351 -0.163860 1353 0.943959 0.277773 -0.087634
-8.720764 -7.511420 -0.160318 1361 0.942450 0.276785 -0.036670
-8.720748 -7.511384 -0.156790 1357 0.942683 0.277300 0.014093
-8.720897 -7.511497 -0.153259 1355 0.940542 0.275674 0.064899
-8.720938 -7.511518 -0.149717 1333 0.939952 0.275372 0.115863
-8.721421 -7.511916 -0.146196 1339 0.932995 0.269643 0.166525
-8.722630 -7.512931 -0.142679 1339 0.915610 0.255043 0.217129
-8.723112 -7.513331 -0.139147 1327 0.908666 0.249286 0.267949
-8.723980 -7.514066 -0.135622 1309 0.896179 0.238707 0.318669
-8.726292 -7.516027 -0.132118 1303 0.862917 0.210494 0.369086
-8.728212 -7.517674 -0.128607 1285 0.835281 0.186797 0.419604
-8.729131 -7.518445 -0.125072 1251 0.822067 0.175702 0.470467
-8.731548 -7.520512 -0.121569 1237 0.787282 0.145960 0.520870
-8.734409 -7.522956 -0.118063 1203 0.746116 0.110798 0.571316
-8.737156 -7.525304 -0.114548 1157 0.706597 0.077014 0.621891
-8.740352 -7.528037 -0.111038 1109 0.660615 0.037687 0.672395
-8.744258 -7.531386 -0.107536 1019 0.604410 -0.010497 0.722784
-8.750280 -7.536551 -0.104053 893 0.517756 -0.084815 0.772899
-8.758245 -7.543390 -0.100588 601 0.403150 -0.183215 0.822755
-8.748332 -7.530724 -0.221031 977 0.545790 -0.000974 -0.910238
-8.743012 -7.526125 -0.217361 1071 0.622331 0.065200 -0.857432
-8.739408 -7.523006 -0.213741 1129 0.674200 0.110077 -0.805346
-8.736352 -7.520356 -0.210129 1179 0.718165 0.148204 -0.753375
-8.733460 -7.517854 -0.206526 1221 0.759770 0.184203 -0.701533
-8.731800 -7.516395 -0.202946 1257 0.783660 0.205198 -0.650022
-8.729855 -7.514712 -0.199365 1275 0.811652 0.229417 -0.598497
-8.727526 -7.512679 -0.195780 1295 0.845161 0.258665 -0.546914
-8.725902 -7.511271 -0.192219 1311 0.868530 0.278926 -0.495677
-8.724854 -7.510344 -0.188654 1317 0.883596 0.292263 -0.444382
-8.724226 -7.509790 -0.185108 1335 0.892639 0.300236 -0.393360
-8.723726 -7.509335 -0.181560 1361 0.899829 0.306781 -0.342310
-8.722500 -7.508262 -0.178007 1355 0.917476 0.322218 -0.291188
-8.721708 -7.507575 -0.174452 1341 0.928865 0.332105 -0.240037
-8.721863 -7.507679 -0.170921 1351 0.926642 0.330609 -0.189231
-8.722467 -7.508183 -0.167398 1365 0.917942 0.323357 -0.138540
-8.722565 -7.508245 -0.163868 1367 0.916543 0.322465 -0.087749
-8.722386 -7.508076 -0.160328 1383 0.919109 0.324894 -0.036814
-8.722262 -7.507950 -0.156790 1375 0.920893 0.326712 0.014093
-8.722076 -7.507774 -0.153250 1359 0.923568 0.329244 0.065028
-8.722672 -7.508271 -0.149727 1359 0.914992 0.322088 0.115719
-8.723270 -7.508769 -0.146204 1361 0.906389 0.314925 0.166410
-8.724080 -7.509449 -0.142679 1345 0.894739 0.305141 0.217129
-8.724449 -7.509749 -0.139147 1331 0.889428 0.300826 0.267949
-8.725102 -7.510288 -0.135624 1319 0.880029 0.293073 0.318640
-8.726696 -7.511640 -0.132105 1309 0.857099 0.273615 0.369273
-8.728724 -7.513364 -0.128593 1291 0.827927 0.248813 0.419805
-8.730751 -7.515101 -0.125082 1269 0.798754 0.223818 0.470323
-8.733070 -7.517070 -0.121569 1257 0.765382 0.195490 0.520870
-8.735419 -7.519081 -0.118065 1233 0.731585 0.166550 0.571287
-8.737560 -7.520903 -0.114544 1189 0.700779 0.140334 0.621949
-8.740485 -7.523397 -0.111036 1141 0.658694 0.104451 0.672424
-8.743558 -7.526023 -0.107530 1061 0.614482 0.066668 0.722870
-8.748528 -7.530292 -0.104032 957 0.542977 0.005242 0.773201
-8.756101 -7.536788 -0.100559 785 0.434011 -0.088225 0.823172
-8.748603 -7.526486 -0.220997 1019 0.541893 0.060006 -0.909749
-8.744002 -7.522511 -0.217354 1099 0.608087 0.117199 -0.857332
-8.739892 -7.518950 -0.213716 1145 0.667229 0.168437 -0.804986
-8.737228 -7.516644 -0.210111 1199 0.705554 0.201616 -0.753116
-8.735069 -7.514765 -0.206524 1237 0.736621 0.228655 -0.701504
-8.732620 -7.512641 -0.202938 1261 0.771859 0.259214 -0.649907
-8.730844 -7.511098 -0.199358 1291 0.797423 0.281416 -0.598396
-8.729228 -7.509682 -0.195787 1299 0.820668 0.301786 -0.547015
-8.727283 -7.507999 -0.192207 1315 0.848660 0.326006 -0.495504
-8.725552 -7.506485 -0.188637 1337 0.873566 0.347789 -0.444137
-8.724931 -7.505938 -0.185091 1347 0.882499 0.355659 -0.393116
-8.724930 -7.505917 -0.181560 1349 0.882512 0.355961 -0.342310
-8.725083 -7.506035 -0.178030 1367 0.880303 0.354266 -0.291519
-8.723688 -7.504808 -0.174469 1365 0.900378 0.371919 -0.240281
-8.722347 -7.503637 -0.170906 1355 0.919671 0.388770 -0.189015
-8.722887 -7.504092 -0.167383 1371 0.911905 0.382218 -0.138324
-8.722765 -7.503966 -0.163843 1369 0.913661 0.384036 -0.087389
-8.722644 -7.503839 -0.160314 1379 0.915404 0.385861 -0.036612
-8.722634 -7.503810 -0.156774 1365 0.915541 0.386279 0.014323
-8.722676 -7.503831 -0.153244 1343 0.914937 0.385977 0.065114
-8.723656 -7.504664 -0.149719 1345 0.900845 0.373991 0.115834
-8.724694 -7.505525 -0.146204 1357 0.885902 0.361600 0.166410
-8.725127 -7.505890 -0.142671 1349 0.879672 0.356352 0.217244
-8.726443 -7.506997 -0.139164 1355 0.860736 0.340421 0.267704
-8.727366 -7.507775 -0.135637 1343 0.847453 0.329230 0.318453
-8.727565 -7.507935 -0.132107 1321 0.844599 0.326925 0.369244
-8.728987 -7.509133 -0.128590 1295 0.824139 0.309690 0.419848
-8.731242 -7.511052 -0.125076 1289 0.791687 0.282075 0.470410
-8.733498 -7.512972 -0.121563 1269 0.759235 0.254453 0.520956
-8.735910 -7.515033 -0.118061 1239 0.724518 0.224800 0.571345
-8.738109 -7.516910 -0.114538 1195 0.692889 0.197788 0.622035
-8.740806 -7.519208 -0.111032 1145 0.654083 0.164725 0.672481
-8.744712 -7.522557 -0.107530 1085 0.597878 0.116540 0.722870
-8.749909 -7.527007 -0.104042 997 0.523094 0.052507 0.773057
-8.755815 -7.532073 -0.100548 853 0.438128 -0.020384 0.823330
-8.749445 -7.522922 -0.220989 1039 0.529776 0.111285 -0.909634
-8.745342 -7.519368 -0.217352 1115 0.588808 0.162420 -0.857303
-8.741125 -7.515730 -0.213705 1177 0.649487 0.214769 -0.804828
-8.738626 -7.513556 -0.210110 1223 0.685452 0.246048 -0.753101
-8.735684 -7.511019 -0.206507 1243 0.727770 0.282548 -0.701260
-8.733077 -7.508755 -0.202911 1263 0.765286 0.315124 -0.649519
-8.732121 -7.507920 -0.199356 1293 0.779035 0.327145 -0.598368
-8.730676 -7.506659 -0.195785 1327 0.799838 0.345285 -0.546986
-8.729555 -7.505677 -0.192230 1345 0.815961 0.359412 -0.495835
-8.728664 -7.504891 -0.188677 1359 0.828777 0.370725 -0.444713
-8.727381 -7.503762 -0.185114 1353 0.847247 0.386972 -0.393447
-8.726491 -7.502977 -0.181558 1367 0.860050 0.398265 -0.342281
-8.725648 -7.502240 -0.178013 1357 0.872180 0.408866 -0.291274
-8.725142 -7.501791 -0.174467 1381 0.879466 0.415329 -0.240252
-8.724685 -7.501378 -0.170929 1379 0.886039 0.421270 -0.189346
-8.724612 -7.501300 -0.167389 1381 0.887082 0.422395 -0.138411
-8.724603 -7.501271 -0.163860 1383 0.887219 0.422814 -0.087634
-8.725086 -7.501670 -0.160326 1395 0.880262 0.417071 -0.036785
-8.725028 -7.501593 -0.156797 1381 0.881099 0.418176 0.013992
-8.724514 -7.501136 -0.153250 1369 0.888495 0.424756 0.065028
-8.725160 -7.501668 -0.149727 1361 0.879205 0.417099 0.115719
-8.726092 -7.502452 -0.146212 1367 0.865785 0.405819 0.166294
-8.726460 -7.502754 -0.142679 1359 0.860489 0.401469 0.217129
-8.727327 -7.503489 -0.139154 1357 0.848015 0.390897 0.267848
-8.728806 -7.504743 -0.135635 1343 0.826746 0.372852 0.318481
-8.730350 -7.506047 -0.132128 1339 0.804531 0.354094 0.368942
-8.732271 -7.507679 -0.128616 1317 0.776881 0.330609 0.419474
-8.733573 -7.508786 -0.125090 1295 0.758151 0.314678 0.470208
-8.734717 -7.509753 -0.121572 1271 0.741684 0.300764 0.520827
-8.737144 -7.511812 -0.118059 1251 0.706762 0.271139 0.571373
-8.738729 -7.513157 -0.114540 1207 0.683970 0.251791 0.622007
-8.741249 -7.515308 -0.111027 1157 0.647703 0.220841 0.672553
-8.745554 -7.518994 -0.107532 1105 0.585762 0.167806 0.722841
-8.750416 -7.523156 -0.104034 1033 0.515807 0.107916 0.773172
-8.756721 -7.528558 -0.100550 897 0.425092 0.030195 0.823301
-8.755149 -7.523380 -0.224623 973 0.447706 0.104698 -0.961921
-8.749879 -7.518831 -0.220962 1065 0.523533 0.170152 -0.909245
-8.745991 -7.515473 -0.217325 1127 0.579477 0.218467 -0.856914
-8.742271 -7.512256 -0.213695 1175 0.632993 0.264751 -0.804684
-8.739552 -7.509908 -0.210102 1219 0.672128 0.298534 -0.752986
-8.737550 -7.508169 -0.206512 1261 0.700930 0.323556 -0.701332
-8.735049 -7.505995 -0.202927 1277 0.736909 0.354842 -0.649749
-8.732941 -7.504166 -0.199339 1293 0.767248 0.381154 -0.598123
-8.731873 -7.503234 -0.195785 1307 0.782617 0.394567 -0.546986
-8.730709 -7.502209 -0.192222 1329 0.799357 0.409312 -0.495720
-8.728929 -7.500660 -0.188652 1341 0.824976 0.431603 -0.444353
-8.727701 -7.499587 -0.185089 1345 0.842636 0.447040 -0.393087
-8.727637 -7.499517 -0.181558 1365 0.843556 0.448049 -0.342281
-8.727187 -7.499110 -0.178011 1377 0.850033 0.453901 -0.291245
-8.726452 -7.498464 -0.174465 1385 0.860612 0.463198 -0.240224
-8.726330 -7.498338 -0.170927 1387 0.862369 0.465009 -0.189317
-8.726151 -7.498169 -0.167398 1389 0.864935 0.467445 -0.138540
-8.725970 -7.498000 -0.163858 1389 0.867542 0.469873 -0.087605
-8.726133 -7.498111 -0.160328 1387 0.865195 0.468282 -0.036814
-8.726501 -7.498413 -0.156795 1387 0.859899 0.463932 0.014021
-8.726430 -7.498335 -0.153267 1369 0.860928 0.465057 0.064784
-8.727026 -7.498832 -0.149732 1369 0.852352 0.457901 0.115647
-8.727345 -7.499084 -0.146212 1361 0.847755 0.454278 0.166294
-8.727556 -7.499245 -0.142679 1357 0.844722 0.451959 0.217129
-8.729307 -7.500737 -0.139170 1369 0.819529 0.430491 0.267618
-8.730231 -7.501515 -0.135645 1359 0.806232 0.419301 0.318337
-8.730935 -7.502103 -0.132122 1333 0.796105 0.410842 0.369028
-8.732805 -7.503686 -0.128610 1315 0.769197 0.388063 0.419561
-8.734392 -7.505032 -0.125091 1297 0.746363 0.368695 0.470194
-8.735864 -7.506279 -0.121574 1281 0.725190 0.350753 0.520798
-8.738283 -7.508346 -0.118059 1257 0.690378 0.321011 0.571373
-8.741044 -7.510693 -0.114555 1223 0.650653 0.287241 0.621791
-8.743237 -7.512563 -0.111042 1177 0.619106 0.260332 0.672338
-8.746593 -7.515429 -0.107532 1131 0.570805 0.219098 0.722841
-8.751021 -7.519205 -0.104038 1049 0.507094 0.164766 0.773115
-8.756985 -7.524314 -0.100544 947 0.421291 0.091258 0.823388
-8.765114 -7.531286 -0.097078 725 0.304325 -0.009056 0.873258
-8.756629 -7.520080 -0.224623 1001 0.426409 0.152176 -0.961921
-8.751858 -7.515966 -0.220970 1081 0.495060 0.211373 -0.909360
-8.747855 -7.512510 -0.217333 1151 0.552651 0.261101 -0.857029
-8.744692 -7.509783 -0.213720 1197 0.598166 0.300339 -0.805044
-8.742022 -7.507469 -0.210115 1235 0.636588 0.333628 -0.753173
-8.739528 -7.505304 -0.206529 1279 0.672471 0.364784 -0.701576
-8.737135 -7.503236 -0.202932 1285 0.706899 0.394540 -0.649821
-8.735518 -7.501833 -0.199362 1301 0.730158 0.414725 -0.598454
-8.734185 -7.500669 -0.195799 1327 0.749341 0.431472 -0.547188
-8.732062 -7.498826 -0.192222 1333 0.779886 0.457990 -0.495720
-8.730509 -7.497472 -0.188650 1355 0.802239 0.477475 -0.444324
-8.729951 -7.496974 -0.185104 1365 0.810266 0.484638 -0.393303
-8.729602 -7.496652 -0.181566 1371 0.815289 0.489269 -0.342396
-8.729144 -7.496252 -0.178028 1381 0.821875 0.495026 -0.291490
-8.728588 -7.495754 -0.174482 1385 0.829875 0.502195 -0.240468
-8.727746 -7.495003 -0.170927 1383 0.841992 0.512994 -0.189317
-8.727176 -7.494505 -0.167389 1383 0.850197 0.520164 -0.138411
-8.727608 -7.494855 -0.163856 1395 0.843981 0.515128 -0.087576
-8.727820 -7.495016 -0.160335 1393 0.840921 0.512809 -0.036914
-8.727640 -7.494847 -0.156797 1381 0.843515 0.515245 0.013992
-8.727675 -7.494861 -0.153267 1379 0.843007 0.515039 0.064784
-8.728050 -7.495169 -0.149734 1367 0.837614 0.510607 0.115618
-8.728256 -7.495322 -0.146204 1359 0.834650 0.508404 0.166410
-8.729016 -7.495953 -0.142679 1349 0.823714 0.499327 0.217129
-8.730659 -7.497354 -0.139170 1361 0.800085 0.479170 0.267618
-8.731647 -7.498180 -0.135645 1359 0.785869 0.467287 0.318337
-8.732294 -7.498712 -0.132122 1331 0.776552 0.459630 0.369028
-8.734107 -7.500253 -0.128610 1321 0.750466 0.437455 0.419561
-8.735808 -7.501697 -0.125091 1301 0.725986 0.416680 0.470194
-8.737565 -7.503181 -0.121582 1287 0.700710 0.395329 0.520683
-8.740098 -7.505347 -0.118067 1271 0.664265 0.364166 0.571258
-8.742183 -7.507112 -0.114555 1229 0.634269 0.338767 0.621791
-8.745549 -7.509985 -0.111057 1193 0.585830 0.297430 0.672122
-8.749177 -7.513089 -0.107546 1151 0.533632 0.252765 0.722640
-8.752658 -7.516061 -0.104048 1067 0.483547 0.210007 0.772971
-8.757184 -7.519920 -0.100542 967 0.418423 0.154482 0.823417
-8.765428 -7.526992 -0.097074 775 0.299810 0.052727 0.873316
-8.757924 -7.516556 -0.224613 1023 0.407775 0.202886 -0.961778
-8.753144 -7.512434 -0.220960 1089 0.476549 0.262192 -0.909217
-8.749812 -7.509553 -0.217340 1145 0.524493 0.303646 -0.857130
-8.746094 -7.506349 -0.213711 1199 0.577995 0.349745 -0.804914
-8.742590 -7.503329 -0.210100 1225 0.628410 0.393202 -0.752957
-8.740702 -7.501688 -0.206522 1267 0.655579 0.416811 -0.701476
-8.738537 -7.499803 -0.202934 1287 0.686728 0.443932 -0.649850
-8.736257 -7.497833 -0.199346 1299 0.719537 0.472281 -0.598224
-8.735750 -7.497383 -0.195799 1329 0.726823 0.478751 -0.547188
-8.734801 -7.496542 -0.192245 1337 0.740477 0.490854 -0.496051
-8.733078 -7.495049 -0.188675 1359 0.765272 0.512336 -0.444684
-8.731901 -7.494025 -0.185121 1373 0.782205 0.527066 -0.393547
-8.730725 -7.493001 -0.181557 1381 0.799124 0.541804 -0.342267
-8.729827 -7.492208 -0.178013 1375 0.812050 0.553213 -0.291274
-8.729598 -7.491992 -0.174475 1385 0.815343 0.556321 -0.240368
-8.729589 -7.491962 -0.170935 1405 0.815467 0.556754 -0.189432
-8.729695 -7.492032 -0.167404 1401 0.813944 0.555745 -0.138626
-8.729843 -7.492143 -0.163874 1405 0.811817 0.554147 -0.087835
-8.730168 -7.492402 -0.160351 1409 0.807138 0.550421 -0.037144
-8.730039 -7.492283 -0.156813 1385 0.809004 0.552136 0.013762
-8.730685 -7.492815 -0.153288 1385 0.799700 0.544479 0.064481
-8.731339 -7.493354 -0.149765 1377 0.790287 0.536727 0.115172
-8.730597 -7.492702 -0.146219 1361 0.800977 0.546106 0.166194
-8.731037 -7.493059 -0.142696 1355 0.794637 0.540967 0.216884
-8.732731 -7.494494 -0.139187 1367 0.770267 0.520322 0.267374
-8.733718 -7.495321 -0.135662 1361 0.756065 0.508425 0.318093
-8.734415 -7.495902 -0.132137 1345 0.746034 0.500062 0.368812
-8.735617 -7.496925 -0.128620 1329 0.728744 0.485345 0.419417
-8.737210 -7.498263 -0.125101 1321 0.705815 0.466093 0.470050
-8.738468 -7.499327 -0.121574 1293 0.687716 0.450779 0.520798
-8.740503 -7.501059 -0.118063 1267 0.658433 0.425860 0.571316
-8.743079 -7.503251 -0.114559 1227 0.621370 0.394320 0.621733
-8.746615 -7.506264 -0.111059 1203 0.570489 0.350966 0.672093
-8.749867 -7.509039 -0.107551 1151 0.523698 0.311042 0.722568
-8.754230 -7.512767 -0.104055 1083 0.460933 0.257403 0.772870
-8.759867 -7.517581 -0.100565 993 0.379823 0.188135 0.823086
-8.766558 -7.523305 -0.097076 823 0.283550 0.105776 0.873287
-8.759728 -7.513098 -0.224615 1043 0.381813 0.252641 -0.961806
-8.755006 -7.509033 -0.220960 1099 0.449764 0.311124 -0.909217
-8.751297 -7.505822 -0.217331 1155 0.503128 0.357326 -0.857001
-8.747678 -7.502703 -0.213713 1205 0.555203 0.402204 -0.804943
-8.744394 -7.499870 -0.210100 1231 0.602448 0.442971 -0.752957
-8.742670 -7.498377 -0.206520 1269 0.627257 0.464453 -0.701447
-8.741451 -7.497312 -0.202957 1295 0.644794 0.479774 -0.650181
-8.739784 -7.495861 -0.199386 1315 0.668780 0.500652 -0.598799
-8.738608 -7.494837 -0.195824 1343 0.685699 0.515389 -0.547547
-8.737155 -7.493568 -0.192263 1341 0.706611 0.533646 -0.496310
-8.735146 -7.491836 -0.188682 1349 0.735523 0.558565 -0.444785
-8.734033 -7.490861 -0.185129 1359 0.751537 0.572596 -0.393663
-8.733469 -7.490355 -0.181583 1377 0.759646 0.579875 -0.342641
-8.732464 -7.489473 -0.178028 1379 0.774109 0.592568 -0.291490
-8.731951 -7.489017 -0.174492 1383 0.781492 0.599127 -0.240612
-8.732390 -7.489374 -0.170959 1395 0.775166 0.593988 -0.189778
-8.732546 -7.489492 -0.167427 1413 0.772929 0.592294 -0.138958
-8.732088 -7.489079 -0.163891 1419 0.779516 0.598235 -0.088080
-8.731746 -7.488763 -0.160353 1395 0.784442 0.602784 -0.037173
-8.731787 -7.488783 -0.156813 1383 0.783852 0.602496 0.013762
-8.732326 -7.489224 -0.153290 1393 0.776099 0.596149 0.064453
-8.733087 -7.489868 -0.149774 1375 0.765149 0.586880 0.115043
-8.733129 -7.489875 -0.146234 1361 0.764545 0.586784 0.165978
-8.732998 -7.489755 -0.142706 1357 0.766425 0.588506 0.216740
-8.733922 -7.490532 -0.139181 1351 0.753128 0.577330 0.267460
-8.735302 -7.491688 -0.135662 1349 0.733273 0.560699 0.318093
-8.736049 -7.492319 -0.132139 1337 0.722528 0.551615 0.368784
-8.737699 -7.493713 -0.128630 1331 0.698789 0.531560 0.419273
-8.740396 -7.496011 -0.125124 1325 0.659984 0.498497 0.469719
-8.741483 -7.496922 -0.121599 1299 0.644341 0.485386 0.520438
-8.742742 -7.497986 -0.118082 1275 0.626228 0.470079 0.571043
-8.745216 -7.500080 -0.114567 1237 0.590619 0.439946 0.621618
-8.748193 -7.502624 -0.111061 1203 0.547793 0.403342 0.672064
-8.751893 -7.505770 -0.107559 1157 0.494552 0.358074 0.722453
-8.755536 -7.508875 -0.104059 1085 0.442134 0.313402 0.772812
-8.759948 -7.512651 -0.100555 995 0.378657 0.259070 0.823230
-8.766988 -7.518663 -0.097074 859 0.277361 0.172567 0.873316
-8.762559 -7.510693 -0.224647 1049 0.341086 0.287241 -0.962267
-8.757894 -7.506670 -0.220995 1113 0.408214 0.345127 -0.909720
-8.753728 -7.503080 -0.217348 1169 0.468151 0.396783 -0.857245
-8.749561 -7.499491 -0.213711 1199 0.528102 0.448419 -0.804914
-8.747176 -7.497431 -0.210125 1241 0.562421 0.478065 -0.753317
-8.745508 -7.495980 -0.206545 1273 0.586421 0.498943 -0.701806
-8.743336 -7.494101 -0.202967 1287 0.617679 0.525975 -0.650324
-8.741668 -7.492649 -0.199396 1311 0.641679 0.546867 -0.598943
-8.740378 -7.491527 -0.195824 1323 0.660231 0.563011 -0.547547
-8.739038 -7.490371 -0.192261 1335 0.679510 0.579642 -0.496281
-8.737869 -7.489340 -0.188707 1353 0.696333 0.594482 -0.445144
-8.736921 -7.488513 -0.185152 1375 0.709973 0.606379 -0.393993
-8.735966 -7.487678 -0.181599 1381 0.723722 0.618393 -0.342871
-8.734733 -7.486598 -0.178045 1383 0.741465 0.633933 -0.291735
-8.733885 -7.485855 -0.174499 1381 0.753663 0.644622 -0.240713
-8.734217 -7.486120 -0.170967 1389 0.748888 0.640807 -0.189893
-8.734921 -7.486708 -0.167444 1397 0.738748 0.632348 -0.139202
-8.734969 -7.486736 -0.163914 1407 0.738062 0.631950 -0.088411
-8.734120 -7.485993 -0.160368 1397 0.750274 0.642639 -0.037389
-8.733500 -7.485432 -0.156822 1389 0.759207 0.650708 0.013633
-8.733983 -7.485831 -0.153299 1383 0.752250 0.644972 0.064323
-8.735305 -7.486945 -0.149782 1381 0.733231 0.628938 0.114927
-8.735845 -7.487385 -0.146259 1379 0.725465 0.622612 0.165618
-8.735886 -7.487407 -0.142729 1363 0.724875 0.622290 0.216409
-8.736854 -7.488225 -0.139204 1361 0.710947 0.610523 0.267129
-8.737727 -7.488954 -0.135679 1349 0.698378 0.600033 0.317848
-8.739214 -7.490201 -0.132170 1353 0.676985 0.582091 0.368337
-8.741076 -7.491791 -0.128660 1343 0.650186 0.559217 0.418841
-8.742229 -7.492751 -0.125133 1323 0.633597 0.545399 0.469589
-8.743367 -7.493711 -0.121607 1287 0.617226 0.531588 0.520323
-8.745793 -7.495770 -0.118103 1273 0.582318 0.501962 0.570740
-8.748219 -7.497829 -0.114590 1241 0.547423 0.472336 0.621287
-8.751138 -7.500317 -0.111084 1205 0.505420 0.436536 0.671733
-8.754894 -7.503519 -0.107582 1155 0.451369 0.390464 0.722122
-8.758929 -7.506953 -0.104080 1097 0.393312 0.341059 0.772510
-8.763455 -7.510814 -0.100584 995 0.328187 0.285499 0.822812
-8.769762 -7.516202 -0.097099 849 0.237444 0.207976 0.872956
-8.760215 -7.504198 -0.221008 1117 0.374815 0.380694 -0.909907
-8.756434 -7.500945 -0.217378 1167 0.429208 0.427500 -0.857677
-8.753157 -7.498120 -0.213758 1205 0.476371 0.468151 -0.805591
-8.750201 -7.495569 -0.210155 1241 0.518895 0.504851 -0.753749
-8.747978 -7.493641 -0.206568 1267 0.550881 0.532596 -0.702137
-8.746305 -7.492197 -0.202997 1289 0.574949 0.553371 -0.650756
-8.744580 -7.490704 -0.199417 1321 0.599772 0.574853 -0.599245
-8.742749 -7.489105 -0.195846 1339 0.626118 0.597858 -0.547864
-8.741295 -7.487850 -0.192285 1347 0.647044 0.615916 -0.496627
-8.740291 -7.486966 -0.188721 1367 0.661493 0.628636 -0.445346
-8.739115 -7.485942 -0.185167 1377 0.678412 0.643373 -0.394209
-8.737775 -7.484771 -0.181604 1383 0.697692 0.660224 -0.342943
-8.736870 -7.483987 -0.178060 1389 0.710714 0.671503 -0.291950
-8.736484 -7.483628 -0.174513 1387 0.716271 0.676670 -0.240914
-8.736019 -7.483221 -0.170975 1399 0.722954 0.682522 -0.190008
-8.735840 -7.483053 -0.167436 1403 0.725533 0.684937 -0.139087
-8.735888 -7.483066 -0.163906 1385 0.724847 0.684752 -0.088295
-8.735929 -7.483087 -0.160375 1389 0.724257 0.684450 -0.037490
-8.737081 -7.484060 -0.156858 1407 0.707681 0.670454 0.013115
-8.737180 -7.484123 -0.153328 1391 0.706254 0.669541 0.063906
-8.737213 -7.484137 -0.149799 1373 0.705774 0.669342 0.114683
-8.738594 -7.485292 -0.146280 1389 0.685905 0.652725 0.165316
-8.738129 -7.484886 -0.142744 1347 0.692601 0.658564 0.216194
-8.738057 -7.484793 -0.139204 1343 0.693630 0.659901 0.267129
-8.739371 -7.485915 -0.135687 1335 0.674721 0.643758 0.317733
-8.740574 -7.486923 -0.132170 1339 0.657418 0.629254 0.368337
-8.742331 -7.488408 -0.128660 1321 0.632142 0.607888 0.418841
-8.744487 -7.490230 -0.125149 1307 0.601117 0.581673 0.469359
-8.746186 -7.491673 -0.121639 1291 0.576664 0.560911 0.519863
-8.748165 -7.493348 -0.118116 1269 0.548191 0.536809 0.570553
-8.750590 -7.495407 -0.114614 1241 0.513296 0.507183 0.620942
-8.753117 -7.497551 -0.111099 1205 0.476947 0.476336 0.671517
-8.756311 -7.500270 -0.107592 1157 0.430978 0.437215 0.721978
-8.760340 -7.503711 -0.104090 1093 0.373017 0.387699 0.772366
-8.765328 -7.507956 -0.100592 989 0.301238 0.326623 0.822697
-8.772410 -7.514010 -0.097111 839 0.199339 0.239516 0.872784
-8.763126 -7.502151 -0.221039 1135 0.332922 0.410149 -0.910353
-8.758619 -7.498269 -0.217396 1173 0.397771 0.466004 -0.857936
-8.755236 -7.495353 -0.213774 1197 0.446457 0.507959 -0.805821
-8.752950 -7.493376 -0.210186 1239 0.479348 0.536411 -0.754195
-8.750719 -7.491456 -0.206589 1275 0.511444 0.564033 -0.702439
-8.747722 -7.488862 -0.202997 1287 0.554572 0.601357 -0.650756
-8.746268 -7.487607 -0.199425 1309 0.575484 0.619415 -0.599360
-8.745597 -7.487011 -0.195879 1329 0.585144 0.627991 -0.548339
-8.744534 -7.486085 -0.192314 1349 0.600444 0.641315 -0.497044
-8.743024 -7.484773 -0.188753 1367 0.622166 0.660190 -0.445806
-8.740744 -7.482804 -0.185175 1363 0.654975 0.688525 -0.394324
-8.739569 -7.481780 -0.181612 1357 0.671881 0.703256 -0.343058
-8.739275 -7.481514 -0.178074 1377 0.676107 0.707084 -0.292152
-8.739110 -7.481345 -0.174536 1389 0.678481 0.709513 -0.241245
-8.738703 -7.480980 -0.170998 1399 0.684340 0.714769 -0.190339
-8.738359 -7.480678 -0.167459 1395 0.689280 0.719112 -0.139418
-8.738351 -7.480650 -0.163929 1389 0.689404 0.719516 -0.088627
-8.738670 -7.480902 -0.160398 1393 0.684807 0.715887 -0.037821
-8.739038 -7.481203 -0.156866 1393 0.679510 0.711558 0.012999
-8.739423 -7.481503 -0.153343 1395 0.673980 0.707242 0.063690
-8.739841 -7.481853 -0.149811 1381 0.667956 0.702206 0.114510
-8.740280 -7.482210 -0.146288 1369 0.661644 0.697067 0.165201
-8.740592 -7.482455 -0.142757 1355 0.657157 0.693548 0.216007
-8.741132 -7.482896 -0.139234 1345 0.649390 0.687201 0.266697
-8.742447 -7.484003 -0.135717 1341 0.630468 0.671270 0.317301
-8.743935 -7.485263 -0.132198 1337 0.609062 0.653143 0.367935
-8.745357 -7.486462 -0.128681 1313 0.588602 0.635888 0.418539
-8.746501 -7.487428 -0.125164 1301 0.572136 0.621988 0.469143
-8.748036 -7.488724 -0.121645 1279 0.550044 0.603340 0.519776
-8.750962 -7.491204 -0.118139 1261 0.507945 0.567663 0.570222
-8.752996 -7.492935 -0.114628 1231 0.478676 0.542750 0.620740
-8.754412 -7.494126 -0.111099 1185 0.458313 0.525619 0.671517
-8.757671 -7.496893 -0.107601 1143 0.411411 0.485804 0.721848
-8.762041 -7.500613 -0.104097 1077 0.348537 0.432275 0.772266
-8.767905 -7.505623 -0.100614 983 0.264161 0.360194 0.822381
-8.775330 -7.511958 -0.097132 837 0.157336 0.269039 0.872481
-8.766458 -7.500267 -0.221079 1133 0.284991 0.437256 -0.910929
-8.762012 -7.496446 -0.217434 1171 0.348962 0.492233 -0.858483
-8.757790 -7.492815 -0.213798 1199 0.409709 0.544479 -0.806166
-8.754842 -7.490271 -0.210184 1223 0.452124 0.581083 -0.754166
-8.753224 -7.488869 -0.206613 1265 0.475396 0.601254 -0.702785
-8.751165 -7.487089 -0.203035 1281 0.505022 0.626866 -0.651303
-8.748658 -7.484923 -0.199440 1297 0.541097 0.658035 -0.599576
-8.747211 -7.483674 -0.195879 1319 0.561913 0.676004 -0.548339
-8.746476 -7.483029 -0.192322 1331 0.572493 0.685287 -0.497159
-8.745472 -7.482145 -0.188768 1361 0.586942 0.698007 -0.446022
-8.744075 -7.480933 -0.185205 1361 0.607045 0.715441 -0.394756
-8.742899 -7.479909 -0.181652 1353 0.623964 0.730178 -0.343634
-8.742612 -7.479649 -0.178114 1367 0.628094 0.733918 -0.292727
-8.742319 -7.479382 -0.174566 1379 0.632307 0.737760 -0.241677
-8.742489 -7.479501 -0.171036 1385 0.629864 0.736051 -0.190886
-8.742246 -7.479283 -0.167496 1391 0.633363 0.739187 -0.139950
-8.741283 -7.478442 -0.163952 1391 0.647209 0.751283 -0.088957
-8.740897 -7.478084 -0.160414 1395 0.652766 0.756435 -0.038051
-8.740931 -7.478097 -0.156874 1385 0.652286 0.756250 0.012884
-8.741862 -7.478882 -0.153358 1383 0.638879 0.744957 0.063474
-8.742793 -7.479652 -0.149843 1375 0.625487 0.733876 0.114050
-8.743326 -7.480100 -0.146311 1363 0.617816 0.727427 0.164870
-8.743929 -7.480590 -0.142788 1365 0.609144 0.720381 0.215561
-8.744633 -7.481178 -0.139263 1349 0.599017 0.711921 0.266280
-8.745613 -7.481998 -0.135748 1349 0.584911 0.700120 0.316856
-8.746873 -7.483063 -0.132221 1339 0.566784 0.684793 0.367604
-8.748408 -7.484359 -0.128712 1309 0.544692 0.666152 0.418093
-8.749718 -7.485459 -0.125185 1297 0.525852 0.650324 0.468841
-8.751211 -7.486713 -0.121666 1281 0.504363 0.632279 0.519474
-8.753459 -7.488625 -0.118154 1265 0.472021 0.604767 0.570007
-8.755116 -7.490012 -0.114635 1219 0.448172 0.584808 0.620640
-8.757692 -7.492205 -0.111130 1187 0.411109 0.553255 0.671071
-8.761171 -7.495161 -0.107620 1133 0.361051 0.510723 0.721575
-8.765322 -7.498693 -0.104128 1069 0.301334 0.459904 0.771819
-8.770637 -7.503219 -0.100628 969 0.224861 0.394780 0.822179
-8.777391 -7.508979 -0.097149 797 0.127669 0.311906 0.872237
-8.768913 -7.497730 -0.221094 1119 0.249657 0.473763 -0.911144
-8.765024 -7.494386 -0.217466 1165 0.305615 0.521873 -0.858943
-8.761298 -7.491176 -0.213837 1189 0.359226 0.568061 -0.806727
-8.758017 -7.488358 -0.210226 1217 0.406444 0.608609 -0.754770
-8.755899 -7.486521 -0.206636 1251 0.436906 0.635044 -0.703116
-8.753735 -7.484650 -0.203049 1275 0.468055 0.661960 -0.651504
-8.751612 -7.482820 -0.199472 1295 0.498600 0.688292 -0.600037
-8.749887 -7.481328 -0.195902 1313 0.523409 0.709760 -0.548670
-8.748981 -7.480541 -0.192346 1341 0.536445 0.721081 -0.497504
-8.748091 -7.479756 -0.188791 1355 0.549262 0.732381 -0.446353
-8.746921 -7.478739 -0.185228 1351 0.566098 0.747015 -0.395087
-8.746073 -7.477995 -0.181682 1367 0.578297 0.757718 -0.344065
-8.744561 -7.476685 -0.178121 1371 0.600046 0.776565 -0.292828
-8.743892 -7.476089 -0.174576 1369 0.609679 0.785142 -0.241821
-8.744267 -7.476397 -0.171043 1369 0.604273 0.780709 -0.190986
-8.744415 -7.476509 -0.167513 1369 0.602146 0.779097 -0.140195
-8.744357 -7.476444 -0.163982 1375 0.602983 0.780037 -0.089389
-8.744071 -7.476171 -0.160444 1391 0.607099 0.783961 -0.038483
-8.743884 -7.475995 -0.156906 1385 0.609789 0.786493 0.012424
-8.744424 -7.476436 -0.153383 1361 0.602022 0.780147 0.063114
-8.745028 -7.476941 -0.149858 1371 0.593336 0.772881 0.113834
-8.745504 -7.477333 -0.146326 1365 0.586475 0.767241 0.164654
-8.746100 -7.477815 -0.142803 1357 0.577899 0.760305 0.215345
-8.746803 -7.478404 -0.139278 1341 0.567786 0.751832 0.266064
-8.747898 -7.479321 -0.135763 1337 0.552033 0.738638 0.316640
-8.749278 -7.480477 -0.132246 1331 0.532178 0.722007 0.367244
-8.751035 -7.481962 -0.128725 1307 0.506902 0.700635 0.417906
-8.752899 -7.483539 -0.125215 1293 0.480076 0.677946 0.468410
-8.754663 -7.485031 -0.121694 1275 0.454690 0.656478 0.519071
-8.756926 -7.486943 -0.118193 1251 0.422142 0.628972 0.569445
-8.759280 -7.488948 -0.114679 1229 0.388262 0.600122 0.620007
-8.761827 -7.491097 -0.111166 1181 0.351611 0.569200 0.670553
-8.764852 -7.493676 -0.107658 1115 0.308099 0.532089 0.721028
-8.768559 -7.496815 -0.104147 1049 0.254748 0.486923 0.771546
-8.772978 -7.500585 -0.100653 939 0.191174 0.432680 0.821820
-8.781349 -7.507725 -0.097175 761 0.070723 0.329951 0.871863
-8.772572 -7.496393 -0.221140 1091 0.197020 0.492995 -0.911806
-8.767900 -7.492377 -0.217497 1139 0.264230 0.550785 -0.859389
-8.763777 -7.488845 -0.213859 1181 0.323563 0.601604 -0.807044
-8.761391 -7.486783 -0.210264 1215 0.357895 0.631271 -0.755317
-8.759217 -7.484905 -0.206676 1263 0.389168 0.658296 -0.703691
-8.756099 -7.482220 -0.203073 1275 0.434038 0.696923 -0.651850
-8.753975 -7.480390 -0.199486 1285 0.464597 0.723256 -0.600238
-8.752749 -7.479331 -0.195923 1307 0.482230 0.738494 -0.548972
-8.751680 -7.478399 -0.192367 1329 0.497612 0.751907 -0.497806
-8.750953 -7.477761 -0.188822 1355 0.508082 0.761087 -0.446799
-8.749997 -7.476926 -0.185268 1347 0.521831 0.773101 -0.395662
-8.748608 -7.475721 -0.181705 1345 0.541824 0.790438 -0.344396
-8.747317 -7.474599 -0.178142 1349 0.560390 0.806582 -0.293130
-8.747530 -7.474760 -0.174612 1363 0.557330 0.804263 -0.242339
-8.747129 -7.474402 -0.171074 1369 0.563093 0.809416 -0.191432
-8.746567 -7.473896 -0.167528 1373 0.571189 0.816695 -0.140411
-8.746892 -7.474155 -0.163996 1367 0.566510 0.812970 -0.089590
-8.747417 -7.474597 -0.160473 1383 0.558949 0.806610 -0.038900
-8.747800 -7.474897 -0.156950 1377 0.553447 0.802294 0.011791
-8.747450 -7.474588 -0.153402 1369 0.558483 0.806740 0.062841
-8.747832 -7.474889 -0.149881 1361 0.552980 0.802411 0.113503
-8.748487 -7.475428 -0.146356 1361 0.543553 0.794651 0.164222
-8.748628 -7.475533 -0.142826 1345 0.541536 0.793141 0.215014
-8.748947 -7.475784 -0.139294 1323 0.536939 0.789533 0.265834
-8.750540 -7.477137 -0.135774 1323 0.514024 0.770061 0.316481
-8.752140 -7.478482 -0.132267 1317 0.490998 0.750713 0.366942
-8.753448 -7.479582 -0.128750 1309 0.472185 0.734885 0.417546
-8.755327 -7.481172 -0.125229 1295 0.445139 0.712004 0.468208
-8.756521 -7.482173 -0.121712 1257 0.427960 0.697602 0.518812
-8.759005 -7.484275 -0.118198 1237 0.392228 0.667359 0.569373
-8.761708 -7.486567 -0.114693 1211 0.353326 0.634379 0.619805
-8.764241 -7.488717 -0.111179 1159 0.316881 0.603443 0.670366
-8.767892 -7.491814 -0.107679 1111 0.264353 0.558881 0.720726
-8.772147 -7.495436 -0.104174 1029 0.203126 0.506765 0.771158
-8.778581 -7.500908 -0.100698 915 0.110558 0.428035 0.821172
-8.776765 -7.495526 -0.221205 1077 0.136684 0.505475 -0.912742
-8.772101 -7.491517 -0.217550 1139 0.203784 0.563155 -0.860152
-8.767699 -7.487740 -0.213915 1171 0.267125 0.617501 -0.807850
-8.764645 -7.485118 -0.210302 1209 0.311076 0.655229 -0.755864
-8.762079 -7.482909 -0.206707 1241 0.347988 0.687009 -0.704137
-8.759181 -7.480414 -0.203104 1261 0.389689 0.722913 -0.652296
-8.757342 -7.478823 -0.199524 1281 0.416145 0.745801 -0.600785
-8.756943 -7.478465 -0.195986 1319 0.421895 0.750953 -0.549878
-8.755602 -7.477307 -0.192413 1339 0.441188 0.767619 -0.498468
-8.753822 -7.475759 -0.188843 1339 0.466793 0.789889 -0.447101
-8.752197 -7.474364 -0.185282 1341 0.490175 0.809965 -0.395864
-8.750908 -7.473242 -0.181721 1345 0.508727 0.826108 -0.344627
-8.750678 -7.473024 -0.178181 1353 0.512034 0.829244 -0.293691
-8.750342 -7.472715 -0.174642 1357 0.516864 0.833690 -0.242770
-8.750155 -7.472540 -0.171104 1363 0.519554 0.836208 -0.191864
-8.750091 -7.472469 -0.167564 1355 0.520487 0.837230 -0.140929
-8.749974 -7.472350 -0.164026 1365 0.522161 0.838938 -0.090022
-8.749461 -7.471892 -0.160488 1369 0.529543 0.845532 -0.039116
-8.749218 -7.471675 -0.156950 1359 0.533042 0.848653 0.011791
-8.749537 -7.471928 -0.153417 1361 0.528445 0.845010 0.062625
-8.750638 -7.472852 -0.149902 1353 0.512610 0.831714 0.113201
-8.751841 -7.473861 -0.146385 1353 0.495307 0.817196 0.163805
-8.751995 -7.473965 -0.142855 1339 0.493084 0.815700 0.214596
-8.753091 -7.474883 -0.139337 1335 0.477317 0.802493 0.265215
-8.754128 -7.475759 -0.135813 1331 0.462388 0.789889 0.315920
-8.755331 -7.476767 -0.132295 1307 0.445085 0.775385 0.366539
-8.757321 -7.478441 -0.128784 1293 0.416447 0.751296 0.417057
-8.758460 -7.479402 -0.125257 1285 0.400063 0.737472 0.467805
-8.759725 -7.480458 -0.121740 1255 0.381868 0.722281 0.518409
-8.761873 -7.482273 -0.118219 1229 0.350952 0.696162 0.569071
-8.765019 -7.484942 -0.114721 1203 0.305683 0.657761 0.619402
-8.767615 -7.487142 -0.111208 1149 0.268332 0.626104 0.669949
-8.770981 -7.490001 -0.107698 1083 0.219908 0.584966 0.720453
-8.776077 -7.494338 -0.104210 995 0.146578 0.522565 0.770640
-8.782611 -7.499894 -0.100723 875 0.052569 0.442622 0.820812
-8.781201 -7.494856 -0.221277 1057 0.072850 0.515114 -0.913778
-8.776187 -7.490560 -0.217615 1119 0.145000 0.576925 -0.861087
-8.771851 -7.486831 -0.213968 1161 0.207393 0.630578 -0.808612
-8.768618 -7.484062 -0.210358 1187 0.253911 0.670419 -0.756670
-8.765668 -7.481517 -0.206755 1231 0.296353 0.707043 -0.704828
-8.762712 -7.478980 -0.203150 1245 0.338891 0.743544 -0.652957
-8.760818 -7.477346 -0.199571 1273 0.366142 0.767056 -0.601461
-8.759691 -7.476371 -0.196007 1291 0.382348 0.781087 -0.550180
-8.758686 -7.475488 -0.192453 1323 0.396811 0.793786 -0.499044
-8.756572 -7.473665 -0.188875 1321 0.427232 0.820016 -0.447562
-8.755445 -7.472691 -0.185312 1345 0.443452 0.834033 -0.396296
-8.754717 -7.472053 -0.181764 1355 0.453922 0.843213 -0.345245
-8.753932 -7.471358 -0.178209 1343 0.465215 0.853216 -0.294094
-8.753426 -7.470909 -0.174673 1335 0.472501 0.859672 -0.243217
-8.753303 -7.470783 -0.171133 1345 0.474271 0.861484 -0.192281
-8.753281 -7.470754 -0.167593 1359 0.474587 0.861902 -0.141346
-8.752766 -7.470298 -0.164057 1363 0.481997 0.868468 -0.090468
-8.752481 -7.470025 -0.160519 1361 0.486086 0.872392 -0.039562
-8.753140 -7.470570 -0.156994 1355 0.476604 0.864550 0.011158
-8.754286 -7.471538 -0.153479 1355 0.460124 0.850623 0.061733
-8.754497 -7.471697 -0.149946 1345 0.457091 0.848338 0.112568
-8.754817 -7.471949 -0.146416 1345 0.452481 0.844708 0.163359
-8.755029 -7.472110 -0.142885 1327 0.449434 0.842396 0.214165
-8.755284 -7.472313 -0.139353 1317 0.445757 0.839474 0.264985
-8.756157 -7.473041 -0.135828 1303 0.433201 0.828997 0.315704
-8.757587 -7.474246 -0.132311 1299 0.412619 0.811659 0.366309
-8.758953 -7.475388 -0.128792 1277 0.392969 0.795227 0.416942
-8.761109 -7.477210 -0.125280 1263 0.361943 0.769011 0.467474
-8.763420 -7.479171 -0.121767 1243 0.328695 0.740799 0.518021
-8.765903 -7.481273 -0.118263 1215 0.292963 0.710549 0.568438
-8.768108 -7.483129 -0.114742 1163 0.261238 0.683846 0.619100
