749
-14.867105 -13.882571 -0.632114 1107 0.731346 0.682006 0.000000
-14.867297 -13.882757 -0.625862 1109 0.731346 0.682006 0.000000
-14.867490 -13.882928 -0.619620 1131 0.731346 0.682006 0.000000
-14.867086 -13.882564 -0.613354 1131 0.731346 0.682006 0.000000
-14.867121 -13.882596 -0.607103 1133 0.731346 0.682006 0.000000
-14.867522 -13.882973 -0.600869 1133 0.731346 0.682006 0.000000
-14.867818 -13.883238 -0.594626 1125 0.731346 0.682006 0.000000
-14.868062 -13.883477 -0.588384 1131 0.731346 0.682006 0.000000
-14.867435 -13.882895 -0.582110 1133 0.731346 0.682006 0.000000
-14.867301 -13.882770 -0.575851 1127 0.731346 0.682006 0.000000
-14.867534 -13.882986 -0.569608 1123 0.731346 0.682006 0.000000
-14.867289 -13.882760 -0.563340 1117 0.731346 0.682006 0.000000
-14.867092 -13.882572 -0.557082 1123 0.731346 0.682006 0.000000
-14.867380 -13.882845 -0.550839 1115 0.731346 0.682006 0.000000
-14.867981 -13.883404 -0.544614 1137 0.731346 0.682006 0.000000
-14.867569 -13.883020 -0.538347 1111 0.731346 0.682006 0.000000
-14.867476 -13.882939 -0.532098 1119 0.731346 0.682006 0.000000
-14.866570 -13.882099 -0.525806 1121 0.731346 0.682006 0.000000
-14.866211 -13.881758 -0.519550 1119 0.731346 0.682006 0.000000
-14.866700 -13.882215 -0.513315 1115 0.731346 0.682006 0.000000
-14.867023 -13.882528 -0.507072 1109 0.731346 0.682006 0.000000
-14.866658 -13.882180 -0.500815 1119 0.731346 0.682006 0.000000
-14.866709 -13.882240 -0.494564 1115 0.731346 0.682006 0.000000
-14.867516 -13.882988 -0.488337 1103 0.731346 0.682006 0.000000
-14.867255 -13.882750 -0.482079 1107 0.731346 0.682006 0.000000
-14.866931 -13.882447 -0.475822 1121 0.731346 0.682006 0.000000
-14.867571 -13.883037 -0.469596 1119 0.731346 0.682006 0.000000
-14.867789 -13.883242 -0.463343 1125 0.731346 0.682006 0.000000
-14.867400 -13.882889 -0.457087 1127 0.731346 0.682006 0.000000
-14.866923 -13.882440 -0.450821 1113 0.731346 0.682006 0.000000
-14.866327 -13.881884 -0.444557 1119 0.731346 0.682006 0.000000
-14.865885 -13.881474 -0.438291 1097 0.731346 0.682006 0.000000
-14.865982 -13.881571 -0.432050 1117 0.731346 0.682006 0.000000
-14.865754 -13.881357 -0.425792 1131 0.731346 0.682006 0.000000
-14.865746 -13.881345 -0.419541 1131 0.731346 0.682006 0.000000
-14.866421 -13.881989 -0.413315 1131 0.731346 0.682006 0.000000
-14.866517 -13.882072 -0.407064 1121 0.731346 0.682006 0.000000
-14.865811 -13.881415 -0.400800 1117 0.731346 0.682006 0.000000
-14.865573 -13.881195 -0.394542 1123 0.731346 0.682006 0.000000
-14.865664 -13.881286 -0.388291 1125 0.731346 0.682006 0.000000
-14.865267 -13.880913 -0.382035 1137 0.731346 0.682006 0.000000
-14.865029 -13.880692 -0.375787 1137 0.731346 0.682006 0.000000
-14.865591 -13.881221 -0.369552 1121 0.731346 0.682006 0.000000
-14.866207 -13.881791 -0.363316 1121 0.731346 0.682006 0.000000
-14.865915 -13.881529 -0.357058 1111 0.731346 0.682006 0.000000
-14.865933 -13.881549 -0.350818 1107 0.731346 0.682006 0.000000
-14.865800 -13.881424 -0.344559 1099 0.731346 0.682006 0.000000
-14.865555 -13.881197 -0.338311 1095 0.731346 0.682006 0.000000
-14.866163 -13.881763 -0.332075 1103 0.731346 0.682006 0.000000
-14.866078 -13.881689 -0.325826 1107 0.731346 0.682006 0.000000
-14.865515 -13.881158 -0.319561 1117 0.731346 0.682006 0.000000
-14.864727 -13.880424 -0.313298 1105 0.731346 0.682006 0.000000
-14.864635 -13.880343 -0.307049 1109 0.731346 0.682006 0.000000
-14.864699 -13.880403 -0.300808 1109 0.731346 0.682006 0.000000
-14.864448 -13.880171 -0.294551 1105 0.731346 0.682006 0.000000
-14.865310 -13.880976 -0.288322 1097 0.731346 0.682006 0.000000
-14.865593 -13.881245 -0.282079 1099 0.731346 0.682006 0.000000
-14.864957 -13.880657 -0.275825 1117 0.731346 0.682006 0.000000
-14.871430 -13.877765 -0.663377 1099 0.731346 0.682006 0.000000
-14.872381 -13.878654 -0.657158 1113 0.731346 0.682006 0.000000
-14.872258 -13.878549 -0.650899 1103 0.731346 0.682006 0.000000
-14.871222 -13.877581 -0.644609 1095 0.731346 0.682006 0.000000
-14.872230 -13.878512 -0.638399 1115 0.731346 0.682006 0.000000
-14.871993 -13.878305 -0.632131 1117 0.731346 0.682006 0.000000
-14.871484 -13.877831 -0.625856 1119 0.731346 0.682006 0.000000
-14.872005 -13.878315 -0.619631 1131 0.731346 0.682006 0.000000
-14.871927 -13.878247 -0.613371 1125 0.731346 0.682006 0.000000
-14.872009 -13.878318 -0.607120 1121 0.731346 0.682006 0.000000
-14.872245 -13.878549 -0.600878 1123 0.731346 0.682006 0.000000
-14.872063 -13.878372 -0.594620 1131 0.731346 0.682006 0.000000
-14.871770 -13.878108 -0.588352 1107 0.731346 0.682006 0.000000
-14.871683 -13.878019 -0.582103 1107 0.731346 0.682006 0.000000
-14.871590 -13.877939 -0.575844 1117 0.731346 0.682006 0.000000
-14.871570 -13.877916 -0.569594 1123 0.731346 0.682006 0.000000
-14.871858 -13.878190 -0.563351 1113 0.731346 0.682006 0.000000
-14.871494 -13.877856 -0.557084 1115 0.731346 0.682006 0.000000
-14.870930 -13.877325 -0.550819 1115 0.731346 0.682006 0.000000
-14.871163 -13.877542 -0.544577 1117 0.731346 0.682006 0.000000
-14.871284 -13.877658 -0.538326 1125 0.731346 0.682006 0.000000
-14.870968 -13.877362 -0.532058 1105 0.731346 0.682006 0.000000
-14.871196 -13.877586 -0.525816 1111 0.731346 0.682006 0.000000
-14.871254 -13.877639 -0.519575 1133 0.731346 0.682006 0.000000
-14.871591 -13.877950 -0.513332 1119 0.731346 0.682006 0.000000
-14.871433 -13.877807 -0.507073 1123 0.731346 0.682006 0.000000
-14.871061 -13.877466 -0.500817 1131 0.731346 0.682006 0.000000
-14.870958 -13.877365 -0.494558 1115 0.731346 0.682006 0.000000
-14.870753 -13.877170 -0.488299 1111 0.731346 0.682006 0.000000
-14.871180 -13.877579 -0.482065 1127 0.731346 0.682006 0.000000
-14.871500 -13.877877 -0.475832 1113 0.731346 0.682006 0.000000
-14.871223 -13.877625 -0.469564 1129 0.731346 0.682006 0.000000
-14.870962 -13.877373 -0.463307 1123 0.731346 0.682006 0.000000
-14.870742 -13.877179 -0.457059 1129 0.731346 0.682006 0.000000
-14.871057 -13.877473 -0.450815 1119 0.731346 0.682006 0.000000
-14.871473 -13.877861 -0.444581 1109 0.731346 0.682006 0.000000
-14.870933 -13.877348 -0.438316 1139 0.731346 0.682006 0.000000
-14.870280 -13.876748 -0.432042 1131 0.731346 0.682006 0.000000
-14.869947 -13.876439 -0.425785 1119 0.731346 0.682006 0.000000
-14.870309 -13.876784 -0.419552 1123 0.731346 0.682006 0.000000
-14.870081 -13.876571 -0.413294 1107 0.731346 0.682006 0.000000
-14.870122 -13.876610 -0.407043 1105 0.731346 0.682006 0.000000
-14.870955 -13.877391 -0.400815 1107 0.731346 0.682006 0.000000
-14.870781 -13.877220 -0.394567 1109 0.731346 0.682006 0.000000
-14.869913 -13.876410 -0.388295 1109 0.731346 0.682006 0.000000
-14.870051 -13.876539 -0.382043 1119 0.731346 0.682006 0.000000
-14.870558 -13.877024 -0.375808 1119 0.731346 0.682006 0.000000
-14.870264 -13.876745 -0.369561 1117 0.731346 0.682006 0.000000
-14.869916 -13.876425 -0.363304 1129 0.731346 0.682006 0.000000
-14.869790 -13.876306 -0.357045 1129 0.731346 0.682006 0.000000
-14.869807 -13.876326 -0.350805 1119 0.731346 0.682006 0.000000
-14.870370 -13.876854 -0.344569 1107 0.731346 0.682006 0.000000
-14.870604 -13.877070 -0.338327 1121 0.731346 0.682006 0.000000
-14.869553 -13.876090 -0.332057 1113 0.731346 0.682006 0.000000
-14.868988 -13.875572 -0.325792 1097 0.731346 0.682006 0.000000
-14.870021 -13.876538 -0.319572 1121 0.731346 0.682006 0.000000
-14.870732 -13.877198 -0.313335 1133 0.731346 0.682006 0.000000
-14.870750 -13.877219 -0.307085 1125 0.731346 0.682006 0.000000
-14.869963 -13.876486 -0.300822 1113 0.731346 0.682006 0.000000
-14.868960 -13.875543 -0.294561 1101 0.731346 0.682006 0.000000
-14.869450 -13.876014 -0.288317 1103 0.731346 0.682006 0.000000
-14.869563 -13.876110 -0.282075 1105 0.731346 0.682006 0.000000
-14.869047 -13.875630 -0.275820 1113 0.731346 0.682006 0.000000
-14.875840 -13.873043 -0.663379 1117 0.731346 0.682006 0.000000
-14.876247 -13.873424 -0.657145 1129 0.731346 0.682006 0.000000
-14.875589 -13.872819 -0.650861 1101 0.731346 0.682006 0.000000
-14.876381 -13.873554 -0.644644 1121 0.731346 0.682006 0.000000
-14.876423 -13.873593 -0.638393 1115 0.731346 0.682006 0.000000
-14.875757 -13.872983 -0.632109 1115 0.731346 0.682006 0.000000
-14.875837 -13.873053 -0.625858 1117 0.731346 0.682006 0.000000
-14.875769 -13.872991 -0.619599 1099 0.731346 0.682006 0.000000
-14.876066 -13.873272 -0.613366 1093 0.731346 0.682006 0.000000
-14.876890 -13.874046 -0.607148 1123 0.731346 0.682006 0.000000
-14.877403 -13.874523 -0.600913 1107 0.731346 0.682006 0.000000
-14.876957 -13.874099 -0.594637 1117 0.731346 0.682006 0.000000
-14.876275 -13.873474 -0.588363 1135 0.731346 0.682006 0.000000
-14.876619 -13.873792 -0.582120 1149 0.731346 0.682006 0.000000
-14.876120 -13.873325 -0.575854 1119 0.731346 0.682006 0.000000
-14.875818 -13.873041 -0.569587 1135 0.731346 0.682006 0.000000
-14.876475 -13.873658 -0.563361 1143 0.731346 0.682006 0.000000
-14.876493 -13.873678 -0.557110 1111 0.731346 0.682006 0.000000
-14.876191 -13.873394 -0.550843 1119 0.731346 0.682006 0.000000
-14.876148 -13.873365 -0.544593 1131 0.731346 0.682006 0.000000
-14.875782 -13.873018 -0.538327 1119 0.731346 0.682006 0.000000
-14.875211 -13.872495 -0.532062 1135 0.731346 0.682006 0.000000
-14.875547 -13.872806 -0.525818 1123 0.731346 0.682006 0.000000
-14.875886 -13.873118 -0.519585 1129 0.731346 0.682006 0.000000
-14.875465 -13.872727 -0.513319 1131 0.731346 0.682006 0.000000
-14.875682 -13.872931 -0.507077 1117 0.731346 0.682006 0.000000
-14.876809 -13.873983 -0.500856 1133 0.731346 0.682006 0.000000
-14.877076 -13.874240 -0.494623 1121 0.731346 0.682006 0.000000
-14.876281 -13.873501 -0.488341 1115 0.731346 0.682006 0.000000
-14.875478 -13.872755 -0.482068 1109 0.731346 0.682006 0.000000
-14.875263 -13.872553 -0.475810 1101 0.731346 0.682006 0.000000
-14.876008 -13.873252 -0.469583 1123 0.731346 0.682006 0.000000
-14.876018 -13.873252 -0.463333 1133 0.731346 0.682006 0.000000
-14.875310 -13.872595 -0.457059 1135 0.731346 0.682006 0.000000
-14.875458 -13.872744 -0.450817 1119 0.731346 0.682006 0.000000
-14.874821 -13.872143 -0.444543 1111 0.731346 0.682006 0.000000
-14.874225 -13.871586 -0.438279 1107 0.731346 0.682006 0.000000
-14.874690 -13.872025 -0.432044 1129 0.731346 0.682006 0.000000
-14.874941 -13.872269 -0.425802 1123 0.731346 0.682006 0.000000
-14.875245 -13.872556 -0.419569 1129 0.731346 0.682006 0.000000
-14.875072 -13.872386 -0.413310 1129 0.731346 0.682006 0.000000
-14.875808 -13.873078 -0.407083 1097 0.731346 0.682006 0.000000
-14.875420 -13.872712 -0.400817 1091 0.731346 0.682006 0.000000
-14.874600 -13.871954 -0.394554 1117 0.731346 0.682006 0.000000
-14.874578 -13.871929 -0.388304 1115 0.731346 0.682006 0.000000
-14.874660 -13.872014 -0.382053 1119 0.731346 0.682006 0.000000
-14.874697 -13.872048 -0.375813 1125 0.731346 0.682006 0.000000
-14.874347 -13.871726 -0.369556 1129 0.731346 0.682006 0.000000
-14.874589 -13.871949 -0.363313 1133 0.731346 0.682006 0.000000
-14.874935 -13.872281 -0.357070 1135 0.731346 0.682006 0.000000
-14.874906 -13.872251 -0.350820 1113 0.731346 0.682006 0.000000
-14.875146 -13.872474 -0.344578 1117 0.731346 0.682006 0.000000
-14.874902 -13.872248 -0.338320 1105 0.731346 0.682006 0.000000
-14.875295 -13.872618 -0.332086 1133 0.731346 0.682006 0.000000
-14.875001 -13.872339 -0.325829 1121 0.731346 0.682006 0.000000
-14.873847 -13.871264 -0.319559 1115 0.731346 0.682006 0.000000
-14.873690 -13.871119 -0.313311 1109 0.731346 0.682006 0.000000
-14.873334 -13.870791 -0.307054 1109 0.731346 0.682006 0.000000
-14.873511 -13.870966 -0.300812 1105 0.731346 0.682006 0.000000
-14.874215 -13.871619 -0.294575 1117 0.731346 0.682006 0.000000
-14.873803 -13.871235 -0.288319 1111 0.731346 0.682006 0.000000
-14.873440 -13.870901 -0.282072 1099 0.731346 0.682006 0.000000
-14.873928 -13.871358 -0.275827 1099 0.731346 0.682006 0.000000
-14.881410 -13.869739 -0.663438 1123 0.731346 0.682006 0.000000
-14.880813 -13.869183 -0.657154 1111 0.731346 0.682006 0.000000
-14.880473 -13.868867 -0.650887 1099 0.731346 0.682006 0.000000
-14.880992 -13.869349 -0.644662 1113 0.731346 0.682006 0.000000
-14.880549 -13.868940 -0.638386 1103 0.731346 0.682006 0.000000
-14.879570 -13.868030 -0.632095 1123 0.731346 0.682006 0.000000
-14.879867 -13.868310 -0.625852 1131 0.731346 0.682006 0.000000
-14.880651 -13.869040 -0.619634 1133 0.731346 0.682006 0.000000
-14.880191 -13.868617 -0.613359 1117 0.731346 0.682006 0.000000
-14.880116 -13.868550 -0.607099 1119 0.731346 0.682006 0.000000
-14.880037 -13.868482 -0.600850 1111 0.731346 0.682006 0.000000
-14.879370 -13.867856 -0.594566 1119 0.731346 0.682006 0.000000
-14.879555 -13.868035 -0.588324 1143 0.731346 0.682006 0.000000
-14.880116 -13.868549 -0.582099 1141 0.731346 0.682006 0.000000
-14.880079 -13.868526 -0.575839 1131 0.731346 0.682006 0.000000
-14.880050 -13.868496 -0.569589 1133 0.731346 0.682006 0.000000
-14.880019 -13.868465 -0.563339 1115 0.731346 0.682006 0.000000
-14.880356 -13.868777 -0.557096 1109 0.731346 0.682006 0.000000
-14.880637 -13.869045 -0.550853 1119 0.731346 0.682006 0.000000
-14.879859 -13.868320 -0.544580 1103 0.731346 0.682006 0.000000
-14.880028 -13.868485 -0.538328 1131 0.731346 0.682006 0.000000
-14.880414 -13.868848 -0.532094 1131 0.731346 0.682006 0.000000
-14.879619 -13.868109 -0.525812 1129 0.731346 0.682006 0.000000
-14.878943 -13.867477 -0.519538 1145 0.731346 0.682006 0.000000
-14.879057 -13.867585 -0.513297 1145 0.731346 0.682006 0.000000
-14.880288 -13.868734 -0.507085 1111 0.731346 0.682006 0.000000
-14.881254 -13.869635 -0.500866 1131 0.731346 0.682006 0.000000
-14.880515 -13.868939 -0.494593 1125 0.731346 0.682006 0.000000
-14.879394 -13.867903 -0.488303 1135 0.731346 0.682006 0.000000
-14.879228 -13.867752 -0.482054 1127 0.731346 0.682006 0.000000
-14.879286 -13.867804 -0.475804 1109 0.731346 0.682006 0.000000
-14.879552 -13.868060 -0.469561 1105 0.731346 0.682006 0.000000
-14.880415 -13.868853 -0.463343 1135 0.731346 0.682006 0.000000
-14.880130 -13.868594 -0.457085 1129 0.731346 0.682006 0.000000
-14.879814 -13.868299 -0.450818 1129 0.731346 0.682006 0.000000
-14.879960 -13.868446 -0.444577 1147 0.731346 0.682006 0.000000
-14.880217 -13.868682 -0.438334 1125 0.731346 0.682006 0.000000
-14.880316 -13.868780 -0.432083 1121 0.731346 0.682006 0.000000
-14.879935 -13.868420 -0.425826 1117 0.731346 0.682006 0.000000
-14.879116 -13.867661 -0.419554 1113 0.731346 0.682006 0.000000
-14.878888 -13.867448 -0.413296 1115 0.731346 0.682006 0.000000
-14.878546 -13.867132 -0.407039 1113 0.731346 0.682006 0.000000
-14.878317 -13.866919 -0.400791 1119 0.731346 0.682006 0.000000
-14.878463 -13.867053 -0.394539 1107 0.731346 0.682006 0.000000
-14.878331 -13.866942 -0.388290 1131 0.731346 0.682006 0.000000
-14.878204 -13.866822 -0.382041 1121 0.731346 0.682006 0.000000
-14.878078 -13.866703 -0.375792 1121 0.731346 0.682006 0.000000
-14.877683 -13.866330 -0.369526 1113 0.731346 0.682006 0.000000
-14.877758 -13.866409 -0.363285 1103 0.731346 0.682006 0.000000
-14.878270 -13.866886 -0.357050 1119 0.731346 0.682006 0.000000
-14.878448 -13.867059 -0.350808 1127 0.731346 0.682006 0.000000
-14.879065 -13.867630 -0.344572 1125 0.731346 0.682006 0.000000
-14.878181 -13.866808 -0.338301 1125 0.731346 0.682006 0.000000
-14.877242 -13.865929 -0.332039 1117 0.731346 0.682006 0.000000
-14.878273 -13.866893 -0.325809 1111 0.731346 0.682006 0.000000
-14.878882 -13.867473 -0.319574 1113 0.731346 0.682006 0.000000
-14.878796 -13.867384 -0.313324 1117 0.731346 0.682006 0.000000
-14.878433 -13.867052 -0.307067 1123 0.731346 0.682006 0.000000
-14.878172 -13.866813 -0.300820 1115 0.731346 0.682006 0.000000
-14.877656 -13.866333 -0.294564 1113 0.731346 0.682006 0.000000
-14.877235 -13.865941 -0.288308 1121 0.731346 0.682006 0.000000
-14.877462 -13.866152 -0.282066 1109 0.731346 0.682006 0.000000
-14.878110 -13.866761 -0.275830 1121 0.731346 0.682006 0.000000
-14.884093 -13.863750 -0.663365 1117 0.731346 0.682006 0.000000
-14.884142 -13.863794 -0.657114 1097 0.731346 0.682006 0.000000
-14.883801 -13.863480 -0.650847 1109 0.731346 0.682006 0.000000
-14.883676 -13.863360 -0.644588 1111 0.731346 0.682006 0.000000
-14.884517 -13.864148 -0.638380 1117 0.731346 0.682006 0.000000
-14.884072 -13.863737 -0.632104 1117 0.731346 0.682006 0.000000
-14.883843 -13.863524 -0.625846 1125 0.731346 0.682006 0.000000
-14.883981 -13.863651 -0.619595 1107 0.731346 0.682006 0.000000
-14.884542 -13.864180 -0.613369 1109 0.731346 0.682006 0.000000
-14.885269 -13.864852 -0.607142 1123 0.731346 0.682006 0.000000
-14.884919 -13.864530 -0.600875 1111 0.731346 0.682006 0.000000
-14.884731 -13.864362 -0.594617 1131 0.731346 0.682006 0.000000
-14.884009 -13.863693 -0.588334 1137 0.731346 0.682006 0.000000
-14.883020 -13.862761 -0.582043 1119 0.731346 0.682006 0.000000
-14.883623 -13.863335 -0.575817 1129 0.731346 0.682006 0.000000
-14.884295 -13.863949 -0.569591 1129 0.731346 0.682006 0.000000
-14.884464 -13.864118 -0.563349 1103 0.731346 0.682006 0.000000
-14.884492 -13.864144 -0.557098 1117 0.731346 0.682006 0.000000
-14.883384 -13.863105 -0.550809 1107 0.731346 0.682006 0.000000
-14.883657 -13.863367 -0.544566 1113 0.731346 0.682006 0.000000
-14.884371 -13.864041 -0.538339 1119 0.731346 0.682006 0.000000
-14.883686 -13.863402 -0.532065 1117 0.731346 0.682006 0.000000
-14.883856 -13.863556 -0.525814 1125 0.731346 0.682006 0.000000
-14.884514 -13.864173 -0.519587 1141 0.731346 0.682006 0.000000
-14.884474 -13.864135 -0.513337 1123 0.731346 0.682006 0.000000
-14.883943 -13.863644 -0.507072 1111 0.731346 0.682006 0.000000
-14.883301 -13.863050 -0.500798 1103 0.731346 0.682006 0.000000
-14.883517 -13.863255 -0.494556 1121 0.731346 0.682006 0.000000
-14.884381 -13.864060 -0.488338 1125 0.731346 0.682006 0.000000
-14.884111 -13.863802 -0.482070 1111 0.731346 0.682006 0.000000
-14.882878 -13.862663 -0.475781 1119 0.731346 0.682006 0.000000
-14.883096 -13.862867 -0.469539 1135 0.731346 0.682006 0.000000
-14.884375 -13.864054 -0.463337 1139 0.731346 0.682006 0.000000
-14.885223 -13.864848 -0.457109 1135 0.731346 0.682006 0.000000
-14.884580 -13.864254 -0.450835 1131 0.731346 0.682006 0.000000
-14.883345 -13.863102 -0.444556 1119 0.731346 0.682006 0.000000
-14.883601 -13.863338 -0.438314 1097 0.731346 0.682006 0.000000
-14.883811 -13.863536 -0.432072 1113 0.731346 0.682006 0.000000
-14.883631 -13.863374 -0.425813 1123 0.731346 0.682006 0.000000
-14.883561 -13.863312 -0.419564 1131 0.731346 0.682006 0.000000
-14.883979 -13.863700 -0.413330 1129 0.731346 0.682006 0.000000
-14.883964 -13.863682 -0.407080 1117 0.731346 0.682006 0.000000
-14.883680 -13.863424 -0.400822 1119 0.731346 0.682006 0.000000
-14.883442 -13.863204 -0.394564 1127 0.731346 0.682006 0.000000
-14.883110 -13.862895 -0.388307 1125 0.731346 0.682006 0.000000
-14.882713 -13.862522 -0.382051 1123 0.731346 0.682006 0.000000
-14.882636 -13.862455 -0.375801 1139 0.731346 0.682006 0.000000
-14.883523 -13.863279 -0.369573 1117 0.731346 0.682006 0.000000
-14.884197 -13.863909 -0.363336 1127 0.731346 0.682006 0.000000
-14.883202 -13.862986 -0.357066 1107 0.731346 0.682006 0.000000
-14.883068 -13.862860 -0.350817 1099 0.731346 0.682006 0.000000
-14.883461 -13.863229 -0.344583 1111 0.731346 0.682006 0.000000
-14.883434 -13.863214 -0.338333 1111 0.731346 0.682006 0.000000
-14.883992 -13.863728 -0.332098 1123 0.731346 0.682006 0.000000
-14.883150 -13.862949 -0.325825 1131 0.731346 0.682006 0.000000
-14.881886 -13.861773 -0.319557 1111 0.731346 0.682006 0.000000
-14.882070 -13.861939 -0.313305 1113 0.731346 0.682006 0.000000
-14.882879 -13.862702 -0.307077 1103 0.731346 0.682006 0.000000
-14.882944 -13.862761 -0.300837 1113 0.731346 0.682006 0.000000
-14.882365 -13.862231 -0.294572 1123 0.731346 0.682006 0.000000
-14.882590 -13.862441 -0.288330 1117 0.731346 0.682006 0.000000
-14.882608 -13.862448 -0.282079 1101 0.731346 0.682006 0.000000
-14.882992 -13.862810 -0.275845 1125 0.731346 0.682006 0.000000
-14.887426 -13.858032 -0.663327 1107 0.731346 0.682006 0.000000
-14.888806 -13.859313 -0.657134 1097 0.731346 0.682006 0.000000
-14.889224 -13.859701 -0.650900 1099 0.731346 0.682006 0.000000
-14.888772 -13.859284 -0.644624 1093 0.731346 0.682006 0.000000
-14.888918 -13.859419 -0.638382 1119 0.731346 0.682006 0.000000
-14.889279 -13.859763 -0.632138 1123 0.731346 0.682006 0.000000
-14.888820 -13.859341 -0.625873 1123 0.731346 0.682006 0.000000
-14.888854 -13.859374 -0.619612 1117 0.731346 0.682006 0.000000
-14.889310 -13.859793 -0.613388 1117 0.731346 0.682006 0.000000
-14.889026 -13.859535 -0.607120 1139 0.731346 0.682006 0.000000
-14.888629 -13.859163 -0.600854 1113 0.731346 0.682006 0.000000
-14.888441 -13.858994 -0.594595 1125 0.731346 0.682006 0.000000
-14.888299 -13.858862 -0.588337 1105 0.731346 0.682006 0.000000
-14.888484 -13.859028 -0.582085 1099 0.731346 0.682006 0.000000
-14.888400 -13.858954 -0.575835 1127 0.731346 0.682006 0.000000
-14.889015 -13.859526 -0.569609 1121 0.731346 0.682006 0.000000
-14.888333 -13.858901 -0.563326 1117 0.731346 0.682006 0.000000
-14.887337 -13.857965 -0.557045 1115 0.731346 0.682006 0.000000
-14.888416 -13.858980 -0.550835 1115 0.731346 0.682006 0.000000
-14.888379 -13.858944 -0.544575 1107 0.731346 0.682006 0.000000
-14.887753 -13.858363 -0.538300 1107 0.731346 0.682006 0.000000
-14.888949 -13.859472 -0.532099 1121 0.731346 0.682006 0.000000
-14.889599 -13.860083 -0.525863 1133 0.731346 0.682006 0.000000
-14.888700 -13.859248 -0.519581 1121 0.731346 0.682006 0.000000
-14.888015 -13.858609 -0.513307 1109 0.731346 0.682006 0.000000
-14.888344 -13.858914 -0.507074 1123 0.731346 0.682006 0.000000
-14.888937 -13.859468 -0.500838 1105 0.731346 0.682006 0.000000
-14.889212 -13.859729 -0.494596 1117 0.731346 0.682006 0.000000
-14.889102 -13.859623 -0.488347 1123 0.731346 0.682006 0.000000
-14.889208 -13.859726 -0.482096 1137 0.731346 0.682006 0.000000
-14.888724 -13.859284 -0.475830 1115 0.731346 0.682006 0.000000
-14.888024 -13.858634 -0.469556 1115 0.731346 0.682006 0.000000
-14.887597 -13.858236 -0.463300 1105 0.731346 0.682006 0.000000
-14.888182 -13.858784 -0.457064 1121 0.731346 0.682006 0.000000
-14.888494 -13.859076 -0.450831 1127 0.731346 0.682006 0.000000
-14.888273 -13.858869 -0.444573 1125 0.731346 0.682006 0.000000
-14.888212 -13.858813 -0.438324 1117 0.731346 0.682006 0.000000
-14.888475 -13.859055 -0.432081 1119 0.731346 0.682006 0.000000
-14.888727 -13.859299 -0.425839 1119 0.731346 0.682006 0.000000
-14.888936 -13.859483 -0.419597 1115 0.731346 0.682006 0.000000
-14.888865 -13.859421 -0.413337 1123 0.731346 0.682006 0.000000
-14.888741 -13.859315 -0.407088 1121 0.731346 0.682006 0.000000
-14.888456 -13.859044 -0.400830 1103 0.731346 0.682006 0.000000
-14.887478 -13.858134 -0.394559 1109 0.731346 0.682006 0.000000
-14.887401 -13.858066 -0.388310 1105 0.731346 0.682006 0.000000
-14.888551 -13.859138 -0.382089 1123 0.731346 0.682006 0.000000
-14.888060 -13.858677 -0.375824 1111 0.731346 0.682006 0.000000
-14.887766 -13.858412 -0.369566 1131 0.731346 0.682006 0.000000
-14.888703 -13.859289 -0.363347 1129 0.731346 0.682006 0.000000
-14.888721 -13.859309 -0.357097 1141 0.731346 0.682006 0.000000
-14.887366 -13.858036 -0.350819 1125 0.731346 0.682006 0.000000
-14.886311 -13.857064 -0.344539 1113 0.731346 0.682006 0.000000
-14.886495 -13.857230 -0.338297 1111 0.731346 0.682006 0.000000
-14.886895 -13.857605 -0.332063 1123 0.731346 0.682006 0.000000
-14.887017 -13.857720 -0.325822 1107 0.731346 0.682006 0.000000
-14.887995 -13.858643 -0.319593 1113 0.731346 0.682006 0.000000
-14.888068 -13.858706 -0.313342 1119 0.731346 0.682006 0.000000
-14.887176 -13.857878 -0.307080 1097 0.731346 0.682006 0.000000
-14.886978 -13.857690 -0.300832 1093 0.731346 0.682006 0.000000
-14.888169 -13.858806 -0.294601 1105 0.731346 0.682006 0.000000
-14.889090 -13.859656 -0.288372 1121 0.731346 0.682006 0.000000
-14.888239 -13.858873 -0.282110 1127 0.731346 0.682006 0.000000
-14.887554 -13.858234 -0.275846 1107 0.731346 0.682006 0.000000
-14.893585 -13.855272 -0.663410 1125 0.731346 0.682006 0.000000
-14.893682 -13.855355 -0.657159 1113 0.731346 0.682006 0.000000
-14.892815 -13.854547 -0.650867 1099 0.731346 0.682006 0.000000
-14.892746 -13.854486 -0.644618 1105 0.731346 0.682006 0.000000
-14.893314 -13.855019 -0.638382 1113 0.731346 0.682006 0.000000
-14.893245 -13.854957 -0.632133 1103 0.731346 0.682006 0.000000
-14.893702 -13.855375 -0.625898 1109 0.731346 0.682006 0.000000
-14.893791 -13.855466 -0.619647 1103 0.731346 0.682006 0.000000
-14.893827 -13.855500 -0.613397 1117 0.731346 0.682006 0.000000
-14.892992 -13.854730 -0.607105 1113 0.731346 0.682006 0.000000
-14.892707 -13.854459 -0.600847 1111 0.731346 0.682006 0.000000
-14.892671 -13.854436 -0.594597 1109 0.731346 0.682006 0.000000
-14.893341 -13.855050 -0.588371 1125 0.731346 0.682006 0.000000
-14.894053 -13.855724 -0.582144 1131 0.731346 0.682006 0.000000
-14.892851 -13.854598 -0.575845 1113 0.731346 0.682006 0.000000
-14.892503 -13.854276 -0.569578 1089 0.731346 0.682006 0.000000
-14.892888 -13.854639 -0.563344 1111 0.731346 0.682006 0.000000
-14.893232 -13.854957 -0.557101 1121 0.731346 0.682006 0.000000
-14.892815 -13.854581 -0.550835 1113 0.731346 0.682006 0.000000
-14.892942 -13.854689 -0.544594 1101 0.731346 0.682006 0.000000
-14.893385 -13.855109 -0.538359 1111 0.731346 0.682006 0.000000
-14.893131 -13.854876 -0.532091 1135 0.731346 0.682006 0.000000
-14.893413 -13.855130 -0.525859 1119 0.731346 0.682006 0.000000
-14.892888 -13.854644 -0.519583 1113 0.731346 0.682006 0.000000
-14.892086 -13.853912 -0.513311 1113 0.731346 0.682006 0.000000
-14.892366 -13.854166 -0.507068 1131 0.731346 0.682006 0.000000
-14.891883 -13.853724 -0.500802 1121 0.731346 0.682006 0.000000
-14.892267 -13.854074 -0.494559 1141 0.731346 0.682006 0.000000
-14.892749 -13.854526 -0.488324 1121 0.731346 0.682006 0.000000
-14.892423 -13.854222 -0.482067 1115 0.731346 0.682006 0.000000
-14.892426 -13.854231 -0.475817 1117 0.731346 0.682006 0.000000
-14.892747 -13.854530 -0.469573 1105 0.731346 0.682006 0.000000
-14.893596 -13.855324 -0.463355 1115 0.731346 0.682006 0.000000
-14.893494 -13.855224 -0.457096 1117 0.731346 0.682006 0.000000
-14.892570 -13.854370 -0.450825 1115 0.731346 0.682006 0.000000
-14.891657 -13.853523 -0.444543 1095 0.731346 0.682006 0.000000
-14.891436 -13.853316 -0.438295 1097 0.731346 0.682006 0.000000
-14.892124 -13.853957 -0.432058 1107 0.731346 0.682006 0.000000
-14.893179 -13.854941 -0.425838 1103 0.731346 0.682006 0.000000
-14.893818 -13.855532 -0.419612 1117 0.731346 0.682006 0.000000
-14.893367 -13.855115 -0.413346 1125 0.731346 0.682006 0.000000
-14.892220 -13.854059 -0.407067 1109 0.731346 0.682006 0.000000
-14.891994 -13.853847 -0.400819 1107 0.731346 0.682006 0.000000
-14.892035 -13.853885 -0.394568 1109 0.731346 0.682006 0.000000
-14.891958 -13.853818 -0.388319 1129 0.731346 0.682006 0.000000
-14.892309 -13.854141 -0.382075 1145 0.731346 0.682006 0.000000
-14.892345 -13.854176 -0.375825 1127 0.731346 0.682006 0.000000
-14.891995 -13.853853 -0.369568 1119 0.731346 0.682006 0.000000
-14.892023 -13.853881 -0.363328 1133 0.731346 0.682006 0.000000
-14.892320 -13.854161 -0.357085 1105 0.731346 0.682006 0.000000
-14.891973 -13.853841 -0.350828 1093 0.731346 0.682006 0.000000
-14.891671 -13.853557 -0.344570 1105 0.731346 0.682006 0.000000
-14.892231 -13.854083 -0.338335 1121 0.731346 0.682006 0.000000
-14.892242 -13.854098 -0.332085 1115 0.731346 0.682006 0.000000
-14.891789 -13.853668 -0.325829 1097 0.731346 0.682006 0.000000
-14.891856 -13.853742 -0.319588 1111 0.731346 0.682006 0.000000
-14.891554 -13.853457 -0.313331 1109 0.731346 0.682006 0.000000
-14.892003 -13.853870 -0.307096 1107 0.731346 0.682006 0.000000
-14.892278 -13.854132 -0.300854 1113 0.731346 0.682006 0.000000
-14.892247 -13.854101 -0.294604 1111 0.731346 0.682006 0.000000
-14.892035 -13.853913 -0.288346 1117 0.731346 0.682006 0.000000
-14.891677 -13.853572 -0.282099 1119 0.731346 0.682006 0.000000
-14.892167 -13.854031 -0.275854 1101 0.731346 0.682006 0.000000
-14.898946 -13.851765 -0.663462 1133 0.731346 0.682006 0.000000
-14.898447 -13.851312 -0.657186 1121 0.731346 0.682006 0.000000
-14.897517 -13.850451 -0.650895 1091 0.731346 0.682006 0.000000
-14.896650 -13.849643 -0.644603 1107 0.731346 0.682006 0.000000
-14.897121 -13.850074 -0.638368 1107 0.731346 0.682006 0.000000
-14.897254 -13.850210 -0.632127 1105 0.731346 0.682006 0.000000
-14.897287 -13.850244 -0.625876 1101 0.731346 0.682006 0.000000
-14.898397 -13.851271 -0.619666 1117 0.731346 0.682006 0.000000
-14.899021 -13.851848 -0.613440 1115 0.731346 0.682006 0.000000
-14.898722 -13.851579 -0.607172 1121 0.731346 0.682006 0.000000
-14.897727 -13.850655 -0.600881 1111 0.731346 0.682006 0.000000
-14.897553 -13.850484 -0.594623 1101 0.731346 0.682006 0.000000
-14.897995 -13.850904 -0.588389 1127 0.731346 0.682006 0.000000
-14.897654 -13.850589 -0.582122 1115 0.731346 0.682006 0.000000
-14.897138 -13.850109 -0.575846 1095 0.731346 0.682006 0.000000
-14.897204 -13.850168 -0.569596 1097 0.731346 0.682006 0.000000
-14.896528 -13.849549 -0.563322 1115 0.731346 0.682006 0.000000
-14.896660 -13.849671 -0.557080 1101 0.731346 0.682006 0.000000
-14.897641 -13.850585 -0.550861 1131 0.731346 0.682006 0.000000
-14.897659 -13.850593 -0.544611 1133 0.731346 0.682006 0.000000
-14.897933 -13.850854 -0.538368 1127 0.731346 0.682006 0.000000
-14.898382 -13.851267 -0.532134 1129 0.731346 0.682006 0.000000
-14.898170 -13.851079 -0.525876 1125 0.731346 0.682006 0.000000
-14.898180 -13.851093 -0.519625 1129 0.731346 0.682006 0.000000
-14.897983 -13.850905 -0.513367 1125 0.731346 0.682006 0.000000
-14.897228 -13.850210 -0.507094 1119 0.731346 0.682006 0.000000
-14.897134 -13.850117 -0.500835 1109 0.731346 0.682006 0.000000
-14.897936 -13.850873 -0.494617 1109 0.731346 0.682006 0.000000
-14.897251 -13.850234 -0.488343 1125 0.731346 0.682006 0.000000
-14.896494 -13.849525 -0.482060 1117 0.731346 0.682006 0.000000
-14.896067 -13.849129 -0.475804 1111 0.731346 0.682006 0.000000
-14.896172 -13.849231 -0.469553 1105 0.731346 0.682006 0.000000
-14.897188 -13.850183 -0.463333 1121 0.731346 0.682006 0.000000
-14.897292 -13.850272 -0.457092 1107 0.731346 0.682006 0.000000
-14.897441 -13.850422 -0.450841 1109 0.731346 0.682006 0.000000
-14.896740 -13.849770 -0.444577 1085 0.731346 0.682006 0.000000
-14.896679 -13.849714 -0.438327 1099 0.731346 0.682006 0.000000
-14.896936 -13.849951 -0.432085 1127 0.731346 0.682006 0.000000
-14.896716 -13.849744 -0.425827 1107 0.731346 0.682006 0.000000
-14.897028 -13.850036 -0.419584 1111 0.731346 0.682006 0.000000
-14.897223 -13.850223 -0.413342 1107 0.731346 0.682006 0.000000
-14.896778 -13.849813 -0.407076 1121 0.731346 0.682006 0.000000
-14.896390 -13.849445 -0.400819 1109 0.731346 0.682006 0.000000
-14.895730 -13.848840 -0.394555 1105 0.731346 0.682006 0.000000
-14.895868 -13.848968 -0.388314 1113 0.731346 0.682006 0.000000
-14.896804 -13.849844 -0.382085 1111 0.731346 0.682006 0.000000
-14.897754 -13.850718 -0.375856 1119 0.731346 0.682006 0.000000
-14.897670 -13.850645 -0.369606 1121 0.731346 0.682006 0.000000
-14.896947 -13.849975 -0.363343 1119 0.731346 0.682006 0.000000
-14.896335 -13.849406 -0.357079 1113 0.731346 0.682006 0.000000
-14.895876 -13.848985 -0.350823 1105 0.731346 0.682006 0.000000
-14.895845 -13.848954 -0.344573 1117 0.731346 0.682006 0.000000
-14.895870 -13.848980 -0.338322 1107 0.731346 0.682006 0.000000
-14.896265 -13.849350 -0.332089 1103 0.731346 0.682006 0.000000
-14.896395 -13.849472 -0.325837 1093 0.731346 0.682006 0.000000
-14.896467 -13.849536 -0.319596 1097 0.731346 0.682006 0.000000
-14.896160 -13.849260 -0.313339 1105 0.731346 0.682006 0.000000
-14.895858 -13.848976 -0.307082 1097 0.731346 0.682006 0.000000
-14.897217 -13.850238 -0.300869 1113 0.731346 0.682006 0.000000
-14.897059 -13.850094 -0.294620 1113 0.731346 0.682006 0.000000
-14.896170 -13.849266 -0.288348 1119 0.731346 0.682006 0.000000
-14.895422 -13.848577 -0.282085 1103 0.731346 0.682006 0.000000
-14.895424 -13.848586 -0.275845 1103 0.731346 0.682006 0.000000
-14.902001 -13.845789 -0.663406 1091 0.731346 0.682006 0.000000
-14.902154 -13.845929 -0.657155 1105 0.731346 0.682006 0.000000
-14.902135 -13.845920 -0.650905 1101 0.731346 0.682006 0.000000
-14.902119 -13.845901 -0.644655 1109 0.731346 0.682006 0.000000
-14.902210 -13.845992 -0.638404 1105 0.731346 0.682006 0.000000
-14.902508 -13.846272 -0.632161 1111 0.731346 0.682006 0.000000
-14.901959 -13.845754 -0.625886 1093 0.731346 0.682006 0.000000
-14.901721 -13.845533 -0.619618 1095 0.731346 0.682006 0.000000
-14.902237 -13.846025 -0.613393 1101 0.731346 0.682006 0.000000
-14.902102 -13.845899 -0.607134 1101 0.731346 0.682006 0.000000
-14.901649 -13.845483 -0.600858 1103 0.731346 0.682006 0.000000
-14.901781 -13.845605 -0.594616 1105 0.731346 0.682006 0.000000
-14.902347 -13.846124 -0.588381 1107 0.731346 0.682006 0.000000
-14.902581 -13.846342 -0.582139 1107 0.731346 0.682006 0.000000
-14.902607 -13.846369 -0.575888 1093 0.731346 0.682006 0.000000
-14.902363 -13.846143 -0.569630 1115 0.731346 0.682006 0.000000
-14.901258 -13.845119 -0.563341 1123 0.731346 0.682006 0.000000
-14.901540 -13.845387 -0.557098 1125 0.731346 0.682006 0.000000
-14.902466 -13.846243 -0.550879 1109 0.731346 0.682006 0.000000
-14.901941 -13.845757 -0.544604 1111 0.731346 0.682006 0.000000
-14.901362 -13.845226 -0.538339 1111 0.731346 0.682006 0.000000
-14.902401 -13.846185 -0.532119 1113 0.731346 0.682006 0.000000
-14.901981 -13.845807 -0.525853 1107 0.731346 0.682006 0.000000
-14.900810 -13.844719 -0.519564 1125 0.731346 0.682006 0.000000
-14.902059 -13.845880 -0.513352 1121 0.731346 0.682006 0.000000
-14.902969 -13.846723 -0.507133 1127 0.731346 0.682006 0.000000
-14.901695 -13.845540 -0.500845 1119 0.731346 0.682006 0.000000
-14.900669 -13.844592 -0.494554 1119 0.731346 0.682006 0.000000
-14.900847 -13.844751 -0.488313 1101 0.731346 0.682006 0.000000
-14.901751 -13.845603 -0.482094 1101 0.731346 0.682006 0.000000
-14.903044 -13.846800 -0.475882 1113 0.731346 0.682006 0.000000
-14.902072 -13.845896 -0.469601 1111 0.731346 0.682006 0.000000
-14.900887 -13.844795 -0.463322 1077 0.731346 0.682006 0.000000
-14.901097 -13.844994 -0.457070 1093 0.731346 0.682006 0.000000
-14.901258 -13.845140 -0.450828 1111 0.731346 0.682006 0.000000
-14.901621 -13.845486 -0.444594 1111 0.731346 0.682006 0.000000
-14.901774 -13.845627 -0.438343 1101 0.731346 0.682006 0.000000
-14.901552 -13.845418 -0.432085 1103 0.731346 0.682006 0.000000
-14.901754 -13.845610 -0.425843 1101 0.731346 0.682006 0.000000
-14.901734 -13.845600 -0.419593 1107 0.731346 0.682006 0.000000
-14.901617 -13.845488 -0.413344 1111 0.731346 0.682006 0.000000
-14.900851 -13.844772 -0.407071 1117 0.731346 0.682006 0.000000
-14.900409 -13.844363 -0.400815 1115 0.731346 0.682006 0.000000
-14.901297 -13.845201 -0.394586 1111 0.731346 0.682006 0.000000
-14.902087 -13.845922 -0.388359 1113 0.731346 0.682006 0.000000
-14.902274 -13.846103 -0.382117 1125 0.731346 0.682006 0.000000
-14.901295 -13.845192 -0.375836 1117 0.731346 0.682006 0.000000
-14.901211 -13.845119 -0.369586 1131 0.731346 0.682006 0.000000
-14.901133 -13.845050 -0.363337 1105 0.731346 0.682006 0.000000
-14.901423 -13.845325 -0.357094 1111 0.731346 0.682006 0.000000
-14.901344 -13.845243 -0.350845 1111 0.731346 0.682006 0.000000
-14.901370 -13.845269 -0.344604 1123 0.731346 0.682006 0.000000
-14.901023 -13.844949 -0.338347 1107 0.731346 0.682006 0.000000
-14.900452 -13.844425 -0.332082 1095 0.731346 0.682006 0.000000
-14.900685 -13.844644 -0.325840 1087 0.731346 0.682006 0.000000
-14.901132 -13.845055 -0.319606 1109 0.731346 0.682006 0.000000
-14.901095 -13.845018 -0.313356 1087 0.731346 0.682006 0.000000
-14.900413 -13.844395 -0.307092 1085 0.731346 0.682006 0.000000
-14.900743 -13.844700 -0.300849 1097 0.731346 0.682006 0.000000
-14.901565 -13.845461 -0.294621 1113 0.731346 0.682006 0.000000
-14.901201 -13.845127 -0.288364 1137 0.731346 0.682006 0.000000
-14.900301 -13.844292 -0.282103 1101 0.731346 0.682006 0.000000
-14.900743 -13.844699 -0.275858 1119 0.731346 0.682006 0.000000
-14.906960 -13.841744 -0.663432 1095 0.731346 0.682006 0.000000
-14.907209 -13.841988 -0.657189 1089 0.731346 0.682006 0.000000
-14.907363 -13.842128 -0.650948 1089 0.731346 0.682006 0.000000
-14.907611 -13.842357 -0.644705 1113 0.731346 0.682006 0.000000
-14.906898 -13.841694 -0.638422 1105 0.731346 0.682006 0.000000
-14.906293 -13.841131 -0.632137 1113 0.731346 0.682006 0.000000
-14.906542 -13.841360 -0.625895 1101 0.731346 0.682006 0.000000
-14.906194 -13.841040 -0.619628 1103 0.731346 0.682006 0.000000
-14.906275 -13.841124 -0.613377 1093 0.731346 0.682006 0.000000
-14.907220 -13.842007 -0.607168 1111 0.731346 0.682006 0.000000
-14.907564 -13.842324 -0.600925 1085 0.731346 0.682006 0.000000
-14.907438 -13.842206 -0.594676 1087 0.731346 0.682006 0.000000
-14.907139 -13.841935 -0.588408 1109 0.731346 0.682006 0.000000
-14.906575 -13.841404 -0.582134 1085 0.731346 0.682006 0.000000
-14.907351 -13.842128 -0.575906 1107 0.731346 0.682006 0.000000
-14.906348 -13.841198 -0.569615 1111 0.731346 0.682006 0.000000
-14.904971 -13.839921 -0.563318 1107 0.731346 0.682006 0.000000
-14.906066 -13.840936 -0.557108 1109 0.731346 0.682006 0.000000
-14.906673 -13.841500 -0.550872 1111 0.731346 0.682006 0.000000
-14.906685 -13.841516 -0.544622 1117 0.731346 0.682006 0.000000
-14.907078 -13.841885 -0.538388 1123 0.731346 0.682006 0.000000
-14.907200 -13.842001 -0.532137 1131 0.731346 0.682006 0.000000
-14.906618 -13.841456 -0.525872 1113 0.731346 0.682006 0.000000
-14.905770 -13.840674 -0.519590 1101 0.731346 0.682006 0.000000
-14.905452 -13.840377 -0.513322 1109 0.731346 0.682006 0.000000
-14.905566 -13.840487 -0.507081 1111 0.731346 0.682006 0.000000
-14.906054 -13.840944 -0.500846 1121 0.731346 0.682006 0.000000
-14.906225 -13.841098 -0.494605 1121 0.731346 0.682006 0.000000
-14.905533 -13.840453 -0.488331 1085 0.731346 0.682006 0.000000
-14.905749 -13.840657 -0.482089 1101 0.731346 0.682006 0.000000
-14.905633 -13.840557 -0.475830 1109 0.731346 0.682006 0.000000
-14.905531 -13.840458 -0.469581 1091 0.731346 0.682006 0.000000
-14.905742 -13.840655 -0.463338 1101 0.731346 0.682006 0.000000
-14.905354 -13.840303 -0.457072 1105 0.731346 0.682006 0.000000
-14.905301 -13.840255 -0.450822 1117 0.731346 0.682006 0.000000
-14.905078 -13.840046 -0.444564 1101 0.731346 0.682006 0.000000
-14.904802 -13.839795 -0.438307 1093 0.731346 0.682006 0.000000
-14.904517 -13.839524 -0.432049 1087 0.731346 0.682006 0.000000
-14.905422 -13.840376 -0.425831 1103 0.731346 0.682006 0.000000
-14.906963 -13.841808 -0.419626 1115 0.731346 0.682006 0.000000
-14.906359 -13.841246 -0.413361 1131 0.731346 0.682006 0.000000
-14.905380 -13.840336 -0.407080 1111 0.731346 0.682006 0.000000
-14.904834 -13.839831 -0.400815 1105 0.731346 0.682006 0.000000
-14.904970 -13.839958 -0.394574 1105 0.731346 0.682006 0.000000
-14.906130 -13.841038 -0.388353 1121 0.731346 0.682006 0.000000
-14.905843 -13.840765 -0.382096 1125 0.731346 0.682006 0.000000
-14.905281 -13.840249 -0.375831 1107 0.731346 0.682006 0.000000
-14.905577 -13.840528 -0.369598 1103 0.731346 0.682006 0.000000
-14.905660 -13.840599 -0.363347 1101 0.731346 0.682006 0.000000
-14.905471 -13.840430 -0.357098 1113 0.731346 0.682006 0.000000
-14.905505 -13.840464 -0.350848 1099 0.731346 0.682006 0.000000
-14.905787 -13.840732 -0.344605 1103 0.731346 0.682006 0.000000
-14.905065 -13.840062 -0.338342 1099 0.731346 0.682006 0.000000
-14.905089 -13.840075 -0.332091 1109 0.731346 0.682006 0.000000
-14.906072 -13.840989 -0.325862 1109 0.731346 0.682006 0.000000
-14.905652 -13.840611 -0.319606 1117 0.731346 0.682006 0.000000
-14.905026 -13.840032 -0.313351 1119 0.731346 0.682006 0.000000
-14.904986 -13.839993 -0.307102 1109 0.731346 0.682006 0.000000
-14.904847 -13.839863 -0.300853 1103 0.731346 0.682006 0.000000
-14.904809 -13.839827 -0.294603 1107 0.731346 0.682006 0.000000
-14.904979 -13.839993 -0.288351 1111 0.731346 0.682006 0.000000
-14.905155 -13.840152 -0.282109 1099 0.731346 0.682006 0.000000
-14.904727 -13.839755 -0.275853 1095 0.731346 0.682006 0.000000
-14.911237 -13.837236 -0.663443 1099 0.731346 0.682006 0.000000
-14.911286 -13.837282 -0.657193 1099 0.731346 0.682006 0.000000
-14.911106 -13.837120 -0.650924 1097 0.731346 0.682006 0.000000
-14.910709 -13.836747 -0.644658 1097 0.731346 0.682006 0.000000
-14.910322 -13.836394 -0.638391 1093 0.731346 0.682006 0.000000
-14.910460 -13.836523 -0.632140 1075 0.731346 0.682006 0.000000
-14.910931 -13.836954 -0.625905 1099 0.731346 0.682006 0.000000
-14.910640 -13.836691 -0.619638 1093 0.731346 0.682006 0.000000
-14.910826 -13.836870 -0.613396 1097 0.731346 0.682006 0.000000
-14.911074 -13.837098 -0.607154 1101 0.731346 0.682006 0.000000
-14.910780 -13.836821 -0.600886 1073 0.731346 0.682006 0.000000
-14.911397 -13.837394 -0.594660 1109 0.731346 0.682006 0.000000
-14.911424 -13.837420 -0.588410 1109 0.731346 0.682006 0.000000
-14.910525 -13.836598 -0.582128 1099 0.731346 0.682006 0.000000
-14.910558 -13.836617 -0.575868 1099 0.731346 0.682006 0.000000
-14.910689 -13.836741 -0.569626 1109 0.731346 0.682006 0.000000
-14.910333 -13.836413 -0.563359 1105 0.731346 0.682006 0.000000
-14.910183 -13.836276 -0.557101 1099 0.731346 0.682006 0.000000
-14.910044 -13.836159 -0.550852 1099 0.731346 0.682006 0.000000
-14.910435 -13.836513 -0.544608 1103 0.731346 0.682006 0.000000
-14.910981 -13.837029 -0.538383 1125 0.731346 0.682006 0.000000
-14.911047 -13.837087 -0.532132 1099 0.731346 0.682006 0.000000
-14.911007 -13.837049 -0.525872 1099 0.731346 0.682006 0.000000
-14.911019 -13.837065 -0.519622 1091 0.731346 0.682006 0.000000
-14.910757 -13.836825 -0.513364 1091 0.731346 0.682006 0.000000
-14.911302 -13.837326 -0.507129 1099 0.731346 0.682006 0.000000
-14.911679 -13.837684 -0.500895 1117 0.731346 0.682006 0.000000
-14.910933 -13.836995 -0.494622 1105 0.731346 0.682006 0.000000
-14.909756 -13.835902 -0.488333 1111 0.731346 0.682006 0.000000
-14.909867 -13.835997 -0.482082 1101 0.731346 0.682006 0.000000
-14.910620 -13.836701 -0.475855 1103 0.731346 0.682006 0.000000
-14.910502 -13.836602 -0.469605 1099 0.731346 0.682006 0.000000
-14.909694 -13.835852 -0.463333 1085 0.731346 0.682006 0.000000
-14.910126 -13.836251 -0.457089 1091 0.731346 0.682006 0.000000
-14.910550 -13.836646 -0.450855 1099 0.731346 0.682006 0.000000
-14.910703 -13.836786 -0.444613 1127 0.731346 0.682006 0.000000
-14.910268 -13.836383 -0.438347 1099 0.731346 0.682006 0.000000
-14.910246 -13.836372 -0.432097 1103 0.731346 0.682006 0.000000
-14.910409 -13.836520 -0.425855 1115 0.731346 0.682006 0.000000
-14.910553 -13.836653 -0.419604 1127 0.731346 0.682006 0.000000
-14.910955 -13.837029 -0.413370 1107 0.731346 0.682006 0.000000
-14.911004 -13.837074 -0.407119 1107 0.731346 0.682006 0.000000
-14.910935 -13.837012 -0.400870 1109 0.731346 0.682006 0.000000
-14.910858 -13.836946 -0.394620 1115 0.731346 0.682006 0.000000
-14.909872 -13.836028 -0.388339 1099 0.731346 0.682006 0.000000
-14.909108 -13.835314 -0.382076 1093 0.731346 0.682006 0.000000
-14.909558 -13.835740 -0.375842 1109 0.731346 0.682006 0.000000
-14.910190 -13.836325 -0.369606 1103 0.731346 0.682006 0.000000
-14.909945 -13.836098 -0.363348 1109 0.731346 0.682006 0.000000
-14.909436 -13.835624 -0.357093 1095 0.731346 0.682006 0.000000
-14.909838 -13.835999 -0.350849 1089 0.731346 0.682006 0.000000
-14.910279 -13.836420 -0.344615 1107 0.731346 0.682006 0.000000
-14.909564 -13.835756 -0.338351 1099 0.731346 0.682006 0.000000
-14.908930 -13.835170 -0.332087 1095 0.731346 0.682006 0.000000
-14.908795 -13.835044 -0.325838 1085 0.731346 0.682006 0.000000
-14.909355 -13.835559 -0.319603 1089 0.731346 0.682006 0.000000
-14.909860 -13.836028 -0.313358 1121 0.731346 0.682006 0.000000
-14.909432 -13.835645 -0.307101 1097 0.731346 0.682006 0.000000
-14.909186 -13.835404 -0.300854 1091 0.731346 0.682006 0.000000
-14.908927 -13.835167 -0.294596 1093 0.731346 0.682006 0.000000
-14.909160 -13.835382 -0.288354 1107 0.731346 0.682006 0.000000
-14.909586 -13.835792 -0.282119 1095 0.731346 0.682006 0.000000
-14.909276 -13.835500 -0.275862 1087 0.731346 0.682006 0.000000
-14.915201 -13.832109 -0.663419 1083 0.731346 0.682006 0.000000
-14.915195 -13.832098 -0.657169 1097 0.731346 0.682006 0.000000
-14.915014 -13.831936 -0.650911 1097 0.731346 0.682006 0.000000
-14.914992 -13.831924 -0.644651 1093 0.731346 0.682006 0.000000
-14.915029 -13.831959 -0.638400 1069 0.731346 0.682006 0.000000
-14.915284 -13.832193 -0.632158 1081 0.731346 0.682006 0.000000
-14.915311 -13.832221 -0.625907 1097 0.731346 0.682006 0.000000
-14.915033 -13.831956 -0.619640 1093 0.731346 0.682006 0.000000
-14.915754 -13.832636 -0.613423 1111 0.731346 0.682006 0.000000
-14.915843 -13.832713 -0.607172 1091 0.731346 0.682006 0.000000
-14.915495 -13.832391 -0.600905 1095 0.731346 0.682006 0.000000
-14.916270 -13.833116 -0.594688 1107 0.731346 0.682006 0.000000
-14.916615 -13.833433 -0.588444 1089 0.731346 0.682006 0.000000
-14.916266 -13.833113 -0.582177 1107 0.731346 0.682006 0.000000
-14.915481 -13.832393 -0.575895 1089 0.731346 0.682006 0.000000
-14.915076 -13.832014 -0.569628 1091 0.731346 0.682006 0.000000
-14.915900 -13.832775 -0.563410 1099 0.731346 0.682006 0.000000
-14.915383 -13.832295 -0.557135 1087 0.731346 0.682006 0.000000
-14.914485 -13.831474 -0.550853 1103 0.731346 0.682006 0.000000
-14.914399 -13.831387 -0.544594 1079 0.731346 0.682006 0.000000
-14.914888 -13.831844 -0.538359 1091 0.731346 0.682006 0.000000
-14.915761 -13.832657 -0.532141 1095 0.731346 0.682006 0.000000
-14.915665 -13.832561 -0.525892 1097 0.731346 0.682006 0.000000
-14.915669 -13.832571 -0.519641 1097 0.731346 0.682006 0.000000
-14.915415 -13.832337 -0.513374 1093 0.731346 0.682006 0.000000
-14.915210 -13.832142 -0.507115 1103 0.731346 0.682006 0.000000
-14.915323 -13.832252 -0.500874 1107 0.731346 0.682006 0.000000
-14.915272 -13.832204 -0.494625 1105 0.731346 0.682006 0.000000
-14.915537 -13.832459 -0.488382 1113 0.731346 0.682006 0.000000
-14.915442 -13.832364 -0.482123 1105 0.731346 0.682006 0.000000
-14.915542 -13.832461 -0.475882 1113 0.731346 0.682006 0.000000
-14.915113 -13.832065 -0.469615 1081 0.731346 0.682006 0.000000
-14.915059 -13.832015 -0.463366 1085 0.731346 0.682006 0.000000
-14.915047 -13.832011 -0.457106 1097 0.731346 0.682006 0.000000
-14.915471 -13.832406 -0.450872 1101 0.731346 0.682006 0.000000
-14.914931 -13.831907 -0.444606 1093 0.731346 0.682006 0.000000
-14.913800 -13.830849 -0.438327 1099 0.731346 0.682006 0.000000
-14.913939 -13.830991 -0.432075 1101 0.731346 0.682006 0.000000
-14.914102 -13.831140 -0.425834 1083 0.731346 0.682006 0.000000
-14.913760 -13.830824 -0.419577 1097 0.731346 0.682006 0.000000
-14.913906 -13.830958 -0.413335 1097 0.731346 0.682006 0.000000
-14.914649 -13.831643 -0.407098 1105 0.731346 0.682006 0.000000
-14.914733 -13.831728 -0.400857 1093 0.731346 0.682006 0.000000
-14.914288 -13.831318 -0.394591 1097 0.731346 0.682006 0.000000
-14.914912 -13.831896 -0.388365 1109 0.731346 0.682006 0.000000
-14.915481 -13.832430 -0.382130 1121 0.731346 0.682006 0.000000
-14.915133 -13.832108 -0.375873 1117 0.731346 0.682006 0.000000
-14.915214 -13.832179 -0.369622 1109 0.731346 0.682006 0.000000
-14.915145 -13.832117 -0.363373 1101 0.731346 0.682006 0.000000
-14.914046 -13.831099 -0.357093 1083 0.731346 0.682006 0.000000
-14.914177 -13.831222 -0.350851 1111 0.731346 0.682006 0.000000
-14.913877 -13.830952 -0.344594 1095 0.731346 0.682006 0.000000
-14.913894 -13.830957 -0.338344 1093 0.731346 0.682006 0.000000
-14.915155 -13.832131 -0.332132 1107 0.731346 0.682006 0.000000
-14.915063 -13.832051 -0.325882 1109 0.731346 0.682006 0.000000
-14.915032 -13.832021 -0.319633 1107 0.731346 0.682006 0.000000
-14.914995 -13.831985 -0.313383 1107 0.731346 0.682006 0.000000
-14.914951 -13.831956 -0.307133 1117 0.731346 0.682006 0.000000
-14.914387 -13.831424 -0.300868 1105 0.731346 0.682006 0.000000
-14.913210 -13.830344 -0.294599 1089 0.731346 0.682006 0.000000
-14.913499 -13.830605 -0.288356 1097 0.731346 0.682006 0.000000
