749
-14.523305 -14.180569 -0.586780 1357 0.597191 0.802099 0.000000
-14.523590 -14.180847 -0.580547 1367 0.597191 0.802099 0.000000
-14.523767 -14.181024 -0.574315 1365 0.597191 0.802099 0.000000
-14.523526 -14.180793 -0.568068 1363 0.597191 0.802099 0.000000
-14.523018 -14.180288 -0.561812 1371 0.597191 0.802099 0.000000
-14.522511 -14.179799 -0.555557 1359 0.597191 0.802099 0.000000
-14.522216 -14.179510 -0.549310 1357 0.597191 0.802099 0.000000
-14.522124 -14.179427 -0.543070 1349 0.597191 0.802099 0.000000
-14.522300 -14.179589 -0.536839 1339 0.597191 0.802099 0.000000
-14.522469 -14.179758 -0.530607 1363 0.597191 0.802099 0.000000
-14.522212 -14.179514 -0.524359 1367 0.597191 0.802099 0.000000
-14.522387 -14.179676 -0.518127 1363 0.597191 0.802099 0.000000
-14.522650 -14.179935 -0.511895 1357 0.597191 0.802099 0.000000
-14.522920 -14.180202 -0.505672 1369 0.597191 0.802099 0.000000
-14.522450 -14.179744 -0.499416 1373 0.597191 0.802099 0.000000
-14.522408 -14.179699 -0.493177 1369 0.597191 0.802099 0.000000
-14.522984 -14.180268 -0.486961 1363 0.597191 0.802099 0.000000
-14.522616 -14.179909 -0.480714 1361 0.597191 0.802099 0.000000
-14.522038 -14.179347 -0.474460 1351 0.597191 0.802099 0.000000
-14.522411 -14.179710 -0.468236 1355 0.597191 0.802099 0.000000
-14.521887 -14.179193 -0.461981 1365 0.597191 0.802099 0.000000
-14.521670 -14.178982 -0.455733 1365 0.597191 0.802099 0.000000
-14.522293 -14.179589 -0.449517 1379 0.597191 0.802099 0.000000
-14.522180 -14.179488 -0.443277 1373 0.597191 0.802099 0.000000
-14.522386 -14.179689 -0.437045 1377 0.597191 0.802099 0.000000
-14.522217 -14.179517 -0.430807 1355 0.597191 0.802099 0.000000
-14.521946 -14.179260 -0.424569 1355 0.597191 0.802099 0.000000
-14.521194 -14.178530 -0.418306 1363 0.597191 0.802099 0.000000
-14.521181 -14.178512 -0.412076 1353 0.597191 0.802099 0.000000
-14.521694 -14.179016 -0.405851 1359 0.597191 0.802099 0.000000
-14.522144 -14.179457 -0.399627 1363 0.597191 0.802099 0.000000
-14.522030 -14.179342 -0.393388 1363 0.597191 0.802099 0.000000
-14.521326 -14.178651 -0.387134 1359 0.597191 0.802099 0.000000
-14.521141 -14.178478 -0.380896 1361 0.597191 0.802099 0.000000
-14.521222 -14.178563 -0.374665 1353 0.597191 0.802099 0.000000
-14.521420 -14.178744 -0.368433 1355 0.597191 0.802099 0.000000
-14.521763 -14.179082 -0.362210 1365 0.597191 0.802099 0.000000
-14.522046 -14.179360 -0.355977 1367 0.597191 0.802099 0.000000
-14.521650 -14.178974 -0.349740 1365 0.597191 0.802099 0.000000
-14.521882 -14.179209 -0.343508 1365 0.597191 0.802099 0.000000
-14.522317 -14.179636 -0.337284 1371 0.597191 0.802099 0.000000
-14.521713 -14.179041 -0.331029 1369 0.597191 0.802099 0.000000
-14.520901 -14.178248 -0.324777 1355 0.597191 0.802099 0.000000
-14.520973 -14.178313 -0.318546 1361 0.597191 0.802099 0.000000
-14.521564 -14.178896 -0.312330 1365 0.597191 0.802099 0.000000
-14.521993 -14.179317 -0.306106 1365 0.597191 0.802099 0.000000
-14.521746 -14.179080 -0.299858 1363 0.597191 0.802099 0.000000
-14.521701 -14.179035 -0.293628 1369 0.597191 0.802099 0.000000
-14.521248 -14.178591 -0.287383 1369 0.597191 0.802099 0.000000
-14.520835 -14.178191 -0.281146 1361 0.597191 0.802099 0.000000
-14.520689 -14.178051 -0.274908 1363 0.597191 0.802099 0.000000
-14.528644 -14.176944 -0.667936 1367 0.597191 0.802099 0.000000
-14.528687 -14.176984 -0.661695 1353 0.597191 0.802099 0.000000
-14.528728 -14.177023 -0.655465 1359 0.597191 0.802099 0.000000
-14.528196 -14.176500 -0.649200 1359 0.597191 0.802099 0.000000
-14.527910 -14.176232 -0.642942 1359 0.597191 0.802099 0.000000
-14.527795 -14.176116 -0.636693 1365 0.597191 0.802099 0.000000
-14.527624 -14.175941 -0.630455 1357 0.597191 0.802099 0.000000
-14.527856 -14.176176 -0.624222 1365 0.597191 0.802099 0.000000
-14.528108 -14.176414 -0.617990 1359 0.597191 0.802099 0.000000
-14.528238 -14.176553 -0.611758 1365 0.597191 0.802099 0.000000
-14.528376 -14.176683 -0.605527 1367 0.597191 0.802099 0.000000
-14.527866 -14.176192 -0.599262 1343 0.597191 0.802099 0.000000
-14.527431 -14.175761 -0.593006 1345 0.597191 0.802099 0.000000
-14.527457 -14.175788 -0.586765 1357 0.597191 0.802099 0.000000
-14.527373 -14.175712 -0.580526 1363 0.597191 0.802099 0.000000
-14.526921 -14.175267 -0.574270 1351 0.597191 0.802099 0.000000
-14.526632 -14.174983 -0.568023 1351 0.597191 0.802099 0.000000
-14.526542 -14.174900 -0.561783 1353 0.597191 0.802099 0.000000
-14.526881 -14.175223 -0.555560 1355 0.597191 0.802099 0.000000
-14.526940 -14.175290 -0.549319 1343 0.597191 0.802099 0.000000
-14.527061 -14.175408 -0.543088 1345 0.597191 0.802099 0.000000
-14.527912 -14.176242 -0.536880 1347 0.597191 0.802099 0.000000
-14.528245 -14.176559 -0.530656 1355 0.597191 0.802099 0.000000
-14.527792 -14.176113 -0.524401 1349 0.597191 0.802099 0.000000
-14.527160 -14.175508 -0.518136 1357 0.597191 0.802099 0.000000
-14.527435 -14.175767 -0.511914 1357 0.597191 0.802099 0.000000
-14.528124 -14.176440 -0.505697 1361 0.597191 0.802099 0.000000
-14.528127 -14.176449 -0.499467 1349 0.597191 0.802099 0.000000
-14.527870 -14.176204 -0.493219 1345 0.597191 0.802099 0.000000
-14.527818 -14.176152 -0.486979 1351 0.597191 0.802099 0.000000
-14.527868 -14.176199 -0.480739 1351 0.597191 0.802099 0.000000
-14.527665 -14.175999 -0.474501 1345 0.597191 0.802099 0.000000
-14.527300 -14.175639 -0.468254 1351 0.597191 0.802099 0.000000
-14.527083 -14.175441 -0.462006 1357 0.597191 0.802099 0.000000
-14.526976 -14.175330 -0.455767 1353 0.597191 0.802099 0.000000
-14.526501 -14.174867 -0.449511 1345 0.597191 0.802099 0.000000
-14.526392 -14.174757 -0.443272 1355 0.597191 0.802099 0.000000
-14.526688 -14.175057 -0.437049 1349 0.597191 0.802099 0.000000
-14.526156 -14.174535 -0.430794 1361 0.597191 0.802099 0.000000
-14.525733 -14.174114 -0.424548 1355 0.597191 0.802099 0.000000
-14.526970 -14.175330 -0.418346 1359 0.597191 0.802099 0.000000
-14.527422 -14.175772 -0.412131 1349 0.597191 0.802099 0.000000
-14.526473 -14.174841 -0.405860 1347 0.597191 0.802099 0.000000
-14.525517 -14.173905 -0.399599 1355 0.597191 0.802099 0.000000
-14.525710 -14.174095 -0.393377 1357 0.597191 0.802099 0.000000
-14.525579 -14.173979 -0.387138 1355 0.597191 0.802099 0.000000
-14.525826 -14.174213 -0.380906 1343 0.597191 0.802099 0.000000
-14.526952 -14.175312 -0.374705 1353 0.597191 0.802099 0.000000
-14.526719 -14.175087 -0.368457 1343 0.597191 0.802099 0.000000
-14.526385 -14.174766 -0.362220 1353 0.597191 0.802099 0.000000
-14.526197 -14.174579 -0.355972 1353 0.597191 0.802099 0.000000
-14.526068 -14.174451 -0.349743 1353 0.597191 0.802099 0.000000
-14.525718 -14.174115 -0.343496 1355 0.597191 0.802099 0.000000
-14.526264 -14.174646 -0.337271 1359 0.597191 0.802099 0.000000
-14.526603 -14.174983 -0.331047 1359 0.597191 0.802099 0.000000
-14.526041 -14.174436 -0.324802 1353 0.597191 0.802099 0.000000
-14.526115 -14.174501 -0.318572 1343 0.597191 0.802099 0.000000
-14.526769 -14.175135 -0.312345 1363 0.597191 0.802099 0.000000
-14.526411 -14.174794 -0.306108 1351 0.597191 0.802099 0.000000
-14.526006 -14.174400 -0.299862 1353 0.597191 0.802099 0.000000
-14.526119 -14.174512 -0.293631 1351 0.597191 0.802099 0.000000
-14.526183 -14.174570 -0.287400 1349 0.597191 0.802099 0.000000
-14.526148 -14.174533 -0.281160 1357 0.597191 0.802099 0.000000
-14.525893 -14.174290 -0.274923 1347 0.597191 0.802099 0.000000
-14.533821 -14.172993 -0.667972 1365 0.597191 0.802099 0.000000
-14.533605 -14.172782 -0.661724 1359 0.597191 0.802099 0.000000
-14.533278 -14.172465 -0.655467 1367 0.597191 0.802099 0.000000
-14.532950 -14.172136 -0.649210 1361 0.597191 0.802099 0.000000
-14.532884 -14.172073 -0.642970 1347 0.597191 0.802099 0.000000
-14.533498 -14.172676 -0.636754 1367 0.597191 0.802099 0.000000
-14.533588 -14.172768 -0.630513 1355 0.597191 0.802099 0.000000
-14.533505 -14.172691 -0.624274 1355 0.597191 0.802099 0.000000
-14.533697 -14.172879 -0.618042 1351 0.597191 0.802099 0.000000
-14.533628 -14.172801 -0.611802 1357 0.597191 0.802099 0.000000
-14.532870 -14.172068 -0.605529 1351 0.597191 0.802099 0.000000
-14.532370 -14.171583 -0.599264 1347 0.597191 0.802099 0.000000
-14.532458 -14.171661 -0.593033 1357 0.597191 0.802099 0.000000
-14.532532 -14.171740 -0.586792 1355 0.597191 0.802099 0.000000
-14.532394 -14.171606 -0.580553 1339 0.597191 0.802099 0.000000
-14.532413 -14.171626 -0.574313 1341 0.597191 0.802099 0.000000
-14.533326 -14.172511 -0.568114 1357 0.597191 0.802099 0.000000
-14.532819 -14.172023 -0.561849 1345 0.597191 0.802099 0.000000
-14.532311 -14.171532 -0.555594 1337 0.597191 0.802099 0.000000
-14.532591 -14.171805 -0.549371 1337 0.597191 0.802099 0.000000
-14.532295 -14.171515 -0.543113 1351 0.597191 0.802099 0.000000
-14.532367 -14.171580 -0.536883 1355 0.597191 0.802099 0.000000
-14.532747 -14.171949 -0.530659 1347 0.597191 0.802099 0.000000
-14.533017 -14.172215 -0.524426 1353 0.597191 0.802099 0.000000
-14.533020 -14.172222 -0.518196 1355 0.597191 0.802099 0.000000
-14.532826 -14.172030 -0.511948 1351 0.597191 0.802099 0.000000
-14.532516 -14.171727 -0.505700 1361 0.597191 0.802099 0.000000
-14.532628 -14.171838 -0.499469 1351 0.597191 0.802099 0.000000
-14.532781 -14.171995 -0.493238 1339 0.597191 0.802099 0.000000
-14.532375 -14.171588 -0.486981 1347 0.597191 0.802099 0.000000
-14.532001 -14.171234 -0.480735 1349 0.597191 0.802099 0.000000
-14.532531 -14.171752 -0.474510 1339 0.597191 0.802099 0.000000
-14.532997 -14.172206 -0.468295 1351 0.597191 0.802099 0.000000
-14.532740 -14.171947 -0.462047 1343 0.597191 0.802099 0.000000
-14.532994 -14.172201 -0.455815 1351 0.597191 0.802099 0.000000
-14.532510 -14.171730 -0.449569 1355 0.597191 0.802099 0.000000
-14.531885 -14.171117 -0.443305 1347 0.597191 0.802099 0.000000
-14.531456 -14.170706 -0.437059 1353 0.597191 0.802099 0.000000
-14.530815 -14.170080 -0.430805 1343 0.597191 0.802099 0.000000
-14.531330 -14.170586 -0.424580 1337 0.597191 0.802099 0.000000
-14.531951 -14.171180 -0.418364 1357 0.597191 0.802099 0.000000
-14.531775 -14.171013 -0.412125 1357 0.597191 0.802099 0.000000
-14.531078 -14.170342 -0.405872 1351 0.597191 0.802099 0.000000
-14.530642 -14.169911 -0.399626 1341 0.597191 0.802099 0.000000
-14.531148 -14.170410 -0.393401 1341 0.597191 0.802099 0.000000
-14.531442 -14.170695 -0.387178 1341 0.597191 0.802099 0.000000
-14.530848 -14.170107 -0.380923 1341 0.597191 0.802099 0.000000
-14.531037 -14.170295 -0.374691 1349 0.597191 0.802099 0.000000
-14.531637 -14.170884 -0.368476 1353 0.597191 0.802099 0.000000
-14.531139 -14.170402 -0.362220 1357 0.597191 0.802099 0.000000
-14.531849 -14.171094 -0.356003 1369 0.597191 0.802099 0.000000
-14.532243 -14.171475 -0.349779 1363 0.597191 0.802099 0.000000
-14.531430 -14.170683 -0.343527 1355 0.597191 0.802099 0.000000
-14.531238 -14.170502 -0.337289 1351 0.597191 0.802099 0.000000
-14.530682 -14.169960 -0.331044 1347 0.597191 0.802099 0.000000
-14.530912 -14.170181 -0.324811 1353 0.597191 0.802099 0.000000
-14.531608 -14.170861 -0.318595 1359 0.597191 0.802099 0.000000
-14.531687 -14.170932 -0.312354 1357 0.597191 0.802099 0.000000
-14.531329 -14.170591 -0.306117 1351 0.597191 0.802099 0.000000
-14.531026 -14.170296 -0.299880 1357 0.597191 0.802099 0.000000
-14.530684 -14.169953 -0.293633 1357 0.597191 0.802099 0.000000
-14.530476 -14.169762 -0.287395 1367 0.597191 0.802099 0.000000
-14.531161 -14.170435 -0.281178 1377 0.597191 0.802099 0.000000
-14.531384 -14.170648 -0.274946 1359 0.597191 0.802099 0.000000
-14.538837 -14.168703 -0.667990 1363 0.597191 0.802099 0.000000
-14.538129 -14.168021 -0.661717 1365 0.597191 0.802099 0.000000
-14.537966 -14.167866 -0.655468 1357 0.597191 0.802099 0.000000
-14.538369 -14.168255 -0.649254 1351 0.597191 0.802099 0.000000
-14.538616 -14.168501 -0.643022 1359 0.597191 0.802099 0.000000
-14.538288 -14.168173 -0.636765 1351 0.597191 0.802099 0.000000
-14.538111 -14.168006 -0.630516 1355 0.597191 0.802099 0.000000
-14.538200 -14.168097 -0.624285 1361 0.597191 0.802099 0.000000
-14.538604 -14.168486 -0.618061 1353 0.597191 0.802099 0.000000
-14.538787 -14.168668 -0.611829 1359 0.597191 0.802099 0.000000
-14.538977 -14.168841 -0.605597 1343 0.597191 0.802099 0.000000
-14.538895 -14.168767 -0.599348 1359 0.597191 0.802099 0.000000
-14.537923 -14.167818 -0.593067 1341 0.597191 0.802099 0.000000
-14.538374 -14.168258 -0.586853 1353 0.597191 0.802099 0.000000
-14.538504 -14.168382 -0.580611 1345 0.597191 0.802099 0.000000
-14.538467 -14.168358 -0.574372 1357 0.597191 0.802099 0.000000
-14.538227 -14.168127 -0.568124 1357 0.597191 0.802099 0.000000
-14.537468 -14.167377 -0.561861 1353 0.597191 0.802099 0.000000
-14.537893 -14.167798 -0.555637 1355 0.597191 0.802099 0.000000
-14.538651 -14.168530 -0.549429 1353 0.597191 0.802099 0.000000
-14.538293 -14.168188 -0.543173 1343 0.597191 0.802099 0.000000
-14.537887 -14.167794 -0.536916 1355 0.597191 0.802099 0.000000
-14.537066 -14.166995 -0.530654 1339 0.597191 0.802099 0.000000
-14.537493 -14.167403 -0.524430 1347 0.597191 0.802099 0.000000
-14.538077 -14.167979 -0.518214 1353 0.597191 0.802099 0.000000
-14.537616 -14.167527 -0.511958 1349 0.597191 0.802099 0.000000
-14.537563 -14.167476 -0.505719 1341 0.597191 0.802099 0.000000
-14.538259 -14.168157 -0.499502 1343 0.597191 0.802099 0.000000
-14.538363 -14.168262 -0.493271 1357 0.597191 0.802099 0.000000
-14.537746 -14.167655 -0.487006 1343 0.597191 0.802099 0.000000
-14.538055 -14.167966 -0.480783 1343 0.597191 0.802099 0.000000
-14.537745 -14.167664 -0.474536 1357 0.597191 0.802099 0.000000
-14.537065 -14.166992 -0.468273 1345 0.597191 0.802099 0.000000
-14.537529 -14.167444 -0.462058 1357 0.597191 0.802099 0.000000
-14.537676 -14.167596 -0.455826 1357 0.597191 0.802099 0.000000
-14.537616 -14.167539 -0.449587 1353 0.597191 0.802099 0.000000
-14.537664 -14.167583 -0.443346 1337 0.597191 0.802099 0.000000
-14.537974 -14.167882 -0.437123 1353 0.597191 0.802099 0.000000
-14.537230 -14.167160 -0.430860 1347 0.597191 0.802099 0.000000
-14.537163 -14.167096 -0.424620 1359 0.597191 0.802099 0.000000
-14.537519 -14.167446 -0.418397 1353 0.597191 0.802099 0.000000
-14.537193 -14.167132 -0.412150 1343 0.597191 0.802099 0.000000
-14.537495 -14.167422 -0.405927 1353 0.597191 0.802099 0.000000
-14.537685 -14.167610 -0.399695 1361 0.597191 0.802099 0.000000
-14.537090 -14.167024 -0.393440 1353 0.597191 0.802099 0.000000
-14.536387 -14.166347 -0.387187 1351 0.597191 0.802099 0.000000
-14.536423 -14.166381 -0.380947 1345 0.597191 0.802099 0.000000
-14.537030 -14.166976 -0.374731 1351 0.597191 0.802099 0.000000
-14.537637 -14.167558 -0.368515 1363 0.597191 0.802099 0.000000
-14.537453 -14.167385 -0.362266 1359 0.597191 0.802099 0.000000
-14.537062 -14.167004 -0.356020 1353 0.597191 0.802099 0.000000
-14.536775 -14.166721 -0.349782 1347 0.597191 0.802099 0.000000
-14.536487 -14.166438 -0.343545 1343 0.597191 0.802099 0.000000
-14.536929 -14.166872 -0.337311 1343 0.597191 0.802099 0.000000
-14.536838 -14.166788 -0.331081 1339 0.597191 0.802099 0.000000
-14.536653 -14.166602 -0.324843 1353 0.597191 0.802099 0.000000
-14.536146 -14.166113 -0.318598 1357 0.597191 0.802099 0.000000
-14.536424 -14.166385 -0.312365 1345 0.597191 0.802099 0.000000
-14.537014 -14.166954 -0.306139 1355 0.597191 0.802099 0.000000
-14.536350 -14.166310 -0.299895 1353 0.597191 0.802099 0.000000
-14.536251 -14.166220 -0.293656 1355 0.597191 0.802099 0.000000
-14.536426 -14.166382 -0.287424 1363 0.597191 0.802099 0.000000
-14.536955 -14.166900 -0.281199 1359 0.597191 0.802099 0.000000
-14.537014 -14.166965 -0.274968 1343 0.597191 0.802099 0.000000
-14.543223 -14.163984 -0.667994 1355 0.597191 0.802099 0.000000
-14.543791 -14.164534 -0.661778 1349 0.597191 0.802099 0.000000
-14.544297 -14.165032 -0.655553 1357 0.597191 0.802099 0.000000
-14.543976 -14.164710 -0.649296 1347 0.597191 0.802099 0.000000
-14.543431 -14.164188 -0.643041 1361 0.597191 0.802099 0.000000
-14.543466 -14.164222 -0.636801 1349 0.597191 0.802099 0.000000
-14.543665 -14.164416 -0.630569 1365 0.597191 0.802099 0.000000
-14.543330 -14.164082 -0.624312 1369 0.597191 0.802099 0.000000
-14.543569 -14.164322 -0.618079 1363 0.597191 0.802099 0.000000
-14.543602 -14.164354 -0.611839 1353 0.597191 0.802099 0.000000
-14.543739 -14.164485 -0.605608 1345 0.597191 0.802099 0.000000
-14.543348 -14.164104 -0.599351 1357 0.597191 0.802099 0.000000
-14.542740 -14.163519 -0.593087 1347 0.597191 0.802099 0.000000
-14.542506 -14.163279 -0.586839 1343 0.597191 0.802099 0.000000
-14.542205 -14.162997 -0.580582 1329 0.597191 0.802099 0.000000
-14.542599 -14.163379 -0.574358 1347 0.597191 0.802099 0.000000
-14.542680 -14.163450 -0.568127 1353 0.597191 0.802099 0.000000
-14.542739 -14.163517 -0.561886 1359 0.597191 0.802099 0.000000
-14.542655 -14.163441 -0.555647 1349 0.597191 0.802099 0.000000
-14.542775 -14.163557 -0.549415 1355 0.597191 0.802099 0.000000
-14.543581 -14.164341 -0.543208 1359 0.597191 0.802099 0.000000
-14.543222 -14.163986 -0.536951 1347 0.597191 0.802099 0.000000
-14.542251 -14.163037 -0.530680 1339 0.597191 0.802099 0.000000
-14.542521 -14.163303 -0.524447 1357 0.597191 0.802099 0.000000
-14.543050 -14.163821 -0.518232 1353 0.597191 0.802099 0.000000
-14.542903 -14.163679 -0.511983 1345 0.597191 0.802099 0.000000
-14.542907 -14.163687 -0.505753 1345 0.597191 0.802099 0.000000
-14.543183 -14.163945 -0.499520 1349 0.597191 0.802099 0.000000
-14.543446 -14.164206 -0.493288 1349 0.597191 0.802099 0.000000
-14.543599 -14.164363 -0.487056 1349 0.597191 0.802099 0.000000
-14.543499 -14.164259 -0.480817 1347 0.597191 0.802099 0.000000
-14.543235 -14.164009 -0.474569 1359 0.597191 0.802099 0.000000
-14.542500 -14.163293 -0.468306 1353 0.597191 0.802099 0.000000
-14.541915 -14.162726 -0.462052 1345 0.597191 0.802099 0.000000
-14.542184 -14.162978 -0.455829 1349 0.597191 0.802099 0.000000
-14.542807 -14.163587 -0.449603 1345 0.597191 0.802099 0.000000
-14.542119 -14.162922 -0.443349 1349 0.597191 0.802099 0.000000
-14.542012 -14.162812 -0.437110 1349 0.597191 0.802099 0.000000
-14.542886 -14.163667 -0.430901 1359 0.597191 0.802099 0.000000
-14.542928 -14.163706 -0.424661 1367 0.597191 0.802099 0.000000
-14.542438 -14.163230 -0.418416 1363 0.597191 0.802099 0.000000
-14.542377 -14.163174 -0.412176 1355 0.597191 0.802099 0.000000
-14.541892 -14.162702 -0.405920 1355 0.597191 0.802099 0.000000
-14.542029 -14.162831 -0.399689 1361 0.597191 0.802099 0.000000
-14.541954 -14.162763 -0.393450 1355 0.597191 0.802099 0.000000
-14.541681 -14.162492 -0.387212 1343 0.597191 0.802099 0.000000
-14.542132 -14.162932 -0.380988 1343 0.597191 0.802099 0.000000
-14.541907 -14.162714 -0.374740 1349 0.597191 0.802099 0.000000
-14.541768 -14.162578 -0.368501 1347 0.597191 0.802099 0.000000
-14.541593 -14.162413 -0.362262 1357 0.597191 0.802099 0.000000
-14.541666 -14.162491 -0.356031 1345 0.597191 0.802099 0.000000
-14.541746 -14.162563 -0.349800 1339 0.597191 0.802099 0.000000
-14.541507 -14.162332 -0.343553 1357 0.597191 0.802099 0.000000
-14.541320 -14.162145 -0.337314 1367 0.597191 0.802099 0.000000
-14.541176 -14.162018 -0.331075 1353 0.597191 0.802099 0.000000
-14.541672 -14.162496 -0.324851 1357 0.597191 0.802099 0.000000
-14.541582 -14.162415 -0.318611 1357 0.597191 0.802099 0.000000
-14.541396 -14.162227 -0.312373 1351 0.597191 0.802099 0.000000
-14.541665 -14.162493 -0.306150 1345 0.597191 0.802099 0.000000
-14.542163 -14.162971 -0.299925 1343 0.597191 0.802099 0.000000
-14.542324 -14.163136 -0.293694 1349 0.597191 0.802099 0.000000
-14.542074 -14.162883 -0.287446 1349 0.597191 0.802099 0.000000
-14.541927 -14.162741 -0.281217 1349 0.597191 0.802099 0.000000
-14.541781 -14.162601 -0.274978 1347 0.597191 0.802099 0.000000
-14.549555 -14.161151 -0.668079 1351 0.597191 0.802099 0.000000
-14.548702 -14.160325 -0.661797 1359 0.597191 0.802099 0.000000
-14.548642 -14.160268 -0.655557 1347 0.597191 0.802099 0.000000
-14.548574 -14.160205 -0.649308 1341 0.597191 0.802099 0.000000
-14.548820 -14.160438 -0.643075 1343 0.597191 0.802099 0.000000
-14.549640 -14.161233 -0.636877 1357 0.597191 0.802099 0.000000
-14.549415 -14.161014 -0.630619 1361 0.597191 0.802099 0.000000
-14.549190 -14.160795 -0.624371 1345 0.597191 0.802099 0.000000
-14.548847 -14.160467 -0.618115 1347 0.597191 0.802099 0.000000
-14.548733 -14.160352 -0.611866 1359 0.597191 0.802099 0.000000
-14.549277 -14.160883 -0.605650 1371 0.597191 0.802099 0.000000
-14.549563 -14.161161 -0.599427 1357 0.597191 0.802099 0.000000
-14.549024 -14.160632 -0.593162 1363 0.597191 0.802099 0.000000
-14.548626 -14.160246 -0.586906 1359 0.597191 0.802099 0.000000
-14.548692 -14.160318 -0.580665 1353 0.597191 0.802099 0.000000
-14.548043 -14.159685 -0.574401 1339 0.597191 0.802099 0.000000
-14.547945 -14.159597 -0.568162 1349 0.597191 0.802099 0.000000
-14.548394 -14.160024 -0.561938 1353 0.597191 0.802099 0.000000
-14.547990 -14.159632 -0.555681 1343 0.597191 0.802099 0.000000
-14.547538 -14.159201 -0.549425 1355 0.597191 0.802099 0.000000
-14.548019 -14.159665 -0.543201 1353 0.597191 0.802099 0.000000
-14.547724 -14.159376 -0.536953 1347 0.597191 0.802099 0.000000
-14.547626 -14.159287 -0.530714 1349 0.597191 0.802099 0.000000
-14.548264 -14.159907 -0.524498 1349 0.597191 0.802099 0.000000
-14.548800 -14.160432 -0.518283 1355 0.597191 0.802099 0.000000
-14.549125 -14.160743 -0.512049 1361 0.597191 0.802099 0.000000
-14.548037 -14.159685 -0.505770 1351 0.597191 0.802099 0.000000
-14.547254 -14.158916 -0.499507 1345 0.597191 0.802099 0.000000
-14.548192 -14.159835 -0.493298 1337 0.597191 0.802099 0.000000
-14.548413 -14.160048 -0.487076 1349 0.597191 0.802099 0.000000
-14.548252 -14.159895 -0.480827 1343 0.597191 0.802099 0.000000
-14.548310 -14.159948 -0.474596 1351 0.597191 0.802099 0.000000
-14.547411 -14.159084 -0.468325 1345 0.597191 0.802099 0.000000
-14.547311 -14.158980 -0.462086 1341 0.597191 0.802099 0.000000
-14.547510 -14.159176 -0.455853 1339 0.597191 0.802099 0.000000
-14.547765 -14.159430 -0.449621 1343 0.597191 0.802099 0.000000
-14.547924 -14.159578 -0.443389 1361 0.597191 0.802099 0.000000
-14.547653 -14.159322 -0.437142 1361 0.597191 0.802099 0.000000
-14.547641 -14.159303 -0.430912 1353 0.597191 0.802099 0.000000
-14.547948 -14.159600 -0.424679 1363 0.597191 0.802099 0.000000
-14.548086 -14.159744 -0.418447 1359 0.597191 0.802099 0.000000
-14.547711 -14.159377 -0.412200 1351 0.597191 0.802099 0.000000
-14.547062 -14.158745 -0.405947 1353 0.597191 0.802099 0.000000
-14.547057 -14.158732 -0.399706 1351 0.597191 0.802099 0.000000
-14.547610 -14.159269 -0.393491 1343 0.597191 0.802099 0.000000
-14.548005 -14.159665 -0.387257 1353 0.597191 0.802099 0.000000
-14.547460 -14.159130 -0.381012 1353 0.597191 0.802099 0.000000
-14.547126 -14.158809 -0.374765 1349 0.597191 0.802099 0.000000
-14.547049 -14.158739 -0.368526 1341 0.597191 0.802099 0.000000
-14.547397 -14.159069 -0.362302 1353 0.597191 0.802099 0.000000
-14.547684 -14.159348 -0.356069 1357 0.597191 0.802099 0.000000
-14.547648 -14.159324 -0.349830 1357 0.597191 0.802099 0.000000
-14.547256 -14.158942 -0.343583 1351 0.597191 0.802099 0.000000
-14.547071 -14.158756 -0.337345 1351 0.597191 0.802099 0.000000
-14.547404 -14.159087 -0.331121 1351 0.597191 0.802099 0.000000
-14.547109 -14.158797 -0.324874 1345 0.597191 0.802099 0.000000
-14.546971 -14.158663 -0.318635 1351 0.597191 0.802099 0.000000
-14.546881 -14.158580 -0.312396 1351 0.597191 0.802099 0.000000
-14.546952 -14.158645 -0.306165 1339 0.597191 0.802099 0.000000
-14.547332 -14.159015 -0.299941 1339 0.597191 0.802099 0.000000
-14.547242 -14.158932 -0.293702 1349 0.597191 0.802099 0.000000
-14.547096 -14.158791 -0.287463 1345 0.597191 0.802099 0.000000
-14.546893 -14.158590 -0.281225 1349 0.597191 0.802099 0.000000
-14.546535 -14.158237 -0.274978 1345 0.597191 0.802099 0.000000
-14.554286 -14.156923 -0.668098 1363 0.597191 0.802099 0.000000
-14.553229 -14.155891 -0.661808 1357 0.597191 0.802099 0.000000
-14.554213 -14.156847 -0.655609 1361 0.597191 0.802099 0.000000
-14.554562 -14.157191 -0.649385 1355 0.597191 0.802099 0.000000
-14.553600 -14.156263 -0.643094 1351 0.597191 0.802099 0.000000
-14.554003 -14.156651 -0.636870 1357 0.597191 0.802099 0.000000
-14.554611 -14.157248 -0.630655 1367 0.597191 0.802099 0.000000
-14.554550 -14.157176 -0.624415 1365 0.597191 0.802099 0.000000
-14.554050 -14.156693 -0.618150 1359 0.597191 0.802099 0.000000
-14.554029 -14.156681 -0.611910 1361 0.597191 0.802099 0.000000
-14.554008 -14.156655 -0.605670 1355 0.597191 0.802099 0.000000
-14.553667 -14.156327 -0.599413 1355 0.597191 0.802099 0.000000
-14.553427 -14.156096 -0.593165 1359 0.597191 0.802099 0.000000
-14.553775 -14.156426 -0.586941 1351 0.597191 0.802099 0.000000
-14.554318 -14.156957 -0.580716 1347 0.597191 0.802099 0.000000
-14.553819 -14.156473 -0.574461 1339 0.597191 0.802099 0.000000
-14.553265 -14.155931 -0.568196 1347 0.597191 0.802099 0.000000
-14.552960 -14.155635 -0.561949 1357 0.597191 0.802099 0.000000
-14.553452 -14.156121 -0.555724 1361 0.597191 0.802099 0.000000
-14.554050 -14.156696 -0.549508 1345 0.597191 0.802099 0.000000
-14.554062 -14.156712 -0.543268 1345 0.597191 0.802099 0.000000
-14.553555 -14.156222 -0.537012 1351 0.597191 0.802099 0.000000
-14.552410 -14.155105 -0.530733 1355 0.597191 0.802099 0.000000
-14.552365 -14.155060 -0.524493 1345 0.597191 0.802099 0.000000
-14.552904 -14.155585 -0.518268 1349 0.597191 0.802099 0.000000
-14.553064 -14.155747 -0.512036 1345 0.597191 0.802099 0.000000
-14.552454 -14.155148 -0.505772 1353 0.597191 0.802099 0.000000
-14.552191 -14.154897 -0.499525 1347 0.597191 0.802099 0.000000
-14.553143 -14.155814 -0.493325 1347 0.597191 0.802099 0.000000
-14.553774 -14.156428 -0.487109 1359 0.597191 0.802099 0.000000
-14.553453 -14.156119 -0.480862 1357 0.597191 0.802099 0.000000
-14.552932 -14.155618 -0.474597 1339 0.597191 0.802099 0.000000
-14.552927 -14.155620 -0.468367 1341 0.597191 0.802099 0.000000
-14.552451 -14.155155 -0.462111 1327 0.597191 0.802099 0.000000
-14.552713 -14.155401 -0.455878 1349 0.597191 0.802099 0.000000
-14.553917 -14.156577 -0.449677 1361 0.597191 0.802099 0.000000
-14.553809 -14.156468 -0.443438 1359 0.597191 0.802099 0.000000
-14.553067 -14.155746 -0.437175 1359 0.597191 0.802099 0.000000
-14.553266 -14.155941 -0.430943 1369 0.597191 0.802099 0.000000
-14.552876 -14.155574 -0.424696 1353 0.597191 0.802099 0.000000
-14.552401 -14.155110 -0.418451 1349 0.597191 0.802099 0.000000
-14.552853 -14.155551 -0.412226 1351 0.597191 0.802099 0.000000
-14.552837 -14.155532 -0.405986 1347 0.597191 0.802099 0.000000
-14.553086 -14.155780 -0.399754 1353 0.597191 0.802099 0.000000
-14.553017 -14.155702 -0.393514 1341 0.597191 0.802099 0.000000
-14.552888 -14.155587 -0.387275 1347 0.597191 0.802099 0.000000
-14.553023 -14.155718 -0.381044 1355 0.597191 0.802099 0.000000
-14.552743 -14.155440 -0.374796 1351 0.597191 0.802099 0.000000
-14.551986 -14.154706 -0.368543 1345 0.597191 0.802099 0.000000
-14.551861 -14.154583 -0.362304 1345 0.597191 0.802099 0.000000
-14.552729 -14.155431 -0.356086 1353 0.597191 0.802099 0.000000
-14.551963 -14.154689 -0.349833 1353 0.597191 0.802099 0.000000
-14.551886 -14.154605 -0.343594 1347 0.597191 0.802099 0.000000
-14.552275 -14.154995 -0.337370 1333 0.597191 0.802099 0.000000
-14.551713 -14.154448 -0.331115 1345 0.597191 0.802099 0.000000
-14.551730 -14.154468 -0.324885 1343 0.597191 0.802099 0.000000
-14.552228 -14.154946 -0.318660 1343 0.597191 0.802099 0.000000
-14.552506 -14.155218 -0.312427 1355 0.597191 0.802099 0.000000
-14.552469 -14.155180 -0.306197 1353 0.597191 0.802099 0.000000
-14.552322 -14.155039 -0.299958 1347 0.597191 0.802099 0.000000
-14.552546 -14.155253 -0.293726 1347 0.597191 0.802099 0.000000
-14.552299 -14.155016 -0.287478 1347 0.597191 0.802099 0.000000
-14.552300 -14.155024 -0.281248 1355 0.597191 0.802099 0.000000
-14.552052 -14.154771 -0.275010 1355 0.597191 0.802099 0.000000
-14.558360 -14.152725 -0.668101 1357 0.597191 0.802099 0.000000
-14.558348 -14.152720 -0.661851 1343 0.597191 0.802099 0.000000
-14.558547 -14.152915 -0.655619 1349 0.597191 0.802099 0.000000
-14.558581 -14.152948 -0.649378 1355 0.597191 0.802099 0.000000
-14.558405 -14.152782 -0.643130 1357 0.597191 0.802099 0.000000
-14.558971 -14.153332 -0.636914 1363 0.597191 0.802099 0.000000
-14.558959 -14.153314 -0.630674 1351 0.597191 0.802099 0.000000
-14.558467 -14.152836 -0.624409 1349 0.597191 0.802099 0.000000
-14.558392 -14.152766 -0.618169 1355 0.597191 0.802099 0.000000
-14.558630 -14.152993 -0.611937 1357 0.597191 0.802099 0.000000
-14.558397 -14.152768 -0.605679 1347 0.597191 0.802099 0.000000
-14.558423 -14.152795 -0.599449 1351 0.597191 0.802099 0.000000
-14.558389 -14.152771 -0.593199 1365 0.597191 0.802099 0.000000
-14.558429 -14.152796 -0.586958 1357 0.597191 0.802099 0.000000
-14.558283 -14.152669 -0.580719 1347 0.597191 0.802099 0.000000
-14.557525 -14.151921 -0.574447 1343 0.597191 0.802099 0.000000
-14.557653 -14.152043 -0.568215 1367 0.597191 0.802099 0.000000
-14.557829 -14.152219 -0.561983 1353 0.597191 0.802099 0.000000
-14.557998 -14.152389 -0.555742 1359 0.597191 0.802099 0.000000
-14.558118 -14.152506 -0.549510 1355 0.597191 0.802099 0.000000
-14.558293 -14.152682 -0.543278 1347 0.597191 0.802099 0.000000
-14.558578 -14.152946 -0.537046 1361 0.597191 0.802099 0.000000
-14.558212 -14.152599 -0.530799 1351 0.597191 0.802099 0.000000
-14.557909 -14.152303 -0.524542 1359 0.597191 0.802099 0.000000
-14.557558 -14.151955 -0.518295 1353 0.597191 0.802099 0.000000
-14.557460 -14.151866 -0.512046 1349 0.597191 0.802099 0.000000
-14.557612 -14.152022 -0.505814 1343 0.597191 0.802099 0.000000
-14.557153 -14.151571 -0.499558 1339 0.597191 0.802099 0.000000
-14.557218 -14.151630 -0.493328 1341 0.597191 0.802099 0.000000
-14.557630 -14.152039 -0.487103 1351 0.597191 0.802099 0.000000
-14.557796 -14.152193 -0.480872 1355 0.597191 0.802099 0.000000
-14.558270 -14.152653 -0.474647 1347 0.597191 0.802099 0.000000
-14.558101 -14.152493 -0.468399 1353 0.597191 0.802099 0.000000
-14.557631 -14.152035 -0.462143 1347 0.597191 0.802099 0.000000
-14.557628 -14.152037 -0.455913 1349 0.597191 0.802099 0.000000
-14.557152 -14.151573 -0.449657 1341 0.597191 0.802099 0.000000
-14.557460 -14.151871 -0.443424 1347 0.597191 0.802099 0.000000
-14.557503 -14.151911 -0.437194 1353 0.597191 0.802099 0.000000
-14.556808 -14.151239 -0.430930 1353 0.597191 0.802099 0.000000
-14.557014 -14.151441 -0.424698 1353 0.597191 0.802099 0.000000
-14.557048 -14.151474 -0.418467 1353 0.597191 0.802099 0.000000
-14.556297 -14.150745 -0.412204 1345 0.597191 0.802099 0.000000
-14.556340 -14.150786 -0.405974 1353 0.597191 0.802099 0.000000
-14.557001 -14.151425 -0.399757 1351 0.597191 0.802099 0.000000
-14.557201 -14.151621 -0.393525 1353 0.597191 0.802099 0.000000
-14.557174 -14.151603 -0.387286 1339 0.597191 0.802099 0.000000
-14.557474 -14.151894 -0.381052 1347 0.597191 0.802099 0.000000
-14.557139 -14.151559 -0.374806 1355 0.597191 0.802099 0.000000
-14.556955 -14.151386 -0.368567 1343 0.597191 0.802099 0.000000
-14.557719 -14.152137 -0.362350 1345 0.597191 0.802099 0.000000
-14.557424 -14.151848 -0.356102 1357 0.597191 0.802099 0.000000
-14.557081 -14.151518 -0.349865 1357 0.597191 0.802099 0.000000
-14.557735 -14.152152 -0.343639 1353 0.597191 0.802099 0.000000
-14.557503 -14.151927 -0.337401 1357 0.597191 0.802099 0.000000
-14.556885 -14.151320 -0.331147 1345 0.597191 0.802099 0.000000
-14.557021 -14.151451 -0.324915 1345 0.597191 0.802099 0.000000
-14.557033 -14.151465 -0.318675 1355 0.597191 0.802099 0.000000
-14.557051 -14.151484 -0.312445 1365 0.597191 0.802099 0.000000
-14.556388 -14.150841 -0.306191 1349 0.597191 0.802099 0.000000
-14.556192 -14.150647 -0.299953 1365 0.597191 0.802099 0.000000
-14.556205 -14.150662 -0.293713 1351 0.597191 0.802099 0.000000
-14.556318 -14.150773 -0.287481 1345 0.597191 0.802099 0.000000
-14.556745 -14.151195 -0.281257 1357 0.597191 0.802099 0.000000
-14.556958 -14.151402 -0.275025 1359 0.597191 0.802099 0.000000
-14.564029 -14.149942 -0.668169 1359 0.597191 0.802099 0.000000
-14.564014 -14.149923 -0.661929 1355 0.597191 0.802099 0.000000
-14.564058 -14.149978 -0.655688 1361 0.597191 0.802099 0.000000
-14.563995 -14.149904 -0.649439 1365 0.597191 0.802099 0.000000
-14.563554 -14.149481 -0.643183 1359 0.597191 0.802099 0.000000
-14.563854 -14.149773 -0.636950 1363 0.597191 0.802099 0.000000
-14.563410 -14.149348 -0.630684 1361 0.597191 0.802099 0.000000
-14.563444 -14.149381 -0.624453 1361 0.597191 0.802099 0.000000
-14.563839 -14.149761 -0.618219 1355 0.597191 0.802099 0.000000
-14.563143 -14.149078 -0.611956 1349 0.597191 0.802099 0.000000
-14.562809 -14.148757 -0.605699 1347 0.597191 0.802099 0.000000
-14.562881 -14.148836 -0.599458 1359 0.597191 0.802099 0.000000
-14.562759 -14.148713 -0.593209 1351 0.597191 0.802099 0.000000
-14.562622 -14.148580 -0.586970 1349 0.597191 0.802099 0.000000
-14.562538 -14.148503 -0.580721 1347 0.597191 0.802099 0.000000
-14.562400 -14.148368 -0.574482 1353 0.597191 0.802099 0.000000
-14.562740 -14.148692 -0.568249 1361 0.597191 0.802099 0.000000
-14.563073 -14.149023 -0.562025 1357 0.597191 0.802099 0.000000
-14.563255 -14.149190 -0.555794 1351 0.597191 0.802099 0.000000
-14.563375 -14.149307 -0.549552 1349 0.597191 0.802099 0.000000
-14.563176 -14.149123 -0.543304 1345 0.597191 0.802099 0.000000
-14.562881 -14.148833 -0.537057 1345 0.597191 0.802099 0.000000
-14.563408 -14.149350 -0.530831 1349 0.597191 0.802099 0.000000
-14.563215 -14.149158 -0.524593 1343 0.597191 0.802099 0.000000
-14.562850 -14.148810 -0.518336 1345 0.597191 0.802099 0.000000
-14.563394 -14.149326 -0.512111 1347 0.597191 0.802099 0.000000
-14.563295 -14.149239 -0.505872 1353 0.597191 0.802099 0.000000
-14.563141 -14.149091 -0.499623 1357 0.597191 0.802099 0.000000
-14.562673 -14.148633 -0.493378 1355 0.597191 0.802099 0.000000
-14.562204 -14.148174 -0.487122 1355 0.597191 0.802099 0.000000
-14.562309 -14.148280 -0.480881 1345 0.597191 0.802099 0.000000
-14.562366 -14.148332 -0.474650 1347 0.597191 0.802099 0.000000
-14.562205 -14.148178 -0.468401 1353 0.597191 0.802099 0.000000
-14.562828 -14.148787 -0.462185 1341 0.597191 0.802099 0.000000
-14.562871 -14.148827 -0.455945 1351 0.597191 0.802099 0.000000
-14.561932 -14.147916 -0.449684 1339 0.597191 0.802099 0.000000
-14.562447 -14.148422 -0.443459 1341 0.597191 0.802099 0.000000
-14.562698 -14.148662 -0.437226 1353 0.597191 0.802099 0.000000
-14.562271 -14.148250 -0.430970 1353 0.597191 0.802099 0.000000
-14.561895 -14.147882 -0.424723 1347 0.597191 0.802099 0.000000
-14.562197 -14.148172 -0.418500 1353 0.597191 0.802099 0.000000
-14.562130 -14.148109 -0.412261 1349 0.597191 0.802099 0.000000
-14.561537 -14.147536 -0.406006 1347 0.597191 0.802099 0.000000
-14.561680 -14.147673 -0.399775 1349 0.597191 0.802099 0.000000
-14.561927 -14.147920 -0.393542 1337 0.597191 0.802099 0.000000
-14.561380 -14.147384 -0.387287 1343 0.597191 0.802099 0.000000
-14.561249 -14.147255 -0.381049 1361 0.597191 0.802099 0.000000
-14.562123 -14.148109 -0.374830 1351 0.597191 0.802099 0.000000
-14.562417 -14.148395 -0.368607 1351 0.597191 0.802099 0.000000
-14.561972 -14.147957 -0.362351 1349 0.597191 0.802099 0.000000
-14.562100 -14.148093 -0.356120 1349 0.597191 0.802099 0.000000
-14.561861 -14.147862 -0.349882 1351 0.597191 0.802099 0.000000
-14.561676 -14.147676 -0.343634 1351 0.597191 0.802099 0.000000
-14.561702 -14.147702 -0.337403 1359 0.597191 0.802099 0.000000
-14.561352 -14.147367 -0.331156 1355 0.597191 0.802099 0.000000
-14.561583 -14.147589 -0.324924 1353 0.597191 0.802099 0.000000
-14.561443 -14.147453 -0.318685 1357 0.597191 0.802099 0.000000
-14.561195 -14.147216 -0.312447 1347 0.597191 0.802099 0.000000
-14.561638 -14.147635 -0.306213 1343 0.597191 0.802099 0.000000
-14.561170 -14.147192 -0.299967 1341 0.597191 0.802099 0.000000
-14.560984 -14.147006 -0.293729 1349 0.597191 0.802099 0.000000
-14.561146 -14.147169 -0.287497 1353 0.597191 0.802099 0.000000
-14.561368 -14.147383 -0.281265 1355 0.597191 0.802099 0.000000
-14.561016 -14.147035 -0.275028 1341 0.597191 0.802099 0.000000
-14.569216 -14.146168 -0.668204 1361 0.597191 0.802099 0.000000
-14.568793 -14.145748 -0.661948 1357 0.597191 0.802099 0.000000
-14.568625 -14.145589 -0.655699 1353 0.597191 0.802099 0.000000
-14.568815 -14.145777 -0.649457 1359 0.597191 0.802099 0.000000
-14.569226 -14.146171 -0.643233 1357 0.597191 0.802099 0.000000
-14.569419 -14.146359 -0.637001 1359 0.597191 0.802099 0.000000
-14.569083 -14.146037 -0.630744 1361 0.597191 0.802099 0.000000
-14.568693 -14.145658 -0.624488 1355 0.597191 0.802099 0.000000
-14.568838 -14.145794 -0.618246 1369 0.597191 0.802099 0.000000
-14.568974 -14.145924 -0.612015 1365 0.597191 0.802099 0.000000
-14.568789 -14.145751 -0.605766 1363 0.597191 0.802099 0.000000
-14.568242 -14.145216 -0.599502 1357 0.597191 0.802099 0.000000
-14.568206 -14.145192 -0.593262 1349 0.597191 0.802099 0.000000
-14.568288 -14.145264 -0.587021 1351 0.597191 0.802099 0.000000
-14.568156 -14.145134 -0.580772 1351 0.597191 0.802099 0.000000
-14.568332 -14.145310 -0.574540 1351 0.597191 0.802099 0.000000
-14.568517 -14.145493 -0.568308 1351 0.597191 0.802099 0.000000
-14.568534 -14.145499 -0.562068 1347 0.597191 0.802099 0.000000
-14.568442 -14.145417 -0.555819 1349 0.597191 0.802099 0.000000
-14.568570 -14.145540 -0.549587 1351 0.597191 0.802099 0.000000
-14.568583 -14.145554 -0.543347 1347 0.597191 0.802099 0.000000
-14.567863 -14.144852 -0.537084 1345 0.597191 0.802099 0.000000
-14.567922 -14.144917 -0.530843 1345 0.597191 0.802099 0.000000
-14.567461 -14.144466 -0.524587 1335 0.597191 0.802099 0.000000
-14.567323 -14.144332 -0.518338 1341 0.597191 0.802099 0.000000
-14.567797 -14.144791 -0.512114 1343 0.597191 0.802099 0.000000
-14.567540 -14.144547 -0.505866 1341 0.597191 0.802099 0.000000
-14.567283 -14.144288 -0.499618 1347 0.597191 0.802099 0.000000
-14.567758 -14.144762 -0.493394 1363 0.597191 0.802099 0.000000
-14.568192 -14.145176 -0.487169 1361 0.597191 0.802099 0.000000
-14.567984 -14.144969 -0.480931 1363 0.597191 0.802099 0.000000
-14.568089 -14.145075 -0.474690 1357 0.597191 0.802099 0.000000
-14.567966 -14.144967 -0.468451 1351 0.597191 0.802099 0.000000
-14.567866 -14.144863 -0.462202 1345 0.597191 0.802099 0.000000
-14.567705 -14.144711 -0.455963 1351 0.597191 0.802099 0.000000
-14.567433 -14.144439 -0.449716 1339 0.597191 0.802099 0.000000
-14.567586 -14.144595 -0.443484 1345 0.597191 0.802099 0.000000
-14.567369 -14.144383 -0.437236 1349 0.597191 0.802099 0.000000
-14.567309 -14.144327 -0.430996 1345 0.597191 0.802099 0.000000
-14.567610 -14.144618 -0.424763 1345 0.597191 0.802099 0.000000
-14.568021 -14.145013 -0.418539 1369 0.597191 0.802099 0.000000
-14.567685 -14.144690 -0.412292 1351 0.597191 0.802099 0.000000
-14.567777 -14.144783 -0.406061 1355 0.597191 0.802099 0.000000
-14.567975 -14.144977 -0.399819 1365 0.597191 0.802099 0.000000
-14.567851 -14.144855 -0.393580 1357 0.597191 0.802099 0.000000
-14.567156 -14.144172 -0.387327 1341 0.597191 0.802099 0.000000
-14.567080 -14.144101 -0.381087 1347 0.597191 0.802099 0.000000
-14.567366 -14.144380 -0.374855 1347 0.597191 0.802099 0.000000
-14.567768 -14.144768 -0.368631 1347 0.597191 0.802099 0.000000
-14.567639 -14.144653 -0.362392 1351 0.597191 0.802099 0.000000
-14.566826 -14.143861 -0.356129 1351 0.597191 0.802099 0.000000
-14.566954 -14.143984 -0.349898 1345 0.597191 0.802099 0.000000
-14.567711 -14.144715 -0.343681 1361 0.597191 0.802099 0.000000
-14.567477 -14.144489 -0.337433 1357 0.597191 0.802099 0.000000
-14.566971 -14.144000 -0.331187 1351 0.597191 0.802099 0.000000
-14.567146 -14.144176 -0.324955 1357 0.597191 0.802099 0.000000
-14.566851 -14.143887 -0.318708 1353 0.597191 0.802099 0.000000
-14.566445 -14.143493 -0.312462 1351 0.597191 0.802099 0.000000
-14.566150 -14.143203 -0.306225 1355 0.597191 0.802099 0.000000
-14.566319 -14.143373 -0.299993 1355 0.597191 0.802099 0.000000
-14.566642 -14.143683 -0.293760 1361 0.597191 0.802099 0.000000
-14.566551 -14.143600 -0.287520 1361 0.597191 0.802099 0.000000
-14.566876 -14.143911 -0.281287 1369 0.597191 0.802099 0.000000
-14.566730 -14.143770 -0.275048 1357 0.597191 0.802099 0.000000
-14.574123 -14.142280 -0.668241 1367 0.597191 0.802099 0.000000
-14.573113 -14.141299 -0.661950 1361 0.597191 0.802099 0.000000
-14.573051 -14.141227 -0.655701 1351 0.597191 0.802099 0.000000
-14.573298 -14.141475 -0.649468 1333 0.597191 0.802099 0.000000
-14.573599 -14.141767 -0.643245 1343 0.597191 0.802099 0.000000
-14.573847 -14.142013 -0.637013 1347 0.597191 0.802099 0.000000
-14.573400 -14.141574 -0.630747 1351 0.597191 0.802099 0.000000
-14.573333 -14.141511 -0.624507 1341 0.597191 0.802099 0.000000
-14.573314 -14.141486 -0.618257 1345 0.597191 0.802099 0.000000
-14.573449 -14.141629 -0.612026 1363 0.597191 0.802099 0.000000
-14.573421 -14.141597 -0.605776 1359 0.597191 0.802099 0.000000
-14.573242 -14.141417 -0.599528 1361 0.597191 0.802099 0.000000
-14.573214 -14.141399 -0.593288 1361 0.597191 0.802099 0.000000
-14.573398 -14.141568 -0.587056 1347 0.597191 0.802099 0.000000
-14.573260 -14.141447 -0.580807 1355 0.597191 0.802099 0.000000
-14.573334 -14.141512 -0.574566 1357 0.597191 0.802099 0.000000
-14.573729 -14.141893 -0.568342 1355 0.597191 0.802099 0.000000
-14.573441 -14.141610 -0.562095 1353 0.597191 0.802099 0.000000
-14.573132 -14.141322 -0.555838 1357 0.597191 0.802099 0.000000
-14.572897 -14.141084 -0.549590 1349 0.597191 0.802099 0.000000
-14.572806 -14.141000 -0.543341 1339 0.597191 0.802099 0.000000
-14.573029 -14.141213 -0.537108 1349 0.597191 0.802099 0.000000
-14.573345 -14.141532 -0.530885 1357 0.597191 0.802099 0.000000
-14.573835 -14.142005 -0.524660 1359 0.597191 0.802099 0.000000
-14.573682 -14.141858 -0.518412 1351 0.597191 0.802099 0.000000
-14.573330 -14.141509 -0.512165 1345 0.597191 0.802099 0.000000
-14.573028 -14.141212 -0.505908 1345 0.597191 0.802099 0.000000
-14.573229 -14.141421 -0.499675 1341 0.597191 0.802099 0.000000
-14.573245 -14.141428 -0.493435 1333 0.597191 0.802099 0.000000
-14.572668 -14.140868 -0.487180 1349 0.597191 0.802099 0.000000
-14.572662 -14.140868 -0.480940 1357 0.597191 0.802099 0.000000
-14.572822 -14.141017 -0.474709 1349 0.597191 0.802099 0.000000
-14.572190 -14.140412 -0.468445 1349 0.597191 0.802099 0.000000
-14.572397 -14.140614 -0.462212 1353 0.597191 0.802099 0.000000
-14.573028 -14.141228 -0.455996 1347 0.597191 0.802099 0.000000
-14.572544 -14.140759 -0.449741 1353 0.597191 0.802099 0.000000
-14.572485 -14.140700 -0.443501 1357 0.597191 0.802099 0.000000
-14.572692 -14.140902 -0.437269 1347 0.597191 0.802099 0.000000
-14.572787 -14.140985 -0.431028 1349 0.597191 0.802099 0.000000
-14.572407 -14.140626 -0.424781 1353 0.597191 0.802099 0.000000
-14.571875 -14.140103 -0.418526 1349 0.597191 0.802099 0.000000
-14.572066 -14.140291 -0.412294 1349 0.597191 0.802099 0.000000
-14.572791 -14.140996 -0.406077 1361 0.597191 0.802099 0.000000
-14.572921 -14.141120 -0.399846 1345 0.597191 0.802099 0.000000
-14.571753 -14.139984 -0.393577 1345 0.597191 0.802099 0.000000
-14.571474 -14.139722 -0.387329 1343 0.597191 0.802099 0.000000
-14.572294 -14.140517 -0.381111 1349 0.597191 0.802099 0.000000
-14.572061 -14.140292 -0.374874 1351 0.597191 0.802099 0.000000
-14.572196 -14.140421 -0.368632 1351 0.597191 0.802099 0.000000
-14.571918 -14.140144 -0.362385 1347 0.597191 0.802099 0.000000
-14.571614 -14.139862 -0.356147 1357 0.597191 0.802099 0.000000
-14.571804 -14.140037 -0.349915 1361 0.597191 0.802099 0.000000
-14.572406 -14.140627 -0.343690 1357 0.597191 0.802099 0.000000
-14.572377 -14.140595 -0.337450 1363 0.597191 0.802099 0.000000
-14.571870 -14.140105 -0.331204 1359 0.597191 0.802099 0.000000
-14.571936 -14.140178 -0.324964 1359 0.597191 0.802099 0.000000
-14.571806 -14.140050 -0.318725 1355 0.597191 0.802099 0.000000
-14.571289 -14.139553 -0.312479 1347 0.597191 0.802099 0.000000
-14.571260 -14.139522 -0.306240 1347 0.597191 0.802099 0.000000
-14.572111 -14.140343 -0.300021 1353 0.597191 0.802099 0.000000
-14.571548 -14.139794 -0.293777 1353 0.597191 0.802099 0.000000
-14.570720 -14.138988 -0.287524 1353 0.597191 0.802099 0.000000
-14.570841 -14.139105 -0.281283 1351 0.597191 0.802099 0.000000
-14.570992 -14.139262 -0.275051 1357 0.597191 0.802099 0.000000
-14.579495 -14.138515 -0.668285 1387 0.597191 0.802099 0.000000
-14.579490 -14.138503 -0.662035 1367 0.597191 0.802099 0.000000
-14.578843 -14.137885 -0.655761 1351 0.597191 0.802099 0.000000
-14.578618 -14.137667 -0.649513 1359 0.597191 0.802099 0.000000
-14.579240 -14.138261 -0.643297 1355 0.597191 0.802099 0.000000
-14.578852 -14.137895 -0.637030 1351 0.597191 0.802099 0.000000
-14.578313 -14.137365 -0.630765 1351 0.597191 0.802099 0.000000
-14.578919 -14.137960 -0.624550 1371 0.597191 0.802099 0.000000
-14.578845 -14.137891 -0.618310 1357 0.597191 0.802099 0.000000
-14.578934 -14.137969 -0.612069 1353 0.597191 0.802099 0.000000
-14.579006 -14.138048 -0.605828 1361 0.597191 0.802099 0.000000
-14.578570 -14.137615 -0.599572 1361 0.597191 0.802099 0.000000
-14.578010 -14.137082 -0.593307 1351 0.597191 0.802099 0.000000
-14.578465 -14.137514 -0.587083 1345 0.597191 0.802099 0.000000
-14.579160 -14.138194 -0.580866 1359 0.597191 0.802099 0.000000
-14.578825 -14.137872 -0.574609 1351 0.597191 0.802099 0.000000
-14.578318 -14.137382 -0.568354 1341 0.597191 0.802099 0.000000
-14.577817 -14.136885 -0.562089 1337 0.597191 0.802099 0.000000
-14.578042 -14.137113 -0.555856 1341 0.597191 0.802099 0.000000
-14.578742 -14.137785 -0.549639 1347 0.597191 0.802099 0.000000
-14.578542 -14.137600 -0.543391 1339 0.597191 0.802099 0.000000
-14.579181 -14.138221 -0.537175 1341 0.597191 0.802099 0.000000
-14.579097 -14.138130 -0.530936 1349 0.597191 0.802099 0.000000
-14.578369 -14.137434 -0.524662 1351 0.597191 0.802099 0.000000
-14.577854 -14.136925 -0.518407 1341 0.597191 0.802099 0.000000
-14.577552 -14.136643 -0.512160 1351 0.597191 0.802099 0.000000
-14.578127 -14.137197 -0.505934 1353 0.597191 0.802099 0.000000
-14.578192 -14.137257 -0.499693 1347 0.597191 0.802099 0.000000
-14.577936 -14.137013 -0.493446 1337 0.597191 0.802099 0.000000
-14.578042 -14.137118 -0.487215 1351 0.597191 0.802099 0.000000
-14.578154 -14.137215 -0.480973 1351 0.597191 0.802099 0.000000
-14.577889 -14.136963 -0.474726 1353 0.597191 0.802099 0.000000
-14.577939 -14.137010 -0.468495 1353 0.597191 0.802099 0.000000
-14.577779 -14.136856 -0.462247 1351 0.597191 0.802099 0.000000
-14.577765 -14.136850 -0.456007 1353 0.597191 0.802099 0.000000
-14.578183 -14.137252 -0.449782 1357 0.597191 0.802099 0.000000
-14.577974 -14.137046 -0.443534 1361 0.597191 0.802099 0.000000
-14.577963 -14.137041 -0.437294 1343 0.597191 0.802099 0.000000
-14.577588 -14.136673 -0.431048 1351 0.597191 0.802099 0.000000
-14.577215 -14.136307 -0.424791 1355 0.597191 0.802099 0.000000
-14.577713 -14.136799 -0.418566 1351 0.597191 0.802099 0.000000
-14.578069 -14.137149 -0.412343 1357 0.597191 0.802099 0.000000
-14.577844 -14.136930 -0.406095 1351 0.597191 0.802099 0.000000
-14.577204 -14.136305 -0.399841 1343 0.597191 0.802099 0.000000
-14.577346 -14.136440 -0.393609 1341 0.597191 0.802099 0.000000
-14.577382 -14.136475 -0.387369 1339 0.597191 0.802099 0.000000
-14.577250 -14.136346 -0.381130 1349 0.597191 0.802099 0.000000
-14.577443 -14.136535 -0.374898 1343 0.597191 0.802099 0.000000
-14.577726 -14.136813 -0.368665 1345 0.597191 0.802099 0.000000
-14.577871 -14.136949 -0.362433 1347 0.597191 0.802099 0.000000
-14.577413 -14.136512 -0.356178 1343 0.597191 0.802099 0.000000
-14.577493 -14.136583 -0.349947 1357 0.597191 0.802099 0.000000
-14.577362 -14.136455 -0.343708 1349 0.597191 0.802099 0.000000
-14.577860 -14.136948 -0.337473 1353 0.597191 0.802099 0.000000
-14.577666 -14.136755 -0.331235 1359 0.597191 0.802099 0.000000
-14.576846 -14.135968 -0.324982 1347 0.597191 0.802099 0.000000
-14.576605 -14.135723 -0.318734 1349 0.597191 0.802099 0.000000
-14.576615 -14.135737 -0.312494 1351 0.597191 0.802099 0.000000
