567
-14.540718 -14.023161 -0.671114 1215 0.137801 0.990460 0.000000
-14.539971 -14.022442 -0.664871 1215 0.137801 0.990460 0.000000
-14.540008 -14.022475 -0.658661 1217 0.137801 0.990460 0.000000
-14.540893 -14.023332 -0.652492 1217 0.137801 0.990460 0.000000
-14.540770 -14.023211 -0.646273 1203 0.137801 0.990460 0.000000
-14.540434 -14.022891 -0.640046 1209 0.137801 0.990460 0.000000
-14.540051 -14.022519 -0.633820 1209 0.137801 0.990460 0.000000
-14.540251 -14.022714 -0.627627 1213 0.137801 0.990460 0.000000
-14.540807 -14.023249 -0.621442 1211 0.137801 0.990460 0.000000
-14.540730 -14.023179 -0.615223 1207 0.137801 0.990460 0.000000
-14.540558 -14.023005 -0.609004 1217 0.137801 0.990460 0.000000
-14.539688 -14.022171 -0.602762 1223 0.137801 0.990460 0.000000
-14.539345 -14.021846 -0.596535 1217 0.137801 0.990460 0.000000
-14.540095 -14.022567 -0.590358 1223 0.137801 0.990460 0.000000
-14.540556 -14.023011 -0.584174 1229 0.137801 0.990460 0.000000
-14.540258 -14.022722 -0.577946 1217 0.137801 0.990460 0.000000
-14.539537 -14.022038 -0.571713 1207 0.137801 0.990460 0.000000
-14.539303 -14.021799 -0.565495 1213 0.137801 0.990460 0.000000
-14.539062 -14.021569 -0.559277 1207 0.137801 0.990460 0.000000
-14.539074 -14.021585 -0.553077 1211 0.137801 0.990460 0.000000
-14.539832 -14.022311 -0.546890 1213 0.137801 0.990460 0.000000
-14.540214 -14.022679 -0.540696 1213 0.137801 0.990460 0.000000
-14.540067 -14.022539 -0.534487 1217 0.137801 0.990460 0.000000
-14.539661 -14.022148 -0.528261 1217 0.137801 0.990460 0.000000
-14.539452 -14.021958 -0.522053 1219 0.137801 0.990460 0.000000
-14.539249 -14.021760 -0.515834 1221 0.137801 0.990460 0.000000
-14.539947 -14.022435 -0.509648 1217 0.137801 0.990460 0.000000
-14.540375 -14.022842 -0.503463 1213 0.137801 0.990460 0.000000
-14.539274 -14.021783 -0.497214 1201 0.137801 0.990460 0.000000
-14.538811 -14.021333 -0.490988 1207 0.137801 0.990460 0.000000
-14.539225 -14.021740 -0.484804 1217 0.137801 0.990460 0.000000
-14.539275 -14.021786 -0.478593 1201 0.137801 0.990460 0.000000
-14.538906 -14.021426 -0.472377 1209 0.137801 0.990460 0.000000
-14.538643 -14.021178 -0.466159 1201 0.137801 0.990460 0.000000
-14.539269 -14.021784 -0.459973 1209 0.137801 0.990460 0.000000
-14.539217 -14.021733 -0.453763 1213 0.137801 0.990460 0.000000
-14.539108 -14.021625 -0.447554 1221 0.137801 0.990460 0.000000
-14.539625 -14.022128 -0.441369 1207 0.137801 0.990460 0.000000
-14.539092 -14.021608 -0.435144 1215 0.137801 0.990460 0.000000
-14.538763 -14.021295 -0.428927 1215 0.137801 0.990460 0.000000
-14.538704 -14.021238 -0.422717 1213 0.137801 0.990460 0.000000
-14.538841 -14.021382 -0.416516 1213 0.137801 0.990460 0.000000
-14.539144 -14.021672 -0.410323 1213 0.137801 0.990460 0.000000
-14.539398 -14.021910 -0.404120 1221 0.137801 0.990460 0.000000
-14.539111 -14.021644 -0.397913 1229 0.137801 0.990460 0.000000
-14.538152 -14.020712 -0.391682 1219 0.137801 0.990460 0.000000
-14.537919 -14.020488 -0.385474 1215 0.137801 0.990460 0.000000
-14.538370 -14.020926 -0.379279 1223 0.137801 0.990460 0.000000
-14.538028 -14.020601 -0.373062 1211 0.137801 0.990460 0.000000
-14.537540 -14.020118 -0.366847 1213 0.137801 0.990460 0.000000
-14.537347 -14.019940 -0.360639 1215 0.137801 0.990460 0.000000
-14.537586 -14.020165 -0.354436 1213 0.137801 0.990460 0.000000
-14.537976 -14.020555 -0.348242 1213 0.137801 0.990460 0.000000
-14.538264 -14.020832 -0.342050 1205 0.137801 0.990460 0.000000
-14.537714 -14.020299 -0.335825 1203 0.137801 0.990460 0.000000
-14.537788 -14.020364 -0.329624 1219 0.137801 0.990460 0.000000
-14.538273 -14.020843 -0.323429 1215 0.137801 0.990460 0.000000
-14.538030 -14.020598 -0.317221 1213 0.137801 0.990460 0.000000
-14.537939 -14.020516 -0.311022 1213 0.137801 0.990460 0.000000
-14.537910 -14.020486 -0.304812 1215 0.137801 0.990460 0.000000
-14.537450 -14.020051 -0.298596 1209 0.137801 0.990460 0.000000
-14.536980 -14.019595 -0.292391 1207 0.137801 0.990460 0.000000
-14.537841 -14.020418 -0.286202 1217 0.137801 0.990460 0.000000
-14.548734 -14.022651 -0.671299 1227 0.137801 0.990460 0.000000
-14.548248 -14.022182 -0.665064 1215 0.137801 0.990460 0.000000
-14.548182 -14.022120 -0.658844 1227 0.137801 0.990460 0.000000
-14.548112 -14.022043 -0.652635 1221 0.137801 0.990460 0.000000
-14.548470 -14.022392 -0.646441 1215 0.137801 0.990460 0.000000
-14.548142 -14.022079 -0.640214 1221 0.137801 0.990460 0.000000
-14.548075 -14.022015 -0.633995 1229 0.137801 0.990460 0.000000
-14.548155 -14.022087 -0.627784 1221 0.137801 0.990460 0.000000
-14.547971 -14.021915 -0.621565 1223 0.137801 0.990460 0.000000
-14.547696 -14.021646 -0.615348 1225 0.137801 0.990460 0.000000
-14.547244 -14.021217 -0.609122 1215 0.137801 0.990460 0.000000
-14.546907 -14.020897 -0.602895 1219 0.137801 0.990460 0.000000
-14.547146 -14.021122 -0.596693 1221 0.137801 0.990460 0.000000
-14.547544 -14.021503 -0.590499 1221 0.137801 0.990460 0.000000
-14.547610 -14.021576 -0.584288 1217 0.137801 0.990460 0.000000
-14.547369 -14.021346 -0.578070 1225 0.137801 0.990460 0.000000
-14.547766 -14.021727 -0.571876 1213 0.137801 0.990460 0.000000
-14.547627 -14.021593 -0.565667 1211 0.137801 0.990460 0.000000
-14.547022 -14.021001 -0.559433 1207 0.137801 0.990460 0.000000
-14.547302 -14.021273 -0.553230 1221 0.137801 0.990460 0.000000
-14.547581 -14.021544 -0.547027 1213 0.137801 0.990460 0.000000
-14.547750 -14.021714 -0.540825 1215 0.137801 0.990460 0.000000
-14.547185 -14.021168 -0.534601 1207 0.137801 0.990460 0.000000
-14.547188 -14.021175 -0.528391 1217 0.137801 0.990460 0.000000
-14.547782 -14.021743 -0.522205 1231 0.137801 0.990460 0.000000
-14.547060 -14.021043 -0.515971 1227 0.137801 0.990460 0.000000
-14.546590 -14.020601 -0.509746 1213 0.137801 0.990460 0.000000
-14.547278 -14.021257 -0.503559 1203 0.137801 0.990460 0.000000
-14.547441 -14.021420 -0.497357 1213 0.137801 0.990460 0.000000
-14.546820 -14.020817 -0.491123 1215 0.137801 0.990460 0.000000
-14.546767 -14.020766 -0.484914 1211 0.137801 0.990460 0.000000
-14.547031 -14.021025 -0.478721 1215 0.137801 0.990460 0.000000
-14.547032 -14.021019 -0.472511 1209 0.137801 0.990460 0.000000
-14.546871 -14.020867 -0.466292 1215 0.137801 0.990460 0.000000
-14.547128 -14.021120 -0.460099 1211 0.137801 0.990460 0.000000
-14.547128 -14.021112 -0.453889 1217 0.137801 0.990460 0.000000
-14.546588 -14.020600 -0.447664 1207 0.137801 0.990460 0.000000
-14.546110 -14.020138 -0.441439 1199 0.137801 0.990460 0.000000
-14.546003 -14.020031 -0.435230 1209 0.137801 0.990460 0.000000
-14.546204 -14.020226 -0.429028 1211 0.137801 0.990460 0.000000
-14.545765 -14.019809 -0.422812 1213 0.137801 0.990460 0.000000
-14.545807 -14.019848 -0.416601 1219 0.137801 0.990460 0.000000
-14.546836 -14.020847 -0.410431 1223 0.137801 0.990460 0.000000
-14.547249 -14.021240 -0.404227 1229 0.137801 0.990460 0.000000
-14.547078 -14.021080 -0.398018 1227 0.137801 0.990460 0.000000
-14.546955 -14.020960 -0.391809 1223 0.137801 0.990460 0.000000
-14.546406 -14.020428 -0.385585 1207 0.137801 0.990460 0.000000
-14.545802 -14.019850 -0.379360 1207 0.137801 0.990460 0.000000
-14.546050 -14.020082 -0.373168 1211 0.137801 0.990460 0.000000
-14.546502 -14.020521 -0.366973 1217 0.137801 0.990460 0.000000
-14.546529 -14.020548 -0.360763 1215 0.137801 0.990460 0.000000
-14.546390 -14.020413 -0.354554 1219 0.137801 0.990460 0.000000
-14.545526 -14.019586 -0.348332 1221 0.137801 0.990460 0.000000
-14.545284 -14.019356 -0.342114 1219 0.137801 0.990460 0.000000
-14.545249 -14.019320 -0.335914 1215 0.137801 0.990460 0.000000
-14.545369 -14.019436 -0.329703 1207 0.137801 0.990460 0.000000
-14.545609 -14.019661 -0.323511 1215 0.137801 0.990460 0.000000
-14.545573 -14.019639 -0.317301 1209 0.137801 0.990460 0.000000
-14.545646 -14.019703 -0.311100 1207 0.137801 0.990460 0.000000
-14.545185 -14.019268 -0.304884 1219 0.137801 0.990460 0.000000
-14.544936 -14.019018 -0.298667 1221 0.137801 0.990460 0.000000
-14.545096 -14.019180 -0.292465 1221 0.137801 0.990460 0.000000
-14.545429 -14.019496 -0.286272 1219 0.137801 0.990460 0.000000
-14.556699 -14.021764 -0.671467 1233 0.137801 0.990460 0.000000
-14.556369 -14.021436 -0.665240 1235 0.137801 0.990460 0.000000
-14.555301 -14.020415 -0.658980 1213 0.137801 0.990460 0.000000
-14.556179 -14.021265 -0.652801 1229 0.137801 0.990460 0.000000
-14.556535 -14.021600 -0.646608 1227 0.137801 0.990460 0.000000
-14.556517 -14.021589 -0.640398 1239 0.137801 0.990460 0.000000
-14.555973 -14.021062 -0.634153 1227 0.137801 0.990460 0.000000
-14.555489 -14.020594 -0.627927 1221 0.137801 0.990460 0.000000
-14.555681 -14.020783 -0.621715 1221 0.137801 0.990460 0.000000
-14.556133 -14.021221 -0.615521 1225 0.137801 0.990460 0.000000
-14.556311 -14.021397 -0.609319 1229 0.137801 0.990460 0.000000
-14.555399 -14.020516 -0.603067 1225 0.137801 0.990460 0.000000
-14.554850 -14.019984 -0.596832 1223 0.137801 0.990460 0.000000
-14.554978 -14.020107 -0.590631 1219 0.137801 0.990460 0.000000
-14.555367 -14.020481 -0.584437 1221 0.137801 0.990460 0.000000
-14.555442 -14.020560 -0.578226 1219 0.137801 0.990460 0.000000
-14.555044 -14.020176 -0.572000 1217 0.137801 0.990460 0.000000
-14.554597 -14.019740 -0.565774 1219 0.137801 0.990460 0.000000
-14.554932 -14.020069 -0.559571 1209 0.137801 0.990460 0.000000
-14.555682 -14.020790 -0.553393 1213 0.137801 0.990460 0.000000
-14.555433 -14.020554 -0.547166 1211 0.137801 0.990460 0.000000
-14.555185 -14.020318 -0.540948 1217 0.137801 0.990460 0.000000
-14.555360 -14.020478 -0.534746 1207 0.137801 0.990460 0.000000
-14.555056 -14.020184 -0.528519 1207 0.137801 0.990460 0.000000
-14.554429 -14.019588 -0.522285 1213 0.137801 0.990460 0.000000
-14.554652 -14.019801 -0.516082 1211 0.137801 0.990460 0.000000
-14.554396 -14.019559 -0.509865 1211 0.137801 0.990460 0.000000
-14.554352 -14.019515 -0.503655 1213 0.137801 0.990460 0.000000
-14.554465 -14.019626 -0.497454 1219 0.137801 0.990460 0.000000
-14.554467 -14.019620 -0.491244 1217 0.137801 0.990460 0.000000
-14.554360 -14.019526 -0.485024 1211 0.137801 0.990460 0.000000
-14.554418 -14.019577 -0.478824 1207 0.137801 0.990460 0.000000
-14.554893 -14.020035 -0.472629 1217 0.137801 0.990460 0.000000
-14.554093 -14.019271 -0.466396 1209 0.137801 0.990460 0.000000
-14.553774 -14.018965 -0.460169 1205 0.137801 0.990460 0.000000
-14.554084 -14.019261 -0.453976 1217 0.137801 0.990460 0.000000
-14.553873 -14.019056 -0.447758 1213 0.137801 0.990460 0.000000
-14.553286 -14.018492 -0.441534 1211 0.137801 0.990460 0.000000
-14.553699 -14.018885 -0.435340 1213 0.137801 0.990460 0.000000
-14.553686 -14.018881 -0.429130 1223 0.137801 0.990460 0.000000
-14.553050 -14.018264 -0.422895 1211 0.137801 0.990460 0.000000
-14.553030 -14.018240 -0.416695 1223 0.137801 0.990460 0.000000
-14.553025 -14.018242 -0.410485 1219 0.137801 0.990460 0.000000
-14.554006 -14.019189 -0.404306 1229 0.137801 0.990460 0.000000
-14.553930 -14.019118 -0.398096 1217 0.137801 0.990460 0.000000
-14.553444 -14.018650 -0.391871 1213 0.137801 0.990460 0.000000
-14.553423 -14.018625 -0.385661 1215 0.137801 0.990460 0.000000
-14.553349 -14.018558 -0.379451 1211 0.137801 0.990460 0.000000
-14.553539 -14.018744 -0.373250 1221 0.137801 0.990460 0.000000
-14.553031 -14.018257 -0.367034 1211 0.137801 0.990460 0.000000
-14.552797 -14.018033 -0.360816 1213 0.137801 0.990460 0.000000
-14.552729 -14.017957 -0.354607 1209 0.137801 0.990460 0.000000
-14.552425 -14.017676 -0.348390 1213 0.137801 0.990460 0.000000
-14.553249 -14.018469 -0.342202 1219 0.137801 0.990460 0.000000
-14.554219 -14.019395 -0.336022 1219 0.137801 0.990460 0.000000
-14.553656 -14.018863 -0.329797 1215 0.137801 0.990460 0.000000
-14.553250 -14.018473 -0.323581 1219 0.137801 0.990460 0.000000
-14.553700 -14.018897 -0.317387 1215 0.137801 0.990460 0.000000
-14.553342 -14.018558 -0.311170 1203 0.137801 0.990460 0.000000
-14.552730 -14.017961 -0.304956 1209 0.137801 0.990460 0.000000
-14.552638 -14.017879 -0.298746 1209 0.137801 0.990460 0.000000
-14.553020 -14.018247 -0.292543 1213 0.137801 0.990460 0.000000
-14.553450 -14.018666 -0.286348 1223 0.137801 0.990460 0.000000
-14.564263 -14.020318 -0.671619 1229 0.137801 0.990460 0.000000
-14.563890 -14.019967 -0.665382 1229 0.137801 0.990460 0.000000
-14.563451 -14.019537 -0.659156 1221 0.137801 0.990460 0.000000
-14.563484 -14.019570 -0.652936 1219 0.137801 0.990460 0.000000
-14.563212 -14.019315 -0.646708 1215 0.137801 0.990460 0.000000
-14.563413 -14.019509 -0.640506 1221 0.137801 0.990460 0.000000
-14.563651 -14.019735 -0.634304 1225 0.137801 0.990460 0.000000
-14.563742 -14.019826 -0.628093 1223 0.137801 0.990460 0.000000
-14.562610 -14.018742 -0.621833 1221 0.137801 0.990460 0.000000
-14.562746 -14.018871 -0.615622 1217 0.137801 0.990460 0.000000
-14.563726 -14.019817 -0.609452 1229 0.137801 0.990460 0.000000
-14.563651 -14.019734 -0.603233 1227 0.137801 0.990460 0.000000
-14.563834 -14.019917 -0.597031 1231 0.137801 0.990460 0.000000
-14.563444 -14.019538 -0.590795 1223 0.137801 0.990460 0.000000
-14.562934 -14.019051 -0.584569 1213 0.137801 0.990460 0.000000
-14.562802 -14.018923 -0.578350 1225 0.137801 0.990460 0.000000
-14.562405 -14.018552 -0.572114 1217 0.137801 0.990460 0.000000
-14.562424 -14.018559 -0.565904 1221 0.137801 0.990460 0.000000
-14.563066 -14.019193 -0.559717 1221 0.137801 0.990460 0.000000
-14.563668 -14.019765 -0.553531 1209 0.137801 0.990460 0.000000
-14.563630 -14.019726 -0.547312 1209 0.137801 0.990460 0.000000
-14.562862 -14.018990 -0.541079 1209 0.137801 0.990460 0.000000
-14.562666 -14.018797 -0.534851 1213 0.137801 0.990460 0.000000
-14.562938 -14.019062 -0.528658 1211 0.137801 0.990460 0.000000
-14.563059 -14.019178 -0.522446 1213 0.137801 0.990460 0.000000
-14.562583 -14.018732 -0.516221 1213 0.137801 0.990460 0.000000
-14.561646 -14.017818 -0.509970 1221 0.137801 0.990460 0.000000
-14.561548 -14.017731 -0.503760 1211 0.137801 0.990460 0.000000
-14.562339 -14.018497 -0.497573 1227 0.137801 0.990460 0.000000
-14.562612 -14.018763 -0.491370 1227 0.137801 0.990460 0.000000
-14.562242 -14.018402 -0.485143 1221 0.137801 0.990460 0.000000
-14.562238 -14.018405 -0.478933 1225 0.137801 0.990460 0.000000
-14.562564 -14.018714 -0.472740 1221 0.137801 0.990460 0.000000
-14.562448 -14.018599 -0.466521 1211 0.137801 0.990460 0.000000
-14.562343 -14.018505 -0.460312 1217 0.137801 0.990460 0.000000
-14.561967 -14.018139 -0.454085 1213 0.137801 0.990460 0.000000
-14.561852 -14.018039 -0.447876 1215 0.137801 0.990460 0.000000
-14.561585 -14.017776 -0.441658 1215 0.137801 0.990460 0.000000
-14.561525 -14.017718 -0.435439 1211 0.137801 0.990460 0.000000
-14.562254 -14.018421 -0.429252 1223 0.137801 0.990460 0.000000
-14.561825 -14.018012 -0.423026 1213 0.137801 0.990460 0.000000
-14.561488 -14.017691 -0.416809 1211 0.137801 0.990460 0.000000
-14.561585 -14.017776 -0.410608 1215 0.137801 0.990460 0.000000
-14.561518 -14.017712 -0.404388 1219 0.137801 0.990460 0.000000
-14.561395 -14.017606 -0.398179 1231 0.137801 0.990460 0.000000
-14.560957 -14.017176 -0.391953 1219 0.137801 0.990460 0.000000
-14.560770 -14.017003 -0.385745 1215 0.137801 0.990460 0.000000
-14.560859 -14.017080 -0.379534 1219 0.137801 0.990460 0.000000
-14.561052 -14.017269 -0.373332 1219 0.137801 0.990460 0.000000
-14.561387 -14.017599 -0.367129 1215 0.137801 0.990460 0.000000
-14.561840 -14.018038 -0.360934 1225 0.137801 0.990460 0.000000
-14.562284 -14.018470 -0.354740 1221 0.137801 0.990460 0.000000
-14.562737 -14.018895 -0.348535 1219 0.137801 0.990460 0.000000
-14.561966 -14.018157 -0.342312 1219 0.137801 0.990460 0.000000
-14.561141 -14.017361 -0.336080 1219 0.137801 0.990460 0.000000
-14.561272 -14.017498 -0.329879 1213 0.137801 0.990460 0.000000
-14.561234 -14.017459 -0.323669 1221 0.137801 0.990460 0.000000
-14.560781 -14.017017 -0.317453 1219 0.137801 0.990460 0.000000
-14.560640 -14.016883 -0.311234 1207 0.137801 0.990460 0.000000
-14.561078 -14.017309 -0.305040 1213 0.137801 0.990460 0.000000
-14.561460 -14.017676 -0.298836 1223 0.137801 0.990460 0.000000
-14.560682 -14.016933 -0.292613 1221 0.137801 0.990460 0.000000
-14.560480 -14.016735 -0.286405 1217 0.137801 0.990460 0.000000
-14.571861 -14.018848 -0.671771 1223 0.137801 0.990460 0.000000
-14.571698 -14.018682 -0.665542 1227 0.137801 0.990460 0.000000
-14.571795 -14.018780 -0.659331 1217 0.137801 0.990460 0.000000
-14.571776 -14.018770 -0.653121 1225 0.137801 0.990460 0.000000
-14.571558 -14.018558 -0.646893 1231 0.137801 0.990460 0.000000
-14.571915 -14.018892 -0.640689 1221 0.137801 0.990460 0.000000
-14.571886 -14.018875 -0.634470 1221 0.137801 0.990460 0.000000
-14.571134 -14.018150 -0.628227 1211 0.137801 0.990460 0.000000
-14.571909 -14.018890 -0.622039 1217 0.137801 0.990460 0.000000
-14.572669 -14.019631 -0.615862 1221 0.137801 0.990460 0.000000
-14.572435 -14.019407 -0.609634 1223 0.137801 0.990460 0.000000
-14.571619 -14.018619 -0.603381 1225 0.137801 0.990460 0.000000
-14.570975 -14.017995 -0.597147 1219 0.137801 0.990460 0.000000
-14.570782 -14.017818 -0.590919 1223 0.137801 0.990460 0.000000
-14.570808 -14.017845 -0.584709 1215 0.137801 0.990460 0.000000
-14.571088 -14.018116 -0.578506 1207 0.137801 0.990460 0.000000
-14.571169 -14.018188 -0.572295 1213 0.137801 0.990460 0.000000
-14.570928 -14.017958 -0.566067 1205 0.137801 0.990460 0.000000
-14.571158 -14.018177 -0.559865 1219 0.137801 0.990460 0.000000
-14.571225 -14.018250 -0.553654 1213 0.137801 0.990460 0.000000
-14.571608 -14.018618 -0.547450 1219 0.137801 0.990460 0.000000
-14.571729 -14.018734 -0.541239 1223 0.137801 0.990460 0.000000
-14.571163 -14.018189 -0.535004 1213 0.137801 0.990460 0.000000
-14.570805 -14.017850 -0.528777 1215 0.137801 0.990460 0.000000
-14.570712 -14.017755 -0.522568 1225 0.137801 0.990460 0.000000
-14.570510 -14.017555 -0.516340 1221 0.137801 0.990460 0.000000
-14.570309 -14.017370 -0.510122 1221 0.137801 0.990460 0.000000
-14.569886 -14.016967 -0.503895 1217 0.137801 0.990460 0.000000
-14.570062 -14.017129 -0.497694 1219 0.137801 0.990460 0.000000
-14.570744 -14.017793 -0.491497 1215 0.137801 0.990460 0.000000
-14.570691 -14.017742 -0.485287 1209 0.137801 0.990460 0.000000
-14.571065 -14.018105 -0.479084 1221 0.137801 0.990460 0.000000
-14.571375 -14.018400 -0.472880 1223 0.137801 0.990460 0.000000
-14.570834 -14.017888 -0.466655 1219 0.137801 0.990460 0.000000
-14.570743 -14.017793 -0.460436 1213 0.137801 0.990460 0.000000
-14.570839 -14.017890 -0.454225 1221 0.137801 0.990460 0.000000
-14.570733 -14.017783 -0.448016 1225 0.137801 0.990460 0.000000
-14.570351 -14.017425 -0.441789 1219 0.137801 0.990460 0.000000
-14.570242 -14.017315 -0.435570 1211 0.137801 0.990460 0.000000
-14.570491 -14.017562 -0.429368 1221 0.137801 0.990460 0.000000
-14.570375 -14.017447 -0.423149 1221 0.137801 0.990460 0.000000
-14.570046 -14.017134 -0.416932 1209 0.137801 0.990460 0.000000
-14.570088 -14.017173 -0.410721 1223 0.137801 0.990460 0.000000
-14.569644 -14.016751 -0.404495 1221 0.137801 0.990460 0.000000
-14.569111 -14.016231 -0.398270 1209 0.137801 0.990460 0.000000
-14.569247 -14.016359 -0.392069 1209 0.137801 0.990460 0.000000
-14.569809 -14.016901 -0.385873 1211 0.137801 0.990460 0.000000
-14.569781 -14.016884 -0.379653 1213 0.137801 0.990460 0.000000
-14.570336 -14.017419 -0.373458 1221 0.137801 0.990460 0.000000
-14.570157 -14.017241 -0.367250 1219 0.137801 0.990460 0.000000
-14.569822 -14.016920 -0.361023 1219 0.137801 0.990460 0.000000
-14.570219 -14.017300 -0.354829 1225 0.137801 0.990460 0.000000
-14.569922 -14.017025 -0.348611 1217 0.137801 0.990460 0.000000
-14.570004 -14.017097 -0.342400 1223 0.137801 0.990460 0.000000
-14.569124 -14.016256 -0.336169 1221 0.137801 0.990460 0.000000
-14.568560 -14.015711 -0.329944 1211 0.137801 0.990460 0.000000
-14.569424 -14.016549 -0.323755 1215 0.137801 0.990460 0.000000
-14.569283 -14.016415 -0.317537 1215 0.137801 0.990460 0.000000
-14.568877 -14.016024 -0.311320 1215 0.137801 0.990460 0.000000
-14.569210 -14.016339 -0.305117 1221 0.137801 0.990460 0.000000
-14.569064 -14.016200 -0.298908 1217 0.137801 0.990460 0.000000
-14.568926 -14.016066 -0.292689 1225 0.137801 0.990460 0.000000
-14.569307 -14.016435 -0.286496 1221 0.137801 0.990460 0.000000
-14.579918 -14.017547 -0.671940 1231 0.137801 0.990460 0.000000
-14.579488 -14.017137 -0.665694 1223 0.137801 0.990460 0.000000
-14.579742 -14.017374 -0.659491 1227 0.137801 0.990460 0.000000
-14.579894 -14.017517 -0.653279 1217 0.137801 0.990460 0.000000
-14.579819 -14.017448 -0.647060 1217 0.137801 0.990460 0.000000
-14.579223 -14.016877 -0.640815 1219 0.137801 0.990460 0.000000
-14.579627 -14.017263 -0.634611 1211 0.137801 0.990460 0.000000
-14.580136 -14.017762 -0.628416 1221 0.137801 0.990460 0.000000
-14.580067 -14.017684 -0.622197 1223 0.137801 0.990460 0.000000
-14.579512 -14.017159 -0.615962 1221 0.137801 0.990460 0.000000
-14.578916 -14.016588 -0.609718 1209 0.137801 0.990460 0.000000
-14.578736 -14.016409 -0.603499 1213 0.137801 0.990460 0.000000
-14.579551 -14.017194 -0.597311 1215 0.137801 0.990460 0.000000
-14.580208 -14.017825 -0.591125 1233 0.137801 0.990460 0.000000
-14.579336 -14.016992 -0.584873 1219 0.137801 0.990460 0.000000
-14.578884 -14.016562 -0.578637 1219 0.137801 0.990460 0.000000
-14.579115 -14.016782 -0.572425 1215 0.137801 0.990460 0.000000
-14.578826 -14.016500 -0.566198 1209 0.137801 0.990460 0.000000
-14.578678 -14.016359 -0.559979 1211 0.137801 0.990460 0.000000
-14.578548 -14.016233 -0.553760 1217 0.137801 0.990460 0.000000
-14.578291 -14.015989 -0.547532 1207 0.137801 0.990460 0.000000
-14.578522 -14.016210 -0.541330 1209 0.137801 0.990460 0.000000
-14.578581 -14.016275 -0.535119 1201 0.137801 0.990460 0.000000
-14.578597 -14.016282 -0.528899 1219 0.137801 0.990460 0.000000
-14.578658 -14.016349 -0.522688 1223 0.137801 0.990460 0.000000
-14.578982 -14.016657 -0.516485 1217 0.137801 0.990460 0.000000
-14.578528 -14.016214 -0.510259 1219 0.137801 0.990460 0.000000
-14.578052 -14.015766 -0.504023 1213 0.137801 0.990460 0.000000
-14.578269 -14.015975 -0.497821 1211 0.137801 0.990460 0.000000
-14.578695 -14.016380 -0.491617 1215 0.137801 0.990460 0.000000
-14.578171 -14.015880 -0.485382 1217 0.137801 0.990460 0.000000
-14.578387 -14.016087 -0.479180 1207 0.137801 0.990460 0.000000
-14.579066 -14.016737 -0.472983 1213 0.137801 0.990460 0.000000
-14.578432 -14.016134 -0.466749 1201 0.137801 0.990460 0.000000
-14.578270 -14.015982 -0.460530 1217 0.137801 0.990460 0.000000
-14.578106 -14.015815 -0.454312 1211 0.137801 0.990460 0.000000
-14.578157 -14.015861 -0.448101 1221 0.137801 0.990460 0.000000
-14.577932 -14.015657 -0.441883 1215 0.137801 0.990460 0.000000
-14.577613 -14.015350 -0.435656 1215 0.137801 0.990460 0.000000
-14.578026 -14.015743 -0.429462 1207 0.137801 0.990460 0.000000
-14.578539 -14.016232 -0.423257 1211 0.137801 0.990460 0.000000
-14.578480 -14.016175 -0.417047 1217 0.137801 0.990460 0.000000
-14.578308 -14.016017 -0.410829 1211 0.137801 0.990460 0.000000
-14.578021 -14.015736 -0.404611 1209 0.137801 0.990460 0.000000
-14.578111 -14.015826 -0.398400 1207 0.137801 0.990460 0.000000
-14.578193 -14.015912 -0.392189 1215 0.137801 0.990460 0.000000
-14.577817 -14.015546 -0.385963 1211 0.137801 0.990460 0.000000
-14.577528 -14.015265 -0.379745 1217 0.137801 0.990460 0.000000
-14.577499 -14.015246 -0.373535 1203 0.137801 0.990460 0.000000
-14.578007 -14.015729 -0.367331 1217 0.137801 0.990460 0.000000
-14.578451 -14.016161 -0.361126 1225 0.137801 0.990460 0.000000
-14.578060 -14.015784 -0.354910 1219 0.137801 0.990460 0.000000
-14.577512 -14.015251 -0.348685 1213 0.137801 0.990460 0.000000
-14.577160 -14.014918 -0.342458 1205 0.137801 0.990460 0.000000
-14.577023 -14.014786 -0.336249 1203 0.137801 0.990460 0.000000
-14.576994 -14.014754 -0.330039 1201 0.137801 0.990460 0.000000
-14.577437 -14.015186 -0.323835 1215 0.137801 0.990460 0.000000
-14.577559 -14.015304 -0.317624 1227 0.137801 0.990460 0.000000
-14.576891 -14.014661 -0.311400 1225 0.137801 0.990460 0.000000
-14.576959 -14.014734 -0.305189 1217 0.137801 0.990460 0.000000
-14.576599 -14.014381 -0.298972 1221 0.137801 0.990460 0.000000
-14.575979 -14.013792 -0.292748 1217 0.137801 0.990460 0.000000
-14.576731 -14.014512 -0.286551 1207 0.137801 0.990460 0.000000
-14.588115 -14.016513 -0.672107 1227 0.137801 0.990460 0.000000
-14.588748 -14.017113 -0.665920 1217 0.137801 0.990460 0.000000
-14.588514 -14.016889 -0.659693 1227 0.137801 0.990460 0.000000
-14.587603 -14.016022 -0.653431 1215 0.137801 0.990460 0.000000
-14.587748 -14.016158 -0.647220 1213 0.137801 0.990460 0.000000
-14.587997 -14.016404 -0.641007 1219 0.137801 0.990460 0.000000
-14.587873 -14.016283 -0.634788 1215 0.137801 0.990460 0.000000
-14.588381 -14.016767 -0.628583 1211 0.137801 0.990460 0.000000
-14.588950 -14.017314 -0.622388 1225 0.137801 0.990460 0.000000
-14.588338 -14.016729 -0.616143 1227 0.137801 0.990460 0.000000
-14.587846 -14.016256 -0.609908 1223 0.137801 0.990460 0.000000
-14.587303 -14.015728 -0.603663 1231 0.137801 0.990460 0.000000
-14.586850 -14.015300 -0.597427 1217 0.137801 0.990460 0.000000
-14.587247 -14.015681 -0.591233 1215 0.137801 0.990460 0.000000
-14.586896 -14.015348 -0.584996 1219 0.137801 0.990460 0.000000
-14.587024 -14.015471 -0.578785 1223 0.137801 0.990460 0.000000
-14.587098 -14.015536 -0.572574 1217 0.137801 0.990460 0.000000
-14.586967 -14.015408 -0.566345 1207 0.137801 0.990460 0.000000
-14.587087 -14.015525 -0.560134 1207 0.137801 0.990460 0.000000
-14.587052 -14.015502 -0.553914 1209 0.137801 0.990460 0.000000
-14.587284 -14.015721 -0.547712 1211 0.137801 0.990460 0.000000
-14.587933 -14.016346 -0.541515 1215 0.137801 0.990460 0.000000
-14.587409 -14.015847 -0.535280 1211 0.137801 0.990460 0.000000
-14.586796 -14.015249 -0.529046 1223 0.137801 0.990460 0.000000
-14.586649 -14.015109 -0.522817 1217 0.137801 0.990460 0.000000
-14.586763 -14.015220 -0.516606 1215 0.137801 0.990460 0.000000
-14.587144 -14.015588 -0.510402 1223 0.137801 0.990460 0.000000
-14.586722 -14.015184 -0.504176 1211 0.137801 0.990460 0.000000
-14.586457 -14.014935 -0.497948 1213 0.137801 0.990460 0.000000
-14.586571 -14.015046 -0.491737 1213 0.137801 0.990460 0.000000
-14.586361 -14.014841 -0.485509 1207 0.137801 0.990460 0.000000
-14.586466 -14.014944 -0.479298 1217 0.137801 0.990460 0.000000
-14.587161 -14.015607 -0.473111 1217 0.137801 0.990460 0.000000
-14.587315 -14.015751 -0.466899 1211 0.137801 0.990460 0.000000
-14.587096 -14.015553 -0.460671 1217 0.137801 0.990460 0.000000
-14.586619 -14.015091 -0.454446 1219 0.137801 0.990460 0.000000
-14.585772 -14.014276 -0.448204 1217 0.137801 0.990460 0.000000
-14.585500 -14.014020 -0.441976 1219 0.137801 0.990460 0.000000
-14.585281 -14.013809 -0.435758 1219 0.137801 0.990460 0.000000
-14.585692 -14.014202 -0.429554 1205 0.137801 0.990460 0.000000
-14.586265 -14.014750 -0.423358 1205 0.137801 0.990460 0.000000
-14.585612 -14.014121 -0.417124 1221 0.137801 0.990460 0.000000
-14.585812 -14.014315 -0.410922 1221 0.137801 0.990460 0.000000
-14.586322 -14.014812 -0.404717 1211 0.137801 0.990460 0.000000
-14.586046 -14.014543 -0.398500 1223 0.137801 0.990460 0.000000
-14.584917 -14.013458 -0.392250 1217 0.137801 0.990460 0.000000
-14.584997 -14.013542 -0.386039 1205 0.137801 0.990460 0.000000
-14.585505 -14.014026 -0.379834 1213 0.137801 0.990460 0.000000
-14.585698 -14.014215 -0.373632 1217 0.137801 0.990460 0.000000
-14.586253 -14.014750 -0.367427 1219 0.137801 0.990460 0.000000
-14.585490 -14.014017 -0.361194 1223 0.137801 0.990460 0.000000
-14.584990 -14.013536 -0.354969 1229 0.137801 0.990460 0.000000
-14.584755 -14.013311 -0.348751 1217 0.137801 0.990460 0.000000
-14.584924 -14.013467 -0.342539 1219 0.137801 0.990460 0.000000
-14.585856 -14.014361 -0.336350 1205 0.137801 0.990460 0.000000
-14.585717 -14.014229 -0.330131 1209 0.137801 0.990460 0.000000
-14.585319 -14.013844 -0.323915 1225 0.137801 0.990460 0.000000
-14.585439 -14.013961 -0.317704 1217 0.137801 0.990460 0.000000
-14.585403 -14.013937 -0.311484 1223 0.137801 0.990460 0.000000
-14.584572 -14.013134 -0.305262 1221 0.137801 0.990460 0.000000
-14.584850 -14.013406 -0.299049 1227 0.137801 0.990460 0.000000
-14.585233 -14.013774 -0.292845 1215 0.137801 0.990460 0.000000
-14.584818 -14.013377 -0.286629 1219 0.137801 0.990460 0.000000
-14.597753 -14.016706 -0.672351 1225 0.137801 0.990460 0.000000
-14.597967 -14.016899 -0.666139 1237 0.137801 0.990460 0.000000
-14.597639 -14.016585 -0.659902 1219 0.137801 0.990460 0.000000
-14.597571 -14.016522 -0.653672 1225 0.137801 0.990460 0.000000
-14.596653 -14.015651 -0.647411 1213 0.137801 0.990460 0.000000
-14.596427 -14.015432 -0.641183 1219 0.137801 0.990460 0.000000
-14.596202 -14.015215 -0.634955 1215 0.137801 0.990460 0.000000
-14.596126 -14.015146 -0.628725 1229 0.137801 0.990460 0.000000
-14.596482 -14.015481 -0.622522 1205 0.137801 0.990460 0.000000
-14.596456 -14.015464 -0.616302 1205 0.137801 0.990460 0.000000
-14.596543 -14.015540 -0.610081 1207 0.137801 0.990460 0.000000
-14.596357 -14.015368 -0.603862 1207 0.137801 0.990460 0.000000
-14.595385 -14.014425 -0.597601 1207 0.137801 0.990460 0.000000
-14.595787 -14.014812 -0.591398 1209 0.137801 0.990460 0.000000
-14.596863 -14.015848 -0.585217 1215 0.137801 0.990460 0.000000
-14.596307 -14.015309 -0.578972 1195 0.137801 0.990460 0.000000
-14.595263 -14.014322 -0.572712 1195 0.137801 0.990460 0.000000
-14.596194 -14.015202 -0.566533 1209 0.137801 0.990460 0.000000
-14.597112 -14.016085 -0.560344 1211 0.137801 0.990460 0.000000
-14.596436 -14.015436 -0.554101 1205 0.137801 0.990460 0.000000
-14.595186 -14.014242 -0.547842 1197 0.137801 0.990460 0.000000
-14.595252 -14.014300 -0.541621 1217 0.137801 0.990460 0.000000
-14.596266 -14.015286 -0.535442 1219 0.137801 0.990460 0.000000
-14.595858 -14.014896 -0.529205 1207 0.137801 0.990460 0.000000
-14.595663 -14.014704 -0.522987 1221 0.137801 0.990460 0.000000
-14.596038 -14.015065 -0.516773 1215 0.137801 0.990460 0.000000
-14.595779 -14.014822 -0.510546 1207 0.137801 0.990460 0.000000
-14.596209 -14.015227 -0.504351 1213 0.137801 0.990460 0.000000
-14.596480 -14.015493 -0.498139 1217 0.137801 0.990460 0.000000
-14.595592 -14.014632 -0.491887 1207 0.137801 0.990460 0.000000
-14.595058 -14.014126 -0.485652 1203 0.137801 0.990460 0.000000
-14.595693 -14.014739 -0.479456 1219 0.137801 0.990460 0.000000
-14.596019 -14.015048 -0.473252 1215 0.137801 0.990460 0.000000
-14.595430 -14.014482 -0.467018 1221 0.137801 0.990460 0.000000
-14.594793 -14.013865 -0.460774 1227 0.137801 0.990460 0.000000
-14.595002 -14.014067 -0.454572 1219 0.137801 0.990460 0.000000
-14.595306 -14.014372 -0.448359 1213 0.137801 0.990460 0.000000
-14.595301 -14.014359 -0.442139 1219 0.137801 0.990460 0.000000
-14.594658 -14.013750 -0.435904 1211 0.137801 0.990460 0.000000
-14.594234 -14.013333 -0.429678 1215 0.137801 0.990460 0.000000
-14.594642 -14.013735 -0.423474 1217 0.137801 0.990460 0.000000
-14.594264 -14.013369 -0.417248 1213 0.137801 0.990460 0.000000
-14.593669 -14.012797 -0.411013 1203 0.137801 0.990460 0.000000
-14.594121 -14.013236 -0.404809 1209 0.137801 0.990460 0.000000
-14.594588 -14.013673 -0.398604 1211 0.137801 0.990460 0.000000
-14.594355 -14.013450 -0.392386 1201 0.137801 0.990460 0.000000
-14.594279 -14.013381 -0.386167 1201 0.137801 0.990460 0.000000
-14.594155 -14.013259 -0.379948 1211 0.137801 0.990460 0.000000
-14.594718 -14.013800 -0.373743 1215 0.137801 0.990460 0.000000
-14.595210 -14.014285 -0.367548 1217 0.137801 0.990460 0.000000
-14.595560 -14.014614 -0.361334 1219 0.137801 0.990460 0.000000
-14.594530 -14.013624 -0.355094 1213 0.137801 0.990460 0.000000
-14.593825 -14.012952 -0.348860 1211 0.137801 0.990460 0.000000
-14.593993 -14.013120 -0.342649 1211 0.137801 0.990460 0.000000
-14.593546 -14.012683 -0.336423 1213 0.137801 0.990460 0.000000
-14.592779 -14.011947 -0.330190 1213 0.137801 0.990460 0.000000
-14.592639 -14.011812 -0.323981 1201 0.137801 0.990460 0.000000
-14.593815 -14.012944 -0.317790 1211 0.137801 0.990460 0.000000
-14.594206 -14.013319 -0.311586 1211 0.137801 0.990460 0.000000
-14.594106 -14.013230 -0.305367 1207 0.137801 0.990460 0.000000
-14.593809 -14.012942 -0.299149 1209 0.137801 0.990460 0.000000
-14.593079 -14.012237 -0.292916 1213 0.137801 0.990460 0.000000
-14.592728 -14.011903 -0.286689 1215 0.137801 0.990460 0.000000
-14.605288 -14.014683 -0.672486 1229 0.137801 0.990460 0.000000
-14.604800 -14.014214 -0.666240 1223 0.137801 0.990460 0.000000
-14.604514 -14.013947 -0.660003 1217 0.137801 0.990460 0.000000
-14.604934 -14.014345 -0.653799 1225 0.137801 0.990460 0.000000
-14.605504 -14.014893 -0.647603 1219 0.137801 0.990460 0.000000
-14.605490 -14.014874 -0.641383 1217 0.137801 0.990460 0.000000
-14.605257 -14.014651 -0.635145 1215 0.137801 0.990460 0.000000
-14.604819 -14.014234 -0.628909 1213 0.137801 0.990460 0.000000
-14.604744 -14.014165 -0.622680 1215 0.137801 0.990460 0.000000
-14.604723 -14.014140 -0.616460 1213 0.137801 0.990460 0.000000
-14.604647 -14.014070 -0.610230 1213 0.137801 0.990460 0.000000
-14.604469 -14.013906 -0.604002 1207 0.137801 0.990460 0.000000
-14.604441 -14.013874 -0.597782 1213 0.137801 0.990460 0.000000
-14.604679 -14.014100 -0.591570 1207 0.137801 0.990460 0.000000
-14.604383 -14.013825 -0.585332 1203 0.137801 0.990460 0.000000
-14.603716 -14.013183 -0.579088 1201 0.137801 0.990460 0.000000
-14.604058 -14.013506 -0.572885 1211 0.137801 0.990460 0.000000
-14.604132 -14.013583 -0.566664 1209 0.137801 0.990460 0.000000
-14.604254 -14.013702 -0.560453 1209 0.137801 0.990460 0.000000
-14.604493 -14.013927 -0.554241 1205 0.137801 0.990460 0.000000
-14.604078 -14.013531 -0.548004 1199 0.137801 0.990460 0.000000
-14.604096 -14.013550 -0.541784 1217 0.137801 0.990460 0.000000
-14.604313 -14.013758 -0.535572 1213 0.137801 0.990460 0.000000
-14.604754 -14.014175 -0.529368 1225 0.137801 0.990460 0.000000
-14.605185 -14.014595 -0.523163 1217 0.137801 0.990460 0.000000
-14.604771 -14.014198 -0.516927 1209 0.137801 0.990460 0.000000
-14.604726 -14.014154 -0.510707 1209 0.137801 0.990460 0.000000
-14.604627 -14.014065 -0.504478 1211 0.137801 0.990460 0.000000
-14.603313 -14.012807 -0.498220 1211 0.137801 0.990460 0.000000
-14.602788 -14.012294 -0.491975 1217 0.137801 0.990460 0.000000
-14.603320 -14.012811 -0.485780 1215 0.137801 0.990460 0.000000
-14.603480 -14.012959 -0.479568 1215 0.137801 0.990460 0.000000
-14.603585 -14.013062 -0.473347 1219 0.137801 0.990460 0.000000
-14.603210 -14.012711 -0.467121 1207 0.137801 0.990460 0.000000
-14.603631 -14.013109 -0.460916 1211 0.137801 0.990460 0.000000
-14.603523 -14.013002 -0.454687 1211 0.137801 0.990460 0.000000
-14.602731 -14.012245 -0.448445 1205 0.137801 0.990460 0.000000
-14.603040 -14.012541 -0.442242 1203 0.137801 0.990460 0.000000
-14.603557 -14.013044 -0.436037 1207 0.137801 0.990460 0.000000
-14.603441 -14.012930 -0.429818 1215 0.137801 0.990460 0.000000
-14.603113 -14.012615 -0.423590 1219 0.137801 0.990460 0.000000
-14.602887 -14.012399 -0.417362 1213 0.137801 0.990460 0.000000
-14.603458 -14.012947 -0.411157 1219 0.137801 0.990460 0.000000
-14.603333 -14.012824 -0.404938 1223 0.137801 0.990460 0.000000
-14.602636 -14.012157 -0.398704 1211 0.137801 0.990460 0.000000
-14.602663 -14.012184 -0.392484 1219 0.137801 0.990460 0.000000
-14.602286 -14.011820 -0.386257 1215 0.137801 0.990460 0.000000
-14.602623 -14.012150 -0.380054 1211 0.137801 0.990460 0.000000
-14.602814 -14.012337 -0.373842 1215 0.137801 0.990460 0.000000
-14.602533 -14.012061 -0.367615 1219 0.137801 0.990460 0.000000
-14.602607 -14.012139 -0.361404 1225 0.137801 0.990460 0.000000
-14.602998 -14.012515 -0.355190 1223 0.137801 0.990460 0.000000
-14.602865 -14.012387 -0.348971 1203 0.137801 0.990460 0.000000
-14.602372 -14.011912 -0.342746 1197 0.137801 0.990460 0.000000
-14.602863 -14.012383 -0.336541 1205 0.137801 0.990460 0.000000
-14.603307 -14.012801 -0.330326 1213 0.137801 0.990460 0.000000
-14.603114 -14.012624 -0.324108 1225 0.137801 0.990460 0.000000
-14.603292 -14.012798 -0.317896 1217 0.137801 0.990460 0.000000
-14.602095 -14.011648 -0.311657 1215 0.137801 0.990460 0.000000
-14.600576 -14.010183 -0.305402 1203 0.137801 0.990460 0.000000
-14.601124 -14.010713 -0.299206 1213 0.137801 0.990460 0.000000
-14.601718 -14.011279 -0.293001 1221 0.137801 0.990460 0.000000
-14.602367 -14.011904 -0.286794 1215 0.137801 0.990460 0.000000
