448
-14.706917 -13.804287 -0.676075 1121 -0.028470 0.999595 0.000000
-14.706648 -13.804028 -0.669857 1115 -0.028470 0.999595 0.000000
-14.706786 -13.804169 -0.663666 1119 -0.028470 0.999595 0.000000
-14.706566 -13.803961 -0.657458 1113 -0.028470 0.999595 0.000000
-14.706762 -13.804146 -0.651266 1119 -0.028470 0.999595 0.000000
-14.707282 -13.804629 -0.645091 1127 -0.028470 0.999595 0.000000
-14.707268 -13.804609 -0.638881 1121 -0.028470 0.999595 0.000000
-14.706341 -13.803750 -0.632649 1119 -0.028470 0.999595 0.000000
-14.706167 -13.803578 -0.626441 1123 -0.028470 0.999595 0.000000
-14.706783 -13.804164 -0.620265 1133 -0.028470 0.999595 0.000000
-14.706060 -13.803478 -0.614031 1121 -0.028470 0.999595 0.000000
-14.705841 -13.803271 -0.607823 1121 -0.028470 0.999595 0.000000
-14.705756 -13.803196 -0.601624 1123 -0.028470 0.999595 0.000000
-14.705409 -13.802875 -0.595407 1129 -0.028470 0.999595 0.000000
-14.705644 -13.803091 -0.589215 1123 -0.028470 0.999595 0.000000
-14.706253 -13.803670 -0.583039 1125 -0.028470 0.999595 0.000000
-14.706183 -13.803594 -0.576839 1115 -0.028470 0.999595 0.000000
-14.706036 -13.803456 -0.570641 1109 -0.028470 0.999595 0.000000
-14.706160 -13.803584 -0.564439 1117 -0.028470 0.999595 0.000000
-14.706073 -13.803496 -0.558240 1113 -0.028470 0.999595 0.000000
-14.706044 -13.803465 -0.552040 1115 -0.028470 0.999595 0.000000
-14.706582 -13.803974 -0.545865 1121 -0.028470 0.999595 0.000000
-14.706922 -13.804299 -0.539671 1121 -0.028470 0.999595 0.000000
-14.706190 -13.803609 -0.533448 1109 -0.028470 0.999595 0.000000
-14.705293 -13.802773 -0.527216 1113 -0.028470 0.999595 0.000000
-14.705359 -13.802832 -0.521026 1107 -0.028470 0.999595 0.000000
-14.706064 -13.803486 -0.514849 1113 -0.028470 0.999595 0.000000
-14.705693 -13.803144 -0.508642 1121 -0.028470 0.999595 0.000000
-14.705328 -13.802796 -0.502426 1113 -0.028470 0.999595 0.000000
-14.705277 -13.802760 -0.496226 1107 -0.028470 0.999595 0.000000
-14.705391 -13.802856 -0.490035 1111 -0.028470 0.999595 0.000000
-14.705497 -13.802958 -0.483844 1111 -0.028470 0.999595 0.000000
-14.705292 -13.802762 -0.477635 1113 -0.028470 0.999595 0.000000
-14.704970 -13.802473 -0.471428 1109 -0.028470 0.999595 0.000000
-14.704479 -13.802011 -0.465223 1103 -0.028470 0.999595 0.000000
-14.704961 -13.802463 -0.459038 1119 -0.028470 0.999595 0.000000
-14.706023 -13.803452 -0.452878 1115 -0.028470 0.999595 0.000000
-14.705534 -13.803004 -0.446662 1121 -0.028470 0.999595 0.000000
-14.704681 -13.802192 -0.440440 1113 -0.028470 0.999595 0.000000
-14.704510 -13.802035 -0.434242 1119 -0.028470 0.999595 0.000000
-14.704450 -13.801980 -0.428042 1113 -0.028470 0.999595 0.000000
-14.704964 -13.802469 -0.421857 1115 -0.028470 0.999595 0.000000
-14.704576 -13.802102 -0.415651 1117 -0.028470 0.999595 0.000000
-14.704939 -13.802447 -0.409467 1113 -0.028470 0.999595 0.000000
-14.704447 -13.801985 -0.403251 1117 -0.028470 0.999595 0.000000
-14.704105 -13.801655 -0.397055 1111 -0.028470 0.999595 0.000000
-14.704037 -13.801593 -0.390855 1107 -0.028470 0.999595 0.000000
-14.703801 -13.801372 -0.384657 1117 -0.028470 0.999595 0.000000
-14.704210 -13.801753 -0.378463 1117 -0.028470 0.999595 0.000000
-14.703759 -13.801336 -0.372257 1117 -0.028470 0.999595 0.000000
-14.703731 -13.801305 -0.366067 1115 -0.028470 0.999595 0.000000
-14.704125 -13.801688 -0.359883 1109 -0.028470 0.999595 0.000000
-14.703842 -13.801416 -0.353676 1113 -0.028470 0.999595 0.000000
-14.703972 -13.801538 -0.347485 1115 -0.028470 0.999595 0.000000
-14.704311 -13.801864 -0.341301 1123 -0.028470 0.999595 0.000000
-14.703699 -13.801280 -0.335087 1117 -0.028470 0.999595 0.000000
-14.702970 -13.800603 -0.328884 1115 -0.028470 0.999595 0.000000
-14.703203 -13.800819 -0.322691 1113 -0.028470 0.999595 0.000000
-14.703757 -13.801341 -0.316506 1103 -0.028470 0.999595 0.000000
-14.703400 -13.800999 -0.310309 1103 -0.028470 0.999595 0.000000
-14.703094 -13.800722 -0.304102 1103 -0.028470 0.999595 0.000000
-14.703321 -13.800933 -0.297920 1115 -0.028470 0.999595 0.000000
-14.703707 -13.801296 -0.291726 1107 -0.028470 0.999595 0.000000
-14.703981 -13.801557 -0.285543 1113 -0.028470 0.999595 0.000000
-14.716648 -13.804804 -0.676326 1107 -0.028470 0.999595 0.000000
-14.716963 -13.805097 -0.670143 1123 -0.028470 0.999595 0.000000
-14.716479 -13.804642 -0.663918 1125 -0.028470 0.999595 0.000000
-14.716141 -13.804326 -0.657691 1127 -0.028470 0.999595 0.000000
-14.716342 -13.804517 -0.651499 1133 -0.028470 0.999595 0.000000
-14.716806 -13.804942 -0.645314 1133 -0.028470 0.999595 0.000000
-14.716738 -13.804879 -0.639115 1133 -0.028470 0.999595 0.000000
-14.715976 -13.804164 -0.632872 1133 -0.028470 0.999595 0.000000
-14.715899 -13.804096 -0.626672 1127 -0.028470 0.999595 0.000000
-14.715935 -13.804129 -0.620472 1135 -0.028470 0.999595 0.000000
-14.715650 -13.803856 -0.614254 1131 -0.028470 0.999595 0.000000
-14.716108 -13.804290 -0.608070 1125 -0.028470 0.999595 0.000000
-14.716073 -13.804267 -0.601870 1129 -0.028470 0.999595 0.000000
-14.715302 -13.803544 -0.595637 1125 -0.028470 0.999595 0.000000
-14.715758 -13.803963 -0.589453 1135 -0.028470 0.999595 0.000000
-14.715722 -13.803939 -0.583253 1125 -0.028470 0.999595 0.000000
-14.715320 -13.803560 -0.577036 1113 -0.028470 0.999595 0.000000
-14.715075 -13.803333 -0.570819 1117 -0.028470 0.999595 0.000000
-14.715205 -13.803454 -0.564627 1125 -0.028470 0.999595 0.000000
-14.715599 -13.803823 -0.558443 1121 -0.028470 0.999595 0.000000
-14.715618 -13.803830 -0.552243 1127 -0.028470 0.999595 0.000000
-14.715693 -13.803907 -0.546042 1125 -0.028470 0.999595 0.000000
-14.715911 -13.804111 -0.539850 1117 -0.028470 0.999595 0.000000
-14.716145 -13.804328 -0.533658 1127 -0.028470 0.999595 0.000000
-14.715774 -13.803988 -0.527441 1123 -0.028470 0.999595 0.000000
-14.715474 -13.803702 -0.521234 1111 -0.028470 0.999595 0.000000
-14.715103 -13.803363 -0.515017 1119 -0.028470 0.999595 0.000000
-14.714690 -13.802962 -0.508801 1111 -0.028470 0.999595 0.000000
-14.715500 -13.803725 -0.502633 1121 -0.028470 0.999595 0.000000
-14.715981 -13.804177 -0.496448 1127 -0.028470 0.999595 0.000000
-14.716248 -13.804432 -0.490256 1119 -0.028470 0.999595 0.000000
-14.715455 -13.803692 -0.484033 1117 -0.028470 0.999595 0.000000
-14.714810 -13.803082 -0.477809 1111 -0.028470 0.999595 0.000000
-14.715028 -13.803287 -0.471617 1117 -0.028470 0.999595 0.000000
-14.715129 -13.803384 -0.465426 1113 -0.028470 0.999595 0.000000
-14.714915 -13.803182 -0.459217 1113 -0.028470 0.999595 0.000000
-14.714855 -13.803126 -0.453018 1125 -0.028470 0.999595 0.000000
-14.714418 -13.802720 -0.446802 1125 -0.028470 0.999595 0.000000
-14.713777 -13.802113 -0.440588 1123 -0.028470 0.999595 0.000000
-14.714028 -13.802356 -0.434395 1125 -0.028470 0.999595 0.000000
-14.714453 -13.802751 -0.428211 1123 -0.028470 0.999595 0.000000
-14.714440 -13.802746 -0.422011 1131 -0.028470 0.999595 0.000000
-14.714378 -13.802675 -0.415811 1123 -0.028470 0.999595 0.000000
-14.714150 -13.802462 -0.409603 1113 -0.028470 0.999595 0.000000
-14.713437 -13.801797 -0.403390 1119 -0.028470 0.999595 0.000000
-14.713894 -13.802229 -0.397206 1117 -0.028470 0.999595 0.000000
-14.714097 -13.802421 -0.391013 1115 -0.028470 0.999595 0.000000
-14.713590 -13.801947 -0.384798 1115 -0.028470 0.999595 0.000000
-14.713465 -13.801826 -0.378599 1121 -0.028470 0.999595 0.000000
-14.713451 -13.801809 -0.372399 1125 -0.028470 0.999595 0.000000
-14.713305 -13.801683 -0.366200 1113 -0.028470 0.999595 0.000000
-14.713234 -13.801607 -0.360001 1107 -0.028470 0.999595 0.000000
-14.713470 -13.801838 -0.353808 1101 -0.028470 0.999595 0.000000
-14.713865 -13.802208 -0.347625 1117 -0.028470 0.999595 0.000000
-14.713619 -13.801979 -0.341417 1117 -0.028470 0.999595 0.000000
-14.713279 -13.801650 -0.335210 1105 -0.028470 0.999595 0.000000
-14.714041 -13.802375 -0.329032 1115 -0.028470 0.999595 0.000000
-14.714436 -13.802746 -0.322849 1135 -0.028470 0.999595 0.000000
-14.714031 -13.802365 -0.316642 1119 -0.028470 0.999595 0.000000
-14.713836 -13.802176 -0.310434 1117 -0.028470 0.999595 0.000000
-14.713360 -13.801740 -0.304228 1113 -0.028470 0.999595 0.000000
-14.712796 -13.801208 -0.298023 1115 -0.028470 0.999595 0.000000
-14.712009 -13.800459 -0.291811 1115 -0.028470 0.999595 0.000000
-14.712501 -13.800932 -0.285626 1119 -0.028470 0.999595 0.000000
-14.727547 -13.806235 -0.676628 1139 -0.028470 0.999595 0.000000
-14.726729 -13.805475 -0.670385 1129 -0.028470 0.999595 0.000000
-14.726300 -13.805062 -0.664159 1137 -0.028470 0.999595 0.000000
-14.726503 -13.805255 -0.657967 1143 -0.028470 0.999595 0.000000
-14.726377 -13.805134 -0.651758 1133 -0.028470 0.999595 0.000000
-14.725657 -13.804465 -0.645515 1125 -0.028470 0.999595 0.000000
-14.725445 -13.804262 -0.639307 1137 -0.028470 0.999595 0.000000
-14.726172 -13.804949 -0.633130 1133 -0.028470 0.999595 0.000000
-14.726151 -13.804923 -0.626920 1131 -0.028470 0.999595 0.000000
-14.725215 -13.804057 -0.620678 1125 -0.028470 0.999595 0.000000
-14.724779 -13.803638 -0.614452 1121 -0.028470 0.999595 0.000000
-14.724861 -13.803721 -0.608251 1121 -0.028470 0.999595 0.000000
-14.725367 -13.804193 -0.602076 1119 -0.028470 0.999595 0.000000
-14.725553 -13.804372 -0.595874 1119 -0.028470 0.999595 0.000000
-14.725413 -13.804239 -0.589666 1125 -0.028470 0.999595 0.000000
-14.725926 -13.804716 -0.583481 1129 -0.028470 0.999595 0.000000
-14.725994 -13.804788 -0.577280 1119 -0.028470 0.999595 0.000000
-14.725750 -13.804561 -0.571072 1127 -0.028470 0.999595 0.000000
-14.725672 -13.804478 -0.564863 1125 -0.028470 0.999595 0.000000
-14.725428 -13.804251 -0.558645 1123 -0.028470 0.999595 0.000000
-14.724905 -13.803764 -0.552430 1125 -0.028470 0.999595 0.000000
-14.725028 -13.803880 -0.546228 1129 -0.028470 0.999595 0.000000
-14.725200 -13.804046 -0.540036 1111 -0.028470 0.999595 0.000000
-14.725163 -13.804009 -0.533827 1113 -0.028470 0.999595 0.000000
-14.725709 -13.804524 -0.527641 1121 -0.028470 0.999595 0.000000
-14.725823 -13.804634 -0.521450 1125 -0.028470 0.999595 0.000000
-14.725569 -13.804385 -0.515232 1125 -0.028470 0.999595 0.000000
-14.725471 -13.804299 -0.509033 1123 -0.028470 0.999595 0.000000
-14.725258 -13.804096 -0.502815 1119 -0.028470 0.999595 0.000000
-14.724950 -13.803806 -0.496608 1119 -0.028470 0.999595 0.000000
-14.725167 -13.804009 -0.490416 1129 -0.028470 0.999595 0.000000
-14.725484 -13.804317 -0.484222 1133 -0.028470 0.999595 0.000000
-14.726019 -13.804811 -0.478037 1129 -0.028470 0.999595 0.000000
-14.725168 -13.804013 -0.471805 1129 -0.028470 0.999595 0.000000
-14.724152 -13.803056 -0.465575 1121 -0.028470 0.999595 0.000000
-14.724529 -13.803413 -0.459381 1117 -0.028470 0.999595 0.000000
-14.725211 -13.804062 -0.453204 1119 -0.028470 0.999595 0.000000
-14.724408 -13.803302 -0.446972 1117 -0.028470 0.999595 0.000000
-14.723168 -13.802142 -0.440743 1113 -0.028470 0.999595 0.000000
-14.724128 -13.803038 -0.434564 1121 -0.028470 0.999595 0.000000
-14.724754 -13.803629 -0.428388 1133 -0.028470 0.999595 0.000000
-14.724365 -13.803262 -0.422172 1123 -0.028470 0.999595 0.000000
-14.723978 -13.802908 -0.415955 1111 -0.028470 0.999595 0.000000
-14.723653 -13.802591 -0.409748 1117 -0.028470 0.999595 0.000000
-14.724272 -13.803177 -0.403562 1125 -0.028470 0.999595 0.000000
-14.724729 -13.803610 -0.397378 1127 -0.028470 0.999595 0.000000
-14.724398 -13.803299 -0.391171 1127 -0.028470 0.999595 0.000000
-14.723628 -13.802579 -0.384948 1119 -0.028470 0.999595 0.000000
-14.723127 -13.802109 -0.378732 1117 -0.028470 0.999595 0.000000
-14.723209 -13.802180 -0.372541 1113 -0.028470 0.999595 0.000000
-14.723509 -13.802460 -0.366348 1115 -0.028470 0.999595 0.000000
-14.724501 -13.803394 -0.360169 1121 -0.028470 0.999595 0.000000
-14.724528 -13.803421 -0.353968 1127 -0.028470 0.999595 0.000000
-14.724013 -13.802940 -0.347763 1125 -0.028470 0.999595 0.000000
-14.723665 -13.802617 -0.341556 1121 -0.028470 0.999595 0.000000
-14.723150 -13.802137 -0.335341 1113 -0.028470 0.999595 0.000000
-14.723495 -13.802454 -0.329148 1121 -0.028470 0.999595 0.000000
-14.723729 -13.802671 -0.322955 1117 -0.028470 0.999595 0.000000
-14.723851 -13.802786 -0.316754 1117 -0.028470 0.999595 0.000000
-14.723815 -13.802750 -0.310554 1113 -0.028470 0.999595 0.000000
-14.723245 -13.802224 -0.304349 1121 -0.028470 0.999595 0.000000
-14.722722 -13.801738 -0.298134 1113 -0.028470 0.999595 0.000000
-14.722900 -13.801897 -0.291942 1111 -0.028470 0.999595 0.000000
-14.723334 -13.802311 -0.285748 1121 -0.028470 0.999595 0.000000
-14.737853 -13.807106 -0.676905 1141 -0.028470 0.999595 0.000000
-14.736988 -13.806296 -0.670653 1129 -0.028470 0.999595 0.000000
-14.736010 -13.805384 -0.664402 1125 -0.028470 0.999595 0.000000
-14.735470 -13.804870 -0.658177 1123 -0.028470 0.999595 0.000000
-14.736039 -13.805404 -0.651991 1139 -0.028470 0.999595 0.000000
-14.736402 -13.805747 -0.645798 1131 -0.028470 0.999595 0.000000
-14.735425 -13.804836 -0.639547 1125 -0.028470 0.999595 0.000000
-14.735355 -13.804760 -0.633337 1119 -0.028470 0.999595 0.000000
-14.735821 -13.805200 -0.627153 1121 -0.028470 0.999595 0.000000
-14.735474 -13.804877 -0.620926 1131 -0.028470 0.999595 0.000000
-14.735557 -13.804961 -0.614725 1129 -0.028470 0.999595 0.000000
-14.735002 -13.804435 -0.608500 1117 -0.028470 0.999595 0.000000
-14.734765 -13.804214 -0.602282 1125 -0.028470 0.999595 0.000000
-14.734951 -13.804393 -0.596080 1129 -0.028470 0.999595 0.000000
-14.735943 -13.805313 -0.589911 1137 -0.028470 0.999595 0.000000
-14.736544 -13.805885 -0.583735 1133 -0.028470 0.999595 0.000000
-14.735926 -13.805311 -0.577500 1127 -0.028470 0.999595 0.000000
-14.735315 -13.804728 -0.571276 1121 -0.028470 0.999595 0.000000
-14.734960 -13.804399 -0.565049 1119 -0.028470 0.999595 0.000000
-14.734659 -13.804114 -0.558832 1133 -0.028470 0.999595 0.000000
-14.734525 -13.803988 -0.552623 1125 -0.028470 0.999595 0.000000
-14.734859 -13.804308 -0.546430 1119 -0.028470 0.999595 0.000000
-14.735721 -13.805114 -0.540262 1129 -0.028470 0.999595 0.000000
-14.735948 -13.805325 -0.534059 1123 -0.028470 0.999595 0.000000
-14.735536 -13.804938 -0.527843 1125 -0.028470 0.999595 0.000000
-14.735548 -13.804953 -0.521633 1127 -0.028470 0.999595 0.000000
-14.735559 -13.804967 -0.515432 1131 -0.028470 0.999595 0.000000
-14.735132 -13.804568 -0.509216 1137 -0.028470 0.999595 0.000000
-14.734989 -13.804421 -0.503008 1113 -0.028470 0.999595 0.000000
-14.734777 -13.804234 -0.496789 1119 -0.028470 0.999595 0.000000
-14.734239 -13.803734 -0.490574 1119 -0.028470 0.999595 0.000000
-14.734298 -13.803785 -0.484364 1121 -0.028470 0.999595 0.000000
-14.734517 -13.803990 -0.478171 1121 -0.028470 0.999595 0.000000
-14.734886 -13.804340 -0.471978 1127 -0.028470 0.999595 0.000000
-14.735048 -13.804486 -0.465776 1121 -0.028470 0.999595 0.000000
-14.735100 -13.804532 -0.459575 1125 -0.028470 0.999595 0.000000
-14.735253 -13.804671 -0.453374 1117 -0.028470 0.999595 0.000000
-14.733966 -13.803475 -0.447136 1125 -0.028470 0.999595 0.000000
-14.732622 -13.802221 -0.440888 1115 -0.028470 0.999595 0.000000
-14.733677 -13.803205 -0.434718 1119 -0.028470 0.999595 0.000000
-14.734205 -13.803693 -0.428533 1127 -0.028470 0.999595 0.000000
-14.734194 -13.803689 -0.422333 1121 -0.028470 0.999595 0.000000
-14.734022 -13.803533 -0.416124 1125 -0.028470 0.999595 0.000000
-14.733363 -13.802912 -0.409901 1117 -0.028470 0.999595 0.000000
-14.734148 -13.803641 -0.403723 1119 -0.028470 0.999595 0.000000
-14.734669 -13.804138 -0.397528 1127 -0.028470 0.999595 0.000000
-14.733689 -13.803211 -0.391307 1127 -0.028470 0.999595 0.000000
-14.733297 -13.802854 -0.385091 1129 -0.028470 0.999595 0.000000
-14.733706 -13.803234 -0.378897 1121 -0.028470 0.999595 0.000000
-14.733517 -13.803051 -0.372688 1121 -0.028470 0.999595 0.000000
-14.733439 -13.802981 -0.366489 1117 -0.028470 0.999595 0.000000
-14.733890 -13.803409 -0.360294 1123 -0.028470 0.999595 0.000000
-14.733757 -13.803283 -0.354096 1127 -0.028470 0.999595 0.000000
-14.733036 -13.802612 -0.347872 1129 -0.028470 0.999595 0.000000
-14.733166 -13.802733 -0.341671 1123 -0.028470 0.999595 0.000000
-14.733671 -13.803204 -0.335486 1119 -0.028470 0.999595 0.000000
-14.733269 -13.802824 -0.329270 1117 -0.028470 0.999595 0.000000
-14.733025 -13.802598 -0.323062 1121 -0.028470 0.999595 0.000000
-14.733993 -13.803513 -0.316882 1111 -0.028470 0.999595 0.000000
-14.734121 -13.803620 -0.310681 1129 -0.028470 0.999595 0.000000
-14.733232 -13.802791 -0.304469 1133 -0.028470 0.999595 0.000000
-14.732390 -13.801999 -0.298247 1121 -0.028470 0.999595 0.000000
-14.732664 -13.802260 -0.292054 1125 -0.028470 0.999595 0.000000
-14.732787 -13.802376 -0.285853 1125 -0.028470 0.999595 0.000000
-14.746279 -13.806214 -0.677089 1125 -0.028470 0.999595 0.000000
-14.746330 -13.806260 -0.670889 1139 -0.028470 0.999595 0.000000
-14.746484 -13.806400 -0.664677 1139 -0.028470 0.999595 0.000000
-14.745181 -13.805191 -0.658409 1123 -0.028470 0.999595 0.000000
-14.744959 -13.804981 -0.652191 1133 -0.028470 0.999595 0.000000
-14.745473 -13.805458 -0.646006 1127 -0.028470 0.999595 0.000000
-14.745996 -13.805955 -0.639821 1123 -0.028470 0.999595 0.000000
-14.746085 -13.806032 -0.633610 1119 -0.028470 0.999595 0.000000
-14.745747 -13.805716 -0.627393 1123 -0.028470 0.999595 0.000000
-14.745620 -13.805595 -0.621174 1123 -0.028470 0.999595 0.000000
-14.745544 -13.805528 -0.614965 1125 -0.028470 0.999595 0.000000
-14.744934 -13.804957 -0.608730 1123 -0.028470 0.999595 0.000000
-14.745224 -13.805231 -0.602528 1119 -0.028470 0.999595 0.000000
-14.745362 -13.805360 -0.596326 1117 -0.028470 0.999595 0.000000
-14.745287 -13.805292 -0.590117 1113 -0.028470 0.999595 0.000000
-14.745671 -13.805655 -0.583923 1125 -0.028470 0.999595 0.000000
-14.745276 -13.805281 -0.577697 1127 -0.028470 0.999595 0.000000
-14.745358 -13.805350 -0.571496 1119 -0.028470 0.999595 0.000000
-14.745751 -13.805720 -0.565302 1129 -0.028470 0.999595 0.000000
-14.744806 -13.804832 -0.559061 1121 -0.028470 0.999595 0.000000
-14.744132 -13.804214 -0.552827 1119 -0.028470 0.999595 0.000000
-14.743879 -13.803966 -0.546609 1123 -0.028470 0.999595 0.000000
-14.743946 -13.804038 -0.540408 1127 -0.028470 0.999595 0.000000
-14.745033 -13.805046 -0.534238 1121 -0.028470 0.999595 0.000000
-14.744822 -13.804858 -0.528020 1123 -0.028470 0.999595 0.000000
-14.744946 -13.804974 -0.521818 1143 -0.028470 0.999595 0.000000
-14.744741 -13.804778 -0.515600 1137 -0.028470 0.999595 0.000000
-14.743794 -13.803890 -0.509369 1123 -0.028470 0.999595 0.000000
-14.744699 -13.804742 -0.503190 1123 -0.028470 0.999595 0.000000
-14.744965 -13.804996 -0.496987 1129 -0.028470 0.999595 0.000000
-14.744872 -13.804903 -0.490778 1125 -0.028470 0.999595 0.000000
-14.744819 -13.804852 -0.484569 1129 -0.028470 0.999595 0.000000
-14.744073 -13.804150 -0.478345 1123 -0.028470 0.999595 0.000000
-14.744500 -13.804558 -0.472151 1127 -0.028470 0.999595 0.000000
-14.745188 -13.805200 -0.465965 1121 -0.028470 0.999595 0.000000
-14.744761 -13.804801 -0.459749 1119 -0.028470 0.999595 0.000000
-14.744173 -13.804249 -0.453524 1123 -0.028470 0.999595 0.000000
-14.743525 -13.803650 -0.447300 1123 -0.028470 0.999595 0.000000
-14.743407 -13.803535 -0.441091 1117 -0.028470 0.999595 0.000000
-14.743672 -13.803778 -0.434888 1113 -0.028470 0.999595 0.000000
-14.743174 -13.803322 -0.428673 1125 -0.028470 0.999595 0.000000
-14.742532 -13.802714 -0.422449 1115 -0.028470 0.999595 0.000000
-14.743579 -13.803692 -0.416269 1117 -0.028470 0.999595 0.000000
-14.744156 -13.804233 -0.410083 1119 -0.028470 0.999595 0.000000
-14.743553 -13.803669 -0.403859 1121 -0.028470 0.999595 0.000000
-14.743270 -13.803411 -0.397651 1119 -0.028470 0.999595 0.000000
-14.743407 -13.803538 -0.391450 1117 -0.028470 0.999595 0.000000
-14.743546 -13.803666 -0.385248 1123 -0.028470 0.999595 0.000000
-14.742561 -13.802748 -0.379017 1115 -0.028470 0.999595 0.000000
-14.741901 -13.802126 -0.372793 1117 -0.028470 0.999595 0.000000
-14.742789 -13.802953 -0.366615 1119 -0.028470 0.999595 0.000000
-14.743934 -13.804033 -0.360434 1113 -0.028470 0.999595 0.000000
-14.743267 -13.803406 -0.354220 1121 -0.028470 0.999595 0.000000
-14.742232 -13.802435 -0.347990 1111 -0.028470 0.999595 0.000000
-14.742835 -13.803008 -0.341794 1119 -0.028470 0.999595 0.000000
-14.743124 -13.803269 -0.335601 1123 -0.028470 0.999595 0.000000
-14.742235 -13.802440 -0.329379 1121 -0.028470 0.999595 0.000000
-14.741776 -13.802015 -0.323163 1119 -0.028470 0.999595 0.000000
-14.743133 -13.803278 -0.316990 1115 -0.028470 0.999595 0.000000
-14.743153 -13.803299 -0.310790 1117 -0.028470 0.999595 0.000000
-14.741880 -13.802114 -0.304552 1123 -0.028470 0.999595 0.000000
-14.742584 -13.802769 -0.298365 1113 -0.028470 0.999595 0.000000
-14.742764 -13.802940 -0.292163 1123 -0.028470 0.999595 0.000000
-14.742505 -13.802703 -0.285956 1121 -0.028470 0.999595 0.000000
-14.755766 -13.806140 -0.677325 1143 -0.028470 0.999595 0.000000
-14.755649 -13.806027 -0.671106 1141 -0.028470 0.999595 0.000000
-14.756234 -13.806574 -0.664920 1147 -0.028470 0.999595 0.000000
-14.756589 -13.806912 -0.658727 1137 -0.028470 0.999595 0.000000
-14.756042 -13.806406 -0.652492 1131 -0.028470 0.999595 0.000000
-14.755654 -13.806038 -0.646255 1135 -0.028470 0.999595 0.000000
-14.755266 -13.805672 -0.640029 1113 -0.028470 0.999595 0.000000
-14.755358 -13.805761 -0.633818 1121 -0.028470 0.999595 0.000000
-14.755504 -13.805896 -0.627616 1125 -0.028470 0.999595 0.000000
-14.754933 -13.805371 -0.621382 1123 -0.028470 0.999595 0.000000
-14.755023 -13.805447 -0.615171 1123 -0.028470 0.999595 0.000000
-14.755280 -13.805682 -0.608978 1137 -0.028470 0.999595 0.000000
-14.754814 -13.805252 -0.602742 1133 -0.028470 0.999595 0.000000
-14.755113 -13.805533 -0.596549 1121 -0.028470 0.999595 0.000000
-14.755355 -13.805756 -0.590347 1125 -0.028470 0.999595 0.000000
-14.755118 -13.805535 -0.584119 1131 -0.028470 0.999595 0.000000
-14.755448 -13.805854 -0.577926 1131 -0.028470 0.999595 0.000000
-14.755580 -13.805976 -0.571724 1133 -0.028470 0.999595 0.000000
-14.755822 -13.806198 -0.565522 1139 -0.028470 0.999595 0.000000
-14.755999 -13.806356 -0.559320 1133 -0.028470 0.999595 0.000000
-14.754783 -13.805230 -0.553061 1123 -0.028470 0.999595 0.000000
-14.754532 -13.804997 -0.546844 1117 -0.028470 0.999595 0.000000
-14.754503 -13.804966 -0.540634 1125 -0.028470 0.999595 0.000000
-14.754034 -13.804522 -0.534398 1125 -0.028470 0.999595 0.000000
-14.754635 -13.805081 -0.528212 1111 -0.028470 0.999595 0.000000
-14.754535 -13.804994 -0.522003 1119 -0.028470 0.999595 0.000000
-14.754013 -13.804507 -0.515778 1119 -0.028470 0.999595 0.000000
-14.754557 -13.805009 -0.509582 1129 -0.028470 0.999595 0.000000
-14.754345 -13.804821 -0.503364 1133 -0.028470 0.999595 0.000000
-14.753232 -13.803775 -0.497125 1129 -0.028470 0.999595 0.000000
-14.753340 -13.803877 -0.490913 1119 -0.028470 0.999595 0.000000
-14.754681 -13.805127 -0.484751 1125 -0.028470 0.999595 0.000000
-14.754573 -13.805035 -0.478542 1121 -0.028470 0.999595 0.000000
-14.754361 -13.804832 -0.472323 1113 -0.028470 0.999595 0.000000
-14.754467 -13.804935 -0.466122 1109 -0.028470 0.999595 0.000000
-14.753713 -13.804225 -0.459889 1123 -0.028470 0.999595 0.000000
-14.753388 -13.803921 -0.453672 1121 -0.028470 0.999595 0.000000
-14.753489 -13.804019 -0.447461 1115 -0.028470 0.999595 0.000000
-14.753053 -13.803613 -0.441245 1119 -0.028470 0.999595 0.000000
-14.752459 -13.803058 -0.435020 1117 -0.028470 0.999595 0.000000
-14.752661 -13.803248 -0.428818 1113 -0.028470 0.999595 0.000000
-14.753716 -13.804233 -0.422638 1117 -0.028470 0.999595 0.000000
-14.753973 -13.804467 -0.416446 1117 -0.028470 0.999595 0.000000
-14.753530 -13.804056 -0.410220 1115 -0.028470 0.999595 0.000000
-14.753947 -13.804443 -0.404026 1127 -0.028470 0.999595 0.000000
-14.754190 -13.804681 -0.397823 1117 -0.028470 0.999595 0.000000
-14.752942 -13.803515 -0.391585 1125 -0.028470 0.999595 0.000000
-14.752921 -13.803491 -0.385375 1123 -0.028470 0.999595 0.000000
-14.754025 -13.804525 -0.379194 1121 -0.028470 0.999595 0.000000
-14.753739 -13.804253 -0.372987 1119 -0.028470 0.999595 0.000000
-14.752706 -13.803284 -0.366756 1113 -0.028470 0.999595 0.000000
-14.752671 -13.803261 -0.360547 1121 -0.028470 0.999595 0.000000
-14.753288 -13.803832 -0.354351 1117 -0.028470 0.999595 0.000000
-14.753044 -13.803606 -0.348143 1121 -0.028470 0.999595 0.000000
-14.752801 -13.803378 -0.341925 1115 -0.028470 0.999595 0.000000
-14.753040 -13.803600 -0.335733 1129 -0.028470 0.999595 0.000000
-14.752950 -13.803520 -0.329523 1127 -0.028470 0.999595 0.000000
-14.752754 -13.803343 -0.323305 1123 -0.028470 0.999595 0.000000
-14.752558 -13.803155 -0.317097 1125 -0.028470 0.999595 0.000000
-14.751835 -13.802469 -0.310873 1121 -0.028470 0.999595 0.000000
-14.751742 -13.802389 -0.304674 1113 -0.028470 0.999595 0.000000
-14.753037 -13.803601 -0.298492 1127 -0.028470 0.999595 0.000000
-14.752839 -13.803411 -0.292283 1131 -0.028470 0.999595 0.000000
-14.752254 -13.802875 -0.286069 1123 -0.028470 0.999595 0.000000
-14.764568 -13.805739 -0.677536 1129 -0.028470 0.999595 0.000000
-14.764921 -13.806077 -0.671332 1125 -0.028470 0.999595 0.000000
-14.765076 -13.806216 -0.665130 1139 -0.028470 0.999595 0.000000
-14.764954 -13.806112 -0.658911 1135 -0.028470 0.999595 0.000000
-14.765474 -13.806594 -0.652716 1135 -0.028470 0.999595 0.000000
-14.764337 -13.805530 -0.646457 1129 -0.028470 0.999595 0.000000
-14.763790 -13.805024 -0.640212 1121 -0.028470 0.999595 0.000000
-14.763929 -13.805152 -0.634010 1133 -0.028470 0.999595 0.000000
-14.764178 -13.805381 -0.627808 1129 -0.028470 0.999595 0.000000
-14.764636 -13.805813 -0.621614 1121 -0.028470 0.999595 0.000000
-14.764614 -13.805788 -0.615394 1123 -0.028470 0.999595 0.000000
-14.764275 -13.805472 -0.609167 1135 -0.028470 0.999595 0.000000
-14.764253 -13.805448 -0.602957 1123 -0.028470 0.999595 0.000000
-14.764864 -13.806026 -0.596771 1125 -0.028470 0.999595 0.000000
-14.764621 -13.805800 -0.590543 1123 -0.028470 0.999595 0.000000
-14.764224 -13.805427 -0.584317 1117 -0.028470 0.999595 0.000000
-14.764354 -13.805548 -0.578105 1125 -0.028470 0.999595 0.000000
-14.764963 -13.806112 -0.571919 1131 -0.028470 0.999595 0.000000
-14.764074 -13.805284 -0.565678 1125 -0.028470 0.999595 0.000000
-14.763669 -13.804903 -0.559441 1117 -0.028470 0.999595 0.000000
-14.764271 -13.805475 -0.553255 1123 -0.028470 0.999595 0.000000
-14.763860 -13.805091 -0.547029 1119 -0.028470 0.999595 0.000000
-14.763975 -13.805200 -0.540818 1121 -0.028470 0.999595 0.000000
-14.764263 -13.805460 -0.534615 1125 -0.028470 0.999595 0.000000
-14.764011 -13.805226 -0.528397 1111 -0.028470 0.999595 0.000000
-14.763480 -13.804732 -0.522172 1111 -0.028470 0.999595 0.000000
-14.762535 -13.803846 -0.515921 1107 -0.028470 0.999595 0.000000
-14.762539 -13.803853 -0.509711 1119 -0.028470 0.999595 0.000000
-14.763242 -13.804507 -0.503524 1135 -0.028470 0.999595 0.000000
-14.763197 -13.804464 -0.497314 1121 -0.028470 0.999595 0.000000
-14.763624 -13.804872 -0.491120 1121 -0.028470 0.999595 0.000000
-14.763460 -13.804721 -0.484901 1127 -0.028470 0.999595 0.000000
-14.763096 -13.804374 -0.478675 1115 -0.028470 0.999595 0.000000
-14.763680 -13.804919 -0.472489 1127 -0.028470 0.999595 0.000000
-14.763684 -13.804927 -0.466279 1119 -0.028470 0.999595 0.000000
-14.763672 -13.804922 -0.460069 1121 -0.028470 0.999595 0.000000
-14.763251 -13.804517 -0.453843 1117 -0.028470 0.999595 0.000000
-14.763511 -13.804766 -0.447640 1111 -0.028470 0.999595 0.000000
-14.763976 -13.805204 -0.441445 1123 -0.028470 0.999595 0.000000
-14.763380 -13.804646 -0.435221 1123 -0.028470 0.999595 0.000000
-14.762786 -13.804090 -0.428986 1115 -0.028470 0.999595 0.000000
-14.762295 -13.803628 -0.422771 1105 -0.028470 0.999595 0.000000
-14.762123 -13.803471 -0.416552 1109 -0.028470 0.999595 0.000000
-14.762746 -13.804049 -0.410356 1121 -0.028470 0.999595 0.000000
-14.763158 -13.804443 -0.404162 1131 -0.028470 0.999595 0.000000
-14.762984 -13.804273 -0.397944 1119 -0.028470 0.999595 0.000000
-14.763338 -13.804610 -0.391750 1127 -0.028470 0.999595 0.000000
-14.762943 -13.804237 -0.385524 1125 -0.028470 0.999595 0.000000
-14.762230 -13.803574 -0.379300 1119 -0.028470 0.999595 0.000000
-14.762472 -13.803797 -0.373098 1123 -0.028470 0.999595 0.000000
-14.762616 -13.803929 -0.366896 1123 -0.028470 0.999595 0.000000
-14.762373 -13.803701 -0.360679 1125 -0.028470 0.999595 0.000000
-14.762067 -13.803426 -0.354461 1117 -0.028470 0.999595 0.000000
-14.761894 -13.803255 -0.348253 1107 -0.028470 0.999595 0.000000
-14.762550 -13.803870 -0.342057 1117 -0.028470 0.999595 0.000000
-14.763700 -13.804943 -0.335876 1131 -0.028470 0.999595 0.000000
-14.763393 -13.804666 -0.329658 1127 -0.028470 0.999595 0.000000
-14.763364 -13.804634 -0.323448 1137 -0.028470 0.999595 0.000000
-14.762691 -13.804002 -0.317225 1129 -0.028470 0.999595 0.000000
-14.761530 -13.802919 -0.310995 1125 -0.028470 0.999595 0.000000
-14.761700 -13.803085 -0.304794 1123 -0.028470 0.999595 0.000000
-14.762310 -13.803651 -0.298598 1125 -0.028470 0.999595 0.000000
-14.761945 -13.803302 -0.292381 1127 -0.028470 0.999595 0.000000
-14.761582 -13.802968 -0.286164 1115 -0.028470 0.999595 0.000000
