756
-14.947759 -13.801124 -0.663534 827 0.731346 0.682006 0.000000
-14.947586 -13.800965 -0.657265 811 0.731346 0.682006 0.000000
-14.947405 -13.800803 -0.651007 833 0.731346 0.682006 0.000000
-14.946962 -13.800394 -0.644731 837 0.731346 0.682006 0.000000
-14.945866 -13.799390 -0.638431 839 0.731346 0.682006 0.000000
-14.947301 -13.800714 -0.632237 835 0.731346 0.682006 0.000000
-14.947925 -13.801292 -0.626011 831 0.731346 0.682006 0.000000
-14.947744 -13.801129 -0.619753 841 0.731346 0.682006 0.000000
-14.947348 -13.800756 -0.613476 825 0.731346 0.682006 0.000000
-14.946727 -13.800181 -0.607202 849 0.731346 0.682006 0.000000
-14.946651 -13.800115 -0.600943 815 0.731346 0.682006 0.000000
-14.947377 -13.800786 -0.594726 851 0.731346 0.682006 0.000000
-14.947029 -13.800465 -0.588459 859 0.731346 0.682006 0.000000
-14.946396 -13.799892 -0.582174 849 0.731346 0.682006 0.000000
-14.947018 -13.800455 -0.575949 845 0.731346 0.682006 0.000000
-14.947467 -13.800881 -0.569714 863 0.731346 0.682006 0.000000
-14.947008 -13.800460 -0.563448 855 0.731346 0.682006 0.000000
-14.947073 -13.800518 -0.557198 865 0.731346 0.682006 0.000000
-14.946391 -13.799893 -0.550914 857 0.731346 0.682006 0.000000
-14.945819 -13.799356 -0.544649 851 0.731346 0.682006 0.000000
-14.946483 -13.799978 -0.538423 829 0.731346 0.682006 0.000000
-14.946813 -13.800284 -0.532179 843 0.731346 0.682006 0.000000
-14.946870 -13.800336 -0.525929 855 0.731346 0.682006 0.000000
-14.946943 -13.800400 -0.519678 853 0.731346 0.682006 0.000000
-14.946141 -13.799668 -0.513405 849 0.731346 0.682006 0.000000
-14.945292 -13.798885 -0.507123 845 0.731346 0.682006 0.000000
-14.945613 -13.799185 -0.500880 841 0.731346 0.682006 0.000000
-14.946532 -13.800035 -0.494661 841 0.731346 0.682006 0.000000
-14.945951 -13.799491 -0.488386 831 0.731346 0.682006 0.000000
-14.945092 -13.798700 -0.482114 837 0.731346 0.682006 0.000000
-14.945087 -13.798703 -0.475864 841 0.731346 0.682006 0.000000
-14.945951 -13.799496 -0.469636 835 0.731346 0.682006 0.000000
-14.946701 -13.800187 -0.463409 845 0.731346 0.682006 0.000000
-14.946483 -13.799994 -0.457151 835 0.731346 0.682006 0.000000
-14.946045 -13.799589 -0.450895 835 0.731346 0.682006 0.000000
-14.946198 -13.799730 -0.444643 819 0.731346 0.682006 0.000000
-14.946089 -13.799624 -0.438394 795 0.731346 0.682006 0.000000
-14.946666 -13.800164 -0.432158 835 0.731346 0.682006 0.000000
-14.946604 -13.800109 -0.425909 851 0.731346 0.682006 0.000000
-14.945195 -13.798805 -0.419622 847 0.731346 0.682006 0.000000
-14.944967 -13.798593 -0.413364 825 0.731346 0.682006 0.000000
-14.945695 -13.799278 -0.407137 817 0.731346 0.682006 0.000000
-14.947186 -13.800646 -0.400923 837 0.731346 0.682006 0.000000
-14.946742 -13.800235 -0.394657 829 0.731346 0.682006 0.000000
-14.945312 -13.798929 -0.388370 835 0.731346 0.682006 0.000000
-14.946213 -13.799751 -0.382151 845 0.731346 0.682006 0.000000
-14.946399 -13.799931 -0.375899 843 0.731346 0.682006 0.000000
-14.945899 -13.799464 -0.369644 839 0.731346 0.682006 0.000000
-14.945447 -13.799047 -0.363378 819 0.731346 0.682006 0.000000
-14.945791 -13.799365 -0.357145 831 0.731346 0.682006 0.000000
-14.945603 -13.799196 -0.350886 821 0.731346 0.682006 0.000000
-14.944872 -13.798520 -0.344623 813 0.731346 0.682006 0.000000
-14.945967 -13.799536 -0.338403 805 0.731346 0.682006 0.000000
-14.945722 -13.799309 -0.332145 797 0.731346 0.682006 0.000000
-14.945477 -13.799083 -0.325887 801 0.731346 0.682006 0.000000
-14.947265 -13.800736 -0.319680 833 0.731346 0.682006 0.000000
-14.947338 -13.800801 -0.313429 821 0.731346 0.682006 0.000000
-14.945357 -13.798982 -0.307147 813 0.731346 0.682006 0.000000
-14.944618 -13.798299 -0.300884 799 0.731346 0.682006 0.000000
-14.944693 -13.798364 -0.294633 819 0.731346 0.682006 0.000000
-14.944266 -13.797980 -0.288377 809 0.731346 0.682006 0.000000
-14.945144 -13.798784 -0.282149 833 0.731346 0.682006 0.000000
-14.944342 -13.798052 -0.275886 825 0.731346 0.682006 0.000000
-14.951729 -13.796166 -0.663519 831 0.731346 0.682006 0.000000
-14.951556 -13.796010 -0.657260 839 0.731346 0.682006 0.000000
-14.952673 -13.797044 -0.651050 855 0.731346 0.682006 0.000000
-14.952707 -13.797076 -0.644799 853 0.731346 0.682006 0.000000
-14.953075 -13.797413 -0.638556 847 0.731346 0.682006 0.000000
-14.953055 -13.797403 -0.632306 845 0.731346 0.682006 0.000000
-14.952379 -13.796784 -0.626022 839 0.731346 0.682006 0.000000
-14.950485 -13.795033 -0.619689 855 0.731346 0.682006 0.000000
-14.949699 -13.794312 -0.613407 829 0.731346 0.682006 0.000000
-14.951566 -13.796030 -0.607229 843 0.731346 0.682006 0.000000
-14.950143 -13.794714 -0.600912 799 0.731346 0.682006 0.000000
-14.948933 -13.793595 -0.594613 811 0.731346 0.682006 0.000000
-14.950944 -13.795465 -0.588444 845 0.731346 0.682006 0.000000
-14.952365 -13.796776 -0.582251 831 0.731346 0.682006 0.000000
-14.951482 -13.795955 -0.575959 849 0.731346 0.682006 0.000000
-14.951014 -13.795527 -0.569693 857 0.731346 0.682006 0.000000
-14.951144 -13.795648 -0.563442 837 0.731346 0.682006 0.000000
-14.951051 -13.795568 -0.557183 841 0.731346 0.682006 0.000000
-14.951985 -13.796430 -0.550964 859 0.731346 0.682006 0.000000
-14.951684 -13.796145 -0.544706 863 0.731346 0.682006 0.000000
-14.950459 -13.795014 -0.538408 853 0.731346 0.682006 0.000000
-14.950900 -13.795434 -0.532173 845 0.731346 0.682006 0.000000
-14.951874 -13.796328 -0.525954 831 0.731346 0.682006 0.000000
-14.951941 -13.796387 -0.519703 821 0.731346 0.682006 0.000000
-14.951408 -13.795894 -0.513438 857 0.731346 0.682006 0.000000
-14.951523 -13.796003 -0.507187 855 0.731346 0.682006 0.000000
-14.951207 -13.795721 -0.500930 863 0.731346 0.682006 0.000000
-14.949600 -13.794235 -0.494625 837 0.731346 0.682006 0.000000
-14.948957 -13.793642 -0.488350 837 0.731346 0.682006 0.000000
-14.950027 -13.794638 -0.482130 827 0.731346 0.682006 0.000000
-14.951215 -13.795727 -0.475919 861 0.731346 0.682006 0.000000
-14.951385 -13.795880 -0.469677 855 0.731346 0.682006 0.000000
-14.950241 -13.794838 -0.463388 839 0.731346 0.682006 0.000000
-14.949918 -13.794537 -0.457131 819 0.731346 0.682006 0.000000
-14.951582 -13.796068 -0.450935 821 0.731346 0.682006 0.000000
-14.951841 -13.796318 -0.444682 823 0.731346 0.682006 0.000000
-14.949843 -13.794471 -0.438381 837 0.731346 0.682006 0.000000
-14.949295 -13.793966 -0.432116 833 0.731346 0.682006 0.000000
-14.949656 -13.794297 -0.425872 837 0.731346 0.682006 0.000000
-14.949539 -13.794197 -0.419623 841 0.731346 0.682006 0.000000
-14.949582 -13.794237 -0.413373 831 0.731346 0.682006 0.000000
-14.949448 -13.794111 -0.407124 811 0.731346 0.682006 0.000000
-14.950351 -13.794949 -0.400895 833 0.731346 0.682006 0.000000
-14.950824 -13.795381 -0.394661 823 0.731346 0.682006 0.000000
-14.951175 -13.795704 -0.388417 859 0.731346 0.682006 0.000000
-14.951857 -13.796340 -0.382181 829 0.731346 0.682006 0.000000
-14.951459 -13.795968 -0.375924 825 0.731346 0.682006 0.000000
-14.950895 -13.795449 -0.369660 833 0.731346 0.682006 0.000000
-14.951345 -13.795877 -0.363425 827 0.731346 0.682006 0.000000
-14.950845 -13.795410 -0.357160 811 0.731346 0.682006 0.000000
-14.951136 -13.795685 -0.350917 817 0.731346 0.682006 0.000000
-14.951265 -13.795806 -0.344675 831 0.731346 0.682006 0.000000
-14.950430 -13.795034 -0.338403 821 0.731346 0.682006 0.000000
-14.949589 -13.794259 -0.332141 807 0.731346 0.682006 0.000000
-14.951063 -13.795613 -0.325917 813 0.731346 0.682006 0.000000
-14.951345 -13.795881 -0.319674 821 0.731346 0.682006 0.000000
-14.949325 -13.794016 -0.313383 793 0.731346 0.682006 0.000000
-14.948800 -13.793530 -0.307127 813 0.731346 0.682006 0.000000
-14.949887 -13.794538 -0.300897 807 0.731346 0.682006 0.000000
-14.950336 -13.794951 -0.294663 809 0.731346 0.682006 0.000000
-14.950187 -13.794813 -0.288414 829 0.731346 0.682006 0.000000
-14.949869 -13.794530 -0.282157 817 0.731346 0.682006 0.000000
-14.949665 -13.794336 -0.275909 807 0.731346 0.682006 0.000000
-14.955845 -13.791186 -0.663503 855 0.731346 0.682006 0.000000
-14.957112 -13.792351 -0.657311 841 0.731346 0.682006 0.000000
-14.957321 -13.792549 -0.651059 847 0.731346 0.682006 0.000000
-14.956129 -13.791443 -0.644760 843 0.731346 0.682006 0.000000
-14.956267 -13.791572 -0.638509 837 0.731346 0.682006 0.000000
-14.957051 -13.792302 -0.632291 839 0.731346 0.682006 0.000000
-14.956709 -13.791986 -0.626024 839 0.731346 0.682006 0.000000
-14.956210 -13.791519 -0.619749 837 0.731346 0.682006 0.000000
-14.955592 -13.790958 -0.613465 829 0.731346 0.682006 0.000000
-14.955403 -13.790790 -0.607206 829 0.731346 0.682006 0.000000
-14.955006 -13.790416 -0.600940 821 0.731346 0.682006 0.000000
-14.954922 -13.790343 -0.594680 843 0.731346 0.682006 0.000000
-14.956238 -13.791559 -0.588478 839 0.731346 0.682006 0.000000
-14.956855 -13.792130 -0.582252 829 0.731346 0.682006 0.000000
-14.957150 -13.792397 -0.576009 851 0.731346 0.682006 0.000000
-14.957543 -13.792766 -0.569775 837 0.731346 0.682006 0.000000
-14.955896 -13.791248 -0.563460 835 0.731346 0.682006 0.000000
-14.954729 -13.790175 -0.557161 839 0.731346 0.682006 0.000000
-14.954856 -13.790283 -0.550910 857 0.731346 0.682006 0.000000
-14.954924 -13.790355 -0.544669 847 0.731346 0.682006 0.000000
-14.955914 -13.791261 -0.538450 835 0.731346 0.682006 0.000000
-14.955973 -13.791327 -0.532199 851 0.731346 0.682006 0.000000
-14.956203 -13.791529 -0.525957 831 0.731346 0.682006 0.000000
-14.956589 -13.791892 -0.519713 831 0.731346 0.682006 0.000000
-14.955198 -13.790617 -0.513416 831 0.731346 0.682006 0.000000
-14.954078 -13.789580 -0.507126 833 0.731346 0.682006 0.000000
-14.954407 -13.789886 -0.500893 841 0.731346 0.682006 0.000000
-14.955053 -13.790482 -0.494657 855 0.731346 0.682006 0.000000
-14.955597 -13.790983 -0.488421 851 0.731346 0.682006 0.000000
-14.954579 -13.790041 -0.482141 813 0.731346 0.682006 0.000000
-14.954566 -13.790037 -0.475891 833 0.731346 0.682006 0.000000
-14.956248 -13.791582 -0.469695 847 0.731346 0.682006 0.000000
-14.955590 -13.790977 -0.463421 829 0.731346 0.682006 0.000000
-14.954781 -13.790238 -0.457148 803 0.731346 0.682006 0.000000
-14.955586 -13.790974 -0.450921 817 0.731346 0.682006 0.000000
-14.956386 -13.791715 -0.444693 833 0.731346 0.682006 0.000000
-14.956212 -13.791558 -0.438435 841 0.731346 0.682006 0.000000
-14.955881 -13.791250 -0.432177 845 0.731346 0.682006 0.000000
-14.956346 -13.791689 -0.425943 827 0.731346 0.682006 0.000000
-14.955750 -13.791133 -0.419678 825 0.731346 0.682006 0.000000
-14.954661 -13.790136 -0.413398 813 0.731346 0.682006 0.000000
-14.954911 -13.790365 -0.407156 817 0.731346 0.682006 0.000000
-14.955694 -13.791095 -0.400918 823 0.731346 0.682006 0.000000
-14.956228 -13.791575 -0.394683 831 0.731346 0.682006 0.000000
-14.956311 -13.791660 -0.388442 845 0.731346 0.682006 0.000000
-14.955803 -13.791186 -0.382177 829 0.731346 0.682006 0.000000
-14.955511 -13.790923 -0.375920 813 0.731346 0.682006 0.000000
-14.954837 -13.790305 -0.369656 823 0.731346 0.682006 0.000000
-14.955460 -13.790882 -0.363420 839 0.731346 0.682006 0.000000
-14.956832 -13.792142 -0.357207 843 0.731346 0.682006 0.000000
-14.955513 -13.790936 -0.350919 793 0.731346 0.682006 0.000000
-14.954947 -13.790405 -0.344654 805 0.731346 0.682006 0.000000
-14.955779 -13.791173 -0.338426 827 0.731346 0.682006 0.000000
-14.957462 -13.792730 -0.332220 821 0.731346 0.682006 0.000000
-14.956302 -13.791663 -0.325941 803 0.731346 0.682006 0.000000
-14.955133 -13.790590 -0.319672 803 0.731346 0.682006 0.000000
-14.955431 -13.790857 -0.313429 801 0.731346 0.682006 0.000000
-14.954691 -13.790174 -0.307165 803 0.731346 0.682006 0.000000
-14.954591 -13.790088 -0.300906 829 0.731346 0.682006 0.000000
-14.954927 -13.790400 -0.294673 819 0.731346 0.682006 0.000000
-14.954510 -13.790023 -0.288417 805 0.731346 0.682006 0.000000
-14.954191 -13.789726 -0.282159 821 0.731346 0.682006 0.000000
-14.954640 -13.790138 -0.275915 815 0.731346 0.682006 0.000000
-14.960323 -13.786519 -0.663515 827 0.731346 0.682006 0.000000
-14.960423 -13.786616 -0.657263 839 0.731346 0.682006 0.000000
-14.960083 -13.786302 -0.650997 843 0.731346 0.682006 0.000000
-14.960389 -13.786588 -0.644753 827 0.731346 0.682006 0.000000
-14.961074 -13.787215 -0.638527 813 0.731346 0.682006 0.000000
-14.961596 -13.787699 -0.632302 823 0.731346 0.682006 0.000000
-14.961677 -13.787783 -0.626051 833 0.731346 0.682006 0.000000
-14.961289 -13.787417 -0.619775 841 0.731346 0.682006 0.000000
-14.960725 -13.786900 -0.613500 831 0.731346 0.682006 0.000000
-14.960912 -13.787079 -0.607258 837 0.731346 0.682006 0.000000
-14.960077 -13.786308 -0.600965 811 0.731346 0.682006 0.000000
-14.958924 -13.785246 -0.594666 819 0.731346 0.682006 0.000000
-14.959229 -13.785520 -0.588433 821 0.731346 0.682006 0.000000
-14.959995 -13.786237 -0.582206 837 0.731346 0.682006 0.000000
-14.959537 -13.785814 -0.575940 831 0.731346 0.682006 0.000000
-14.958695 -13.785039 -0.569647 811 0.731346 0.682006 0.000000
-14.958560 -13.784913 -0.563399 833 0.731346 0.682006 0.000000
-14.959925 -13.786166 -0.557196 831 0.731346 0.682006 0.000000
-14.960319 -13.786535 -0.550952 841 0.731346 0.682006 0.000000
-14.959844 -13.786101 -0.544686 815 0.731346 0.682006 0.000000
-14.959694 -13.785964 -0.538427 829 0.731346 0.682006 0.000000
-14.958789 -13.785136 -0.532146 821 0.731346 0.682006 0.000000
-14.959068 -13.785390 -0.525903 843 0.731346 0.682006 0.000000
-14.959669 -13.785950 -0.519677 829 0.731346 0.682006 0.000000
-14.959846 -13.786109 -0.513425 831 0.731346 0.682006 0.000000
-14.960064 -13.786312 -0.507183 847 0.731346 0.682006 0.000000
-14.959642 -13.785921 -0.500917 849 0.731346 0.682006 0.000000
-14.958522 -13.784884 -0.494627 837 0.731346 0.682006 0.000000
-14.958039 -13.784445 -0.488362 823 0.731346 0.682006 0.000000
-14.958257 -13.784649 -0.482119 843 0.731346 0.682006 0.000000
-14.958529 -13.784897 -0.475877 843 0.731346 0.682006 0.000000
-14.960244 -13.786480 -0.469681 843 0.731346 0.682006 0.000000
-14.959547 -13.785845 -0.463407 835 0.731346 0.682006 0.000000
-14.958888 -13.785238 -0.457143 827 0.731346 0.682006 0.000000
-14.959424 -13.785733 -0.450908 827 0.731346 0.682006 0.000000
-14.959578 -13.785874 -0.444656 829 0.731346 0.682006 0.000000
-14.959889 -13.786166 -0.438423 821 0.731346 0.682006 0.000000
-14.960314 -13.786547 -0.432179 817 0.731346 0.682006 0.000000
-14.959760 -13.786050 -0.425914 853 0.731346 0.682006 0.000000
-14.959315 -13.785639 -0.419658 839 0.731346 0.682006 0.000000
-14.958982 -13.785331 -0.413391 815 0.731346 0.682006 0.000000
-14.958378 -13.784768 -0.407126 793 0.731346 0.682006 0.000000
-14.958845 -13.785208 -0.400892 813 0.731346 0.682006 0.000000
-14.958385 -13.784785 -0.394626 813 0.731346 0.682006 0.000000
-14.957941 -13.784375 -0.388370 813 0.731346 0.682006 0.000000
-14.958946 -13.785307 -0.382151 815 0.731346 0.682006 0.000000
-14.959841 -13.786124 -0.375922 811 0.731346 0.682006 0.000000
-14.959604 -13.785904 -0.369664 801 0.731346 0.682006 0.000000
-14.959527 -13.785837 -0.363415 805 0.731346 0.682006 0.000000
-14.959649 -13.785954 -0.357163 827 0.731346 0.682006 0.000000
-14.958712 -13.785087 -0.350892 797 0.731346 0.682006 0.000000
-14.959000 -13.785361 -0.344649 811 0.731346 0.682006 0.000000
-14.959296 -13.785627 -0.338406 825 0.731346 0.682006 0.000000
-14.959530 -13.785845 -0.332164 809 0.731346 0.682006 0.000000
-14.958585 -13.784973 -0.325903 795 0.731346 0.682006 0.000000
-14.957736 -13.784204 -0.319630 803 0.731346 0.682006 0.000000
-14.958948 -13.785312 -0.313409 803 0.731346 0.682006 0.000000
-14.958257 -13.784680 -0.307145 793 0.731346 0.682006 0.000000
-14.957631 -13.784101 -0.300881 779 0.731346 0.682006 0.000000
-14.957855 -13.784310 -0.294639 779 0.731346 0.682006 0.000000
-14.958130 -13.784573 -0.288396 803 0.731346 0.682006 0.000000
-14.957932 -13.784384 -0.282148 817 0.731346 0.682006 0.000000
-14.958748 -13.785138 -0.275920 809 0.731346 0.682006 0.000000
-14.966290 -13.783733 -0.663599 833 0.731346 0.682006 0.000000
-14.965948 -13.783418 -0.657332 823 0.731346 0.682006 0.000000
-14.964754 -13.782311 -0.651024 835 0.731346 0.682006 0.000000
-14.964305 -13.781909 -0.644747 807 0.731346 0.682006 0.000000
-14.965420 -13.782928 -0.638537 837 0.731346 0.682006 0.000000
-14.964164 -13.781772 -0.632239 839 0.731346 0.682006 0.000000
-14.964359 -13.781959 -0.625987 825 0.731346 0.682006 0.000000
-14.964982 -13.782535 -0.619761 819 0.731346 0.682006 0.000000
-14.963677 -13.781326 -0.613453 807 0.731346 0.682006 0.000000
-14.963592 -13.781252 -0.607193 809 0.731346 0.682006 0.000000
-14.964860 -13.782418 -0.600991 823 0.731346 0.682006 0.000000
-14.965317 -13.782837 -0.594757 821 0.731346 0.682006 0.000000
-14.964540 -13.782125 -0.588474 815 0.731346 0.682006 0.000000
-14.964771 -13.782341 -0.582232 831 0.731346 0.682006 0.000000
-14.964847 -13.782419 -0.575981 845 0.731346 0.682006 0.000000
-14.963799 -13.781454 -0.569690 833 0.731346 0.682006 0.000000
-14.963120 -13.780821 -0.563417 827 0.731346 0.682006 0.000000
-14.963778 -13.781437 -0.557190 851 0.731346 0.682006 0.000000
-14.965245 -13.782785 -0.550986 837 0.731346 0.682006 0.000000
-14.965366 -13.782901 -0.544735 829 0.731346 0.682006 0.000000
-14.963720 -13.781384 -0.538430 815 0.731346 0.682006 0.000000
-14.962760 -13.780501 -0.532139 803 0.731346 0.682006 0.000000
-14.963040 -13.780755 -0.525896 803 0.731346 0.682006 0.000000
-14.963107 -13.780827 -0.519656 825 0.731346 0.682006 0.000000
-14.963977 -13.781625 -0.513427 833 0.731346 0.682006 0.000000
-14.964521 -13.782126 -0.507202 821 0.731346 0.682006 0.000000
-14.964100 -13.781734 -0.500936 849 0.731346 0.682006 0.000000
-14.964796 -13.782383 -0.494699 839 0.731346 0.682006 0.000000
-14.965014 -13.782587 -0.488457 837 0.731346 0.682006 0.000000
-14.964705 -13.782297 -0.482200 821 0.731346 0.682006 0.000000
-14.964540 -13.782147 -0.475941 835 0.731346 0.682006 0.000000
-14.964639 -13.782244 -0.469690 861 0.731346 0.682006 0.000000
-14.963891 -13.781555 -0.463417 835 0.731346 0.682006 0.000000
-14.962755 -13.780506 -0.457137 805 0.731346 0.682006 0.000000
-14.963880 -13.781546 -0.450917 853 0.731346 0.682006 0.000000
-14.963709 -13.781390 -0.444658 861 0.731346 0.682006 0.000000
-14.962459 -13.780239 -0.438380 835 0.731346 0.682006 0.000000
-14.961322 -13.779190 -0.432090 801 0.731346 0.682006 0.000000
-14.961420 -13.779287 -0.425849 805 0.731346 0.682006 0.000000
-14.962593 -13.780364 -0.419628 833 0.731346 0.682006 0.000000
-14.963655 -13.781340 -0.413408 817 0.731346 0.682006 0.000000
-14.964120 -13.781778 -0.407173 827 0.731346 0.682006 0.000000
-14.963627 -13.781318 -0.400908 823 0.731346 0.682006 0.000000
-14.963384 -13.781105 -0.394650 795 0.731346 0.682006 0.000000
-14.962717 -13.780493 -0.388386 809 0.731346 0.682006 0.000000
-14.962481 -13.780273 -0.382128 829 0.731346 0.682006 0.000000
-14.962895 -13.780646 -0.375894 815 0.731346 0.682006 0.000000
-14.963736 -13.781421 -0.369666 813 0.731346 0.682006 0.000000
-14.964185 -13.781848 -0.363432 803 0.731346 0.682006 0.000000
-14.964370 -13.782013 -0.357180 813 0.731346 0.682006 0.000000
-14.963702 -13.781401 -0.350916 797 0.731346 0.682006 0.000000
-14.962319 -13.780131 -0.344639 805 0.731346 0.682006 0.000000
-14.962512 -13.780303 -0.338397 787 0.731346 0.682006 0.000000
-14.963064 -13.780825 -0.332161 795 0.731346 0.682006 0.000000
-14.963950 -13.781634 -0.325923 809 0.731346 0.682006 0.000000
-14.963746 -13.781454 -0.319675 799 0.731346 0.682006 0.000000
-14.962802 -13.780582 -0.313403 791 0.731346 0.682006 0.000000
-14.962825 -13.780595 -0.307153 771 0.731346 0.682006 0.000000
-14.962886 -13.780662 -0.300912 795 0.731346 0.682006 0.000000
-14.962687 -13.780472 -0.294654 807 0.731346 0.682006 0.000000
-14.963185 -13.780936 -0.288419 809 0.731346 0.682006 0.000000
-14.963727 -13.781437 -0.282184 829 0.731346 0.682006 0.000000
-14.962718 -13.780501 -0.275913 821 0.731346 0.682006 0.000000
-14.969355 -13.778111 -0.663552 823 0.731346 0.682006 0.000000
-14.970592 -13.779252 -0.657350 835 0.731346 0.682006 0.000000
-14.970738 -13.779387 -0.651099 819 0.731346 0.682006 0.000000
-14.969697 -13.778426 -0.644799 797 0.731346 0.682006 0.000000
-14.968178 -13.777022 -0.638483 811 0.731346 0.682006 0.000000
-14.968810 -13.777607 -0.632257 805 0.731346 0.682006 0.000000
-14.969050 -13.777830 -0.626014 813 0.731346 0.682006 0.000000
-14.968493 -13.777318 -0.619739 815 0.731346 0.682006 0.000000
-14.969118 -13.777896 -0.613503 817 0.731346 0.682006 0.000000
-14.968554 -13.777378 -0.607228 817 0.731346 0.682006 0.000000
-14.968367 -13.777209 -0.600970 807 0.731346 0.682006 0.000000
-14.969738 -13.778469 -0.594767 835 0.731346 0.682006 0.000000
-14.969278 -13.778047 -0.588501 813 0.731346 0.682006 0.000000
-14.968875 -13.777682 -0.582235 811 0.731346 0.682006 0.000000
-14.967818 -13.776710 -0.575934 809 0.731346 0.682006 0.000000
-14.966922 -13.775889 -0.569652 805 0.731346 0.682006 0.000000
-14.967975 -13.776845 -0.563443 823 0.731346 0.682006 0.000000
-14.969497 -13.778251 -0.557248 851 0.731346 0.682006 0.000000
-14.969620 -13.778367 -0.550997 831 0.731346 0.682006 0.000000
-14.969572 -13.778323 -0.544737 833 0.731346 0.682006 0.000000
-14.969537 -13.778300 -0.538487 843 0.731346 0.682006 0.000000
-14.969603 -13.778359 -0.532237 853 0.731346 0.682006 0.000000
-14.968657 -13.777487 -0.525955 811 0.731346 0.682006 0.000000
-14.967745 -13.776655 -0.519674 821 0.731346 0.682006 0.000000
-14.967753 -13.776655 -0.513413 823 0.731346 0.682006 0.000000
-14.968082 -13.776961 -0.507180 859 0.731346 0.682006 0.000000
-14.968674 -13.777513 -0.500945 849 0.731346 0.682006 0.000000
-14.968039 -13.776926 -0.494670 839 0.731346 0.682006 0.000000
-14.967348 -13.776282 -0.488397 811 0.731346 0.682006 0.000000
-14.968426 -13.777284 -0.482186 827 0.731346 0.682006 0.000000
-14.969280 -13.778069 -0.475958 839 0.731346 0.682006 0.000000
-14.968852 -13.777672 -0.469692 835 0.731346 0.682006 0.000000
-14.968361 -13.777225 -0.463427 823 0.731346 0.682006 0.000000
-14.968036 -13.776922 -0.457169 813 0.731346 0.682006 0.000000
-14.967545 -13.776475 -0.450904 821 0.731346 0.682006 0.000000
-14.968560 -13.777414 -0.444684 831 0.731346 0.682006 0.000000
-14.968554 -13.777402 -0.438434 861 0.731346 0.682006 0.000000
-14.966444 -13.775468 -0.432124 803 0.731346 0.682006 0.000000
-14.967139 -13.776101 -0.425897 833 0.731346 0.682006 0.000000
-14.967875 -13.776780 -0.419660 831 0.731346 0.682006 0.000000
-14.967750 -13.776674 -0.413411 821 0.731346 0.682006 0.000000
-14.968811 -13.777650 -0.407191 847 0.731346 0.682006 0.000000
-14.968582 -13.777436 -0.400933 839 0.731346 0.682006 0.000000
-14.967861 -13.776781 -0.394659 847 0.731346 0.682006 0.000000
-14.967576 -13.776510 -0.388402 829 0.731346 0.682006 0.000000
-14.967769 -13.776694 -0.382160 817 0.731346 0.682006 0.000000
-14.968019 -13.776925 -0.375918 811 0.731346 0.682006 0.000000
-14.967018 -13.776010 -0.369647 801 0.731346 0.682006 0.000000
-14.965705 -13.774795 -0.363369 785 0.731346 0.682006 0.000000
-14.966919 -13.775918 -0.357147 801 0.731346 0.682006 0.000000
-14.968331 -13.777223 -0.350934 817 0.731346 0.682006 0.000000
-14.967934 -13.776851 -0.344668 787 0.731346 0.682006 0.000000
-14.967525 -13.776480 -0.338411 797 0.731346 0.682006 0.000000
-14.966952 -13.775956 -0.332146 791 0.731346 0.682006 0.000000
-14.966874 -13.775874 -0.325897 791 0.731346 0.682006 0.000000
-14.967474 -13.776433 -0.319661 817 0.731346 0.682006 0.000000
-14.967867 -13.776802 -0.313427 797 0.731346 0.682006 0.000000
-14.967892 -13.776815 -0.307177 793 0.731346 0.682006 0.000000
-14.967148 -13.776141 -0.300914 799 0.731346 0.682006 0.000000
-14.967052 -13.776047 -0.294665 803 0.731346 0.682006 0.000000
-14.966801 -13.775814 -0.288407 795 0.731346 0.682006 0.000000
-14.966270 -13.775336 -0.282152 797 0.731346 0.682006 0.000000
-14.966009 -13.775097 -0.275904 799 0.731346 0.682006 0.000000
-14.974654 -13.773877 -0.663587 799 0.731346 0.682006 0.000000
-14.973835 -13.773119 -0.657295 803 0.731346 0.682006 0.000000
-14.974189 -13.773458 -0.651051 821 0.731346 0.682006 0.000000
-14.974296 -13.773547 -0.644810 823 0.731346 0.682006 0.000000
-14.973995 -13.773277 -0.638543 813 0.731346 0.682006 0.000000
-14.973399 -13.772720 -0.632258 817 0.731346 0.682006 0.000000
-14.972893 -13.772262 -0.625983 805 0.731346 0.682006 0.000000
-14.973891 -13.773188 -0.619773 807 0.731346 0.682006 0.000000
-14.973646 -13.772961 -0.613505 813 0.731346 0.682006 0.000000
-14.973089 -13.772449 -0.607230 813 0.731346 0.682006 0.000000
-14.974136 -13.773413 -0.601021 825 0.731346 0.682006 0.000000
-14.974600 -13.773837 -0.594786 823 0.731346 0.682006 0.000000
-14.974140 -13.773416 -0.588510 825 0.731346 0.682006 0.000000
-14.973903 -13.773195 -0.582252 815 0.731346 0.682006 0.000000
-14.974669 -13.773898 -0.576025 823 0.731346 0.682006 0.000000
-14.973510 -13.772844 -0.569736 827 0.731346 0.682006 0.000000
-14.972669 -13.772069 -0.563443 831 0.731346 0.682006 0.000000
-14.973657 -13.772973 -0.557234 821 0.731346 0.682006 0.000000
-14.974480 -13.773734 -0.551006 839 0.731346 0.682006 0.000000
-14.974666 -13.773900 -0.544764 837 0.731346 0.682006 0.000000
-14.973324 -13.772676 -0.538467 811 0.731346 0.682006 0.000000
-14.972425 -13.771841 -0.532175 823 0.731346 0.682006 0.000000
-14.972919 -13.772305 -0.525940 829 0.731346 0.682006 0.000000
-14.973473 -13.772813 -0.519715 823 0.731346 0.682006 0.000000
-14.973101 -13.772472 -0.513448 829 0.731346 0.682006 0.000000
-14.972132 -13.771583 -0.507167 833 0.731346 0.682006 0.000000
-14.973160 -13.772532 -0.500947 829 0.731346 0.682006 0.000000
-14.974295 -13.773580 -0.494737 841 0.731346 0.682006 0.000000
-14.973977 -13.773282 -0.488469 833 0.731346 0.682006 0.000000
-14.973763 -13.773081 -0.482211 833 0.731346 0.682006 0.000000
-14.973927 -13.773242 -0.475970 823 0.731346 0.682006 0.000000
-14.973172 -13.772548 -0.469696 823 0.731346 0.682006 0.000000
-14.973445 -13.772796 -0.463454 821 0.731346 0.682006 0.000000
-14.974411 -13.773683 -0.457225 853 0.731346 0.682006 0.000000
-14.974184 -13.773483 -0.450966 831 0.731346 0.682006 0.000000
-14.973635 -13.772977 -0.444701 821 0.731346 0.682006 0.000000
-14.973087 -13.772472 -0.438436 831 0.731346 0.682006 0.000000
-14.973728 -13.773064 -0.432200 807 0.731346 0.682006 0.000000
-14.973610 -13.772950 -0.425951 817 0.731346 0.682006 0.000000
-14.973110 -13.772496 -0.419686 823 0.731346 0.682006 0.000000
-14.973797 -13.773124 -0.413449 827 0.731346 0.682006 0.000000
-14.973617 -13.772961 -0.407201 833 0.731346 0.682006 0.000000
-14.972632 -13.772058 -0.400920 825 0.731346 0.682006 0.000000
-14.972347 -13.771800 -0.394662 819 0.731346 0.682006 0.000000
-14.973248 -13.772624 -0.388434 789 0.731346 0.682006 0.000000
-14.972901 -13.772303 -0.382177 811 0.731346 0.682006 0.000000
-14.970985 -13.770547 -0.375884 795 0.731346 0.682006 0.000000
-14.970860 -13.770428 -0.369625 781 0.731346 0.682006 0.000000
-14.971911 -13.771396 -0.363406 795 0.731346 0.682006 0.000000
-14.972160 -13.771626 -0.357163 801 0.731346 0.682006 0.000000
-14.972666 -13.772097 -0.350928 811 0.731346 0.682006 0.000000
-14.972365 -13.771826 -0.344671 803 0.731346 0.682006 0.000000
-14.972926 -13.772341 -0.338436 811 0.731346 0.682006 0.000000
-14.972730 -13.772165 -0.332177 797 0.731346 0.682006 0.000000
-14.971568 -13.771097 -0.325908 787 0.731346 0.682006 0.000000
-14.971691 -13.771214 -0.319656 769 0.731346 0.682006 0.000000
-14.973054 -13.772467 -0.313444 785 0.731346 0.682006 0.000000
-14.973566 -13.772929 -0.307199 761 0.731346 0.682006 0.000000
-14.972014 -13.771501 -0.300923 779 0.731346 0.682006 0.000000
-14.971700 -13.771219 -0.294666 783 0.731346 0.682006 0.000000
-14.972680 -13.772118 -0.288437 797 0.731346 0.682006 0.000000
-14.971442 -13.770988 -0.282168 787 0.731346 0.682006 0.000000
-14.970600 -13.770212 -0.275906 789 0.731346 0.682006 0.000000
-14.979786 -13.769485 -0.663614 819 0.731346 0.682006 0.000000
-14.978156 -13.767995 -0.657289 795 0.731346 0.682006 0.000000
-14.977386 -13.767287 -0.650996 789 0.731346 0.682006 0.000000
-14.976996 -13.766921 -0.644729 789 0.731346 0.682006 0.000000
-14.977302 -13.767207 -0.638486 799 0.731346 0.682006 0.000000
-14.978627 -13.768431 -0.632294 815 0.731346 0.682006 0.000000
-14.979576 -13.769305 -0.626075 817 0.731346 0.682006 0.000000
-14.978863 -13.768642 -0.619792 801 0.731346 0.682006 0.000000
-14.977924 -13.767776 -0.613500 807 0.731346 0.682006 0.000000
-14.977846 -13.767709 -0.607241 813 0.731346 0.682006 0.000000
-14.978034 -13.767889 -0.600999 813 0.731346 0.682006 0.000000
-14.979994 -13.769692 -0.594820 827 0.731346 0.682006 0.000000
-14.979542 -13.769276 -0.588554 815 0.731346 0.682006 0.000000
-14.978222 -13.768057 -0.582247 799 0.731346 0.682006 0.000000
-14.978503 -13.768324 -0.576004 803 0.731346 0.682006 0.000000
-14.978106 -13.767952 -0.569737 807 0.731346 0.682006 0.000000
-14.978278 -13.768119 -0.563486 821 0.731346 0.682006 0.000000
-14.978725 -13.768532 -0.557251 825 0.731346 0.682006 0.000000
-14.978958 -13.768747 -0.551009 821 0.731346 0.682006 0.000000
-14.978818 -13.768617 -0.544750 837 0.731346 0.682006 0.000000
-14.977324 -13.767246 -0.538444 809 0.731346 0.682006 0.000000
-14.977389 -13.767304 -0.532193 817 0.731346 0.682006 0.000000
-14.978100 -13.767963 -0.525966 819 0.731346 0.682006 0.000000
-14.978435 -13.768262 -0.519733 835 0.731346 0.682006 0.000000
-14.976990 -13.766942 -0.513426 797 0.731346 0.682006 0.000000
-14.976458 -13.766449 -0.507161 801 0.731346 0.682006 0.000000
-14.976898 -13.766856 -0.500927 823 0.731346 0.682006 0.000000
-14.975665 -13.765718 -0.494628 811 0.731346 0.682006 0.000000
-14.976418 -13.766423 -0.488401 831 0.731346 0.682006 0.000000
-14.977820 -13.767709 -0.482198 835 0.731346 0.682006 0.000000
-14.977004 -13.766966 -0.475925 845 0.731346 0.682006 0.000000
-14.977014 -13.766966 -0.469675 831 0.731346 0.682006 0.000000
-14.976959 -13.766916 -0.463415 827 0.731346 0.682006 0.000000
-14.976676 -13.766659 -0.457158 831 0.731346 0.682006 0.000000
-14.977212 -13.767155 -0.450923 839 0.731346 0.682006 0.000000
-14.976721 -13.766707 -0.444657 819 0.731346 0.682006 0.000000
-14.976650 -13.766644 -0.438408 803 0.731346 0.682006 0.000000
-14.976757 -13.766735 -0.432167 803 0.731346 0.682006 0.000000
-14.976957 -13.766926 -0.425914 811 0.731346 0.682006 0.000000
-14.976084 -13.766125 -0.419642 793 0.731346 0.682006 0.000000
-14.975640 -13.765715 -0.413386 797 0.731346 0.682006 0.000000
-14.976543 -13.766552 -0.407158 823 0.731346 0.682006 0.000000
-14.977818 -13.767723 -0.400946 815 0.731346 0.682006 0.000000
-14.978283 -13.768147 -0.394701 835 0.731346 0.682006 0.000000
-14.977830 -13.767732 -0.388446 813 0.731346 0.682006 0.000000
-14.977061 -13.767025 -0.382173 803 0.731346 0.682006 0.000000
-14.977256 -13.767211 -0.375931 815 0.731346 0.682006 0.000000
-14.977489 -13.767428 -0.369688 813 0.731346 0.682006 0.000000
-14.976614 -13.766612 -0.363416 821 0.731346 0.682006 0.000000
-14.975938 -13.765993 -0.357152 815 0.731346 0.682006 0.000000
-14.977144 -13.767110 -0.350931 817 0.731346 0.682006 0.000000
-14.976572 -13.766586 -0.344666 815 0.731346 0.682006 0.000000
-14.975747 -13.765822 -0.338394 799 0.731346 0.682006 0.000000
-14.976307 -13.766336 -0.332158 819 0.731346 0.682006 0.000000
-14.977289 -13.767249 -0.325939 817 0.731346 0.682006 0.000000
-14.977251 -13.767213 -0.319689 791 0.731346 0.682006 0.000000
-14.975972 -13.766038 -0.313411 769 0.731346 0.682006 0.000000
-14.975990 -13.766059 -0.307161 783 0.731346 0.682006 0.000000
-14.976336 -13.766376 -0.300917 801 0.731346 0.682006 0.000000
-14.975851 -13.765935 -0.294662 773 0.731346 0.682006 0.000000
-14.976570 -13.766587 -0.288425 767 0.731346 0.682006 0.000000
-14.975608 -13.765703 -0.282164 769 0.731346 0.682006 0.000000
-14.975134 -13.765269 -0.275908 781 0.731346 0.682006 0.000000
-14.982754 -13.763441 -0.663549 823 0.731346 0.682006 0.000000
-14.983282 -13.763929 -0.657324 805 0.731346 0.682006 0.000000
-14.982726 -13.763419 -0.651039 803 0.731346 0.682006 0.000000
-14.982760 -13.763452 -0.644789 809 0.731346 0.682006 0.000000
-14.984157 -13.764730 -0.638596 819 0.731346 0.682006 0.000000
-14.984238 -13.764802 -0.632345 801 0.731346 0.682006 0.000000
-14.983253 -13.763900 -0.626054 803 0.731346 0.682006 0.000000
-14.983397 -13.764032 -0.619802 793 0.731346 0.682006 0.000000
-14.983965 -13.764553 -0.613567 809 0.731346 0.682006 0.000000
-14.982383 -13.763100 -0.607251 795 0.731346 0.682006 0.000000
-14.981917 -13.762686 -0.600985 779 0.731346 0.682006 0.000000
-14.981623 -13.762407 -0.594718 783 0.731346 0.682006 0.000000
-14.982566 -13.763275 -0.588499 795 0.731346 0.682006 0.000000
-14.982911 -13.763594 -0.582266 797 0.731346 0.682006 0.000000
-14.981481 -13.762287 -0.575949 811 0.731346 0.682006 0.000000
-14.981124 -13.761959 -0.569682 781 0.731346 0.682006 0.000000
-14.981404 -13.762213 -0.563449 795 0.731346 0.682006 0.000000
-14.981652 -13.762442 -0.557207 803 0.731346 0.682006 0.000000
-14.981615 -13.762405 -0.550947 805 0.731346 0.682006 0.000000
-14.980768 -13.761638 -0.544665 773 0.731346 0.682006 0.000000
-14.980721 -13.761594 -0.538415 769 0.731346 0.682006 0.000000
-14.981550 -13.762346 -0.532187 801 0.731346 0.682006 0.000000
-14.982151 -13.762905 -0.525962 817 0.731346 0.682006 0.000000
-14.982965 -13.763661 -0.519734 815 0.731346 0.682006 0.000000
-14.983414 -13.764060 -0.513499 809 0.731346 0.682006 0.000000
-14.982937 -13.763625 -0.507234 801 0.731346 0.682006 0.000000
-14.983315 -13.763982 -0.500990 825 0.731346 0.682006 0.000000
-14.983157 -13.763837 -0.494731 831 0.731346 0.682006 0.000000
-14.982028 -13.762794 -0.488452 819 0.731346 0.682006 0.000000
-14.981227 -13.762062 -0.482169 819 0.731346 0.682006 0.000000
-14.980799 -13.761665 -0.475903 825 0.731346 0.682006 0.000000
-14.981542 -13.762350 -0.469676 831 0.731346 0.682006 0.000000
-14.982404 -13.763143 -0.463458 821 0.731346 0.682006 0.000000
-14.981914 -13.762695 -0.457192 825 0.731346 0.682006 0.000000
-14.981637 -13.762444 -0.450934 827 0.731346 0.682006 0.000000
-14.982013 -13.762787 -0.444691 829 0.731346 0.682006 0.000000
-14.982055 -13.762827 -0.438440 807 0.731346 0.682006 0.000000
-14.981890 -13.762676 -0.432182 797 0.731346 0.682006 0.000000
-14.982035 -13.762811 -0.425940 807 0.731346 0.682006 0.000000
-14.981314 -13.762155 -0.419667 819 0.731346 0.682006 0.000000
-14.981149 -13.762005 -0.413418 799 0.731346 0.682006 0.000000
-14.982154 -13.762922 -0.407189 799 0.731346 0.682006 0.000000
-14.981870 -13.762666 -0.400931 807 0.731346 0.682006 0.000000
-14.981522 -13.762343 -0.394674 777 0.731346 0.682006 0.000000
-14.982042 -13.762827 -0.388439 829 0.731346 0.682006 0.000000
-14.981915 -13.762707 -0.382190 823 0.731346 0.682006 0.000000
-14.981888 -13.762692 -0.375940 807 0.731346 0.682006 0.000000
-14.980042 -13.760991 -0.369637 799 0.731346 0.682006 0.000000
-14.978882 -13.759923 -0.363368 787 0.731346 0.682006 0.000000
-14.980953 -13.761829 -0.357169 791 0.731346 0.682006 0.000000
-14.982596 -13.763342 -0.350953 799 0.731346 0.682006 0.000000
-14.982831 -13.763559 -0.344711 793 0.731346 0.682006 0.000000
-14.982531 -13.763289 -0.338453 763 0.731346 0.682006 0.000000
-14.981800 -13.762613 -0.332190 791 0.731346 0.682006 0.000000
-14.981500 -13.762343 -0.325933 799 0.731346 0.682006 0.000000
-14.980658 -13.761567 -0.319670 777 0.731346 0.682006 0.000000
-14.981154 -13.762031 -0.313426 789 0.731346 0.682006 0.000000
-14.982033 -13.762836 -0.307197 783 0.731346 0.682006 0.000000
-14.981239 -13.762110 -0.300934 785 0.731346 0.682006 0.000000
-14.980554 -13.761471 -0.294671 773 0.731346 0.682006 0.000000
-14.980399 -13.761341 -0.288422 775 0.731346 0.682006 0.000000
-14.980680 -13.761596 -0.282179 789 0.731346 0.682006 0.000000
-14.981342 -13.762203 -0.275943 799 0.731346 0.682006 0.000000
-14.987338 -13.758883 -0.663569 793 0.731346 0.682006 0.000000
-14.986847 -13.758423 -0.657294 789 0.731346 0.682006 0.000000
-14.987098 -13.758666 -0.651041 803 0.731346 0.682006 0.000000
-14.987354 -13.758901 -0.644799 823 0.731346 0.682006 0.000000
-14.987173 -13.758739 -0.638540 799 0.731346 0.682006 0.000000
-14.986834 -13.758424 -0.632273 783 0.731346 0.682006 0.000000
-14.986859 -13.758451 -0.626023 791 0.731346 0.682006 0.000000
-14.987068 -13.758635 -0.619771 777 0.731346 0.682006 0.000000
-14.988009 -13.759503 -0.613562 791 0.731346 0.682006 0.000000
-14.987178 -13.758747 -0.607269 797 0.731346 0.682006 0.000000
-14.986231 -13.757874 -0.600978 785 0.731346 0.682006 0.000000
-14.986209 -13.757851 -0.594728 807 0.731346 0.682006 0.000000
-14.986775 -13.758369 -0.588493 799 0.731346 0.682006 0.000000
-14.988196 -13.759681 -0.582299 797 0.731346 0.682006 0.000000
-14.987522 -13.759063 -0.576016 789 0.731346 0.682006 0.000000
-14.986728 -13.758338 -0.569733 799 0.731346 0.682006 0.000000
-14.987135 -13.758705 -0.563499 793 0.731346 0.682006 0.000000
-14.987203 -13.758778 -0.557248 811 0.731346 0.682006 0.000000
-14.987220 -13.758784 -0.550998 805 0.731346 0.682006 0.000000
-14.986433 -13.758064 -0.544715 789 0.731346 0.682006 0.000000
-14.986604 -13.758218 -0.538473 823 0.731346 0.682006 0.000000
-14.986773 -13.758385 -0.532221 803 0.731346 0.682006 0.000000
-14.986146 -13.757804 -0.525947 783 0.731346 0.682006 0.000000
-14.986475 -13.758109 -0.519714 783 0.731346 0.682006 0.000000
-14.986971 -13.758560 -0.513479 803 0.731346 0.682006 0.000000
-14.987355 -13.758923 -0.507235 801 0.731346 0.682006 0.000000
-14.987302 -13.758873 -0.500986 787 0.731346 0.682006 0.000000
-14.986659 -13.758280 -0.494712 819 0.731346 0.682006 0.000000
-14.985206 -13.756954 -0.488415 795 0.731346 0.682006 0.000000
-14.984993 -13.756753 -0.482157 797 0.731346 0.682006 0.000000
-14.986125 -13.757799 -0.475936 811 0.731346 0.682006 0.000000
-14.985698 -13.757401 -0.469670 835 0.731346 0.682006 0.000000
-14.986988 -13.758585 -0.463468 807 0.731346 0.682006 0.000000
-14.988113 -13.759624 -0.457247 811 0.731346 0.682006 0.000000
-14.988214 -13.759722 -0.450996 829 0.731346 0.682006 0.000000
-14.987617 -13.759165 -0.444732 827 0.731346 0.682006 0.000000
-14.985947 -13.757629 -0.438427 827 0.731346 0.682006 0.000000
-14.986842 -13.758461 -0.432208 821 0.731346 0.682006 0.000000
-14.987370 -13.758949 -0.425973 815 0.731346 0.682006 0.000000
-14.985636 -13.757350 -0.419669 803 0.731346 0.682006 0.000000
-14.985566 -13.757289 -0.413420 809 0.731346 0.682006 0.000000
-14.986413 -13.758068 -0.407192 801 0.731346 0.682006 0.000000
-14.986773 -13.758399 -0.400948 793 0.731346 0.682006 0.000000
-14.986918 -13.758532 -0.394707 795 0.731346 0.682006 0.000000
-14.986953 -13.758567 -0.388456 801 0.731346 0.682006 0.000000
-14.986224 -13.757904 -0.382183 793 0.731346 0.682006 0.000000
-14.985286 -13.757039 -0.375912 781 0.731346 0.682006 0.000000
-14.985862 -13.757565 -0.369676 799 0.731346 0.682006 0.000000
-14.986158 -13.757847 -0.363433 799 0.731346 0.682006 0.000000
-14.986559 -13.758207 -0.357199 801 0.731346 0.682006 0.000000
-14.986799 -13.758430 -0.350957 801 0.731346 0.682006 0.000000
-14.987098 -13.758711 -0.344714 801 0.731346 0.682006 0.000000
-14.986089 -13.757790 -0.338443 793 0.731346 0.682006 0.000000
-14.984982 -13.756765 -0.332163 747 0.731346 0.682006 0.000000
-14.986300 -13.757982 -0.325941 781 0.731346 0.682006 0.000000
-14.986046 -13.757749 -0.319693 781 0.731346 0.682006 0.000000
-14.985955 -13.757669 -0.313444 795 0.731346 0.682006 0.000000
-14.986895 -13.758523 -0.307215 773 0.731346 0.682006 0.000000
-14.985719 -13.757443 -0.300936 755 0.731346 0.682006 0.000000
-14.985140 -13.756914 -0.294681 763 0.731346 0.682006 0.000000
-14.985629 -13.757371 -0.288436 785 0.731346 0.682006 0.000000
-14.985694 -13.757429 -0.282195 785 0.731346 0.682006 0.000000
-14.985220 -13.756995 -0.275930 791 0.731346 0.682006 0.000000
-14.991252 -13.753870 -0.663555 783 0.731346 0.682006 0.000000
-14.992313 -13.754846 -0.657345 809 0.731346 0.682006 0.000000
-14.991439 -13.754044 -0.651053 799 0.731346 0.682006 0.000000
-14.990343 -13.753038 -0.644753 777 0.731346 0.682006 0.000000
-14.990815 -13.753471 -0.638518 773 0.731346 0.682006 0.000000
-14.991654 -13.754245 -0.632300 761 0.731346 0.682006 0.000000
-14.991313 -13.753929 -0.626034 769 0.731346 0.682006 0.000000
-14.990807 -13.753456 -0.619758 787 0.731346 0.682006 0.000000
-14.991167 -13.753800 -0.613515 805 0.731346 0.682006 0.000000
-14.990770 -13.753428 -0.607248 795 0.731346 0.682006 0.000000
-14.992142 -13.754687 -0.601045 793 0.731346 0.682006 0.000000
-14.992758 -13.755259 -0.594819 783 0.731346 0.682006 0.000000
-14.992139 -13.754684 -0.588545 803 0.731346 0.682006 0.000000
-14.992380 -13.754908 -0.582293 795 0.731346 0.682006 0.000000
-14.991323 -13.753948 -0.576002 789 0.731346 0.682006 0.000000
-14.990919 -13.753570 -0.569736 787 0.731346 0.682006 0.000000
-14.990930 -13.753584 -0.563486 795 0.731346 0.682006 0.000000
-14.990846 -13.753510 -0.557226 793 0.731346 0.682006 0.000000
-14.991348 -13.753966 -0.550991 793 0.731346 0.682006 0.000000
-14.992163 -13.754721 -0.544774 775 0.731346 0.682006 0.000000
-14.992451 -13.754981 -0.538531 803 0.731346 0.682006 0.000000
-14.991124 -13.753769 -0.532223 799 0.731346 0.682006 0.000000
-14.990369 -13.753075 -0.525950 797 0.731346 0.682006 0.000000
-14.989902 -13.752646 -0.519684 815 0.731346 0.682006 0.000000
-14.989967 -13.752705 -0.513433 797 0.731346 0.682006 0.000000
-14.992071 -13.754635 -0.507254 791 0.731346 0.682006 0.000000
-14.993915 -13.756332 -0.501066 811 0.731346 0.682006 0.000000
-14.993216 -13.755695 -0.494783 803 0.731346 0.682006 0.000000
-14.991706 -13.754312 -0.488487 807 0.731346 0.682006 0.000000
-14.991389 -13.754016 -0.482219 795 0.731346 0.682006 0.000000
-14.992308 -13.754865 -0.476001 801 0.731346 0.682006 0.000000
-14.991656 -13.754266 -0.469727 801 0.731346 0.682006 0.000000
-14.991435 -13.754058 -0.463469 843 0.731346 0.682006 0.000000
-14.990786 -13.753471 -0.457204 815 0.731346 0.682006 0.000000
-14.989054 -13.751887 -0.450900 801 0.731346 0.682006 0.000000
-14.990337 -13.753065 -0.444688 803 0.731346 0.682006 0.000000
-14.991302 -13.753952 -0.438459 797 0.731346 0.682006 0.000000
-14.991081 -13.753743 -0.432211 799 0.731346 0.682006 0.000000
-14.990582 -13.753290 -0.425945 807 0.731346 0.682006 0.000000
-14.989550 -13.752337 -0.419665 797 0.731346 0.682006 0.000000
-14.989854 -13.752623 -0.413422 791 0.731346 0.682006 0.000000
-14.990541 -13.753250 -0.407185 799 0.731346 0.682006 0.000000
-14.992080 -13.754669 -0.400981 803 0.731346 0.682006 0.000000
-14.992766 -13.755297 -0.394744 811 0.731346 0.682006 0.000000
-14.990907 -13.753597 -0.388452 799 0.731346 0.682006 0.000000
-14.989547 -13.752346 -0.382164 781 0.731346 0.682006 0.000000
-14.989359 -13.752177 -0.375916 793 0.731346 0.682006 0.000000
-14.990843 -13.753539 -0.369702 785 0.731346 0.682006 0.000000
-14.991202 -13.753870 -0.363458 787 0.731346 0.682006 0.000000
-14.990472 -13.753194 -0.357195 793 0.731346 0.682006 0.000000
-14.990499 -13.753222 -0.350944 777 0.731346 0.682006 0.000000
-14.989178 -13.752014 -0.344667 761 0.731346 0.682006 0.000000
-14.988282 -13.751195 -0.338395 767 0.731346 0.682006 0.000000
-14.989055 -13.751904 -0.332157 771 0.731346 0.682006 0.000000
-14.989943 -13.752715 -0.325929 771 0.731346 0.682006 0.000000
-14.989902 -13.752678 -0.319679 775 0.731346 0.682006 0.000000
-14.988944 -13.751808 -0.313418 761 0.731346 0.682006 0.000000
-14.989614 -13.752422 -0.307182 787 0.731346 0.682006 0.000000
-14.990756 -13.753474 -0.300951 757 0.731346 0.682006 0.000000
-14.990823 -13.753532 -0.294710 773 0.731346 0.682006 0.000000
-14.990194 -13.752952 -0.288446 779 0.731346 0.682006 0.000000
-14.989982 -13.752764 -0.282198 779 0.731346 0.682006 0.000000
-14.989722 -13.752525 -0.275940 781 0.731346 0.682006 0.000000
-14.996552 -13.750134 -0.663598 767 0.731346 0.682006 0.000000
-14.995256 -13.748946 -0.657290 765 0.731346 0.682006 0.000000
-14.995457 -13.749125 -0.651038 779 0.731346 0.682006 0.000000
-14.996575 -13.750158 -0.644837 787 0.731346 0.682006 0.000000
-14.996233 -13.749843 -0.638570 791 0.731346 0.682006 0.000000
-14.995935 -13.749574 -0.632303 783 0.731346 0.682006 0.000000
-14.996134 -13.749750 -0.626051 771 0.731346 0.682006 0.000000
-14.996495 -13.750081 -0.619817 775 0.731346 0.682006 0.000000
-14.995613 -13.749273 -0.613525 777 0.731346 0.682006 0.000000
-14.994884 -13.748610 -0.607242 769 0.731346 0.682006 0.000000
-14.995347 -13.749036 -0.601007 789 0.731346 0.682006 0.000000
-14.996886 -13.750441 -0.594813 801 0.731346 0.682006 0.000000
-14.997391 -13.750911 -0.588578 775 0.731346 0.682006 0.000000
-14.997361 -13.750880 -0.582328 779 0.731346 0.682006 0.000000
-14.997164 -13.750705 -0.576070 791 0.731346 0.682006 0.000000
-14.996648 -13.750225 -0.569795 799 0.731346 0.682006 0.000000
-14.996181 -13.749810 -0.563519 775 0.731346 0.682006 0.000000
-14.996041 -13.749680 -0.557260 785 0.731346 0.682006 0.000000
-14.995628 -13.749294 -0.550994 771 0.731346 0.682006 0.000000
-14.996021 -13.749663 -0.544760 795 0.731346 0.682006 0.000000
-14.997543 -13.751057 -0.538556 807 0.731346 0.682006 0.000000
-14.997778 -13.751273 -0.532313 805 0.731346 0.682006 0.000000
-14.995837 -13.749497 -0.525991 791 0.731346 0.682006 0.000000
-14.994994 -13.748720 -0.519709 797 0.731346 0.682006 0.000000
-14.995699 -13.749375 -0.513482 785 0.731346 0.682006 0.000000
-14.996144 -13.749773 -0.507248 801 0.731346 0.682006 0.000000
-14.995496 -13.749188 -0.500974 787 0.731346 0.682006 0.000000
-14.994750 -13.748500 -0.494700 783 0.731346 0.682006 0.000000
-14.993780 -13.747609 -0.488419 765 0.731346 0.682006 0.000000
-14.993783 -13.747618 -0.482169 771 0.731346 0.682006 0.000000
-14.995288 -13.748998 -0.475965 789 0.731346 0.682006 0.000000
-14.995236 -13.748949 -0.469705 793 0.731346 0.682006 0.000000
-14.995397 -13.749095 -0.463464 805 0.731346 0.682006 0.000000
-14.995822 -13.749489 -0.457230 783 0.731346 0.682006 0.000000
-14.995594 -13.749290 -0.450971 793 0.731346 0.682006 0.000000
-14.995372 -13.749081 -0.444713 789 0.731346 0.682006 0.000000
-14.994771 -13.748533 -0.438439 797 0.731346 0.682006 0.000000
-14.994009 -13.747833 -0.432166 773 0.731346 0.682006 0.000000
-14.993947 -13.747778 -0.425916 785 0.731346 0.682006 0.000000
-14.994690 -13.748462 -0.419689 787 0.731346 0.682006 0.000000
-14.994349 -13.748147 -0.413432 773 0.731346 0.682006 0.000000
-14.994552 -13.748339 -0.407180 777 0.731346 0.682006 0.000000
-14.995778 -13.749458 -0.400969 787 0.731346 0.682006 0.000000
-14.995487 -13.749196 -0.394711 803 0.731346 0.682006 0.000000
-14.994167 -13.747989 -0.388423 781 0.731346 0.682006 0.000000
-14.994855 -13.748616 -0.382197 781 0.731346 0.682006 0.000000
-14.995317 -13.749043 -0.375952 755 0.731346 0.682006 0.000000
-14.994215 -13.748032 -0.369682 747 0.731346 0.682006 0.000000
-14.993164 -13.747065 -0.363402 765 0.731346 0.682006 0.000000
-14.994595 -13.748384 -0.357188 779 0.731346 0.682006 0.000000
-14.995327 -13.749048 -0.350962 783 0.731346 0.682006 0.000000
-14.994048 -13.747888 -0.344673 777 0.731346 0.682006 0.000000
-14.994010 -13.747849 -0.338423 777 0.731346 0.682006 0.000000
-14.994244 -13.748067 -0.332181 789 0.731346 0.682006 0.000000
-14.994382 -13.748196 -0.325940 767 0.731346 0.682006 0.000000
-14.994616 -13.748412 -0.319697 767 0.731346 0.682006 0.000000
-14.995389 -13.749122 -0.313460 777 0.731346 0.682006 0.000000
-14.994324 -13.748142 -0.307190 781 0.731346 0.682006 0.000000
-14.992623 -13.746582 -0.300905 731 0.731346 0.682006 0.000000
-14.993430 -13.747331 -0.294678 763 0.731346 0.682006 0.000000
-14.992852 -13.746801 -0.288413 763 0.731346 0.682006 0.000000
-14.993195 -13.747105 -0.282180 775 0.731346 0.682006 0.000000
-14.994869 -13.748643 -0.275954 805 0.731346 0.682006 0.000000
