256
-14.642011 -13.822860 -0.669094 817 -0.378865 0.925452 0.000000
-14.642473 -13.823301 -0.662919 817 -0.378865 0.925452 0.000000
-14.641613 -13.822487 -0.656687 811 -0.378865 0.925452 0.000000
-14.641132 -13.822028 -0.650482 803 -0.378865 0.925452 0.000000
-14.642333 -13.823166 -0.644340 809 -0.378865 0.925452 0.000000
-14.643119 -13.823907 -0.638183 817 -0.378865 0.925452 0.000000
-14.641718 -13.822580 -0.631936 815 -0.378865 0.925452 0.000000
-14.641217 -13.822118 -0.625730 819 -0.378865 0.925452 0.000000
-14.641836 -13.822699 -0.619564 823 -0.378865 0.925452 0.000000
-14.641546 -13.822420 -0.613357 821 -0.378865 0.925452 0.000000
-14.640574 -13.821501 -0.607136 825 -0.378865 0.925452 0.000000
-14.640806 -13.821720 -0.600954 819 -0.378865 0.925452 0.000000
-14.640676 -13.821609 -0.594755 819 -0.378865 0.925452 0.000000
-14.639853 -13.820823 -0.588532 823 -0.378865 0.925452 0.000000
-14.640356 -13.821297 -0.582367 823 -0.378865 0.925452 0.000000
-14.640590 -13.821529 -0.576185 817 -0.378865 0.925452 0.000000
-14.640341 -13.821295 -0.569987 817 -0.378865 0.925452 0.000000
-14.639931 -13.820907 -0.563791 825 -0.378865 0.925452 0.000000
-14.640012 -13.820977 -0.557600 821 -0.378865 0.925452 0.000000
-14.640404 -13.821349 -0.551426 811 -0.378865 0.925452 0.000000
-14.640305 -13.821262 -0.545237 805 -0.378865 0.925452 0.000000
-14.640116 -13.821077 -0.539049 803 -0.378865 0.925452 0.000000
-14.640121 -13.821087 -0.532858 807 -0.378865 0.925452 0.000000
-14.640296 -13.821246 -0.526677 805 -0.378865 0.925452 0.000000
-14.640197 -13.821159 -0.520487 799 -0.378865 0.925452 0.000000
-14.639732 -13.820713 -0.514282 809 -0.378865 0.925452 0.000000
-14.638570 -13.819617 -0.508052 803 -0.378865 0.925452 0.000000
-14.638414 -13.819471 -0.501864 801 -0.378865 0.925452 0.000000
-14.638742 -13.819779 -0.495690 817 -0.378865 0.925452 0.000000
-14.637780 -13.818883 -0.489469 803 -0.378865 0.925452 0.000000
-14.637356 -13.818482 -0.483273 795 -0.378865 0.925452 0.000000
-14.638268 -13.819338 -0.477114 805 -0.378865 0.925452 0.000000
-14.638740 -13.819787 -0.470950 807 -0.378865 0.925452 0.000000
-14.637895 -13.818983 -0.464728 805 -0.378865 0.925452 0.000000
-14.637779 -13.818883 -0.458539 803 -0.378865 0.925452 0.000000
-14.637988 -13.819083 -0.452366 805 -0.378865 0.925452 0.000000
-14.637557 -13.818676 -0.446170 805 -0.378865 0.925452 0.000000
-14.637129 -13.818261 -0.439964 803 -0.378865 0.925452 0.000000
-14.636799 -13.817950 -0.433777 803 -0.378865 0.925452 0.000000
-14.637095 -13.818232 -0.427594 805 -0.378865 0.925452 0.000000
-14.636982 -13.818133 -0.421415 803 -0.378865 0.925452 0.000000
-14.635907 -13.817121 -0.415195 815 -0.378865 0.925452 0.000000
-14.635790 -13.817006 -0.409006 799 -0.378865 0.925452 0.000000
-14.636516 -13.817698 -0.402849 803 -0.378865 0.925452 0.000000
-14.636612 -13.817780 -0.396668 815 -0.378865 0.925452 0.000000
-14.636488 -13.817660 -0.390479 801 -0.378865 0.925452 0.000000
-14.635566 -13.816795 -0.384268 805 -0.378865 0.925452 0.000000
-14.634798 -13.816070 -0.378065 801 -0.378865 0.925452 0.000000
-14.635618 -13.816849 -0.371907 809 -0.378865 0.925452 0.000000
-14.635646 -13.816876 -0.365726 813 -0.378865 0.925452 0.000000
-14.634398 -13.815698 -0.359508 805 -0.378865 0.925452 0.000000
-14.634423 -13.815724 -0.353328 809 -0.378865 0.925452 0.000000
-14.634348 -13.815656 -0.347138 801 -0.378865 0.925452 0.000000
-14.634311 -13.815619 -0.340958 803 -0.378865 0.925452 0.000000
-14.634338 -13.815646 -0.334778 813 -0.378865 0.925452 0.000000
-14.634515 -13.815806 -0.328596 799 -0.378865 0.925452 0.000000
-14.635119 -13.816376 -0.322430 811 -0.378865 0.925452 0.000000
-14.634173 -13.815493 -0.316229 815 -0.378865 0.925452 0.000000
-14.634033 -13.815358 -0.310040 817 -0.378865 0.925452 0.000000
-14.634480 -13.815775 -0.303866 813 -0.378865 0.925452 0.000000
-14.634436 -13.815744 -0.297686 811 -0.378865 0.925452 0.000000
-14.634612 -13.815905 -0.291504 801 -0.378865 0.925452 0.000000
-14.635147 -13.816418 -0.285339 811 -0.378865 0.925452 0.000000
-14.635111 -13.816381 -0.279159 815 -0.378865 0.925452 0.000000
-14.660571 -13.831734 -0.669742 825 -0.378865 0.925452 0.000000
-14.661036 -13.832176 -0.663568 835 -0.378865 0.925452 0.000000
-14.660706 -13.831864 -0.657361 827 -0.378865 0.925452 0.000000
-14.660638 -13.831803 -0.651161 825 -0.378865 0.925452 0.000000
-14.660568 -13.831739 -0.644962 825 -0.378865 0.925452 0.000000
-14.659494 -13.830728 -0.638712 831 -0.378865 0.925452 0.000000
-14.658627 -13.829906 -0.632480 821 -0.378865 0.925452 0.000000
-14.659720 -13.830933 -0.626339 815 -0.378865 0.925452 0.000000
-14.659756 -13.830966 -0.620139 825 -0.378865 0.925452 0.000000
-14.658722 -13.829999 -0.613898 819 -0.378865 0.925452 0.000000
-14.659389 -13.830632 -0.607732 825 -0.378865 0.925452 0.000000
-14.659045 -13.830309 -0.601525 829 -0.378865 0.925452 0.000000
-14.658541 -13.829831 -0.595310 829 -0.378865 0.925452 0.000000
-14.658893 -13.830158 -0.589126 827 -0.378865 0.925452 0.000000
-14.658965 -13.830221 -0.582935 825 -0.378865 0.925452 0.000000
-14.658993 -13.830249 -0.576745 825 -0.378865 0.925452 0.000000
-14.659170 -13.830423 -0.570563 831 -0.378865 0.925452 0.000000
-14.659022 -13.830284 -0.564354 829 -0.378865 0.925452 0.000000
-14.659367 -13.830605 -0.558181 829 -0.378865 0.925452 0.000000
-14.659433 -13.830677 -0.551990 819 -0.378865 0.925452 0.000000
-14.658707 -13.829982 -0.545767 819 -0.378865 0.925452 0.000000
-14.658353 -13.829652 -0.539560 819 -0.378865 0.925452 0.000000
-14.659329 -13.830572 -0.533401 819 -0.378865 0.925452 0.000000
-14.659604 -13.830835 -0.527218 821 -0.378865 0.925452 0.000000
-14.658965 -13.830237 -0.521004 821 -0.378865 0.925452 0.000000
-14.658556 -13.829850 -0.514798 821 -0.378865 0.925452 0.000000
-14.657607 -13.828951 -0.508566 809 -0.378865 0.925452 0.000000
-14.658142 -13.829464 -0.502391 813 -0.378865 0.925452 0.000000
-14.657882 -13.829207 -0.496193 813 -0.378865 0.925452 0.000000
-14.658045 -13.829370 -0.490002 809 -0.378865 0.925452 0.000000
-14.658950 -13.830220 -0.483843 815 -0.378865 0.925452 0.000000
-14.658471 -13.829776 -0.477637 819 -0.378865 0.925452 0.000000
-14.658211 -13.829520 -0.471430 809 -0.378865 0.925452 0.000000
-14.657240 -13.828617 -0.465209 803 -0.378865 0.925452 0.000000
-14.656769 -13.828165 -0.459003 807 -0.378865 0.925452 0.000000
-14.656811 -13.828205 -0.452812 813 -0.378865 0.925452 0.000000
-14.656330 -13.827760 -0.446607 809 -0.378865 0.925452 0.000000
-14.657070 -13.828450 -0.440440 805 -0.378865 0.925452 0.000000
-14.657858 -13.829191 -0.434272 817 -0.378865 0.925452 0.000000
-14.657584 -13.828938 -0.428075 819 -0.378865 0.925452 0.000000
-14.657569 -13.828919 -0.421885 813 -0.378865 0.925452 0.000000
-14.657232 -13.828603 -0.415678 811 -0.378865 0.925452 0.000000
-14.656902 -13.828290 -0.409481 813 -0.378865 0.925452 0.000000
-14.657042 -13.828434 -0.403289 817 -0.378865 0.925452 0.000000
-14.657028 -13.828417 -0.397099 809 -0.378865 0.925452 0.000000
-14.656049 -13.827492 -0.390888 827 -0.378865 0.925452 0.000000
-14.655291 -13.826773 -0.384675 819 -0.378865 0.925452 0.000000
-14.656330 -13.827756 -0.378515 817 -0.378865 0.925452 0.000000
-14.657421 -13.828793 -0.372355 817 -0.378865 0.925452 0.000000
-14.657027 -13.828417 -0.366148 811 -0.378865 0.925452 0.000000
-14.656737 -13.828151 -0.359951 821 -0.378865 0.925452 0.000000
-14.657089 -13.828478 -0.353768 805 -0.378865 0.925452 0.000000
-14.656894 -13.828300 -0.347579 817 -0.378865 0.925452 0.000000
-14.657659 -13.829023 -0.341402 819 -0.378865 0.925452 0.000000
-14.657319 -13.828691 -0.335205 821 -0.378865 0.925452 0.000000
-14.655525 -13.827010 -0.328972 817 -0.378865 0.925452 0.000000
-14.655328 -13.826819 -0.322783 825 -0.378865 0.925452 0.000000
-14.656094 -13.827541 -0.316606 819 -0.378865 0.925452 0.000000
-14.656486 -13.827913 -0.310432 823 -0.378865 0.925452 0.000000
-14.656495 -13.827928 -0.304242 829 -0.378865 0.925452 0.000000
-14.656721 -13.828140 -0.298060 833 -0.378865 0.925452 0.000000
-14.656898 -13.828300 -0.291868 827 -0.378865 0.925452 0.000000
-14.656054 -13.827512 -0.285666 817 -0.378865 0.925452 0.000000
-14.655746 -13.827218 -0.279468 813 -0.378865 0.925452 0.000000
-14.677637 -13.839212 -0.670325 833 -0.378865 0.925452 0.000000
-14.676093 -13.837745 -0.664059 841 -0.378865 0.925452 0.000000
-14.675962 -13.837631 -0.657850 835 -0.378865 0.925452 0.000000
-14.676480 -13.838118 -0.651675 827 -0.378865 0.925452 0.000000
-14.676689 -13.838317 -0.645483 825 -0.378865 0.925452 0.000000
-14.676835 -13.838452 -0.639282 825 -0.378865 0.925452 0.000000
-14.676752 -13.838378 -0.633082 827 -0.378865 0.925452 0.000000
-14.677008 -13.838615 -0.626890 825 -0.378865 0.925452 0.000000
-14.676932 -13.838547 -0.620690 823 -0.378865 0.925452 0.000000
-14.676427 -13.838070 -0.614465 831 -0.378865 0.925452 0.000000
-14.676200 -13.837852 -0.608257 831 -0.378865 0.925452 0.000000
-14.675744 -13.837427 -0.602041 823 -0.378865 0.925452 0.000000
-14.675501 -13.837199 -0.595823 821 -0.378865 0.925452 0.000000
-14.677176 -13.838783 -0.589697 819 -0.378865 0.925452 0.000000
-14.676885 -13.838503 -0.583480 823 -0.378865 0.925452 0.000000
-14.675042 -13.836770 -0.577207 821 -0.378865 0.925452 0.000000
-14.674482 -13.836234 -0.570992 813 -0.378865 0.925452 0.000000
-14.674723 -13.836458 -0.564800 817 -0.378865 0.925452 0.000000
-14.674631 -13.836378 -0.558600 833 -0.378865 0.925452 0.000000
-14.675442 -13.837138 -0.552433 825 -0.378865 0.925452 0.000000
-14.676793 -13.838423 -0.546280 831 -0.378865 0.925452 0.000000
-14.676224 -13.837881 -0.540065 819 -0.378865 0.925452 0.000000
-14.676237 -13.837896 -0.533865 817 -0.378865 0.925452 0.000000
-14.675978 -13.837654 -0.527657 817 -0.378865 0.925452 0.000000
-14.674816 -13.836559 -0.521418 815 -0.378865 0.925452 0.000000
-14.675041 -13.836770 -0.515226 819 -0.378865 0.925452 0.000000
-14.674996 -13.836728 -0.509026 809 -0.378865 0.925452 0.000000
-14.673985 -13.835778 -0.502795 821 -0.378865 0.925452 0.000000
-14.674211 -13.835991 -0.496603 817 -0.378865 0.925452 0.000000
-14.674641 -13.836394 -0.490419 817 -0.378865 0.925452 0.000000
-14.674479 -13.836243 -0.484220 825 -0.378865 0.925452 0.000000
-14.673371 -13.835191 -0.477980 823 -0.378865 0.925452 0.000000
-14.673255 -13.835090 -0.471781 817 -0.378865 0.925452 0.000000
-14.673735 -13.835545 -0.465597 817 -0.378865 0.925452 0.000000
-14.673839 -13.835634 -0.459406 817 -0.378865 0.925452 0.000000
-14.673359 -13.835189 -0.453200 813 -0.378865 0.925452 0.000000
-14.673244 -13.835076 -0.447001 809 -0.378865 0.925452 0.000000
-14.673761 -13.835577 -0.440816 807 -0.378865 0.925452 0.000000
-14.672798 -13.834665 -0.434595 807 -0.378865 0.925452 0.000000
-14.672902 -13.834755 -0.428394 817 -0.378865 0.925452 0.000000
-14.673098 -13.834943 -0.422212 807 -0.378865 0.925452 0.000000
-14.673243 -13.835077 -0.416020 813 -0.378865 0.925452 0.000000
-14.673182 -13.835022 -0.409820 807 -0.378865 0.925452 0.000000
-14.672575 -13.834449 -0.403606 813 -0.378865 0.925452 0.000000
-14.673086 -13.834942 -0.397421 813 -0.378865 0.925452 0.000000
-14.673293 -13.835127 -0.391229 815 -0.378865 0.925452 0.000000
-14.673218 -13.835058 -0.385040 809 -0.378865 0.925452 0.000000
-14.673356 -13.835188 -0.378848 813 -0.378865 0.925452 0.000000
-14.673161 -13.835011 -0.372640 811 -0.378865 0.925452 0.000000
-14.672665 -13.834540 -0.366434 813 -0.378865 0.925452 0.000000
-14.672748 -13.834626 -0.360243 815 -0.378865 0.925452 0.000000
-14.672559 -13.834440 -0.354045 809 -0.378865 0.925452 0.000000
-14.671841 -13.833766 -0.347832 803 -0.378865 0.925452 0.000000
-14.672392 -13.834291 -0.341646 809 -0.378865 0.925452 0.000000
-14.672948 -13.834808 -0.335471 815 -0.378865 0.925452 0.000000
-14.673499 -13.835334 -0.329286 815 -0.378865 0.925452 0.000000
-14.673731 -13.835551 -0.323093 825 -0.378865 0.925452 0.000000
-14.673164 -13.835011 -0.316888 815 -0.378865 0.925452 0.000000
-14.673230 -13.835083 -0.310698 821 -0.378865 0.925452 0.000000
-14.673043 -13.834900 -0.304499 835 -0.378865 0.925452 0.000000
-14.673204 -13.835060 -0.298308 827 -0.378865 0.925452 0.000000
-14.673430 -13.835273 -0.292115 827 -0.378865 0.925452 0.000000
-14.672331 -13.834227 -0.285896 831 -0.378865 0.925452 0.000000
-14.672128 -13.834044 -0.279697 823 -0.378865 0.925452 0.000000
-14.694644 -13.846425 -0.670909 841 -0.378865 0.925452 0.000000
-14.694101 -13.845917 -0.664674 827 -0.378865 0.925452 0.000000
-14.694620 -13.846403 -0.658489 827 -0.378865 0.925452 0.000000
-14.694973 -13.846744 -0.652305 819 -0.378865 0.925452 0.000000
-14.694651 -13.846439 -0.646078 823 -0.378865 0.925452 0.000000
-14.694526 -13.846318 -0.639869 823 -0.378865 0.925452 0.000000
-14.694403 -13.846199 -0.633650 827 -0.378865 0.925452 0.000000
-14.693905 -13.845727 -0.627425 831 -0.378865 0.925452 0.000000
-14.693354 -13.845213 -0.621200 831 -0.378865 0.925452 0.000000
-14.693539 -13.845392 -0.614998 825 -0.378865 0.925452 0.000000
-14.693304 -13.845170 -0.608780 821 -0.378865 0.925452 0.000000
-14.693601 -13.845452 -0.602587 821 -0.378865 0.925452 0.000000
-14.693945 -13.845773 -0.596404 825 -0.378865 0.925452 0.000000
-14.694295 -13.846099 -0.590210 809 -0.378865 0.925452 0.000000
-14.694584 -13.846375 -0.584017 831 -0.378865 0.925452 0.000000
-14.694017 -13.845847 -0.577783 831 -0.378865 0.925452 0.000000
-14.692871 -13.844764 -0.571533 819 -0.378865 0.925452 0.000000
-14.692779 -13.844683 -0.565324 813 -0.378865 0.925452 0.000000
-14.693122 -13.845002 -0.559141 819 -0.378865 0.925452 0.000000
-14.693306 -13.845169 -0.552939 827 -0.378865 0.925452 0.000000
-14.693913 -13.845739 -0.546753 819 -0.378865 0.925452 0.000000
-14.693702 -13.845550 -0.540545 821 -0.378865 0.925452 0.000000
-14.692175 -13.844109 -0.534289 817 -0.378865 0.925452 0.000000
-14.691172 -13.843166 -0.528048 809 -0.378865 0.925452 0.000000
-14.691555 -13.843531 -0.521854 813 -0.378865 0.925452 0.000000
-14.692578 -13.844488 -0.515685 825 -0.378865 0.925452 0.000000
-14.693176 -13.845051 -0.509509 807 -0.378865 0.925452 0.000000
-14.693021 -13.844906 -0.503300 821 -0.378865 0.925452 0.000000
-14.691805 -13.843766 -0.497051 815 -0.378865 0.925452 0.000000
-14.692553 -13.844462 -0.490874 811 -0.378865 0.925452 0.000000
-14.693348 -13.845223 -0.484697 813 -0.378865 0.925452 0.000000
-14.692345 -13.844268 -0.478456 837 -0.378865 0.925452 0.000000
-14.691644 -13.843619 -0.472232 839 -0.378865 0.925452 0.000000
-14.691058 -13.843064 -0.466018 819 -0.378865 0.925452 0.000000
-14.690254 -13.842306 -0.459785 803 -0.378865 0.925452 0.000000
-14.691262 -13.843252 -0.453615 819 -0.378865 0.925452 0.000000
-14.691844 -13.843802 -0.447430 813 -0.378865 0.925452 0.000000
-14.691730 -13.843702 -0.441221 807 -0.378865 0.925452 0.000000
-14.691883 -13.843844 -0.435029 811 -0.378865 0.925452 0.000000
-14.691497 -13.843475 -0.428813 811 -0.378865 0.925452 0.000000
-14.691436 -13.843419 -0.422613 803 -0.378865 0.925452 0.000000
-14.691155 -13.843160 -0.416406 811 -0.378865 0.925452 0.000000
-14.691196 -13.843198 -0.410205 807 -0.378865 0.925452 0.000000
-14.691381 -13.843379 -0.404003 811 -0.378865 0.925452 0.000000
-14.691108 -13.843112 -0.397796 815 -0.378865 0.925452 0.000000
-14.691301 -13.843299 -0.391604 815 -0.378865 0.925452 0.000000
-14.690861 -13.842886 -0.385388 813 -0.378865 0.925452 0.000000
-14.691314 -13.843307 -0.379193 809 -0.378865 0.925452 0.000000
-14.691397 -13.843392 -0.373002 801 -0.378865 0.925452 0.000000
-14.690844 -13.842863 -0.366787 815 -0.378865 0.925452 0.000000
-14.690761 -13.842789 -0.360578 811 -0.378865 0.925452 0.000000
-14.691272 -13.843268 -0.354393 809 -0.378865 0.925452 0.000000
-14.691345 -13.843348 -0.348192 819 -0.378865 0.925452 0.000000
-14.690572 -13.842615 -0.341969 819 -0.378865 0.925452 0.000000
-14.690702 -13.842737 -0.335778 811 -0.378865 0.925452 0.000000
-14.690618 -13.842662 -0.329569 817 -0.378865 0.925452 0.000000
-14.689997 -13.842077 -0.323364 819 -0.378865 0.925452 0.000000
-14.690338 -13.842398 -0.317171 817 -0.378865 0.925452 0.000000
-14.689659 -13.841753 -0.310957 805 -0.378865 0.925452 0.000000
-14.689728 -13.841826 -0.304756 819 -0.378865 0.925452 0.000000
-14.689849 -13.841942 -0.298555 827 -0.378865 0.925452 0.000000
-14.689273 -13.841395 -0.292350 821 -0.378865 0.925452 0.000000
-14.690243 -13.842309 -0.286161 817 -0.378865 0.925452 0.000000
-14.690308 -13.842366 -0.279970 815 -0.378865 0.925452 0.000000
