126
-14.794740 -13.707870 -0.669378 579 -0.533167 0.846010 0.000000
-14.794609 -13.707758 -0.663169 577 -0.533167 0.846010 0.000000
-14.794442 -13.707593 -0.656960 585 -0.533167 0.846010 0.000000
-14.793895 -13.707088 -0.650735 573 -0.533167 0.846010 0.000000
-14.793987 -13.707181 -0.644544 581 -0.533167 0.846010 0.000000
-14.793806 -13.707017 -0.638336 559 -0.533167 0.846010 0.000000
-14.794064 -13.707252 -0.632143 569 -0.533167 0.846010 0.000000
-14.793180 -13.706430 -0.625911 567 -0.533167 0.846010 0.000000
-14.791979 -13.705317 -0.619662 575 -0.533167 0.846010 0.000000
-14.792381 -13.705693 -0.613478 557 -0.533167 0.846010 0.000000
-14.792366 -13.705674 -0.607278 563 -0.533167 0.846010 0.000000
-14.791485 -13.704866 -0.601046 543 -0.533167 0.846010 0.000000
-14.791455 -13.704835 -0.594847 539 -0.533167 0.846010 0.000000
-14.791961 -13.705305 -0.588662 545 -0.533167 0.846010 0.000000
-14.792953 -13.706224 -0.582502 555 -0.533167 0.846010 0.000000
-14.792708 -13.705998 -0.576294 561 -0.533167 0.846010 0.000000
-14.791921 -13.705265 -0.570072 561 -0.533167 0.846010 0.000000
-14.792696 -13.705988 -0.563904 557 -0.533167 0.846010 0.000000
-14.792444 -13.705755 -0.557696 551 -0.533167 0.846010 0.000000
-14.791978 -13.705327 -0.551481 551 -0.533167 0.846010 0.000000
-14.792738 -13.706038 -0.545313 551 -0.533167 0.846010 0.000000
-14.793674 -13.706899 -0.539144 553 -0.533167 0.846010 0.000000
-14.793581 -13.706819 -0.532945 551 -0.533167 0.846010 0.000000
-14.793639 -13.706871 -0.526754 543 -0.533167 0.846010 0.000000
-14.793331 -13.706581 -0.520537 545 -0.533167 0.846010 0.000000
-14.792216 -13.705550 -0.514307 555 -0.533167 0.846010 0.000000
-14.791948 -13.705304 -0.508100 551 -0.533167 0.846010 0.000000
-14.792014 -13.705362 -0.501909 555 -0.533167 0.846010 0.000000
-14.791755 -13.705125 -0.495701 571 -0.533167 0.846010 0.000000
-14.790361 -13.703835 -0.489454 565 -0.533167 0.846010 0.000000
-14.790579 -13.704038 -0.483272 561 -0.533167 0.846010 0.000000
-14.790852 -13.704286 -0.477079 563 -0.533167 0.846010 0.000000
-14.790147 -13.703643 -0.470866 573 -0.533167 0.846010 0.000000
-14.789934 -13.703441 -0.464658 553 -0.533167 0.846010 0.000000
-14.789609 -13.703138 -0.458461 551 -0.533167 0.846010 0.000000
-14.790458 -13.703931 -0.452292 541 -0.533167 0.846010 0.000000
-14.790396 -13.703876 -0.446093 551 -0.533167 0.846010 0.000000
-14.789911 -13.703421 -0.439877 555 -0.533167 0.846010 0.000000
-14.790065 -13.703561 -0.433696 537 -0.533167 0.846010 0.000000
-14.789136 -13.702703 -0.427474 545 -0.533167 0.846010 0.000000
-14.788158 -13.701806 -0.421243 547 -0.533167 0.846010 0.000000
-14.787872 -13.701534 -0.415046 545 -0.533167 0.846010 0.000000
-14.788403 -13.702024 -0.408871 559 -0.533167 0.846010 0.000000
-14.788916 -13.702498 -0.402686 545 -0.533167 0.846010 0.000000
-14.789228 -13.702791 -0.396503 543 -0.533167 0.846010 0.000000
-14.789415 -13.702970 -0.390311 545 -0.533167 0.846010 0.000000
-14.789130 -13.702699 -0.384113 537 -0.533167 0.846010 0.000000
-14.788513 -13.702139 -0.377899 531 -0.533167 0.846010 0.000000
-14.788922 -13.702519 -0.371715 543 -0.533167 0.846010 0.000000
-14.787775 -13.701450 -0.365495 535 -0.533167 0.846010 0.000000
-14.786406 -13.700180 -0.359268 539 -0.533167 0.846010 0.000000
-14.785732 -13.699562 -0.353064 531 -0.533167 0.846010 0.000000
-14.787481 -13.701183 -0.346908 517 -0.533167 0.846010 0.000000
-14.787492 -13.701198 -0.340717 535 -0.533167 0.846010 0.000000
-14.785054 -13.698940 -0.334470 543 -0.533167 0.846010 0.000000
-14.786628 -13.700397 -0.328315 539 -0.533167 0.846010 0.000000
-14.788417 -13.702049 -0.322158 553 -0.533167 0.846010 0.000000
-14.787367 -13.701082 -0.315948 553 -0.533167 0.846010 0.000000
-14.786523 -13.700292 -0.309736 559 -0.533167 0.846010 0.000000
-14.787181 -13.700908 -0.303560 561 -0.533167 0.846010 0.000000
-14.788380 -13.702017 -0.297388 561 -0.533167 0.846010 0.000000
-14.788606 -13.702227 -0.291206 567 -0.533167 0.846010 0.000000
-14.787005 -13.700747 -0.284981 553 -0.533167 0.846010 0.000000
-14.823842 -13.725919 -0.670489 545 -0.533167 0.846010 0.000000
-14.823519 -13.725616 -0.664272 545 -0.533167 0.846010 0.000000
-14.824574 -13.726598 -0.658102 545 -0.533167 0.846010 0.000000
-14.823867 -13.725942 -0.651858 535 -0.533167 0.846010 0.000000
-14.823255 -13.725372 -0.645624 547 -0.533167 0.846010 0.000000
-14.823992 -13.726064 -0.639447 555 -0.533167 0.846010 0.000000
-14.822577 -13.724757 -0.633180 545 -0.533167 0.846010 0.000000
-14.822611 -13.724789 -0.626969 543 -0.533167 0.846010 0.000000
-14.823561 -13.725663 -0.620800 561 -0.533167 0.846010 0.000000
-14.823484 -13.725595 -0.614581 559 -0.533167 0.846010 0.000000
-14.822546 -13.724730 -0.608339 551 -0.533167 0.846010 0.000000
-14.821935 -13.724161 -0.602105 557 -0.533167 0.846010 0.000000
-14.822927 -13.725080 -0.595936 569 -0.533167 0.846010 0.000000
-14.823119 -13.725252 -0.589734 561 -0.533167 0.846010 0.000000
-14.823138 -13.725273 -0.583523 561 -0.533167 0.846010 0.000000
-14.821817 -13.724052 -0.577265 565 -0.533167 0.846010 0.000000
-14.820177 -13.722542 -0.570991 553 -0.533167 0.846010 0.000000
-14.820890 -13.723202 -0.564814 559 -0.533167 0.846010 0.000000
-14.821132 -13.723424 -0.558611 565 -0.533167 0.846010 0.000000
-14.820184 -13.722538 -0.552370 569 -0.533167 0.846010 0.000000
-14.820417 -13.722755 -0.546168 563 -0.533167 0.846010 0.000000
-14.821018 -13.723313 -0.539982 577 -0.533167 0.846010 0.000000
-14.821628 -13.723878 -0.533796 555 -0.533167 0.846010 0.000000
-14.822331 -13.724531 -0.527619 557 -0.533167 0.846010 0.000000
-14.822446 -13.724640 -0.521408 569 -0.533167 0.846010 0.000000
-14.821493 -13.723763 -0.515167 563 -0.533167 0.846010 0.000000
-14.821662 -13.723915 -0.508965 555 -0.533167 0.846010 0.000000
-14.821075 -13.723378 -0.502741 557 -0.533167 0.846010 0.000000
-14.820863 -13.723177 -0.496532 549 -0.533167 0.846010 0.000000
-14.821249 -13.723540 -0.490339 537 -0.533167 0.846010 0.000000
-14.820598 -13.722940 -0.484105 527 -0.533167 0.846010 0.000000
-14.819378 -13.721801 -0.477866 537 -0.533167 0.846010 0.000000
-14.820116 -13.722494 -0.471679 531 -0.533167 0.846010 0.000000
-14.821242 -13.723533 -0.465508 513 -0.533167 0.846010 0.000000
-14.820224 -13.722590 -0.459268 505 -0.533167 0.846010 0.000000
-14.819956 -13.722344 -0.453060 523 -0.533167 0.846010 0.000000
-14.819777 -13.722183 -0.446841 519 -0.533167 0.846010 0.000000
-14.819237 -13.721684 -0.440626 523 -0.533167 0.846010 0.000000
-14.819605 -13.722020 -0.434433 509 -0.533167 0.846010 0.000000
-14.820662 -13.723003 -0.428253 499 -0.533167 0.846010 0.000000
-14.820823 -13.723148 -0.422051 495 -0.533167 0.846010 0.000000
-14.821114 -13.723423 -0.415858 493 -0.533167 0.846010 0.000000
-14.819927 -13.722323 -0.409619 501 -0.533167 0.846010 0.000000
-14.818686 -13.721166 -0.403381 497 -0.533167 0.846010 0.000000
-14.819414 -13.721851 -0.397194 489 -0.533167 0.846010 0.000000
-14.818913 -13.721383 -0.390978 501 -0.533167 0.846010 0.000000
-14.817449 -13.720024 -0.384732 493 -0.533167 0.846010 0.000000
-14.817906 -13.720456 -0.378537 495 -0.533167 0.846010 0.000000
-14.820453 -13.722811 -0.372403 499 -0.533167 0.846010 0.000000
-14.820112 -13.722496 -0.366186 501 -0.533167 0.846010 0.000000
-14.820083 -13.722466 -0.359986 497 -0.533167 0.846010 0.000000
-14.819416 -13.721854 -0.353763 515 -0.533167 0.846010 0.000000
-14.818096 -13.720634 -0.347525 505 -0.533167 0.846010 0.000000
-14.818337 -13.720857 -0.341332 503 -0.533167 0.846010 0.000000
-14.818196 -13.720725 -0.335124 507 -0.533167 0.846010 0.000000
-14.817473 -13.720055 -0.328900 521 -0.533167 0.846010 0.000000
-14.816846 -13.719475 -0.322686 531 -0.533167 0.846010 0.000000
-14.818044 -13.720583 -0.316505 547 -0.533167 0.846010 0.000000
-14.818173 -13.720704 -0.310313 551 -0.533167 0.846010 0.000000
-14.817852 -13.720416 -0.304096 569 -0.533167 0.846010 0.000000
-14.817551 -13.720132 -0.297889 573 -0.533167 0.846010 0.000000
-14.816382 -13.719059 -0.291659 573 -0.533167 0.846010 0.000000
-14.816814 -13.719459 -0.285475 569 -0.533167 0.846010 0.000000
