126
-14.975063 -13.822175 -0.670087 297 -0.533167 0.846010 0.000000
-14.972586 -13.819885 -0.663720 307 -0.533167 0.846010 0.000000
-14.972829 -13.820121 -0.657468 311 -0.533167 0.846010 0.000000
-14.974976 -13.822095 -0.651298 299 -0.533167 0.846010 0.000000
-14.974634 -13.821779 -0.645011 271 -0.533167 0.846010 0.000000
-14.974080 -13.821269 -0.638726 291 -0.533167 0.846010 0.000000
-14.974495 -13.821655 -0.632482 305 -0.533167 0.846010 0.000000
-14.974155 -13.821341 -0.626205 293 -0.533167 0.846010 0.000000
-14.973385 -13.820633 -0.619902 273 -0.533167 0.846010 0.000000
-14.974056 -13.821247 -0.613665 275 -0.533167 0.846010 0.000000
-14.973174 -13.820438 -0.607374 271 -0.533167 0.846010 0.000000
-14.973042 -13.820313 -0.601105 269 -0.533167 0.846010 0.000000
-14.973497 -13.820731 -0.594860 261 -0.533167 0.846010 0.000000
-14.972281 -13.819620 -0.588541 279 -0.533167 0.846010 0.000000
-14.971670 -13.819051 -0.582257 263 -0.533167 0.846010 0.000000
-14.972126 -13.819469 -0.576013 247 -0.533167 0.846010 0.000000
-14.974927 -13.822064 -0.569856 277 -0.533167 0.846010 0.000000
-14.975488 -13.822578 -0.563621 287 -0.533167 0.846010 0.000000
-14.974972 -13.822098 -0.557336 289 -0.533167 0.846010 0.000000
-14.974288 -13.821473 -0.551052 283 -0.533167 0.846010 0.000000
-14.972591 -13.819905 -0.544728 281 -0.533167 0.846010 0.000000
-14.973998 -13.821203 -0.538514 285 -0.533167 0.846010 0.000000
-14.974717 -13.821868 -0.532277 269 -0.533167 0.846010 0.000000
-14.973597 -13.820832 -0.525968 279 -0.533167 0.846010 0.000000
-14.971995 -13.819352 -0.519653 281 -0.533167 0.846010 0.000000
-14.971624 -13.819013 -0.513386 301 -0.533167 0.846010 0.000000
-14.973300 -13.820563 -0.507180 289 -0.533167 0.846010 0.000000
-14.973580 -13.820816 -0.500927 281 -0.533167 0.846010 0.000000
-14.973576 -13.820818 -0.494667 303 -0.533167 0.846010 0.000000
-14.972024 -13.819390 -0.488351 295 -0.533167 0.846010 0.000000
-14.971109 -13.818542 -0.482060 295 -0.533167 0.846010 0.000000
-14.972507 -13.819835 -0.475847 285 -0.533167 0.846010 0.000000
-14.973585 -13.820823 -0.469616 295 -0.533167 0.846010 0.000000
-14.971539 -13.818938 -0.463295 299 -0.533167 0.846010 0.000000
-14.970025 -13.817540 -0.456989 275 -0.533167 0.846010 0.000000
-14.970340 -13.817833 -0.450736 281 -0.533167 0.846010 0.000000
-14.970388 -13.817878 -0.444476 277 -0.533167 0.846010 0.000000
-14.972050 -13.819417 -0.438270 261 -0.533167 0.846010 0.000000
-14.971288 -13.818716 -0.431987 269 -0.533167 0.846010 0.000000
-14.972085 -13.819443 -0.425749 261 -0.533167 0.846010 0.000000
-14.972401 -13.819736 -0.419496 283 -0.533167 0.846010 0.000000
-14.970498 -13.817991 -0.413184 261 -0.533167 0.846010 0.000000
-14.969569 -13.817133 -0.406902 261 -0.533167 0.846010 0.000000
-14.970144 -13.817658 -0.400657 233 -0.533167 0.846010 0.000000
-14.970123 -13.817647 -0.394397 245 -0.533167 0.846010 0.000000
-14.969941 -13.817470 -0.388139 235 -0.533167 0.846010 0.000000
-14.969921 -13.817460 -0.381879 235 -0.533167 0.846010 0.000000
-14.970058 -13.817587 -0.375627 211 -0.533167 0.846010 0.000000
-14.969559 -13.817120 -0.369352 203 -0.533167 0.846010 0.000000
-14.968237 -13.815899 -0.363064 199 -0.533167 0.846010 0.000000
-14.968909 -13.816527 -0.356817 199 -0.533167 0.846010 0.000000
-14.967860 -13.815561 -0.350537 221 -0.533167 0.846010 0.000000
-14.970309 -13.817814 -0.344334 205 -0.533167 0.846010 0.000000
-14.971778 -13.819175 -0.338110 205 -0.533167 0.846010 0.000000
-14.970402 -13.817911 -0.331823 191 -0.533167 0.846010 0.000000
-14.970636 -13.818128 -0.325570 161 -0.533167 0.846010 0.000000
-14.970488 -13.817989 -0.319312 157 -0.533167 0.846010 0.000000
-14.969437 -13.817022 -0.313031 175 -0.533167 0.846010 0.000000
-14.969288 -13.816884 -0.306773 203 -0.533167 0.846010 0.000000
-14.971180 -13.818632 -0.300555 229 -0.533167 0.846010 0.000000
-14.970989 -13.818447 -0.294286 217 -0.533167 0.846010 0.000000
-14.970292 -13.817811 -0.288013 211 -0.533167 0.846010 0.000000
-14.970891 -13.818368 -0.281767 199 -0.533167 0.846010 0.000000
-15.001789 -13.838519 -0.671108 243 -0.533167 0.846010 0.000000
-15.003283 -13.839899 -0.664894 261 -0.533167 0.846010 0.000000
-15.003111 -13.839743 -0.658616 241 -0.533167 0.846010 0.000000
-15.001646 -13.838395 -0.652279 237 -0.533167 0.846010 0.000000
-15.001257 -13.838030 -0.645983 231 -0.533167 0.846010 0.000000
-15.000806 -13.837613 -0.639687 249 -0.533167 0.846010 0.000000
-15.002888 -13.839537 -0.633507 245 -0.533167 0.846010 0.000000
-15.003082 -13.839722 -0.627235 233 -0.533167 0.846010 0.000000
-15.001340 -13.838117 -0.620891 219 -0.533167 0.846010 0.000000
-15.001213 -13.837996 -0.614612 211 -0.533167 0.846010 0.000000
-15.000601 -13.837428 -0.608318 215 -0.533167 0.846010 0.000000
-15.001378 -13.838151 -0.602071 233 -0.533167 0.846010 0.000000
-15.000591 -13.837431 -0.595768 233 -0.533167 0.846010 0.000000
-14.998368 -13.835369 -0.589409 235 -0.533167 0.846010 0.000000
-14.999957 -13.836838 -0.583203 229 -0.533167 0.846010 0.000000
-15.002280 -13.838990 -0.577021 243 -0.533167 0.846010 0.000000
-15.002201 -13.838907 -0.570742 243 -0.533167 0.846010 0.000000
-15.001622 -13.838377 -0.564447 239 -0.533167 0.846010 0.000000
-15.001211 -13.838007 -0.558161 241 -0.533167 0.846010 0.000000
-15.001771 -13.838519 -0.551906 255 -0.533167 0.846010 0.000000
-15.001040 -13.837843 -0.545612 241 -0.533167 0.846010 0.000000
-15.000300 -13.837161 -0.539309 235 -0.533167 0.846010 0.000000
-14.999338 -13.836276 -0.533008 221 -0.533167 0.846010 0.000000
-14.998328 -13.835340 -0.526697 241 -0.533167 0.846010 0.000000
-14.999255 -13.836197 -0.520458 253 -0.533167 0.846010 0.000000
-15.000016 -13.836906 -0.514211 255 -0.533167 0.846010 0.000000
-14.999483 -13.836413 -0.507926 243 -0.533167 0.846010 0.000000
-14.999980 -13.836864 -0.501671 267 -0.533167 0.846010 0.000000
-15.001649 -13.838408 -0.495456 257 -0.533167 0.846010 0.000000
-15.001492 -13.838264 -0.489177 269 -0.533167 0.846010 0.000000
-15.000689 -13.837531 -0.482884 269 -0.533167 0.846010 0.000000
-14.998857 -13.835830 -0.476551 275 -0.533167 0.846010 0.000000
-14.999074 -13.836033 -0.470289 249 -0.533167 0.846010 0.000000
-14.999714 -13.836622 -0.464043 237 -0.533167 0.846010 0.000000
-15.001001 -13.837812 -0.457811 239 -0.533167 0.846010 0.000000
-15.000517 -13.837372 -0.451525 233 -0.533167 0.846010 0.000000
-14.999107 -13.836068 -0.445208 227 -0.533167 0.846010 0.000000
-14.999477 -13.836405 -0.438954 219 -0.533167 0.846010 0.000000
-14.998874 -13.835856 -0.432670 219 -0.533167 0.846010 0.000000
-14.999666 -13.836591 -0.426422 235 -0.533167 0.846010 0.000000
-15.000521 -13.837376 -0.420174 245 -0.533167 0.846010 0.000000
-15.001368 -13.838156 -0.413926 243 -0.533167 0.846010 0.000000
-14.999529 -13.836462 -0.407603 239 -0.533167 0.846010 0.000000
-14.998639 -13.835646 -0.401311 239 -0.533167 0.846010 0.000000
-14.998298 -13.835331 -0.395034 239 -0.533167 0.846010 0.000000
-14.998659 -13.835661 -0.388781 209 -0.533167 0.846010 0.000000
-14.999283 -13.836237 -0.382525 205 -0.533167 0.846010 0.000000
-14.998465 -13.835480 -0.376232 203 -0.533167 0.846010 0.000000
-14.998914 -13.835905 -0.369978 199 -0.533167 0.846010 0.000000
-15.000023 -13.836917 -0.363738 177 -0.533167 0.846010 0.000000
-14.998327 -13.835361 -0.357423 153 -0.533167 0.846010 0.000000
-14.997766 -13.834845 -0.351148 171 -0.533167 0.846010 0.000000
-14.997894 -13.834966 -0.344877 179 -0.533167 0.846010 0.000000
-14.997762 -13.834840 -0.338608 155 -0.533167 0.846010 0.000000
-15.000523 -13.837391 -0.332402 135 -0.533167 0.846010 0.000000
-15.001560 -13.838346 -0.326152 135 -0.533167 0.846010 0.000000
-15.000446 -13.837316 -0.319862 157 -0.533167 0.846010 0.000000
-14.999723 -13.836647 -0.313579 153 -0.533167 0.846010 0.000000
-14.999032 -13.836016 -0.307295 165 -0.533167 0.846010 0.000000
-14.997003 -13.834145 -0.300984 145 -0.533167 0.846010 0.000000
-14.997818 -13.834898 -0.294736 167 -0.533167 0.846010 0.000000
-15.000154 -13.837049 -0.288514 185 -0.533167 0.846010 0.000000
-14.999624 -13.836557 -0.282239 179 -0.533167 0.846010 0.000000
