254
-14.960173 -13.956682 -0.673600 59 -0.378865 0.925452 0.000000
-14.961022 -13.957475 -0.667342 77 -0.378865 0.925452 0.000000
-14.960582 -13.957060 -0.661036 67 -0.378865 0.925452 0.000000
-14.962175 -13.958553 -0.654821 63 -0.378865 0.925452 0.000000
-14.960928 -13.957388 -0.648473 45 -0.378865 0.925452 0.000000
-14.957921 -13.954577 -0.642051 35 -0.378865 0.925452 0.000000
-14.959934 -13.956459 -0.635852 31 -0.378865 0.925452 0.000000
-14.962162 -13.958538 -0.629661 25 -0.378865 0.925452 0.000000
-14.963264 -13.959572 -0.623410 27 -0.378865 0.925452 0.000000
-14.962332 -13.958698 -0.617079 41 -0.378865 0.925452 0.000000
-14.958141 -13.954794 -0.610618 41 -0.378865 0.925452 0.000000
-14.958444 -13.955068 -0.604345 35 -0.378865 0.925452 0.000000
-14.959854 -13.956387 -0.598112 35 -0.378865 0.925452 0.000000
-14.961273 -13.957714 -0.591888 49 -0.378865 0.925452 0.000000
-14.962052 -13.958435 -0.585621 63 -0.378865 0.925452 0.000000
-14.960202 -13.956709 -0.579268 61 -0.378865 0.925452 0.000000
-14.956470 -13.953238 -0.572833 65 -0.378865 0.925452 0.000000
-14.955110 -13.951956 -0.566495 57 -0.378865 0.925452 0.000000
-14.956846 -13.953576 -0.560279 67 -0.378865 0.925452 0.000000
-14.958353 -13.954986 -0.554045 51 -0.378865 0.925452 0.000000
-14.958744 -13.955357 -0.547771 55 -0.378865 0.925452 0.000000
-14.958224 -13.954866 -0.541465 53 -0.378865 0.925452 0.000000
-14.959042 -13.955633 -0.535208 45 -0.378865 0.925452 0.000000
-14.959534 -13.956085 -0.528943 43 -0.378865 0.925452 0.000000
-14.957297 -13.954010 -0.522574 41 -0.378865 0.925452 0.000000
-14.958218 -13.954858 -0.516315 69 -0.378865 0.925452 0.000000
-14.957270 -13.953972 -0.510004 81 -0.378865 0.925452 0.000000
-14.956838 -13.953579 -0.503698 85 -0.378865 0.925452 0.000000
-14.959572 -13.956130 -0.497502 83 -0.378865 0.925452 0.000000
-14.960113 -13.956635 -0.491237 103 -0.378865 0.925452 0.000000
-14.961830 -13.958227 -0.485010 85 -0.378865 0.925452 0.000000
-14.961247 -13.957686 -0.478696 87 -0.378865 0.925452 0.000000
-14.956313 -13.953094 -0.472262 85 -0.378865 0.925452 0.000000
-14.955564 -13.952394 -0.465949 87 -0.378865 0.925452 0.000000
-14.956048 -13.952839 -0.459684 101 -0.378865 0.925452 0.000000
-14.954549 -13.951446 -0.453348 67 -0.378865 0.925452 0.000000
-14.958498 -13.955130 -0.447181 91 -0.378865 0.925452 0.000000
-14.962284 -13.958655 -0.441015 89 -0.378865 0.925452 0.000000
-14.959604 -13.956158 -0.434650 87 -0.378865 0.925452 0.000000
-14.958522 -13.955152 -0.428330 97 -0.378865 0.925452 0.000000
-14.956690 -13.953438 -0.421997 87 -0.378865 0.925452 0.000000
-14.956842 -13.953580 -0.415715 57 -0.378865 0.925452 0.000000
-14.957684 -13.954365 -0.409447 59 -0.378865 0.925452 0.000000
-14.955574 -13.952403 -0.403107 67 -0.378865 0.925452 0.000000
-14.954498 -13.951389 -0.396797 83 -0.378865 0.925452 0.000000
-14.955442 -13.952269 -0.390538 75 -0.378865 0.925452 0.000000
-14.955478 -13.952303 -0.384258 51 -0.378865 0.925452 0.000000
-14.954491 -13.951385 -0.377947 43 -0.378865 0.925452 0.000000
-14.956068 -13.952867 -0.371702 57 -0.378865 0.925452 0.000000
-14.957170 -13.953886 -0.365451 53 -0.378865 0.925452 0.000000
-14.957726 -13.954403 -0.359176 49 -0.378865 0.925452 0.000000
-14.957382 -13.954093 -0.352889 28 -0.378865 0.925452 0.000000
-14.955968 -13.952768 -0.346572 45 -0.378865 0.925452 0.000000
-14.957910 -13.954579 -0.340334 49 -0.378865 0.925452 0.000000
-14.958308 -13.954956 -0.334060 55 -0.378865 0.925452 0.000000
-14.958167 -13.954823 -0.327771 53 -0.378865 0.925452 0.000000
-14.957966 -13.954640 -0.321483 63 -0.378865 0.925452 0.000000
-14.954946 -13.951818 -0.315131 51 -0.378865 0.925452 0.000000
-14.953941 -13.950873 -0.308830 45 -0.378865 0.925452 0.000000
-14.955083 -13.951940 -0.302569 51 -0.378865 0.925452 0.000000
-14.955205 -13.952055 -0.296288 47 -0.378865 0.925452 0.000000
-14.954416 -13.951324 -0.289995 13 -0.378865 0.925452 0.000000
-14.956667 -13.953422 -0.283754 0 -0.378865 0.925452 0.000000
-14.959034 -13.955626 -0.277512 0 -0.378865 0.925452 0.000000
-14.976913 -13.963399 -0.674158 107 -0.378865 0.925452 0.000000
-14.975832 -13.962394 -0.667808 79 -0.378865 0.925452 0.000000
-14.976406 -13.962936 -0.661543 79 -0.378865 0.925452 0.000000
-14.976937 -13.963421 -0.655268 67 -0.378865 0.925452 0.000000
-14.979384 -13.965703 -0.649085 55 -0.378865 0.925452 0.000000
-14.980004 -13.966285 -0.642819 57 -0.378865 0.925452 0.000000
-14.975339 -13.961933 -0.636322 45 -0.378865 0.925452 0.000000
-14.977613 -13.964063 -0.630121 49 -0.378865 0.925452 0.000000
-14.975565 -13.962152 -0.623740 39 -0.378865 0.925452 0.000000
-14.971690 -13.958539 -0.617286 28 -0.378865 0.925452 0.000000
-14.975516 -13.962110 -0.611150 41 -0.378865 0.925452 0.000000
-14.977313 -13.963779 -0.604933 35 -0.378865 0.925452 0.000000
-14.977070 -13.963551 -0.598625 27 -0.378865 0.925452 0.000000
-14.976138 -13.962678 -0.592303 55 -0.378865 0.925452 0.000000
-14.977083 -13.963559 -0.586045 33 -0.378865 0.925452 0.000000
-14.976130 -13.962681 -0.579713 49 -0.378865 0.925452 0.000000
-14.974231 -13.960903 -0.573351 65 -0.378865 0.925452 0.000000
-14.975374 -13.961968 -0.567100 59 -0.378865 0.925452 0.000000
-14.976192 -13.962733 -0.560832 89 -0.378865 0.925452 0.000000
-14.975522 -13.962111 -0.554518 79 -0.378865 0.925452 0.000000
-14.975372 -13.961970 -0.548220 71 -0.378865 0.925452 0.000000
-14.974483 -13.961143 -0.541898 73 -0.378865 0.925452 0.000000
-14.973479 -13.960201 -0.535567 89 -0.378865 0.925452 0.000000
-14.976062 -13.962618 -0.529373 59 -0.378865 0.925452 0.000000
-14.976231 -13.962771 -0.523081 59 -0.378865 0.925452 0.000000
-14.975275 -13.961880 -0.516760 89 -0.378865 0.925452 0.000000
-14.976734 -13.963240 -0.510516 87 -0.378865 0.925452 0.000000
-14.977266 -13.963737 -0.504241 81 -0.378865 0.925452 0.000000
-14.975623 -13.962202 -0.497896 97 -0.378865 0.925452 0.000000
-14.975514 -13.962107 -0.491597 89 -0.378865 0.925452 0.000000
-14.975453 -13.962050 -0.485307 121 -0.378865 0.925452 0.000000
-14.975196 -13.961810 -0.479010 127 -0.378865 0.925452 0.000000
-14.976213 -13.962761 -0.472750 123 -0.378865 0.925452 0.000000
-14.975033 -13.961651 -0.466421 89 -0.378865 0.925452 0.000000
-14.974926 -13.961557 -0.460122 115 -0.378865 0.925452 0.000000
-14.974390 -13.961054 -0.453817 97 -0.378865 0.925452 0.000000
-14.974385 -13.961055 -0.447526 95 -0.378865 0.925452 0.000000
-14.973518 -13.960248 -0.441214 101 -0.378865 0.925452 0.000000
-14.972229 -13.959037 -0.434886 85 -0.378865 0.925452 0.000000
-14.973442 -13.960173 -0.428635 85 -0.378865 0.925452 0.000000
-14.975202 -13.961810 -0.422388 57 -0.378865 0.925452 0.000000
-14.976305 -13.962845 -0.416128 61 -0.378865 0.925452 0.000000
-14.974257 -13.960934 -0.409787 77 -0.378865 0.925452 0.000000
-14.971729 -13.958585 -0.403430 59 -0.378865 0.925452 0.000000
-14.971771 -13.958623 -0.397140 53 -0.378865 0.925452 0.000000
-14.973570 -13.960294 -0.390903 63 -0.378865 0.925452 0.000000
-14.974727 -13.961370 -0.384642 55 -0.378865 0.925452 0.000000
-14.973589 -13.960307 -0.378322 53 -0.378865 0.925452 0.000000
-14.974147 -13.960838 -0.372047 79 -0.378865 0.925452 0.000000
-14.973372 -13.960105 -0.365734 79 -0.378865 0.925452 0.000000
-14.972918 -13.959692 -0.359438 79 -0.378865 0.925452 0.000000
-14.975412 -13.962013 -0.353205 59 -0.378865 0.925452 0.000000
-14.975541 -13.962135 -0.346923 63 -0.378865 0.925452 0.000000
-14.972569 -13.959365 -0.340561 57 -0.378865 0.925452 0.000000
-14.970768 -13.957689 -0.334238 81 -0.378865 0.925452 0.000000
-14.971910 -13.958755 -0.327977 73 -0.378865 0.925452 0.000000
-14.974934 -13.961565 -0.321748 75 -0.378865 0.925452 0.000000
-14.977359 -13.963829 -0.315516 43 -0.378865 0.925452 0.000000
-14.974529 -13.961199 -0.309162 43 -0.378865 0.925452 0.000000
-14.973320 -13.960065 -0.302853 65 -0.378865 0.925452 0.000000
-14.974827 -13.961474 -0.296599 69 -0.378865 0.925452 0.000000
-14.973941 -13.960638 -0.290287 53 -0.378865 0.925452 0.000000
-14.973083 -13.959850 -0.283985 45 -0.378865 0.925452 0.000000
-14.974542 -13.961210 -0.277721 31 -0.378865 0.925452 0.000000
-14.993586 -13.970053 -0.668406 111 -0.378865 0.925452 0.000000
-14.993091 -13.969596 -0.662091 123 -0.378865 0.925452 0.000000
-14.993023 -13.969533 -0.655781 113 -0.378865 0.925452 0.000000
-14.994781 -13.971171 -0.649565 79 -0.378865 0.925452 0.000000
-14.992085 -13.968662 -0.643150 57 -0.378865 0.925452 0.000000
-14.993417 -13.969892 -0.636907 61 -0.378865 0.925452 0.000000
-14.993125 -13.969625 -0.630590 55 -0.378865 0.925452 0.000000
-14.992512 -13.969059 -0.624265 13 -0.378865 0.925452 0.000000
-14.993304 -13.969791 -0.617998 37 -0.378865 0.925452 0.000000
-14.990442 -13.967122 -0.611584 33 -0.378865 0.925452 0.000000
-14.991269 -13.967895 -0.605317 43 -0.378865 0.925452 0.000000
-14.993548 -13.970017 -0.599115 16 -0.378865 0.925452 0.000000
-14.995714 -13.972046 -0.592905 47 -0.378865 0.925452 0.000000
-14.996111 -13.972410 -0.586621 81 -0.378865 0.925452 0.000000
-14.992774 -13.969295 -0.580192 101 -0.378865 0.925452 0.000000
-14.992199 -13.968760 -0.573867 101 -0.378865 0.925452 0.000000
-14.991529 -13.968137 -0.567543 89 -0.378865 0.925452 0.000000
-14.993155 -13.969654 -0.561308 101 -0.378865 0.925452 0.000000
-14.994668 -13.971070 -0.555064 95 -0.378865 0.925452 0.000000
-14.993183 -13.969689 -0.548717 79 -0.378865 0.925452 0.000000
-14.993042 -13.969555 -0.542409 87 -0.378865 0.925452 0.000000
-14.991446 -13.968071 -0.536053 67 -0.378865 0.925452 0.000000
-14.990975 -13.967632 -0.529738 83 -0.378865 0.925452 0.000000
-14.992646 -13.969189 -0.523502 63 -0.378865 0.925452 0.000000
-14.990307 -13.967003 -0.517124 81 -0.378865 0.925452 0.000000
-14.989620 -13.966367 -0.510810 65 -0.378865 0.925452 0.000000
-14.992408 -13.968961 -0.504604 93 -0.378865 0.925452 0.000000
-14.993637 -13.970110 -0.498352 93 -0.378865 0.925452 0.000000
-14.992793 -13.969319 -0.492020 103 -0.378865 0.925452 0.000000
-14.991776 -13.968378 -0.485699 115 -0.378865 0.925452 0.000000
-14.991832 -13.968429 -0.479398 103 -0.378865 0.925452 0.000000
-14.991084 -13.967730 -0.473085 113 -0.378865 0.925452 0.000000
-14.991133 -13.967774 -0.466785 113 -0.378865 0.925452 0.000000
-14.992417 -13.968967 -0.460532 117 -0.378865 0.925452 0.000000
-14.992736 -13.969267 -0.454239 107 -0.378865 0.925452 0.000000
-14.992835 -13.969365 -0.447948 95 -0.378865 0.925452 0.000000
-14.992829 -13.969353 -0.441658 103 -0.378865 0.925452 0.000000
-14.990838 -13.967499 -0.435297 101 -0.378865 0.925452 0.000000
-14.989764 -13.966499 -0.428977 109 -0.378865 0.925452 0.000000
-14.988682 -13.965493 -0.422646 99 -0.378865 0.925452 0.000000
-14.989515 -13.966271 -0.416379 97 -0.378865 0.925452 0.000000
-14.992129 -13.968700 -0.410154 75 -0.378865 0.925452 0.000000
-14.990771 -13.967434 -0.403827 73 -0.378865 0.925452 0.000000
-14.990322 -13.967028 -0.397521 91 -0.378865 0.925452 0.000000
-14.991059 -13.967702 -0.391244 69 -0.378865 0.925452 0.000000
-14.993770 -13.970234 -0.385018 65 -0.378865 0.925452 0.000000
-14.994713 -13.971113 -0.378749 61 -0.378865 0.925452 0.000000
-14.993085 -13.969591 -0.372414 61 -0.378865 0.925452 0.000000
-14.993334 -13.969822 -0.366122 61 -0.378865 0.925452 0.000000
-14.992235 -13.968802 -0.359802 43 -0.378865 0.925452 0.000000
-14.990918 -13.967582 -0.353474 63 -0.378865 0.925452 0.000000
-14.990199 -13.966907 -0.347161 47 -0.378865 0.925452 0.000000
-14.992520 -13.969074 -0.340919 57 -0.378865 0.925452 0.000000
-14.992855 -13.969388 -0.334635 65 -0.378865 0.925452 0.000000
-14.990367 -13.967069 -0.328288 59 -0.378865 0.925452 0.000000
-14.991681 -13.968287 -0.322016 73 -0.378865 0.925452 0.000000
-14.991479 -13.968103 -0.315718 63 -0.378865 0.925452 0.000000
-14.990159 -13.966867 -0.309400 57 -0.378865 0.925452 0.000000
-14.989149 -13.965933 -0.303089 73 -0.378865 0.925452 0.000000
-14.989443 -13.966199 -0.296796 69 -0.378865 0.925452 0.000000
-14.990894 -13.967551 -0.290533 67 -0.378865 0.925452 0.000000
-14.990209 -13.966915 -0.284229 65 -0.378865 0.925452 0.000000
-14.990576 -13.967267 -0.277945 65 -0.378865 0.925452 0.000000
-15.011594 -13.977763 -0.669013 149 -0.378865 0.925452 0.000000
-15.010885 -13.977108 -0.662680 139 -0.378865 0.925452 0.000000
-15.010499 -13.976752 -0.656353 131 -0.378865 0.925452 0.000000
-15.010699 -13.976931 -0.650061 101 -0.378865 0.925452 0.000000
-15.012989 -13.979060 -0.643850 109 -0.378865 0.925452 0.000000
-15.012747 -13.978846 -0.637532 93 -0.378865 0.925452 0.000000
-15.013167 -13.979228 -0.631248 85 -0.378865 0.925452 0.000000
-15.012023 -13.978158 -0.624888 49 -0.378865 0.925452 0.000000
-15.010609 -13.976846 -0.618531 77 -0.378865 0.925452 0.000000
-15.013856 -13.979875 -0.612361 81 -0.378865 0.925452 0.000000
-15.013565 -13.979594 -0.606043 97 -0.378865 0.925452 0.000000
-15.013315 -13.979373 -0.599726 83 -0.378865 0.925452 0.000000
-15.013342 -13.979400 -0.593425 101 -0.378865 0.925452 0.000000
-15.009521 -13.975830 -0.586971 131 -0.378865 0.925452 0.000000
-15.009121 -13.975462 -0.580644 127 -0.378865 0.925452 0.000000
-15.010103 -13.976373 -0.574385 113 -0.378865 0.925452 0.000000
-15.009536 -13.975846 -0.568060 137 -0.378865 0.925452 0.000000
-15.010522 -13.976771 -0.561791 135 -0.378865 0.925452 0.000000
-15.013697 -13.979730 -0.555601 113 -0.378865 0.925452 0.000000
-15.012852 -13.978940 -0.549269 125 -0.378865 0.925452 0.000000
-15.010084 -13.976359 -0.542864 113 -0.378865 0.925452 0.000000
-15.010468 -13.976725 -0.536581 89 -0.378865 0.925452 0.000000
-15.011450 -13.977635 -0.530311 93 -0.378865 0.925452 0.000000
-15.011303 -13.977497 -0.524003 87 -0.378865 0.925452 0.000000
-15.008416 -13.974809 -0.517599 97 -0.378865 0.925452 0.000000
-15.009716 -13.976013 -0.511337 97 -0.378865 0.925452 0.000000
-15.011863 -13.978015 -0.505107 107 -0.378865 0.925452 0.000000
-15.012293 -13.978416 -0.498823 119 -0.378865 0.925452 0.000000
-15.012083 -13.978229 -0.492515 119 -0.378865 0.925452 0.000000
-15.010915 -13.977139 -0.486175 141 -0.378865 0.925452 0.000000
-15.010751 -13.976988 -0.479867 133 -0.378865 0.925452 0.000000
-15.011394 -13.977587 -0.473581 135 -0.378865 0.925452 0.000000
-15.011554 -13.977734 -0.467289 133 -0.378865 0.925452 0.000000
-15.011391 -13.977582 -0.460980 127 -0.378865 0.925452 0.000000
-15.010689 -13.976919 -0.454657 139 -0.378865 0.925452 0.000000
-15.007899 -13.974335 -0.448273 129 -0.378865 0.925452 0.000000
-15.008052 -13.974476 -0.441971 117 -0.378865 0.925452 0.000000
-15.008582 -13.974959 -0.435686 123 -0.378865 0.925452 0.000000
-15.007708 -13.974158 -0.429364 121 -0.378865 0.925452 0.000000
-15.007964 -13.974396 -0.423071 113 -0.378865 0.925452 0.000000
-15.010157 -13.976434 -0.416831 121 -0.378865 0.925452 0.000000
-15.011045 -13.977258 -0.410552 105 -0.378865 0.925452 0.000000
-15.008461 -13.974849 -0.404186 93 -0.378865 0.925452 0.000000
-15.009137 -13.975488 -0.397900 101 -0.378865 0.925452 0.000000
-15.009559 -13.975871 -0.391606 97 -0.378865 0.925452 0.000000
-15.010232 -13.976496 -0.385329 117 -0.378865 0.925452 0.000000
-15.013257 -13.979319 -0.379101 109 -0.378865 0.925452 0.000000
-15.011472 -13.977657 -0.372757 93 -0.378865 0.925452 0.000000
-15.009204 -13.975543 -0.366399 95 -0.378865 0.925452 0.000000
-15.008312 -13.974716 -0.360077 103 -0.378865 0.925452 0.000000
-15.008553 -13.974939 -0.353784 117 -0.378865 0.925452 0.000000
-15.010461 -13.976711 -0.347526 107 -0.378865 0.925452 0.000000
-15.011010 -13.977236 -0.341241 99 -0.378865 0.925452 0.000000
-15.009912 -13.976204 -0.334921 105 -0.378865 0.925452 0.000000
-15.009986 -13.976281 -0.328620 117 -0.378865 0.925452 0.000000
-15.010384 -13.976645 -0.322326 133 -0.378865 0.925452 0.000000
-15.009810 -13.976111 -0.316012 107 -0.378865 0.925452 0.000000
-15.010097 -13.976373 -0.309719 111 -0.378865 0.925452 0.000000
-15.009839 -13.976146 -0.303411 123 -0.378865 0.925452 0.000000
-15.008084 -13.974509 -0.297077 125 -0.378865 0.925452 0.000000
-15.008633 -13.975019 -0.290792 121 -0.378865 0.925452 0.000000
-15.010154 -13.976426 -0.284518 119 -0.378865 0.925452 0.000000
-15.009295 -13.975638 -0.278206 119 -0.378865 0.925452 0.000000
