749
-14.790640 -13.968398 -0.657194 1363 0.731346 0.682006 0.000000
-14.790356 -13.968142 -0.650926 1367 0.731346 0.682006 0.000000
-14.789867 -13.967671 -0.644651 1359 0.731346 0.682006 0.000000
-14.790327 -13.968105 -0.638416 1369 0.731346 0.682006 0.000000
-14.790890 -13.968648 -0.632181 1371 0.731346 0.682006 0.000000
-14.790771 -13.968534 -0.625922 1353 0.731346 0.682006 0.000000
-14.790318 -13.968104 -0.619656 1359 0.731346 0.682006 0.000000
-14.789866 -13.967688 -0.613380 1363 0.731346 0.682006 0.000000
-14.790426 -13.968216 -0.607155 1367 0.731346 0.682006 0.000000
-14.790565 -13.968344 -0.600903 1369 0.731346 0.682006 0.000000
-14.790528 -13.968321 -0.594653 1367 0.731346 0.682006 0.000000
-14.790346 -13.968144 -0.588385 1359 0.731346 0.682006 0.000000
-14.790691 -13.968476 -0.582152 1357 0.731346 0.682006 0.000000
-14.790823 -13.968598 -0.575900 1359 0.731346 0.682006 0.000000
-14.790305 -13.968104 -0.569635 1363 0.731346 0.682006 0.000000
-14.790595 -13.968392 -0.563392 1367 0.731346 0.682006 0.000000
-14.790772 -13.968552 -0.557140 1371 0.731346 0.682006 0.000000
-14.790521 -13.968319 -0.550882 1371 0.731346 0.682006 0.000000
-14.790268 -13.968087 -0.544625 1365 0.731346 0.682006 0.000000
-14.790444 -13.968246 -0.538373 1361 0.731346 0.682006 0.000000
-14.790727 -13.968513 -0.532130 1367 0.731346 0.682006 0.000000
-14.790570 -13.968370 -0.525871 1373 0.731346 0.682006 0.000000
-14.790427 -13.968238 -0.519622 1367 0.731346 0.682006 0.000000
-14.790270 -13.968094 -0.513364 1357 0.731346 0.682006 0.000000
-14.790545 -13.968356 -0.507121 1369 0.731346 0.682006 0.000000
-14.790651 -13.968459 -0.500870 1369 0.731346 0.682006 0.000000
-14.790445 -13.968264 -0.494612 1365 0.731346 0.682006 0.000000
-14.790552 -13.968369 -0.488370 1361 0.731346 0.682006 0.000000
-14.790499 -13.968319 -0.482111 1353 0.731346 0.682006 0.000000
-14.789655 -13.967527 -0.475839 1349 0.731346 0.682006 0.000000
-14.789914 -13.967778 -0.469596 1359 0.731346 0.682006 0.000000
-14.790706 -13.968528 -0.463368 1363 0.731346 0.682006 0.000000
-14.790548 -13.968369 -0.457110 1367 0.731346 0.682006 0.000000
-14.789840 -13.967712 -0.450836 1361 0.731346 0.682006 0.000000
-14.790002 -13.967859 -0.444595 1367 0.731346 0.682006 0.000000
-14.790315 -13.968152 -0.438352 1369 0.731346 0.682006 0.000000
-14.790088 -13.967953 -0.432093 1359 0.731346 0.682006 0.000000
-14.789969 -13.967839 -0.425844 1351 0.731346 0.682006 0.000000
-14.790163 -13.968024 -0.419602 1365 0.731346 0.682006 0.000000
-14.789997 -13.967861 -0.413344 1371 0.731346 0.682006 0.000000
-14.790248 -13.968103 -0.407101 1379 0.731346 0.682006 0.000000
-14.790499 -13.968348 -0.400859 1377 0.731346 0.682006 0.000000
-14.790525 -13.968374 -0.394608 1377 0.731346 0.682006 0.000000
-14.789663 -13.967557 -0.388336 1357 0.731346 0.682006 0.000000
-14.788995 -13.966930 -0.382073 1361 0.731346 0.682006 0.000000
-14.789565 -13.967464 -0.375837 1375 0.731346 0.682006 0.000000
-14.789854 -13.967738 -0.369594 1371 0.731346 0.682006 0.000000
-14.790049 -13.967925 -0.363352 1369 0.731346 0.682006 0.000000
-14.789963 -13.967851 -0.357093 1363 0.731346 0.682006 0.000000
-14.789671 -13.967574 -0.350835 1369 0.731346 0.682006 0.000000
-14.789848 -13.967748 -0.344594 1371 0.731346 0.682006 0.000000
-14.790195 -13.968079 -0.338350 1367 0.731346 0.682006 0.000000
-14.790534 -13.968405 -0.332117 1363 0.731346 0.682006 0.000000
-14.790183 -13.968069 -0.325860 1363 0.731346 0.682006 0.000000
-14.790136 -13.968025 -0.319610 1371 0.731346 0.682006 0.000000
-14.790586 -13.968452 -0.313366 1381 0.731346 0.682006 0.000000
-14.789805 -13.967711 -0.307103 1361 0.731346 0.682006 0.000000
-14.789401 -13.967333 -0.300847 1369 0.731346 0.682006 0.000000
-14.789460 -13.967399 -0.294596 1357 0.731346 0.682006 0.000000
-14.788983 -13.966949 -0.288340 1369 0.731346 0.682006 0.000000
-14.788945 -13.966913 -0.282090 1379 0.731346 0.682006 0.000000
-14.789268 -13.967226 -0.275847 1371 0.731346 0.682006 0.000000
-14.794275 -13.963286 -0.663421 1345 0.731346 0.682006 0.000000
-14.794422 -13.963421 -0.657170 1351 0.731346 0.682006 0.000000
-14.794360 -13.963366 -0.650910 1361 0.731346 0.682006 0.000000
-14.794394 -13.963399 -0.644660 1361 0.731346 0.682006 0.000000
-14.794270 -13.963294 -0.638401 1361 0.731346 0.682006 0.000000
-14.794408 -13.963422 -0.632149 1367 0.731346 0.682006 0.000000
-14.794498 -13.963514 -0.625908 1361 0.731346 0.682006 0.000000
-14.794316 -13.963336 -0.619640 1363 0.731346 0.682006 0.000000
-14.795037 -13.964017 -0.613423 1369 0.731346 0.682006 0.000000
-14.795495 -13.964450 -0.607189 1367 0.731346 0.682006 0.000000
-14.794827 -13.963824 -0.600905 1357 0.731346 0.682006 0.000000
-14.794215 -13.963256 -0.594630 1351 0.731346 0.682006 0.000000
-14.794345 -13.963377 -0.588379 1361 0.731346 0.682006 0.000000
-14.794163 -13.963201 -0.582121 1353 0.731346 0.682006 0.000000
-14.794558 -13.963583 -0.575887 1363 0.731346 0.682006 0.000000
-14.794893 -13.963895 -0.569643 1371 0.731346 0.682006 0.000000
-14.794593 -13.963611 -0.563376 1361 0.731346 0.682006 0.000000
-14.794499 -13.963531 -0.557127 1349 0.731346 0.682006 0.000000
-14.794631 -13.963654 -0.550875 1347 0.731346 0.682006 0.000000
-14.794481 -13.963515 -0.544617 1349 0.731346 0.682006 0.000000
-14.794282 -13.963326 -0.538358 1351 0.731346 0.682006 0.000000
-14.794668 -13.963689 -0.532125 1361 0.731346 0.682006 0.000000
-14.794681 -13.963704 -0.525874 1363 0.731346 0.682006 0.000000
-14.794098 -13.963160 -0.519600 1357 0.731346 0.682006 0.000000
-14.793839 -13.962921 -0.513342 1353 0.731346 0.682006 0.000000
-14.794439 -13.963480 -0.507106 1359 0.731346 0.682006 0.000000
-14.794818 -13.963851 -0.500872 1371 0.731346 0.682006 0.000000
-14.794292 -13.963350 -0.494597 1359 0.731346 0.682006 0.000000
-14.793704 -13.962801 -0.488332 1357 0.731346 0.682006 0.000000
-14.794074 -13.963151 -0.482089 1345 0.731346 0.682006 0.000000
-14.793860 -13.962950 -0.475831 1353 0.731346 0.682006 0.000000
-14.794028 -13.963102 -0.469589 1359 0.731346 0.682006 0.000000
-14.794496 -13.963556 -0.463354 1361 0.731346 0.682006 0.000000
-14.793372 -13.962491 -0.457065 1341 0.731346 0.682006 0.000000
-14.793262 -13.962385 -0.450816 1333 0.731346 0.682006 0.000000
-14.794215 -13.963287 -0.444597 1357 0.731346 0.682006 0.000000
-14.794209 -13.963290 -0.438346 1361 0.731346 0.682006 0.000000
-14.794356 -13.963425 -0.432095 1361 0.731346 0.682006 0.000000
-14.794183 -13.963267 -0.425846 1361 0.731346 0.682006 0.000000
-14.793801 -13.962907 -0.419580 1355 0.731346 0.682006 0.000000
-14.793732 -13.962846 -0.413330 1349 0.731346 0.682006 0.000000
-14.793503 -13.962632 -0.407072 1347 0.731346 0.682006 0.000000
-14.793323 -13.962470 -0.400824 1349 0.731346 0.682006 0.000000
-14.793459 -13.962597 -0.394572 1357 0.731346 0.682006 0.000000
-14.793654 -13.962783 -0.388330 1349 0.731346 0.682006 0.000000
-14.793632 -13.962758 -0.382080 1341 0.731346 0.682006 0.000000
-14.793715 -13.962843 -0.375830 1357 0.731346 0.682006 0.000000
-14.793109 -13.962267 -0.369565 1367 0.731346 0.682006 0.000000
-14.792337 -13.961546 -0.363302 1359 0.731346 0.682006 0.000000
-14.792684 -13.961878 -0.357059 1365 0.731346 0.682006 0.000000
-14.793293 -13.962457 -0.350823 1359 0.731346 0.682006 0.000000
-14.793262 -13.962427 -0.344573 1363 0.731346 0.682006 0.000000
-14.793450 -13.962607 -0.338331 1357 0.731346 0.682006 0.000000
-14.793843 -13.962976 -0.332097 1357 0.731346 0.682006 0.000000
-14.793805 -13.962938 -0.325847 1347 0.731346 0.682006 0.000000
-14.793672 -13.962813 -0.319589 1347 0.731346 0.682006 0.000000
-14.793211 -13.962378 -0.313333 1351 0.731346 0.682006 0.000000
-14.792743 -13.961948 -0.307077 1353 0.731346 0.682006 0.000000
-14.792753 -13.961950 -0.300827 1351 0.731346 0.682006 0.000000
-14.793563 -13.962727 -0.294599 1351 0.731346 0.682006 0.000000
-14.793677 -13.962836 -0.288348 1349 0.731346 0.682006 0.000000
-14.792785 -13.961993 -0.282086 1347 0.731346 0.682006 0.000000
-14.792850 -13.962051 -0.275835 1355 0.731346 0.682006 0.000000
-14.799003 -13.959033 -0.663439 1351 0.731346 0.682006 0.000000
-14.799468 -13.959472 -0.657205 1343 0.731346 0.682006 0.000000
-14.799295 -13.959316 -0.650936 1347 0.731346 0.682006 0.000000
-14.799122 -13.959146 -0.644678 1353 0.731346 0.682006 0.000000
-14.798941 -13.958982 -0.638419 1357 0.731346 0.682006 0.000000
-14.799287 -13.959314 -0.632176 1349 0.731346 0.682006 0.000000
-14.799703 -13.959702 -0.625942 1357 0.731346 0.682006 0.000000
-14.799459 -13.959476 -0.619674 1365 0.731346 0.682006 0.000000
-14.799340 -13.959363 -0.613415 1363 0.731346 0.682006 0.000000
-14.798672 -13.958737 -0.607141 1349 0.731346 0.682006 0.000000
-14.798970 -13.959018 -0.600898 1355 0.731346 0.682006 0.000000
-14.798725 -13.958792 -0.594640 1359 0.731346 0.682006 0.000000
-14.798008 -13.958114 -0.588357 1345 0.731346 0.682006 0.000000
-14.798401 -13.958483 -0.582113 1355 0.731346 0.682006 0.000000
-14.798907 -13.958967 -0.575888 1355 0.731346 0.682006 0.000000
-14.798232 -13.958336 -0.569604 1341 0.731346 0.682006 0.000000
-14.797828 -13.957957 -0.563338 1335 0.731346 0.682006 0.000000
-14.798906 -13.958972 -0.557128 1343 0.731346 0.682006 0.000000
-14.799301 -13.959342 -0.550894 1339 0.731346 0.682006 0.000000
-14.798457 -13.958551 -0.544612 1349 0.731346 0.682006 0.000000
-14.798051 -13.958172 -0.538345 1351 0.731346 0.682006 0.000000
-14.798381 -13.958477 -0.532102 1347 0.731346 0.682006 0.000000
-14.798329 -13.958443 -0.525852 1349 0.731346 0.682006 0.000000
-14.798028 -13.958158 -0.519585 1353 0.731346 0.682006 0.000000
-14.798302 -13.958421 -0.513342 1347 0.731346 0.682006 0.000000
-14.798943 -13.959023 -0.507116 1357 0.731346 0.682006 0.000000
-14.798944 -13.959032 -0.500866 1343 0.731346 0.682006 0.000000
-14.799323 -13.959390 -0.494622 1335 0.731346 0.682006 0.000000
-14.799067 -13.959143 -0.488365 1343 0.731346 0.682006 0.000000
-14.798904 -13.958993 -0.482106 1349 0.731346 0.682006 0.000000
-14.798739 -13.958843 -0.475857 1343 0.731346 0.682006 0.000000
-14.798477 -13.958591 -0.469590 1343 0.731346 0.682006 0.000000
-14.798736 -13.958839 -0.463347 1349 0.731346 0.682006 0.000000
-14.798362 -13.958486 -0.457090 1347 0.731346 0.682006 0.000000
-14.798246 -13.958387 -0.450831 1351 0.731346 0.682006 0.000000
-14.798400 -13.958528 -0.444590 1351 0.731346 0.682006 0.000000
-14.798130 -13.958268 -0.438332 1353 0.731346 0.682006 0.000000
-14.798014 -13.958169 -0.432083 1359 0.731346 0.682006 0.000000
-14.797944 -13.958108 -0.425823 1355 0.731346 0.682006 0.000000
-14.798049 -13.958197 -0.419582 1351 0.731346 0.682006 0.000000
-14.798244 -13.958383 -0.413340 1349 0.731346 0.682006 0.000000
-14.798437 -13.958568 -0.407088 1353 0.731346 0.682006 0.000000
-14.797944 -13.958107 -0.400833 1347 0.731346 0.682006 0.000000
-14.797915 -13.958090 -0.394583 1343 0.731346 0.682006 0.000000
-14.798382 -13.958529 -0.388338 1353 0.731346 0.682006 0.000000
-14.798415 -13.958563 -0.382088 1359 0.731346 0.682006 0.000000
-14.798073 -13.958233 -0.375831 1355 0.731346 0.682006 0.000000
-14.797454 -13.957659 -0.369567 1343 0.731346 0.682006 0.000000
-14.798023 -13.958193 -0.363331 1357 0.731346 0.682006 0.000000
-14.797986 -13.958171 -0.357081 1353 0.731346 0.682006 0.000000
-14.797644 -13.957841 -0.350824 1351 0.731346 0.682006 0.000000
-14.797518 -13.957723 -0.344575 1345 0.731346 0.682006 0.000000
-14.798010 -13.958195 -0.338341 1351 0.731346 0.682006 0.000000
-14.797979 -13.958164 -0.332091 1351 0.731346 0.682006 0.000000
-14.798212 -13.958381 -0.325849 1351 0.731346 0.682006 0.000000
-14.798280 -13.958453 -0.319598 1361 0.731346 0.682006 0.000000
-14.797978 -13.958169 -0.313340 1357 0.731346 0.682006 0.000000
-14.798108 -13.958291 -0.307099 1359 0.731346 0.682006 0.000000
-14.797952 -13.958147 -0.300850 1359 0.731346 0.682006 0.000000
-14.797435 -13.957667 -0.294585 1353 0.731346 0.682006 0.000000
-14.797230 -13.957472 -0.288337 1339 0.731346 0.682006 0.000000
-14.797615 -13.957834 -0.282093 1351 0.731346 0.682006 0.000000
-14.797465 -13.957697 -0.275844 1349 0.731346 0.682006 0.000000
-14.803052 -13.953975 -0.663425 1355 0.731346 0.682006 0.000000
-14.802457 -13.953420 -0.657140 1343 0.731346 0.682006 0.000000
-14.803026 -13.953954 -0.650915 1351 0.731346 0.682006 0.000000
-14.803597 -13.954501 -0.644679 1357 0.731346 0.682006 0.000000
-14.803367 -13.954287 -0.638421 1357 0.731346 0.682006 0.000000
-14.803352 -13.954269 -0.632161 1351 0.731346 0.682006 0.000000
-14.803913 -13.954797 -0.625936 1363 0.731346 0.682006 0.000000
-14.803573 -13.954482 -0.619669 1375 0.731346 0.682006 0.000000
-14.802802 -13.953761 -0.613386 1345 0.731346 0.682006 0.000000
-14.802938 -13.953889 -0.607134 1355 0.731346 0.682006 0.000000
-14.803396 -13.954322 -0.600900 1357 0.731346 0.682006 0.000000
-14.803798 -13.954698 -0.594666 1355 0.731346 0.682006 0.000000
-14.803865 -13.954769 -0.588415 1347 0.731346 0.682006 0.000000
-14.803682 -13.954593 -0.582157 1349 0.731346 0.682006 0.000000
-14.803597 -13.954518 -0.575897 1349 0.731346 0.682006 0.000000
-14.803305 -13.954242 -0.569630 1357 0.731346 0.682006 0.000000
-14.803164 -13.954110 -0.563371 1351 0.731346 0.682006 0.000000
-14.803236 -13.954173 -0.557130 1357 0.731346 0.682006 0.000000
-14.803297 -13.954241 -0.550879 1353 0.731346 0.682006 0.000000
-14.802628 -13.953613 -0.544596 1363 0.731346 0.682006 0.000000
-14.801838 -13.952867 -0.538323 1359 0.731346 0.682006 0.000000
-14.802383 -13.953382 -0.532088 1355 0.731346 0.682006 0.000000
-14.802818 -13.953796 -0.525853 1369 0.731346 0.682006 0.000000
-14.802940 -13.953912 -0.519602 1355 0.731346 0.682006 0.000000
-14.802783 -13.953768 -0.513343 1363 0.731346 0.682006 0.000000
-14.803169 -13.954131 -0.507110 1361 0.731346 0.682006 0.000000
-14.803489 -13.954430 -0.500867 1351 0.731346 0.682006 0.000000
-14.802799 -13.953786 -0.494593 1335 0.731346 0.682006 0.000000
-14.802530 -13.953541 -0.488335 1325 0.731346 0.682006 0.000000
-14.802851 -13.953838 -0.482092 1349 0.731346 0.682006 0.000000
-14.803172 -13.954139 -0.475859 1359 0.731346 0.682006 0.000000
-14.802543 -13.953544 -0.469585 1347 0.731346 0.682006 0.000000
-14.802426 -13.953444 -0.463326 1331 0.731346 0.682006 0.000000
-14.802949 -13.953942 -0.457100 1341 0.731346 0.682006 0.000000
-14.802679 -13.953683 -0.450833 1343 0.731346 0.682006 0.000000
-14.802777 -13.953779 -0.444592 1351 0.731346 0.682006 0.000000
-14.802986 -13.953978 -0.438350 1347 0.731346 0.682006 0.000000
-14.802975 -13.953974 -0.432100 1355 0.731346 0.682006 0.000000
-14.802960 -13.953957 -0.425850 1363 0.731346 0.682006 0.000000
-14.803211 -13.954199 -0.419607 1365 0.731346 0.682006 0.000000
-14.803093 -13.954086 -0.413348 1351 0.731346 0.682006 0.000000
-14.803184 -13.954177 -0.407097 1355 0.731346 0.682006 0.000000
-14.802531 -13.953564 -0.400833 1345 0.731346 0.682006 0.000000
-14.802508 -13.953539 -0.394583 1353 0.731346 0.682006 0.000000
-14.802328 -13.953377 -0.388335 1355 0.731346 0.682006 0.000000
-14.801779 -13.952858 -0.382070 1331 0.731346 0.682006 0.000000
-14.802237 -13.953291 -0.375825 1347 0.731346 0.682006 0.000000
-14.802325 -13.953367 -0.369584 1345 0.731346 0.682006 0.000000
-14.802131 -13.953193 -0.363326 1349 0.731346 0.682006 0.000000
-14.802259 -13.953315 -0.357084 1351 0.731346 0.682006 0.000000
-14.802439 -13.953488 -0.350843 1357 0.731346 0.682006 0.000000
-14.802313 -13.953369 -0.344584 1347 0.731346 0.682006 0.000000
-14.802873 -13.953897 -0.338348 1343 0.731346 0.682006 0.000000
-14.802996 -13.954013 -0.332107 1357 0.731346 0.682006 0.000000
-14.802431 -13.953482 -0.325842 1341 0.731346 0.682006 0.000000
-14.802450 -13.953503 -0.319592 1357 0.731346 0.682006 0.000000
-14.802140 -13.953212 -0.313335 1357 0.731346 0.682006 0.000000
-14.802055 -13.953138 -0.307085 1359 0.731346 0.682006 0.000000
-14.801643 -13.952753 -0.300829 1351 0.731346 0.682006 0.000000
-14.801596 -13.952709 -0.294579 1359 0.731346 0.682006 0.000000
-14.802032 -13.953124 -0.288345 1351 0.731346 0.682006 0.000000
-14.802258 -13.953335 -0.282103 1365 0.731346 0.682006 0.000000
-14.801788 -13.952892 -0.275847 1365 0.731346 0.682006 0.000000
-14.808433 -13.950508 -0.663476 1359 0.731346 0.682006 0.000000
-14.808314 -13.950395 -0.657217 1351 0.731346 0.682006 0.000000
-14.808357 -13.950435 -0.650956 1359 0.731346 0.682006 0.000000
-14.807705 -13.949820 -0.644672 1347 0.731346 0.682006 0.000000
-14.807267 -13.949403 -0.638406 1353 0.731346 0.682006 0.000000
-14.807566 -13.949697 -0.632163 1357 0.731346 0.682006 0.000000
-14.807432 -13.949572 -0.625904 1369 0.731346 0.682006 0.000000
-14.807577 -13.949707 -0.619653 1363 0.731346 0.682006 0.000000
-14.807765 -13.949887 -0.613411 1353 0.731346 0.682006 0.000000
-14.807096 -13.949259 -0.607127 1351 0.731346 0.682006 0.000000
-14.807554 -13.949694 -0.600892 1357 0.731346 0.682006 0.000000
-14.807475 -13.949612 -0.594643 1349 0.731346 0.682006 0.000000
-14.806967 -13.949138 -0.588368 1343 0.731346 0.682006 0.000000
-14.806722 -13.948912 -0.582110 1343 0.731346 0.682006 0.000000
-14.807333 -13.949491 -0.575874 1339 0.731346 0.682006 0.000000
-14.807782 -13.949918 -0.569639 1351 0.731346 0.682006 0.000000
-14.807263 -13.949423 -0.563374 1343 0.731346 0.682006 0.000000
-14.807984 -13.950103 -0.557147 1349 0.731346 0.682006 0.000000
-14.807675 -13.949813 -0.550880 1351 0.731346 0.682006 0.000000
-14.806416 -13.948628 -0.544582 1337 0.731346 0.682006 0.000000
-14.806899 -13.949095 -0.538347 1361 0.731346 0.682006 0.000000
-14.807293 -13.949464 -0.532113 1365 0.731346 0.682006 0.000000
-14.807024 -13.949219 -0.525855 1347 0.731346 0.682006 0.000000
-14.807258 -13.949435 -0.519603 1339 0.731346 0.682006 0.000000
-14.807002 -13.949188 -0.513345 1351 0.731346 0.682006 0.000000
-14.806311 -13.948544 -0.507072 1343 0.731346 0.682006 0.000000
-14.807056 -13.949256 -0.500845 1345 0.731346 0.682006 0.000000
-14.807386 -13.949562 -0.494611 1339 0.731346 0.682006 0.000000
-14.807381 -13.949564 -0.488361 1341 0.731346 0.682006 0.000000
-14.806959 -13.949159 -0.482095 1349 0.731346 0.682006 0.000000
-14.806802 -13.949015 -0.475836 1351 0.731346 0.682006 0.000000
-14.807707 -13.949867 -0.469618 1345 0.731346 0.682006 0.000000
-14.807814 -13.949970 -0.463367 1339 0.731346 0.682006 0.000000
-14.807114 -13.949319 -0.457093 1341 0.731346 0.682006 0.000000
-14.806732 -13.948959 -0.450836 1335 0.731346 0.682006 0.000000
-14.807095 -13.949304 -0.444593 1353 0.731346 0.682006 0.000000
-14.806712 -13.948943 -0.438336 1347 0.731346 0.682006 0.000000
-14.807084 -13.949294 -0.432093 1345 0.731346 0.682006 0.000000
-14.807284 -13.949485 -0.425851 1347 0.731346 0.682006 0.000000
-14.807104 -13.949323 -0.419592 1347 0.731346 0.682006 0.000000
-14.806778 -13.949007 -0.413335 1359 0.731346 0.682006 0.000000
-14.806117 -13.948387 -0.407071 1349 0.731346 0.682006 0.000000
-14.805937 -13.948224 -0.400813 1347 0.731346 0.682006 0.000000
-14.806139 -13.948416 -0.394571 1351 0.731346 0.682006 0.000000
-14.806436 -13.948695 -0.388328 1357 0.731346 0.682006 0.000000
-14.806471 -13.948730 -0.382077 1357 0.731346 0.682006 0.000000
-14.806337 -13.948604 -0.375828 1355 0.731346 0.682006 0.000000
-14.805947 -13.948237 -0.369572 1355 0.731346 0.682006 0.000000
-14.805911 -13.948215 -0.363322 1355 0.731346 0.682006 0.000000
-14.806847 -13.949091 -0.357093 1357 0.731346 0.682006 0.000000
-14.807514 -13.949729 -0.350857 1355 0.731346 0.682006 0.000000
-14.806837 -13.949096 -0.344593 1361 0.731346 0.682006 0.000000
-14.806336 -13.948615 -0.338337 1343 0.731346 0.682006 0.000000
-14.806410 -13.948693 -0.332086 1335 0.731346 0.682006 0.000000
-14.806852 -13.949114 -0.325852 1351 0.731346 0.682006 0.000000
-14.806342 -13.948626 -0.319587 1337 0.731346 0.682006 0.000000
-14.805453 -13.947798 -0.313325 1353 0.731346 0.682006 0.000000
-14.805892 -13.948204 -0.307081 1345 0.731346 0.682006 0.000000
-14.806384 -13.948676 -0.300846 1359 0.731346 0.682006 0.000000
-14.806234 -13.948539 -0.294597 1345 0.731346 0.682006 0.000000
-14.806195 -13.948501 -0.288347 1349 0.731346 0.682006 0.000000
-14.806421 -13.948711 -0.282095 1355 0.731346 0.682006 0.000000
-14.805680 -13.948015 -0.275842 1343 0.731346 0.682006 0.000000
-14.812326 -13.945631 -0.663461 1351 0.731346 0.682006 0.000000
-14.812265 -13.945576 -0.657201 1347 0.731346 0.682006 0.000000
-14.812348 -13.945661 -0.650950 1353 0.731346 0.682006 0.000000
-14.811687 -13.945041 -0.644666 1355 0.731346 0.682006 0.000000
-14.811523 -13.944891 -0.638408 1343 0.731346 0.682006 0.000000
-14.812140 -13.945462 -0.632182 1349 0.731346 0.682006 0.000000
-14.811909 -13.945248 -0.625914 1355 0.731346 0.682006 0.000000
-14.811401 -13.944775 -0.619638 1351 0.731346 0.682006 0.000000
-14.811603 -13.944966 -0.613396 1355 0.731346 0.682006 0.000000
-14.811670 -13.945039 -0.607145 1345 0.731346 0.682006 0.000000
-14.811337 -13.944716 -0.600878 1349 0.731346 0.682006 0.000000
-14.811361 -13.944742 -0.594628 1347 0.731346 0.682006 0.000000
-14.811597 -13.944973 -0.588386 1347 0.731346 0.682006 0.000000
-14.811615 -13.944994 -0.582135 1361 0.731346 0.682006 0.000000
-14.811857 -13.945217 -0.575893 1347 0.731346 0.682006 0.000000
-14.811988 -13.945340 -0.569642 1355 0.731346 0.682006 0.000000
-14.811311 -13.944707 -0.563368 1355 0.731346 0.682006 0.000000
-14.811641 -13.945026 -0.557124 1351 0.731346 0.682006 0.000000
-14.811764 -13.945142 -0.550873 1357 0.731346 0.682006 0.000000
-14.811358 -13.944763 -0.544607 1353 0.731346 0.682006 0.000000
-14.811481 -13.944879 -0.538366 1339 0.731346 0.682006 0.000000
-14.811554 -13.944942 -0.532115 1341 0.731346 0.682006 0.000000
-14.811932 -13.945300 -0.525871 1351 0.731346 0.682006 0.000000
-14.811997 -13.945357 -0.519630 1359 0.731346 0.682006 0.000000
-14.811354 -13.944764 -0.513356 1345 0.731346 0.682006 0.000000
-14.811852 -13.945230 -0.507121 1345 0.731346 0.682006 0.000000
-14.811805 -13.945186 -0.500862 1341 0.731346 0.682006 0.000000
-14.811328 -13.944736 -0.494596 1345 0.731346 0.682006 0.000000
-14.811379 -13.944797 -0.488345 1345 0.731346 0.682006 0.000000
-14.811811 -13.945197 -0.482111 1345 0.731346 0.682006 0.000000
-14.811807 -13.945199 -0.475861 1353 0.731346 0.682006 0.000000
-14.811491 -13.944903 -0.469604 1341 0.731346 0.682006 0.000000
-14.811644 -13.945044 -0.463352 1349 0.731346 0.682006 0.000000
-14.811104 -13.944545 -0.457087 1337 0.731346 0.682006 0.000000
-14.810834 -13.944286 -0.450829 1345 0.731346 0.682006 0.000000
-14.811467 -13.944883 -0.444593 1347 0.731346 0.682006 0.000000
-14.811877 -13.945279 -0.438359 1357 0.731346 0.682006 0.000000
-14.811449 -13.944868 -0.432093 1347 0.731346 0.682006 0.000000
-14.811387 -13.944813 -0.425844 1343 0.731346 0.682006 0.000000
-14.810943 -13.944403 -0.419588 1345 0.731346 0.682006 0.000000
-14.810928 -13.944386 -0.413338 1347 0.731346 0.682006 0.000000
-14.811179 -13.944628 -0.407095 1351 0.731346 0.682006 0.000000
-14.810581 -13.944057 -0.400821 1333 0.731346 0.682006 0.000000
-14.810282 -13.943789 -0.394563 1355 0.731346 0.682006 0.000000
-14.810596 -13.944081 -0.388330 1355 0.731346 0.682006 0.000000
-14.810781 -13.944260 -0.382078 1343 0.731346 0.682006 0.000000
-14.810807 -13.944287 -0.375838 1345 0.731346 0.682006 0.000000
-14.811216 -13.944670 -0.369594 1349 0.731346 0.682006 0.000000
-14.811724 -13.945154 -0.363359 1353 0.731346 0.682006 0.000000
-14.811429 -13.944877 -0.357102 1357 0.731346 0.682006 0.000000
-14.810976 -13.944447 -0.350846 1343 0.731346 0.682006 0.000000
-14.811106 -13.944568 -0.344594 1345 0.731346 0.682006 0.000000
-14.810966 -13.944450 -0.338345 1343 0.731346 0.682006 0.000000
-14.810665 -13.944167 -0.332088 1353 0.731346 0.682006 0.000000
-14.810531 -13.944040 -0.325839 1349 0.731346 0.682006 0.000000
-14.810493 -13.944004 -0.319589 1337 0.731346 0.682006 0.000000
-14.810296 -13.943816 -0.313331 1343 0.731346 0.682006 0.000000
-14.810674 -13.944185 -0.307097 1347 0.731346 0.682006 0.000000
-14.810699 -13.944199 -0.300847 1355 0.731346 0.682006 0.000000
-14.809961 -13.943518 -0.294584 1361 0.731346 0.682006 0.000000
-14.809707 -13.943270 -0.288326 1343 0.731346 0.682006 0.000000
-14.809765 -13.943336 -0.282085 1341 0.731346 0.682006 0.000000
-14.809992 -13.943547 -0.275843 1357 0.731346 0.682006 0.000000
-14.816327 -13.940202 -0.663428 1349 0.731346 0.682006 0.000000
-14.816793 -13.940641 -0.657203 1345 0.731346 0.682006 0.000000
-14.816842 -13.940686 -0.650943 1353 0.731346 0.682006 0.000000
-14.816558 -13.940414 -0.644675 1349 0.731346 0.682006 0.000000
-14.816648 -13.940506 -0.638434 1365 0.731346 0.682006 0.000000
-14.816360 -13.940233 -0.632167 1351 0.731346 0.682006 0.000000
-14.816606 -13.940473 -0.625924 1349 0.731346 0.682006 0.000000
-14.816847 -13.940695 -0.619682 1349 0.731346 0.682006 0.000000
-14.816401 -13.940285 -0.613406 1355 0.731346 0.682006 0.000000
-14.816108 -13.940007 -0.607139 1349 0.731346 0.682006 0.000000
-14.816246 -13.940135 -0.600897 1339 0.731346 0.682006 0.000000
-14.816912 -13.940772 -0.594671 1345 0.731346 0.682006 0.000000
-14.816986 -13.940837 -0.588420 1343 0.731346 0.682006 0.000000
-14.816699 -13.940564 -0.582152 1357 0.731346 0.682006 0.000000
-14.815969 -13.939889 -0.575869 1355 0.731346 0.682006 0.000000
-14.816362 -13.940258 -0.569635 1353 0.731346 0.682006 0.000000
-14.816700 -13.940583 -0.563392 1349 0.731346 0.682006 0.000000
-14.816295 -13.940191 -0.557126 1337 0.731346 0.682006 0.000000
-14.816848 -13.940712 -0.550900 1341 0.731346 0.682006 0.000000
-14.816483 -13.940378 -0.544634 1339 0.731346 0.682006 0.000000
-14.816397 -13.940289 -0.538374 1353 0.731346 0.682006 0.000000
-14.816679 -13.940558 -0.532131 1339 0.731346 0.682006 0.000000
-14.816570 -13.940465 -0.525882 1351 0.731346 0.682006 0.000000
-14.815838 -13.939775 -0.519599 1345 0.731346 0.682006 0.000000
-14.815632 -13.939580 -0.513341 1337 0.731346 0.682006 0.000000
-14.816385 -13.940299 -0.507114 1339 0.731346 0.682006 0.000000
-14.816492 -13.940403 -0.500872 1345 0.731346 0.682006 0.000000
-14.816399 -13.940309 -0.494613 1351 0.731346 0.682006 0.000000
-14.816072 -13.940006 -0.488356 1353 0.731346 0.682006 0.000000
-14.815716 -13.939664 -0.482089 1335 0.731346 0.682006 0.000000
-14.815919 -13.939870 -0.475847 1339 0.731346 0.682006 0.000000
-14.816552 -13.940469 -0.469621 1337 0.731346 0.682006 0.000000
-14.816609 -13.940520 -0.463370 1343 0.731346 0.682006 0.000000
-14.816180 -13.940109 -0.457104 1349 0.731346 0.682006 0.000000
-14.816440 -13.940359 -0.450862 1345 0.731346 0.682006 0.000000
-14.816266 -13.940203 -0.444603 1345 0.731346 0.682006 0.000000
-14.816317 -13.940248 -0.438352 1343 0.731346 0.682006 0.000000
-14.816629 -13.940541 -0.432119 1347 0.731346 0.682006 0.000000
-14.816074 -13.940030 -0.425854 1353 0.731346 0.682006 0.000000
-14.815756 -13.939719 -0.419587 1349 0.731346 0.682006 0.000000
-14.816421 -13.940355 -0.413361 1351 0.731346 0.682006 0.000000
-14.816513 -13.940448 -0.407110 1357 0.731346 0.682006 0.000000
-14.815429 -13.939428 -0.400830 1355 0.731346 0.682006 0.000000
-14.815262 -13.939263 -0.394581 1359 0.731346 0.682006 0.000000
-14.815928 -13.939899 -0.388345 1347 0.731346 0.682006 0.000000
-14.815851 -13.939833 -0.382095 1349 0.731346 0.682006 0.000000
-14.815134 -13.939155 -0.375832 1343 0.731346 0.682006 0.000000
-14.815654 -13.939637 -0.369597 1347 0.731346 0.682006 0.000000
-14.815730 -13.939715 -0.363346 1347 0.731346 0.682006 0.000000
-14.815372 -13.939388 -0.357089 1343 0.731346 0.682006 0.000000
-14.815560 -13.939569 -0.350847 1345 0.731346 0.682006 0.000000
-14.815592 -13.939588 -0.344597 1349 0.731346 0.682006 0.000000
-14.815508 -13.939514 -0.338348 1355 0.731346 0.682006 0.000000
-14.815151 -13.939186 -0.332091 1347 0.731346 0.682006 0.000000
-14.815545 -13.939555 -0.325847 1347 0.731346 0.682006 0.000000
-14.815722 -13.939729 -0.319605 1355 0.731346 0.682006 0.000000
-14.815526 -13.939540 -0.313347 1357 0.731346 0.682006 0.000000
-14.815704 -13.939713 -0.307105 1359 0.731346 0.682006 0.000000
-14.815715 -13.939727 -0.300855 1353 0.731346 0.682006 0.000000
-14.814982 -13.939037 -0.294591 1339 0.731346 0.682006 0.000000
-14.814889 -13.938944 -0.288342 1337 0.731346 0.682006 0.000000
-14.815211 -13.939257 -0.282099 1347 0.731346 0.682006 0.000000
-14.814854 -13.938915 -0.275852 1355 0.731346 0.682006 0.000000
-14.820794 -13.935359 -0.663430 1359 0.731346 0.682006 0.000000
-14.820245 -13.934840 -0.657155 1357 0.731346 0.682006 0.000000
-14.820072 -13.934683 -0.650897 1353 0.731346 0.682006 0.000000
-14.820962 -13.935522 -0.644678 1353 0.731346 0.682006 0.000000
-14.821316 -13.935861 -0.638435 1357 0.731346 0.682006 0.000000
-14.820765 -13.935341 -0.632160 1359 0.731346 0.682006 0.000000
-14.821224 -13.935776 -0.625925 1357 0.731346 0.682006 0.000000
-14.821473 -13.936005 -0.619683 1343 0.731346 0.682006 0.000000
-14.821341 -13.935893 -0.613424 1351 0.731346 0.682006 0.000000
-14.821582 -13.936116 -0.607181 1359 0.731346 0.682006 0.000000
-14.821457 -13.935997 -0.600922 1353 0.731346 0.682006 0.000000
-14.821107 -13.935676 -0.594655 1343 0.731346 0.682006 0.000000
-14.821501 -13.936045 -0.588422 1347 0.731346 0.682006 0.000000
-14.821470 -13.936014 -0.582162 1353 0.731346 0.682006 0.000000
-14.820747 -13.935344 -0.575888 1357 0.731346 0.682006 0.000000
-14.820869 -13.935460 -0.569637 1355 0.731346 0.682006 0.000000
-14.821159 -13.935735 -0.563394 1357 0.731346 0.682006 0.000000
-14.820587 -13.935197 -0.557119 1347 0.731346 0.682006 0.000000
-14.821141 -13.935719 -0.550894 1353 0.731346 0.682006 0.000000
-14.821262 -13.935835 -0.544643 1347 0.731346 0.682006 0.000000
-14.821224 -13.935797 -0.538393 1343 0.731346 0.682006 0.000000
-14.821450 -13.936008 -0.532151 1351 0.731346 0.682006 0.000000
-14.820926 -13.935522 -0.525875 1341 0.731346 0.682006 0.000000
-14.820506 -13.935131 -0.519609 1349 0.731346 0.682006 0.000000
-14.820683 -13.935290 -0.513367 1351 0.731346 0.682006 0.000000
-14.820471 -13.935102 -0.507109 1341 0.731346 0.682006 0.000000
-14.820750 -13.935356 -0.500866 1341 0.731346 0.682006 0.000000
-14.821120 -13.935706 -0.494623 1357 0.731346 0.682006 0.000000
-14.820971 -13.935569 -0.488364 1357 0.731346 0.682006 0.000000
-14.820592 -13.935223 -0.482107 1351 0.731346 0.682006 0.000000
-14.820329 -13.934970 -0.475850 1347 0.731346 0.682006 0.000000
-14.820116 -13.934769 -0.469592 1339 0.731346 0.682006 0.000000
-14.820271 -13.934923 -0.463340 1347 0.731346 0.682006 0.000000
-14.821057 -13.935668 -0.457122 1353 0.731346 0.682006 0.000000
-14.821482 -13.936062 -0.450878 1353 0.731346 0.682006 0.000000
-14.821149 -13.935753 -0.444621 1343 0.731346 0.682006 0.000000
-14.820560 -13.935203 -0.438347 1349 0.731346 0.682006 0.000000
-14.820170 -13.934836 -0.432090 1355 0.731346 0.682006 0.000000
-14.819735 -13.934433 -0.425824 1341 0.731346 0.682006 0.000000
-14.819402 -13.934124 -0.419567 1341 0.731346 0.682006 0.000000
-14.819762 -13.934455 -0.413334 1343 0.731346 0.682006 0.000000
-14.820237 -13.934900 -0.407089 1351 0.731346 0.682006 0.000000
-14.820319 -13.934985 -0.400848 1355 0.731346 0.682006 0.000000
-14.820410 -13.935076 -0.394597 1361 0.731346 0.682006 0.000000
-14.820596 -13.935254 -0.388355 1351 0.731346 0.682006 0.000000
-14.821059 -13.935679 -0.382111 1355 0.731346 0.682006 0.000000
-14.820184 -13.934863 -0.375849 1347 0.731346 0.682006 0.000000
-14.820107 -13.934796 -0.369589 1357 0.731346 0.682006 0.000000
-14.820286 -13.934969 -0.363347 1355 0.731346 0.682006 0.000000
-14.819952 -13.934647 -0.357090 1351 0.731346 0.682006 0.000000
-14.819436 -13.934167 -0.350825 1351 0.731346 0.682006 0.000000
-14.819350 -13.934093 -0.344576 1343 0.731346 0.682006 0.000000
-14.819057 -13.933816 -0.338328 1343 0.731346 0.682006 0.000000
-14.818973 -13.933743 -0.332069 1339 0.731346 0.682006 0.000000
-14.819740 -13.934459 -0.325842 1337 0.731346 0.682006 0.000000
-14.819919 -13.934632 -0.319600 1349 0.731346 0.682006 0.000000
-14.819297 -13.934043 -0.313335 1343 0.731346 0.682006 0.000000
-14.819308 -13.934058 -0.307085 1349 0.731346 0.682006 0.000000
-14.819480 -13.934226 -0.300843 1343 0.731346 0.682006 0.000000
-14.818963 -13.933745 -0.294588 1339 0.731346 0.682006 0.000000
-14.818597 -13.933397 -0.288331 1347 0.731346 0.682006 0.000000
-14.819303 -13.934066 -0.282095 1347 0.731346 0.682006 0.000000
-14.820168 -13.934872 -0.275866 1347 0.731346 0.682006 0.000000
-14.826308 -13.931514 -0.663482 1361 0.731346 0.682006 0.000000
-14.825927 -13.931152 -0.657206 1355 0.731346 0.682006 0.000000
-14.825954 -13.931193 -0.650955 1359 0.731346 0.682006 0.000000
-14.825941 -13.931175 -0.644695 1357 0.731346 0.682006 0.000000
-14.826143 -13.931369 -0.638453 1353 0.731346 0.682006 0.000000
-14.826065 -13.931300 -0.632194 1351 0.731346 0.682006 0.000000
-14.825731 -13.930978 -0.625927 1359 0.731346 0.682006 0.000000
-14.825494 -13.930758 -0.619669 1343 0.731346 0.682006 0.000000
-14.825266 -13.930544 -0.613401 1341 0.731346 0.682006 0.000000
-14.825660 -13.930926 -0.607167 1345 0.731346 0.682006 0.000000
-14.825957 -13.931207 -0.600924 1357 0.731346 0.682006 0.000000
-14.826191 -13.931424 -0.594682 1357 0.731346 0.682006 0.000000
-14.826064 -13.931304 -0.588423 1355 0.731346 0.682006 0.000000
-14.825548 -13.930824 -0.582147 1361 0.731346 0.682006 0.000000
-14.825095 -13.930394 -0.575882 1347 0.731346 0.682006 0.000000
-14.825121 -13.930421 -0.569631 1351 0.731346 0.682006 0.000000
-14.825133 -13.930436 -0.563381 1347 0.731346 0.682006 0.000000
-14.825199 -13.930509 -0.557130 1343 0.731346 0.682006 0.000000
-14.825225 -13.930521 -0.550880 1347 0.731346 0.682006 0.000000
-14.825131 -13.930441 -0.544620 1361 0.731346 0.682006 0.000000
-14.825197 -13.930499 -0.538370 1343 0.731346 0.682006 0.000000
-14.825264 -13.930571 -0.532119 1333 0.731346 0.682006 0.000000
-14.825650 -13.930934 -0.525885 1343 0.731346 0.682006 0.000000
-14.825707 -13.930985 -0.519634 1349 0.731346 0.682006 0.000000
-14.825239 -13.930544 -0.513369 1349 0.731346 0.682006 0.000000
-14.825242 -13.930552 -0.507118 1351 0.731346 0.682006 0.000000
-14.825737 -13.931015 -0.500884 1351 0.731346 0.682006 0.000000
-14.826268 -13.931520 -0.494649 1359 0.731346 0.682006 0.000000
-14.825361 -13.930678 -0.488367 1359 0.731346 0.682006 0.000000
-14.824461 -13.929830 -0.482085 1349 0.731346 0.682006 0.000000
-14.825093 -13.930428 -0.475859 1359 0.731346 0.682006 0.000000
-14.825408 -13.930721 -0.469616 1345 0.731346 0.682006 0.000000
-14.825896 -13.931179 -0.463381 1361 0.731346 0.682006 0.000000
-14.825994 -13.931275 -0.457130 1361 0.731346 0.682006 0.000000
-14.824927 -13.930269 -0.450850 1341 0.731346 0.682006 0.000000
-14.824540 -13.929916 -0.444583 1343 0.731346 0.682006 0.000000
-14.824853 -13.930210 -0.438350 1347 0.731346 0.682006 0.000000
-14.825541 -13.930850 -0.432114 1359 0.731346 0.682006 0.000000
-14.825369 -13.930695 -0.425865 1345 0.731346 0.682006 0.000000
-14.824606 -13.929980 -0.419592 1347 0.731346 0.682006 0.000000
-14.824590 -13.929961 -0.413342 1347 0.731346 0.682006 0.000000
-14.825057 -13.930401 -0.407098 1347 0.731346 0.682006 0.000000
-14.824924 -13.930289 -0.400849 1345 0.731346 0.682006 0.000000
-14.824695 -13.930076 -0.394591 1345 0.731346 0.682006 0.000000
-14.824623 -13.929999 -0.388341 1351 0.731346 0.682006 0.000000
-14.824498 -13.929894 -0.382092 1351 0.731346 0.682006 0.000000
-14.824901 -13.930270 -0.375848 1349 0.731346 0.682006 0.000000
-14.824663 -13.930050 -0.369600 1345 0.731346 0.682006 0.000000
-14.824316 -13.929729 -0.363334 1347 0.731346 0.682006 0.000000
-14.824396 -13.929799 -0.357093 1341 0.731346 0.682006 0.000000
-14.824799 -13.930176 -0.350849 1339 0.731346 0.682006 0.000000
-14.824609 -13.930006 -0.344600 1353 0.731346 0.682006 0.000000
-14.824045 -13.929476 -0.338335 1341 0.731346 0.682006 0.000000
-14.824383 -13.929801 -0.332092 1351 0.731346 0.682006 0.000000
-14.824401 -13.929809 -0.325852 1355 0.731346 0.682006 0.000000
-14.824689 -13.930081 -0.319609 1355 0.731346 0.682006 0.000000
-14.824861 -13.930249 -0.313357 1347 0.731346 0.682006 0.000000
-14.824718 -13.930117 -0.307108 1357 0.731346 0.682006 0.000000
-14.824307 -13.929732 -0.300852 1357 0.731346 0.682006 0.000000
-14.824693 -13.930096 -0.294608 1361 0.731346 0.682006 0.000000
-14.824703 -13.930110 -0.288358 1349 0.731346 0.682006 0.000000
-14.824928 -13.930321 -0.282116 1349 0.731346 0.682006 0.000000
-14.825042 -13.930429 -0.275875 1357 0.731346 0.682006 0.000000
-14.830331 -13.926585 -0.663467 1349 0.731346 0.682006 0.000000
-14.829896 -13.926183 -0.657191 1355 0.731346 0.682006 0.000000
-14.829451 -13.925772 -0.650915 1361 0.731346 0.682006 0.000000
-14.829699 -13.926001 -0.644672 1361 0.731346 0.682006 0.000000
-14.829733 -13.926034 -0.638422 1361 0.731346 0.682006 0.000000
-14.829345 -13.925669 -0.632155 1353 0.731346 0.682006 0.000000
-14.829651 -13.925955 -0.625912 1353 0.731346 0.682006 0.000000
-14.829942 -13.926245 -0.619669 1347 0.731346 0.682006 0.000000
-14.829607 -13.925920 -0.613402 1355 0.731346 0.682006 0.000000
-14.829570 -13.925898 -0.607153 1359 0.731346 0.682006 0.000000
-14.829660 -13.925975 -0.600902 1341 0.731346 0.682006 0.000000
-14.829894 -13.926206 -0.594659 1351 0.731346 0.682006 0.000000
-14.830089 -13.926378 -0.588417 1347 0.731346 0.682006 0.000000
-14.830314 -13.926601 -0.582165 1357 0.731346 0.682006 0.000000
-14.830341 -13.926629 -0.575915 1369 0.731346 0.682006 0.000000
-14.830472 -13.926751 -0.569673 1357 0.731346 0.682006 0.000000
-14.830171 -13.926468 -0.563406 1355 0.731346 0.682006 0.000000
-14.829812 -13.926126 -0.557139 1349 0.731346 0.682006 0.000000
-14.830040 -13.926351 -0.550897 1349 0.731346 0.682006 0.000000
-14.830112 -13.926414 -0.544646 1335 0.731346 0.682006 0.000000
-14.830395 -13.926682 -0.538403 1349 0.731346 0.682006 0.000000
-14.830357 -13.926645 -0.532153 1355 0.731346 0.682006 0.000000
-14.829833 -13.926160 -0.525878 1353 0.731346 0.682006 0.000000
-14.830371 -13.926669 -0.519643 1371 0.731346 0.682006 0.000000
-14.830165 -13.926474 -0.513385 1361 0.731346 0.682006 0.000000
-14.830279 -13.926583 -0.507144 1351 0.731346 0.682006 0.000000
-14.830706 -13.926991 -0.500909 1349 0.731346 0.682006 0.000000
-14.830452 -13.926745 -0.494642 1349 0.731346 0.682006 0.000000
-14.830182 -13.926500 -0.488384 1357 0.731346 0.682006 0.000000
-14.829922 -13.926261 -0.482126 1343 0.731346 0.682006 0.000000
-14.829708 -13.926060 -0.475868 1355 0.731346 0.682006 0.000000
-14.829544 -13.925910 -0.469609 1343 0.731346 0.682006 0.000000
-14.829753 -13.926108 -0.463367 1349 0.731346 0.682006 0.000000
-14.829380 -13.925754 -0.457101 1349 0.731346 0.682006 0.000000
-14.829270 -13.925648 -0.450852 1343 0.731346 0.682006 0.000000
-14.829528 -13.925896 -0.444609 1347 0.731346 0.682006 0.000000
-14.829730 -13.926087 -0.438367 1347 0.731346 0.682006 0.000000
-14.829661 -13.926026 -0.432107 1355 0.731346 0.682006 0.000000
-14.829488 -13.925870 -0.425859 1355 0.731346 0.682006 0.000000
-14.828835 -13.925257 -0.419585 1341 0.731346 0.682006 0.000000
-14.829039 -13.925449 -0.413343 1335 0.731346 0.682006 0.000000
-14.829184 -13.925582 -0.407101 1331 0.731346 0.682006 0.000000
-14.828475 -13.924911 -0.400828 1341 0.731346 0.682006 0.000000
-14.828397 -13.924844 -0.394578 1339 0.731346 0.682006 0.000000
-14.828433 -13.924877 -0.388328 1349 0.731346 0.682006 0.000000
-14.829161 -13.925564 -0.382101 1355 0.731346 0.682006 0.000000
-14.829354 -13.925749 -0.375859 1345 0.731346 0.682006 0.000000
-14.828686 -13.925123 -0.369585 1349 0.731346 0.682006 0.000000
-14.828817 -13.925245 -0.363344 1345 0.731346 0.682006 0.000000
-14.829002 -13.925426 -0.357102 1355 0.731346 0.682006 0.000000
-14.828502 -13.924956 -0.350836 1345 0.731346 0.682006 0.000000
-14.828632 -13.925080 -0.344595 1349 0.731346 0.682006 0.000000
-14.828547 -13.925006 -0.338346 1347 0.731346 0.682006 0.000000
-14.828349 -13.924816 -0.332087 1337 0.731346 0.682006 0.000000
-14.828105 -13.924590 -0.325839 1357 0.731346 0.682006 0.000000
-14.827588 -13.924110 -0.319574 1353 0.731346 0.682006 0.000000
-14.828245 -13.924726 -0.313338 1357 0.731346 0.682006 0.000000
-14.828575 -13.925046 -0.307105 1351 0.731346 0.682006 0.000000
-14.828810 -13.925262 -0.300852 1357 0.731346 0.682006 0.000000
-14.829034 -13.925472 -0.294610 1349 0.731346 0.682006 0.000000
-14.828726 -13.925182 -0.288363 1347 0.731346 0.682006 0.000000
-14.828201 -13.924697 -0.282097 1349 0.731346 0.682006 0.000000
-14.828365 -13.924858 -0.275856 1357 0.731346 0.682006 0.000000
-14.833968 -13.921647 -0.663444 1345 0.731346 0.682006 0.000000
-14.834227 -13.921895 -0.657201 1343 0.731346 0.682006 0.000000
-14.834421 -13.922081 -0.650959 1349 0.731346 0.682006 0.000000
-14.834191 -13.921867 -0.644691 1355 0.731346 0.682006 0.000000
-14.834760 -13.922402 -0.638465 1359 0.731346 0.682006 0.000000
-14.834635 -13.922283 -0.632206 1359 0.731346 0.682006 0.000000
-14.834343 -13.922020 -0.625939 1367 0.731346 0.682006 0.000000
-14.834543 -13.922197 -0.619687 1359 0.731346 0.682006 0.000000
-14.834833 -13.922472 -0.613454 1353 0.731346 0.682006 0.000000
-14.834917 -13.922557 -0.607203 1347 0.731346 0.682006 0.000000
-14.834312 -13.921994 -0.600919 1351 0.731346 0.682006 0.000000
-14.834121 -13.921810 -0.594660 1351 0.731346 0.682006 0.000000
-14.834349 -13.922035 -0.588418 1365 0.731346 0.682006 0.000000
-14.834326 -13.922010 -0.582168 1363 0.731346 0.682006 0.000000
-14.833658 -13.921385 -0.575884 1347 0.731346 0.682006 0.000000
-14.834003 -13.921703 -0.569651 1343 0.731346 0.682006 0.000000
-14.834334 -13.922023 -0.563408 1337 0.731346 0.682006 0.000000
-14.834624 -13.922297 -0.557165 1345 0.731346 0.682006 0.000000
-14.834961 -13.922608 -0.550921 1343 0.731346 0.682006 0.000000
-14.835402 -13.923028 -0.544687 1355 0.731346 0.682006 0.000000
-14.835311 -13.922949 -0.538438 1357 0.731346 0.682006 0.000000
-14.834784 -13.922448 -0.532163 1349 0.731346 0.682006 0.000000
-14.834851 -13.922520 -0.525912 1351 0.731346 0.682006 0.000000
-14.834326 -13.922020 -0.519647 1351 0.731346 0.682006 0.000000
-14.834024 -13.921737 -0.513379 1359 0.731346 0.682006 0.000000
-14.833972 -13.921700 -0.507130 1351 0.731346 0.682006 0.000000
-14.833821 -13.921549 -0.500871 1341 0.731346 0.682006 0.000000
-14.834087 -13.921804 -0.494628 1353 0.731346 0.682006 0.000000
-14.833818 -13.921559 -0.488371 1351 0.731346 0.682006 0.000000
-14.833877 -13.921612 -0.482120 1357 0.731346 0.682006 0.000000
-14.834086 -13.921810 -0.475878 1361 0.731346 0.682006 0.000000
-14.833819 -13.921566 -0.469620 1345 0.731346 0.682006 0.000000
-14.834188 -13.921916 -0.463376 1357 0.731346 0.682006 0.000000
-14.834511 -13.922215 -0.457133 1353 0.731346 0.682006 0.000000
-14.833858 -13.921602 -0.450869 1351 0.731346 0.682006 0.000000
-14.833318 -13.921103 -0.444594 1355 0.731346 0.682006 0.000000
-14.833311 -13.921091 -0.438344 1351 0.731346 0.682006 0.000000
-14.833035 -13.920840 -0.432086 1343 0.731346 0.682006 0.000000
-14.833228 -13.921025 -0.425845 1345 0.731346 0.682006 0.000000
-14.833280 -13.921071 -0.419594 1341 0.731346 0.682006 0.000000
-14.833210 -13.921010 -0.413344 1347 0.731346 0.682006 0.000000
-14.833348 -13.921139 -0.407103 1349 0.731346 0.682006 0.000000
-14.833389 -13.921178 -0.400852 1351 0.731346 0.682006 0.000000
-14.833424 -13.921210 -0.394602 1349 0.731346 0.682006 0.000000
-14.833458 -13.921244 -0.388352 1349 0.731346 0.682006 0.000000
-14.833331 -13.921124 -0.382103 1357 0.731346 0.682006 0.000000
-14.833470 -13.921253 -0.375851 1353 0.731346 0.682006 0.000000
-14.833817 -13.921585 -0.369618 1343 0.731346 0.682006 0.000000
-14.833795 -13.921562 -0.363368 1351 0.731346 0.682006 0.000000
-14.833285 -13.921088 -0.357102 1347 0.731346 0.682006 0.000000
-14.832986 -13.920817 -0.350845 1347 0.731346 0.682006 0.000000
-14.832907 -13.920735 -0.344596 1349 0.731346 0.682006 0.000000
-14.833518 -13.921315 -0.338360 1357 0.731346 0.682006 0.000000
-14.833528 -13.921329 -0.332109 1355 0.731346 0.682006 0.000000
-14.833610 -13.921400 -0.325869 1351 0.731346 0.682006 0.000000
-14.834059 -13.921826 -0.319624 1359 0.731346 0.682006 0.000000
-14.833160 -13.920992 -0.313362 1353 0.731346 0.682006 0.000000
-14.832315 -13.920201 -0.307090 1351 0.731346 0.682006 0.000000
-14.832341 -13.920215 -0.300850 1351 0.731346 0.682006 0.000000
-14.832351 -13.920229 -0.294600 1349 0.731346 0.682006 0.000000
-14.832363 -13.920244 -0.288349 1347 0.731346 0.682006 0.000000
-14.832796 -13.920657 -0.282105 1351 0.731346 0.682006 0.000000
-14.833286 -13.921116 -0.275870 1355 0.731346 0.682006 0.000000
-14.839103 -13.917780 -0.663478 1335 0.731346 0.682006 0.000000
-14.838658 -13.917370 -0.657212 1341 0.731346 0.682006 0.000000
-14.838595 -13.917300 -0.650952 1353 0.731346 0.682006 0.000000
-14.839006 -13.917697 -0.644718 1361 0.731346 0.682006 0.000000
-14.839416 -13.918079 -0.638474 1359 0.731346 0.682006 0.000000
-14.839561 -13.918213 -0.632233 1359 0.731346 0.682006 0.000000
-14.838902 -13.917594 -0.625949 1349 0.731346 0.682006 0.000000
-14.838178 -13.916924 -0.619665 1343 0.731346 0.682006 0.000000
-14.838109 -13.916862 -0.613406 1343 0.731346 0.682006 0.000000
-14.838612 -13.917332 -0.607171 1359 0.731346 0.682006 0.000000
-14.838375 -13.917111 -0.600913 1357 0.731346 0.682006 0.000000
-14.838082 -13.916835 -0.594646 1355 0.731346 0.682006 0.000000
-14.838964 -13.917666 -0.588427 1369 0.731346 0.682006 0.000000
-14.838982 -13.917688 -0.582177 1347 0.731346 0.682006 0.000000
-14.838202 -13.916961 -0.575894 1347 0.731346 0.682006 0.000000
-14.838387 -13.917126 -0.569652 1339 0.731346 0.682006 0.000000
-14.838837 -13.917553 -0.563418 1347 0.731346 0.682006 0.000000
-14.838271 -13.917021 -0.557143 1343 0.731346 0.682006 0.000000
-14.838602 -13.917340 -0.550900 1343 0.731346 0.682006 0.000000
-14.838675 -13.917405 -0.544649 1349 0.731346 0.682006 0.000000
-14.838471 -13.917224 -0.538391 1343 0.731346 0.682006 0.000000
-14.838641 -13.917377 -0.532149 1357 0.731346 0.682006 0.000000
-14.838756 -13.917487 -0.525898 1347 0.731346 0.682006 0.000000
-14.838502 -13.917253 -0.519640 1355 0.731346 0.682006 0.000000
-14.838193 -13.916964 -0.513373 1357 0.731346 0.682006 0.000000
-14.838786 -13.917516 -0.507147 1351 0.731346 0.682006 0.000000
-14.838892 -13.917620 -0.500896 1351 0.731346 0.682006 0.000000
-14.838846 -13.917577 -0.494646 1359 0.731346 0.682006 0.000000
-14.838689 -13.917434 -0.488387 1349 0.731346 0.682006 0.000000
-14.838318 -13.917094 -0.482121 1351 0.731346 0.682006 0.000000
-14.837625 -13.916434 -0.475847 1353 0.731346 0.682006 0.000000
-14.838001 -13.916791 -0.469613 1353 0.731346 0.682006 0.000000
-14.838475 -13.917236 -0.463379 1357 0.731346 0.682006 0.000000
-14.838248 -13.917037 -0.457121 1353 0.731346 0.682006 0.000000
-14.838305 -13.917089 -0.450870 1343 0.731346 0.682006 0.000000
-14.837974 -13.916780 -0.444613 1343 0.731346 0.682006 0.000000
-14.838070 -13.916863 -0.438362 1343 0.731346 0.682006 0.000000
-14.837904 -13.916712 -0.432103 1345 0.731346 0.682006 0.000000
-14.838051 -13.916861 -0.425862 1355 0.731346 0.682006 0.000000
-14.838358 -13.917148 -0.419619 1357 0.731346 0.682006 0.000000
-14.838128 -13.916934 -0.413361 1349 0.731346 0.682006 0.000000
-14.838011 -13.916821 -0.407112 1343 0.731346 0.682006 0.000000
-14.838148 -13.916949 -0.400860 1343 0.731346 0.682006 0.000000
-14.838775 -13.917541 -0.394634 1347 0.731346 0.682006 0.000000
-14.838647 -13.917420 -0.388375 1349 0.731346 0.682006 0.000000
-14.837820 -13.916656 -0.382103 1327 0.731346 0.682006 0.000000
-14.837959 -13.916785 -0.375861 1345 0.731346 0.682006 0.000000
-14.838367 -13.917167 -0.369617 1361 0.731346 0.682006 0.000000
-14.838449 -13.917238 -0.363376 1361 0.731346 0.682006 0.000000
-14.837989 -13.916816 -0.357111 1349 0.731346 0.682006 0.000000
-14.838239 -13.917045 -0.350868 1345 0.731346 0.682006 0.000000
-14.837881 -13.916717 -0.344611 1345 0.731346 0.682006 0.000000
-14.837428 -13.916286 -0.338355 1357 0.731346 0.682006 0.000000
-14.837871 -13.916707 -0.332111 1359 0.731346 0.682006 0.000000
-14.837729 -13.916575 -0.325862 1349 0.731346 0.682006 0.000000
-14.836950 -13.915849 -0.319599 1349 0.731346 0.682006 0.000000
-14.837232 -13.916117 -0.313357 1349 0.731346 0.682006 0.000000
