690
-14.699518 -14.060184 -0.676182 777 0.295722 0.955274 0.000000
-14.698120 -14.058857 -0.669865 773 0.295722 0.955274 0.000000
-14.698334 -14.059051 -0.663613 761 0.295722 0.955274 0.000000
-14.699534 -14.060199 -0.657421 781 0.295722 0.955274 0.000000
-14.698941 -14.059639 -0.651137 773 0.295722 0.955274 0.000000
-14.698288 -14.059015 -0.644853 777 0.295722 0.955274 0.000000
-14.697429 -14.058184 -0.638571 775 0.295722 0.955274 0.000000
-14.697831 -14.058571 -0.632337 771 0.295722 0.955274 0.000000
-14.698124 -14.058857 -0.626094 757 0.295722 0.955274 0.000000
-14.698378 -14.059096 -0.619851 773 0.295722 0.955274 0.000000
-14.698091 -14.058826 -0.613584 785 0.295722 0.955274 0.000000
-14.697961 -14.058699 -0.607335 779 0.295722 0.955274 0.000000
-14.697830 -14.058569 -0.601076 761 0.295722 0.955274 0.000000
-14.698382 -14.059107 -0.594841 781 0.295722 0.955274 0.000000
-14.699043 -14.059733 -0.588614 791 0.295722 0.955274 0.000000
-14.698012 -14.058748 -0.582324 785 0.295722 0.955274 0.000000
-14.697662 -14.058413 -0.576057 775 0.295722 0.955274 0.000000
-14.697744 -14.058485 -0.569816 787 0.295722 0.955274 0.000000
-14.697871 -14.058608 -0.563565 797 0.295722 0.955274 0.000000
-14.698469 -14.059183 -0.557339 811 0.295722 0.955274 0.000000
-14.698480 -14.059197 -0.551089 815 0.295722 0.955274 0.000000
-14.697645 -14.058397 -0.544807 805 0.295722 0.955274 0.000000
-14.696881 -14.057657 -0.538524 787 0.295722 0.955274 0.000000
-14.697415 -14.058167 -0.532298 809 0.295722 0.955274 0.000000
-14.697371 -14.058137 -0.526049 789 0.295722 0.955274 0.000000
-14.697596 -14.058352 -0.519806 793 0.295722 0.955274 0.000000
-14.698561 -14.059267 -0.513587 819 0.295722 0.955274 0.000000
-14.699252 -14.059933 -0.507361 807 0.295722 0.955274 0.000000
-14.698043 -14.058772 -0.501072 807 0.295722 0.955274 0.000000
-14.697466 -14.058226 -0.494797 811 0.295722 0.955274 0.000000
-14.698470 -14.059188 -0.488587 815 0.295722 0.955274 0.000000
-14.697793 -14.058531 -0.482314 807 0.295722 0.955274 0.000000
-14.696894 -14.057666 -0.476032 797 0.295722 0.955274 0.000000
-14.697267 -14.058029 -0.469798 797 0.295722 0.955274 0.000000
-14.697260 -14.058017 -0.463548 809 0.295722 0.955274 0.000000
-14.697516 -14.058264 -0.451056 797 0.295722 0.955274 0.000000
-14.697668 -14.058407 -0.444814 787 0.295722 0.955274 0.000000
-14.697481 -14.058228 -0.426065 809 0.295722 0.955274 0.000000
-14.698002 -14.058727 -0.419830 811 0.295722 0.955274 0.000000
-14.697465 -14.058212 -0.413565 791 0.295722 0.955274 0.000000
-14.697411 -14.058169 -0.394815 799 0.295722 0.955274 0.000000
-14.697710 -14.058448 -0.388572 811 0.295722 0.955274 0.000000
-14.697056 -14.057823 -0.382308 815 0.295722 0.955274 0.000000
-14.697088 -14.057852 -0.363568 811 0.295722 0.955274 0.000000
-14.698330 -14.059048 -0.357356 805 0.295722 0.955274 0.000000
-14.697619 -14.058363 -0.351082 805 0.295722 0.955274 0.000000
-14.696849 -14.057631 -0.344819 783 0.295722 0.955274 0.000000
-14.697877 -14.058611 -0.338600 775 0.295722 0.955274 0.000000
-14.697904 -14.058639 -0.332349 743 0.295722 0.955274 0.000000
-14.696918 -14.057691 -0.326078 755 0.295722 0.955274 0.000000
-14.696874 -14.057645 -0.319829 755 0.295722 0.955274 0.000000
-14.697589 -14.058330 -0.313602 759 0.295722 0.955274 0.000000
-14.697069 -14.057842 -0.307346 763 0.295722 0.955274 0.000000
-14.696789 -14.057575 -0.288599 739 0.295722 0.955274 0.000000
-14.705746 -14.057371 -0.676268 799 0.295722 0.955274 0.000000
-14.705788 -14.057410 -0.670017 795 0.295722 0.955274 0.000000
-14.705838 -14.057457 -0.663756 791 0.295722 0.955274 0.000000
-14.705231 -14.056885 -0.657482 781 0.295722 0.955274 0.000000
-14.705327 -14.056982 -0.651231 783 0.295722 0.955274 0.000000
-14.705472 -14.057118 -0.644979 783 0.295722 0.955274 0.000000
-14.705882 -14.057500 -0.638745 791 0.295722 0.955274 0.000000
-14.705444 -14.057081 -0.632469 779 0.295722 0.955274 0.000000
-14.704831 -14.056503 -0.626195 785 0.295722 0.955274 0.000000
-14.704661 -14.056341 -0.619936 785 0.295722 0.955274 0.000000
-14.705220 -14.056871 -0.613701 799 0.295722 0.955274 0.000000
-14.704988 -14.056646 -0.607443 793 0.295722 0.955274 0.000000
-14.704059 -14.055758 -0.601152 771 0.295722 0.955274 0.000000
-14.705142 -14.056797 -0.594941 795 0.295722 0.955274 0.000000
-14.705270 -14.056920 -0.588700 789 0.295722 0.955274 0.000000
-14.703659 -14.055379 -0.582375 769 0.295722 0.955274 0.000000
-14.703052 -14.054793 -0.576101 785 0.295722 0.955274 0.000000
-14.704127 -14.055826 -0.569890 799 0.295722 0.955274 0.000000
-14.704310 -14.055995 -0.563648 807 0.295722 0.955274 0.000000
-14.704377 -14.056067 -0.557398 799 0.295722 0.955274 0.000000
-14.704928 -14.056590 -0.551172 785 0.295722 0.955274 0.000000
-14.704993 -14.056649 -0.544922 773 0.295722 0.955274 0.000000
-14.704582 -14.056265 -0.538655 783 0.295722 0.955274 0.000000
-14.704123 -14.055826 -0.532389 803 0.295722 0.955274 0.000000
-14.704399 -14.056085 -0.526147 809 0.295722 0.955274 0.000000
-14.705201 -14.056853 -0.519919 797 0.295722 0.955274 0.000000
-14.705689 -14.057312 -0.513684 787 0.295722 0.955274 0.000000
-14.704643 -14.056314 -0.507404 811 0.295722 0.955274 0.000000
-14.703158 -14.054902 -0.501098 793 0.295722 0.955274 0.000000
-14.703795 -14.055510 -0.494872 805 0.295722 0.955274 0.000000
-14.704448 -14.056129 -0.488645 817 0.295722 0.955274 0.000000
-14.704547 -14.056228 -0.482394 797 0.295722 0.955274 0.000000
-14.704657 -14.056324 -0.476143 809 0.295722 0.955274 0.000000
-14.704081 -14.055778 -0.469878 777 0.295722 0.955274 0.000000
-14.703591 -14.055315 -0.463613 781 0.295722 0.955274 0.000000
-14.703491 -14.055211 -0.457364 783 0.295722 0.955274 0.000000
-14.704059 -14.055760 -0.451128 791 0.295722 0.955274 0.000000
-14.704852 -14.056510 -0.444901 783 0.295722 0.955274 0.000000
-14.704472 -14.056149 -0.438644 779 0.295722 0.955274 0.000000
-14.703771 -14.055488 -0.432370 785 0.295722 0.955274 0.000000
-14.703663 -14.055378 -0.426111 807 0.295722 0.955274 0.000000
-14.704645 -14.056321 -0.419892 801 0.295722 0.955274 0.000000
-14.704689 -14.056361 -0.413651 777 0.295722 0.955274 0.000000
-14.703939 -14.055646 -0.407378 785 0.295722 0.955274 0.000000
-14.703597 -14.055318 -0.401121 787 0.295722 0.955274 0.000000
-14.704281 -14.055964 -0.394885 785 0.295722 0.955274 0.000000
-14.704048 -14.055738 -0.388627 801 0.295722 0.955274 0.000000
-14.703597 -14.055320 -0.382371 801 0.295722 0.955274 0.000000
-14.704790 -14.056449 -0.376150 813 0.295722 0.955274 0.000000
-14.704347 -14.056025 -0.369894 793 0.295722 0.955274 0.000000
-14.703317 -14.055039 -0.363613 785 0.295722 0.955274 0.000000
-14.702977 -14.054726 -0.357356 789 0.295722 0.955274 0.000000
-14.701835 -14.053635 -0.351087 787 0.295722 0.955274 0.000000
-14.702387 -14.054159 -0.344851 779 0.295722 0.955274 0.000000
-14.702946 -14.054689 -0.338616 767 0.295722 0.955274 0.000000
-14.702385 -14.054154 -0.332351 739 0.295722 0.955274 0.000000
-14.703195 -14.054930 -0.326123 743 0.295722 0.955274 0.000000
-14.703636 -14.055350 -0.319889 755 0.295722 0.955274 0.000000
-14.704186 -14.055873 -0.313654 771 0.295722 0.955274 0.000000
-14.703938 -14.055635 -0.307396 755 0.295722 0.955274 0.000000
-14.703049 -14.054791 -0.301134 741 0.295722 0.955274 0.000000
-14.702903 -14.054650 -0.294875 749 0.295722 0.955274 0.000000
-14.704082 -14.055781 -0.288654 759 0.295722 0.955274 0.000000
-14.703239 -14.054976 -0.282392 747 0.295722 0.955274 0.000000
-14.713848 -14.056516 -0.676445 813 0.295722 0.955274 0.000000
-14.712879 -14.055593 -0.670143 789 0.295722 0.955274 0.000000
-14.713719 -14.056395 -0.663925 803 0.295722 0.955274 0.000000
-14.713284 -14.055977 -0.657649 817 0.295722 0.955274 0.000000
-14.711525 -14.054300 -0.651316 789 0.295722 0.955274 0.000000
-14.711670 -14.054437 -0.645064 769 0.295722 0.955274 0.000000
-14.712236 -14.054973 -0.638839 789 0.295722 0.955274 0.000000
-14.712537 -14.055264 -0.632596 787 0.295722 0.955274 0.000000
-14.712775 -14.055491 -0.626354 797 0.295722 0.955274 0.000000
-14.712871 -14.055574 -0.620102 803 0.295722 0.955274 0.000000
-14.712687 -14.055402 -0.613844 799 0.295722 0.955274 0.000000
-14.712399 -14.055132 -0.607577 777 0.295722 0.955274 0.000000
-14.712426 -14.055160 -0.601326 783 0.295722 0.955274 0.000000
-14.711129 -14.053915 -0.595018 781 0.295722 0.955274 0.000000
-14.710896 -14.053690 -0.588750 765 0.295722 0.955274 0.000000
-14.710282 -14.053112 -0.582476 787 0.295722 0.955274 0.000000
-14.709032 -14.051919 -0.576178 773 0.295722 0.955274 0.000000
-14.710382 -14.053203 -0.569975 765 0.295722 0.955274 0.000000
-14.711772 -14.054533 -0.563771 793 0.295722 0.955274 0.000000
-14.711804 -14.054553 -0.557521 797 0.295722 0.955274 0.000000
-14.711925 -14.054670 -0.551270 787 0.295722 0.955274 0.000000
-14.712467 -14.055186 -0.545045 789 0.295722 0.955274 0.000000
-14.712534 -14.055259 -0.538794 779 0.295722 0.955274 0.000000
-14.711597 -14.054363 -0.532502 793 0.295722 0.955274 0.000000
-14.711286 -14.054060 -0.526235 781 0.295722 0.955274 0.000000
-14.711665 -14.054430 -0.520001 787 0.295722 0.955274 0.000000
-14.711363 -14.054133 -0.513734 799 0.295722 0.955274 0.000000
-14.711366 -14.054141 -0.507484 787 0.295722 0.955274 0.000000
-14.711472 -14.054246 -0.501243 791 0.295722 0.955274 0.000000
-14.710267 -14.053091 -0.494944 785 0.295722 0.955274 0.000000
-14.710591 -14.053402 -0.488701 807 0.295722 0.955274 0.000000
-14.711174 -14.053951 -0.482475 801 0.295722 0.955274 0.000000
-14.710958 -14.053754 -0.476217 791 0.295722 0.955274 0.000000
-14.711596 -14.054360 -0.469981 789 0.295722 0.955274 0.000000
-14.711591 -14.054347 -0.463731 799 0.295722 0.955274 0.000000
-14.710527 -14.053336 -0.457451 799 0.295722 0.955274 0.000000
-14.711212 -14.053995 -0.451214 795 0.295722 0.955274 0.000000
-14.712211 -14.054952 -0.444995 775 0.295722 0.955274 0.000000
-14.711515 -14.054280 -0.438721 793 0.295722 0.955274 0.000000
-14.710609 -14.053411 -0.432449 791 0.295722 0.955274 0.000000
-14.710331 -14.053147 -0.426192 813 0.295722 0.955274 0.000000
-14.710381 -14.053193 -0.419941 797 0.295722 0.955274 0.000000
-14.709783 -14.052629 -0.413677 783 0.295722 0.955274 0.000000
-14.709817 -14.052661 -0.407426 765 0.295722 0.955274 0.000000
-14.710813 -14.053602 -0.401197 781 0.295722 0.955274 0.000000
-14.709784 -14.052630 -0.394926 787 0.295722 0.955274 0.000000
-14.710301 -14.053114 -0.388681 785 0.295722 0.955274 0.000000
-14.710644 -14.053452 -0.382448 803 0.295722 0.955274 0.000000
-14.709784 -14.052621 -0.376176 795 0.295722 0.955274 0.000000
-14.710021 -14.052847 -0.369934 779 0.295722 0.955274 0.000000
-14.709837 -14.052674 -0.363675 773 0.295722 0.955274 0.000000
-14.708854 -14.051740 -0.357404 791 0.295722 0.955274 0.000000
-14.709521 -14.052372 -0.351168 779 0.295722 0.955274 0.000000
-14.710809 -14.053605 -0.344955 793 0.295722 0.955274 0.000000
-14.710467 -14.053278 -0.338689 771 0.295722 0.955274 0.000000
-14.709640 -14.052485 -0.332426 741 0.295722 0.955274 0.000000
-14.709338 -14.052202 -0.326169 751 0.295722 0.955274 0.000000
-14.709834 -14.052668 -0.319934 739 0.295722 0.955274 0.000000
-14.710173 -14.052991 -0.313691 743 0.295722 0.955274 0.000000
-14.710928 -14.053721 -0.307453 767 0.295722 0.955274 0.000000
-14.710954 -14.053735 -0.301203 757 0.295722 0.955274 0.000000
-14.709477 -14.052329 -0.294927 749 0.295722 0.955274 0.000000
-14.709700 -14.052543 -0.288685 731 0.295722 0.955274 0.000000
-14.710502 -14.053312 -0.282447 743 0.295722 0.955274 0.000000
-14.720572 -14.054343 -0.676555 809 0.295722 0.955274 0.000000
-14.719290 -14.053125 -0.670246 799 0.295722 0.955274 0.000000
-14.718753 -14.052609 -0.663961 799 0.295722 0.955274 0.000000
-14.718848 -14.052693 -0.657710 809 0.295722 0.955274 0.000000
-14.718358 -14.052232 -0.651435 775 0.295722 0.955274 0.000000
-14.718870 -14.052723 -0.645200 765 0.295722 0.955274 0.000000
-14.720174 -14.053969 -0.638997 801 0.295722 0.955274 0.000000
-14.719370 -14.053195 -0.632705 791 0.295722 0.955274 0.000000
-14.719459 -14.053273 -0.626454 791 0.295722 0.955274 0.000000
-14.719799 -14.053611 -0.620220 783 0.295722 0.955274 0.000000
-14.719464 -14.053288 -0.613944 777 0.295722 0.955274 0.000000
-14.720345 -14.054122 -0.607725 797 0.295722 0.955274 0.000000
-14.720105 -14.053890 -0.601467 777 0.295722 0.955274 0.000000
-14.720078 -14.053872 -0.595207 783 0.295722 0.955274 0.000000
-14.720426 -14.054202 -0.588964 777 0.295722 0.955274 0.000000
-14.720334 -14.054120 -0.582705 801 0.295722 0.955274 0.000000
-14.719146 -14.052979 -0.576406 783 0.295722 0.955274 0.000000
-14.718803 -14.052649 -0.570139 799 0.295722 0.955274 0.000000
-14.718774 -14.052618 -0.563879 799 0.295722 0.955274 0.000000
-14.717942 -14.051834 -0.557597 787 0.295722 0.955274 0.000000
-14.717319 -14.051234 -0.551322 779 0.295722 0.955274 0.000000
-14.717546 -14.051454 -0.545070 761 0.295722 0.955274 0.000000
-14.718357 -14.052230 -0.538852 777 0.295722 0.955274 0.000000
-14.718312 -14.052185 -0.532593 789 0.295722 0.955274 0.000000
-14.718120 -14.051992 -0.526334 791 0.295722 0.955274 0.000000
-14.717754 -14.051643 -0.520068 793 0.295722 0.955274 0.000000
-14.718134 -14.052013 -0.513824 803 0.295722 0.955274 0.000000
-14.718519 -14.052375 -0.507590 797 0.295722 0.955274 0.000000
-14.718256 -14.052125 -0.501322 775 0.295722 0.955274 0.000000
-14.717680 -14.051578 -0.495058 771 0.295722 0.955274 0.000000
-14.718694 -14.052547 -0.488838 785 0.295722 0.955274 0.000000
-14.718322 -14.052194 -0.482571 797 0.295722 0.955274 0.000000
-14.717361 -14.051279 -0.476290 793 0.295722 0.955274 0.000000
-14.718060 -14.051936 -0.470053 789 0.295722 0.955274 0.000000
-14.718901 -14.052737 -0.463825 773 0.295722 0.955274 0.000000
-14.718998 -14.052835 -0.457584 801 0.295722 0.955274 0.000000
-14.717465 -14.051372 -0.451279 799 0.295722 0.955274 0.000000
-14.716405 -14.050361 -0.444999 789 0.295722 0.955274 0.000000
-14.717606 -14.051510 -0.438777 785 0.295722 0.955274 0.000000
-14.717765 -14.051659 -0.432535 775 0.295722 0.955274 0.000000
-14.717799 -14.051692 -0.426285 773 0.295722 0.955274 0.000000
-14.718421 -14.052286 -0.420049 755 0.295722 0.955274 0.000000
-14.718353 -14.052223 -0.413799 775 0.295722 0.955274 0.000000
-14.717815 -14.051707 -0.407524 787 0.295722 0.955274 0.000000
-14.718163 -14.052038 -0.401291 777 0.295722 0.955274 0.000000
-14.718846 -14.052682 -0.395054 785 0.295722 0.955274 0.000000
-14.717606 -14.051497 -0.388766 779 0.295722 0.955274 0.000000
-14.715887 -14.049868 -0.382472 771 0.295722 0.955274 0.000000
-14.717298 -14.051203 -0.376259 783 0.295722 0.955274 0.000000
-14.718232 -14.052094 -0.370030 789 0.295722 0.955274 0.000000
-14.717577 -14.051469 -0.363766 775 0.295722 0.955274 0.000000
-14.717863 -14.051748 -0.357523 765 0.295722 0.955274 0.000000
-14.717942 -14.051819 -0.351272 781 0.295722 0.955274 0.000000
-14.718283 -14.052143 -0.345028 791 0.295722 0.955274 0.000000
-14.718044 -14.051925 -0.338771 767 0.295722 0.955274 0.000000
-14.717052 -14.050971 -0.332500 727 0.295722 0.955274 0.000000
-14.716013 -14.049979 -0.326229 717 0.295722 0.955274 0.000000
-14.716563 -14.050502 -0.319984 717 0.295722 0.955274 0.000000
-14.717750 -14.051639 -0.313763 717 0.295722 0.955274 0.000000
-14.717243 -14.051148 -0.307497 745 0.295722 0.955274 0.000000
-14.717302 -14.051214 -0.301257 743 0.295722 0.955274 0.000000
-14.717518 -14.051423 -0.295004 717 0.295722 0.955274 0.000000
-14.716798 -14.050733 -0.288741 733 0.295722 0.955274 0.000000
-14.716223 -14.050185 -0.282486 749 0.295722 0.955274 0.000000
-14.726670 -14.051230 -0.676632 795 0.295722 0.955274 0.000000
-14.726610 -14.051172 -0.670373 801 0.295722 0.955274 0.000000
-14.725964 -14.050555 -0.664089 797 0.295722 0.955274 0.000000
-14.725051 -14.049692 -0.657787 779 0.295722 0.955274 0.000000
-14.726254 -14.050842 -0.651586 761 0.295722 0.955274 0.000000
-14.726881 -14.051429 -0.645360 777 0.295722 0.955274 0.000000
-14.726124 -14.050706 -0.639067 795 0.295722 0.955274 0.000000
-14.726635 -14.051197 -0.632832 787 0.295722 0.955274 0.000000
-14.727031 -14.051580 -0.626598 781 0.295722 0.955274 0.000000
-14.726439 -14.051007 -0.620313 771 0.295722 0.955274 0.000000
-14.725885 -14.050478 -0.614028 775 0.295722 0.955274 0.000000
-14.725966 -14.050564 -0.607777 797 0.295722 0.955274 0.000000
-14.725946 -14.050539 -0.601517 783 0.295722 0.955274 0.000000
-14.725284 -14.049908 -0.595243 759 0.295722 0.955274 0.000000
-14.726053 -14.050637 -0.589016 777 0.295722 0.955274 0.000000
-14.726871 -14.051419 -0.582788 783 0.295722 0.955274 0.000000
-14.727101 -14.051638 -0.576546 761 0.295722 0.955274 0.000000
-14.727074 -14.051621 -0.570286 779 0.295722 0.955274 0.000000
-14.726990 -14.051532 -0.564027 787 0.295722 0.955274 0.000000
-14.726530 -14.051093 -0.557751 793 0.295722 0.955274 0.000000
-14.725491 -14.050100 -0.551460 777 0.295722 0.955274 0.000000
-14.724862 -14.049510 -0.545186 783 0.295722 0.955274 0.000000
-14.724724 -14.049376 -0.538917 785 0.295722 0.955274 0.000000
-14.725947 -14.050544 -0.532716 795 0.295722 0.955274 0.000000
-14.726068 -14.050661 -0.526464 787 0.295722 0.955274 0.000000
-14.725122 -14.049758 -0.520173 759 0.295722 0.955274 0.000000
-14.725197 -14.049824 -0.513922 799 0.295722 0.955274 0.000000
-14.725247 -14.049870 -0.507672 789 0.295722 0.955274 0.000000
-14.725524 -14.050128 -0.501429 791 0.295722 0.955274 0.000000
-14.725377 -14.049987 -0.495160 783 0.295722 0.955274 0.000000
-14.724323 -14.048982 -0.488880 785 0.295722 0.955274 0.000000
-14.724680 -14.049333 -0.482636 787 0.295722 0.955274 0.000000
-14.725004 -14.049644 -0.476393 783 0.295722 0.955274 0.000000
-14.723955 -14.048629 -0.470103 785 0.295722 0.955274 0.000000
-14.723944 -14.048624 -0.463853 767 0.295722 0.955274 0.000000
-14.725481 -14.050090 -0.457648 785 0.295722 0.955274 0.000000
-14.725679 -14.050284 -0.451396 803 0.295722 0.955274 0.000000
-14.724774 -14.049415 -0.445115 779 0.295722 0.955274 0.000000
-14.725037 -14.049661 -0.438872 779 0.295722 0.955274 0.000000
-14.724710 -14.049358 -0.432605 775 0.295722 0.955274 0.000000
-14.723899 -14.048579 -0.426333 769 0.295722 0.955274 0.000000
-14.724629 -14.049276 -0.420105 775 0.295722 0.955274 0.000000
-14.725040 -14.049671 -0.413861 789 0.295722 0.955274 0.000000
-14.724338 -14.048994 -0.407588 787 0.295722 0.955274 0.000000
-14.724958 -14.049589 -0.401352 787 0.295722 0.955274 0.000000
-14.725471 -14.050079 -0.395117 795 0.295722 0.955274 0.000000
-14.724496 -14.049152 -0.388836 803 0.295722 0.955274 0.000000
-14.724421 -14.049082 -0.382587 777 0.295722 0.955274 0.000000
-14.725089 -14.049716 -0.376350 761 0.295722 0.955274 0.000000
-14.724331 -14.048994 -0.370077 763 0.295722 0.955274 0.000000
-14.724092 -14.048761 -0.363819 761 0.295722 0.955274 0.000000
-14.724063 -14.048730 -0.357569 771 0.295722 0.955274 0.000000
-14.723667 -14.048358 -0.351303 785 0.295722 0.955274 0.000000
-14.724275 -14.048941 -0.345067 783 0.295722 0.955274 0.000000
-14.723406 -14.048100 -0.338795 755 0.295722 0.955274 0.000000
-14.723317 -14.048019 -0.332546 755 0.295722 0.955274 0.000000
-14.723546 -14.048239 -0.326294 739 0.295722 0.955274 0.000000
-14.722828 -14.047550 -0.320030 727 0.295722 0.955274 0.000000
-14.723796 -14.048481 -0.313801 713 0.295722 0.955274 0.000000
-14.724768 -14.049403 -0.307572 739 0.295722 0.955274 0.000000
-14.724411 -14.049062 -0.301315 739 0.295722 0.955274 0.000000
-14.724163 -14.048824 -0.295057 723 0.295722 0.955274 0.000000
-14.724325 -14.048987 -0.288805 743 0.295722 0.955274 0.000000
-14.723497 -14.048195 -0.282543 741 0.295722 0.955274 0.000000
-14.732456 -14.047820 -0.676703 771 0.295722 0.955274 0.000000
-14.733351 -14.048666 -0.670484 779 0.295722 0.955274 0.000000
-14.734389 -14.049667 -0.664274 799 0.295722 0.955274 0.000000
-14.733273 -14.048598 -0.657965 789 0.295722 0.955274 0.000000
-14.732726 -14.048075 -0.651680 785 0.295722 0.955274 0.000000
-14.732713 -14.048057 -0.645420 769 0.295722 0.955274 0.000000
-14.732114 -14.047491 -0.639135 763 0.295722 0.955274 0.000000
-14.732100 -14.047471 -0.632875 755 0.295722 0.955274 0.000000
-14.732191 -14.047564 -0.626624 761 0.295722 0.955274 0.000000
-14.732429 -14.047791 -0.620382 761 0.295722 0.955274 0.000000
-14.732941 -14.048282 -0.614147 767 0.295722 0.955274 0.000000
-14.733076 -14.048411 -0.607895 787 0.295722 0.955274 0.000000
-14.734064 -14.049347 -0.601676 775 0.295722 0.955274 0.000000
-14.733763 -14.049065 -0.595409 777 0.295722 0.955274 0.000000
-14.733162 -14.048484 -0.589124 767 0.295722 0.955274 0.000000
-14.733230 -14.048558 -0.582873 773 0.295722 0.955274 0.000000
-14.732778 -14.048125 -0.576597 763 0.295722 0.955274 0.000000
-14.733650 -14.048953 -0.570369 789 0.295722 0.955274 0.000000
-14.733989 -14.049276 -0.564126 787 0.295722 0.955274 0.000000
-14.733686 -14.048993 -0.557858 803 0.295722 0.955274 0.000000
-14.733493 -14.048800 -0.551600 787 0.295722 0.955274 0.000000
-14.733348 -14.048659 -0.545331 805 0.295722 0.955274 0.000000
-14.734204 -14.049486 -0.539113 787 0.295722 0.955274 0.000000
-14.734448 -14.049706 -0.532861 791 0.295722 0.955274 0.000000
-14.733702 -14.049005 -0.526578 775 0.295722 0.955274 0.000000
-14.734564 -14.049823 -0.520349 779 0.295722 0.955274 0.000000
-14.733472 -14.048774 -0.514060 805 0.295722 0.955274 0.000000
-14.732152 -14.047523 -0.507752 771 0.295722 0.955274 0.000000
-14.732421 -14.047775 -0.501509 765 0.295722 0.955274 0.000000
-14.732164 -14.047531 -0.495251 787 0.295722 0.955274 0.000000
-14.730844 -14.046268 -0.488944 777 0.295722 0.955274 0.000000
-14.731789 -14.047180 -0.482725 783 0.295722 0.955274 0.000000
-14.733912 -14.049192 -0.476534 789 0.295722 0.955274 0.000000
-14.733015 -14.048342 -0.470253 783 0.295722 0.955274 0.000000
-14.731374 -14.046776 -0.463948 769 0.295722 0.955274 0.000000
-14.732051 -14.047429 -0.457712 781 0.295722 0.955274 0.000000
-14.732311 -14.047674 -0.451469 777 0.295722 0.955274 0.000000
-14.731679 -14.047068 -0.445195 761 0.295722 0.955274 0.000000
-14.733100 -14.048424 -0.438981 759 0.295722 0.955274 0.000000
-14.732766 -14.048102 -0.432714 763 0.295722 0.955274 0.000000
-14.731116 -14.046529 -0.426420 761 0.295722 0.955274 0.000000
-14.731745 -14.047130 -0.420184 785 0.295722 0.955274 0.000000
-14.731999 -14.047369 -0.413931 773 0.295722 0.955274 0.000000
-14.730812 -14.046242 -0.407652 771 0.295722 0.955274 0.000000
-14.731121 -14.046527 -0.401399 765 0.295722 0.955274 0.000000
-14.731101 -14.046515 -0.395149 765 0.295722 0.955274 0.000000
-14.731448 -14.046845 -0.388906 769 0.295722 0.955274 0.000000
-14.731960 -14.047336 -0.382661 765 0.295722 0.955274 0.000000
-14.731994 -14.047369 -0.376410 769 0.295722 0.955274 0.000000
-14.731394 -14.046789 -0.370146 769 0.295722 0.955274 0.000000
-14.731092 -14.046508 -0.363888 747 0.295722 0.955274 0.000000
-14.731289 -14.046688 -0.357636 757 0.295722 0.955274 0.000000
-14.730776 -14.046205 -0.351371 749 0.295722 0.955274 0.000000
-14.730968 -14.046380 -0.345119 757 0.295722 0.955274 0.000000
-14.731833 -14.047215 -0.338891 743 0.295722 0.955274 0.000000
-14.732015 -14.047382 -0.332639 749 0.295722 0.955274 0.000000
-14.731343 -14.046744 -0.326375 735 0.295722 0.955274 0.000000
-14.731370 -14.046772 -0.320125 721 0.295722 0.955274 0.000000
-14.731483 -14.046882 -0.313874 705 0.295722 0.955274 0.000000
-14.731346 -14.046748 -0.307615 713 0.295722 0.955274 0.000000
-14.730088 -14.045550 -0.301336 737 0.295722 0.955274 0.000000
-14.730262 -14.045711 -0.295085 737 0.295722 0.955274 0.000000
-14.730955 -14.046377 -0.288848 727 0.295722 0.955274 0.000000
-14.730019 -14.045481 -0.282577 719 0.295722 0.955274 0.000000
-14.740973 -14.046840 -0.676889 785 0.295722 0.955274 0.000000
-14.740748 -14.046635 -0.670621 769 0.295722 0.955274 0.000000
-14.741746 -14.047577 -0.664401 763 0.295722 0.955274 0.000000
-14.742258 -14.048068 -0.658166 777 0.295722 0.955274 0.000000
-14.742402 -14.048205 -0.651914 781 0.295722 0.955274 0.000000
-14.742289 -14.048102 -0.645645 761 0.295722 0.955274 0.000000
-14.742432 -14.048239 -0.639394 763 0.295722 0.955274 0.000000
-14.741729 -14.047562 -0.633100 759 0.295722 0.955274 0.000000
-14.740966 -14.046834 -0.626807 773 0.295722 0.955274 0.000000
-14.741047 -14.046920 -0.620557 769 0.295722 0.955274 0.000000
-14.740126 -14.046037 -0.614255 755 0.295722 0.955274 0.000000
-14.739362 -14.045308 -0.607962 761 0.295722 0.955274 0.000000
-14.740821 -14.046697 -0.601768 767 0.295722 0.955274 0.000000
-14.741325 -14.047181 -0.595533 763 0.295722 0.955274 0.000000
-14.740655 -14.046544 -0.589249 761 0.295722 0.955274 0.000000
-14.740053 -14.045963 -0.582965 763 0.295722 0.955274 0.000000
-14.738490 -14.044475 -0.576640 759 0.295722 0.955274 0.000000
-14.738713 -14.044689 -0.570397 767 0.295722 0.955274 0.000000
-14.740642 -14.046528 -0.564209 781 0.295722 0.955274 0.000000
-14.740560 -14.046453 -0.557950 779 0.295722 0.955274 0.000000
-14.740687 -14.046562 -0.551698 767 0.295722 0.955274 0.000000
-14.741340 -14.047182 -0.545462 785 0.295722 0.955274 0.000000
-14.740347 -14.046240 -0.539171 767 0.295722 0.955274 0.000000
-14.740250 -14.046152 -0.532912 757 0.295722 0.955274 0.000000
-14.740636 -14.046514 -0.526668 765 0.295722 0.955274 0.000000
-14.740437 -14.046329 -0.520400 755 0.295722 0.955274 0.000000
-14.739803 -14.045722 -0.514126 773 0.295722 0.955274 0.000000
-14.739870 -14.045781 -0.507865 781 0.295722 0.955274 0.000000
-14.739926 -14.045833 -0.501614 775 0.295722 0.955274 0.000000
-14.738716 -14.044686 -0.495316 773 0.295722 0.955274 0.000000
-14.738344 -14.044333 -0.489049 767 0.295722 0.955274 0.000000
-14.739091 -14.045044 -0.482822 775 0.295722 0.955274 0.000000
-14.739407 -14.045347 -0.476569 779 0.295722 0.955274 0.000000
-14.739722 -14.045639 -0.470326 785 0.295722 0.955274 0.000000
-14.739043 -14.044994 -0.464052 771 0.295722 0.955274 0.000000
-14.739305 -14.045240 -0.457799 779 0.295722 0.955274 0.000000
-14.740460 -14.046351 -0.451578 771 0.295722 0.955274 0.000000
-14.739765 -14.045680 -0.445305 769 0.295722 0.955274 0.000000
-14.738697 -14.044663 -0.439014 759 0.295722 0.955274 0.000000
-14.738793 -14.044761 -0.432763 763 0.295722 0.955274 0.000000
-14.738146 -14.044143 -0.426489 761 0.295722 0.955274 0.000000
-14.738030 -14.044027 -0.420230 753 0.295722 0.955274 0.000000
-14.739075 -14.045021 -0.414010 777 0.295722 0.955274 0.000000
-14.739439 -14.045364 -0.407767 757 0.295722 0.955274 0.000000
-14.739997 -14.045907 -0.401521 789 0.295722 0.955274 0.000000
-14.739185 -14.045127 -0.395249 759 0.295722 0.955274 0.000000
-14.739174 -14.045122 -0.388989 761 0.295722 0.955274 0.000000
-14.740155 -14.046052 -0.382759 769 0.295722 0.955274 0.000000
-14.740651 -14.046530 -0.376525 769 0.295722 0.955274 0.000000
-14.739846 -14.045756 -0.370242 773 0.295722 0.955274 0.000000
-14.738340 -14.044327 -0.363956 767 0.295722 0.955274 0.000000
-14.739055 -14.044997 -0.357719 765 0.295722 0.955274 0.000000
-14.738917 -14.044876 -0.351460 751 0.295722 0.955274 0.000000
-14.737996 -14.043995 -0.345179 759 0.295722 0.955274 0.000000
-14.738117 -14.044111 -0.338938 757 0.295722 0.955274 0.000000
-14.738408 -14.044381 -0.332685 737 0.295722 0.955274 0.000000
-14.739656 -14.045569 -0.326463 737 0.295722 0.955274 0.000000
-14.739886 -14.045790 -0.320211 729 0.295722 0.955274 0.000000
-14.739319 -14.045250 -0.313946 713 0.295722 0.955274 0.000000
-14.739172 -14.045109 -0.307687 727 0.295722 0.955274 0.000000
-14.738338 -14.044323 -0.301415 729 0.295722 0.955274 0.000000
-14.737503 -14.043524 -0.295142 717 0.295722 0.955274 0.000000
-14.737835 -14.043842 -0.288899 729 0.295722 0.955274 0.000000
-14.738901 -14.044854 -0.282669 723 0.295722 0.955274 0.000000
-14.747632 -14.044085 -0.676992 775 0.295722 0.955274 0.000000
-14.748426 -14.044833 -0.670764 759 0.295722 0.955274 0.000000
-14.748507 -14.044918 -0.664503 761 0.295722 0.955274 0.000000
-14.747397 -14.043854 -0.658194 751 0.295722 0.955274 0.000000
-14.747957 -14.044397 -0.651958 759 0.295722 0.955274 0.000000
-14.748476 -14.044881 -0.645723 747 0.295722 0.955274 0.000000
-14.748831 -14.045218 -0.639480 747 0.295722 0.955274 0.000000
-14.747379 -14.043846 -0.633153 755 0.295722 0.955274 0.000000
-14.745825 -14.042364 -0.626828 759 0.295722 0.955274 0.000000
-14.746970 -14.043454 -0.620617 769 0.295722 0.955274 0.000000
-14.747107 -14.043584 -0.614365 743 0.295722 0.955274 0.000000
-14.747835 -14.044268 -0.608128 761 0.295722 0.955274 0.000000
-14.749233 -14.045605 -0.601925 775 0.295722 0.955274 0.000000
-14.749001 -14.045379 -0.595657 777 0.295722 0.955274 0.000000
-14.748864 -14.045259 -0.589398 775 0.295722 0.955274 0.000000
-14.748147 -14.044569 -0.583105 769 0.295722 0.955274 0.000000
-14.746535 -14.043028 -0.576780 765 0.295722 0.955274 0.000000
-14.746289 -14.042805 -0.570512 773 0.295722 0.955274 0.000000
-14.748640 -14.045042 -0.564350 789 0.295722 0.955274 0.000000
-14.748337 -14.044746 -0.558073 751 0.295722 0.955274 0.000000
-14.747824 -14.044264 -0.551797 759 0.295722 0.955274 0.000000
-14.747849 -14.044277 -0.545537 763 0.295722 0.955274 0.000000
-14.746161 -14.042672 -0.539223 739 0.295722 0.955274 0.000000
-14.746180 -14.042692 -0.532962 741 0.295722 0.955274 0.000000
-14.747037 -14.043507 -0.526734 745 0.295722 0.955274 0.000000
-14.747580 -14.044023 -0.520499 739 0.295722 0.955274 0.000000
-14.748483 -14.044888 -0.514270 763 0.295722 0.955274 0.000000
-14.748548 -14.044947 -0.508019 763 0.295722 0.955274 0.000000
-14.746642 -14.043137 -0.501687 749 0.295722 0.955274 0.000000
-14.746066 -14.042590 -0.495412 749 0.295722 0.955274 0.000000
-14.747187 -14.043647 -0.489192 749 0.295722 0.955274 0.000000
-14.747661 -14.044106 -0.482957 767 0.295722 0.955274 0.000000
-14.747130 -14.043598 -0.476682 785 0.295722 0.955274 0.000000
-14.747235 -14.043702 -0.470421 765 0.295722 0.955274 0.000000
-14.746768 -14.043244 -0.464155 743 0.295722 0.955274 0.000000
-14.746334 -14.042841 -0.457879 745 0.295722 0.955274 0.000000
-14.746861 -14.043344 -0.451644 745 0.295722 0.955274 0.000000
-14.746956 -14.043427 -0.445393 749 0.295722 0.955274 0.000000
-14.746373 -14.042874 -0.439118 743 0.295722 0.955274 0.000000
-14.746039 -14.042553 -0.432851 739 0.295722 0.955274 0.000000
-14.746512 -14.042999 -0.426607 761 0.295722 0.955274 0.000000
-14.746287 -14.042794 -0.420339 765 0.295722 0.955274 0.000000
-14.746431 -14.042930 -0.414087 773 0.295722 0.955274 0.000000
-14.746998 -14.043466 -0.407852 765 0.295722 0.955274 0.000000
-14.747409 -14.043860 -0.401608 761 0.295722 0.955274 0.000000
-14.747176 -14.043635 -0.395340 749 0.295722 0.955274 0.000000
-14.746051 -14.042560 -0.389060 747 0.295722 0.955274 0.000000
-14.745663 -14.042192 -0.382794 747 0.295722 0.955274 0.000000
-14.745949 -14.042472 -0.376541 753 0.295722 0.955274 0.000000
-14.746460 -14.042949 -0.370296 757 0.295722 0.955274 0.000000
-14.745845 -14.042371 -0.364031 745 0.295722 0.955274 0.000000
-14.746152 -14.042655 -0.357778 765 0.295722 0.955274 0.000000
-14.747549 -14.043991 -0.351555 771 0.295722 0.955274 0.000000
-14.747248 -14.043708 -0.345298 761 0.295722 0.955274 0.000000
-14.746428 -14.042922 -0.339025 741 0.295722 0.955274 0.000000
-14.746931 -14.043393 -0.332781 733 0.295722 0.955274 0.000000
-14.747427 -14.043872 -0.326536 719 0.295722 0.955274 0.000000
-14.747610 -14.044041 -0.320284 725 0.295722 0.955274 0.000000
-14.746831 -14.043300 -0.314011 717 0.295722 0.955274 0.000000
-14.746951 -14.043417 -0.307760 725 0.295722 0.955274 0.000000
-14.746539 -14.043031 -0.301493 721 0.295722 0.955274 0.000000
-14.745656 -14.042180 -0.295222 715 0.295722 0.955274 0.000000
-14.745989 -14.042497 -0.288978 731 0.295722 0.955274 0.000000
-14.746157 -14.042665 -0.282727 721 0.295722 0.955274 0.000000
-14.755216 -14.042710 -0.677144 761 0.295722 0.955274 0.000000
-14.755046 -14.042550 -0.670875 763 0.295722 0.955274 0.000000
-14.755934 -14.043389 -0.664647 749 0.295722 0.955274 0.000000
-14.756822 -14.044242 -0.658428 739 0.295722 0.955274 0.000000
-14.756284 -14.043726 -0.652143 741 0.295722 0.955274 0.000000
-14.755472 -14.042947 -0.645841 755 0.295722 0.955274 0.000000
-14.755774 -14.043239 -0.639598 769 0.295722 0.955274 0.000000
-14.755228 -14.042717 -0.633303 745 0.295722 0.955274 0.000000
-14.754729 -14.042247 -0.627027 737 0.295722 0.955274 0.000000
-14.755289 -14.042777 -0.620792 743 0.295722 0.955274 0.000000
-14.755644 -14.043114 -0.614538 737 0.295722 0.955274 0.000000
-14.755404 -14.042881 -0.608271 737 0.295722 0.955274 0.000000
-14.755860 -14.043314 -0.602026 763 0.295722 0.955274 0.000000
-14.755355 -14.042838 -0.595751 753 0.295722 0.955274 0.000000
-14.753633 -14.041193 -0.589417 741 0.295722 0.955274 0.000000
-14.754192 -14.041723 -0.583181 751 0.295722 0.955274 0.000000
-14.755441 -14.042911 -0.576970 747 0.295722 0.955274 0.000000
-14.755399 -14.042881 -0.570710 745 0.295722 0.955274 0.000000
-14.754378 -14.041909 -0.558149 759 0.295722 0.955274 0.000000
-14.753607 -14.041175 -0.551856 739 0.295722 0.955274 0.000000
-14.755050 -14.042549 -0.545652 751 0.295722 0.955274 0.000000
-14.756179 -14.043613 -0.539432 743 0.295722 0.955274 0.000000
-14.755188 -14.042674 -0.533141 737 0.295722 0.955274 0.000000
-14.754713 -14.042223 -0.526855 733 0.295722 0.955274 0.000000
-14.754733 -14.042244 -0.520605 741 0.295722 0.955274 0.000000
-14.753365 -14.040941 -0.514298 747 0.295722 0.955274 0.000000
-14.753415 -14.040988 -0.508037 755 0.295722 0.955274 0.000000
-14.754920 -14.042413 -0.501833 751 0.295722 0.955274 0.000000
-14.754969 -14.042458 -0.495572 743 0.295722 0.955274 0.000000
-14.754394 -14.041911 -0.489297 741 0.295722 0.955274 0.000000
-14.754560 -14.042068 -0.483046 751 0.295722 0.955274 0.000000
-14.754501 -14.042024 -0.476776 761 0.295722 0.955274 0.000000
-14.753925 -14.041463 -0.470501 775 0.295722 0.955274 0.000000
-14.753279 -14.040858 -0.464227 753 0.295722 0.955274 0.000000
-14.753491 -14.041052 -0.457975 755 0.295722 0.955274 0.000000
-14.753480 -14.041047 -0.451715 747 0.295722 0.955274 0.000000
-14.754593 -14.042098 -0.445494 759 0.295722 0.955274 0.000000
-14.755160 -14.042648 -0.439249 761 0.295722 0.955274 0.000000
-14.754678 -14.042178 -0.432973 759 0.295722 0.955274 0.000000
-14.754884 -14.042379 -0.426721 747 0.295722 0.955274 0.000000
-14.753917 -14.041458 -0.420440 761 0.295722 0.955274 0.000000
-14.753058 -14.040640 -0.414158 775 0.295722 0.955274 0.000000
-14.753037 -14.040628 -0.407898 765 0.295722 0.955274 0.000000
-14.753181 -14.040765 -0.401647 779 0.295722 0.955274 0.000000
-14.753216 -14.040797 -0.395396 765 0.295722 0.955274 0.000000
-14.753736 -14.041282 -0.389151 743 0.295722 0.955274 0.000000
-14.754185 -14.041708 -0.382907 757 0.295722 0.955274 0.000000
-14.754016 -14.041548 -0.376638 763 0.295722 0.955274 0.000000
-14.753510 -14.041072 -0.370373 761 0.295722 0.955274 0.000000
-14.753269 -14.040840 -0.364115 761 0.295722 0.955274 0.000000
-14.753877 -14.041423 -0.357869 751 0.295722 0.955274 0.000000
-14.753064 -14.040643 -0.351597 725 0.295722 0.955274 0.000000
-14.753294 -14.040863 -0.345344 739 0.295722 0.955274 0.000000
-14.754221 -14.041748 -0.339105 729 0.295722 0.955274 0.000000
-14.754130 -14.041664 -0.332846 729 0.295722 0.955274 0.000000
-14.753782 -14.041330 -0.326579 727 0.295722 0.955274 0.000000
-14.753001 -14.040590 -0.320306 705 0.295722 0.955274 0.000000
-14.753184 -14.040759 -0.314055 683 0.295722 0.955274 0.000000
-14.754478 -14.041985 -0.307832 715 0.295722 0.955274 0.000000
-14.754326 -14.041850 -0.301574 697 0.295722 0.955274 0.000000
-14.753763 -14.041302 -0.295299 709 0.295722 0.955274 0.000000
-14.753883 -14.041419 -0.289047 713 0.295722 0.955274 0.000000
-14.753628 -14.041175 -0.282790 713 0.295722 0.955274 0.000000
-14.762229 -14.040959 -0.677270 741 0.295722 0.955274 0.000000
-14.761683 -14.040436 -0.670985 743 0.295722 0.955274 0.000000
-14.760983 -14.039774 -0.664692 731 0.295722 0.955274 0.000000
-14.761244 -14.040020 -0.658439 741 0.295722 0.955274 0.000000
-14.761919 -14.040658 -0.652203 751 0.295722 0.955274 0.000000
-14.762752 -14.041452 -0.645975 757 0.295722 0.955274 0.000000
-14.761722 -14.040481 -0.639674 745 0.295722 0.955274 0.000000
-14.760447 -14.039254 -0.633356 725 0.295722 0.955274 0.000000
-14.761163 -14.039939 -0.627119 711 0.295722 0.955274 0.000000
-14.761667 -14.040424 -0.620884 723 0.295722 0.955274 0.000000
-14.761177 -14.039948 -0.614599 737 0.295722 0.955274 0.000000
-14.761523 -14.040277 -0.608356 735 0.295722 0.955274 0.000000
-14.761871 -14.040607 -0.602102 745 0.295722 0.955274 0.000000
-14.761311 -14.040086 -0.595817 745 0.295722 0.955274 0.000000
-14.760812 -14.039603 -0.589542 729 0.295722 0.955274 0.000000
-14.761050 -14.039830 -0.583289 749 0.295722 0.955274 0.000000
-14.761861 -14.040606 -0.577062 761 0.295722 0.955274 0.000000
-14.761831 -14.040573 -0.570792 747 0.295722 0.955274 0.000000
-14.761911 -14.040645 -0.564531 753 0.295722 0.955274 0.000000
-14.761876 -14.040621 -0.558271 763 0.295722 0.955274 0.000000
-14.761411 -14.040177 -0.551995 767 0.295722 0.955274 0.000000
-14.760794 -14.039584 -0.545711 747 0.295722 0.955274 0.000000
-14.761336 -14.040100 -0.539466 729 0.295722 0.955274 0.000000
-14.761089 -14.039864 -0.533198 733 0.295722 0.955274 0.000000
-14.760669 -14.039472 -0.526922 751 0.295722 0.955274 0.000000
-14.761955 -14.040690 -0.520709 741 0.295722 0.955274 0.000000
-14.761550 -14.040297 -0.514433 761 0.295722 0.955274 0.000000
-14.760655 -14.039448 -0.508141 745 0.295722 0.955274 0.000000
-14.761299 -14.040061 -0.501905 745 0.295722 0.955274 0.000000
-14.762046 -14.040771 -0.495668 761 0.295722 0.955274 0.000000
-14.761509 -14.040269 -0.489393 753 0.295722 0.955274 0.000000
-14.759868 -14.038703 -0.483078 753 0.295722 0.955274 0.000000
-14.759925 -14.038755 -0.476827 759 0.295722 0.955274 0.000000
-14.759607 -14.038447 -0.470550 745 0.295722 0.955274 0.000000
-14.759179 -14.038048 -0.464284 731 0.295722 0.955274 0.000000
-14.760294 -14.039101 -0.458054 755 0.295722 0.955274 0.000000
-14.760979 -14.039760 -0.451817 751 0.295722 0.955274 0.000000
-14.760488 -14.039296 -0.445541 733 0.295722 0.955274 0.000000
-14.760012 -14.038831 -0.439276 735 0.295722 0.955274 0.000000
-14.760744 -14.039530 -0.433039 757 0.295722 0.955274 0.000000
-14.761325 -14.040077 -0.426793 747 0.295722 0.955274 0.000000
-14.760718 -14.039506 -0.420519 739 0.295722 0.955274 0.000000
-14.760706 -14.039501 -0.414259 723 0.295722 0.955274 0.000000
-14.760161 -14.038980 -0.407984 737 0.295722 0.955274 0.000000
-14.759037 -14.037903 -0.401694 749 0.295722 0.955274 0.000000
-14.759219 -14.038085 -0.395442 743 0.295722 0.955274 0.000000
-14.759903 -14.038731 -0.389206 741 0.295722 0.955274 0.000000
-14.759670 -14.038505 -0.382938 747 0.295722 0.955274 0.000000
-14.759854 -14.038687 -0.376686 749 0.295722 0.955274 0.000000
-14.760680 -14.039474 -0.370448 743 0.295722 0.955274 0.000000
-14.759860 -14.038690 -0.364175 735 0.295722 0.955274 0.000000
-14.759785 -14.038619 -0.357916 731 0.295722 0.955274 0.000000
-14.760234 -14.039044 -0.351662 725 0.295722 0.955274 0.000000
-14.759884 -14.038711 -0.345405 733 0.295722 0.955274 0.000000
-14.759542 -14.038383 -0.339138 721 0.295722 0.955274 0.000000
-14.759507 -14.038359 -0.332878 709 0.295722 0.955274 0.000000
-14.759212 -14.038068 -0.326611 705 0.295722 0.955274 0.000000
-14.759176 -14.038031 -0.320351 701 0.295722 0.955274 0.000000
-14.759885 -14.038710 -0.314114 703 0.295722 0.955274 0.000000
-14.758994 -14.037866 -0.307842 681 0.295722 0.955274 0.000000
-14.758269 -14.037169 -0.301569 699 0.295722 0.955274 0.000000
-14.758554 -14.037448 -0.295316 707 0.295722 0.955274 0.000000
-14.758511 -14.037404 -0.289056 713 0.295722 0.955274 0.000000
-14.759523 -14.038373 -0.282827 707 0.295722 0.955274 0.000000
-14.769085 -14.039051 -0.677399 749 0.295722 0.955274 0.000000
-14.768915 -14.038891 -0.671120 747 0.295722 0.955274 0.000000
-14.769168 -14.039129 -0.664867 749 0.295722 0.955274 0.000000
-14.768208 -14.038214 -0.658566 745 0.295722 0.955274 0.000000
-14.768822 -14.038803 -0.652330 737 0.295722 0.955274 0.000000
-14.768741 -14.038720 -0.639801 733 0.295722 0.955274 0.000000
-14.767399 -14.037453 -0.633473 731 0.295722 0.955274 0.000000
-14.768177 -14.038188 -0.627246 709 0.295722 0.955274 0.000000
-14.768768 -14.038750 -0.614740 711 0.295722 0.955274 0.000000
-14.768645 -14.038629 -0.608471 735 0.295722 0.955274 0.000000
-14.769449 -14.039391 -0.595983 727 0.295722 0.955274 0.000000
-14.768304 -14.038310 -0.589674 731 0.295722 0.955274 0.000000
-14.767686 -14.037716 -0.583390 731 0.295722 0.955274 0.000000
-14.768355 -14.038349 -0.577153 731 0.295722 0.955274 0.000000
-14.768054 -14.038067 -0.570876 735 0.295722 0.955274 0.000000
-14.766960 -14.037029 -0.564566 729 0.295722 0.955274 0.000000
-14.768043 -14.038054 -0.558346 755 0.295722 0.955274 0.000000
-14.768107 -14.038114 -0.552095 735 0.295722 0.955274 0.000000
-14.767916 -14.037934 -0.545816 729 0.295722 0.955274 0.000000
-14.768091 -14.038096 -0.539565 729 0.295722 0.955274 0.000000
-14.768210 -14.038214 -0.533313 731 0.295722 0.955274 0.000000
-14.768591 -14.038583 -0.527060 747 0.295722 0.955274 0.000000
-14.767810 -14.037828 -0.520767 749 0.295722 0.955274 0.000000
-14.767759 -14.037792 -0.514507 715 0.295722 0.955274 0.000000
-14.768089 -14.038095 -0.508254 735 0.295722 0.955274 0.000000
-14.767670 -14.037703 -0.501988 745 0.295722 0.955274 0.000000
-14.767838 -14.037859 -0.495726 739 0.295722 0.955274 0.000000
-14.768163 -14.038170 -0.489483 737 0.295722 0.955274 0.000000
-14.767733 -14.037757 -0.483207 741 0.295722 0.955274 0.000000
-14.768378 -14.038371 -0.476961 739 0.295722 0.955274 0.000000
-14.769485 -14.039430 -0.470740 747 0.295722 0.955274 0.000000
-14.769166 -14.039120 -0.464463 745 0.295722 0.955274 0.000000
-14.767894 -14.037910 -0.458165 743 0.295722 0.955274 0.000000
-14.767834 -14.037852 -0.451905 745 0.295722 0.955274 0.000000
-14.768995 -14.038956 -0.445674 735 0.295722 0.955274 0.000000
-14.767715 -14.037738 -0.439376 745 0.295722 0.955274 0.000000
-14.765793 -14.035914 -0.433064 727 0.295722 0.955274 0.000000
-14.766475 -14.036558 -0.426827 751 0.295722 0.955274 0.000000
-14.767950 -14.037959 -0.420603 749 0.295722 0.955274 0.000000
-14.767719 -14.037748 -0.414345 739 0.295722 0.955274 0.000000
-14.767863 -14.037885 -0.408084 743 0.295722 0.955274 0.000000
-14.768436 -14.038426 -0.401838 761 0.295722 0.955274 0.000000
-14.767524 -14.037550 -0.395557 743 0.295722 0.955274 0.000000
-14.767285 -14.037333 -0.389289 729 0.295722 0.955274 0.000000
-14.766943 -14.037004 -0.383022 737 0.295722 0.955274 0.000000
-14.766976 -14.037038 -0.376761 725 0.295722 0.955274 0.000000
-14.768020 -14.038032 -0.370531 723 0.295722 0.955274 0.000000
-14.767624 -14.037644 -0.364265 723 0.295722 0.955274 0.000000
-14.765788 -14.035906 -0.357962 727 0.295722 0.955274 0.000000
-14.765774 -14.035887 -0.351702 725 0.295722 0.955274 0.000000
-14.766427 -14.036507 -0.345456 701 0.295722 0.955274 0.000000
-14.766291 -14.036386 -0.339197 707 0.295722 0.955274 0.000000
-14.765885 -14.035993 -0.332931 719 0.295722 0.955274 0.000000
-14.766232 -14.036324 -0.326677 731 0.295722 0.955274 0.000000
-14.767097 -14.037143 -0.320439 723 0.295722 0.955274 0.000000
-14.768069 -14.038065 -0.314200 707 0.295722 0.955274 0.000000
-14.766868 -14.036924 -0.307921 695 0.295722 0.955274 0.000000
-14.765759 -14.035875 -0.301641 709 0.295722 0.955274 0.000000
-14.765567 -14.035697 -0.295373 711 0.295722 0.955274 0.000000
-14.766266 -14.036354 -0.289136 721 0.295722 0.955274 0.000000
-14.766543 -14.036626 -0.282883 727 0.295722 0.955274 0.000000
