180
-28.688850 -28.461880 -0.660177 1415 0.694443 0.719548 0.000000
-28.688076 -28.461100 -0.647744 1423 0.694443 0.719548 0.000000
-28.687742 -28.460777 -0.635327 1425 0.694443 0.719548 0.000000
-28.688089 -28.461119 -0.622923 1413 0.694443 0.719548 0.000000
-28.688784 -28.461809 -0.610516 1407 0.694443 0.719548 0.000000
-28.688906 -28.461935 -0.598115 1425 0.694443 0.719548 0.000000
-28.688055 -28.461094 -0.585683 1417 0.694443 0.719548 0.000000
-28.688286 -28.461311 -0.573270 1419 0.694443 0.719548 0.000000
-28.688618 -28.461639 -0.560867 1407 0.694443 0.719548 0.000000
-28.688578 -28.461603 -0.548457 1409 0.694442 0.719548 0.000000
-28.689064 -28.462090 -0.536052 1419 0.694443 0.719548 0.000000
-28.688616 -28.461641 -0.523626 1415 0.694443 0.719548 0.000000
-28.688526 -28.461550 -0.511217 1407 0.694443 0.719548 0.000000
-28.689817 -28.462835 -0.498824 1419 0.694443 0.719548 0.000000
-28.689684 -28.462692 -0.486405 1421 0.694443 0.719548 0.000000
-28.688581 -28.461611 -0.473975 1417 0.694443 0.719548 0.000000
-28.688580 -28.461607 -0.461565 1419 0.694443 0.719548 0.000000
-28.688583 -28.461607 -0.449155 1421 0.694443 0.719548 0.000000
-28.689188 -28.462206 -0.436749 1413 0.694443 0.719548 0.000000
-28.689386 -28.462410 -0.424346 1421 0.694443 0.719548 0.000000
-28.688343 -28.461367 -0.411916 1425 0.694443 0.719548 0.000000
-28.688282 -28.461309 -0.399506 1429 0.694443 0.719548 0.000000
-28.689192 -28.462208 -0.387107 1415 0.694443 0.719548 0.000000
-28.688658 -28.461672 -0.374692 1415 0.694443 0.719548 0.000000
-28.688826 -28.461853 -0.362280 1409 0.694443 0.719548 0.000000
-28.689476 -28.462490 -0.349874 1405 0.694443 0.719548 0.000000
-28.689611 -28.462629 -0.337462 1419 0.694443 0.719548 0.000000
-28.690098 -28.463100 -0.325057 1429 0.694443 0.719548 0.000000
-28.689695 -28.462704 -0.312641 1419 0.694443 0.719548 0.000000
-28.688990 -28.462011 -0.300227 1425 0.694443 0.719548 0.000000
-28.697941 -28.453157 -0.660191 1399 0.694443 0.719548 0.000000
-28.696987 -28.452215 -0.647750 1411 0.694443 0.719548 0.000000
-28.695818 -28.451054 -0.635311 1417 0.694443 0.719548 0.000000
-28.696527 -28.451754 -0.622914 1417 0.694442 0.719548 0.000000
-28.696558 -28.451790 -0.610503 1419 0.694443 0.719548 0.000000
-28.696642 -28.451872 -0.598092 1429 0.694443 0.719548 0.000000
-28.697607 -28.452829 -0.585703 1413 0.694443 0.719548 0.000000
-28.697933 -28.453154 -0.573289 1415 0.694443 0.719548 0.000000
-28.697020 -28.452242 -0.560868 1399 0.694443 0.719548 0.000000
-28.696569 -28.451794 -0.548442 1411 0.694443 0.719548 0.000000
-28.697210 -28.452423 -0.536045 1395 0.694443 0.719548 0.000000
-28.697634 -28.452847 -0.523641 1401 0.694443 0.719548 0.000000
-28.698420 -28.453627 -0.511243 1411 0.694443 0.719548 0.000000
-28.698174 -28.453388 -0.498825 1411 0.694443 0.719548 0.000000
-28.697029 -28.452244 -0.486386 1415 0.694443 0.719548 0.000000
-28.697353 -28.452568 -0.473982 1405 0.694443 0.719548 0.000000
-28.698380 -28.453592 -0.461592 1405 0.694443 0.719548 0.000000
-28.697960 -28.453167 -0.449166 1409 0.694443 0.719548 0.000000
-28.696856 -28.452082 -0.436746 1413 0.694443 0.719548 0.000000
-28.696072 -28.451298 -0.424314 1401 0.694443 0.719548 0.000000
-28.696426 -28.451649 -0.411910 1421 0.694443 0.719548 0.000000
-28.696249 -28.451479 -0.399501 1403 0.694443 0.719548 0.000000
-28.696703 -28.451929 -0.387097 1395 0.694443 0.719548 0.000000
-28.698086 -28.453289 -0.374703 1411 0.694443 0.719548 0.000000
-28.698111 -28.453321 -0.362292 1425 0.694443 0.719548 0.000000
-28.697975 -28.453190 -0.349873 1423 0.694443 0.719548 0.000000
-28.699043 -28.454248 -0.337483 1415 0.694443 0.719548 0.000000
-28.698910 -28.454117 -0.325064 1421 0.694443 0.719548 0.000000
-28.698460 -28.453669 -0.312648 1417 0.694443 0.719548 0.000000
-28.698019 -28.453226 -0.300232 1431 0.694443 0.719548 0.000000
-28.707253 -28.444664 -0.660203 1423 0.694443 0.719548 0.000000
-28.706308 -28.443729 -0.647772 1425 0.694443 0.719548 0.000000
-28.705357 -28.442776 -0.635331 1413 0.694443 0.719548 0.000000
-28.705698 -28.443127 -0.622927 1407 0.694443 0.719548 0.000000
-28.705425 -28.442854 -0.610509 1409 0.694443 0.719548 0.000000
-28.705145 -28.442574 -0.598092 1409 0.694443 0.719548 0.000000
-28.706528 -28.443937 -0.585708 1421 0.694443 0.719548 0.000000
-28.707115 -28.444523 -0.573302 1417 0.694443 0.719548 0.000000
-28.706673 -28.444077 -0.560886 1405 0.694443 0.719548 0.000000
-28.705797 -28.443216 -0.548454 1405 0.694443 0.719548 0.000000
-28.705402 -28.442825 -0.536038 1405 0.694443 0.719548 0.000000
-28.706453 -28.443869 -0.523647 1423 0.694443 0.719548 0.000000
-28.706724 -28.444134 -0.511235 1409 0.694443 0.719548 0.000000
-28.705416 -28.442841 -0.498797 1403 0.694443 0.719548 0.000000
-28.705685 -28.443102 -0.486394 1413 0.694443 0.719548 0.000000
-28.706568 -28.443977 -0.473995 1405 0.694442 0.719548 0.000000
-28.706308 -28.443716 -0.461577 1407 0.694443 0.719548 0.000000
-28.706570 -28.443974 -0.449175 1405 0.694443 0.719548 0.000000
-28.705683 -28.443098 -0.436743 1405 0.694443 0.719548 0.000000
-28.705402 -28.442818 -0.424335 1411 0.694443 0.719548 0.000000
-28.706020 -28.443430 -0.411929 1407 0.694443 0.719548 0.000000
-28.705479 -28.442902 -0.399514 1411 0.694443 0.719548 0.000000
-28.706917 -28.444326 -0.387120 1399 0.694443 0.719548 0.000000
-28.708345 -28.445742 -0.374726 1415 0.694443 0.719548 0.000000
-28.708017 -28.445410 -0.362309 1419 0.694443 0.719548 0.000000
-28.707367 -28.444761 -0.349895 1413 0.694443 0.719548 0.000000
-28.706762 -28.444170 -0.337470 1411 0.694443 0.719548 0.000000
-28.705696 -28.443104 -0.325050 1417 0.694443 0.719548 0.000000
-28.706081 -28.443495 -0.312646 1427 0.694443 0.719548 0.000000
-28.706411 -28.443823 -0.300233 1429 0.694443 0.719548 0.000000
-28.715981 -28.435347 -0.660202 1413 0.694443 0.719548 0.000000
-28.714930 -28.434309 -0.647771 1413 0.694443 0.719548 0.000000
-28.714918 -28.434298 -0.635351 1423 0.694442 0.719548 0.000000
-28.715153 -28.434530 -0.622949 1423 0.694443 0.719548 0.000000
-28.715288 -28.434654 -0.610537 1413 0.694443 0.719548 0.000000
-28.715473 -28.434847 -0.598125 1431 0.694443 0.719548 0.000000
-28.715542 -28.434916 -0.585714 1421 0.694443 0.719548 0.000000
-28.715107 -28.434477 -0.573288 1397 0.694443 0.719548 0.000000
-28.715277 -28.434643 -0.560886 1411 0.694443 0.719548 0.000000
-28.715393 -28.434765 -0.548475 1405 0.694443 0.719548 0.000000
-28.715513 -28.434875 -0.536063 1423 0.694443 0.719548 0.000000
-28.714855 -28.434225 -0.523639 1427 0.694443 0.719548 0.000000
-28.714029 -28.433416 -0.511207 1425 0.694443 0.719548 0.000000
-28.714462 -28.433846 -0.498812 1411 0.694443 0.719548 0.000000
-28.715551 -28.434919 -0.486412 1407 0.694443 0.719548 0.000000
-28.715294 -28.434660 -0.473994 1413 0.694443 0.719548 0.000000
-28.715395 -28.434767 -0.461593 1409 0.694443 0.719548 0.000000
-28.715137 -28.434507 -0.449175 1421 0.694443 0.719548 0.000000
-28.714138 -28.433514 -0.436744 1397 0.694443 0.719548 0.000000
-28.714911 -28.434280 -0.424346 1417 0.694443 0.719548 0.000000
-28.715923 -28.435293 -0.411946 1411 0.694443 0.719548 0.000000
-28.715496 -28.434860 -0.399530 1411 0.694443 0.719548 0.000000
-28.715385 -28.434753 -0.387121 1417 0.694443 0.719548 0.000000
-28.715925 -28.435284 -0.374716 1413 0.694443 0.719548 0.000000
-28.715338 -28.434706 -0.362291 1405 0.694443 0.719548 0.000000
-28.715309 -28.434675 -0.349881 1401 0.694443 0.719548 0.000000
-28.715328 -28.434704 -0.337470 1417 0.694443 0.719548 0.000000
-28.714510 -28.433887 -0.325048 1415 0.694443 0.719548 0.000000
-28.715157 -28.434525 -0.312651 1415 0.694443 0.719548 0.000000
-28.715162 -28.434538 -0.300241 1407 0.694443 0.719548 0.000000
-28.724506 -28.426424 -0.660209 1423 0.694443 0.719548 0.000000
-28.723757 -28.425680 -0.647776 1421 0.694443 0.719548 0.000000
-28.722820 -28.424753 -0.635345 1411 0.694443 0.719548 0.000000
-28.723623 -28.425560 -0.622947 1407 0.694443 0.719548 0.000000
-28.724482 -28.426401 -0.610548 1409 0.694443 0.719548 0.000000
-28.724247 -28.426174 -0.598130 1423 0.694443 0.719548 0.000000
-28.723497 -28.425430 -0.585707 1401 0.694443 0.719548 0.000000
-28.722837 -28.424776 -0.573283 1403 0.694443 0.719548 0.000000
-28.723232 -28.425171 -0.560879 1397 0.694443 0.719548 0.000000
-28.723757 -28.425692 -0.548474 1411 0.694443 0.719548 0.000000
-28.723417 -28.425360 -0.536057 1409 0.694443 0.719548 0.000000
-28.723627 -28.425573 -0.523644 1411 0.694443 0.719548 0.000000
-28.723127 -28.425068 -0.511229 1403 0.694443 0.719548 0.000000
-28.723591 -28.425537 -0.498824 1411 0.694443 0.719548 0.000000
-28.724943 -28.426874 -0.486431 1415 0.694443 0.719548 0.000000
-28.723644 -28.425589 -0.474003 1411 0.694443 0.719548 0.000000
-28.721989 -28.423946 -0.461559 1415 0.694443 0.719548 0.000000
-28.723488 -28.425434 -0.449174 1427 0.694443 0.719548 0.000000
-28.725204 -28.427134 -0.436787 1417 0.694443 0.719548 0.000000
-28.725086 -28.427019 -0.424378 1411 0.694443 0.719548 0.000000
-28.723507 -28.425453 -0.411943 1415 0.694443 0.719548 0.000000
-28.723486 -28.425444 -0.399523 1415 0.694442 0.719548 0.000000
-28.724245 -28.426191 -0.387125 1419 0.694443 0.719548 0.000000
-28.724642 -28.426586 -0.374721 1413 0.694443 0.719548 0.000000
-28.724371 -28.426315 -0.362303 1423 0.694443 0.719548 0.000000
-28.723341 -28.425295 -0.349883 1407 0.694443 0.719548 0.000000
-28.723841 -28.425795 -0.337478 1425 0.694443 0.719548 0.000000
-28.723751 -28.425713 -0.325069 1423 0.694443 0.719548 0.000000
-28.723825 -28.425787 -0.312658 1417 0.694443 0.719548 0.000000
-28.724302 -28.426252 -0.300253 1413 0.694443 0.719548 0.000000
-28.733177 -28.416508 -0.660201 1431 0.694443 0.719548 0.000000
-28.732590 -28.415928 -0.647777 1415 0.694443 0.719548 0.000000
-28.732258 -28.415606 -0.635350 1411 0.694443 0.719548 0.000000
-28.732603 -28.415945 -0.622946 1427 0.694443 0.719548 0.000000
-28.732325 -28.415668 -0.610528 1427 0.694443 0.719548 0.000000
-28.732725 -28.416056 -0.598124 1427 0.694443 0.719548 0.000000
-28.732756 -28.416092 -0.585714 1423 0.694443 0.719548 0.000000
-28.732307 -28.415642 -0.573288 1427 0.694443 0.719548 0.000000
-28.734037 -28.417351 -0.560911 1415 0.694443 0.719548 0.000000
-28.733755 -28.417070 -0.548493 1415 0.694443 0.719548 0.000000
-28.732765 -28.416096 -0.536062 1405 0.694443 0.719548 0.000000
-28.733669 -28.416990 -0.523664 1423 0.694443 0.719548 0.000000
-28.733685 -28.417000 -0.511253 1423 0.694443 0.719548 0.000000
-28.733675 -28.416988 -0.498843 1423 0.694443 0.719548 0.000000
-28.734261 -28.417572 -0.486437 1415 0.694443 0.719548 0.000000
-28.733727 -28.417051 -0.474022 1407 0.694443 0.719548 0.000000
-28.733627 -28.416950 -0.461602 1421 0.694443 0.719548 0.000000
-28.733732 -28.417049 -0.449191 1419 0.694443 0.719548 0.000000
-28.733671 -28.416992 -0.436781 1411 0.694443 0.719548 0.000000
-28.733143 -28.416464 -0.424366 1415 0.694443 0.719548 0.000000
-28.733280 -28.416603 -0.411955 1403 0.694443 0.719548 0.000000
-28.733011 -28.416330 -0.399537 1409 0.694443 0.719548 0.000000
-28.732058 -28.415390 -0.387116 1417 0.694443 0.719548 0.000000
-28.733349 -28.416662 -0.374723 1423 0.694443 0.719548 0.000000
-28.734659 -28.417967 -0.362330 1417 0.694443 0.719548 0.000000
-28.734390 -28.417694 -0.349913 1425 0.694443 0.719548 0.000000
-28.733051 -28.416376 -0.337485 1421 0.694443 0.719548 0.000000
-28.733080 -28.416395 -0.325075 1419 0.694443 0.719548 0.000000
-28.733932 -28.417244 -0.312666 1417 0.694443 0.719548 0.000000
-28.733265 -28.416584 -0.300252 1415 0.694443 0.719548 0.000000
