96
-29.042324 -27.984467 -0.670261 831 -0.252766 0.967527 0.000000
-29.043150 -27.985264 -0.657893 835 -0.252766 0.967527 0.000000
-29.041092 -27.983286 -0.645452 847 -0.252766 0.967527 0.000000
-29.038540 -27.980827 -0.633016 847 -0.252766 0.967527 0.000000
-29.038422 -27.980715 -0.620627 831 -0.252766 0.967527 0.000000
-29.038551 -27.980831 -0.608235 847 -0.252766 0.967527 0.000000
-29.037268 -27.979601 -0.595827 857 -0.252766 0.967527 0.000000
-29.036242 -27.978607 -0.583417 845 -0.252766 0.967527 0.000000
-29.037155 -27.979488 -0.571058 849 -0.252766 0.967527 0.000000
-29.039171 -27.981440 -0.558708 857 -0.252766 0.967527 0.000000
-29.039833 -27.982077 -0.546332 839 -0.252766 0.967527 0.000000
-29.039377 -27.981632 -0.533936 845 -0.252766 0.967527 0.000000
-29.038641 -27.980930 -0.521542 835 -0.252766 0.967527 0.000000
-29.036371 -27.978741 -0.509114 843 -0.252766 0.967527 0.000000
-29.036276 -27.978645 -0.496724 839 -0.252766 0.967527 0.000000
-29.037697 -27.980028 -0.484360 843 -0.252766 0.967527 0.000000
-29.036537 -27.978910 -0.471961 859 -0.252766 0.967527 0.000000
-29.037443 -27.979773 -0.459592 857 -0.252766 0.967527 0.000000
-29.037964 -27.980280 -0.447217 855 -0.252766 0.967527 0.000000
-29.037260 -27.979605 -0.434813 841 -0.252766 0.967527 0.000000
-29.036154 -27.978548 -0.422414 825 -0.252766 0.967527 0.000000
-29.037085 -27.979445 -0.410045 835 -0.252766 0.967527 0.000000
-29.036909 -27.979271 -0.397656 845 -0.252766 0.967527 0.000000
-29.035828 -27.978231 -0.385256 835 -0.252766 0.967527 0.000000
-29.037085 -27.979437 -0.372894 833 -0.252766 0.967527 0.000000
-29.034626 -27.977079 -0.360477 839 -0.252766 0.967527 0.000000
-29.034399 -27.976852 -0.348089 835 -0.252766 0.967527 0.000000
-29.035944 -27.978346 -0.335724 831 -0.252766 0.967527 0.000000
-29.036179 -27.978577 -0.323351 831 -0.252766 0.967527 0.000000
-29.034986 -27.977421 -0.310952 833 -0.252766 0.967527 0.000000
-29.036003 -27.978401 -0.298582 827 -0.252766 0.967527 0.000000
-29.039066 -27.981359 -0.286223 811 -0.252766 0.967527 0.000000
-29.065573 -27.988726 -0.670591 815 -0.252766 0.967527 0.000000
-29.067711 -27.990793 -0.658251 825 -0.252766 0.967527 0.000000
-29.068069 -27.991138 -0.645857 829 -0.252766 0.967527 0.000000
-29.066576 -27.989706 -0.633431 829 -0.252766 0.967527 0.000000
-29.065603 -27.988771 -0.621020 829 -0.252766 0.967527 0.000000
-29.066109 -27.989250 -0.608635 823 -0.252766 0.967527 0.000000
-29.067562 -27.990660 -0.596271 837 -0.252766 0.967527 0.000000
-29.065590 -27.988752 -0.583829 829 -0.252766 0.967527 0.000000
-29.064447 -27.987650 -0.571420 809 -0.252766 0.967527 0.000000
-29.065258 -27.988434 -0.559042 817 -0.252766 0.967527 0.000000
-29.063526 -27.986767 -0.546608 811 -0.252766 0.967527 0.000000
-29.065229 -27.988407 -0.534251 837 -0.252766 0.967527 0.000000
-29.064249 -27.987465 -0.521840 849 -0.252766 0.967527 0.000000
-29.064672 -27.987879 -0.509456 839 -0.252766 0.967527 0.000000
-29.064825 -27.988028 -0.497064 851 -0.252766 0.967527 0.000000
-29.062515 -27.985807 -0.484636 827 -0.252766 0.967527 0.000000
-29.063047 -27.986307 -0.472251 839 -0.252766 0.967527 0.000000
-29.062670 -27.985954 -0.459854 835 -0.252766 0.967527 0.000000
-29.063995 -27.987230 -0.447481 835 -0.252766 0.967527 0.000000
-29.063456 -27.986717 -0.435076 829 -0.252766 0.967527 0.000000
-29.062124 -27.985434 -0.422668 815 -0.252766 0.967527 0.000000
-29.061903 -27.985222 -0.410270 809 -0.252766 0.967527 0.000000
-29.061769 -27.985096 -0.397881 811 -0.252766 0.967527 0.000000
-29.061852 -27.985174 -0.385490 799 -0.252766 0.967527 0.000000
-29.062304 -27.985611 -0.373105 815 -0.252766 0.967527 0.000000
-29.062347 -27.985647 -0.360715 813 -0.252766 0.967527 0.000000
-29.062946 -27.986231 -0.348329 823 -0.252766 0.967527 0.000000
-29.062805 -27.986097 -0.335940 809 -0.252766 0.967527 0.000000
-29.062140 -27.985455 -0.323536 805 -0.252766 0.967527 0.000000
-29.062740 -27.986027 -0.311160 805 -0.252766 0.967527 0.000000
-29.062292 -27.985601 -0.298764 801 -0.252766 0.967527 0.000000
-29.062923 -27.986216 -0.286377 789 -0.252766 0.967527 0.000000
-29.090515 -27.995285 -0.670972 823 -0.252766 0.967527 0.000000
-29.091616 -27.996347 -0.658602 813 -0.252766 0.967527 0.000000
-29.090334 -27.995115 -0.646164 817 -0.252766 0.967527 0.000000
-29.087000 -27.991903 -0.633695 807 -0.252766 0.967527 0.000000
-29.090086 -27.994881 -0.621355 829 -0.252766 0.967527 0.000000
-29.090584 -27.995356 -0.608970 823 -0.252766 0.967527 0.000000
-29.088505 -27.993362 -0.596520 827 -0.252766 0.967527 0.000000
-29.089157 -27.993990 -0.584133 807 -0.252766 0.967527 0.000000
-29.089132 -27.993967 -0.571733 827 -0.252766 0.967527 0.000000
-29.090147 -27.994947 -0.559353 821 -0.252766 0.967527 0.000000
-29.089430 -27.994249 -0.546940 819 -0.252766 0.967527 0.000000
-29.089289 -27.994116 -0.534541 839 -0.252766 0.967527 0.000000
-29.088451 -27.993320 -0.522119 833 -0.252766 0.967527 0.000000
-29.087049 -27.991962 -0.509702 811 -0.252766 0.967527 0.000000
-29.087517 -27.992413 -0.497307 809 -0.252766 0.967527 0.000000
-29.088305 -27.993177 -0.484919 817 -0.252766 0.967527 0.000000
-29.089054 -27.993898 -0.472532 825 -0.252766 0.967527 0.000000
-29.088198 -27.993073 -0.460119 815 -0.252766 0.967527 0.000000
-29.085140 -27.990126 -0.447678 807 -0.252766 0.967527 0.000000
-29.084349 -27.989367 -0.435265 813 -0.252766 0.967527 0.000000
-29.085651 -27.990625 -0.422893 805 -0.252766 0.967527 0.000000
-29.085690 -27.990667 -0.410492 797 -0.252766 0.967527 0.000000
-29.083727 -27.988768 -0.398071 779 -0.252766 0.967527 0.000000
-29.082745 -27.987839 -0.385659 795 -0.252766 0.967527 0.000000
-29.085051 -27.990055 -0.373287 815 -0.252766 0.967527 0.000000
-29.087456 -27.992367 -0.360924 825 -0.252766 0.967527 0.000000
-29.090221 -27.995026 -0.348558 825 -0.252766 0.967527 0.000000
-29.088032 -27.992928 -0.336138 829 -0.252766 0.967527 0.000000
-29.085787 -27.990757 -0.323709 795 -0.252766 0.967527 0.000000
-29.087120 -27.992052 -0.311326 791 -0.252766 0.967527 0.000000
-29.085131 -27.990133 -0.298915 803 -0.252766 0.967527 0.000000
-29.084974 -27.989988 -0.286516 797 -0.252766 0.967527 0.000000
