180
-28.846077 -28.300343 -0.660262 869 0.694443 0.719548 0.000000
-28.848566 -28.302786 -0.647908 871 0.694443 0.719548 0.000000
-28.847927 -28.302153 -0.635484 853 0.694443 0.719548 0.000000
-28.846275 -28.300539 -0.623029 869 0.694443 0.719548 0.000000
-28.846994 -28.301237 -0.610632 845 0.694443 0.719548 0.000000
-28.847492 -28.301720 -0.598227 863 0.694443 0.719548 0.000000
-28.846737 -28.300985 -0.585804 857 0.694443 0.719548 0.000000
-28.846806 -28.301052 -0.573393 851 0.694442 0.719548 0.000000
-28.846935 -28.301170 -0.560982 837 0.694443 0.719548 0.000000
-28.846701 -28.300943 -0.548564 875 0.694443 0.719548 0.000000
-28.847118 -28.301359 -0.536159 873 0.694443 0.719548 0.000000
-28.847248 -28.301479 -0.523748 843 0.694443 0.719548 0.000000
-28.847717 -28.301937 -0.511343 877 0.694443 0.719548 0.000000
-28.847422 -28.301645 -0.498926 875 0.694443 0.719548 0.000000
-28.846378 -28.300627 -0.486495 875 0.694443 0.719548 0.000000
-28.845442 -28.299702 -0.474074 855 0.694443 0.719548 0.000000
-28.845806 -28.300056 -0.461660 845 0.694442 0.719548 0.000000
-28.846939 -28.301170 -0.449269 855 0.694443 0.719548 0.000000
-28.847881 -28.302094 -0.436870 835 0.694443 0.719548 0.000000
-28.847198 -28.301422 -0.424456 903 0.694443 0.719548 0.000000
-28.845554 -28.299816 -0.412021 873 0.694443 0.719548 0.000000
-28.846796 -28.301020 -0.399619 861 0.694443 0.719548 0.000000
-28.848188 -28.302393 -0.387226 905 0.694443 0.719548 0.000000
-28.848215 -28.302412 -0.374815 883 0.694443 0.719548 0.000000
-28.848499 -28.302702 -0.362412 865 0.694443 0.719548 0.000000
-28.847019 -28.301247 -0.349976 875 0.694443 0.719548 0.000000
-28.847040 -28.301262 -0.337565 879 0.694443 0.719548 0.000000
-28.847958 -28.302166 -0.325166 863 0.694443 0.719548 0.000000
-28.847029 -28.301247 -0.312745 829 0.694443 0.719548 0.000000
-28.846836 -28.301065 -0.300336 829 0.694443 0.719548 0.000000
-28.856197 -28.292311 -0.660298 861 0.694443 0.719548 0.000000
-28.857548 -28.293633 -0.647915 869 0.694443 0.719548 0.000000
-28.857214 -28.293310 -0.635498 845 0.694443 0.719548 0.000000
-28.856779 -28.292885 -0.623071 871 0.694442 0.719548 0.000000
-28.857227 -28.293312 -0.610667 875 0.694443 0.719548 0.000000
-28.855108 -28.291239 -0.598207 855 0.694443 0.719548 0.000000
-28.856121 -28.292238 -0.585817 843 0.694443 0.719548 0.000000
-28.856785 -28.292873 -0.573420 849 0.694443 0.719548 0.000000
-28.856071 -28.292173 -0.560987 869 0.694443 0.719548 0.000000
-28.857136 -28.293219 -0.548596 873 0.694442 0.719548 0.000000
-28.857569 -28.293646 -0.536192 865 0.694443 0.719548 0.000000
-28.857574 -28.293646 -0.523782 885 0.694443 0.719548 0.000000
-28.857906 -28.293974 -0.511368 877 0.694443 0.719548 0.000000
-28.857597 -28.293673 -0.498951 869 0.694443 0.719548 0.000000
-28.858322 -28.294386 -0.486554 861 0.694443 0.719548 0.000000
-28.858908 -28.294958 -0.474148 895 0.694443 0.719548 0.000000
-28.858744 -28.294790 -0.461739 873 0.694443 0.719548 0.000000
-28.857962 -28.294020 -0.449306 875 0.694443 0.719548 0.000000
-28.857475 -28.293550 -0.436891 865 0.694443 0.719548 0.000000
-28.858995 -28.295031 -0.424496 887 0.694443 0.719548 0.000000
-28.856833 -28.292921 -0.412056 863 0.694443 0.719548 0.000000
-28.855835 -28.291927 -0.399635 865 0.694443 0.719548 0.000000
-28.855539 -28.291649 -0.387218 853 0.694443 0.719548 0.000000
-28.852802 -28.288960 -0.374764 853 0.694443 0.719548 0.000000
-28.853994 -28.290123 -0.362372 851 0.694443 0.719548 0.000000
-28.856581 -28.292664 -0.349997 859 0.694443 0.719548 0.000000
-28.856962 -28.293037 -0.337583 857 0.694442 0.719548 0.000000
-28.856615 -28.292698 -0.325176 843 0.694443 0.719548 0.000000
-28.856794 -28.292873 -0.312764 815 0.694443 0.719548 0.000000
-28.856543 -28.292618 -0.300346 843 0.694443 0.719548 0.000000
-28.865519 -28.282801 -0.660305 845 0.694443 0.719548 0.000000
-28.866499 -28.283758 -0.647915 855 0.694442 0.719548 0.000000
-28.866543 -28.283794 -0.635505 851 0.694443 0.719548 0.000000
-28.869129 -28.286335 -0.623140 859 0.694443 0.719548 0.000000
-28.869791 -28.286982 -0.610743 855 0.694443 0.719548 0.000000
-28.867098 -28.284342 -0.598269 833 0.694443 0.719548 0.000000
-28.866508 -28.283764 -0.585844 871 0.694443 0.719548 0.000000
-28.864222 -28.281521 -0.573385 857 0.694443 0.719548 0.000000
-28.864708 -28.281992 -0.560980 859 0.694443 0.719548 0.000000
-28.865677 -28.282944 -0.548591 863 0.694443 0.719548 0.000000
-28.863863 -28.281166 -0.536148 843 0.694443 0.719548 0.000000
-28.866117 -28.283375 -0.523776 859 0.694443 0.719548 0.000000
-28.867481 -28.284708 -0.511383 875 0.694443 0.719548 0.000000
-28.867813 -28.285027 -0.498979 869 0.694443 0.719548 0.000000
-28.868067 -28.285275 -0.486567 865 0.694443 0.719548 0.000000
-28.867191 -28.284414 -0.474145 865 0.694443 0.719548 0.000000
-28.867437 -28.284658 -0.461732 869 0.694442 0.719548 0.000000
-28.866766 -28.283995 -0.449308 857 0.694443 0.719548 0.000000
-28.866386 -28.283628 -0.436892 865 0.694443 0.719548 0.000000
-28.867109 -28.284332 -0.424484 837 0.694443 0.719548 0.000000
-28.866106 -28.283346 -0.412064 841 0.694443 0.719548 0.000000
-28.866709 -28.283943 -0.399658 861 0.694443 0.719548 0.000000
-28.867325 -28.284540 -0.387251 851 0.694443 0.719548 0.000000
-28.867207 -28.284424 -0.374842 847 0.694443 0.719548 0.000000
-28.866766 -28.283995 -0.362426 861 0.694443 0.719548 0.000000
-28.864904 -28.282166 -0.349994 851 0.694442 0.719548 0.000000
-28.864880 -28.282143 -0.337574 835 0.694443 0.719548 0.000000
-28.867048 -28.284262 -0.325193 847 0.694443 0.719548 0.000000
-28.865959 -28.283194 -0.312773 817 0.694443 0.719548 0.000000
-28.865084 -28.282343 -0.300351 811 0.694443 0.719548 0.000000
-28.877436 -28.276173 -0.660376 857 0.694443 0.719548 0.000000
-28.876492 -28.275238 -0.647944 839 0.694443 0.719548 0.000000
-28.873972 -28.272776 -0.635468 815 0.694443 0.719548 0.000000
-28.873995 -28.272789 -0.623058 811 0.694443 0.719548 0.000000
-28.873407 -28.272223 -0.610633 823 0.694443 0.719548 0.000000
-28.873064 -28.271877 -0.598216 853 0.694443 0.719548 0.000000
-28.874809 -28.273588 -0.585839 863 0.694443 0.719548 0.000000
-28.873472 -28.272280 -0.573391 847 0.694443 0.719548 0.000000
-28.873859 -28.272655 -0.560987 857 0.694443 0.719548 0.000000
-28.875294 -28.274065 -0.548603 867 0.694443 0.719548 0.000000
-28.875462 -28.274216 -0.536192 863 0.694443 0.719548 0.000000
-28.875477 -28.274239 -0.523781 843 0.694443 0.719548 0.000000
-28.875952 -28.274704 -0.511376 853 0.694443 0.719548 0.000000
-28.875969 -28.274715 -0.498966 845 0.694443 0.719548 0.000000
-28.875334 -28.274094 -0.486542 819 0.694443 0.719548 0.000000
-28.875504 -28.274261 -0.474130 817 0.694443 0.719548 0.000000
-28.876341 -28.275070 -0.461731 833 0.694443 0.719548 0.000000
-28.875710 -28.274454 -0.449317 843 0.694443 0.719548 0.000000
-28.876057 -28.274796 -0.436904 839 0.694443 0.719548 0.000000
-28.875219 -28.273979 -0.424481 847 0.694443 0.719548 0.000000
-28.874424 -28.273197 -0.412059 841 0.694443 0.719548 0.000000
-28.875496 -28.274244 -0.399658 837 0.694442 0.719548 0.000000
-28.876522 -28.275242 -0.387258 827 0.694443 0.719548 0.000000
-28.875717 -28.274466 -0.374835 829 0.694443 0.719548 0.000000
-28.873091 -28.271885 -0.362400 823 0.694443 0.719548 0.000000
-28.874935 -28.273691 -0.350002 817 0.694443 0.719548 0.000000
-28.876223 -28.274950 -0.337610 837 0.694443 0.719548 0.000000
-28.875196 -28.273943 -0.325189 815 0.694443 0.719548 0.000000
-28.875467 -28.274210 -0.312776 785 0.694443 0.719548 0.000000
-28.874924 -28.273680 -0.300361 805 0.694443 0.719548 0.000000
-28.887564 -28.268448 -0.660410 827 0.694443 0.719548 0.000000
-28.885988 -28.266901 -0.647965 817 0.694443 0.719548 0.000000
-28.882875 -28.263855 -0.635474 831 0.694443 0.719548 0.000000
-28.882643 -28.263628 -0.623056 817 0.694443 0.719548 0.000000
-28.883675 -28.264629 -0.610666 833 0.694443 0.719548 0.000000
-28.882927 -28.263901 -0.598243 833 0.694443 0.719548 0.000000
-28.882528 -28.263508 -0.585816 841 0.694443 0.719548 0.000000
-28.882236 -28.263229 -0.573399 835 0.694443 0.719548 0.000000
-28.883665 -28.264618 -0.561015 825 0.694443 0.719548 0.000000
-28.883638 -28.264595 -0.548605 825 0.694443 0.719548 0.000000
-28.882448 -28.263426 -0.536166 815 0.694443 0.719548 0.000000
-28.882046 -28.263029 -0.523749 853 0.694443 0.719548 0.000000
-28.882477 -28.263456 -0.511345 845 0.694443 0.719548 0.000000
-28.885048 -28.265970 -0.498980 827 0.694442 0.719548 0.000000
-28.884575 -28.265501 -0.486554 805 0.694443 0.719548 0.000000
-28.883734 -28.264679 -0.474132 803 0.694443 0.719548 0.000000
-28.883160 -28.264126 -0.461707 825 0.694443 0.719548 0.000000
-28.882010 -28.262987 -0.449278 821 0.694443 0.719548 0.000000
-28.882465 -28.263437 -0.436873 841 0.694443 0.719548 0.000000
-28.885172 -28.266083 -0.424507 813 0.694443 0.719548 0.000000
-28.887566 -28.268433 -0.412124 837 0.694443 0.719548 0.000000
-28.886253 -28.267145 -0.399696 831 0.694443 0.719548 0.000000
-28.886021 -28.266918 -0.387278 793 0.694443 0.719548 0.000000
-28.884497 -28.265415 -0.374843 823 0.694443 0.719548 0.000000
-28.882946 -28.263901 -0.362417 791 0.694443 0.719548 0.000000
-28.884813 -28.265728 -0.350029 801 0.694442 0.719548 0.000000
-28.883984 -28.264917 -0.337606 819 0.694443 0.719548 0.000000
-28.883488 -28.264429 -0.325191 827 0.694443 0.719548 0.000000
-28.884655 -28.265572 -0.312789 803 0.694443 0.719548 0.000000
-28.884933 -28.265841 -0.300377 801 0.694443 0.719548 0.000000
-28.893541 -28.258020 -0.660367 825 0.694443 0.719548 0.000000
-28.892906 -28.257401 -0.647942 833 0.694443 0.719548 0.000000
-28.891438 -28.255959 -0.635496 825 0.694443 0.719548 0.000000
-28.891737 -28.256247 -0.623083 803 0.694443 0.719548 0.000000
-28.892384 -28.256884 -0.610686 803 0.694443 0.719548 0.000000
-28.891094 -28.255630 -0.598248 819 0.694443 0.719548 0.000000
-28.891455 -28.255972 -0.585845 807 0.694443 0.719548 0.000000
-28.892467 -28.256968 -0.573445 823 0.694443 0.719548 0.000000
-28.893692 -28.258160 -0.561063 845 0.694443 0.719548 0.000000
-28.892820 -28.257299 -0.548631 817 0.694443 0.719548 0.000000
-28.892624 -28.257116 -0.536212 817 0.694443 0.719548 0.000000
-28.892115 -28.256617 -0.523787 811 0.694443 0.719548 0.000000
-28.891487 -28.256002 -0.511363 797 0.694443 0.719548 0.000000
-28.892805 -28.257288 -0.498980 799 0.694443 0.719548 0.000000
-28.892916 -28.257387 -0.486569 821 0.694443 0.719548 0.000000
-28.891300 -28.255808 -0.474124 803 0.694443 0.719548 0.000000
-28.891081 -28.255592 -0.461716 851 0.694443 0.719548 0.000000
-28.892170 -28.256668 -0.449315 805 0.694443 0.719548 0.000000
-28.890980 -28.255499 -0.436886 827 0.694443 0.719548 0.000000
-28.890909 -28.255423 -0.424476 811 0.694443 0.719548 0.000000
-28.890947 -28.255466 -0.412066 823 0.694443 0.719548 0.000000
-28.890778 -28.255289 -0.399647 817 0.694443 0.719548 0.000000
-28.893270 -28.257725 -0.387273 821 0.694443 0.719548 0.000000
-28.894247 -28.258680 -0.374873 827 0.694443 0.719548 0.000000
-28.892712 -28.257179 -0.362438 809 0.694443 0.719548 0.000000
-28.892155 -28.256639 -0.350023 793 0.694443 0.719548 0.000000
-28.892189 -28.256668 -0.337612 799 0.694442 0.719548 0.000000
-28.892878 -28.257349 -0.325205 791 0.694443 0.719548 0.000000
-28.891434 -28.255926 -0.312779 787 0.694443 0.719548 0.000000
-28.891399 -28.255894 -0.300369 791 0.694443 0.719548 0.000000
