64
-29.503904 -27.683010 -0.672202 497 -0.411771 0.911288 0.000000
-29.504524 -27.683599 -0.659786 453 -0.411771 0.911288 0.000000
-29.502487 -27.681696 -0.647315 449 -0.411771 0.911288 0.000000
-29.504646 -27.683720 -0.634934 453 -0.411771 0.911287 0.000000
-29.500994 -27.680294 -0.622428 461 -0.411771 0.911288 0.000000
-29.502369 -27.681580 -0.610025 451 -0.411771 0.911288 0.000000
-29.502350 -27.681564 -0.597605 461 -0.411771 0.911287 0.000000
-29.499960 -27.679323 -0.585127 449 -0.411771 0.911288 0.000000
-29.505159 -27.684198 -0.572808 471 -0.411771 0.911288 0.000000
-29.504114 -27.683228 -0.560357 489 -0.411771 0.911288 0.000000
-29.499218 -27.678631 -0.547843 453 -0.411771 0.911288 0.000000
-29.500521 -27.679859 -0.535441 461 -0.411771 0.911288 0.000000
-29.501072 -27.680367 -0.523025 469 -0.411771 0.911288 0.000000
-29.499632 -27.679022 -0.510568 453 -0.411771 0.911288 0.000000
-29.497084 -27.676628 -0.498102 481 -0.411771 0.911288 0.000000
-29.497833 -27.677336 -0.485695 451 -0.411771 0.911288 0.000000
-29.498320 -27.677788 -0.473280 435 -0.411771 0.911288 0.000000
-29.499006 -27.678432 -0.460863 459 -0.411771 0.911288 0.000000
-29.501722 -27.680981 -0.448487 431 -0.411771 0.911287 0.000000
-29.498882 -27.678328 -0.436014 437 -0.411771 0.911288 0.000000
-29.494928 -27.674606 -0.423531 429 -0.411771 0.911288 0.000000
-29.495117 -27.674795 -0.411118 453 -0.411771 0.911288 0.000000
-29.497295 -27.676834 -0.398728 429 -0.411771 0.911288 0.000000
-29.498287 -27.677761 -0.386318 427 -0.411771 0.911288 0.000000
-29.496666 -27.676247 -0.373873 429 -0.411771 0.911288 0.000000
-29.499083 -27.678514 -0.361480 423 -0.411771 0.911288 0.000000
-29.500557 -27.679897 -0.349076 415 -0.411771 0.911288 0.000000
-29.498819 -27.678272 -0.336632 397 -0.411771 0.911288 0.000000
-29.499638 -27.679035 -0.324214 379 -0.411771 0.911288 0.000000
-29.498482 -27.677958 -0.311774 377 -0.411771 0.911288 0.000000
-29.495405 -27.675074 -0.299323 419 -0.411771 0.911288 0.000000
-29.493546 -27.673326 -0.286880 375 -0.411771 0.911288 0.000000
-29.540529 -27.699749 -0.672836 457 -0.411771 0.911288 0.000000
-29.534271 -27.693884 -0.660255 419 -0.411771 0.911288 0.000000
-29.538212 -27.697578 -0.647907 437 -0.411771 0.911288 0.000000
-29.545170 -27.704105 -0.635621 423 -0.411771 0.911288 0.000000
-29.538111 -27.697495 -0.623028 407 -0.411771 0.911288 0.000000
-29.535313 -27.694874 -0.610534 401 -0.411771 0.911288 0.000000
-29.535288 -27.694849 -0.598093 423 -0.411771 0.911288 0.000000
-29.530575 -27.690426 -0.585567 413 -0.411771 0.911288 0.000000
-29.530602 -27.690447 -0.573137 439 -0.411771 0.911288 0.000000
-29.533657 -27.693323 -0.560758 411 -0.411771 0.911287 0.000000
-29.534201 -27.693823 -0.548333 395 -0.411771 0.911288 0.000000
-29.533110 -27.692799 -0.535872 407 -0.411771 0.911288 0.000000
-29.532854 -27.692564 -0.523435 427 -0.411771 0.911288 0.000000
-29.533714 -27.693373 -0.511016 407 -0.411771 0.911288 0.000000
-29.536491 -27.695971 -0.498630 405 -0.411771 0.911288 0.000000
-29.536972 -27.696436 -0.486195 429 -0.411771 0.911288 0.000000
-29.532814 -27.692537 -0.473694 409 -0.411771 0.911288 0.000000
-29.533230 -27.692921 -0.461270 427 -0.411771 0.911288 0.000000
-29.538086 -27.697483 -0.448904 405 -0.411771 0.911288 0.000000
-29.535139 -27.694715 -0.436431 423 -0.411771 0.911288 0.000000
-29.529373 -27.689301 -0.423905 395 -0.411771 0.911288 0.000000
-29.532288 -27.692038 -0.411517 423 -0.411771 0.911288 0.000000
-29.533438 -27.693117 -0.399096 415 -0.411771 0.911288 0.000000
-29.533756 -27.693424 -0.386673 391 -0.411771 0.911287 0.000000
-29.531973 -27.691751 -0.374209 365 -0.411771 0.911288 0.000000
-29.532215 -27.691971 -0.361777 393 -0.411771 0.911288 0.000000
-29.534094 -27.693743 -0.349369 379 -0.411771 0.911288 0.000000
-29.537214 -27.696671 -0.336969 367 -0.411771 0.911288 0.000000
-29.539684 -27.698984 -0.324566 359 -0.411771 0.911288 0.000000
-29.536293 -27.695807 -0.312087 361 -0.411771 0.911288 0.000000
-29.535461 -27.695032 -0.299645 363 -0.411771 0.911288 0.000000
-29.535536 -27.695089 -0.287214 359 -0.411771 0.911288 0.000000
