179
-28.962896 -28.089994 -0.658121 1361 0.400281 0.916393 0.000000
-28.963514 -28.090593 -0.645735 1369 0.400281 0.916393 0.000000
-28.962542 -28.089657 -0.633324 1359 0.400281 0.916393 0.000000
-28.961578 -28.088715 -0.620913 1361 0.400281 0.916393 0.000000
-28.961451 -28.088591 -0.608514 1367 0.400281 0.916393 0.000000
-28.961105 -28.088264 -0.596117 1345 0.400281 0.916393 0.000000
-28.961937 -28.089064 -0.583739 1347 0.400281 0.916393 0.000000
-28.961683 -28.088825 -0.571341 1349 0.400281 0.916393 0.000000
-28.961815 -28.088945 -0.558949 1367 0.400281 0.916393 0.000000
-28.961624 -28.088758 -0.546561 1357 0.400281 0.916393 0.000000
-28.961163 -28.088322 -0.534155 1361 0.400281 0.916393 0.000000
-28.961912 -28.089043 -0.521777 1363 0.400281 0.916393 0.000000
-28.961227 -28.088385 -0.509374 1345 0.400281 0.916393 0.000000
-28.961916 -28.089054 -0.496997 1347 0.400281 0.916393 0.000000
-28.962196 -28.089321 -0.484604 1347 0.400281 0.916393 0.000000
-28.961451 -28.088600 -0.472201 1341 0.400281 0.916393 0.000000
-28.960495 -28.087677 -0.459799 1339 0.400281 0.916393 0.000000
-28.960070 -28.087257 -0.447403 1345 0.400281 0.916393 0.000000
-28.961594 -28.088736 -0.435028 1345 0.400281 0.916393 0.000000
-28.962736 -28.089846 -0.422657 1347 0.400281 0.916393 0.000000
-28.961983 -28.089115 -0.410254 1349 0.400281 0.916393 0.000000
-28.961386 -28.088543 -0.397859 1353 0.400281 0.916393 0.000000
-28.960791 -28.087971 -0.385455 1355 0.400281 0.916393 0.000000
-28.960405 -28.087585 -0.373058 1365 0.400281 0.916393 0.000000
-28.961287 -28.088440 -0.360680 1363 0.400281 0.916393 0.000000
-28.960293 -28.087486 -0.348279 1353 0.400281 0.916393 0.000000
-28.959930 -28.087128 -0.323492 1353 0.400281 0.916393 0.000000
-28.961048 -28.088219 -0.311121 1353 0.400281 0.916393 0.000000
-28.961266 -28.088432 -0.298728 1343 0.400281 0.916393 0.000000
-28.974766 -28.083313 -0.658190 1359 0.400281 0.916393 0.000000
-28.974804 -28.083355 -0.645790 1357 0.400281 0.916393 0.000000
-28.975153 -28.083693 -0.633406 1353 0.400281 0.916393 0.000000
-28.975348 -28.083876 -0.621014 1363 0.400281 0.916393 0.000000
-28.975008 -28.083555 -0.608617 1367 0.400281 0.916393 0.000000
-28.974779 -28.083323 -0.596219 1355 0.400281 0.916393 0.000000
-28.975060 -28.083605 -0.583826 1361 0.400281 0.916393 0.000000
-28.974815 -28.083361 -0.571428 1367 0.400281 0.916393 0.000000
-28.974258 -28.082821 -0.559023 1363 0.400281 0.916393 0.000000
-28.974499 -28.083055 -0.546630 1371 0.400281 0.916393 0.000000
-28.974607 -28.083168 -0.534239 1367 0.400281 0.916393 0.000000
-28.975296 -28.083838 -0.521862 1361 0.400281 0.916393 0.000000
-28.974730 -28.083275 -0.509457 1365 0.400281 0.916393 0.000000
-28.974321 -28.082884 -0.497061 1355 0.400281 0.916393 0.000000
-28.974474 -28.083033 -0.484669 1363 0.400281 0.916393 0.000000
-28.974897 -28.083443 -0.472275 1361 0.400281 0.916393 0.000000
-28.975115 -28.083660 -0.459892 1361 0.400281 0.916393 0.000000
-28.973886 -28.082474 -0.447474 1363 0.400281 0.916393 0.000000
-28.974195 -28.082766 -0.435091 1367 0.400281 0.916393 0.000000
-28.975283 -28.083830 -0.422710 1369 0.400281 0.916393 0.000000
-28.975641 -28.084175 -0.410326 1381 0.400281 0.916393 0.000000
-28.975733 -28.084261 -0.397935 1367 0.400281 0.916393 0.000000
-28.974558 -28.083120 -0.385526 1361 0.400281 0.916393 0.000000
-28.972811 -28.081425 -0.373112 1359 0.400281 0.916393 0.000000
-28.972841 -28.081461 -0.360722 1357 0.400281 0.916393 0.000000
-28.974169 -28.082750 -0.348339 1355 0.400281 0.916393 0.000000
-28.974411 -28.082987 -0.335956 1353 0.400281 0.916393 0.000000
-28.973902 -28.082483 -0.323551 1351 0.400281 0.916393 0.000000
-28.973768 -28.082357 -0.311162 1355 0.400281 0.916393 0.000000
-28.973938 -28.082521 -0.298770 1349 0.400281 0.916393 0.000000
-28.986145 -28.076824 -0.658251 1373 0.400281 0.916393 0.000000
-28.985973 -28.076668 -0.645852 1377 0.400281 0.916393 0.000000
-28.986378 -28.077051 -0.633468 1377 0.400281 0.916393 0.000000
-28.988089 -28.078722 -0.621112 1389 0.400281 0.916393 0.000000
-28.987494 -28.078136 -0.608697 1359 0.400281 0.916393 0.000000
-28.985834 -28.076529 -0.596272 1365 0.400281 0.916393 0.000000
-28.986803 -28.077469 -0.583893 1359 0.400281 0.916393 0.000000
-28.986885 -28.077547 -0.571502 1353 0.400281 0.916393 0.000000
-28.985365 -28.076082 -0.559076 1345 0.400281 0.916393 0.000000
-28.986328 -28.077017 -0.546697 1353 0.400281 0.916393 0.000000
-28.985935 -28.076637 -0.534300 1353 0.400281 0.916393 0.000000
-28.985676 -28.076382 -0.521892 1357 0.400281 0.916393 0.000000
-28.985893 -28.076597 -0.509510 1359 0.400281 0.916393 0.000000
-28.986485 -28.077162 -0.497124 1369 0.400281 0.916393 0.000000
-28.987421 -28.078075 -0.484745 1363 0.400281 0.916393 0.000000
-28.987162 -28.077820 -0.472347 1357 0.400281 0.916393 0.000000
-28.987326 -28.077991 -0.459955 1353 0.400281 0.916393 0.000000
-28.986900 -28.077572 -0.447549 1365 0.400281 0.916393 0.000000
-28.986525 -28.077206 -0.435152 1371 0.400281 0.916393 0.000000
-28.986717 -28.077402 -0.422760 1359 0.400281 0.916393 0.000000
-28.985716 -28.076427 -0.410349 1371 0.400281 0.916393 0.000000
-28.986019 -28.076714 -0.397956 1379 0.400281 0.916393 0.000000
-28.985994 -28.076691 -0.385566 1365 0.400281 0.916393 0.000000
-28.986343 -28.077028 -0.373172 1353 0.400281 0.916393 0.000000
-28.986774 -28.077459 -0.360788 1355 0.400281 0.916393 0.000000
-28.985380 -28.076109 -0.348381 1353 0.400281 0.916393 0.000000
-28.985565 -28.076286 -0.335989 1359 0.400281 0.916393 0.000000
-28.985744 -28.076458 -0.323597 1375 0.400281 0.916393 0.000000
-28.986229 -28.076933 -0.311202 1353 0.400281 0.916393 0.000000
-28.985783 -28.076496 -0.298806 1361 0.400281 0.916393 0.000000
-28.999147 -28.071926 -0.658356 1365 0.400281 0.916393 0.000000
-28.999660 -28.072412 -0.645971 1371 0.400281 0.916393 0.000000
-28.999157 -28.071928 -0.633565 1361 0.400281 0.916393 0.000000
-28.999142 -28.071913 -0.621165 1375 0.400281 0.916393 0.000000
-28.998756 -28.071539 -0.608759 1365 0.400281 0.916393 0.000000
-28.998404 -28.071205 -0.596352 1359 0.400281 0.916393 0.000000
-28.999176 -28.071947 -0.583974 1355 0.400281 0.916393 0.000000
-28.999306 -28.072077 -0.571572 1347 0.400281 0.916393 0.000000
-28.998476 -28.071272 -0.559160 1351 0.400281 0.916393 0.000000
-28.998287 -28.071087 -0.546762 1349 0.400281 0.916393 0.000000
-28.997879 -28.070694 -0.534355 1361 0.400281 0.916393 0.000000
-28.998838 -28.071629 -0.521986 1363 0.400281 0.916393 0.000000
-29.000429 -28.073172 -0.509610 1367 0.400281 0.916393 0.000000
-28.999283 -28.072054 -0.497191 1343 0.400281 0.916393 0.000000
-28.997644 -28.070478 -0.484776 1355 0.400281 0.916393 0.000000
-28.997919 -28.070740 -0.472383 1365 0.400281 0.916393 0.000000
-28.999592 -28.072351 -0.460007 1361 0.400281 0.916393 0.000000
-28.998642 -28.071434 -0.447596 1361 0.400281 0.916393 0.000000
-28.997110 -28.069956 -0.435180 1355 0.400281 0.916393 0.000000
-28.998365 -28.071175 -0.422808 1367 0.400281 0.916393 0.000000
-28.998194 -28.071003 -0.410409 1359 0.400281 0.916393 0.000000
-28.997480 -28.070320 -0.398006 1351 0.400281 0.916393 0.000000
-28.997532 -28.070360 -0.385605 1355 0.400281 0.916393 0.000000
-28.997774 -28.070595 -0.373212 1353 0.400281 0.916393 0.000000
-28.999102 -28.071884 -0.360839 1357 0.400281 0.916393 0.000000
-28.999023 -28.071817 -0.348440 1351 0.400281 0.916393 0.000000
-28.998354 -28.071171 -0.336036 1349 0.400281 0.916393 0.000000
-28.998432 -28.071245 -0.323645 1355 0.400281 0.916393 0.000000
-28.998617 -28.071421 -0.311253 1355 0.400281 0.916393 0.000000
-28.997684 -28.070518 -0.298841 1351 0.400281 0.916393 0.000000
-29.012205 -28.067385 -0.658459 1387 0.400281 0.916393 0.000000
-29.011389 -28.066605 -0.646046 1381 0.400281 0.916393 0.000000
-29.010323 -28.065565 -0.633626 1373 0.400281 0.916393 0.000000
-29.011198 -28.066414 -0.621248 1367 0.400281 0.916393 0.000000
-29.011759 -28.066952 -0.608852 1371 0.400281 0.916393 0.000000
-29.010311 -28.065559 -0.596425 1357 0.400281 0.916393 0.000000
-29.009706 -28.064978 -0.584021 1357 0.400281 0.916393 0.000000
-29.010841 -28.066067 -0.571640 1365 0.400281 0.916393 0.000000
-29.011644 -28.066845 -0.559262 1373 0.400281 0.916393 0.000000
-29.012028 -28.067223 -0.546868 1353 0.400281 0.916393 0.000000
-29.011087 -28.066313 -0.534446 1353 0.400281 0.916393 0.000000
-29.010576 -28.065811 -0.522041 1363 0.400281 0.916393 0.000000
-29.010433 -28.065678 -0.509642 1361 0.400281 0.916393 0.000000
-29.011534 -28.066740 -0.497261 1363 0.400281 0.916393 0.000000
-29.012003 -28.067204 -0.484877 1353 0.400281 0.916393 0.000000
-29.011110 -28.066332 -0.472465 1375 0.400281 0.916393 0.000000
-29.011171 -28.066393 -0.460064 1363 0.400281 0.916393 0.000000
-29.011427 -28.066641 -0.447671 1361 0.400281 0.916393 0.000000
-29.010729 -28.065971 -0.435268 1353 0.400281 0.916393 0.000000
-29.011614 -28.066828 -0.422879 1361 0.400281 0.916393 0.000000
-29.011032 -28.066267 -0.410474 1359 0.400281 0.916393 0.000000
-29.009592 -28.064867 -0.398058 1341 0.400281 0.916393 0.000000
-29.010412 -28.065659 -0.385669 1335 0.400281 0.916393 0.000000
-29.010330 -28.065588 -0.373270 1329 0.400281 0.916393 0.000000
-29.010258 -28.065512 -0.360870 1353 0.400281 0.916393 0.000000
-29.010656 -28.065903 -0.348486 1365 0.400281 0.916393 0.000000
-29.010944 -28.066177 -0.336093 1373 0.400281 0.916393 0.000000
-29.011286 -28.066507 -0.323700 1353 0.400281 0.916393 0.000000
-29.010502 -28.065754 -0.311287 1375 0.400281 0.916393 0.000000
-29.009836 -28.065109 -0.298893 1359 0.400281 0.916393 0.000000
-29.023611 -28.060930 -0.658529 1365 0.400281 0.916393 0.000000
-29.022709 -28.060066 -0.646107 1367 0.400281 0.916393 0.000000
-29.022472 -28.059830 -0.633699 1363 0.400281 0.916393 0.000000
-29.022097 -28.059464 -0.621293 1367 0.400281 0.916393 0.000000
-29.022814 -28.060158 -0.608905 1361 0.400281 0.916393 0.000000
-29.023727 -28.061041 -0.596527 1357 0.400281 0.916393 0.000000
-29.024538 -28.061836 -0.584148 1363 0.400281 0.916393 0.000000
-29.023935 -28.061245 -0.571734 1357 0.400281 0.916393 0.000000
-29.022165 -28.059534 -0.559300 1377 0.400281 0.916393 0.000000
-29.022968 -28.060310 -0.546913 1365 0.400281 0.916393 0.000000
-29.024563 -28.061859 -0.534547 1367 0.400281 0.916393 0.000000
-29.024303 -28.061604 -0.522139 1377 0.400281 0.916393 0.000000
-29.023050 -28.060394 -0.509721 1371 0.400281 0.916393 0.000000
-29.022230 -28.059597 -0.497298 1361 0.400281 0.916393 0.000000
-29.021694 -28.059088 -0.484893 1371 0.400281 0.916393 0.000000
-29.021544 -28.058933 -0.472494 1367 0.400281 0.916393 0.000000
-29.021639 -28.059034 -0.460093 1367 0.400281 0.916393 0.000000
-29.022591 -28.059948 -0.447714 1369 0.400281 0.916393 0.000000
-29.022995 -28.060345 -0.435320 1363 0.400281 0.916393 0.000000
-29.021837 -28.059231 -0.422910 1351 0.400281 0.916393 0.000000
-29.022028 -28.059412 -0.410508 1369 0.400281 0.916393 0.000000
-29.021904 -28.059292 -0.398109 1353 0.400281 0.916393 0.000000
-29.021837 -28.059223 -0.385710 1353 0.400281 0.916393 0.000000
-29.021385 -28.058794 -0.373304 1367 0.400281 0.916393 0.000000
-29.020990 -28.058413 -0.360907 1355 0.400281 0.916393 0.000000
-29.022078 -28.059464 -0.348516 1367 0.400281 0.916393 0.000000
-29.022207 -28.059582 -0.336125 1367 0.400281 0.916393 0.000000
-29.021433 -28.058834 -0.323722 1355 0.400281 0.916393 0.000000
-29.021978 -28.059359 -0.311326 1351 0.400281 0.916393 0.000000
-29.021891 -28.059284 -0.298927 1359 0.400281 0.916393 0.000000
