150
-29.069159 -28.036303 -0.658804 1097 0.400281 0.916393 0.000000
-29.069260 -28.036396 -0.646403 1119 0.400281 0.916393 0.000000
-29.068554 -28.035721 -0.633979 1133 0.400281 0.916393 0.000000
-29.067801 -28.034992 -0.621556 1111 0.400281 0.916393 0.000000
-29.068514 -28.035681 -0.609169 1111 0.400281 0.916393 0.000000
-29.067799 -28.034998 -0.596756 1113 0.400281 0.916393 0.000000
-29.067827 -28.035019 -0.584345 1119 0.400281 0.916393 0.000000
-29.068045 -28.035234 -0.571953 1141 0.400281 0.916393 0.000000
-29.068441 -28.035610 -0.559549 1119 0.400281 0.916393 0.000000
-29.068996 -28.036142 -0.547153 1131 0.400281 0.916393 0.000000
-29.068001 -28.035189 -0.534732 1101 0.400281 0.916393 0.000000
-29.067963 -28.035152 -0.522332 1121 0.400281 0.916393 0.000000
-29.068445 -28.035614 -0.509938 1109 0.400281 0.916393 0.000000
-29.069084 -28.036230 -0.497541 1131 0.400281 0.916393 0.000000
-29.068666 -28.035831 -0.485125 1111 0.400281 0.916393 0.000000
-29.067829 -28.035019 -0.472713 1117 0.400281 0.916393 0.000000
-29.067282 -28.034500 -0.460297 1129 0.400281 0.916393 0.000000
-29.067818 -28.035019 -0.447902 1139 0.400281 0.916393 0.000000
-29.067074 -28.034296 -0.435489 1115 0.400281 0.916393 0.000000
-29.065416 -28.032703 -0.423064 1119 0.400281 0.916393 0.000000
-29.066835 -28.034069 -0.410681 1125 0.400281 0.916393 0.000000
-29.068665 -28.035837 -0.398303 1123 0.400281 0.916393 0.000000
-29.067122 -28.034336 -0.385877 1135 0.400281 0.916393 0.000000
-29.067146 -28.034367 -0.373477 1121 0.400281 0.916393 0.000000
-29.068487 -28.035654 -0.361094 1131 0.400281 0.916393 0.000000
-29.067251 -28.034460 -0.348675 1137 0.400281 0.916393 0.000000
-29.067593 -28.034794 -0.336272 1129 0.400281 0.916393 0.000000
-29.066769 -28.034006 -0.323859 1105 0.400281 0.916393 0.000000
-29.065775 -28.033052 -0.311448 1101 0.400281 0.916393 0.000000
-29.065689 -28.032965 -0.299049 1105 0.400281 0.916393 0.000000
-29.079519 -28.028494 -0.658846 1111 0.400281 0.916393 0.000000
-29.080942 -28.029861 -0.646472 1113 0.400281 0.916393 0.000000
-29.079813 -28.028770 -0.634043 1133 0.400281 0.916393 0.000000
-29.078747 -28.027742 -0.621613 1119 0.400281 0.916393 0.000000
-29.080240 -28.029182 -0.609238 1125 0.400281 0.916393 0.000000
-29.080584 -28.029514 -0.596835 1115 0.400281 0.916393 0.000000
-29.079931 -28.028883 -0.584421 1139 0.400281 0.916393 0.000000
-29.080845 -28.029764 -0.572032 1131 0.400281 0.916393 0.000000
-29.081282 -28.030188 -0.559637 1129 0.400281 0.916393 0.000000
-29.081406 -28.030313 -0.547226 1125 0.400281 0.916393 0.000000
-29.080433 -28.029364 -0.534805 1139 0.400281 0.916393 0.000000
-29.079855 -28.028816 -0.522390 1131 0.400281 0.916393 0.000000
-29.081657 -28.030552 -0.510012 1117 0.400281 0.916393 0.000000
-29.081509 -28.030413 -0.497603 1131 0.400281 0.916393 0.000000
-29.080410 -28.029346 -0.485184 1127 0.400281 0.916393 0.000000
-29.079668 -28.028639 -0.472770 1129 0.400281 0.916393 0.000000
-29.080252 -28.029196 -0.460375 1131 0.400281 0.916393 0.000000
-29.081501 -28.030396 -0.447982 1147 0.400281 0.916393 0.000000
-29.080288 -28.029234 -0.435564 1129 0.400281 0.916393 0.000000
-29.079950 -28.028913 -0.423147 1127 0.400281 0.916393 0.000000
-29.080103 -28.029051 -0.410745 1115 0.400281 0.916393 0.000000
-29.079773 -28.028736 -0.398338 1125 0.400281 0.916393 0.000000
-29.081173 -28.030085 -0.385954 1123 0.400281 0.916393 0.000000
-29.081148 -28.030062 -0.373554 1147 0.400281 0.916393 0.000000
-29.079815 -28.028776 -0.361126 1141 0.400281 0.916393 0.000000
-29.079456 -28.028435 -0.348720 1129 0.400281 0.916393 0.000000
-29.080126 -28.029078 -0.336323 1141 0.400281 0.916393 0.000000
-29.080093 -28.029047 -0.323923 1117 0.400281 0.916393 0.000000
-29.078959 -28.027950 -0.311503 1117 0.400281 0.916393 0.000000
-29.079643 -28.028618 -0.299107 1111 0.400281 0.916393 0.000000
-29.094244 -28.023865 -0.658972 1109 0.400281 0.916393 0.000000
-29.093866 -28.023499 -0.646555 1123 0.400281 0.916393 0.000000
-29.093645 -28.023287 -0.634147 1135 0.400281 0.916393 0.000000
-29.093676 -28.023308 -0.621736 1109 0.400281 0.916393 0.000000
-29.093071 -28.022728 -0.609312 1103 0.400281 0.916393 0.000000
-29.093102 -28.022762 -0.596911 1127 0.400281 0.916393 0.000000
-29.094025 -28.023651 -0.584522 1123 0.400281 0.916393 0.000000
-29.093098 -28.022755 -0.572091 1109 0.400281 0.916393 0.000000
-29.092535 -28.022207 -0.559676 1117 0.400281 0.916393 0.000000
-29.092140 -28.021828 -0.547259 1129 0.400281 0.916393 0.000000
-29.092562 -28.022240 -0.534865 1125 0.400281 0.916393 0.000000
-29.092318 -28.022007 -0.522447 1107 0.400281 0.916393 0.000000
-29.093115 -28.022768 -0.510059 1133 0.400281 0.916393 0.000000
-29.094183 -28.023804 -0.497669 1127 0.400281 0.916393 0.000000
-29.093063 -28.022720 -0.485239 1117 0.400281 0.916393 0.000000
-29.092695 -28.022373 -0.472832 1123 0.400281 0.916393 0.000000
-29.092653 -28.022322 -0.460422 1119 0.400281 0.916393 0.000000
-29.092535 -28.022207 -0.448013 1115 0.400281 0.916393 0.000000
-29.092947 -28.022612 -0.435619 1119 0.400281 0.916393 0.000000
-29.092726 -28.022400 -0.423211 1121 0.400281 0.916393 0.000000
-29.091976 -28.021673 -0.410788 1123 0.400281 0.916393 0.000000
-29.091223 -28.020945 -0.398374 1133 0.400281 0.916393 0.000000
-29.090839 -28.020586 -0.385968 1109 0.400281 0.916393 0.000000
-29.091877 -28.021582 -0.373568 1119 0.400281 0.916393 0.000000
-29.093220 -28.022873 -0.361185 1129 0.400281 0.916393 0.000000
-29.093924 -28.023554 -0.348788 1139 0.400281 0.916393 0.000000
-29.093693 -28.023335 -0.336379 1127 0.400281 0.916393 0.000000
-29.093081 -28.022734 -0.323965 1129 0.400281 0.916393 0.000000
-29.092571 -28.022245 -0.311550 1121 0.400281 0.916393 0.000000
-29.093687 -28.023321 -0.299159 1123 0.400281 0.916393 0.000000
-29.105747 -28.016779 -0.659035 1095 0.400281 0.916393 0.000000
-29.106356 -28.017370 -0.646639 1103 0.400281 0.916393 0.000000
-29.106720 -28.017719 -0.634235 1113 0.400281 0.916393 0.000000
-29.106068 -28.017088 -0.621811 1107 0.400281 0.916393 0.000000
-29.107311 -28.018295 -0.609429 1095 0.400281 0.916393 0.000000
-29.106596 -28.017597 -0.597005 1115 0.400281 0.916393 0.000000
-29.107033 -28.018021 -0.584601 1111 0.400281 0.916393 0.000000
-29.107008 -28.017994 -0.572191 1105 0.400281 0.916393 0.000000
-29.105875 -28.016899 -0.559761 1101 0.400281 0.916393 0.000000
-29.105841 -28.016869 -0.547351 1121 0.400281 0.916393 0.000000
-29.105692 -28.016729 -0.534942 1141 0.400281 0.916393 0.000000
-29.105242 -28.016291 -0.522526 1141 0.400281 0.916393 0.000000
-29.105547 -28.016592 -0.510123 1131 0.400281 0.916393 0.000000
-29.106623 -28.017620 -0.497733 1121 0.400281 0.916393 0.000000
-29.106770 -28.017765 -0.485331 1123 0.400281 0.916393 0.000000
-29.106785 -28.017776 -0.472921 1125 0.400281 0.916393 0.000000
-29.104937 -28.015999 -0.460478 1131 0.400281 0.916393 0.000000
-29.105234 -28.016293 -0.448075 1109 0.400281 0.916393 0.000000
-29.106131 -28.017147 -0.435686 1109 0.400281 0.916393 0.000000
-29.104229 -28.015327 -0.423244 1105 0.400281 0.916393 0.000000
-29.103586 -28.014702 -0.410830 1117 0.400281 0.916393 0.000000
-29.104570 -28.015656 -0.398440 1119 0.400281 0.916393 0.000000
-29.105232 -28.016291 -0.386043 1137 0.400281 0.916393 0.000000
-29.106739 -28.017742 -0.373649 1119 0.400281 0.916393 0.000000
-29.106817 -28.017815 -0.361248 1111 0.400281 0.916393 0.000000
-29.105425 -28.016481 -0.348821 1131 0.400281 0.916393 0.000000
-29.105593 -28.016644 -0.336419 1121 0.400281 0.916393 0.000000
-29.106140 -28.017172 -0.324013 1115 0.400281 0.916393 0.000000
-29.105528 -28.016571 -0.311599 1111 0.400281 0.916393 0.000000
-29.105705 -28.016739 -0.299197 1113 0.400281 0.916393 0.000000
-29.121191 -28.013508 -0.659180 1125 0.400281 0.916393 0.000000
-29.118851 -28.011259 -0.646722 1087 0.400281 0.916393 0.000000
-29.117678 -28.010132 -0.634283 1103 0.400281 0.916393 0.000000
-29.118332 -28.010759 -0.621887 1093 0.400281 0.916393 0.000000
-29.118103 -28.010544 -0.609468 1093 0.400281 0.916393 0.000000
-29.118132 -28.010563 -0.597058 1103 0.400281 0.916393 0.000000
-29.119204 -28.011602 -0.584677 1105 0.400281 0.916393 0.000000
-29.118763 -28.011169 -0.572251 1093 0.400281 0.916393 0.000000
-29.117260 -28.009729 -0.559815 1107 0.400281 0.916393 0.000000
-29.117538 -28.009996 -0.547412 1097 0.400281 0.916393 0.000000
-29.118343 -28.010775 -0.535014 1109 0.400281 0.916393 0.000000
-29.118238 -28.010674 -0.522605 1111 0.400281 0.916393 0.000000
-29.117722 -28.010180 -0.510180 1109 0.400281 0.916393 0.000000
-29.117619 -28.010077 -0.497770 1105 0.400281 0.916393 0.000000
-29.118320 -28.010746 -0.485373 1123 0.400281 0.916393 0.000000
-29.118147 -28.010586 -0.472965 1117 0.400281 0.916393 0.000000
-29.118208 -28.010649 -0.460554 1117 0.400281 0.916393 0.000000
-29.117628 -28.010086 -0.448139 1123 0.400281 0.916393 0.000000
-29.118246 -28.010687 -0.435733 1121 0.400281 0.916393 0.000000
-29.118710 -28.011118 -0.423328 1117 0.400281 0.916393 0.000000
-29.118061 -28.010500 -0.410914 1107 0.400281 0.916393 0.000000
-29.117840 -28.010288 -0.398506 1093 0.400281 0.916393 0.000000
-29.118660 -28.011080 -0.386108 1109 0.400281 0.916393 0.000000
-29.118526 -28.010954 -0.373699 1113 0.400281 0.916393 0.000000
-29.116608 -28.009106 -0.361257 1101 0.400281 0.916393 0.000000
-29.116217 -28.008730 -0.348850 1097 0.400281 0.916393 0.000000
-29.117989 -28.010424 -0.336463 1091 0.400281 0.916393 0.000000
-29.119530 -28.011913 -0.324068 1083 0.400281 0.916393 0.000000
-29.117334 -28.009800 -0.311639 1101 0.400281 0.916393 0.000000
-29.116873 -28.009365 -0.299223 1101 0.400281 0.916393 0.000000
