774
-2.398685 -2.215511 -0.365424 1287 0.740885 0.671632 0.000000
-2.399140 -2.215926 -0.364480 1297 0.740885 0.671632 0.000000
-2.399112 -2.215903 -0.363460 1291 0.740885 0.671632 0.000000
-2.398710 -2.215527 -0.362384 1295 0.740885 0.671632 0.000000
-2.399013 -2.215811 -0.361421 1289 0.740885 0.671632 0.000000
-2.398773 -2.215587 -0.360363 1279 0.740885 0.671632 0.000000
-2.398308 -2.215162 -0.359288 1265 0.740885 0.671632 0.000000
-2.398230 -2.215088 -0.358258 1273 0.740885 0.671632 0.000000
-2.398144 -2.215008 -0.357229 1273 0.740885 0.671632 0.000000
-2.398706 -2.215530 -0.356294 1283 0.740885 0.671632 0.000000
-2.399106 -2.215902 -0.355340 1289 0.740885 0.671632 0.000000
-2.398866 -2.215677 -0.354292 1281 0.740885 0.671632 0.000000
-2.398787 -2.215603 -0.353263 1271 0.740885 0.671632 0.000000
-2.398485 -2.215329 -0.352206 1275 0.740885 0.671632 0.000000
-2.398302 -2.215162 -0.351168 1281 0.740885 0.671632 0.000000
-2.398378 -2.215232 -0.350167 1281 0.740885 0.671632 0.000000
-2.398194 -2.215050 -0.349129 1273 0.740885 0.671632 0.000000
-2.397737 -2.214632 -0.348043 1277 0.740885 0.671632 0.000000
-2.397061 -2.214006 -0.346939 1281 0.740885 0.671632 0.000000
-2.397664 -2.214573 -0.346013 1277 0.740885 0.671632 0.000000
-2.398126 -2.214994 -0.345059 1277 0.740885 0.671632 0.000000
-2.398041 -2.214914 -0.344040 1267 0.740885 0.671632 0.000000
-2.398545 -2.215379 -0.343095 1273 0.740885 0.671632 0.000000
-2.398783 -2.215600 -0.342113 1289 0.740885 0.671632 0.000000
-2.398430 -2.215276 -0.341046 1295 0.740885 0.671632 0.000000
-2.398190 -2.215051 -0.339998 1291 0.740885 0.671632 0.000000
-2.397718 -2.214621 -0.338923 1273 0.740885 0.671632 0.000000
-2.397478 -2.214396 -0.337875 1263 0.740885 0.671632 0.000000
-2.398032 -2.214912 -0.336940 1267 0.740885 0.671632 0.000000
-2.399020 -2.215815 -0.336061 1285 0.740885 0.671632 0.000000
-2.398612 -2.215447 -0.334994 1281 0.740885 0.671632 0.000000
-2.398153 -2.215015 -0.333919 1267 0.740885 0.671632 0.000000
-2.398067 -2.214935 -0.332899 1261 0.740885 0.671632 0.000000
-2.397918 -2.214806 -0.331861 1271 0.740885 0.671632 0.000000
-2.398107 -2.214976 -0.330879 1281 0.740885 0.671632 0.000000
-2.397423 -2.214344 -0.329765 1271 0.740885 0.671632 0.000000
-2.396804 -2.213776 -0.328671 1249 0.740885 0.671632 0.000000
-2.397358 -2.214292 -0.327736 1261 0.740885 0.671632 0.000000
-2.398508 -2.215345 -0.326875 1287 0.740885 0.671632 0.000000
-2.398680 -2.215503 -0.325894 1285 0.740885 0.671632 0.000000
-2.398595 -2.215423 -0.324864 1287 0.740885 0.671632 0.000000
-2.398824 -2.215638 -0.323882 1297 0.740885 0.671632 0.000000
-2.399013 -2.215808 -0.322900 1287 0.740885 0.671632 0.000000
-2.398807 -2.215622 -0.321852 1271 0.740885 0.671632 0.000000
-2.398139 -2.215003 -0.320758 1273 0.740885 0.671632 0.000000
-2.398368 -2.215217 -0.319776 1279 0.740885 0.671632 0.000000
-2.399076 -2.215878 -0.318860 1277 0.740885 0.671632 0.000000
-2.398667 -2.215497 -0.317793 1263 0.740885 0.671632 0.000000
-2.398144 -2.215015 -0.316708 1273 0.740885 0.671632 0.000000
-2.398374 -2.215230 -0.315726 1279 0.740885 0.671632 0.000000
-2.398182 -2.215042 -0.314688 1283 0.740885 0.671632 0.000000
-2.397668 -2.214567 -0.313613 1277 0.740885 0.671632 0.000000
-2.397835 -2.214733 -0.312621 1281 0.740885 0.671632 0.000000
-2.397691 -2.214596 -0.311592 1275 0.740885 0.671632 0.000000
-2.396684 -2.213663 -0.310452 1257 0.740885 0.671632 0.000000
-2.396647 -2.213634 -0.309442 1267 0.740885 0.671632 0.000000
-2.397369 -2.214293 -0.308515 1281 0.740885 0.671632 0.000000
-2.397696 -2.214595 -0.307552 1287 0.740885 0.671632 0.000000
-2.397602 -2.214509 -0.306523 1269 0.740885 0.671632 0.000000
-2.397832 -2.214724 -0.305541 1277 0.740885 0.671632 0.000000
-2.398652 -2.215484 -0.304633 1285 0.740885 0.671632 0.000000
-2.399472 -2.216244 -0.303726 1299 0.740885 0.671632 0.000000
-2.399055 -2.215857 -0.302659 1289 0.740885 0.671632 0.000000
-2.397514 -2.214436 -0.301464 1275 0.740885 0.671632 0.000000
-2.397209 -2.214148 -0.300417 1283 0.740885 0.671632 0.000000
-2.397909 -2.214802 -0.299490 1287 0.740885 0.671632 0.000000
-2.397928 -2.214816 -0.298480 1291 0.740885 0.671632 0.000000
-2.398473 -2.215326 -0.297535 1289 0.740885 0.671632 0.000000
-2.400168 -2.215456 -0.399088 1287 0.740885 0.671632 0.000000
-2.400576 -2.215834 -0.398144 1305 0.740885 0.671632 0.000000
-2.399973 -2.215277 -0.397030 1295 0.740885 0.671632 0.000000
-2.398933 -2.214319 -0.395840 1277 0.740885 0.671632 0.000000
-2.398863 -2.214252 -0.394810 1285 0.740885 0.671632 0.000000
-2.399375 -2.214723 -0.393875 1297 0.740885 0.671632 0.000000
-2.399945 -2.215251 -0.392950 1295 0.740885 0.671632 0.000000
-2.400086 -2.215385 -0.391959 1297 0.740885 0.671632 0.000000
-2.399791 -2.215117 -0.390891 1291 0.740885 0.671632 0.000000
-2.399518 -2.214854 -0.389834 1293 0.740885 0.671632 0.000000
-2.398906 -2.214291 -0.388720 1283 0.740885 0.671632 0.000000
-2.398935 -2.214325 -0.387709 1281 0.740885 0.671632 0.000000
-2.399771 -2.215098 -0.386822 1295 0.740885 0.671632 0.000000
-2.400234 -2.215518 -0.385877 1293 0.740885 0.671632 0.000000
-2.400156 -2.215444 -0.384848 1287 0.740885 0.671632 0.000000
-2.399869 -2.215183 -0.383791 1291 0.740885 0.671632 0.000000
-2.399524 -2.214864 -0.382714 1303 0.740885 0.671632 0.000000
-2.399075 -2.214452 -0.381628 1291 0.740885 0.671632 0.000000
-2.399538 -2.214873 -0.380684 1269 0.740885 0.671632 0.000000
-2.399622 -2.214949 -0.379683 1269 0.740885 0.671632 0.000000
-2.398956 -2.214344 -0.378559 1275 0.740885 0.671632 0.000000
-2.398562 -2.213974 -0.377483 1281 0.740885 0.671632 0.000000
-2.398267 -2.213707 -0.376425 1277 0.740885 0.671632 0.000000
-2.398828 -2.214229 -0.375500 1285 0.740885 0.671632 0.000000
-2.399179 -2.214550 -0.374537 1293 0.740885 0.671632 0.000000
-2.399109 -2.214482 -0.373507 1285 0.740885 0.671632 0.000000
-2.398813 -2.214215 -0.372450 1275 0.740885 0.671632 0.000000
-2.398524 -2.213939 -0.371383 1275 0.740885 0.671632 0.000000
-2.398869 -2.214268 -0.370430 1281 0.740885 0.671632 0.000000
-2.399971 -2.215285 -0.369579 1291 0.740885 0.671632 0.000000
-2.399408 -2.214759 -0.368475 1289 0.740885 0.671632 0.000000
-2.398368 -2.213801 -0.367304 1269 0.740885 0.671632 0.000000
-2.398719 -2.214122 -0.366341 1259 0.740885 0.671632 0.000000
-2.399604 -2.214945 -0.365463 1277 0.740885 0.671632 0.000000
-2.399793 -2.215116 -0.364471 1281 0.740885 0.671632 0.000000
-2.399714 -2.215042 -0.363452 1281 0.740885 0.671632 0.000000
-2.399574 -2.214918 -0.362413 1281 0.740885 0.671632 0.000000
-2.398694 -2.214097 -0.361261 1275 0.740885 0.671632 0.000000
-2.398456 -2.213887 -0.360213 1273 0.740885 0.671632 0.000000
-2.398854 -2.214245 -0.359259 1285 0.740885 0.671632 0.000000
-2.398938 -2.214321 -0.358259 1285 0.740885 0.671632 0.000000
-2.399282 -2.214650 -0.357295 1277 0.740885 0.671632 0.000000
-2.400215 -2.215510 -0.356417 1287 0.740885 0.671632 0.000000
-2.400354 -2.215629 -0.355425 1279 0.740885 0.671632 0.000000
-2.400276 -2.215555 -0.354396 1273 0.740885 0.671632 0.000000
-2.399756 -2.215088 -0.353311 1279 0.740885 0.671632 0.000000
-2.399096 -2.214475 -0.352197 1281 0.740885 0.671632 0.000000
-2.398791 -2.214187 -0.351140 1277 0.740885 0.671632 0.000000
-2.399029 -2.214408 -0.350158 1279 0.740885 0.671632 0.000000
-2.399211 -2.214586 -0.349176 1287 0.740885 0.671632 0.000000
-2.399027 -2.214404 -0.348128 1291 0.740885 0.671632 0.000000
-2.398352 -2.213793 -0.347024 1271 0.740885 0.671632 0.000000
-2.398056 -2.213511 -0.345967 1265 0.740885 0.671632 0.000000
-2.398027 -2.213488 -0.344947 1259 0.740885 0.671632 0.000000
-2.397836 -2.213314 -0.343909 1253 0.740885 0.671632 0.000000
-2.398824 -2.214217 -0.343029 1267 0.740885 0.671632 0.000000
-2.399702 -2.215034 -0.342141 1279 0.740885 0.671632 0.000000
-2.399882 -2.215198 -0.341160 1287 0.740885 0.671632 0.000000
-2.399376 -2.214729 -0.340074 1287 0.740885 0.671632 0.000000
-2.398321 -2.213760 -0.338914 1275 0.740885 0.671632 0.000000
-2.398081 -2.213535 -0.337866 1259 0.740885 0.671632 0.000000
-2.398416 -2.213843 -0.336893 1265 0.740885 0.671632 0.000000
-2.398873 -2.214272 -0.335949 1287 0.740885 0.671632 0.000000
-2.399045 -2.214430 -0.334957 1285 0.740885 0.671632 0.000000
-2.398749 -2.214148 -0.333910 1273 0.740885 0.671632 0.000000
-2.398986 -2.214370 -0.332928 1275 0.740885 0.671632 0.000000
-2.399266 -2.214635 -0.331955 1289 0.740885 0.671632 0.000000
-2.398597 -2.214015 -0.330851 1285 0.740885 0.671632 0.000000
-2.398778 -2.214180 -0.329859 1273 0.740885 0.671632 0.000000
-2.399121 -2.214494 -0.328896 1265 0.740885 0.671632 0.000000
-2.399400 -2.214760 -0.327914 1273 0.740885 0.671632 0.000000
-2.399693 -2.215024 -0.326941 1297 0.740885 0.671632 0.000000
-2.399123 -2.214506 -0.325856 1285 0.740885 0.671632 0.000000
-2.399192 -2.214570 -0.324855 1279 0.740885 0.671632 0.000000
-2.399751 -2.215078 -0.323910 1299 0.740885 0.671632 0.000000
-2.399827 -2.215149 -0.322910 1287 0.740885 0.671632 0.000000
-2.399459 -2.214812 -0.321853 1271 0.740885 0.671632 0.000000
-2.398945 -2.214337 -0.320768 1273 0.740885 0.671632 0.000000
-2.398802 -2.214200 -0.319739 1275 0.740885 0.671632 0.000000
-2.398716 -2.214120 -0.318720 1269 0.740885 0.671632 0.000000
-2.398251 -2.213696 -0.317644 1259 0.740885 0.671632 0.000000
-2.398690 -2.214098 -0.316690 1277 0.740885 0.671632 0.000000
-2.399244 -2.214614 -0.315745 1283 0.740885 0.671632 0.000000
-2.399101 -2.214477 -0.314716 1285 0.740885 0.671632 0.000000
-2.398685 -2.214103 -0.313650 1285 0.740885 0.671632 0.000000
-2.397840 -2.213321 -0.312538 1269 0.740885 0.671632 0.000000
-2.398125 -2.213579 -0.311555 1271 0.740885 0.671632 0.000000
-2.398412 -2.213850 -0.310582 1271 0.740885 0.671632 0.000000
-2.398648 -2.214057 -0.309600 1265 0.740885 0.671632 0.000000
-2.399243 -2.214618 -0.308665 1283 0.740885 0.671632 0.000000
-2.398293 -2.213742 -0.307533 1277 0.740885 0.671632 0.000000
-2.397988 -2.213454 -0.306486 1269 0.740885 0.671632 0.000000
-2.398759 -2.214164 -0.305569 1275 0.740885 0.671632 0.000000
-2.399198 -2.214566 -0.304615 1269 0.740885 0.671632 0.000000
-2.399534 -2.214889 -0.303652 1277 0.740885 0.671632 0.000000
-2.399545 -2.214896 -0.302632 1279 0.740885 0.671632 0.000000
-2.399240 -2.214608 -0.301585 1275 0.740885 0.671632 0.000000
-2.399259 -2.214622 -0.300574 1279 0.740885 0.671632 0.000000
-2.398940 -2.214336 -0.299527 1279 0.740885 0.671632 0.000000
-2.398474 -2.213898 -0.298462 1273 0.740885 0.671632 0.000000
-2.398486 -2.213919 -0.297451 1265 0.740885 0.671632 0.000000
-2.400337 -2.214208 -0.399003 1303 0.740885 0.671632 0.000000
-2.400105 -2.213989 -0.397946 1301 0.740885 0.671632 0.000000
-2.400084 -2.213972 -0.396926 1285 0.740885 0.671632 0.000000
-2.399959 -2.213861 -0.395897 1283 0.740885 0.671632 0.000000
-2.400204 -2.214088 -0.394915 1291 0.740885 0.671632 0.000000
-2.400134 -2.214020 -0.393885 1293 0.740885 0.671632 0.000000
-2.400001 -2.213903 -0.392846 1277 0.740885 0.671632 0.000000
-2.400409 -2.214281 -0.391893 1283 0.740885 0.671632 0.000000
-2.400072 -2.213969 -0.390826 1281 0.740885 0.671632 0.000000
-2.399299 -2.213256 -0.389683 1283 0.740885 0.671632 0.000000
-2.399018 -2.212986 -0.388626 1275 0.740885 0.671632 0.000000
-2.399313 -2.213264 -0.387653 1281 0.740885 0.671632 0.000000
-2.399883 -2.213793 -0.386727 1295 0.740885 0.671632 0.000000
-2.400282 -2.214164 -0.385774 1299 0.740885 0.671632 0.000000
-2.400374 -2.214247 -0.384773 1287 0.740885 0.671632 0.000000
-2.400142 -2.214028 -0.383715 1287 0.740885 0.671632 0.000000
-2.400171 -2.214062 -0.382705 1301 0.740885 0.671632 0.000000
-2.399988 -2.213894 -0.381666 1295 0.740885 0.671632 0.000000
-2.399644 -2.213576 -0.380589 1283 0.740885 0.671632 0.000000
-2.399354 -2.213300 -0.379532 1271 0.740885 0.671632 0.000000
-2.399180 -2.213139 -0.378484 1263 0.740885 0.671632 0.000000
-2.399425 -2.213366 -0.377511 1275 0.740885 0.671632 0.000000
-2.399713 -2.213638 -0.376539 1289 0.740885 0.671632 0.000000
-2.400175 -2.214058 -0.375594 1295 0.740885 0.671632 0.000000
-2.400794 -2.214637 -0.374679 1295 0.740885 0.671632 0.000000
-2.400878 -2.214714 -0.373678 1305 0.740885 0.671632 0.000000
-2.400484 -2.214345 -0.372591 1301 0.740885 0.671632 0.000000
-2.399970 -2.213870 -0.371506 1285 0.740885 0.671632 0.000000
-2.399941 -2.213846 -0.370486 1277 0.740885 0.671632 0.000000
-2.400083 -2.213980 -0.369485 1281 0.740885 0.671632 0.000000
-2.400005 -2.213906 -0.368466 1279 0.740885 0.671632 0.000000
-2.399927 -2.213832 -0.367437 1277 0.740885 0.671632 0.000000
-2.399786 -2.213708 -0.366398 1273 0.740885 0.671632 0.000000
-2.400031 -2.213936 -0.365415 1271 0.740885 0.671632 0.000000
-2.400656 -2.214507 -0.364500 1277 0.740885 0.671632 0.000000
-2.400627 -2.214483 -0.363480 1279 0.740885 0.671632 0.000000
-2.399902 -2.213807 -0.362357 1281 0.740885 0.671632 0.000000
-2.400464 -2.214329 -0.361421 1291 0.740885 0.671632 0.000000
-2.400330 -2.214212 -0.360393 1287 0.740885 0.671632 0.000000
-2.399451 -2.213391 -0.359241 1281 0.740885 0.671632 0.000000
-2.399205 -2.213175 -0.358193 1279 0.740885 0.671632 0.000000
-2.399709 -2.213640 -0.357258 1281 0.740885 0.671632 0.000000
-2.400334 -2.214211 -0.356332 1283 0.740885 0.671632 0.000000
-2.400572 -2.214432 -0.355350 1277 0.740885 0.671632 0.000000
-2.400703 -2.214545 -0.354359 1281 0.740885 0.671632 0.000000
-2.400787 -2.214622 -0.353348 1279 0.740885 0.671632 0.000000
-2.399943 -2.213854 -0.352216 1279 0.740885 0.671632 0.000000
-2.399487 -2.213435 -0.351140 1279 0.740885 0.671632 0.000000
-2.399570 -2.213512 -0.350139 1277 0.740885 0.671632 0.000000
-2.400404 -2.214271 -0.349242 1287 0.740885 0.671632 0.000000
-2.400804 -2.214642 -0.348288 1295 0.740885 0.671632 0.000000
-2.400023 -2.213923 -0.347155 1285 0.740885 0.671632 0.000000
-2.399186 -2.213147 -0.346023 1271 0.740885 0.671632 0.000000
-2.398833 -2.212822 -0.344966 1265 0.740885 0.671632 0.000000
-2.398692 -2.212699 -0.343927 1271 0.740885 0.671632 0.000000
-2.399520 -2.213465 -0.343030 1279 0.740885 0.671632 0.000000
-2.400615 -2.214476 -0.342169 1281 0.740885 0.671632 0.000000
-2.400859 -2.214689 -0.341197 1291 0.740885 0.671632 0.000000
-2.400127 -2.214020 -0.340074 1285 0.740885 0.671632 0.000000
-2.399184 -2.213151 -0.338933 1275 0.740885 0.671632 0.000000
-2.399261 -2.213221 -0.337932 1275 0.740885 0.671632 0.000000
-2.399652 -2.213587 -0.336968 1283 0.740885 0.671632 0.000000
-2.399946 -2.213851 -0.335996 1285 0.740885 0.671632 0.000000
-2.400183 -2.214072 -0.335023 1289 0.740885 0.671632 0.000000
-2.400630 -2.214480 -0.334069 1291 0.740885 0.671632 0.000000
-2.400327 -2.214206 -0.333012 1287 0.740885 0.671632 0.000000
-2.399547 -2.213487 -0.331889 1305 0.740885 0.671632 0.000000
-2.399461 -2.213407 -0.330870 1293 0.740885 0.671632 0.000000
-2.400014 -2.213923 -0.329935 1295 0.740885 0.671632 0.000000
-2.400785 -2.214633 -0.329018 1293 0.740885 0.671632 0.000000
-2.400909 -2.214740 -0.328026 1299 0.740885 0.671632 0.000000
-2.400177 -2.214071 -0.326913 1305 0.740885 0.671632 0.000000
-2.399389 -2.213345 -0.325801 1293 0.740885 0.671632 0.000000
-2.399520 -2.213459 -0.324799 1281 0.740885 0.671632 0.000000
-2.400615 -2.214470 -0.323939 1283 0.740885 0.671632 0.000000
-2.401062 -2.214878 -0.322985 1297 0.740885 0.671632 0.000000
-2.400435 -2.214303 -0.321891 1285 0.740885 0.671632 0.000000
-2.399380 -2.213333 -0.320730 1273 0.740885 0.671632 0.000000
-2.399286 -2.213247 -0.319711 1281 0.740885 0.671632 0.000000
-2.400002 -2.213914 -0.318795 1279 0.740885 0.671632 0.000000
-2.400013 -2.213921 -0.317784 1277 0.740885 0.671632 0.000000
-2.400193 -2.214085 -0.316793 1287 0.740885 0.671632 0.000000
-2.400157 -2.214056 -0.315773 1293 0.740885 0.671632 0.000000
-2.400014 -2.213919 -0.314744 1283 0.740885 0.671632 0.000000
-2.400082 -2.213983 -0.313744 1291 0.740885 0.671632 0.000000
-2.399722 -2.213652 -0.312687 1279 0.740885 0.671632 0.000000
-2.399853 -2.213766 -0.311686 1273 0.740885 0.671632 0.000000
-2.400245 -2.214131 -0.310732 1281 0.740885 0.671632 0.000000
-2.400094 -2.213988 -0.309694 1281 0.740885 0.671632 0.000000
-2.399629 -2.213564 -0.308628 1275 0.740885 0.671632 0.000000
-2.399423 -2.213377 -0.307590 1269 0.740885 0.671632 0.000000
-2.399118 -2.213090 -0.306543 1271 0.740885 0.671632 0.000000
-2.398702 -2.212716 -0.305476 1273 0.740885 0.671632 0.000000
-2.398818 -2.212817 -0.304485 1263 0.740885 0.671632 0.000000
-2.399539 -2.213476 -0.303559 1275 0.740885 0.671632 0.000000
-2.399390 -2.213347 -0.302530 1275 0.740885 0.671632 0.000000
-2.398923 -2.212909 -0.301464 1273 0.740885 0.671632 0.000000
-2.399090 -2.213075 -0.300473 1273 0.740885 0.671632 0.000000
-2.399642 -2.213576 -0.299528 1269 0.740885 0.671632 0.000000
-2.399759 -2.213691 -0.298536 1267 0.740885 0.671632 0.000000
-2.398809 -2.212816 -0.297405 1253 0.740885 0.671632 0.000000
-2.400883 -2.213317 -0.399995 1285 0.740885 0.671632 0.000000
-2.400920 -2.213356 -0.398985 1299 0.740885 0.671632 0.000000
-2.400309 -2.212794 -0.397870 1291 0.740885 0.671632 0.000000
-2.400505 -2.212970 -0.396889 1281 0.740885 0.671632 0.000000
-2.400970 -2.213405 -0.395944 1285 0.740885 0.671632 0.000000
-2.400900 -2.213337 -0.394915 1287 0.740885 0.671632 0.000000
-2.400830 -2.213269 -0.393885 1285 0.740885 0.671632 0.000000
-2.401237 -2.213647 -0.392932 1283 0.740885 0.671632 0.000000
-2.401167 -2.213579 -0.391902 1281 0.740885 0.671632 0.000000
-2.400177 -2.212672 -0.390731 1285 0.740885 0.671632 0.000000
-2.400212 -2.212698 -0.389721 1285 0.740885 0.671632 0.000000
-2.400831 -2.213277 -0.388805 1285 0.740885 0.671632 0.000000
-2.400816 -2.213252 -0.387785 1283 0.740885 0.671632 0.000000
-2.401006 -2.213436 -0.386794 1289 0.740885 0.671632 0.000000
-2.400928 -2.213362 -0.385764 1289 0.740885 0.671632 0.000000
-2.400325 -2.212806 -0.384660 1289 0.740885 0.671632 0.000000
-2.399868 -2.212387 -0.383564 1281 0.740885 0.671632 0.000000
-2.400276 -2.212765 -0.382620 1287 0.740885 0.671632 0.000000
-2.400522 -2.212992 -0.381638 1289 0.740885 0.671632 0.000000
-2.400128 -2.212623 -0.380562 1279 0.740885 0.671632 0.000000
-2.399945 -2.212455 -0.379513 1275 0.740885 0.671632 0.000000
-2.400134 -2.212626 -0.378532 1283 0.740885 0.671632 0.000000
-2.400275 -2.212759 -0.377540 1273 0.740885 0.671632 0.000000
-2.400302 -2.212778 -0.376520 1279 0.740885 0.671632 0.000000
-2.400014 -2.212517 -0.375463 1283 0.740885 0.671632 0.000000
-2.400463 -2.212939 -0.374518 1289 0.740885 0.671632 0.000000
-2.401096 -2.213517 -0.373603 1301 0.740885 0.671632 0.000000
-2.401123 -2.213537 -0.372592 1295 0.740885 0.671632 0.000000
-2.400778 -2.213218 -0.371515 1277 0.740885 0.671632 0.000000
-2.400104 -2.212606 -0.370402 1265 0.740885 0.671632 0.000000
-2.399864 -2.212382 -0.369354 1265 0.740885 0.671632 0.000000
-2.400159 -2.212659 -0.368381 1289 0.740885 0.671632 0.000000
-2.400510 -2.212980 -0.367418 1285 0.740885 0.671632 0.000000
-2.400165 -2.212662 -0.366351 1273 0.740885 0.671632 0.000000
-2.400038 -2.212537 -0.365312 1265 0.740885 0.671632 0.000000
-2.400487 -2.212960 -0.364368 1271 0.740885 0.671632 0.000000
-2.400887 -2.213331 -0.363414 1277 0.740885 0.671632 0.000000
-2.400921 -2.213357 -0.362404 1279 0.740885 0.671632 0.000000
-2.400997 -2.213427 -0.361403 1279 0.740885 0.671632 0.000000
-2.400710 -2.213166 -0.360346 1275 0.740885 0.671632 0.000000
-2.399929 -2.212446 -0.359213 1281 0.740885 0.671632 0.000000
-2.399689 -2.212222 -0.358165 1275 0.740885 0.671632 0.000000
-2.400468 -2.212937 -0.357268 1283 0.740885 0.671632 0.000000
-2.401289 -2.213698 -0.356370 1287 0.740885 0.671632 0.000000
-2.401752 -2.214118 -0.355426 1289 0.740885 0.671632 0.000000
-2.401505 -2.213902 -0.354368 1277 0.740885 0.671632 0.000000
-2.401047 -2.213470 -0.353292 1269 0.740885 0.671632 0.000000
-2.401026 -2.213452 -0.352273 1277 0.740885 0.671632 0.000000
-2.400877 -2.213323 -0.351234 1275 0.740885 0.671632 0.000000
-2.400694 -2.213155 -0.350196 1267 0.740885 0.671632 0.000000
-2.401100 -2.213519 -0.349242 1273 0.740885 0.671632 0.000000
-2.401434 -2.213827 -0.348279 1281 0.740885 0.671632 0.000000
-2.400873 -2.213316 -0.347184 1273 0.740885 0.671632 0.000000
-2.400576 -2.213034 -0.346127 1269 0.740885 0.671632 0.000000
-2.400758 -2.213212 -0.345135 1275 0.740885 0.671632 0.000000
-2.400469 -2.212937 -0.344078 1273 0.740885 0.671632 0.000000
-2.400320 -2.212807 -0.343049 1269 0.740885 0.671632 0.000000
-2.400234 -2.212727 -0.342020 1271 0.740885 0.671632 0.000000
-2.400311 -2.212798 -0.341019 1273 0.740885 0.671632 0.000000
-2.400773 -2.213218 -0.340075 1283 0.740885 0.671632 0.000000
-2.400413 -2.212888 -0.339008 1273 0.740885 0.671632 0.000000
-2.400489 -2.212958 -0.338007 1285 0.740885 0.671632 0.000000
-2.400727 -2.213179 -0.337025 1285 0.740885 0.671632 0.000000
-2.400586 -2.213056 -0.335996 1285 0.740885 0.671632 0.000000
-2.400442 -2.212919 -0.334958 1277 0.740885 0.671632 0.000000
-2.400631 -2.213089 -0.333976 1269 0.740885 0.671632 0.000000
-2.400587 -2.213054 -0.332956 1289 0.740885 0.671632 0.000000
-2.400185 -2.212678 -0.331890 1287 0.740885 0.671632 0.000000
-2.400739 -2.213194 -0.330945 1281 0.740885 0.671632 0.000000
-2.400919 -2.213359 -0.329963 1277 0.740885 0.671632 0.000000
-2.401045 -2.213480 -0.328962 1281 0.740885 0.671632 0.000000
-2.401113 -2.213544 -0.327961 1295 0.740885 0.671632 0.000000
-2.400606 -2.213075 -0.326876 1295 0.740885 0.671632 0.000000
-2.400568 -2.213032 -0.325866 1289 0.740885 0.671632 0.000000
-2.400751 -2.213210 -0.324875 1283 0.740885 0.671632 0.000000
-2.401036 -2.213468 -0.323902 1283 0.740885 0.671632 0.000000
-2.401428 -2.213833 -0.322938 1287 0.740885 0.671632 0.000000
-2.401180 -2.213602 -0.321890 1281 0.740885 0.671632 0.000000
-2.401199 -2.213616 -0.320880 1275 0.740885 0.671632 0.000000
-2.401969 -2.214325 -0.319973 1285 0.740885 0.671632 0.000000
-2.401609 -2.213995 -0.318916 1287 0.740885 0.671632 0.000000
-2.400821 -2.213269 -0.317794 1279 0.740885 0.671632 0.000000
-2.400517 -2.212996 -0.316746 1279 0.740885 0.671632 0.000000
-2.400690 -2.213154 -0.315755 1289 0.740885 0.671632 0.000000
-2.400984 -2.213418 -0.314782 1287 0.740885 0.671632 0.000000
-2.400833 -2.213274 -0.313753 1287 0.740885 0.671632 0.000000
-2.400255 -2.212750 -0.312669 1279 0.740885 0.671632 0.000000
-2.399951 -2.212462 -0.311612 1265 0.740885 0.671632 0.000000
-2.400616 -2.213078 -0.310686 1267 0.740885 0.671632 0.000000
-2.401486 -2.213889 -0.309787 1287 0.740885 0.671632 0.000000
-2.401019 -2.213451 -0.308712 1267 0.740885 0.671632 0.000000
-2.400272 -2.212770 -0.307608 1271 0.740885 0.671632 0.000000
-2.399863 -2.212389 -0.306552 1275 0.740885 0.671632 0.000000
-2.399664 -2.212209 -0.305514 1273 0.740885 0.671632 0.000000
-2.400160 -2.212668 -0.304560 1263 0.740885 0.671632 0.000000
-2.400987 -2.213421 -0.303652 1271 0.740885 0.671632 0.000000
-2.400731 -2.213184 -0.302614 1281 0.740885 0.671632 0.000000
-2.399718 -2.212259 -0.301474 1275 0.740885 0.671632 0.000000
-2.399841 -2.212366 -0.300482 1267 0.740885 0.671632 0.000000
-2.400337 -2.212825 -0.299528 1269 0.740885 0.671632 0.000000
-2.400236 -2.212733 -0.298509 1267 0.740885 0.671632 0.000000
-2.400304 -2.212797 -0.297508 1265 0.740885 0.671632 0.000000
-2.402112 -2.213168 -0.400100 1287 0.740885 0.671632 0.000000
-2.401073 -2.212210 -0.398909 1285 0.740885 0.671632 0.000000
-2.400090 -2.211310 -0.397729 1279 0.740885 0.671632 0.000000
-2.400449 -2.211637 -0.396775 1277 0.740885 0.671632 0.000000
-2.401236 -2.212358 -0.395888 1281 0.740885 0.671632 0.000000
-2.401539 -2.212642 -0.394915 1275 0.740885 0.671632 0.000000
-2.401573 -2.212668 -0.393905 1275 0.740885 0.671632 0.000000
-2.401173 -2.212307 -0.392818 1273 0.740885 0.671632 0.000000
-2.400570 -2.211751 -0.391704 1273 0.740885 0.671632 0.000000
-2.400599 -2.211784 -0.390694 1287 0.740885 0.671632 0.000000
-2.400900 -2.212054 -0.389731 1297 0.740885 0.671632 0.000000
-2.400992 -2.212137 -0.388730 1293 0.740885 0.671632 0.000000
-2.401449 -2.212565 -0.387786 1289 0.740885 0.671632 0.000000
-2.401758 -2.212841 -0.386813 1287 0.740885 0.671632 0.000000
-2.401196 -2.212330 -0.385708 1289 0.740885 0.671632 0.000000
-2.400851 -2.212011 -0.384641 1289 0.740885 0.671632 0.000000
-2.401097 -2.212238 -0.383659 1291 0.740885 0.671632 0.000000
-2.401294 -2.212415 -0.382677 1279 0.740885 0.671632 0.000000
-2.401539 -2.212642 -0.381695 1281 0.740885 0.671632 0.000000
-2.401511 -2.212619 -0.380675 1283 0.740885 0.671632 0.000000
-2.401806 -2.212897 -0.379712 1293 0.740885 0.671632 0.000000
-2.401736 -2.212829 -0.378683 1285 0.740885 0.671632 0.000000
-2.401342 -2.212459 -0.377607 1283 0.740885 0.671632 0.000000
-2.401047 -2.212192 -0.376539 1287 0.740885 0.671632 0.000000
-2.400864 -2.212024 -0.375501 1279 0.740885 0.671632 0.000000
-2.400843 -2.212007 -0.374481 1281 0.740885 0.671632 0.000000
-2.401348 -2.212472 -0.373536 1281 0.740885 0.671632 0.000000
-2.401327 -2.212455 -0.372526 1269 0.740885 0.671632 0.000000
-2.401249 -2.212381 -0.371497 1265 0.740885 0.671632 0.000000
-2.401122 -2.212256 -0.370458 1263 0.740885 0.671632 0.000000
-2.401198 -2.212326 -0.369458 1267 0.740885 0.671632 0.000000
-2.401501 -2.212610 -0.368485 1285 0.740885 0.671632 0.000000
-2.400777 -2.211948 -0.367361 1281 0.740885 0.671632 0.000000
-2.399786 -2.211027 -0.366201 1271 0.740885 0.671632 0.000000
-2.399926 -2.211161 -0.365209 1269 0.740885 0.671632 0.000000
-2.401238 -2.212365 -0.364387 1283 0.740885 0.671632 0.000000
-2.401849 -2.212938 -0.363461 1291 0.740885 0.671632 0.000000
-2.401132 -2.212268 -0.362338 1277 0.740885 0.671632 0.000000
-2.400886 -2.212051 -0.361290 1279 0.740885 0.671632 0.000000
-2.401349 -2.212471 -0.360346 1279 0.740885 0.671632 0.000000
-2.401312 -2.212442 -0.359326 1275 0.740885 0.671632 0.000000
-2.400960 -2.212117 -0.358260 1267 0.740885 0.671632 0.000000
-2.401318 -2.212445 -0.357296 1269 0.740885 0.671632 0.000000
-2.401177 -2.212321 -0.356257 1281 0.740885 0.671632 0.000000
-2.401365 -2.212492 -0.355276 1291 0.740885 0.671632 0.000000
-2.401925 -2.213000 -0.354340 1289 0.740885 0.671632 0.000000
-2.401581 -2.212681 -0.353274 1265 0.740885 0.671632 0.000000
-2.401552 -2.212658 -0.352254 1273 0.740885 0.671632 0.000000
-2.401144 -2.212291 -0.351188 1273 0.740885 0.671632 0.000000
-2.400693 -2.211865 -0.350102 1259 0.740885 0.671632 0.000000
-2.400769 -2.211935 -0.349101 1259 0.740885 0.671632 0.000000
-2.400952 -2.212113 -0.348119 1273 0.740885 0.671632 0.000000
-2.400809 -2.211976 -0.347081 1265 0.740885 0.671632 0.000000
-2.400676 -2.211859 -0.346052 1259 0.740885 0.671632 0.000000
-2.401026 -2.212180 -0.345089 1271 0.740885 0.671632 0.000000
-2.401418 -2.212545 -0.344125 1277 0.740885 0.671632 0.000000
-2.401549 -2.212659 -0.343134 1285 0.740885 0.671632 0.000000
-2.400980 -2.212141 -0.342039 1277 0.740885 0.671632 0.000000
-2.401223 -2.212354 -0.341057 1279 0.740885 0.671632 0.000000
-2.401939 -2.213021 -0.340150 1287 0.740885 0.671632 0.000000
-2.401740 -2.212841 -0.339102 1277 0.740885 0.671632 0.000000
-2.401712 -2.212817 -0.338092 1287 0.740885 0.671632 0.000000
-2.401091 -2.212234 -0.336988 1277 0.740885 0.671632 0.000000
-2.400198 -2.211416 -0.335856 1263 0.740885 0.671632 0.000000
-2.400225 -2.211435 -0.334846 1259 0.740885 0.671632 0.000000
-2.400891 -2.212051 -0.333920 1269 0.740885 0.671632 0.000000
-2.400805 -2.211971 -0.332900 1287 0.740885 0.671632 0.000000
-2.400178 -2.211396 -0.331796 1289 0.740885 0.671632 0.000000
-2.399988 -2.211222 -0.330758 1275 0.740885 0.671632 0.000000
-2.399943 -2.211186 -0.329738 1277 0.740885 0.671632 0.000000
-2.400398 -2.211601 -0.328794 1279 0.740885 0.671632 0.000000
-2.401380 -2.212512 -0.327915 1285 0.740885 0.671632 0.000000
-2.401989 -2.213071 -0.326979 1289 0.740885 0.671632 0.000000
-2.401960 -2.213048 -0.325959 1293 0.740885 0.671632 0.000000
-2.401867 -2.212961 -0.324940 1289 0.740885 0.671632 0.000000
-2.402047 -2.213125 -0.323949 1283 0.740885 0.671632 0.000000
-2.401638 -2.212744 -0.322882 1279 0.740885 0.671632 0.000000
-2.401173 -2.212320 -0.321807 1283 0.740885 0.671632 0.000000
-2.401079 -2.212233 -0.320788 1281 0.740885 0.671632 0.000000
-2.401477 -2.212591 -0.319824 1285 0.740885 0.671632 0.000000
-2.401498 -2.212618 -0.318814 1279 0.740885 0.671632 0.000000
-2.400976 -2.212137 -0.317738 1277 0.740885 0.671632 0.000000
-2.400882 -2.212051 -0.316709 1273 0.740885 0.671632 0.000000
-2.401442 -2.212559 -0.315774 1271 0.740885 0.671632 0.000000
-2.401938 -2.213018 -0.314819 1291 0.740885 0.671632 0.000000
-2.401740 -2.212838 -0.313781 1293 0.740885 0.671632 0.000000
-2.401429 -2.212559 -0.312734 1289 0.740885 0.671632 0.000000
-2.401019 -2.212177 -0.311668 1287 0.740885 0.671632 0.000000
-2.401516 -2.212636 -0.310723 1291 0.740885 0.671632 0.000000
-2.401801 -2.212894 -0.309751 1293 0.740885 0.671632 0.000000
-2.401166 -2.212313 -0.308656 1283 0.740885 0.671632 0.000000
-2.400911 -2.212076 -0.307609 1275 0.740885 0.671632 0.000000
-2.400235 -2.211451 -0.306515 1273 0.740885 0.671632 0.000000
-2.399874 -2.211120 -0.305458 1263 0.740885 0.671632 0.000000
-2.400258 -2.211479 -0.304495 1253 0.740885 0.671632 0.000000
-2.401247 -2.212382 -0.303606 1279 0.740885 0.671632 0.000000
-2.402116 -2.213193 -0.302707 1293 0.740885 0.671632 0.000000
-2.401754 -2.212849 -0.301651 1285 0.740885 0.671632 0.000000
-2.400852 -2.212023 -0.300529 1277 0.740885 0.671632 0.000000
-2.401349 -2.212483 -0.299574 1281 0.740885 0.671632 0.000000
-2.401093 -2.212246 -0.298537 1275 0.740885 0.671632 0.000000
-2.400725 -2.211909 -0.297480 1269 0.740885 0.671632 0.000000
-2.401951 -2.211513 -0.399949 1293 0.740885 0.671632 0.000000
-2.401235 -2.210856 -0.398815 1287 0.740885 0.671632 0.000000
-2.400786 -2.210444 -0.397719 1287 0.740885 0.671632 0.000000
-2.400822 -2.210484 -0.396709 1271 0.740885 0.671632 0.000000
-2.401502 -2.211098 -0.395803 1279 0.740885 0.671632 0.000000
-2.401103 -2.210737 -0.394726 1277 0.740885 0.671632 0.000000
-2.401090 -2.210726 -0.393706 1277 0.740885 0.671632 0.000000
-2.401182 -2.210808 -0.392706 1271 0.740885 0.671632 0.000000
-2.400620 -2.210297 -0.391601 1261 0.740885 0.671632 0.000000
-2.400866 -2.210524 -0.390618 1271 0.740885 0.671632 0.000000
-2.401540 -2.211146 -0.389712 1275 0.740885 0.671632 0.000000
-2.402060 -2.211623 -0.388777 1289 0.740885 0.671632 0.000000
-2.402306 -2.211850 -0.387805 1295 0.740885 0.671632 0.000000
-2.401638 -2.211231 -0.386681 1281 0.740885 0.671632 0.000000
-2.401034 -2.210674 -0.385567 1275 0.740885 0.671632 0.000000
-2.401168 -2.210802 -0.384575 1283 0.740885 0.671632 0.000000
-2.401202 -2.210827 -0.383565 1283 0.740885 0.671632 0.000000
-2.401181 -2.210810 -0.382545 1265 0.740885 0.671632 0.000000
-2.401743 -2.211332 -0.381610 1271 0.740885 0.671632 0.000000
-2.401890 -2.211458 -0.380619 1269 0.740885 0.671632 0.000000
-2.402031 -2.211591 -0.379627 1273 0.740885 0.671632 0.000000
-2.401953 -2.211517 -0.378598 1287 0.740885 0.671632 0.000000
-2.401666 -2.211256 -0.377541 1291 0.740885 0.671632 0.000000
-2.401693 -2.211275 -0.376521 1287 0.740885 0.671632 0.000000
-2.401026 -2.210670 -0.375407 1275 0.740885 0.671632 0.000000
-2.400891 -2.210539 -0.374368 1275 0.740885 0.671632 0.000000
-2.401727 -2.211311 -0.373480 1285 0.740885 0.671632 0.000000
-2.402289 -2.211834 -0.372555 1289 0.740885 0.671632 0.000000
-2.401839 -2.211422 -0.371469 1275 0.740885 0.671632 0.000000
-2.401550 -2.211146 -0.370412 1267 0.740885 0.671632 0.000000
-2.401473 -2.211072 -0.369382 1271 0.740885 0.671632 0.000000
-2.401711 -2.211293 -0.368410 1279 0.740885 0.671632 0.000000
-2.401956 -2.211520 -0.367428 1289 0.740885 0.671632 0.000000
-2.402090 -2.211648 -0.366436 1279 0.740885 0.671632 0.000000
-2.402173 -2.211724 -0.365426 1287 0.740885 0.671632 0.000000
-2.401870 -2.211450 -0.364368 1289 0.740885 0.671632 0.000000
-2.401153 -2.210780 -0.363245 1287 0.740885 0.671632 0.000000
-2.400599 -2.210274 -0.362150 1285 0.740885 0.671632 0.000000
-2.401054 -2.210689 -0.361206 1287 0.740885 0.671632 0.000000
-2.401130 -2.210759 -0.360205 1275 0.740885 0.671632 0.000000
-2.401159 -2.210793 -0.359195 1265 0.740885 0.671632 0.000000
-2.401775 -2.211358 -0.358269 1263 0.740885 0.671632 0.000000
-2.402337 -2.211880 -0.357334 1279 0.740885 0.671632 0.000000
-2.402097 -2.211655 -0.356286 1275 0.740885 0.671632 0.000000
-2.401794 -2.211382 -0.355229 1281 0.740885 0.671632 0.000000
-2.401870 -2.211452 -0.354228 1277 0.740885 0.671632 0.000000
-2.401688 -2.211284 -0.353180 1273 0.740885 0.671632 0.000000
-2.401495 -2.211097 -0.352142 1265 0.740885 0.671632 0.000000
-2.401524 -2.211130 -0.351131 1281 0.740885 0.671632 0.000000
-2.401171 -2.210806 -0.350065 1271 0.740885 0.671632 0.000000
-2.401036 -2.210675 -0.349036 1267 0.740885 0.671632 0.000000
-2.400950 -2.210595 -0.348007 1261 0.740885 0.671632 0.000000
-2.400866 -2.210528 -0.346987 1257 0.740885 0.671632 0.000000
-2.400943 -2.210599 -0.345977 1267 0.740885 0.671632 0.000000
-2.401551 -2.211158 -0.345051 1267 0.740885 0.671632 0.000000
-2.402435 -2.211967 -0.344163 1285 0.740885 0.671632 0.000000
-2.402511 -2.212038 -0.343162 1285 0.740885 0.671632 0.000000
-2.402595 -2.212114 -0.342161 1283 0.740885 0.671632 0.000000
-2.402347 -2.211883 -0.341114 1277 0.740885 0.671632 0.000000
-2.401994 -2.211559 -0.340047 1275 0.740885 0.671632 0.000000
-2.401966 -2.211535 -0.339027 1273 0.740885 0.671632 0.000000
-2.401985 -2.211549 -0.338017 1273 0.740885 0.671632 0.000000
-2.401794 -2.211375 -0.336979 1275 0.740885 0.671632 0.000000
-2.401653 -2.211252 -0.335950 1273 0.740885 0.671632 0.000000
-2.401623 -2.211215 -0.334930 1267 0.740885 0.671632 0.000000
-2.401586 -2.211185 -0.333910 1271 0.740885 0.671632 0.000000
-2.401654 -2.211250 -0.332910 1289 0.740885 0.671632 0.000000
-2.401414 -2.211025 -0.331862 1287 0.740885 0.671632 0.000000
-2.401111 -2.210751 -0.330815 1283 0.740885 0.671632 0.000000
-2.400808 -2.210478 -0.329758 1283 0.740885 0.671632 0.000000
-2.401368 -2.210986 -0.328822 1271 0.740885 0.671632 0.000000
-2.402026 -2.211596 -0.327896 1273 0.740885 0.671632 0.000000
-2.401828 -2.211416 -0.326858 1261 0.740885 0.671632 0.000000
-2.401847 -2.211429 -0.325848 1269 0.740885 0.671632 0.000000
-2.402140 -2.211693 -0.324875 1277 0.740885 0.671632 0.000000
-2.402855 -2.212359 -0.323958 1293 0.740885 0.671632 0.000000
-2.402495 -2.212029 -0.322902 1285 0.740885 0.671632 0.000000
-2.401868 -2.211454 -0.321797 1277 0.740885 0.671632 0.000000
-2.402041 -2.211612 -0.320816 1289 0.740885 0.671632 0.000000
-2.402439 -2.211970 -0.319852 1289 0.740885 0.671632 0.000000
-2.402023 -2.211596 -0.318786 1277 0.740885 0.671632 0.000000
-2.401403 -2.211013 -0.317692 1269 0.740885 0.671632 0.000000
-2.400938 -2.210589 -0.316616 1277 0.740885 0.671632 0.000000
-2.401217 -2.210855 -0.315643 1279 0.740885 0.671632 0.000000
-2.402529 -2.212059 -0.314801 1285 0.740885 0.671632 0.000000
-2.402652 -2.212166 -0.313810 1291 0.740885 0.671632 0.000000
-2.402075 -2.211642 -0.312725 1287 0.740885 0.671632 0.000000
-2.401616 -2.211210 -0.311650 1285 0.740885 0.671632 0.000000
-2.401354 -2.210981 -0.310602 1281 0.740885 0.671632 0.000000
-2.402010 -2.211577 -0.309676 1283 0.740885 0.671632 0.000000
-2.402402 -2.211942 -0.308712 1279 0.740885 0.671632 0.000000
-2.402794 -2.212307 -0.307759 1285 0.740885 0.671632 0.000000
-2.402602 -2.212120 -0.306720 1283 0.740885 0.671632 0.000000
-2.401805 -2.211388 -0.305608 1271 0.740885 0.671632 0.000000
-2.401550 -2.211151 -0.304560 1257 0.740885 0.671632 0.000000
-2.402153 -2.211718 -0.303624 1273 0.740885 0.671632 0.000000
-2.402809 -2.212314 -0.302698 1295 0.740885 0.671632 0.000000
-2.402877 -2.212378 -0.301698 1299 0.740885 0.671632 0.000000
-2.402679 -2.212198 -0.300659 1293 0.740885 0.671632 0.000000
-2.402472 -2.212012 -0.299621 1277 0.740885 0.671632 0.000000
-2.402168 -2.211724 -0.298574 1269 0.740885 0.671632 0.000000
-2.401322 -2.210942 -0.297462 1267 0.740885 0.671632 0.000000
-2.402304 -2.210484 -0.399892 1277 0.740885 0.671632 0.000000
-2.402550 -2.210711 -0.398920 1295 0.740885 0.671632 0.000000
-2.401947 -2.210154 -0.397805 1299 0.740885 0.671632 0.000000
-2.401442 -2.209699 -0.396700 1275 0.740885 0.671632 0.000000
-2.401268 -2.209538 -0.395661 1267 0.740885 0.671632 0.000000
-2.401513 -2.209765 -0.394679 1271 0.740885 0.671632 0.000000
-2.402405 -2.210580 -0.393811 1287 0.740885 0.671632 0.000000
-2.402974 -2.211109 -0.392885 1293 0.740885 0.671632 0.000000
-2.402426 -2.210595 -0.391781 1277 0.740885 0.671632 0.000000
-2.402027 -2.210234 -0.390694 1269 0.740885 0.671632 0.000000
-2.402118 -2.210316 -0.389693 1273 0.740885 0.671632 0.000000
-2.402364 -2.210543 -0.388721 1279 0.740885 0.671632 0.000000
-2.401802 -2.210032 -0.387616 1277 0.740885 0.671632 0.000000
-2.401732 -2.209964 -0.386587 1279 0.740885 0.671632 0.000000
-2.402462 -2.210629 -0.385680 1283 0.740885 0.671632 0.000000
-2.402812 -2.210949 -0.384727 1287 0.740885 0.671632 0.000000
-2.402154 -2.210350 -0.383603 1267 0.740885 0.671632 0.000000
-2.401801 -2.210026 -0.382536 1253 0.740885 0.671632 0.000000
-2.402097 -2.210303 -0.381563 1259 0.740885 0.671632 0.000000
-2.401977 -2.210185 -0.380524 1263 0.740885 0.671632 0.000000
-2.402006 -2.210218 -0.379514 1269 0.740885 0.671632 0.000000
-2.402356 -2.210539 -0.378551 1281 0.740885 0.671632 0.000000
-2.402173 -2.210371 -0.377513 1283 0.740885 0.671632 0.000000
-2.401780 -2.210002 -0.376436 1273 0.740885 0.671632 0.000000
-2.402341 -2.210524 -0.375511 1281 0.740885 0.671632 0.000000
-2.402425 -2.210601 -0.374500 1289 0.740885 0.671632 0.000000
-2.402614 -2.210771 -0.373518 1297 0.740885 0.671632 0.000000
-2.402755 -2.210905 -0.372527 1289 0.740885 0.671632 0.000000
-2.402572 -2.210737 -0.371479 1271 0.740885 0.671632 0.000000
-2.402003 -2.210219 -0.370374 1261 0.740885 0.671632 0.000000
-2.401721 -2.209949 -0.369317 1261 0.740885 0.671632 0.000000
-2.402170 -2.210372 -0.368372 1263 0.740885 0.671632 0.000000
-2.402521 -2.210693 -0.367409 1267 0.740885 0.671632 0.000000
-2.402660 -2.210812 -0.366418 1269 0.740885 0.671632 0.000000
-2.403004 -2.211141 -0.365454 1279 0.740885 0.671632 0.000000
-2.402498 -2.210672 -0.364359 1271 0.740885 0.671632 0.000000
-2.401942 -2.210152 -0.363264 1271 0.740885 0.671632 0.000000
-2.402180 -2.210373 -0.362282 1273 0.740885 0.671632 0.000000
-2.402418 -2.210594 -0.361310 1275 0.740885 0.671632 0.000000
-2.402123 -2.210327 -0.360253 1273 0.740885 0.671632 0.000000
-2.402045 -2.210253 -0.359223 1265 0.740885 0.671632 0.000000
-2.402234 -2.210423 -0.358232 1257 0.740885 0.671632 0.000000
-2.402787 -2.210939 -0.357306 1267 0.740885 0.671632 0.000000
-2.403033 -2.211166 -0.356324 1267 0.740885 0.671632 0.000000
-2.403010 -2.211135 -0.355304 1263 0.740885 0.671632 0.000000
-2.403088 -2.211219 -0.354303 1263 0.740885 0.671632 0.000000
-2.402945 -2.211082 -0.353265 1273 0.740885 0.671632 0.000000
-2.402601 -2.210764 -0.352208 1275 0.740885 0.671632 0.000000
-2.402086 -2.210289 -0.351113 1287 0.740885 0.671632 0.000000
-2.401791 -2.210021 -0.350055 1285 0.740885 0.671632 0.000000
-2.402029 -2.210242 -0.349083 1271 0.740885 0.671632 0.000000
-2.402864 -2.211000 -0.348185 1275 0.740885 0.671632 0.000000
-2.403093 -2.211215 -0.347203 1287 0.740885 0.671632 0.000000
-2.402749 -2.210897 -0.346136 1287 0.740885 0.671632 0.000000
-2.402931 -2.211075 -0.345155 1283 0.740885 0.671632 0.000000
-2.403175 -2.211288 -0.344172 1275 0.740885 0.671632 0.000000
-2.403251 -2.211359 -0.343172 1279 0.740885 0.671632 0.000000
-2.403481 -2.211574 -0.342190 1281 0.740885 0.671632 0.000000
-2.403241 -2.211349 -0.341142 1269 0.740885 0.671632 0.000000
-2.402131 -2.210336 -0.339972 1263 0.740885 0.671632 0.000000
-2.401883 -2.210106 -0.338924 1261 0.740885 0.671632 0.000000
-2.401910 -2.210125 -0.337914 1259 0.740885 0.671632 0.000000
-2.402035 -2.210246 -0.336923 1265 0.740885 0.671632 0.000000
-2.402702 -2.210862 -0.335997 1275 0.740885 0.671632 0.000000
-2.403044 -2.211177 -0.335033 1275 0.740885 0.671632 0.000000
-2.402417 -2.210602 -0.333939 1265 0.740885 0.671632 0.000000
-2.402395 -2.210571 -0.332919 1269 0.740885 0.671632 0.000000
-2.402948 -2.211087 -0.331984 1277 0.740885 0.671632 0.000000
-2.402637 -2.210807 -0.330927 1281 0.740885 0.671632 0.000000
-2.402123 -2.210332 -0.329842 1277 0.740885 0.671632 0.000000
-2.402199 -2.210402 -0.328841 1277 0.740885 0.671632 0.000000
-2.402330 -2.210516 -0.327850 1265 0.740885 0.671632 0.000000
-2.402343 -2.210537 -0.326840 1257 0.740885 0.671632 0.000000
-2.402579 -2.210744 -0.325858 1261 0.740885 0.671632 0.000000
-2.403237 -2.211354 -0.324931 1277 0.740885 0.671632 0.000000
-2.403152 -2.211274 -0.323902 1285 0.740885 0.671632 0.000000
-2.401879 -2.210110 -0.322724 1277 0.740885 0.671632 0.000000
-2.401744 -2.209980 -0.321695 1271 0.740885 0.671632 0.000000
-2.402507 -2.210683 -0.320788 1289 0.740885 0.671632 0.000000
-2.402147 -2.210352 -0.319721 1293 0.740885 0.671632 0.000000
-2.402110 -2.210323 -0.318712 1267 0.740885 0.671632 0.000000
-2.401967 -2.210186 -0.317683 1259 0.740885 0.671632 0.000000
-2.401720 -2.209955 -0.316635 1287 0.740885 0.671632 0.000000
-2.402062 -2.210270 -0.315662 1279 0.740885 0.671632 0.000000
-2.402720 -2.210880 -0.314746 1271 0.740885 0.671632 0.000000
-2.402731 -2.210887 -0.313726 1279 0.740885 0.671632 0.000000
-2.401887 -2.210119 -0.312614 1267 0.740885 0.671632 0.000000
-2.401969 -2.210181 -0.311613 1277 0.740885 0.671632 0.000000
-2.402515 -2.210691 -0.310668 1281 0.740885 0.671632 0.000000
-2.403011 -2.211150 -0.309723 1289 0.740885 0.671632 0.000000
-2.403080 -2.211215 -0.308712 1275 0.740885 0.671632 0.000000
-2.403308 -2.211415 -0.307730 1281 0.740885 0.671632 0.000000
-2.404078 -2.212125 -0.306823 1289 0.740885 0.671632 0.000000
-2.403663 -2.211751 -0.305757 1273 0.740885 0.671632 0.000000
-2.402930 -2.211069 -0.304654 1265 0.740885 0.671632 0.000000
-2.402773 -2.210933 -0.303625 1281 0.740885 0.671632 0.000000
-2.403437 -2.211535 -0.302689 1297 0.740885 0.671632 0.000000
-2.404038 -2.212088 -0.301753 1299 0.740885 0.671632 0.000000
-2.403461 -2.211564 -0.300669 1289 0.740885 0.671632 0.000000
-2.403100 -2.211233 -0.299612 1277 0.740885 0.671632 0.000000
-2.402626 -2.210789 -0.298546 1271 0.740885 0.671632 0.000000
-2.402427 -2.210609 -0.297508 1265 0.740885 0.671632 0.000000
-2.403322 -2.210019 -0.399949 1269 0.740885 0.671632 0.000000
-2.403477 -2.210151 -0.398958 1277 0.740885 0.671632 0.000000
-2.402698 -2.209446 -0.397815 1269 0.740885 0.671632 0.000000
-2.401771 -2.208588 -0.396644 1257 0.740885 0.671632 0.000000
-2.401427 -2.208269 -0.395567 1255 0.740885 0.671632 0.000000
-2.402432 -2.209199 -0.394717 1279 0.740885 0.671632 0.000000
-2.403436 -2.210114 -0.393858 1283 0.740885 0.671632 0.000000
-2.403360 -2.210054 -0.392829 1275 0.740885 0.671632 0.000000
-2.403387 -2.210074 -0.391818 1273 0.740885 0.671632 0.000000
-2.402890 -2.209625 -0.390723 1271 0.740885 0.671632 0.000000
-2.402173 -2.208955 -0.389590 1257 0.740885 0.671632 0.000000
-2.402152 -2.208937 -0.388570 1257 0.740885 0.671632 0.000000
-2.402180 -2.208971 -0.387559 1271 0.740885 0.671632 0.000000
-2.403023 -2.209736 -0.386682 1275 0.740885 0.671632 0.000000
-2.403858 -2.210508 -0.385794 1285 0.740885 0.671632 0.000000
-2.403297 -2.209996 -0.384689 1267 0.740885 0.671632 0.000000
-2.402475 -2.209232 -0.383547 1245 0.740885 0.671632 0.000000
-2.402665 -2.209417 -0.382555 1249 0.740885 0.671632 0.000000
-2.402636 -2.209393 -0.381535 1265 0.740885 0.671632 0.000000
-2.402089 -2.208880 -0.380440 1275 0.740885 0.671632 0.000000
-2.402439 -2.209201 -0.379477 1281 0.740885 0.671632 0.000000
-2.403162 -2.209873 -0.378570 1277 0.740885 0.671632 0.000000
-2.403310 -2.209999 -0.377579 1281 0.740885 0.671632 0.000000
-2.403064 -2.209782 -0.376521 1281 0.740885 0.671632 0.000000
-2.403535 -2.210209 -0.375577 1289 0.740885 0.671632 0.000000
-2.403877 -2.210524 -0.374623 1299 0.740885 0.671632 0.000000
-2.404285 -2.210901 -0.373670 1301 0.740885 0.671632 0.000000
-2.404426 -2.211035 -0.372668 1285 0.740885 0.671632 0.000000
-2.403758 -2.210415 -0.371554 1279 0.740885 0.671632 0.000000
-2.402549 -2.209301 -0.370356 1261 0.740885 0.671632 0.000000
-2.401987 -2.208789 -0.369251 1259 0.740885 0.671632 0.000000
-2.402232 -2.209016 -0.368279 1265 0.740885 0.671632 0.000000
-2.402583 -2.209337 -0.367315 1269 0.740885 0.671632 0.000000
-2.403411 -2.210104 -0.366428 1279 0.740885 0.671632 0.000000
-2.403600 -2.210274 -0.365436 1277 0.740885 0.671632 0.000000
-2.403038 -2.209762 -0.364341 1269 0.740885 0.671632 0.000000
-2.402911 -2.209637 -0.363302 1275 0.740885 0.671632 0.000000
-2.402558 -2.209313 -0.362235 1271 0.740885 0.671632 0.000000
-2.402804 -2.209540 -0.361263 1267 0.740885 0.671632 0.000000
-2.403316 -2.210011 -0.360318 1279 0.740885 0.671632 0.000000
-2.403442 -2.210132 -0.359327 1275 0.740885 0.671632 0.000000
-2.403581 -2.210252 -0.358326 1271 0.740885 0.671632 0.000000
-2.402794 -2.209540 -0.357203 1265 0.740885 0.671632 0.000000
-2.402716 -2.209466 -0.356174 1267 0.740885 0.671632 0.000000
-2.403333 -2.210031 -0.355248 1283 0.740885 0.671632 0.000000
-2.403409 -2.210102 -0.354247 1271 0.740885 0.671632 0.000000
-2.403226 -2.209934 -0.353209 1273 0.740885 0.671632 0.000000
-2.403190 -2.209904 -0.352189 1277 0.740885 0.671632 0.000000
-2.403266 -2.209975 -0.351189 1293 0.740885 0.671632 0.000000
-2.403139 -2.209850 -0.350150 1287 0.740885 0.671632 0.000000
-2.403005 -2.209733 -0.349121 1273 0.740885 0.671632 0.000000
-2.403831 -2.210485 -0.348223 1285 0.740885 0.671632 0.000000
-2.404336 -2.210951 -0.347279 1289 0.740885 0.671632 0.000000
-2.404145 -2.210777 -0.346240 1289 0.740885 0.671632 0.000000
-2.403842 -2.210503 -0.345183 1279 0.740885 0.671632 0.000000
-2.403224 -2.209934 -0.344079 1261 0.740885 0.671632 0.000000
-2.403404 -2.210098 -0.343097 1269 0.740885 0.671632 0.000000
-2.403916 -2.210570 -0.342152 1289 0.740885 0.671632 0.000000
-2.404105 -2.210740 -0.341161 1285 0.740885 0.671632 0.000000
-2.403583 -2.210259 -0.340075 1269 0.740885 0.671632 0.000000
-2.402697 -2.209446 -0.338944 1259 0.740885 0.671632 0.000000
-2.402337 -2.209115 -0.337877 1261 0.740885 0.671632 0.000000
-2.402364 -2.209135 -0.336867 1271 0.740885 0.671632 0.000000
-2.403030 -2.209751 -0.335950 1279 0.740885 0.671632 0.000000
-2.403639 -2.210310 -0.335025 1279 0.740885 0.671632 0.000000
-2.404039 -2.210681 -0.334061 1283 0.740885 0.671632 0.000000
-2.404381 -2.210996 -0.333098 1283 0.740885 0.671632 0.000000
-2.404512 -2.211109 -0.332097 1285 0.740885 0.671632 0.000000
-2.404468 -2.211074 -0.331077 1283 0.740885 0.671632 0.000000
-2.403413 -2.210104 -0.329927 1267 0.740885 0.671632 0.000000
-2.403069 -2.209786 -0.328860 1273 0.740885 0.671632 0.000000
-2.403516 -2.210194 -0.327916 1269 0.740885 0.671632 0.000000
-2.403690 -2.210366 -0.326924 1275 0.740885 0.671632 0.000000
-2.403548 -2.210229 -0.325895 1273 0.740885 0.671632 0.000000
-2.403082 -2.209805 -0.324820 1273 0.740885 0.671632 0.000000
-2.402357 -2.209128 -0.323706 1271 0.740885 0.671632 0.000000
-2.402532 -2.209300 -0.322725 1279 0.740885 0.671632 0.000000
-2.402600 -2.209364 -0.321714 1273 0.740885 0.671632 0.000000
-2.402780 -2.209529 -0.320732 1279 0.740885 0.671632 0.000000
-2.403074 -2.209793 -0.319760 1287 0.740885 0.671632 0.000000
-2.402923 -2.209649 -0.318721 1275 0.740885 0.671632 0.000000
-2.402620 -2.209376 -0.317674 1269 0.740885 0.671632 0.000000
-2.402260 -2.209045 -0.316617 1267 0.740885 0.671632 0.000000
-2.403247 -2.209948 -0.315728 1279 0.740885 0.671632 0.000000
-2.404067 -2.210708 -0.314820 1287 0.740885 0.671632 0.000000
-2.403109 -2.209826 -0.313689 1273 0.740885 0.671632 0.000000
-2.402378 -2.209158 -0.312586 1267 0.740885 0.671632 0.000000
-2.403253 -2.209961 -0.311688 1277 0.740885 0.671632 0.000000
-2.404340 -2.210966 -0.310808 1293 0.740885 0.671632 0.000000
-2.404035 -2.210678 -0.309760 1283 0.740885 0.671632 0.000000
-2.403941 -2.210592 -0.308741 1281 0.740885 0.671632 0.000000
-2.403847 -2.210505 -0.307712 1279 0.740885 0.671632 0.000000
-2.403495 -2.210181 -0.306655 1283 0.740885 0.671632 0.000000
-2.403078 -2.209793 -0.305589 1277 0.740885 0.671632 0.000000
-2.403146 -2.209858 -0.304589 1277 0.740885 0.671632 0.000000
-2.403376 -2.210073 -0.303606 1297 0.740885 0.671632 0.000000
