266
-25.142986 -23.461332 -0.656613 847 0.722600 0.691266 0.000000
-25.142647 -23.461021 -0.646046 869 0.722600 0.691266 0.000000
-25.143389 -23.461706 -0.635499 877 0.722600 0.691266 0.000000
-25.144163 -23.462431 -0.624952 857 0.722600 0.691266 0.000000
-25.142065 -23.460476 -0.614341 871 0.722600 0.691266 0.000000
-25.141722 -23.460150 -0.603764 857 0.722600 0.691266 0.000000
-25.141485 -23.459934 -0.593196 873 0.722600 0.691266 0.000000
-25.141293 -23.459753 -0.582627 853 0.722600 0.691266 0.000000
-25.142807 -23.461174 -0.572103 871 0.722600 0.691266 0.000000
-25.144009 -23.462292 -0.561562 891 0.722600 0.691266 0.000000
-25.142788 -23.461159 -0.550973 897 0.722600 0.691266 0.000000
-25.141743 -23.460176 -0.540382 913 0.722600 0.691266 0.000000
-25.142977 -23.461336 -0.529850 891 0.722600 0.691266 0.000000
-25.143263 -23.461603 -0.519287 891 0.722600 0.691266 0.000000
-25.142950 -23.461300 -0.508720 897 0.722600 0.691266 0.000000
-25.142477 -23.460869 -0.498154 877 0.722600 0.691266 0.000000
-25.142214 -23.460617 -0.487587 877 0.722600 0.691266 0.000000
-25.142481 -23.460873 -0.477024 859 0.722600 0.691266 0.000000
-25.141031 -23.459515 -0.466437 865 0.722600 0.691266 0.000000
-25.140490 -23.459017 -0.455862 885 0.722600 0.691266 0.000000
-25.140436 -23.458960 -0.445302 853 0.722600 0.691266 0.000000
-25.141068 -23.459557 -0.434756 861 0.722600 0.691266 0.000000
-25.141960 -23.460388 -0.424207 877 0.722600 0.691266 0.000000
-25.142818 -23.461195 -0.413659 883 0.722600 0.691266 0.000000
-25.141565 -23.460020 -0.403071 873 0.722600 0.691266 0.000000
-25.139566 -23.458158 -0.392479 843 0.722600 0.691266 0.000000
-25.139496 -23.458088 -0.381919 845 0.722600 0.691266 0.000000
-25.139431 -23.458023 -0.371360 843 0.722600 0.691266 0.000000
-25.140793 -23.459297 -0.360817 843 0.722600 0.691266 0.000000
-25.142248 -23.460657 -0.350273 843 0.722600 0.691266 0.000000
-25.141844 -23.460281 -0.339707 839 0.722600 0.691266 0.000000
-25.140528 -23.459059 -0.329128 833 0.722600 0.691266 0.000000
-25.141787 -23.460234 -0.318586 871 0.722600 0.691266 0.000000
-25.142651 -23.461044 -0.308038 833 0.722600 0.691266 0.000000
-25.140747 -23.459259 -0.297456 845 0.722600 0.691266 0.000000
-25.139153 -23.457775 -0.286870 839 0.722600 0.691266 0.000000
-25.140341 -23.458879 -0.276329 843 0.722600 0.691266 0.000000
-25.142813 -23.461185 -0.265796 847 0.722600 0.691266 0.000000
-25.150558 -23.453869 -0.656625 875 0.722600 0.691266 0.000000
-25.149035 -23.452454 -0.646029 885 0.722600 0.691266 0.000000
-25.149029 -23.452446 -0.635459 887 0.722600 0.691266 0.000000
-25.151096 -23.454376 -0.624949 887 0.722600 0.691266 0.000000
-25.151609 -23.454853 -0.614394 887 0.722600 0.691266 0.000000
-25.149769 -23.453133 -0.603791 877 0.722600 0.691266 0.000000
-25.150219 -23.453558 -0.593237 887 0.722600 0.691266 0.000000
-25.149506 -23.452894 -0.582653 863 0.722600 0.691266 0.000000
-25.149467 -23.452862 -0.572093 865 0.722600 0.691266 0.000000
-25.148626 -23.452070 -0.561511 873 0.722600 0.691266 0.000000
-25.148499 -23.451958 -0.550942 857 0.722600 0.691266 0.000000
-25.150587 -23.453903 -0.540422 885 0.722600 0.691266 0.000000
-25.150389 -23.453718 -0.529854 891 0.722600 0.691266 0.000000
-25.149597 -23.452978 -0.519281 895 0.722600 0.691266 0.000000
-25.148489 -23.451946 -0.508691 877 0.722600 0.691266 0.000000
-25.148169 -23.451653 -0.498124 853 0.722600 0.691266 0.000000
-25.148279 -23.451754 -0.487562 873 0.722600 0.691266 0.000000
-25.147900 -23.451412 -0.476996 857 0.722600 0.691266 0.000000
-25.147629 -23.451153 -0.466428 859 0.722600 0.691266 0.000000
-25.147848 -23.451357 -0.455876 869 0.722600 0.691266 0.000000
-25.148647 -23.452101 -0.445328 859 0.722600 0.691266 0.000000
-25.149170 -23.452597 -0.434773 859 0.722600 0.691266 0.000000
-25.148409 -23.451883 -0.424200 871 0.722600 0.691266 0.000000
-25.148401 -23.451876 -0.413639 857 0.722600 0.691266 0.000000
-25.148170 -23.451666 -0.403071 867 0.722600 0.691266 0.000000
-25.148041 -23.451548 -0.392502 853 0.722600 0.691266 0.000000
-25.148186 -23.451677 -0.381951 845 0.722600 0.691266 0.000000
-25.147890 -23.451401 -0.371383 857 0.722600 0.691266 0.000000
-25.147659 -23.451191 -0.360815 857 0.722600 0.691266 0.000000
-25.148157 -23.451654 -0.350260 845 0.722600 0.691266 0.000000
-25.150263 -23.453629 -0.339730 849 0.722600 0.691266 0.000000
-25.149162 -23.452600 -0.329160 839 0.722600 0.691266 0.000000
-25.147358 -23.450920 -0.318567 841 0.722600 0.691266 0.000000
-25.148075 -23.451588 -0.308020 831 0.722600 0.691266 0.000000
-25.148836 -23.452299 -0.297473 853 0.722600 0.691266 0.000000
-25.149818 -23.453217 -0.286923 851 0.722600 0.691266 0.000000
-25.148968 -23.452419 -0.276351 835 0.722600 0.691266 0.000000
-25.147970 -23.451490 -0.265780 847 0.722600 0.691266 0.000000
-25.157915 -23.446413 -0.656638 883 0.722600 0.691266 0.000000
-25.157084 -23.445642 -0.646055 867 0.722600 0.691266 0.000000
-25.156013 -23.444641 -0.635465 879 0.722600 0.691266 0.000000
-25.156471 -23.445074 -0.624911 863 0.722600 0.691266 0.000000
-25.156559 -23.445156 -0.614350 847 0.722600 0.691266 0.000000
-25.155304 -23.443981 -0.603751 847 0.722600 0.691266 0.000000
-25.155537 -23.444206 -0.593199 829 0.722600 0.691266 0.000000
-25.155882 -23.444521 -0.582645 861 0.722600 0.691266 0.000000
-25.156128 -23.444744 -0.572083 885 0.722600 0.691266 0.000000
-25.155825 -23.444464 -0.561515 877 0.722600 0.691266 0.000000
-25.154406 -23.443144 -0.550918 851 0.722600 0.691266 0.000000
-25.155800 -23.444443 -0.540385 849 0.722600 0.691266 0.000000
-25.157698 -23.446213 -0.529867 863 0.722600 0.691266 0.000000
-25.157873 -23.446375 -0.519305 883 0.722600 0.691266 0.000000
-25.156487 -23.445084 -0.508718 887 0.722600 0.691266 0.000000
-25.155743 -23.444395 -0.498134 861 0.722600 0.691266 0.000000
-25.155859 -23.444502 -0.487573 853 0.722600 0.691266 0.000000
-25.156656 -23.445246 -0.477035 857 0.722600 0.691266 0.000000
-25.157291 -23.445845 -0.466479 859 0.722600 0.691266 0.000000
-25.157598 -23.446131 -0.455926 857 0.722600 0.691266 0.000000
-25.158356 -23.446827 -0.445379 873 0.722600 0.691266 0.000000
-25.156693 -23.445288 -0.434784 859 0.722600 0.691266 0.000000
-25.155710 -23.444368 -0.424203 871 0.722600 0.691266 0.000000
-25.155645 -23.444304 -0.413643 837 0.722600 0.691266 0.000000
-25.156595 -23.445194 -0.403094 833 0.722600 0.691266 0.000000
-25.157442 -23.445976 -0.392546 861 0.722600 0.691266 0.000000
-25.156832 -23.445410 -0.381972 853 0.722600 0.691266 0.000000
-25.156649 -23.445236 -0.371413 843 0.722600 0.691266 0.000000
-25.155712 -23.444370 -0.360831 849 0.722600 0.691266 0.000000
-25.154993 -23.443703 -0.350268 839 0.722600 0.691266 0.000000
-25.155552 -23.444216 -0.339713 835 0.722600 0.691266 0.000000
-25.155464 -23.444132 -0.329153 813 0.722600 0.691266 0.000000
-25.155750 -23.444410 -0.318590 841 0.722600 0.691266 0.000000
-25.157639 -23.446159 -0.308052 797 0.722600 0.691266 0.000000
-25.157766 -23.446287 -0.297491 845 0.722600 0.691266 0.000000
-25.156006 -23.444645 -0.286917 853 0.722600 0.691266 0.000000
-25.154785 -23.443508 -0.276338 857 0.722600 0.691266 0.000000
-25.152338 -23.441221 -0.265751 855 0.722600 0.691266 0.000000
-25.163246 -23.437586 -0.656607 845 0.722600 0.691266 0.000000
-25.163706 -23.438021 -0.646052 819 0.722600 0.691266 0.000000
-25.163958 -23.438246 -0.635490 831 0.722600 0.691266 0.000000
-25.163134 -23.437483 -0.624907 853 0.722600 0.691266 0.000000
-25.162460 -23.436865 -0.614333 841 0.722600 0.691266 0.000000
-25.164469 -23.438736 -0.603814 869 0.722600 0.691266 0.000000
-25.165049 -23.439276 -0.593269 867 0.722600 0.691266 0.000000
-25.162497 -23.436893 -0.582642 849 0.722600 0.691266 0.000000
-25.163113 -23.437464 -0.572096 821 0.722600 0.691266 0.000000
-25.165209 -23.439417 -0.561577 839 0.722600 0.691266 0.000000
-25.166035 -23.440195 -0.551029 847 0.722600 0.691266 0.000000
-25.165842 -23.440016 -0.540460 835 0.722600 0.691266 0.000000
-25.163933 -23.438240 -0.529858 871 0.722600 0.691266 0.000000
-25.163782 -23.438089 -0.519289 863 0.722600 0.691266 0.000000
-25.164589 -23.438843 -0.508741 871 0.722600 0.691266 0.000000
-25.163889 -23.438190 -0.498167 891 0.722600 0.691266 0.000000
-25.163795 -23.438101 -0.487608 873 0.722600 0.691266 0.000000
-25.163206 -23.437551 -0.477033 857 0.722600 0.691266 0.000000
-25.162292 -23.436703 -0.466451 881 0.722600 0.691266 0.000000
-25.161541 -23.436010 -0.455878 865 0.722600 0.691266 0.000000
-25.163633 -23.437958 -0.445348 885 0.722600 0.691266 0.000000
-25.164740 -23.438988 -0.434808 863 0.722600 0.691266 0.000000
-25.163502 -23.437826 -0.424219 855 0.722600 0.691266 0.000000
-25.163271 -23.437614 -0.413661 831 0.722600 0.691266 0.000000
-25.161386 -23.435858 -0.403068 815 0.722600 0.691266 0.000000
-25.160942 -23.435450 -0.392502 801 0.722600 0.691266 0.000000
-25.161234 -23.435722 -0.381939 817 0.722600 0.691266 0.000000
-25.162401 -23.436813 -0.371398 843 0.722600 0.691266 0.000000
-25.163759 -23.438072 -0.360855 833 0.722600 0.691266 0.000000
-25.164003 -23.438305 -0.350303 859 0.722600 0.691266 0.000000
-25.165058 -23.439280 -0.339753 833 0.722600 0.691266 0.000000
-25.163994 -23.438297 -0.329172 843 0.722600 0.691266 0.000000
-25.161982 -23.436422 -0.318591 835 0.722600 0.691266 0.000000
-25.164358 -23.438627 -0.308059 823 0.722600 0.691266 0.000000
-25.164379 -23.438644 -0.297498 829 0.722600 0.691266 0.000000
-25.163086 -23.437452 -0.286920 829 0.722600 0.691266 0.000000
-25.162619 -23.437012 -0.276354 849 0.722600 0.691266 0.000000
-25.161400 -23.435879 -0.265785 861 0.722600 0.691266 0.000000
-25.171255 -23.430693 -0.656634 823 0.722600 0.691266 0.000000
-25.171558 -23.430973 -0.646071 841 0.722600 0.691266 0.000000
-25.171169 -23.430622 -0.635504 843 0.722600 0.691266 0.000000
-25.169542 -23.429100 -0.624899 831 0.722600 0.691266 0.000000
-25.171814 -23.431217 -0.614388 863 0.722600 0.691266 0.000000
-25.173294 -23.432600 -0.603864 869 0.722600 0.691266 0.000000
-25.171282 -23.430727 -0.593252 843 0.722600 0.691266 0.000000
-25.170410 -23.429911 -0.582660 843 0.722600 0.691266 0.000000
-25.169998 -23.429527 -0.572094 867 0.722600 0.691266 0.000000
-25.170242 -23.429749 -0.561531 883 0.722600 0.691266 0.000000
-25.170742 -23.430214 -0.550976 867 0.722600 0.691266 0.000000
-25.172037 -23.431421 -0.540444 857 0.722600 0.691266 0.000000
-25.173336 -23.432631 -0.529912 851 0.722600 0.691266 0.000000
-25.172966 -23.432293 -0.519335 845 0.722600 0.691266 0.000000
-25.171854 -23.431261 -0.508755 869 0.722600 0.691266 0.000000
-25.170515 -23.430006 -0.498157 857 0.722600 0.691266 0.000000
-25.171280 -23.430721 -0.487610 847 0.722600 0.691266 0.000000
-25.170212 -23.429724 -0.477029 829 0.722600 0.691266 0.000000
-25.169941 -23.429482 -0.466462 831 0.722600 0.691266 0.000000
-25.171059 -23.430519 -0.455921 829 0.722600 0.691266 0.000000
-25.169449 -23.429020 -0.445336 841 0.722600 0.691266 0.000000
-25.170731 -23.430218 -0.434794 843 0.722600 0.691266 0.000000
-25.170927 -23.430399 -0.424232 855 0.722600 0.691266 0.000000
-25.169525 -23.429094 -0.413644 831 0.722600 0.691266 0.000000
-25.168486 -23.428120 -0.403074 821 0.722600 0.691266 0.000000
-25.169443 -23.429016 -0.392525 823 0.722600 0.691266 0.000000
-25.170013 -23.429537 -0.381969 833 0.722600 0.691266 0.000000
-25.169285 -23.428862 -0.371396 831 0.722600 0.691266 0.000000
-25.170660 -23.430147 -0.360863 849 0.722600 0.691266 0.000000
-25.170246 -23.429762 -0.350286 841 0.722600 0.691266 0.000000
-25.168987 -23.428585 -0.339718 821 0.722600 0.691266 0.000000
-25.168415 -23.428061 -0.329143 809 0.722600 0.691266 0.000000
-25.168447 -23.428085 -0.318582 845 0.722600 0.691266 0.000000
-25.168352 -23.427998 -0.308023 845 0.722600 0.691266 0.000000
-25.167830 -23.427511 -0.297457 803 0.722600 0.691266 0.000000
-25.168381 -23.428020 -0.286902 813 0.722600 0.691266 0.000000
-25.169725 -23.429277 -0.276359 837 0.722600 0.691266 0.000000
-25.169519 -23.429087 -0.265791 831 0.722600 0.691266 0.000000
-25.180397 -23.424297 -0.656683 863 0.722600 0.691266 0.000000
-25.179745 -23.423683 -0.646099 853 0.722600 0.691266 0.000000
-25.179192 -23.423174 -0.635524 835 0.722600 0.691266 0.000000
-25.177137 -23.421257 -0.624903 835 0.722600 0.691266 0.000000
-25.177763 -23.421848 -0.614357 865 0.722600 0.691266 0.000000
-25.178164 -23.422222 -0.603803 843 0.722600 0.691266 0.000000
-25.178568 -23.422598 -0.593249 831 0.722600 0.691266 0.000000
-25.180094 -23.424015 -0.582724 833 0.722600 0.691266 0.000000
-25.179905 -23.423838 -0.572156 817 0.722600 0.691266 0.000000
-25.178629 -23.422644 -0.561557 821 0.722600 0.691266 0.000000
-25.179180 -23.423164 -0.551012 859 0.722600 0.691266 0.000000
-25.179100 -23.423088 -0.540443 845 0.722600 0.691266 0.000000
-25.178410 -23.422445 -0.529869 845 0.722600 0.691266 0.000000
-25.178221 -23.422264 -0.519300 845 0.722600 0.691266 0.000000
-25.178591 -23.422615 -0.508747 837 0.722600 0.691266 0.000000
-25.178234 -23.422276 -0.498170 825 0.722600 0.691266 0.000000
-25.177752 -23.421835 -0.487604 837 0.722600 0.691266 0.000000
-25.180115 -23.424030 -0.477082 857 0.722600 0.691266 0.000000
-25.178936 -23.422928 -0.466502 835 0.722600 0.691266 0.000000
-25.177801 -23.421877 -0.455913 841 0.722600 0.691266 0.000000
-25.176939 -23.421082 -0.445340 863 0.722600 0.691266 0.000000
-25.176771 -23.420921 -0.434772 855 0.722600 0.691266 0.000000
-25.177341 -23.421455 -0.424226 841 0.722600 0.691266 0.000000
-25.177334 -23.421448 -0.413656 833 0.722600 0.691266 0.000000
-25.178223 -23.422266 -0.403108 821 0.722600 0.691266 0.000000
-25.179873 -23.423805 -0.392572 837 0.722600 0.691266 0.000000
-25.179365 -23.423336 -0.382006 827 0.722600 0.691266 0.000000
-25.179087 -23.423073 -0.371439 811 0.722600 0.691266 0.000000
-25.178625 -23.422640 -0.360873 833 0.722600 0.691266 0.000000
-25.177422 -23.421532 -0.350294 821 0.722600 0.691266 0.000000
-25.177816 -23.421902 -0.339740 817 0.722600 0.691266 0.000000
-25.178547 -23.422575 -0.329183 821 0.722600 0.691266 0.000000
-25.179264 -23.423243 -0.318636 825 0.722600 0.691266 0.000000
-25.177023 -23.421160 -0.308046 823 0.722600 0.691266 0.000000
-25.177092 -23.421215 -0.297485 789 0.722600 0.691266 0.000000
-25.177534 -23.421635 -0.286931 785 0.722600 0.691266 0.000000
-25.176409 -23.420589 -0.276351 793 0.722600 0.691266 0.000000
-25.177555 -23.421650 -0.265810 817 0.722600 0.691266 0.000000
-25.186337 -23.414896 -0.656652 835 0.722600 0.691266 0.000000
-25.186924 -23.415443 -0.646096 817 0.722600 0.691266 0.000000
-25.186781 -23.415316 -0.635528 795 0.722600 0.691266 0.000000
-25.185116 -23.413761 -0.624923 799 0.722600 0.691266 0.000000
-25.185511 -23.414129 -0.614369 817 0.722600 0.691266 0.000000
-25.186087 -23.414669 -0.603823 807 0.722600 0.691266 0.000000
-25.187819 -23.416279 -0.593297 821 0.722600 0.691266 0.000000
-25.188486 -23.416903 -0.582750 835 0.722600 0.691266 0.000000
-25.185999 -23.414585 -0.572123 825 0.722600 0.691266 0.000000
-25.185698 -23.414303 -0.561556 805 0.722600 0.691266 0.000000
-25.187206 -23.415709 -0.551022 825 0.722600 0.691266 0.000000
-25.188257 -23.416679 -0.540482 831 0.722600 0.691266 0.000000
-25.186707 -23.415243 -0.529886 829 0.722600 0.691266 0.000000
-25.185329 -23.413969 -0.519298 813 0.722600 0.691266 0.000000
-25.187380 -23.415873 -0.508779 815 0.722600 0.691266 0.000000
-25.189152 -23.417513 -0.498242 837 0.722600 0.691266 0.000000
-25.186039 -23.414627 -0.487621 821 0.722600 0.691266 0.000000
-25.182884 -23.411686 -0.477000 821 0.722600 0.691266 0.000000
-25.183796 -23.412531 -0.466451 817 0.722600 0.691266 0.000000
-25.184166 -23.412882 -0.455898 823 0.722600 0.691266 0.000000
-25.185822 -23.414413 -0.445372 835 0.722600 0.691266 0.000000
-25.186628 -23.415165 -0.434824 825 0.722600 0.691266 0.000000
-25.185596 -23.414207 -0.424244 835 0.722600 0.691266 0.000000
-25.185793 -23.414392 -0.413682 833 0.722600 0.691266 0.000000
-25.185989 -23.414576 -0.403120 823 0.722600 0.691266 0.000000
-25.185541 -23.414162 -0.392553 831 0.722600 0.691266 0.000000
-25.185909 -23.414497 -0.382000 817 0.722600 0.691266 0.000000
-25.185925 -23.414520 -0.371439 821 0.722600 0.691266 0.000000
-25.185591 -23.414202 -0.360872 825 0.722600 0.691266 0.000000
-25.185184 -23.413824 -0.350306 795 0.722600 0.691266 0.000000
-25.185423 -23.414055 -0.339743 779 0.722600 0.691266 0.000000
-25.185440 -23.414066 -0.329183 795 0.722600 0.691266 0.000000
-25.183537 -23.412294 -0.318600 791 0.722600 0.691266 0.000000
-25.182861 -23.411663 -0.308026 805 0.722600 0.691266 0.000000
-25.184319 -23.413025 -0.297483 819 0.722600 0.691266 0.000000
-25.184484 -23.413185 -0.286931 797 0.722600 0.691266 0.000000
-25.183636 -23.412386 -0.276358 795 0.722600 0.691266 0.000000
-25.183643 -23.412394 -0.265798 817 0.722600 0.691266 0.000000
