749
-14.053313 -13.272588 -0.584535 1087 0.736548 0.676386 0.000000
-14.053174 -13.272456 -0.578596 1101 0.736548 0.676386 0.000000
-14.053035 -13.272325 -0.572647 1115 0.736548 0.676386 0.000000
-14.053255 -13.272547 -0.566715 1115 0.736548 0.676386 0.000000
-14.053489 -13.272766 -0.560783 1113 0.736548 0.676386 0.000000
-14.053134 -13.272424 -0.554826 1095 0.736548 0.676386 0.000000
-14.052876 -13.272183 -0.548878 1107 0.736548 0.676386 0.000000
-14.053048 -13.272354 -0.542936 1097 0.736548 0.676386 0.000000
-14.053114 -13.272413 -0.537006 1101 0.736548 0.676386 0.000000
-14.052588 -13.271919 -0.531040 1095 0.736548 0.676386 0.000000
-14.052330 -13.271680 -0.525093 1095 0.736548 0.676386 0.000000
-14.052451 -13.271785 -0.519161 1099 0.736548 0.676386 0.000000
-14.053138 -13.272445 -0.513245 1107 0.736548 0.676386 0.000000
-14.053522 -13.272798 -0.507311 1123 0.736548 0.676386 0.000000
-14.052615 -13.271948 -0.501339 1123 0.736548 0.676386 0.000000
-14.051873 -13.271255 -0.495376 1101 0.736548 0.676386 0.000000
-14.052724 -13.272047 -0.489468 1121 0.736548 0.676386 0.000000
-14.052941 -13.272255 -0.483536 1121 0.736548 0.676386 0.000000
-14.052447 -13.271800 -0.477580 1119 0.736548 0.676386 0.000000
-14.052292 -13.271643 -0.471632 1091 0.736548 0.676386 0.000000
-14.052874 -13.272193 -0.465716 1119 0.736548 0.676386 0.000000
-14.053719 -13.272994 -0.459798 1129 0.736548 0.676386 0.000000
-14.054079 -13.273341 -0.453874 1117 0.736548 0.676386 0.000000
-14.053164 -13.272484 -0.447903 1113 0.736548 0.676386 0.000000
-14.052303 -13.271670 -0.441941 1109 0.736548 0.676386 0.000000
-14.052237 -13.271610 -0.436001 1123 0.736548 0.676386 0.000000
-14.053182 -13.272491 -0.430092 1113 0.736548 0.676386 0.000000
-14.053432 -13.272739 -0.424160 1123 0.736548 0.676386 0.000000
-14.052676 -13.272021 -0.418197 1111 0.736548 0.676386 0.000000
-14.051744 -13.271151 -0.412235 1079 0.736548 0.676386 0.000000
-14.052256 -13.271631 -0.406310 1111 0.736548 0.676386 0.000000
-14.053202 -13.272528 -0.400401 1133 0.736548 0.676386 0.000000
-14.052540 -13.271898 -0.394437 1119 0.736548 0.676386 0.000000
-14.052092 -13.271481 -0.388492 1093 0.736548 0.676386 0.000000
-14.052865 -13.272211 -0.382574 1099 0.736548 0.676386 0.000000
-14.052623 -13.271984 -0.376626 1097 0.736548 0.676386 0.000000
-14.052341 -13.271712 -0.370679 1105 0.736548 0.676386 0.000000
-14.053424 -13.272744 -0.364768 1121 0.736548 0.676386 0.000000
-14.053775 -13.273070 -0.358845 1109 0.736548 0.676386 0.000000
-14.053257 -13.272583 -0.352890 1109 0.736548 0.676386 0.000000
-14.053657 -13.272961 -0.346966 1109 0.736548 0.676386 0.000000
-14.053248 -13.272576 -0.341019 1113 0.736548 0.676386 0.000000
-14.052736 -13.272095 -0.335064 1093 0.736548 0.676386 0.000000
-14.053177 -13.272518 -0.329140 1107 0.736548 0.676386 0.000000
-14.052822 -13.272176 -0.323193 1113 0.736548 0.676386 0.000000
-14.051827 -13.271242 -0.317232 1097 0.736548 0.676386 0.000000
-14.053221 -13.272559 -0.311329 1109 0.736548 0.676386 0.000000
-14.053392 -13.272730 -0.305387 1099 0.736548 0.676386 0.000000
-14.058197 -13.269059 -0.679661 1095 0.736548 0.676386 0.000000
-14.056639 -13.267595 -0.673646 1095 0.736548 0.676386 0.000000
-14.056421 -13.267389 -0.667688 1095 0.736548 0.676386 0.000000
-14.057091 -13.268023 -0.661781 1089 0.736548 0.676386 0.000000
-14.057562 -13.268458 -0.655857 1113 0.736548 0.676386 0.000000
-14.057542 -13.268450 -0.649907 1109 0.736548 0.676386 0.000000
-14.057942 -13.268828 -0.643983 1117 0.736548 0.676386 0.000000
-14.057868 -13.268762 -0.638043 1119 0.736548 0.676386 0.000000
-14.057054 -13.267985 -0.632061 1113 0.736548 0.676386 0.000000
-14.057191 -13.268116 -0.626129 1103 0.736548 0.676386 0.000000
-14.056959 -13.267897 -0.620171 1089 0.736548 0.676386 0.000000
-14.057192 -13.268128 -0.614239 1095 0.736548 0.676386 0.000000
-14.058069 -13.268955 -0.608341 1093 0.736548 0.676386 0.000000
-14.057144 -13.268078 -0.602359 1107 0.736548 0.676386 0.000000
-14.057061 -13.268003 -0.596410 1105 0.736548 0.676386 0.000000
-14.058143 -13.269021 -0.590509 1103 0.736548 0.676386 0.000000
-14.058489 -13.269357 -0.584586 1093 0.736548 0.676386 0.000000
-14.058665 -13.269517 -0.578654 1121 0.736548 0.676386 0.000000
-14.057781 -13.268684 -0.572672 1099 0.736548 0.676386 0.000000
-14.057691 -13.268606 -0.566733 1095 0.736548 0.676386 0.000000
-14.058289 -13.269170 -0.560807 1131 0.736548 0.676386 0.000000
-14.057722 -13.268630 -0.554843 1093 0.736548 0.676386 0.000000
-14.057623 -13.268544 -0.548903 1101 0.736548 0.676386 0.000000
-14.057738 -13.268657 -0.542962 1107 0.736548 0.676386 0.000000
-14.057116 -13.268073 -0.536998 1109 0.736548 0.676386 0.000000
-14.056643 -13.267622 -0.531042 1101 0.736548 0.676386 0.000000
-14.058089 -13.268983 -0.525158 1109 0.736548 0.676386 0.000000
-14.058093 -13.268992 -0.519218 1111 0.736548 0.676386 0.000000
-14.056883 -13.267847 -0.513229 1095 0.736548 0.676386 0.000000
-14.057412 -13.268355 -0.507314 1103 0.736548 0.676386 0.000000
-14.057573 -13.268504 -0.501373 1115 0.736548 0.676386 0.000000
-14.056459 -13.267462 -0.495403 1111 0.736548 0.676386 0.000000
-14.056773 -13.267758 -0.489470 1117 0.736548 0.676386 0.000000
-14.057467 -13.268413 -0.483553 1131 0.736548 0.676386 0.000000
-14.057947 -13.268868 -0.477628 1123 0.736548 0.676386 0.000000
-14.057782 -13.268703 -0.471680 1101 0.736548 0.676386 0.000000
-14.057461 -13.268399 -0.465733 1117 0.736548 0.676386 0.000000
-14.056658 -13.267646 -0.459770 1117 0.736548 0.676386 0.000000
-14.056811 -13.267788 -0.453839 1121 0.736548 0.676386 0.000000
-14.057592 -13.268538 -0.447921 1129 0.736548 0.676386 0.000000
-14.056890 -13.267878 -0.441958 1107 0.736548 0.676386 0.000000
-14.056823 -13.267817 -0.436018 1111 0.736548 0.676386 0.000000
-14.056970 -13.267954 -0.430087 1107 0.736548 0.676386 0.000000
-14.057067 -13.268038 -0.424146 1105 0.736548 0.676386 0.000000
-14.056358 -13.267373 -0.418192 1111 0.736548 0.676386 0.000000
-14.055759 -13.266809 -0.412238 1097 0.736548 0.676386 0.000000
-14.056905 -13.267888 -0.406327 1111 0.736548 0.676386 0.000000
-14.057202 -13.268173 -0.400394 1111 0.736548 0.676386 0.000000
-14.056969 -13.267952 -0.394456 1119 0.736548 0.676386 0.000000
-14.056949 -13.267942 -0.388516 1107 0.736548 0.676386 0.000000
-14.057673 -13.268621 -0.382589 1117 0.736548 0.676386 0.000000
-14.057693 -13.268643 -0.376658 1103 0.736548 0.676386 0.000000
-14.057459 -13.268423 -0.370711 1105 0.736548 0.676386 0.000000
-14.057430 -13.268394 -0.364771 1115 0.736548 0.676386 0.000000
-14.056546 -13.267562 -0.358809 1103 0.736548 0.676386 0.000000
-14.056678 -13.267686 -0.352877 1105 0.736548 0.676386 0.000000
-14.057499 -13.268467 -0.346960 1109 0.736548 0.676386 0.000000
-14.057675 -13.268629 -0.341028 1111 0.736548 0.676386 0.000000
-14.057212 -13.268199 -0.335072 1109 0.736548 0.676386 0.000000
-14.056376 -13.267418 -0.329120 1103 0.736548 0.676386 0.000000
-14.056665 -13.267682 -0.323187 1105 0.736548 0.676386 0.000000
-14.057740 -13.268706 -0.317277 1101 0.736548 0.676386 0.000000
-14.058339 -13.269270 -0.311351 1103 0.736548 0.676386 0.000000
-14.057549 -13.268527 -0.305398 1089 0.736548 0.676386 0.000000
-14.062251 -13.265082 -0.679671 1109 0.736548 0.676386 0.000000
-14.062717 -13.265527 -0.673747 1113 0.736548 0.676386 0.000000
-14.062069 -13.264910 -0.667773 1095 0.736548 0.676386 0.000000
-14.060773 -13.263695 -0.661765 1099 0.736548 0.676386 0.000000
-14.060760 -13.263678 -0.655825 1107 0.736548 0.676386 0.000000
-14.060472 -13.263413 -0.649867 1107 0.736548 0.676386 0.000000
-14.060934 -13.263844 -0.643943 1113 0.736548 0.676386 0.000000
-14.061556 -13.264426 -0.638037 1107 0.736548 0.676386 0.000000
-14.061267 -13.264161 -0.632079 1121 0.736548 0.676386 0.000000
-14.061405 -13.264293 -0.626138 1121 0.736548 0.676386 0.000000
-14.061854 -13.264723 -0.620214 1099 0.736548 0.676386 0.000000
-14.062263 -13.265110 -0.614290 1117 0.736548 0.676386 0.000000
-14.061433 -13.264321 -0.608317 1113 0.736548 0.676386 0.000000
-14.061191 -13.264094 -0.602360 1119 0.736548 0.676386 0.000000
-14.061693 -13.264567 -0.596445 1109 0.736548 0.676386 0.000000
-14.062095 -13.264949 -0.590521 1123 0.736548 0.676386 0.000000
-14.061630 -13.264518 -0.584555 1109 0.736548 0.676386 0.000000
-14.062127 -13.264986 -0.578640 1107 0.736548 0.676386 0.000000
-14.060870 -13.263803 -0.572642 1105 0.736548 0.676386 0.000000
-14.059509 -13.262510 -0.566645 1091 0.736548 0.676386 0.000000
-14.061226 -13.264141 -0.560778 1121 0.736548 0.676386 0.000000
-14.061674 -13.264558 -0.554854 1111 0.736548 0.676386 0.000000
-14.060725 -13.263660 -0.548873 1091 0.736548 0.676386 0.000000
-14.060468 -13.263422 -0.542925 1103 0.736548 0.676386 0.000000
-14.060266 -13.263241 -0.536977 1103 0.736548 0.676386 0.000000
-14.061127 -13.264053 -0.531068 1105 0.736548 0.676386 0.000000
-14.062462 -13.265313 -0.525176 1111 0.736548 0.676386 0.000000
-14.062741 -13.265570 -0.519243 1115 0.736548 0.676386 0.000000
-14.061518 -13.264426 -0.513264 1095 0.736548 0.676386 0.000000
-14.060989 -13.263917 -0.507299 1105 0.736548 0.676386 0.000000
-14.061367 -13.264279 -0.501375 1107 0.736548 0.676386 0.000000
-14.061893 -13.264785 -0.495450 1117 0.736548 0.676386 0.000000
-14.061747 -13.264634 -0.489512 1117 0.736548 0.676386 0.000000
-14.061687 -13.264580 -0.483562 1133 0.736548 0.676386 0.000000
-14.061200 -13.264132 -0.477606 1127 0.736548 0.676386 0.000000
-14.060719 -13.263675 -0.471651 1127 0.736548 0.676386 0.000000
-14.060548 -13.263517 -0.465712 1121 0.736548 0.676386 0.000000
-14.060759 -13.263719 -0.459780 1113 0.736548 0.676386 0.000000
-14.060652 -13.263614 -0.453831 1117 0.736548 0.676386 0.000000
-14.059998 -13.263004 -0.447877 1115 0.736548 0.676386 0.000000
-14.059881 -13.262892 -0.441938 1111 0.736548 0.676386 0.000000
-14.060671 -13.263635 -0.436020 1101 0.736548 0.676386 0.000000
-14.060550 -13.263531 -0.430071 1113 0.736548 0.676386 0.000000
-14.060218 -13.263206 -0.424124 1113 0.736548 0.676386 0.000000
-14.060732 -13.263703 -0.418199 1107 0.736548 0.676386 0.000000
-14.060497 -13.263482 -0.412261 1115 0.736548 0.676386 0.000000
-14.060373 -13.263364 -0.406312 1115 0.736548 0.676386 0.000000
-14.061256 -13.264195 -0.400404 1121 0.736548 0.676386 0.000000
-14.061872 -13.264786 -0.394478 1125 0.736548 0.676386 0.000000
-14.060788 -13.263754 -0.388518 1109 0.736548 0.676386 0.000000
-14.060546 -13.263527 -0.382570 1119 0.736548 0.676386 0.000000
-14.060851 -13.263818 -0.376637 1141 0.736548 0.676386 0.000000
-14.060658 -13.263642 -0.370699 1129 0.736548 0.676386 0.000000
-14.060788 -13.263766 -0.364757 1115 0.736548 0.676386 0.000000
-14.061022 -13.263987 -0.358825 1113 0.736548 0.676386 0.000000
-14.061161 -13.264117 -0.352894 1117 0.736548 0.676386 0.000000
-14.061656 -13.264585 -0.346969 1119 0.736548 0.676386 0.000000
-14.061304 -13.264258 -0.341022 1111 0.736548 0.676386 0.000000
-14.060944 -13.263924 -0.335075 1099 0.736548 0.676386 0.000000
-14.060376 -13.263383 -0.329121 1107 0.736548 0.676386 0.000000
-14.060664 -13.263660 -0.323198 1103 0.736548 0.676386 0.000000
-14.061746 -13.264677 -0.317277 1105 0.736548 0.676386 0.000000
-14.060909 -13.263882 -0.311325 1095 0.736548 0.676386 0.000000
-14.060390 -13.263394 -0.305380 1103 0.736548 0.676386 0.000000
-14.064734 -13.259470 -0.679597 1085 0.736548 0.676386 0.000000
-14.064776 -13.259510 -0.673657 1099 0.736548 0.676386 0.000000
-14.065828 -13.260502 -0.667767 1083 0.736548 0.676386 0.000000
-14.066293 -13.260945 -0.661842 1107 0.736548 0.676386 0.000000
-14.066230 -13.260878 -0.655893 1113 0.736548 0.676386 0.000000
-14.066258 -13.260905 -0.649952 1119 0.736548 0.676386 0.000000
-14.065922 -13.260590 -0.643995 1129 0.736548 0.676386 0.000000
-14.065846 -13.260523 -0.638046 1113 0.736548 0.676386 0.000000
-14.065715 -13.260398 -0.632097 1091 0.736548 0.676386 0.000000
-14.065854 -13.260529 -0.626165 1111 0.736548 0.676386 0.000000
-14.065509 -13.260206 -0.620209 1111 0.736548 0.676386 0.000000
-14.065385 -13.260087 -0.614259 1109 0.736548 0.676386 0.000000
-14.066467 -13.261118 -0.608359 1119 0.736548 0.676386 0.000000
-14.066338 -13.260994 -0.602410 1107 0.736548 0.676386 0.000000
-14.064978 -13.259715 -0.596413 1123 0.736548 0.676386 0.000000
-14.065259 -13.259986 -0.590490 1109 0.736548 0.676386 0.000000
-14.065666 -13.260359 -0.584556 1099 0.736548 0.676386 0.000000
-14.065465 -13.260177 -0.578608 1093 0.736548 0.676386 0.000000
-14.065485 -13.260200 -0.572668 1087 0.736548 0.676386 0.000000
-14.066193 -13.260865 -0.566761 1105 0.736548 0.676386 0.000000
-14.065776 -13.260472 -0.560804 1109 0.736548 0.676386 0.000000
-14.065376 -13.260092 -0.554838 1107 0.736548 0.676386 0.000000
-14.065601 -13.260304 -0.548906 1105 0.736548 0.676386 0.000000
-14.065344 -13.260067 -0.542958 1127 0.736548 0.676386 0.000000
-14.064713 -13.259477 -0.536994 1117 0.736548 0.676386 0.000000
-14.064671 -13.259436 -0.531054 1105 0.736548 0.676386 0.000000
-14.064785 -13.259545 -0.525113 1105 0.736548 0.676386 0.000000
-14.065217 -13.259952 -0.519189 1123 0.736548 0.676386 0.000000
-14.066021 -13.260705 -0.513281 1115 0.736548 0.676386 0.000000
-14.066296 -13.260972 -0.507348 1107 0.736548 0.676386 0.000000
-14.065387 -13.260119 -0.501377 1103 0.736548 0.676386 0.000000
-14.065017 -13.259765 -0.495430 1109 0.736548 0.676386 0.000000
-14.065869 -13.260571 -0.489512 1137 0.736548 0.676386 0.000000
-14.065494 -13.260225 -0.483565 1135 0.736548 0.676386 0.000000
-14.064689 -13.259469 -0.477593 1125 0.736548 0.676386 0.000000
-14.063787 -13.258610 -0.471631 1105 0.736548 0.676386 0.000000
-14.063673 -13.258511 -0.465682 1099 0.736548 0.676386 0.000000
-14.064621 -13.259408 -0.459773 1107 0.736548 0.676386 0.000000
-14.065196 -13.259953 -0.453857 1109 0.736548 0.676386 0.000000
-14.065516 -13.260242 -0.447924 1137 0.736548 0.676386 0.000000
-14.065021 -13.259787 -0.441969 1115 0.736548 0.676386 0.000000
-14.065380 -13.260119 -0.436045 1127 0.736548 0.676386 0.000000
-14.065313 -13.260059 -0.430106 1105 0.736548 0.676386 0.000000
-14.065246 -13.259999 -0.424156 1107 0.736548 0.676386 0.000000
-14.065765 -13.260487 -0.418241 1117 0.736548 0.676386 0.000000
-14.065807 -13.260527 -0.412301 1099 0.736548 0.676386 0.000000
-14.064877 -13.259656 -0.406329 1097 0.736548 0.676386 0.000000
-14.064262 -13.259081 -0.400375 1115 0.736548 0.676386 0.000000
-14.064781 -13.259567 -0.394450 1135 0.736548 0.676386 0.000000
-14.065141 -13.259901 -0.388526 1115 0.736548 0.676386 0.000000
-14.064898 -13.259675 -0.382578 1109 0.736548 0.676386 0.000000
-14.065135 -13.259909 -0.376646 1101 0.736548 0.676386 0.000000
-14.064995 -13.259777 -0.370707 1099 0.736548 0.676386 0.000000
-14.064500 -13.259308 -0.364752 1105 0.736548 0.676386 0.000000
-14.064836 -13.259624 -0.358828 1099 0.736548 0.676386 0.000000
-14.065712 -13.260448 -0.352910 1095 0.736548 0.676386 0.000000
-14.065414 -13.260178 -0.346963 1105 0.736548 0.676386 0.000000
-14.064633 -13.259441 -0.341010 1113 0.736548 0.676386 0.000000
-14.064495 -13.259311 -0.335071 1123 0.736548 0.676386 0.000000
-14.064569 -13.259377 -0.329130 1103 0.736548 0.676386 0.000000
-14.065644 -13.260401 -0.323220 1107 0.736548 0.676386 0.000000
-14.065235 -13.260015 -0.317274 1115 0.736548 0.676386 0.000000
-14.064607 -13.259425 -0.311319 1101 0.736548 0.676386 0.000000
-14.064934 -13.259733 -0.305386 1113 0.736548 0.676386 0.000000
-14.068680 -13.255071 -0.679600 1097 0.736548 0.676386 0.000000
-14.069245 -13.255609 -0.673675 1103 0.736548 0.676386 0.000000
-14.069662 -13.256001 -0.667751 1097 0.736548 0.676386 0.000000
-14.069966 -13.256290 -0.661828 1101 0.736548 0.676386 0.000000
-14.069160 -13.255521 -0.655845 1095 0.736548 0.676386 0.000000
-14.068713 -13.255104 -0.649879 1093 0.736548 0.676386 0.000000
-14.069654 -13.255994 -0.643980 1097 0.736548 0.676386 0.000000
-14.070060 -13.256378 -0.638056 1097 0.736548 0.676386 0.000000
-14.069985 -13.256312 -0.632117 1095 0.736548 0.676386 0.000000
-14.069261 -13.255633 -0.626133 1095 0.736548 0.676386 0.000000
-14.068708 -13.255106 -0.620168 1095 0.736548 0.676386 0.000000
-14.068792 -13.255192 -0.614237 1103 0.736548 0.676386 0.000000
-14.068923 -13.255317 -0.608296 1095 0.736548 0.676386 0.000000
-14.069695 -13.256046 -0.602389 1113 0.736548 0.676386 0.000000
-14.069667 -13.256017 -0.596449 1117 0.736548 0.676386 0.000000
-14.069266 -13.255637 -0.590482 1109 0.736548 0.676386 0.000000
-14.070134 -13.256457 -0.584584 1115 0.736548 0.676386 0.000000
-14.069942 -13.256282 -0.578626 1095 0.736548 0.676386 0.000000
-14.069588 -13.255939 -0.572679 1085 0.736548 0.676386 0.000000
-14.069819 -13.256159 -0.566747 1111 0.736548 0.676386 0.000000
-14.069888 -13.256233 -0.560806 1113 0.736548 0.676386 0.000000
-14.070176 -13.256496 -0.554873 1123 0.736548 0.676386 0.000000
-14.070546 -13.256851 -0.548949 1119 0.736548 0.676386 0.000000
-14.070303 -13.256623 -0.542991 1113 0.736548 0.676386 0.000000
-14.069825 -13.256182 -0.537036 1107 0.736548 0.676386 0.000000
-14.069678 -13.256044 -0.531087 1125 0.736548 0.676386 0.000000
-14.069587 -13.255952 -0.525148 1123 0.736548 0.676386 0.000000
-14.069591 -13.255960 -0.519208 1101 0.736548 0.676386 0.000000
-14.069910 -13.256263 -0.513274 1105 0.736548 0.676386 0.000000
-14.070231 -13.256566 -0.507351 1111 0.736548 0.676386 0.000000
-14.068801 -13.255218 -0.501355 1101 0.736548 0.676386 0.000000
-14.068424 -13.254869 -0.495408 1107 0.736548 0.676386 0.000000
-14.068434 -13.254871 -0.489468 1115 0.736548 0.676386 0.000000
-14.068376 -13.254816 -0.483528 1101 0.736548 0.676386 0.000000
-14.068642 -13.255076 -0.477595 1119 0.736548 0.676386 0.000000
-14.068153 -13.254613 -0.471640 1107 0.736548 0.676386 0.000000
-14.068735 -13.255164 -0.465714 1113 0.736548 0.676386 0.000000
-14.068462 -13.254913 -0.459767 1105 0.736548 0.676386 0.000000
-14.068237 -13.254700 -0.453829 1103 0.736548 0.676386 0.000000
-14.069468 -13.255849 -0.447927 1117 0.736548 0.676386 0.000000
-14.069608 -13.255993 -0.441985 1111 0.736548 0.676386 0.000000
-14.068850 -13.255275 -0.436023 1113 0.736548 0.676386 0.000000
-14.068411 -13.254864 -0.430076 1109 0.736548 0.676386 0.000000
-14.068976 -13.255402 -0.424151 1095 0.736548 0.676386 0.000000
-14.069005 -13.255431 -0.418211 1095 0.736548 0.676386 0.000000
-14.069634 -13.256020 -0.412295 1113 0.736548 0.676386 0.000000
-14.070043 -13.256407 -0.406371 1123 0.736548 0.676386 0.000000
-14.068960 -13.255389 -0.400401 1131 0.736548 0.676386 0.000000
-14.067711 -13.254211 -0.394422 1103 0.736548 0.676386 0.000000
-14.068643 -13.255095 -0.388513 1105 0.736548 0.676386 0.000000
-14.069044 -13.255475 -0.382589 1107 0.736548 0.676386 0.000000
-14.069563 -13.255962 -0.376664 1101 0.736548 0.676386 0.000000
-14.070018 -13.256385 -0.370730 1111 0.736548 0.676386 0.000000
-14.068871 -13.255303 -0.364771 1107 0.736548 0.676386 0.000000
-14.069526 -13.255926 -0.358844 1111 0.736548 0.676386 0.000000
-14.070189 -13.256554 -0.352918 1107 0.736548 0.676386 0.000000
-14.070000 -13.256371 -0.346979 1101 0.736548 0.676386 0.000000
-14.069110 -13.255547 -0.341018 1095 0.736548 0.676386 0.000000
-14.068763 -13.255210 -0.335071 1099 0.736548 0.676386 0.000000
-14.069037 -13.255475 -0.329138 1101 0.736548 0.676386 0.000000
-14.069320 -13.255747 -0.323215 1105 0.736548 0.676386 0.000000
-14.069283 -13.255712 -0.317276 1111 0.736548 0.676386 0.000000
-14.069034 -13.255478 -0.311328 1107 0.736548 0.676386 0.000000
-14.068941 -13.255384 -0.305388 1117 0.736548 0.676386 0.000000
-14.073707 -13.251542 -0.679643 1091 0.736548 0.676386 0.000000
-14.073647 -13.251489 -0.673694 1107 0.736548 0.676386 0.000000
-14.074278 -13.252077 -0.667778 1089 0.736548 0.676386 0.000000
-14.074305 -13.252106 -0.661837 1085 0.736548 0.676386 0.000000
-14.074403 -13.252191 -0.655896 1087 0.736548 0.676386 0.000000
-14.074812 -13.252577 -0.649972 1117 0.736548 0.676386 0.000000
-14.073674 -13.251515 -0.643983 1101 0.736548 0.676386 0.000000
-14.073383 -13.251237 -0.638026 1085 0.736548 0.676386 0.000000
-14.073839 -13.251674 -0.632101 1089 0.736548 0.676386 0.000000
-14.073821 -13.251652 -0.626161 1101 0.736548 0.676386 0.000000
-14.073054 -13.250927 -0.620178 1103 0.736548 0.676386 0.000000
-14.072812 -13.250700 -0.614230 1103 0.736548 0.676386 0.000000
-14.072998 -13.250881 -0.608298 1097 0.736548 0.676386 0.000000
-14.073660 -13.251510 -0.602382 1105 0.736548 0.676386 0.000000
-14.073579 -13.251437 -0.596443 1105 0.736548 0.676386 0.000000
-14.073067 -13.250956 -0.590477 1109 0.736548 0.676386 0.000000
-14.072823 -13.250714 -0.584520 1091 0.736548 0.676386 0.000000
-14.072637 -13.250546 -0.578571 1083 0.736548 0.676386 0.000000
-14.073554 -13.251417 -0.572672 1097 0.736548 0.676386 0.000000
-14.074317 -13.252127 -0.566755 1105 0.736548 0.676386 0.000000
-14.073536 -13.251404 -0.560792 1115 0.736548 0.676386 0.000000
-14.073708 -13.251559 -0.554850 1125 0.736548 0.676386 0.000000
-14.074838 -13.252628 -0.548960 1129 0.736548 0.676386 0.000000
-14.074483 -13.252285 -0.543003 1111 0.736548 0.676386 0.000000
-14.073005 -13.250899 -0.537007 1097 0.736548 0.676386 0.000000
-14.073062 -13.250951 -0.531066 1099 0.736548 0.676386 0.000000
-14.073329 -13.251211 -0.525133 1101 0.736548 0.676386 0.000000
-14.073506 -13.251372 -0.519201 1109 0.736548 0.676386 0.000000
-14.074843 -13.252631 -0.513309 1103 0.736548 0.676386 0.000000
-14.074680 -13.252481 -0.507360 1125 0.736548 0.676386 0.000000
-14.072981 -13.250892 -0.501366 1107 0.736548 0.676386 0.000000
-14.073032 -13.250939 -0.495425 1105 0.736548 0.676386 0.000000
-14.073573 -13.251444 -0.489500 1097 0.736548 0.676386 0.000000
-14.073838 -13.251690 -0.483567 1109 0.736548 0.676386 0.000000
-14.073250 -13.251145 -0.477613 1115 0.736548 0.676386 0.000000
-14.073078 -13.250989 -0.471664 1113 0.736548 0.676386 0.000000
-14.073558 -13.251431 -0.465740 1117 0.736548 0.676386 0.000000
-14.072698 -13.250631 -0.459778 1103 0.736548 0.676386 0.000000
-14.072535 -13.250468 -0.453829 1093 0.736548 0.676386 0.000000
-14.072839 -13.250757 -0.447906 1105 0.736548 0.676386 0.000000
-14.073090 -13.251004 -0.441973 1103 0.736548 0.676386 0.000000
-14.073989 -13.251848 -0.436055 1111 0.736548 0.676386 0.000000
-14.073389 -13.251283 -0.430100 1119 0.736548 0.676386 0.000000
-14.073164 -13.251069 -0.424152 1091 0.736548 0.676386 0.000000
-14.073207 -13.251111 -0.418222 1091 0.736548 0.676386 0.000000
-14.072220 -13.250182 -0.412251 1091 0.736548 0.676386 0.000000
-14.072677 -13.250620 -0.406326 1097 0.736548 0.676386 0.000000
-14.073624 -13.251515 -0.400417 1099 0.736548 0.676386 0.000000
-14.073072 -13.250989 -0.394462 1089 0.736548 0.676386 0.000000
-14.072886 -13.250820 -0.388514 1101 0.736548 0.676386 0.000000
-14.073770 -13.251653 -0.382606 1093 0.736548 0.676386 0.000000
-14.074114 -13.251973 -0.376672 1099 0.736548 0.676386 0.000000
-14.073983 -13.251848 -0.370733 1093 0.736548 0.676386 0.000000
-14.073099 -13.251017 -0.364772 1087 0.736548 0.676386 0.000000
-14.072865 -13.250796 -0.358824 1119 0.736548 0.676386 0.000000
-14.073092 -13.251024 -0.352891 1107 0.736548 0.676386 0.000000
-14.072794 -13.250739 -0.346954 1097 0.736548 0.676386 0.000000
-14.072171 -13.250156 -0.341000 1083 0.736548 0.676386 0.000000
-14.072675 -13.250630 -0.335075 1097 0.736548 0.676386 0.000000
-14.073495 -13.251398 -0.329147 1099 0.736548 0.676386 0.000000
-14.073085 -13.251012 -0.323201 1105 0.736548 0.676386 0.000000
-14.072566 -13.250524 -0.317255 1099 0.736548 0.676386 0.000000
-14.072262 -13.250247 -0.311308 1105 0.736548 0.676386 0.000000
-14.073011 -13.250957 -0.305391 1113 0.736548 0.676386 0.000000
-14.078424 -13.247699 -0.679670 1103 0.736548 0.676386 0.000000
-14.076866 -13.246236 -0.673654 1105 0.736548 0.676386 0.000000
-14.076323 -13.245728 -0.667689 1099 0.736548 0.676386 0.000000
-14.077745 -13.247070 -0.661806 1095 0.736548 0.676386 0.000000
-14.077622 -13.246952 -0.655857 1095 0.736548 0.676386 0.000000
-14.077817 -13.247142 -0.649925 1103 0.736548 0.676386 0.000000
-14.077909 -13.247220 -0.643984 1113 0.736548 0.676386 0.000000
-14.077198 -13.246553 -0.638010 1107 0.736548 0.676386 0.000000
-14.077598 -13.246932 -0.632086 1085 0.736548 0.676386 0.000000
-14.077950 -13.247260 -0.626163 1091 0.736548 0.676386 0.000000
-14.077813 -13.247144 -0.620214 1095 0.736548 0.676386 0.000000
-14.077792 -13.247120 -0.614264 1109 0.736548 0.676386 0.000000
-14.077875 -13.247193 -0.608333 1101 0.736548 0.676386 0.000000
-14.077529 -13.246871 -0.602376 1097 0.736548 0.676386 0.000000
-14.077233 -13.246599 -0.596419 1101 0.736548 0.676386 0.000000
-14.078053 -13.247369 -0.590511 1099 0.736548 0.676386 0.000000
-14.077859 -13.247192 -0.584563 1101 0.736548 0.676386 0.000000
-14.077935 -13.247259 -0.578622 1095 0.736548 0.676386 0.000000
-14.078009 -13.247325 -0.572681 1109 0.736548 0.676386 0.000000
-14.077221 -13.246595 -0.566708 1101 0.736548 0.676386 0.000000
-14.076915 -13.246305 -0.560761 1093 0.736548 0.676386 0.000000
-14.077416 -13.246779 -0.554836 1103 0.736548 0.676386 0.000000
-14.078547 -13.247849 -0.548945 1103 0.736548 0.676386 0.000000
-14.078718 -13.248004 -0.543004 1113 0.736548 0.676386 0.000000
-14.077928 -13.247260 -0.537031 1117 0.736548 0.676386 0.000000
-14.077458 -13.246824 -0.531075 1113 0.736548 0.676386 0.000000
-14.077579 -13.246928 -0.525144 1119 0.736548 0.676386 0.000000
-14.078058 -13.247384 -0.519219 1103 0.736548 0.676386 0.000000
-14.078485 -13.247796 -0.513295 1115 0.736548 0.676386 0.000000
-14.078178 -13.247506 -0.507338 1101 0.736548 0.676386 0.000000
-14.077428 -13.246794 -0.501375 1089 0.736548 0.676386 0.000000
-14.077219 -13.246606 -0.495427 1097 0.736548 0.676386 0.000000
-14.077959 -13.247296 -0.489510 1111 0.736548 0.676386 0.000000
-14.078549 -13.247855 -0.483594 1117 0.736548 0.676386 0.000000
-14.078013 -13.247354 -0.477639 1115 0.736548 0.676386 0.000000
-14.077803 -13.247152 -0.471691 1121 0.736548 0.676386 0.000000
-14.078117 -13.247450 -0.465758 1113 0.736548 0.676386 0.000000
-14.077947 -13.247293 -0.459809 1113 0.736548 0.676386 0.000000
-14.076065 -13.245531 -0.453817 1107 0.736548 0.676386 0.000000
-14.076384 -13.245819 -0.447883 1097 0.736548 0.676386 0.000000
-14.078395 -13.247724 -0.442004 1111 0.736548 0.676386 0.000000
-14.078541 -13.247860 -0.436073 1117 0.736548 0.676386 0.000000
-14.077617 -13.246996 -0.430111 1105 0.736548 0.676386 0.000000
-14.076916 -13.246336 -0.424148 1097 0.736548 0.676386 0.000000
-14.077172 -13.246574 -0.418215 1093 0.736548 0.676386 0.000000
-14.077422 -13.246807 -0.412283 1093 0.736548 0.676386 0.000000
-14.076918 -13.246331 -0.406327 1111 0.736548 0.676386 0.000000
-14.076105 -13.245569 -0.400375 1089 0.736548 0.676386 0.000000
-14.076395 -13.245846 -0.394442 1103 0.736548 0.676386 0.000000
-14.077445 -13.246838 -0.388532 1107 0.736548 0.676386 0.000000
-14.078382 -13.247713 -0.382613 1109 0.736548 0.676386 0.000000
-14.078238 -13.247591 -0.376674 1111 0.736548 0.676386 0.000000
-14.077623 -13.247012 -0.370720 1097 0.736548 0.676386 0.000000
-14.077223 -13.246633 -0.364774 1089 0.736548 0.676386 0.000000
-14.076767 -13.246210 -0.358828 1099 0.736548 0.676386 0.000000
-14.077174 -13.246580 -0.352894 1111 0.736548 0.676386 0.000000
-14.077083 -13.246501 -0.346954 1101 0.736548 0.676386 0.000000
-14.076627 -13.246078 -0.341008 1105 0.736548 0.676386 0.000000
-14.077066 -13.246489 -0.335074 1099 0.736548 0.676386 0.000000
-14.078735 -13.248067 -0.329178 1115 0.736548 0.676386 0.000000
-14.079134 -13.248431 -0.323244 1111 0.736548 0.676386 0.000000
-14.078076 -13.247447 -0.317284 1103 0.736548 0.676386 0.000000
-14.078091 -13.247463 -0.311354 1105 0.736548 0.676386 0.000000
-14.077728 -13.247116 -0.305407 1103 0.736548 0.676386 0.000000
-14.082659 -13.243419 -0.679681 1101 0.736548 0.676386 0.000000
-14.082323 -13.243103 -0.673714 1107 0.736548 0.676386 0.000000
-14.082373 -13.243149 -0.667773 1099 0.736548 0.676386 0.000000
-14.082829 -13.243587 -0.661859 1101 0.736548 0.676386 0.000000
-14.083398 -13.244126 -0.655933 1105 0.736548 0.676386 0.000000
-14.083121 -13.243859 -0.649976 1117 0.736548 0.676386 0.000000
-14.082405 -13.243188 -0.644002 1085 0.736548 0.676386 0.000000
-14.082861 -13.243625 -0.638078 1097 0.736548 0.676386 0.000000
-14.082094 -13.242900 -0.632105 1085 0.736548 0.676386 0.000000
-14.081116 -13.241980 -0.626124 1103 0.736548 0.676386 0.000000
-14.081303 -13.242161 -0.620182 1093 0.736548 0.676386 0.000000
-14.081442 -13.242291 -0.614251 1109 0.736548 0.676386 0.000000
-14.081413 -13.242263 -0.608311 1103 0.736548 0.676386 0.000000
-14.081551 -13.242393 -0.602369 1085 0.736548 0.676386 0.000000
-14.080818 -13.241707 -0.596396 1089 0.736548 0.676386 0.000000
-14.080363 -13.241283 -0.590440 1095 0.736548 0.676386 0.000000
-14.080857 -13.241751 -0.584515 1097 0.736548 0.676386 0.000000
-14.081472 -13.242329 -0.578599 1099 0.736548 0.676386 0.000000
-14.082505 -13.243293 -0.572700 1099 0.736548 0.676386 0.000000
-14.082628 -13.243411 -0.566768 1107 0.736548 0.676386 0.000000
-14.081895 -13.242726 -0.560795 1107 0.736548 0.676386 0.000000
-14.081637 -13.242486 -0.554847 1115 0.736548 0.676386 0.000000
-14.081175 -13.242056 -0.548881 1097 0.736548 0.676386 0.000000
-14.081462 -13.242320 -0.542959 1099 0.736548 0.676386 0.000000
-14.082639 -13.243425 -0.537057 1115 0.736548 0.676386 0.000000
-14.083127 -13.243889 -0.531133 1121 0.736548 0.676386 0.000000
-14.082124 -13.242948 -0.525162 1103 0.736548 0.676386 0.000000
-14.081699 -13.242548 -0.519206 1107 0.736548 0.676386 0.000000
-14.081601 -13.242463 -0.513257 1113 0.736548 0.676386 0.000000
-14.082246 -13.243065 -0.507340 1099 0.736548 0.676386 0.000000
-14.082726 -13.243520 -0.501416 1097 0.736548 0.676386 0.000000
-14.082563 -13.243370 -0.495467 1083 0.736548 0.676386 0.000000
-14.082193 -13.243014 -0.489521 1091 0.736548 0.676386 0.000000
-14.081604 -13.242472 -0.483556 1111 0.736548 0.676386 0.000000
-14.081656 -13.242519 -0.477625 1111 0.736548 0.676386 0.000000
-14.082079 -13.242917 -0.471691 1109 0.736548 0.676386 0.000000
-14.081869 -13.242716 -0.465753 1101 0.736548 0.676386 0.000000
-14.081485 -13.242362 -0.459796 1093 0.736548 0.676386 0.000000
-14.081582 -13.242447 -0.453865 1099 0.736548 0.676386 0.000000
-14.082370 -13.243190 -0.447948 1091 0.736548 0.676386 0.000000
-14.082732 -13.243537 -0.442014 1115 0.736548 0.676386 0.000000
-14.081547 -13.242425 -0.436045 1101 0.736548 0.676386 0.000000
-14.081431 -13.242312 -0.430096 1091 0.736548 0.676386 0.000000
-14.082061 -13.242902 -0.424180 1091 0.736548 0.676386 0.000000
-14.081827 -13.242682 -0.418232 1101 0.736548 0.676386 0.000000
-14.081388 -13.242270 -0.412286 1093 0.736548 0.676386 0.000000
-14.081795 -13.242655 -0.406352 1111 0.736548 0.676386 0.000000
-14.081719 -13.242589 -0.400413 1111 0.736548 0.676386 0.000000
-14.081858 -13.242719 -0.394481 1123 0.736548 0.676386 0.000000
-14.081251 -13.242147 -0.388527 1107 0.736548 0.676386 0.000000
-14.080685 -13.241622 -0.382572 1093 0.736548 0.676386 0.000000
-14.080610 -13.241556 -0.376633 1089 0.736548 0.676386 0.000000
-14.081486 -13.242381 -0.370714 1101 0.736548 0.676386 0.000000
-14.082266 -13.243104 -0.364797 1101 0.736548 0.676386 0.000000
-14.081968 -13.242833 -0.358849 1093 0.736548 0.676386 0.000000
-14.081878 -13.242753 -0.352910 1097 0.736548 0.676386 0.000000
-14.082221 -13.243073 -0.346977 1115 0.736548 0.676386 0.000000
-14.082034 -13.242892 -0.341038 1099 0.736548 0.676386 0.000000
-14.081246 -13.242163 -0.335086 1085 0.736548 0.676386 0.000000
-14.081266 -13.242171 -0.329145 1083 0.736548 0.676386 0.000000
-14.081396 -13.242296 -0.323214 1077 0.736548 0.676386 0.000000
-14.080235 -13.241201 -0.317245 1091 0.736548 0.676386 0.000000
-14.080564 -13.241524 -0.311321 1091 0.736548 0.676386 0.000000
-14.081480 -13.242382 -0.305403 1089 0.736548 0.676386 0.000000
-14.086329 -13.238451 -0.679658 1089 0.736548 0.676386 0.000000
-14.085832 -13.237982 -0.673682 1087 0.736548 0.676386 0.000000
-14.085986 -13.238125 -0.667751 1093 0.736548 0.676386 0.000000
-14.086766 -13.238861 -0.661843 1097 0.736548 0.676386 0.000000
-14.086320 -13.238444 -0.655877 1097 0.736548 0.676386 0.000000
-14.086093 -13.238230 -0.649929 1093 0.736548 0.676386 0.000000
-14.086080 -13.238213 -0.643979 1103 0.736548 0.676386 0.000000
-14.085633 -13.237796 -0.638023 1079 0.736548 0.676386 0.000000
-14.086089 -13.238234 -0.632099 1081 0.736548 0.676386 0.000000
-14.086656 -13.238758 -0.626183 1085 0.736548 0.676386 0.000000
-14.087374 -13.239444 -0.620266 1107 0.736548 0.676386 0.000000
-14.087407 -13.239466 -0.614326 1097 0.736548 0.676386 0.000000
-14.086999 -13.239092 -0.608370 1091 0.736548 0.676386 0.000000
-14.086821 -13.238915 -0.602421 1097 0.736548 0.676386 0.000000
-14.086675 -13.238791 -0.596473 1073 0.736548 0.676386 0.000000
-14.086536 -13.238662 -0.590524 1081 0.736548 0.676386 0.000000
-14.085983 -13.238134 -0.584559 1107 0.736548 0.676386 0.000000
-14.085670 -13.237851 -0.578601 1079 0.736548 0.676386 0.000000
-14.085594 -13.237770 -0.572662 1071 0.736548 0.676386 0.000000
-14.085972 -13.238132 -0.566738 1101 0.736548 0.676386 0.000000
-14.085936 -13.238096 -0.560789 1087 0.736548 0.676386 0.000000
-14.085795 -13.237965 -0.554840 1099 0.736548 0.676386 0.000000
-14.085594 -13.237782 -0.548891 1107 0.736548 0.676386 0.000000
-14.085551 -13.237741 -0.542952 1103 0.736548 0.676386 0.000000
-14.086101 -13.238254 -0.537036 1115 0.736548 0.676386 0.000000
-14.086637 -13.238767 -0.531111 1117 0.736548 0.676386 0.000000
-14.087503 -13.239573 -0.525203 1105 0.736548 0.676386 0.000000
-14.087294 -13.239386 -0.519255 1115 0.736548 0.676386 0.000000
-14.086608 -13.238737 -0.513291 1117 0.736548 0.676386 0.000000
-14.086769 -13.238887 -0.507349 1103 0.736548 0.676386 0.000000
-14.087360 -13.239445 -0.501434 1085 0.736548 0.676386 0.000000
-14.087094 -13.239199 -0.495486 1089 0.736548 0.676386 0.000000
-14.086720 -13.238852 -0.489529 1097 0.736548 0.676386 0.000000
-14.086881 -13.239001 -0.483598 1109 0.736548 0.676386 0.000000
-14.086662 -13.238793 -0.477650 1111 0.736548 0.676386 0.000000
-14.087086 -13.239191 -0.471726 1101 0.736548 0.676386 0.000000
-14.086655 -13.238788 -0.465770 1103 0.736548 0.676386 0.000000
-14.086008 -13.238184 -0.459805 1101 0.736548 0.676386 0.000000
-14.086852 -13.238984 -0.453897 1099 0.736548 0.676386 0.000000
-14.086897 -13.239027 -0.447957 1109 0.736548 0.676386 0.000000
-14.085766 -13.237958 -0.441987 1095 0.736548 0.676386 0.000000
-14.085382 -13.237603 -0.436031 1107 0.736548 0.676386 0.000000
-14.086066 -13.238236 -0.430114 1111 0.736548 0.676386 0.000000
-14.085887 -13.238074 -0.424166 1095 0.736548 0.676386 0.000000
-14.084908 -13.237152 -0.418205 1091 0.736548 0.676386 0.000000
-14.084889 -13.237144 -0.412265 1103 0.736548 0.676386 0.000000
-14.085408 -13.237631 -0.406340 1107 0.736548 0.676386 0.000000
-14.083890 -13.236199 -0.400364 1095 0.736548 0.676386 0.000000
-14.084513 -13.236795 -0.394438 1109 0.736548 0.676386 0.000000
-14.086465 -13.238627 -0.388549 1115 0.736548 0.676386 0.000000
-14.085264 -13.237502 -0.382581 1095 0.736548 0.676386 0.000000
-14.085879 -13.238080 -0.376665 1101 0.736548 0.676386 0.000000
-14.087080 -13.239204 -0.370753 1105 0.736548 0.676386 0.000000
-14.086520 -13.238685 -0.364798 1097 0.736548 0.676386 0.000000
-14.086222 -13.238400 -0.358851 1093 0.736548 0.676386 0.000000
-14.086086 -13.238283 -0.352912 1099 0.736548 0.676386 0.000000
-14.085312 -13.237553 -0.346959 1101 0.736548 0.676386 0.000000
-14.085006 -13.237263 -0.341012 1087 0.736548 0.676386 0.000000
-14.085994 -13.238190 -0.335093 1083 0.736548 0.676386 0.000000
-14.086054 -13.238257 -0.329162 1105 0.736548 0.676386 0.000000
-14.085059 -13.237324 -0.323201 1091 0.736548 0.676386 0.000000
-14.084751 -13.237032 -0.317254 1109 0.736548 0.676386 0.000000
-14.084764 -13.237048 -0.311324 1073 0.736548 0.676386 0.000000
-14.085528 -13.237758 -0.305396 1093 0.736548 0.676386 0.000000
-14.089840 -13.233011 -0.679618 1085 0.736548 0.676386 0.000000
-14.089985 -13.233147 -0.673676 1089 0.736548 0.676386 0.000000
-14.091187 -13.234286 -0.667795 1113 0.736548 0.676386 0.000000
-14.091395 -13.234472 -0.661863 1085 0.736548 0.676386 0.000000
-14.091107 -13.234210 -0.655905 1075 0.736548 0.676386 0.000000
-14.090984 -13.234091 -0.649956 1095 0.736548 0.676386 0.000000
-14.090916 -13.234030 -0.644007 1101 0.736548 0.676386 0.000000
-14.089930 -13.233103 -0.638016 1071 0.736548 0.676386 0.000000
-14.089275 -13.232493 -0.632052 1075 0.736548 0.676386 0.000000
-14.090421 -13.233574 -0.626161 1081 0.736548 0.676386 0.000000
-14.091517 -13.234602 -0.620261 1081 0.736548 0.676386 0.000000
-14.091276 -13.234377 -0.614313 1091 0.736548 0.676386 0.000000
-14.090882 -13.234003 -0.608346 1099 0.736548 0.676386 0.000000
-14.090371 -13.233521 -0.602391 1093 0.736548 0.676386 0.000000
-14.090240 -13.233397 -0.596442 1073 0.736548 0.676386 0.000000
-14.090529 -13.233673 -0.590509 1081 0.736548 0.676386 0.000000
-14.090066 -13.233244 -0.584553 1093 0.736548 0.676386 0.000000
-14.090141 -13.233311 -0.578613 1109 0.736548 0.676386 0.000000
-14.090114 -13.233281 -0.572673 1099 0.736548 0.676386 0.000000
-14.090497 -13.233647 -0.566739 1081 0.736548 0.676386 0.000000
-14.091470 -13.234562 -0.560840 1089 0.736548 0.676386 0.000000
-14.091116 -13.234234 -0.554883 1087 0.736548 0.676386 0.000000
-14.091127 -13.234249 -0.548943 1105 0.736548 0.676386 0.000000
-14.090925 -13.234056 -0.542994 1111 0.736548 0.676386 0.000000
-14.090929 -13.234064 -0.537054 1109 0.736548 0.676386 0.000000
-14.091591 -13.234679 -0.531138 1117 0.736548 0.676386 0.000000
-14.091483 -13.234587 -0.525189 1119 0.736548 0.676386 0.000000
-14.090908 -13.234040 -0.519234 1099 0.736548 0.676386 0.000000
-14.091070 -13.234189 -0.513292 1093 0.736548 0.676386 0.000000
-14.090869 -13.234010 -0.507344 1091 0.736548 0.676386 0.000000
-14.090015 -13.233201 -0.501382 1103 0.736548 0.676386 0.000000
-14.090281 -13.233459 -0.495449 1089 0.736548 0.676386 0.000000
-14.091237 -13.234363 -0.489540 1089 0.736548 0.676386 0.000000
-14.091082 -13.234205 -0.483591 1095 0.736548 0.676386 0.000000
-14.091338 -13.234456 -0.477659 1095 0.736548 0.676386 0.000000
-14.090755 -13.233905 -0.471704 1109 0.736548 0.676386 0.000000
-14.090055 -13.233245 -0.465741 1087 0.736548 0.676386 0.000000
-14.090739 -13.233891 -0.459824 1099 0.736548 0.676386 0.000000
-14.090791 -13.233939 -0.453883 1087 0.736548 0.676386 0.000000
-14.090027 -13.233229 -0.447920 1085 0.736548 0.676386 0.000000
-14.089484 -13.232722 -0.441965 1095 0.736548 0.676386 0.000000
-14.090755 -13.233917 -0.436063 1099 0.736548 0.676386 0.000000
-14.090791 -13.233952 -0.430123 1111 0.736548 0.676386 0.000000
-14.089550 -13.232781 -0.424154 1103 0.736548 0.676386 0.000000
-14.090387 -13.233576 -0.418236 1105 0.736548 0.676386 0.000000
-14.090795 -13.233960 -0.412312 1111 0.736548 0.676386 0.000000
-14.089602 -13.232842 -0.406333 1103 0.736548 0.676386 0.000000
-14.089962 -13.233177 -0.400410 1105 0.736548 0.676386 0.000000
-14.091060 -13.234205 -0.394499 1093 0.736548 0.676386 0.000000
-14.090452 -13.233634 -0.388545 1095 0.736548 0.676386 0.000000
-14.089837 -13.233057 -0.382591 1079 0.736548 0.676386 0.000000
-14.090778 -13.233947 -0.376672 1091 0.736548 0.676386 0.000000
-14.091010 -13.234165 -0.370739 1101 0.736548 0.676386 0.000000
-14.090347 -13.233538 -0.364785 1103 0.736548 0.676386 0.000000
-14.089892 -13.233113 -0.358840 1091 0.736548 0.676386 0.000000
-14.090015 -13.233231 -0.352908 1093 0.736548 0.676386 0.000000
-14.089513 -13.232756 -0.346953 1083 0.736548 0.676386 0.000000
-14.090435 -13.233633 -0.341034 1087 0.736548 0.676386 0.000000
-14.090725 -13.233896 -0.335111 1079 0.736548 0.676386 0.000000
-14.088971 -13.232263 -0.329127 1079 0.736548 0.676386 0.000000
-14.088943 -13.232233 -0.323187 1083 0.736548 0.676386 0.000000
-14.089705 -13.232943 -0.317270 1093 0.736548 0.676386 0.000000
-14.089124 -13.232405 -0.311326 1089 0.736548 0.676386 0.000000
-14.089993 -13.233224 -0.305397 1089 0.736548 0.676386 0.000000
-14.094810 -13.229091 -0.679653 1087 0.736548 0.676386 0.000000
-14.094370 -13.228679 -0.673687 1099 0.736548 0.676386 0.000000
-14.095000 -13.229268 -0.667771 1099 0.736548 0.676386 0.000000
-14.095623 -13.229865 -0.661855 1091 0.736548 0.676386 0.000000
-14.094596 -13.228892 -0.655865 1075 0.736548 0.676386 0.000000
-14.094155 -13.228481 -0.649909 1071 0.736548 0.676386 0.000000
-14.094454 -13.228765 -0.643976 1085 0.736548 0.676386 0.000000
-14.095338 -13.229596 -0.638067 1081 0.736548 0.676386 0.000000
-14.095524 -13.229779 -0.632136 1083 0.736548 0.676386 0.000000
-14.094972 -13.229251 -0.626171 1083 0.736548 0.676386 0.000000
-14.095222 -13.229484 -0.620238 1081 0.736548 0.676386 0.000000
-14.094766 -13.229060 -0.614272 1077 0.736548 0.676386 0.000000
-14.095055 -13.229337 -0.608349 1087 0.736548 0.676386 0.000000
-14.095407 -13.229665 -0.602416 1095 0.736548 0.676386 0.000000
-14.095379 -13.229635 -0.596476 1091 0.736548 0.676386 0.000000
-14.095557 -13.229812 -0.590544 1079 0.736548 0.676386 0.000000
-14.094349 -13.228681 -0.584555 1081 0.736548 0.676386 0.000000
-14.093838 -13.228198 -0.578590 1087 0.736548 0.676386 0.000000
-14.095243 -13.229512 -0.572707 1085 0.736548 0.676386 0.000000
-14.095525 -13.229785 -0.566774 1081 0.736548 0.676386 0.000000
-14.095062 -13.229355 -0.560818 1099 0.736548 0.676386 0.000000
-14.094812 -13.229121 -0.554860 1099 0.736548 0.676386 0.000000
-14.095203 -13.229481 -0.548937 1083 0.736548 0.676386 0.000000
-14.095580 -13.229842 -0.543013 1093 0.736548 0.676386 0.000000
-14.096076 -13.230309 -0.537088 1099 0.736548 0.676386 0.000000
-14.096506 -13.230714 -0.531164 1107 0.736548 0.676386 0.000000
-14.095829 -13.230073 -0.525200 1109 0.736548 0.676386 0.000000
-14.095405 -13.229674 -0.519244 1095 0.736548 0.676386 0.000000
-14.095353 -13.229626 -0.513294 1077 0.736548 0.676386 0.000000
-14.095310 -13.229599 -0.507354 1097 0.736548 0.676386 0.000000
-14.095153 -13.229440 -0.501406 1113 0.736548 0.676386 0.000000
-14.095150 -13.229444 -0.495466 1097 0.736548 0.676386 0.000000
-14.094616 -13.228944 -0.489511 1095 0.736548 0.676386 0.000000
-14.094130 -13.228496 -0.483555 1089 0.736548 0.676386 0.000000
-14.094561 -13.228899 -0.477631 1081 0.736548 0.676386 0.000000
-14.095522 -13.229794 -0.471722 1099 0.736548 0.676386 0.000000
-14.094282 -13.228637 -0.465743 1095 0.736548 0.676386 0.000000
-14.092843 -13.227282 -0.459757 1091 0.736548 0.676386 0.000000
-14.093742 -13.228127 -0.453848 1087 0.736548 0.676386 0.000000
-14.094689 -13.229021 -0.447939 1091 0.736548 0.676386 0.000000
-14.094566 -13.228904 -0.441990 1083 0.736548 0.676386 0.000000
-14.094928 -13.229251 -0.436066 1091 0.736548 0.676386 0.000000
-14.095239 -13.229533 -0.430133 1101 0.736548 0.676386 0.000000
-14.094744 -13.229079 -0.424178 1091 0.736548 0.676386 0.000000
-14.094994 -13.229310 -0.418245 1085 0.736548 0.676386 0.000000
-14.095078 -13.229397 -0.412314 1079 0.736548 0.676386 0.000000
-14.094422 -13.228774 -0.406350 1083 0.736548 0.676386 0.000000
-14.094728 -13.229064 -0.400427 1081 0.736548 0.676386 0.000000
-14.094542 -13.228895 -0.394479 1105 0.736548 0.676386 0.000000
-14.094307 -13.228675 -0.388531 1097 0.736548 0.676386 0.000000
-14.094708 -13.229055 -0.382607 1093 0.736548 0.676386 0.000000
-14.093984 -13.228376 -0.376654 1085 0.736548 0.676386 0.000000
-14.094335 -13.228703 -0.370720 1091 0.736548 0.676386 0.000000
-14.095321 -13.229631 -0.364811 1091 0.736548 0.676386 0.000000
-14.094976 -13.229309 -0.358864 1101 0.736548 0.676386 0.000000
-14.095210 -13.229527 -0.352932 1095 0.736548 0.676386 0.000000
-14.095706 -13.229998 -0.347007 1085 0.736548 0.676386 0.000000
-14.094980 -13.229319 -0.341043 1077 0.736548 0.676386 0.000000
-14.094572 -13.228931 -0.335097 1093 0.736548 0.676386 0.000000
-14.094543 -13.228902 -0.329157 1085 0.736548 0.676386 0.000000
-14.095355 -13.229664 -0.323240 1097 0.736548 0.676386 0.000000
-14.095692 -13.229979 -0.317306 1103 0.736548 0.676386 0.000000
-14.096179 -13.230440 -0.311382 1109 0.736548 0.676386 0.000000
-14.096199 -13.230463 -0.305441 1083 0.736548 0.676386 0.000000
-14.099914 -13.225789 -0.679705 1077 0.736548 0.676386 0.000000
-14.099475 -13.225378 -0.673739 1093 0.736548 0.676386 0.000000
-14.098717 -13.224660 -0.667756 1085 0.736548 0.676386 0.000000
-14.098546 -13.224504 -0.661808 1069 0.736548 0.676386 0.000000
-14.098472 -13.224437 -0.655858 1075 0.736548 0.676386 0.000000
-14.098616 -13.224573 -0.649927 1071 0.736548 0.676386 0.000000
-14.098812 -13.224762 -0.643995 1073 0.736548 0.676386 0.000000
-14.099378 -13.225286 -0.638069 1103 0.736548 0.676386 0.000000
-14.100048 -13.225922 -0.632163 1085 0.736548 0.676386 0.000000
-14.100454 -13.226306 -0.626239 1099 0.736548 0.676386 0.000000
-14.100222 -13.226087 -0.620281 1091 0.736548 0.676386 0.000000
-14.099662 -13.225567 -0.614316 1075 0.736548 0.676386 0.000000
-14.098769 -13.224728 -0.608334 1073 0.736548 0.676386 0.000000
-14.098797 -13.224756 -0.602394 1091 0.736548 0.676386 0.000000
-14.098565 -13.224537 -0.596446 1075 0.736548 0.676386 0.000000
-14.099647 -13.225554 -0.590546 1089 0.736548 0.676386 0.000000
-14.100149 -13.226027 -0.584621 1095 0.736548 0.676386 0.000000
-14.099320 -13.225240 -0.578649 1083 0.736548 0.676386 0.000000
-14.099814 -13.225708 -0.572724 1091 0.736548 0.676386 0.000000
-14.100365 -13.226233 -0.566808 1099 0.736548 0.676386 0.000000
-14.099323 -13.225248 -0.560828 1075 0.736548 0.676386 0.000000
-14.098534 -13.224504 -0.554855 1085 0.736548 0.676386 0.000000
-14.098595 -13.224573 -0.548915 1083 0.736548 0.676386 0.000000
-14.099365 -13.225289 -0.542997 1079 0.736548 0.676386 0.000000
-14.099322 -13.225247 -0.537058 1079 0.736548 0.676386 0.000000
-14.098740 -13.224709 -0.531093 1091 0.736548 0.676386 0.000000
-14.098745 -13.224720 -0.525153 1093 0.736548 0.676386 0.000000
-14.098382 -13.224370 -0.519206 1097 0.736548 0.676386 0.000000
-14.098006 -13.224023 -0.513249 1081 0.736548 0.676386 0.000000
-14.098384 -13.224383 -0.507326 1085 0.736548 0.676386 0.000000
-14.099187 -13.225139 -0.501408 1081 0.736548 0.676386 0.000000
-14.099300 -13.225236 -0.495477 1091 0.736548 0.676386 0.000000
-14.099457 -13.225392 -0.489535 1089 0.736548 0.676386 0.000000
-14.099879 -13.225791 -0.483611 1099 0.736548 0.676386 0.000000
-14.099669 -13.225589 -0.477663 1079 0.736548 0.676386 0.000000
-14.099609 -13.225534 -0.471723 1083 0.736548 0.676386 0.000000
-14.099227 -13.225183 -0.465777 1083 0.736548 0.676386 0.000000
-14.098532 -13.224527 -0.459813 1083 0.736548 0.676386 0.000000
-14.098155 -13.224167 -0.453856 1089 0.736548 0.676386 0.000000
-14.098246 -13.224259 -0.447925 1083 0.736548 0.676386 0.000000
-14.098710 -13.224703 -0.442001 1089 0.736548 0.676386 0.000000
-14.099553 -13.225489 -0.436083 1107 0.736548 0.676386 0.000000
-14.099811 -13.225727 -0.430150 1103 0.736548 0.676386 0.000000
-14.099854 -13.225769 -0.424210 1093 0.736548 0.676386 0.000000
-14.098607 -13.224607 -0.418241 1083 0.736548 0.676386 0.000000
-14.097475 -13.223537 -0.412272 1101 0.736548 0.676386 0.000000
-14.098462 -13.224464 -0.406352 1097 0.736548 0.676386 0.000000
-14.099355 -13.225303 -0.400444 1087 0.736548 0.676386 0.000000
-14.098685 -13.224682 -0.394490 1087 0.736548 0.676386 0.000000
-14.098560 -13.224563 -0.388541 1093 0.736548 0.676386 0.000000
-14.099175 -13.225141 -0.382625 1107 0.736548 0.676386 0.000000
-14.099044 -13.225015 -0.376676 1101 0.736548 0.676386 0.000000
-14.098002 -13.224043 -0.370716 1089 0.736548 0.676386 0.000000
-14.098078 -13.224122 -0.364775 1079 0.736548 0.676386 0.000000
-14.098692 -13.224700 -0.358859 1085 0.736548 0.676386 0.000000
-14.099410 -13.225372 -0.352932 1099 0.736548 0.676386 0.000000
-14.098898 -13.224891 -0.346987 1081 0.736548 0.676386 0.000000
-14.098599 -13.224607 -0.341039 1105 0.736548 0.676386 0.000000
-14.097763 -13.223825 -0.335077 1091 0.736548 0.676386 0.000000
-14.097570 -13.223651 -0.329139 1083 0.736548 0.676386 0.000000
-14.098817 -13.224813 -0.323227 1089 0.736548 0.676386 0.000000
