192
-27.588341 -25.247583 -0.657370 869 0.718186 0.695851 0.000000
-27.586700 -25.246082 -0.645845 839 0.718186 0.695851 0.000000
-27.588999 -25.248192 -0.634414 833 0.718186 0.695851 0.000000
-27.591619 -25.250589 -0.622979 821 0.718186 0.695851 0.000000
-27.591429 -25.250416 -0.611491 831 0.718186 0.695851 0.000000
-27.589470 -25.248623 -0.599959 849 0.718186 0.695851 0.000000
-27.586529 -25.245930 -0.588406 859 0.718186 0.695851 0.000000
-27.587025 -25.246386 -0.576931 855 0.718186 0.695851 0.000000
-27.588297 -25.247555 -0.565469 877 0.718186 0.695851 0.000000
-27.589399 -25.248552 -0.554008 867 0.718186 0.695851 0.000000
-27.590425 -25.249502 -0.542538 875 0.718186 0.695851 0.000000
-27.587912 -25.247196 -0.531001 863 0.718186 0.695851 0.000000
-27.586304 -25.245724 -0.519486 869 0.718186 0.695851 0.000000
-27.585814 -25.245283 -0.507990 877 0.718186 0.695851 0.000000
-27.587212 -25.246565 -0.496537 879 0.718186 0.695851 0.000000
-27.588774 -25.247992 -0.485072 863 0.718186 0.695851 0.000000
-27.590343 -25.249434 -0.473618 839 0.718186 0.695851 0.000000
-27.591587 -25.250568 -0.462146 859 0.718186 0.695851 0.000000
-27.590548 -25.249620 -0.450645 839 0.718186 0.695851 0.000000
-27.590054 -25.249165 -0.439149 881 0.718186 0.695851 0.000000
-27.590591 -25.249651 -0.427664 869 0.718186 0.695851 0.000000
-27.589987 -25.249098 -0.416170 863 0.718186 0.695851 0.000000
-27.589085 -25.248283 -0.404678 867 0.718186 0.695851 0.000000
-27.590420 -25.249504 -0.393205 837 0.718186 0.695851 0.000000
-27.587814 -25.247112 -0.381689 845 0.718186 0.695851 0.000000
-27.586000 -25.245462 -0.370175 853 0.718186 0.695851 0.000000
-27.591473 -25.250473 -0.358764 851 0.718186 0.695851 0.000000
-27.590696 -25.249754 -0.347261 835 0.718186 0.695851 0.000000
-27.587521 -25.246853 -0.335740 853 0.718186 0.695851 0.000000
-27.588779 -25.248011 -0.324268 829 0.718186 0.695851 0.000000
-27.587511 -25.246843 -0.312770 841 0.718186 0.695851 0.000000
-27.586706 -25.246119 -0.301277 835 0.718186 0.695851 0.000000
-27.598124 -25.239828 -0.657412 865 0.718186 0.695851 0.000000
-27.597075 -25.238871 -0.645902 879 0.718186 0.695851 0.000000
-27.593504 -25.235601 -0.634334 883 0.718186 0.695851 0.000000
-27.595795 -25.237703 -0.622893 905 0.718186 0.695851 0.000000
-27.598150 -25.239859 -0.611461 859 0.718186 0.695851 0.000000
-27.597046 -25.238844 -0.599951 837 0.718186 0.695851 0.000000
-27.597603 -25.239347 -0.588475 845 0.718186 0.695851 0.000000
-27.598980 -25.240612 -0.577012 867 0.718186 0.695851 0.000000
-27.597681 -25.239433 -0.565494 853 0.718186 0.695851 0.000000
-27.597813 -25.239550 -0.554013 863 0.718186 0.695851 0.000000
-27.597176 -25.238968 -0.542518 879 0.718186 0.695851 0.000000
-27.593954 -25.236015 -0.530968 853 0.718186 0.695851 0.000000
-27.595093 -25.237066 -0.519497 869 0.718186 0.695851 0.000000
-27.595371 -25.237312 -0.508024 861 0.718186 0.695851 0.000000
-27.594887 -25.236879 -0.496528 847 0.718186 0.695851 0.000000
-27.597315 -25.239101 -0.485085 879 0.718186 0.695851 0.000000
-27.599104 -25.240730 -0.473629 897 0.718186 0.695851 0.000000
-27.596617 -25.238459 -0.462101 873 0.718186 0.695851 0.000000
-27.595638 -25.237572 -0.450600 867 0.718186 0.695851 0.000000
-27.595785 -25.237700 -0.439109 855 0.718186 0.695851 0.000000
-27.599289 -25.240898 -0.427676 849 0.718186 0.695851 0.000000
-27.600832 -25.242323 -0.416211 845 0.718186 0.695851 0.000000
-27.599691 -25.241266 -0.404712 875 0.718186 0.695851 0.000000
-27.599066 -25.240709 -0.393217 863 0.718186 0.695851 0.000000
-27.596506 -25.238367 -0.381691 823 0.718186 0.695851 0.000000
-27.595942 -25.237843 -0.370206 831 0.718186 0.695851 0.000000
-27.599197 -25.240824 -0.358755 809 0.718186 0.695851 0.000000
-27.600464 -25.241989 -0.347283 815 0.718186 0.695851 0.000000
-27.596596 -25.238449 -0.335759 811 0.718186 0.695851 0.000000
-27.595385 -25.237339 -0.324260 827 0.718186 0.695851 0.000000
-27.597710 -25.239468 -0.312798 841 0.718186 0.695851 0.000000
-27.597137 -25.238951 -0.301303 857 0.718186 0.695851 0.000000
-27.606455 -25.232237 -0.657430 875 0.718186 0.695851 0.000000
-27.603849 -25.229858 -0.645884 863 0.718186 0.695851 0.000000
-27.601505 -25.227713 -0.634345 845 0.718186 0.695851 0.000000
-27.603695 -25.229723 -0.622905 829 0.718186 0.695851 0.000000
-27.604580 -25.230526 -0.611436 853 0.718186 0.695851 0.000000
-27.602222 -25.228380 -0.599898 889 0.718186 0.695851 0.000000
-27.604197 -25.230181 -0.588459 873 0.718186 0.695851 0.000000
-27.605730 -25.231583 -0.577005 863 0.718186 0.695851 0.000000
-27.603371 -25.229425 -0.565466 855 0.718186 0.695851 0.000000
-27.603821 -25.229845 -0.553992 875 0.718186 0.695851 0.000000
-27.601732 -25.227926 -0.542461 855 0.718186 0.695851 0.000000
-27.600721 -25.227011 -0.530960 853 0.718186 0.695851 0.000000
-27.603638 -25.229671 -0.519523 881 0.718186 0.695851 0.000000
-27.602736 -25.228844 -0.508021 869 0.718186 0.695851 0.000000
-27.602892 -25.228992 -0.496539 839 0.718186 0.695851 0.000000
-27.601982 -25.228159 -0.485037 857 0.718186 0.695851 0.000000
-27.602730 -25.228849 -0.473560 837 0.718186 0.695851 0.000000
-27.603647 -25.229689 -0.462091 839 0.718186 0.695851 0.000000
-27.604616 -25.230568 -0.450622 865 0.718186 0.695851 0.000000
-27.605734 -25.231592 -0.439151 853 0.718186 0.695851 0.000000
-27.606573 -25.232367 -0.427683 851 0.718186 0.695851 0.000000
-27.605963 -25.231810 -0.416189 859 0.718186 0.695851 0.000000
-27.604536 -25.230503 -0.404682 829 0.718186 0.695851 0.000000
-27.603828 -25.229855 -0.393178 831 0.718186 0.695851 0.000000
-27.600195 -25.226536 -0.381651 845 0.718186 0.695851 0.000000
-27.602160 -25.228329 -0.370193 815 0.718186 0.695851 0.000000
-27.606451 -25.232256 -0.358763 821 0.718186 0.695851 0.000000
-27.606144 -25.231972 -0.347265 807 0.718186 0.695851 0.000000
-27.606661 -25.232447 -0.335790 825 0.718186 0.695851 0.000000
-27.604074 -25.230082 -0.324274 817 0.718186 0.695851 0.000000
-27.601173 -25.227434 -0.312760 799 0.718186 0.695851 0.000000
-27.604860 -25.230804 -0.301306 787 0.718186 0.695851 0.000000
-27.610744 -25.221901 -0.657370 837 0.718186 0.695851 0.000000
-27.611530 -25.222622 -0.645903 841 0.718186 0.695851 0.000000
-27.612000 -25.223045 -0.634428 857 0.718186 0.695851 0.000000
-27.608957 -25.220268 -0.622876 847 0.718186 0.695851 0.000000
-27.610968 -25.222113 -0.611427 845 0.718186 0.695851 0.000000
-27.613604 -25.224512 -0.599993 845 0.718186 0.695851 0.000000
-27.612705 -25.223700 -0.588491 869 0.718186 0.695851 0.000000
-27.607643 -25.219076 -0.576897 849 0.718186 0.695851 0.000000
-27.610380 -25.221569 -0.565472 835 0.718186 0.695851 0.000000
-27.612394 -25.223413 -0.554023 847 0.718186 0.695851 0.000000
-27.609650 -25.220901 -0.542478 849 0.718186 0.695851 0.000000
-27.610954 -25.222095 -0.531015 847 0.718186 0.695851 0.000000
-27.608374 -25.219738 -0.519489 833 0.718186 0.695851 0.000000
-27.606707 -25.218218 -0.507974 841 0.718186 0.695851 0.000000
-27.607626 -25.219059 -0.496505 835 0.718186 0.695851 0.000000
-27.609783 -25.221029 -0.485055 837 0.718186 0.695851 0.000000
-27.610201 -25.221411 -0.473571 851 0.718186 0.695851 0.000000
-27.611759 -25.222843 -0.462116 873 0.718186 0.695851 0.000000
-27.610027 -25.221258 -0.450602 877 0.718186 0.695851 0.000000
-27.608946 -25.220264 -0.439102 819 0.718186 0.695851 0.000000
-27.609316 -25.220606 -0.427618 853 0.718186 0.695851 0.000000
-27.610693 -25.221870 -0.416155 857 0.718186 0.695851 0.000000
-27.612669 -25.223673 -0.404697 843 0.718186 0.695851 0.000000
-27.610649 -25.221836 -0.393185 837 0.718186 0.695851 0.000000
-27.609829 -25.221085 -0.381682 863 0.718186 0.695851 0.000000
-27.609097 -25.220415 -0.370189 841 0.718186 0.695851 0.000000
-27.608532 -25.219893 -0.358704 823 0.718186 0.695851 0.000000
-27.610497 -25.221685 -0.347235 825 0.718186 0.695851 0.000000
-27.611654 -25.222754 -0.335764 841 0.718186 0.695851 0.000000
-27.612808 -25.223803 -0.324293 825 0.718186 0.695851 0.000000
-27.613741 -25.224657 -0.312825 811 0.718186 0.695851 0.000000
-27.610674 -25.221863 -0.301303 827 0.718186 0.695851 0.000000
-27.618248 -25.213886 -0.657384 857 0.718186 0.695851 0.000000
-27.619368 -25.214909 -0.645914 839 0.718186 0.695851 0.000000
-27.619234 -25.214792 -0.634424 827 0.718186 0.695851 0.000000
-27.618948 -25.214525 -0.622937 831 0.718186 0.695851 0.000000
-27.619631 -25.215155 -0.611460 841 0.718186 0.695851 0.000000
-27.616560 -25.212360 -0.599908 853 0.718186 0.695851 0.000000
-27.617519 -25.213230 -0.588439 849 0.718186 0.695851 0.000000
-27.619804 -25.215315 -0.576998 841 0.718186 0.695851 0.000000
-27.619879 -25.215385 -0.565517 843 0.718186 0.695851 0.000000
-27.621149 -25.216541 -0.554055 867 0.718186 0.695851 0.000000
-27.621693 -25.217047 -0.542570 843 0.718186 0.695851 0.000000
-27.618889 -25.214487 -0.531035 887 0.718186 0.695851 0.000000
-27.617981 -25.213655 -0.519533 855 0.718186 0.695851 0.000000
-27.618031 -25.213705 -0.508043 843 0.718186 0.695851 0.000000
-27.617781 -25.213469 -0.496555 845 0.718186 0.695851 0.000000
-27.616961 -25.212719 -0.485052 863 0.718186 0.695851 0.000000
-27.616203 -25.212030 -0.473559 849 0.718186 0.695851 0.000000
-27.616573 -25.212374 -0.462075 839 0.718186 0.695851 0.000000
-27.615700 -25.211580 -0.450583 837 0.718186 0.695851 0.000000
-27.618176 -25.213842 -0.439130 841 0.718186 0.695851 0.000000
-27.619730 -25.215261 -0.427665 837 0.718186 0.695851 0.000000
-27.621559 -25.216921 -0.416208 827 0.718186 0.695851 0.000000
-27.621920 -25.217257 -0.404724 841 0.718186 0.695851 0.000000
-27.621954 -25.217285 -0.393244 839 0.718186 0.695851 0.000000
-27.620361 -25.215834 -0.381728 825 0.718186 0.695851 0.000000
-27.619585 -25.215130 -0.370235 811 0.718186 0.695851 0.000000
-27.618149 -25.213818 -0.358728 795 0.718186 0.695851 0.000000
-27.618711 -25.214334 -0.347252 843 0.718186 0.695851 0.000000
-27.619759 -25.215290 -0.335783 801 0.718186 0.695851 0.000000
-27.616148 -25.211992 -0.324256 797 0.718186 0.695851 0.000000
-27.618549 -25.214182 -0.312793 797 0.718186 0.695851 0.000000
-27.617844 -25.213547 -0.301299 809 0.718186 0.695851 0.000000
-27.624884 -25.204779 -0.657367 819 0.718186 0.695851 0.000000
-27.625946 -25.205744 -0.645897 821 0.718186 0.695851 0.000000
-27.625595 -25.205429 -0.634410 805 0.718186 0.695851 0.000000
-27.623150 -25.203205 -0.622863 811 0.718186 0.695851 0.000000
-27.623878 -25.203867 -0.611396 797 0.718186 0.695851 0.000000
-27.624943 -25.204834 -0.599926 803 0.718186 0.695851 0.000000
-27.624905 -25.204803 -0.588446 799 0.718186 0.695851 0.000000
-27.628597 -25.208166 -0.577031 825 0.718186 0.695851 0.000000
-27.629263 -25.208780 -0.565555 835 0.718186 0.695851 0.000000
-27.625055 -25.204947 -0.553983 805 0.718186 0.695851 0.000000
-27.624222 -25.204185 -0.542481 799 0.718186 0.695851 0.000000
-27.623898 -25.203890 -0.530993 795 0.718186 0.695851 0.000000
-27.626228 -25.206011 -0.519552 831 0.718186 0.695851 0.000000
-27.628403 -25.207996 -0.508101 841 0.718186 0.695851 0.000000
-27.624996 -25.204895 -0.496553 803 0.718186 0.695851 0.000000
-27.627062 -25.206768 -0.485103 821 0.718186 0.695851 0.000000
-27.629595 -25.209089 -0.473660 839 0.718186 0.695851 0.000000
-27.628607 -25.208193 -0.462158 837 0.718186 0.695851 0.000000
-27.629145 -25.208681 -0.450673 819 0.718186 0.695851 0.000000
-27.626003 -25.205816 -0.439142 815 0.718186 0.695851 0.000000
-27.624052 -25.204031 -0.427630 821 0.718186 0.695851 0.000000
-27.626686 -25.206430 -0.416175 809 0.718186 0.695851 0.000000
-27.626495 -25.206268 -0.404687 807 0.718186 0.695851 0.000000
-27.624483 -25.204435 -0.393175 825 0.718186 0.695851 0.000000
-27.625320 -25.205198 -0.381707 777 0.718186 0.695851 0.000000
-27.626753 -25.206493 -0.370233 803 0.718186 0.695851 0.000000
-27.627527 -25.207207 -0.358756 827 0.718186 0.695851 0.000000
-27.625719 -25.205561 -0.347252 803 0.718186 0.695851 0.000000
-27.624231 -25.204206 -0.335746 803 0.718186 0.695851 0.000000
-27.625814 -25.205647 -0.324281 785 0.718186 0.695851 0.000000
-27.622801 -25.202896 -0.312769 785 0.718186 0.695851 0.000000
-27.619301 -25.199713 -0.301240 777 0.718186 0.695851 0.000000
