761
-12.615619 -11.890038 -0.402851 797 0.727041 0.686594 0.000000
-12.615225 -11.889672 -0.397514 801 0.727041 0.686594 0.000000
-12.615839 -11.890255 -0.392208 797 0.727041 0.686594 0.000000
-12.616627 -11.890991 -0.386901 787 0.727041 0.686594 0.000000
-12.617082 -11.891418 -0.381586 789 0.727041 0.686594 0.000000
-12.616844 -11.891193 -0.376248 781 0.727041 0.686594 0.000000
-12.615850 -11.890265 -0.370898 803 0.727041 0.686594 0.000000
-12.615713 -11.890138 -0.365569 787 0.727041 0.686594 0.000000
-12.616012 -11.890411 -0.360246 783 0.727041 0.686594 0.000000
-12.616144 -11.890538 -0.354924 785 0.727041 0.686594 0.000000
-12.616743 -11.891108 -0.349619 785 0.727041 0.686594 0.000000
-12.616655 -11.891031 -0.344289 775 0.727041 0.686594 0.000000
-12.617269 -11.891600 -0.338983 801 0.727041 0.686594 0.000000
-12.617441 -11.891772 -0.333662 783 0.727041 0.686594 0.000000
-12.616075 -11.890478 -0.328294 787 0.727041 0.686594 0.000000
-12.615506 -11.889946 -0.322960 781 0.727041 0.686594 0.000000
-12.616055 -11.890465 -0.317644 779 0.727041 0.686594 0.000000
-12.616497 -11.890880 -0.312330 775 0.727041 0.686594 0.000000
-12.616614 -11.890995 -0.307009 759 0.727041 0.686594 0.000000
-12.617371 -11.891706 -0.301702 805 0.727041 0.686594 0.000000
-12.617858 -11.892172 -0.296387 779 0.727041 0.686594 0.000000
-12.619877 -11.886594 -0.685314 819 0.727041 0.686594 0.000000
-12.619442 -11.886184 -0.679958 809 0.727041 0.686594 0.000000
-12.618622 -11.885422 -0.674586 791 0.727041 0.686594 0.000000
-12.619251 -11.886018 -0.669280 795 0.727041 0.686594 0.000000
-12.620472 -11.887156 -0.664018 797 0.727041 0.686594 0.000000
-12.620337 -11.887040 -0.658679 803 0.727041 0.686594 0.000000
-12.620068 -11.886777 -0.653332 807 0.727041 0.686594 0.000000
-12.619774 -11.886508 -0.647984 799 0.727041 0.686594 0.000000
-12.620079 -11.886788 -0.642671 793 0.727041 0.686594 0.000000
-12.620591 -11.887274 -0.637366 807 0.727041 0.686594 0.000000
-12.620520 -11.887211 -0.632027 813 0.727041 0.686594 0.000000
-12.619799 -11.886531 -0.626663 807 0.727041 0.686594 0.000000
-12.619982 -11.886711 -0.621342 803 0.727041 0.686594 0.000000
-12.620285 -11.886990 -0.616029 805 0.727041 0.686594 0.000000
-12.619835 -11.886567 -0.610673 777 0.727041 0.686594 0.000000
-12.621080 -11.887739 -0.605401 795 0.727041 0.686594 0.000000
-12.621111 -11.887771 -0.600070 805 0.727041 0.686594 0.000000
-12.619848 -11.886586 -0.594682 797 0.727041 0.686594 0.000000
-12.619238 -11.886008 -0.589328 805 0.727041 0.686594 0.000000
-12.619418 -11.886173 -0.584006 799 0.727041 0.686594 0.000000
-12.620135 -11.886852 -0.578709 813 0.727041 0.686594 0.000000
-12.619991 -11.886718 -0.573370 811 0.727041 0.686594 0.000000
-12.619848 -11.886582 -0.568031 795 0.727041 0.686594 0.000000
-12.620075 -11.886799 -0.562719 811 0.727041 0.686594 0.000000
-12.619981 -11.886715 -0.557380 807 0.727041 0.686594 0.000000
-12.620104 -11.886824 -0.552059 807 0.727041 0.686594 0.000000
-12.619424 -11.886189 -0.546705 791 0.727041 0.686594 0.000000
-12.618477 -11.885300 -0.541334 797 0.727041 0.686594 0.000000
-12.618436 -11.885260 -0.536004 803 0.727041 0.686594 0.000000
-12.619351 -11.886124 -0.530715 793 0.727041 0.686594 0.000000
-12.620477 -11.887186 -0.525424 813 0.727041 0.686594 0.000000
-12.619686 -11.886436 -0.520072 811 0.727041 0.686594 0.000000
-12.619473 -11.886245 -0.514734 797 0.727041 0.686594 0.000000
-12.621080 -11.887748 -0.509468 817 0.727041 0.686594 0.000000
-12.620282 -11.887005 -0.504106 819 0.727041 0.686594 0.000000
-12.619911 -11.886659 -0.498759 807 0.727041 0.686594 0.000000
-12.620658 -11.887362 -0.493462 817 0.727041 0.686594 0.000000
-12.620767 -11.887457 -0.488141 837 0.727041 0.686594 0.000000
-12.619962 -11.886708 -0.482778 831 0.727041 0.686594 0.000000
-12.619967 -11.886706 -0.477448 781 0.727041 0.686594 0.000000
-12.621339 -11.888006 -0.472175 799 0.727041 0.686594 0.000000
-12.620273 -11.886993 -0.466805 797 0.727041 0.686594 0.000000
-12.619199 -11.885988 -0.461445 803 0.727041 0.686594 0.000000
-12.619616 -11.886386 -0.456131 787 0.727041 0.686594 0.000000
-12.620040 -11.886774 -0.450817 801 0.727041 0.686594 0.000000
-12.620244 -11.886972 -0.445495 789 0.727041 0.686594 0.000000
-12.619645 -11.886415 -0.440150 787 0.727041 0.686594 0.000000
-12.618995 -11.885793 -0.434796 793 0.727041 0.686594 0.000000
-12.619308 -11.886094 -0.429483 773 0.727041 0.686594 0.000000
-12.619127 -11.885927 -0.424155 777 0.727041 0.686594 0.000000
-12.620174 -11.886912 -0.418855 809 0.727041 0.686594 0.000000
-12.619843 -11.886598 -0.413518 775 0.727041 0.686594 0.000000
-12.618594 -11.885427 -0.408159 769 0.727041 0.686594 0.000000
-12.618687 -11.885509 -0.402828 781 0.727041 0.686594 0.000000
-12.619460 -11.886245 -0.397531 785 0.727041 0.686594 0.000000
-12.619867 -11.886621 -0.392217 787 0.727041 0.686594 0.000000
-12.619843 -11.886608 -0.386887 795 0.727041 0.686594 0.000000
-12.619818 -11.886581 -0.381557 789 0.727041 0.686594 0.000000
-12.619952 -11.886710 -0.376236 799 0.727041 0.686594 0.000000
-12.619452 -11.886234 -0.370900 773 0.727041 0.686594 0.000000
-12.619214 -11.886011 -0.365563 779 0.727041 0.686594 0.000000
-12.620348 -11.887078 -0.360272 785 0.727041 0.686594 0.000000
-12.620955 -11.887654 -0.354956 791 0.727041 0.686594 0.000000
-12.620716 -11.887429 -0.349628 773 0.727041 0.686594 0.000000
-12.620046 -11.886803 -0.344284 773 0.727041 0.686594 0.000000
-12.620061 -11.886822 -0.338954 801 0.727041 0.686594 0.000000
-12.620390 -11.887134 -0.333641 791 0.727041 0.686594 0.000000
-12.620467 -11.887204 -0.328320 783 0.727041 0.686594 0.000000
-12.620488 -11.887216 -0.322989 773 0.727041 0.686594 0.000000
-12.620338 -11.887088 -0.317661 785 0.727041 0.686594 0.000000
-12.620197 -11.886953 -0.312332 761 0.727041 0.686594 0.000000
-12.621013 -11.887712 -0.307024 783 0.727041 0.686594 0.000000
-12.620642 -11.887367 -0.301688 779 0.727041 0.686594 0.000000
-12.619750 -11.886535 -0.296346 781 0.727041 0.686594 0.000000
-12.623472 -11.882557 -0.685307 803 0.727041 0.686594 0.000000
-12.623509 -11.882594 -0.679977 799 0.727041 0.686594 0.000000
-12.622972 -11.882088 -0.674622 803 0.727041 0.686594 0.000000
-12.622374 -11.881533 -0.669257 785 0.727041 0.686594 0.000000
-12.622040 -11.881218 -0.663910 773 0.727041 0.686594 0.000000
-12.622614 -11.881754 -0.658605 785 0.727041 0.686594 0.000000
-12.623915 -11.882983 -0.653342 785 0.727041 0.686594 0.000000
-12.624119 -11.883182 -0.648020 793 0.727041 0.686594 0.000000
-12.623249 -11.882355 -0.642648 779 0.727041 0.686594 0.000000
-12.622798 -11.881931 -0.637292 771 0.727041 0.686594 0.000000
-12.623474 -11.882564 -0.631996 785 0.727041 0.686594 0.000000
-12.624468 -11.883505 -0.626716 803 0.727041 0.686594 0.000000
-12.625184 -11.884183 -0.621419 795 0.727041 0.686594 0.000000
-12.624307 -11.883350 -0.616048 803 0.727041 0.686594 0.000000
-12.623643 -11.882728 -0.610684 791 0.727041 0.686594 0.000000
-12.624038 -11.883107 -0.605370 813 0.727041 0.686594 0.000000
-12.623900 -11.882978 -0.600031 813 0.727041 0.686594 0.000000
-12.624309 -11.883353 -0.594717 817 0.727041 0.686594 0.000000
-12.624434 -11.883474 -0.589396 803 0.727041 0.686594 0.000000
-12.624078 -11.883141 -0.584049 781 0.727041 0.686594 0.000000
-12.623839 -11.882917 -0.578711 807 0.727041 0.686594 0.000000
-12.623910 -11.882981 -0.573380 811 0.727041 0.686594 0.000000
-12.624295 -11.883351 -0.568066 809 0.727041 0.686594 0.000000
-12.624152 -11.883217 -0.562738 815 0.727041 0.686594 0.000000
-12.624111 -11.883177 -0.557398 811 0.727041 0.686594 0.000000
-12.623172 -11.882294 -0.552037 809 0.727041 0.686594 0.000000
-12.622272 -11.881455 -0.546665 795 0.727041 0.686594 0.000000
-12.622925 -11.882069 -0.541369 813 0.727041 0.686594 0.000000
-12.623476 -11.882587 -0.536063 793 0.727041 0.686594 0.000000
-12.623482 -11.882586 -0.530733 791 0.727041 0.686594 0.000000
-12.623859 -11.882951 -0.525419 821 0.727041 0.686594 0.000000
-12.623708 -11.882810 -0.520081 805 0.727041 0.686594 0.000000
-12.622484 -11.881657 -0.514702 807 0.727041 0.686594 0.000000
-12.622435 -11.881611 -0.509372 779 0.727041 0.686594 0.000000
-12.623191 -11.882320 -0.504075 781 0.727041 0.686594 0.000000
-12.623883 -11.882979 -0.498779 801 0.727041 0.686594 0.000000
-12.623931 -11.883024 -0.493448 787 0.727041 0.686594 0.000000
-12.623675 -11.882772 -0.488110 813 0.727041 0.686594 0.000000
-12.623667 -11.882773 -0.482780 805 0.727041 0.686594 0.000000
-12.624203 -11.883279 -0.477475 799 0.727041 0.686594 0.000000
-12.624619 -11.883675 -0.472161 819 0.727041 0.686594 0.000000
-12.624294 -11.883367 -0.466824 799 0.727041 0.686594 0.000000
-12.624553 -11.883610 -0.461501 815 0.727041 0.686594 0.000000
-12.624235 -11.883307 -0.456164 811 0.727041 0.686594 0.000000
-12.623903 -11.882994 -0.450827 803 0.727041 0.686594 0.000000
-12.623414 -11.882539 -0.445482 805 0.727041 0.686594 0.000000
-12.623349 -11.882480 -0.440152 803 0.727041 0.686594 0.000000
-12.623866 -11.882959 -0.434837 801 0.727041 0.686594 0.000000
-12.623164 -11.882307 -0.429494 795 0.727041 0.686594 0.000000
-12.622620 -11.881795 -0.424149 785 0.727041 0.686594 0.000000
-12.622650 -11.881826 -0.418818 791 0.727041 0.686594 0.000000
-12.622799 -11.881967 -0.413497 769 0.727041 0.686594 0.000000
-12.623152 -11.882298 -0.408183 777 0.727041 0.686594 0.000000
-12.623457 -11.882578 -0.402870 779 0.727041 0.686594 0.000000
-12.623323 -11.882464 -0.397531 767 0.727041 0.686594 0.000000
-12.622082 -11.881284 -0.392173 781 0.727041 0.686594 0.000000
-12.622635 -11.881817 -0.386868 783 0.727041 0.686594 0.000000
-12.623846 -11.882948 -0.381576 781 0.727041 0.686594 0.000000
-12.624406 -11.883485 -0.376261 775 0.727041 0.686594 0.000000
-12.624428 -11.883497 -0.370940 777 0.727041 0.686594 0.000000
-12.624032 -11.883133 -0.365594 775 0.727041 0.686594 0.000000
-12.623897 -11.883003 -0.360265 775 0.727041 0.686594 0.000000
-12.623911 -11.883022 -0.354945 783 0.727041 0.686594 0.000000
-12.624258 -11.883348 -0.349621 779 0.727041 0.686594 0.000000
-12.623270 -11.882414 -0.344271 783 0.727041 0.686594 0.000000
-12.622652 -11.881829 -0.338926 777 0.727041 0.686594 0.000000
-12.623307 -11.882458 -0.333620 765 0.727041 0.686594 0.000000
-12.623431 -11.882565 -0.328299 777 0.727041 0.686594 0.000000
-12.623337 -11.882482 -0.322970 767 0.727041 0.686594 0.000000
-12.623249 -11.882405 -0.317640 779 0.727041 0.686594 0.000000
-12.623426 -11.882569 -0.312318 759 0.727041 0.686594 0.000000
-12.623701 -11.882824 -0.307006 777 0.727041 0.686594 0.000000
-12.623978 -11.883095 -0.301683 779 0.727041 0.686594 0.000000
-12.623620 -11.882747 -0.296356 785 0.727041 0.686594 0.000000
-12.627148 -11.878753 -0.685309 767 0.727041 0.686594 0.000000
-12.627195 -11.878798 -0.679988 767 0.727041 0.686594 0.000000
-12.627398 -11.878982 -0.674666 777 0.727041 0.686594 0.000000
-12.627058 -11.878675 -0.669309 769 0.727041 0.686594 0.000000
-12.627845 -11.879410 -0.664021 777 0.727041 0.686594 0.000000
-12.627835 -11.879396 -0.658691 793 0.727041 0.686594 0.000000
-12.627812 -11.879385 -0.653361 793 0.727041 0.686594 0.000000
-12.628226 -11.879766 -0.648047 795 0.727041 0.686594 0.000000
-12.627359 -11.878954 -0.642675 763 0.727041 0.686594 0.000000
-12.627120 -11.878728 -0.637328 785 0.727041 0.686594 0.000000
-12.625984 -11.877660 -0.631938 795 0.727041 0.686594 0.000000
-12.625855 -11.877537 -0.626609 795 0.727041 0.686594 0.000000
-12.627527 -11.879118 -0.621353 783 0.727041 0.686594 0.000000
-12.628362 -11.879904 -0.616065 797 0.727041 0.686594 0.000000
-12.627854 -11.879423 -0.610710 795 0.727041 0.686594 0.000000
-12.626389 -11.878048 -0.605314 779 0.727041 0.686594 0.000000
-12.625881 -11.877566 -0.599958 799 0.727041 0.686594 0.000000
-12.626597 -11.878244 -0.594661 785 0.727041 0.686594 0.000000
-12.628111 -11.879672 -0.589397 811 0.727041 0.686594 0.000000
-12.628881 -11.880394 -0.584100 811 0.727041 0.686594 0.000000
-12.628414 -11.879958 -0.578754 801 0.727041 0.686594 0.000000
-12.627475 -11.879074 -0.573383 789 0.727041 0.686594 0.000000
-12.626757 -11.878395 -0.568019 775 0.727041 0.686594 0.000000
-12.626716 -11.878356 -0.562690 773 0.727041 0.686594 0.000000
-12.626992 -11.878625 -0.557377 777 0.727041 0.686594 0.000000
-12.628235 -11.879796 -0.552095 811 0.727041 0.686594 0.000000
-12.628408 -11.879955 -0.546773 817 0.727041 0.686594 0.000000
-12.627995 -11.879563 -0.541427 815 0.727041 0.686594 0.000000
-12.627198 -11.878820 -0.536064 793 0.727041 0.686594 0.000000
-12.626740 -11.878378 -0.530719 793 0.727041 0.686594 0.000000
-12.627172 -11.878787 -0.525404 789 0.727041 0.686594 0.000000
-12.627548 -11.879151 -0.520091 825 0.727041 0.686594 0.000000
-12.627351 -11.878959 -0.514752 803 0.727041 0.686594 0.000000
-12.626284 -11.877959 -0.509382 799 0.727041 0.686594 0.000000
-12.625753 -11.877460 -0.504037 783 0.727041 0.686594 0.000000
-12.626605 -11.878261 -0.498739 793 0.727041 0.686594 0.000000
-12.627676 -11.879263 -0.493459 813 0.727041 0.686594 0.000000
-12.627462 -11.879071 -0.488121 797 0.727041 0.686594 0.000000
-12.627516 -11.879123 -0.482790 799 0.727041 0.686594 0.000000
-12.627673 -11.879270 -0.477468 791 0.727041 0.686594 0.000000
-12.627662 -11.879254 -0.472138 801 0.727041 0.686594 0.000000
-12.627605 -11.879203 -0.466809 821 0.727041 0.686594 0.000000
-12.627447 -11.879055 -0.461480 811 0.727041 0.686594 0.000000
-12.627705 -11.879298 -0.456158 817 0.727041 0.686594 0.000000
-12.627367 -11.878991 -0.450821 817 0.727041 0.686594 0.000000
-12.626986 -11.878625 -0.445484 787 0.727041 0.686594 0.000000
-12.626873 -11.878514 -0.440145 791 0.727041 0.686594 0.000000
-12.627874 -11.879463 -0.434856 795 0.727041 0.686594 0.000000
-12.627700 -11.879303 -0.429527 781 0.727041 0.686594 0.000000
-12.626885 -11.878532 -0.424165 789 0.727041 0.686594 0.000000
-12.627295 -11.878923 -0.418851 809 0.727041 0.686594 0.000000
-12.627232 -11.878866 -0.413531 781 0.727041 0.686594 0.000000
-12.626842 -11.878493 -0.408185 767 0.727041 0.686594 0.000000
-12.627407 -11.879023 -0.402879 785 0.727041 0.686594 0.000000
-12.627495 -11.879113 -0.397558 777 0.727041 0.686594 0.000000
-12.627841 -11.879440 -0.392235 779 0.727041 0.686594 0.000000
-12.628248 -11.879815 -0.386921 801 0.727041 0.686594 0.000000
-12.627899 -11.879488 -0.381584 799 0.727041 0.686594 0.000000
-12.628247 -11.879828 -0.376271 777 0.727041 0.686594 0.000000
-12.627521 -11.879143 -0.370927 773 0.727041 0.686594 0.000000
-12.627123 -11.878764 -0.365581 785 0.727041 0.686594 0.000000
-12.627044 -11.878693 -0.360252 773 0.727041 0.686594 0.000000
-12.626749 -11.878409 -0.354924 767 0.727041 0.686594 0.000000
-12.626560 -11.878237 -0.349596 761 0.727041 0.686594 0.000000
-12.627008 -11.878660 -0.344282 773 0.727041 0.686594 0.000000
-12.627882 -11.879478 -0.338973 775 0.727041 0.686594 0.000000
-12.626666 -11.878345 -0.333614 755 0.727041 0.686594 0.000000
-12.625996 -11.877718 -0.328271 745 0.727041 0.686594 0.000000
-12.626650 -11.878331 -0.322964 761 0.727041 0.686594 0.000000
-12.627199 -11.878850 -0.317649 755 0.727041 0.686594 0.000000
-12.626992 -11.878650 -0.312321 753 0.727041 0.686594 0.000000
-12.627543 -11.879168 -0.307016 775 0.727041 0.686594 0.000000
-12.627872 -11.879481 -0.301692 783 0.727041 0.686594 0.000000
-12.627674 -11.879288 -0.296364 765 0.727041 0.686594 0.000000
-12.630973 -11.874799 -0.685320 787 0.727041 0.686594 0.000000
-12.630751 -11.874587 -0.679972 791 0.727041 0.686594 0.000000
-12.630584 -11.874434 -0.674633 783 0.727041 0.686594 0.000000
-12.629983 -11.873863 -0.669269 779 0.727041 0.686594 0.000000
-12.630454 -11.874303 -0.663964 791 0.727041 0.686594 0.000000
-12.631652 -11.875436 -0.658693 787 0.727041 0.686594 0.000000
-12.631265 -11.875077 -0.653346 787 0.727041 0.686594 0.000000
-12.631302 -11.875115 -0.648016 787 0.727041 0.686594 0.000000
-12.631175 -11.874993 -0.642677 789 0.727041 0.686594 0.000000
-12.630945 -11.874774 -0.637329 781 0.727041 0.686594 0.000000
-12.631030 -11.874850 -0.632008 795 0.727041 0.686594 0.000000
-12.630799 -11.874631 -0.626660 791 0.727041 0.686594 0.000000
-12.630555 -11.874415 -0.621322 775 0.727041 0.686594 0.000000
-12.629519 -11.873441 -0.615942 765 0.727041 0.686594 0.000000
-12.630189 -11.874068 -0.610646 771 0.727041 0.686594 0.000000
-12.630905 -11.874745 -0.605349 787 0.727041 0.686594 0.000000
-12.630982 -11.874816 -0.600018 791 0.727041 0.686594 0.000000
-12.631060 -11.874885 -0.594697 777 0.727041 0.686594 0.000000
-12.630498 -11.874359 -0.589342 785 0.727041 0.686594 0.000000
-12.630947 -11.874781 -0.584028 771 0.727041 0.686594 0.000000
-12.632032 -11.875798 -0.578747 785 0.727041 0.686594 0.000000
-12.630928 -11.874767 -0.573368 785 0.727041 0.686594 0.000000
-12.630414 -11.874280 -0.568012 801 0.727041 0.686594 0.000000
-12.630964 -11.874798 -0.562717 793 0.727041 0.686594 0.000000
-12.630768 -11.874619 -0.557379 771 0.727041 0.686594 0.000000
-12.631160 -11.874984 -0.552065 775 0.727041 0.686594 0.000000
-12.632129 -11.875891 -0.546776 797 0.727041 0.686594 0.000000
-12.632505 -11.876255 -0.541462 807 0.727041 0.686594 0.000000
-12.631346 -11.875168 -0.536083 807 0.727041 0.686594 0.000000
-12.630824 -11.874673 -0.530728 797 0.727041 0.686594 0.000000
-12.630893 -11.874737 -0.525407 803 0.727041 0.686594 0.000000
-12.630466 -11.874333 -0.520061 801 0.727041 0.686594 0.000000
-12.631221 -11.875042 -0.514763 811 0.727041 0.686594 0.000000
-12.631330 -11.875150 -0.509442 797 0.727041 0.686594 0.000000
-12.630162 -11.874057 -0.504063 801 0.727041 0.686594 0.000000
-12.630594 -11.874453 -0.498749 791 0.727041 0.686594 0.000000
-12.631176 -11.875009 -0.493443 783 0.727041 0.686594 0.000000
-12.631340 -11.875160 -0.488122 803 0.727041 0.686594 0.000000
-12.631331 -11.875162 -0.482802 793 0.727041 0.686594 0.000000
-12.630755 -11.874611 -0.477447 805 0.727041 0.686594 0.000000
-12.630477 -11.874353 -0.472109 789 0.727041 0.686594 0.000000
-12.629886 -11.873803 -0.466765 793 0.727041 0.686594 0.000000
-12.629774 -11.873693 -0.461426 785 0.727041 0.686594 0.000000
-12.630828 -11.874685 -0.456136 801 0.727041 0.686594 0.000000
-12.631726 -11.875535 -0.450847 797 0.727041 0.686594 0.000000
-12.631874 -11.875675 -0.445526 787 0.727041 0.686594 0.000000
-12.631975 -11.875764 -0.440195 789 0.727041 0.686594 0.000000
-12.633353 -11.877056 -0.434911 793 0.727041 0.686594 0.000000
-12.633763 -11.877446 -0.429597 803 0.727041 0.686594 0.000000
-12.632735 -11.876478 -0.424237 791 0.727041 0.686594 0.000000
-12.631496 -11.875314 -0.418869 775 0.727041 0.686594 0.000000
-12.630195 -11.874098 -0.413501 789 0.727041 0.686594 0.000000
-12.630288 -11.874181 -0.408180 795 0.727041 0.686594 0.000000
-12.630476 -11.874366 -0.402858 793 0.727041 0.686594 0.000000
-12.630562 -11.874442 -0.397537 793 0.727041 0.686594 0.000000
-12.630441 -11.874325 -0.392208 773 0.727041 0.686594 0.000000
-12.630101 -11.874005 -0.386871 769 0.727041 0.686594 0.000000
-12.631132 -11.874977 -0.381571 777 0.727041 0.686594 0.000000
-12.631700 -11.875507 -0.376266 797 0.727041 0.686594 0.000000
-12.631138 -11.874982 -0.370921 771 0.727041 0.686594 0.000000
-12.631904 -11.875713 -0.365613 775 0.727041 0.686594 0.000000
-12.631987 -11.875788 -0.360292 779 0.727041 0.686594 0.000000
-12.631427 -11.875263 -0.354948 773 0.727041 0.686594 0.000000
-12.630858 -11.874732 -0.349603 765 0.727041 0.686594 0.000000
-12.630502 -11.874399 -0.344276 763 0.727041 0.686594 0.000000
-12.631060 -11.874923 -0.338961 757 0.727041 0.686594 0.000000
-12.631989 -11.875785 -0.333662 777 0.727041 0.686594 0.000000
-12.631734 -11.875546 -0.328324 761 0.727041 0.686594 0.000000
-12.631386 -11.875220 -0.322987 753 0.727041 0.686594 0.000000
-12.631503 -11.875336 -0.317666 761 0.727041 0.686594 0.000000
-12.630713 -11.874599 -0.312323 753 0.727041 0.686594 0.000000
-12.630626 -11.874509 -0.306994 747 0.727041 0.686594 0.000000
-12.631649 -11.875475 -0.301694 759 0.727041 0.686594 0.000000
-12.631924 -11.875731 -0.296372 759 0.727041 0.686594 0.000000
-12.634662 -11.870567 -0.685313 779 0.727041 0.686594 0.000000
-12.635284 -11.871157 -0.680017 787 0.727041 0.686594 0.000000
-12.635597 -11.871443 -0.674694 793 0.727041 0.686594 0.000000
-12.634777 -11.870682 -0.669322 763 0.727041 0.686594 0.000000
-12.634335 -11.870265 -0.663966 781 0.727041 0.686594 0.000000
-12.634379 -11.870309 -0.658635 793 0.727041 0.686594 0.000000
-12.634526 -11.870435 -0.653314 761 0.727041 0.686594 0.000000
-12.635733 -11.871574 -0.648042 789 0.727041 0.686594 0.000000
-12.635178 -11.871056 -0.642687 789 0.727041 0.686594 0.000000
-12.634414 -11.870338 -0.637315 773 0.727041 0.686594 0.000000
-12.634766 -11.870669 -0.632001 765 0.727041 0.686594 0.000000
-12.635434 -11.871297 -0.626705 789 0.727041 0.686594 0.000000
-12.634931 -11.870831 -0.621349 767 0.727041 0.686594 0.000000
-12.635495 -11.871360 -0.616044 777 0.727041 0.686594 0.000000
-12.635842 -11.871686 -0.610730 797 0.727041 0.686594 0.000000
-12.634963 -11.870852 -0.605359 775 0.727041 0.686594 0.000000
-12.634773 -11.870680 -0.600020 773 0.727041 0.686594 0.000000
-12.634104 -11.870053 -0.594656 773 0.727041 0.686594 0.000000
-12.633747 -11.869720 -0.589310 759 0.727041 0.686594 0.000000
-12.634675 -11.870594 -0.584031 803 0.727041 0.686594 0.000000
-12.635715 -11.871560 -0.578741 795 0.727041 0.686594 0.000000
-12.635674 -11.871534 -0.573411 799 0.727041 0.686594 0.000000
-12.635854 -11.871700 -0.568089 799 0.727041 0.686594 0.000000
-12.635820 -11.871667 -0.562759 783 0.727041 0.686594 0.000000
-12.635298 -11.871173 -0.557404 787 0.727041 0.686594 0.000000
-12.635376 -11.871243 -0.552083 809 0.727041 0.686594 0.000000
-12.635282 -11.871161 -0.546744 799 0.727041 0.686594 0.000000
-12.634758 -11.870667 -0.541399 795 0.727041 0.686594 0.000000
-12.633590 -11.869572 -0.536020 755 0.727041 0.686594 0.000000
-12.633282 -11.869290 -0.530673 785 0.727041 0.686594 0.000000
-12.633658 -11.869640 -0.525369 783 0.727041 0.686594 0.000000
-12.633516 -11.869507 -0.520030 783 0.727041 0.686594 0.000000
-12.634255 -11.870203 -0.514733 795 0.727041 0.686594 0.000000
-12.634798 -11.870714 -0.509428 789 0.727041 0.686594 0.000000
-12.634915 -11.870816 -0.504097 783 0.727041 0.686594 0.000000
-12.635710 -11.871571 -0.498799 803 0.727041 0.686594 0.000000
-12.636135 -11.871973 -0.493495 787 0.727041 0.686594 0.000000
-12.635392 -11.871275 -0.488132 797 0.727041 0.686594 0.000000
-12.634965 -11.870872 -0.482796 789 0.727041 0.686594 0.000000
-12.635334 -11.871217 -0.477472 795 0.727041 0.686594 0.000000
-12.635710 -11.871567 -0.472158 817 0.727041 0.686594 0.000000
-12.634472 -11.870416 -0.466790 795 0.727041 0.686594 0.000000
-12.634251 -11.870204 -0.461452 791 0.727041 0.686594 0.000000
-12.634626 -11.870555 -0.456138 791 0.727041 0.686594 0.000000
-12.634926 -11.870843 -0.450825 791 0.727041 0.686594 0.000000
-12.635507 -11.871386 -0.445520 791 0.727041 0.686594 0.000000
-12.635120 -11.871027 -0.440173 783 0.727041 0.686594 0.000000
-12.635056 -11.870970 -0.434844 791 0.727041 0.686594 0.000000
-12.635100 -11.870999 -0.429523 795 0.727041 0.686594 0.000000
-12.635085 -11.870994 -0.424193 783 0.727041 0.686594 0.000000
-12.635706 -11.871581 -0.418887 789 0.727041 0.686594 0.000000
-12.635428 -11.871312 -0.413550 781 0.727041 0.686594 0.000000
-12.635143 -11.871049 -0.408212 777 0.727041 0.686594 0.000000
-12.634795 -11.870723 -0.402875 773 0.727041 0.686594 0.000000
-12.634140 -11.870108 -0.397531 783 0.727041 0.686594 0.000000
-12.634809 -11.870733 -0.392225 785 0.727041 0.686594 0.000000
-12.635217 -11.871124 -0.386911 781 0.727041 0.686594 0.000000
-12.635406 -11.871297 -0.381589 777 0.727041 0.686594 0.000000
-12.635489 -11.871371 -0.376258 793 0.727041 0.686594 0.000000
-12.634181 -11.870150 -0.370900 773 0.727041 0.686594 0.000000
-12.634313 -11.870278 -0.365579 753 0.727041 0.686594 0.000000
-12.635243 -11.871154 -0.360280 765 0.727041 0.686594 0.000000
-12.635374 -11.871267 -0.354959 769 0.727041 0.686594 0.000000
-12.635666 -11.871551 -0.349636 747 0.727041 0.686594 0.000000
-12.635995 -11.871861 -0.344323 759 0.727041 0.686594 0.000000
-12.635537 -11.871433 -0.338977 763 0.727041 0.686594 0.000000
-12.636198 -11.872053 -0.333670 749 0.727041 0.686594 0.000000
-12.635896 -11.871764 -0.328333 737 0.727041 0.686594 0.000000
-12.636077 -11.871930 -0.323011 767 0.727041 0.686594 0.000000
-12.636090 -11.871948 -0.317691 747 0.727041 0.686594 0.000000
-12.635254 -11.871161 -0.312339 763 0.727041 0.686594 0.000000
-12.636065 -11.871928 -0.307031 775 0.727041 0.686594 0.000000
-12.635653 -11.871537 -0.301705 759 0.727041 0.686594 0.000000
-12.634697 -11.870641 -0.296354 739 0.727041 0.686594 0.000000
-12.640181 -11.868194 -0.685409 783 0.727041 0.686594 0.000000
-12.640013 -11.868039 -0.680060 779 0.727041 0.686594 0.000000
-12.638300 -11.866426 -0.674646 783 0.727041 0.686594 0.000000
-12.638125 -11.866265 -0.669298 775 0.727041 0.686594 0.000000
-12.639229 -11.867308 -0.664027 777 0.727041 0.686594 0.000000
-12.639534 -11.867589 -0.658714 785 0.727041 0.686594 0.000000
-12.639360 -11.867429 -0.653376 765 0.727041 0.686594 0.000000
-12.639500 -11.867561 -0.648044 773 0.727041 0.686594 0.000000
-12.639854 -11.867893 -0.642731 797 0.727041 0.686594 0.000000
-12.639089 -11.867177 -0.637368 769 0.727041 0.686594 0.000000
-12.637840 -11.866005 -0.631970 765 0.727041 0.686594 0.000000
-12.638186 -11.866330 -0.626656 781 0.727041 0.686594 0.000000
-12.638539 -11.866663 -0.621343 779 0.727041 0.686594 0.000000
-12.638144 -11.866284 -0.615996 779 0.727041 0.686594 0.000000
-12.638812 -11.866911 -0.610700 773 0.727041 0.686594 0.000000
-12.639466 -11.867539 -0.605394 767 0.727041 0.686594 0.000000
-12.639394 -11.867460 -0.600064 769 0.727041 0.686594 0.000000
-12.639100 -11.867191 -0.594717 779 0.727041 0.686594 0.000000
-12.639328 -11.867409 -0.589395 773 0.727041 0.686594 0.000000
-12.638349 -11.866479 -0.584024 779 0.727041 0.686594 0.000000
-12.638253 -11.866396 -0.578695 767 0.727041 0.686594 0.000000
-12.639134 -11.867221 -0.573396 777 0.727041 0.686594 0.000000
-12.638984 -11.867080 -0.568067 791 0.727041 0.686594 0.000000
-12.638461 -11.866599 -0.562712 789 0.727041 0.686594 0.000000
-12.638704 -11.866815 -0.557390 777 0.727041 0.686594 0.000000
-12.639348 -11.867422 -0.552094 805 0.727041 0.686594 0.000000
-12.639523 -11.867596 -0.546772 805 0.727041 0.686594 0.000000
-12.638788 -11.866904 -0.541409 807 0.727041 0.686594 0.000000
-12.638746 -11.866864 -0.536079 785 0.727041 0.686594 0.000000
-12.638966 -11.867076 -0.530757 777 0.727041 0.686594 0.000000
-12.637963 -11.866128 -0.525386 781 0.727041 0.686594 0.000000
-12.638183 -11.866339 -0.520074 765 0.727041 0.686594 0.000000
-12.638293 -11.866447 -0.514743 781 0.727041 0.686594 0.000000
-12.638888 -11.867002 -0.509437 769 0.727041 0.686594 0.000000
-12.639526 -11.867603 -0.504141 785 0.727041 0.686594 0.000000
-12.638516 -11.866650 -0.498770 781 0.727041 0.686594 0.000000
-12.638254 -11.866405 -0.493432 789 0.727041 0.686594 0.000000
-12.638569 -11.866706 -0.488119 775 0.727041 0.686594 0.000000
-12.639055 -11.867160 -0.482805 777 0.727041 0.686594 0.000000
-12.638890 -11.867006 -0.477466 795 0.727041 0.686594 0.000000
-12.639102 -11.867210 -0.472154 803 0.727041 0.686594 0.000000
-12.639463 -11.867549 -0.466840 783 0.727041 0.686594 0.000000
-12.638877 -11.866990 -0.461486 763 0.727041 0.686594 0.000000
-12.638970 -11.867087 -0.456165 779 0.727041 0.686594 0.000000
-12.638702 -11.866837 -0.450827 763 0.727041 0.686594 0.000000
-12.638370 -11.866523 -0.445490 777 0.727041 0.686594 0.000000
-12.639693 -11.867771 -0.440208 785 0.727041 0.686594 0.000000
-12.640108 -11.868153 -0.434894 791 0.727041 0.686594 0.000000
-12.638806 -11.866937 -0.429516 775 0.727041 0.686594 0.000000
-12.639067 -11.867180 -0.424203 781 0.727041 0.686594 0.000000
-12.639639 -11.867715 -0.418888 781 0.727041 0.686594 0.000000
-12.638551 -11.866698 -0.413528 761 0.727041 0.686594 0.000000
-12.638856 -11.866979 -0.408215 771 0.727041 0.686594 0.000000
-12.639368 -11.867465 -0.402900 779 0.727041 0.686594 0.000000
-12.639571 -11.867649 -0.397578 777 0.727041 0.686594 0.000000
-12.640027 -11.868078 -0.392263 777 0.727041 0.686594 0.000000
-12.640483 -11.868506 -0.386959 763 0.727041 0.686594 0.000000
-12.640135 -11.868193 -0.381622 771 0.727041 0.686594 0.000000
-12.639094 -11.867213 -0.376262 773 0.727041 0.686594 0.000000
-12.638586 -11.866731 -0.370916 767 0.727041 0.686594 0.000000
-12.638246 -11.866411 -0.365579 741 0.727041 0.686594 0.000000
-12.639121 -11.867244 -0.360281 763 0.727041 0.686594 0.000000
-12.639624 -11.867709 -0.354966 757 0.727041 0.686594 0.000000
-12.638897 -11.867023 -0.349623 773 0.727041 0.686594 0.000000
-12.637957 -11.866139 -0.344272 763 0.727041 0.686594 0.000000
-12.638515 -11.866664 -0.338956 755 0.727041 0.686594 0.000000
-12.638956 -11.867080 -0.333642 723 0.727041 0.686594 0.000000
-12.638607 -11.866753 -0.328315 733 0.727041 0.686594 0.000000
-12.639475 -11.867579 -0.323007 735 0.727041 0.686594 0.000000
-12.640497 -11.868531 -0.317707 755 0.727041 0.686594 0.000000
-12.640354 -11.868396 -0.312378 765 0.727041 0.686594 0.000000
-12.640629 -11.868665 -0.307055 765 0.727041 0.686594 0.000000
-12.639683 -11.867776 -0.301704 747 0.727041 0.686594 0.000000
-12.638152 -11.866335 -0.296349 759 0.727041 0.686594 0.000000
-12.643919 -11.864440 -0.685410 777 0.727041 0.686594 0.000000
-12.643799 -11.864324 -0.680071 769 0.727041 0.686594 0.000000
-12.644217 -11.864720 -0.674767 781 0.727041 0.686594 0.000000
-12.643401 -11.863951 -0.669394 755 0.727041 0.686594 0.000000
-12.642320 -11.862939 -0.664004 779 0.727041 0.686594 0.000000
-12.643477 -11.864028 -0.658733 791 0.727041 0.686594 0.000000
-12.643413 -11.863969 -0.653394 755 0.727041 0.686594 0.000000
-12.641953 -11.862599 -0.647987 757 0.727041 0.686594 0.000000
-12.641881 -11.862535 -0.642658 769 0.727041 0.686594 0.000000
-12.641595 -11.862258 -0.637311 763 0.727041 0.686594 0.000000
-12.641523 -11.862193 -0.631971 769 0.727041 0.686594 0.000000
-12.642838 -11.863421 -0.626709 769 0.727041 0.686594 0.000000
-12.643390 -11.863953 -0.621403 755 0.727041 0.686594 0.000000
-12.643316 -11.863873 -0.616074 777 0.727041 0.686594 0.000000
-12.643183 -11.863759 -0.610735 785 0.727041 0.686594 0.000000
-12.642139 -11.862780 -0.605355 773 0.727041 0.686594 0.000000
-12.641208 -11.861902 -0.599983 755 0.727041 0.686594 0.000000
-12.641444 -11.862126 -0.594661 777 0.727041 0.686594 0.000000
-12.641994 -11.862643 -0.589356 785 0.727041 0.686594 0.000000
-12.642119 -11.862764 -0.584034 769 0.727041 0.686594 0.000000
-12.642731 -11.863334 -0.578728 769 0.727041 0.686594 0.000000
-12.642162 -11.862802 -0.573374 763 0.727041 0.686594 0.000000
-12.641760 -11.862417 -0.568027 769 0.727041 0.686594 0.000000
-12.642247 -11.862884 -0.562723 773 0.727041 0.686594 0.000000
-12.643279 -11.863856 -0.557433 755 0.727041 0.686594 0.000000
-12.644146 -11.864669 -0.552144 787 0.727041 0.686594 0.000000
-12.643047 -11.863630 -0.546765 781 0.727041 0.686594 0.000000
-12.642572 -11.863188 -0.541419 777 0.727041 0.686594 0.000000
-12.642107 -11.862753 -0.536073 755 0.727041 0.686594 0.000000
-12.641419 -11.862113 -0.530710 755 0.727041 0.686594 0.000000
-12.641220 -11.861919 -0.525371 763 0.727041 0.686594 0.000000
-12.642984 -11.863576 -0.520115 791 0.727041 0.686594 0.000000
-12.642771 -11.863384 -0.514776 775 0.727041 0.686594 0.000000
-12.641877 -11.862537 -0.509415 763 0.727041 0.686594 0.000000
-12.643210 -11.863793 -0.504142 779 0.727041 0.686594 0.000000
-12.642893 -11.863491 -0.498795 781 0.727041 0.686594 0.000000
-12.642955 -11.863547 -0.493474 781 0.727041 0.686594 0.000000
-12.643805 -11.864347 -0.488176 785 0.727041 0.686594 0.000000
-12.643268 -11.863841 -0.482831 797 0.727041 0.686594 0.000000
-12.644124 -11.864646 -0.477533 799 0.727041 0.686594 0.000000
-12.643683 -11.864244 -0.472187 775 0.727041 0.686594 0.000000
-12.642830 -11.863442 -0.466825 783 0.727041 0.686594 0.000000
-12.643672 -11.864236 -0.461527 779 0.727041 0.686594 0.000000
-12.643451 -11.864024 -0.456199 795 0.727041 0.686594 0.000000
-12.642913 -11.863518 -0.450844 793 0.727041 0.686594 0.000000
-12.642958 -11.863562 -0.445523 781 0.727041 0.686594 0.000000
-12.642950 -11.863549 -0.440193 787 0.727041 0.686594 0.000000
-12.643517 -11.864094 -0.434888 779 0.727041 0.686594 0.000000
-12.643238 -11.863822 -0.429550 785 0.727041 0.686594 0.000000
-12.643008 -11.863617 -0.424212 751 0.727041 0.686594 0.000000
-12.643370 -11.863956 -0.418898 763 0.727041 0.686594 0.000000
-12.642707 -11.863336 -0.413545 779 0.727041 0.686594 0.000000
-12.642910 -11.863521 -0.408233 767 0.727041 0.686594 0.000000
-12.642729 -11.863354 -0.402894 771 0.727041 0.686594 0.000000
-12.641432 -11.862129 -0.397526 757 0.727041 0.686594 0.000000
-12.642266 -11.862916 -0.392228 769 0.727041 0.686594 0.000000
-12.642723 -11.863344 -0.386914 755 0.727041 0.686594 0.000000
-12.641358 -11.862065 -0.381547 747 0.727041 0.686594 0.000000
-12.642768 -11.863395 -0.376263 759 0.727041 0.686594 0.000000
-12.644083 -11.864623 -0.370971 779 0.727041 0.686594 0.000000
-12.644106 -11.864649 -0.365650 773 0.727041 0.686594 0.000000
-12.644080 -11.864622 -0.360320 765 0.727041 0.686594 0.000000
-12.642715 -11.863340 -0.354953 739 0.727041 0.686594 0.000000
-12.641879 -11.862567 -0.349611 733 0.727041 0.686594 0.000000
-12.642918 -11.863533 -0.344311 737 0.727041 0.686594 0.000000
-12.643950 -11.864504 -0.339011 771 0.727041 0.686594 0.000000
-12.642111 -11.862776 -0.333638 745 0.727041 0.686594 0.000000
-12.641369 -11.862091 -0.328295 739 0.727041 0.686594 0.000000
-12.643039 -11.863658 -0.323009 731 0.727041 0.686594 0.000000
-12.643700 -11.864279 -0.317693 749 0.727041 0.686594 0.000000
-12.643075 -11.863688 -0.312359 749 0.727041 0.686594 0.000000
-12.641481 -11.862198 -0.306994 751 0.727041 0.686594 0.000000
-12.641552 -11.862262 -0.301673 753 0.727041 0.686594 0.000000
-12.643686 -11.864269 -0.296393 763 0.727041 0.686594 0.000000
-12.648247 -11.861100 -0.685446 771 0.727041 0.686594 0.000000
-12.647388 -11.860294 -0.680074 775 0.727041 0.686594 0.000000
-12.646683 -11.859627 -0.674700 753 0.727041 0.686594 0.000000
-12.646288 -11.859262 -0.669354 741 0.727041 0.686594 0.000000
-12.646065 -11.859050 -0.664006 751 0.727041 0.686594 0.000000
-12.646160 -11.859146 -0.658685 777 0.727041 0.686594 0.000000
-12.646307 -11.859273 -0.653353 765 0.727041 0.686594 0.000000
-12.645919 -11.858914 -0.648007 761 0.727041 0.686594 0.000000
-12.646375 -11.859342 -0.642692 759 0.727041 0.686594 0.000000
-12.646035 -11.859021 -0.637345 753 0.727041 0.686594 0.000000
-12.645419 -11.858452 -0.631991 759 0.727041 0.686594 0.000000
-12.645992 -11.858989 -0.626686 747 0.727041 0.686594 0.000000
-12.646229 -11.859213 -0.621363 759 0.727041 0.686594 0.000000
-12.647008 -11.859941 -0.616076 783 0.727041 0.686594 0.000000
-12.646659 -11.859613 -0.610729 781 0.727041 0.686594 0.000000
-12.646469 -11.859442 -0.605381 751 0.727041 0.686594 0.000000
-12.645969 -11.858967 -0.600035 753 0.727041 0.686594 0.000000
-12.646308 -11.859285 -0.594722 765 0.727041 0.686594 0.000000
-12.647450 -11.860360 -0.589441 765 0.727041 0.686594 0.000000
-12.646457 -11.859432 -0.584060 753 0.727041 0.686594 0.000000
-12.646264 -11.859245 -0.578722 775 0.727041 0.686594 0.000000
-12.646769 -11.859726 -0.573417 765 0.727041 0.686594 0.000000
-12.645821 -11.858835 -0.568046 765 0.727041 0.686594 0.000000
-12.645466 -11.858502 -0.562699 761 0.727041 0.686594 0.000000
-12.646605 -11.859563 -0.557418 761 0.727041 0.686594 0.000000
-12.646408 -11.859385 -0.552080 761 0.727041 0.686594 0.000000
-12.646043 -11.859044 -0.546743 763 0.727041 0.686594 0.000000
-12.646004 -11.859005 -0.541403 781 0.727041 0.686594 0.000000
-12.645427 -11.858467 -0.536059 759 0.727041 0.686594 0.000000
-12.645811 -11.858824 -0.530745 769 0.727041 0.686594 0.000000
-12.646085 -11.859079 -0.525422 761 0.727041 0.686594 0.000000
-12.647898 -11.860787 -0.520165 791 0.727041 0.686594 0.000000
-12.647912 -11.860794 -0.514835 781 0.727041 0.686594 0.000000
-12.645775 -11.858797 -0.509425 761 0.727041 0.686594 0.000000
-12.645355 -11.858399 -0.504079 781 0.727041 0.686594 0.000000
-12.645951 -11.858954 -0.498773 777 0.727041 0.686594 0.000000
-12.646487 -11.859460 -0.493468 785 0.727041 0.686594 0.000000
-12.645944 -11.858961 -0.488123 771 0.727041 0.686594 0.000000
-12.646910 -11.859856 -0.482824 787 0.727041 0.686594 0.000000
-12.647658 -11.860559 -0.477526 785 0.727041 0.686594 0.000000
-12.646846 -11.859804 -0.472174 791 0.727041 0.686594 0.000000
-12.646254 -11.859254 -0.466819 793 0.727041 0.686594 0.000000
-12.645503 -11.858549 -0.461466 779 0.727041 0.686594 0.000000
-12.646248 -11.859239 -0.456169 775 0.727041 0.686594 0.000000
-12.647722 -11.860633 -0.450885 791 0.727041 0.686594 0.000000
-12.647872 -11.860774 -0.445564 799 0.727041 0.686594 0.000000
-12.646901 -11.859865 -0.440203 791 0.727041 0.686594 0.000000
-12.646196 -11.859199 -0.434849 771 0.727041 0.686594 0.000000
-12.646194 -11.859191 -0.429529 781 0.727041 0.686594 0.000000
-12.646122 -11.859126 -0.424200 759 0.727041 0.686594 0.000000
-12.645727 -11.858761 -0.418853 749 0.727041 0.686594 0.000000
-12.646193 -11.859197 -0.413549 767 0.727041 0.686594 0.000000
-12.646285 -11.859279 -0.408218 765 0.727041 0.686594 0.000000
-12.645945 -11.858971 -0.402881 791 0.727041 0.686594 0.000000
-12.645974 -11.858989 -0.397560 773 0.727041 0.686594 0.000000
-12.646172 -11.859182 -0.392238 747 0.727041 0.686594 0.000000
-12.646509 -11.859502 -0.386925 759 0.727041 0.686594 0.000000
-12.645324 -11.858379 -0.381556 761 0.727041 0.686594 0.000000
-12.644968 -11.858060 -0.376219 739 0.727041 0.686594 0.000000
-12.646386 -11.859383 -0.370936 757 0.727041 0.686594 0.000000
-12.646582 -11.859562 -0.365614 751 0.727041 0.686594 0.000000
-12.646542 -11.859536 -0.360284 759 0.727041 0.686594 0.000000
-12.647209 -11.860162 -0.354978 749 0.727041 0.686594 0.000000
-12.647452 -11.860379 -0.349655 733 0.727041 0.686594 0.000000
-12.647096 -11.860045 -0.344328 737 0.727041 0.686594 0.000000
-12.645937 -11.858972 -0.338969 741 0.727041 0.686594 0.000000
-12.644839 -11.857933 -0.333609 735 0.727041 0.686594 0.000000
-12.645974 -11.859002 -0.328319 739 0.727041 0.686594 0.000000
-12.646957 -11.859922 -0.323019 749 0.727041 0.686594 0.000000
-12.647026 -11.859984 -0.317688 751 0.727041 0.686594 0.000000
-12.647089 -11.860055 -0.312368 753 0.727041 0.686594 0.000000
-12.646829 -11.859813 -0.307030 733 0.727041 0.686594 0.000000
-12.647324 -11.860272 -0.301715 745 0.727041 0.686594 0.000000
-12.647013 -11.859976 -0.296388 749 0.727041 0.686594 0.000000
-12.651489 -11.857008 -0.685431 783 0.727041 0.686594 0.000000
-12.651478 -11.856994 -0.680101 757 0.727041 0.686594 0.000000
-12.651304 -11.856834 -0.674762 785 0.727041 0.686594 0.000000
-12.650595 -11.856174 -0.669389 781 0.727041 0.686594 0.000000
-12.650907 -11.856462 -0.664076 755 0.727041 0.686594 0.000000
-12.649976 -11.855597 -0.658694 733 0.727041 0.686594 0.000000
-12.650016 -11.855638 -0.653364 769 0.727041 0.686594 0.000000
-12.650210 -11.855815 -0.648042 777 0.727041 0.686594 0.000000
-12.650146 -11.855757 -0.642712 769 0.727041 0.686594 0.000000
-12.650602 -11.856184 -0.637398 739 0.727041 0.686594 0.000000
-12.649725 -11.855364 -0.632026 761 0.727041 0.686594 0.000000
-12.649873 -11.855492 -0.626705 757 0.727041 0.686594 0.000000
-12.650430 -11.856014 -0.621399 743 0.727041 0.686594 0.000000
-12.650509 -11.856098 -0.616068 753 0.727041 0.686594 0.000000
-12.651233 -11.856770 -0.610771 787 0.727041 0.686594 0.000000
-12.650828 -11.856398 -0.605425 751 0.727041 0.686594 0.000000
-12.649094 -11.854765 -0.600011 753 0.727041 0.686594 0.000000
-12.648801 -11.854497 -0.594674 751 0.727041 0.686594 0.000000
-12.649508 -11.855167 -0.589377 763 0.727041 0.686594 0.000000
-12.650604 -11.856192 -0.584097 763 0.727041 0.686594 0.000000
-12.651752 -11.857258 -0.578816 763 0.727041 0.686594 0.000000
-12.651342 -11.856880 -0.573469 755 0.727041 0.686594 0.000000
-12.650615 -11.856195 -0.568106 765 0.727041 0.686594 0.000000
-12.650462 -11.856052 -0.562767 751 0.727041 0.686594 0.000000
-12.650856 -11.856431 -0.557454 757 0.727041 0.686594 0.000000
-12.650272 -11.855887 -0.552099 761 0.727041 0.686594 0.000000
-12.648748 -11.854453 -0.546703 765 0.727041 0.686594 0.000000
-12.649079 -11.854766 -0.541390 773 0.727041 0.686594 0.000000
-12.649999 -11.855621 -0.536101 773 0.727041 0.686594 0.000000
-12.649897 -11.855533 -0.530762 771 0.727041 0.686594 0.000000
-12.649847 -11.855487 -0.525432 761 0.727041 0.686594 0.000000
-12.649856 -11.855500 -0.520102 761 0.727041 0.686594 0.000000
-12.649978 -11.855606 -0.514781 765 0.727041 0.686594 0.000000
-12.649552 -11.855217 -0.509435 765 0.727041 0.686594 0.000000
-12.649921 -11.855562 -0.504121 757 0.727041 0.686594 0.000000
-12.650992 -11.856565 -0.498841 763 0.727041 0.686594 0.000000
-12.651588 -11.857121 -0.493525 775 0.727041 0.686594 0.000000
-12.651904 -11.857423 -0.488212 781 0.727041 0.686594 0.000000
-12.650831 -11.856417 -0.482842 771 0.727041 0.686594 0.000000
-12.649930 -11.855565 -0.477480 755 0.727041 0.686594 0.000000
-12.649487 -11.855162 -0.472134 773 0.727041 0.686594 0.000000
-12.649699 -11.855352 -0.466822 767 0.727041 0.686594 0.000000
-12.650391 -11.855998 -0.461516 759 0.727041 0.686594 0.000000
-12.650659 -11.856247 -0.456193 747 0.727041 0.686594 0.000000
-12.651278 -11.856834 -0.450887 765 0.727041 0.686594 0.000000
-12.651539 -11.857079 -0.445574 781 0.727041 0.686594 0.000000
-12.650622 -11.856227 -0.440213 769 0.727041 0.686594 0.000000
-12.649746 -11.855408 -0.434851 769 0.727041 0.686594 0.000000
-12.649793 -11.855453 -0.429530 783 0.727041 0.686594 0.000000
-12.649247 -11.854939 -0.424185 751 0.727041 0.686594 0.000000
-12.649924 -11.855572 -0.418879 735 0.727041 0.686594 0.000000
-12.651136 -11.856704 -0.413587 777 0.727041 0.686594 0.000000
-12.649944 -11.855590 -0.408229 767 0.727041 0.686594 0.000000
-12.649874 -11.855526 -0.402899 763 0.727041 0.686594 0.000000
-12.650169 -11.855799 -0.397576 759 0.727041 0.686594 0.000000
-12.649775 -11.855435 -0.392240 759 0.727041 0.686594 0.000000
-12.650453 -11.856068 -0.386933 765 0.727041 0.686594 0.000000
-12.650000 -11.855644 -0.381597 755 0.727041 0.686594 0.000000
-12.650085 -11.855720 -0.376266 743 0.727041 0.686594 0.000000
-12.651116 -11.856692 -0.370977 751 0.727041 0.686594 0.000000
-12.650879 -11.856467 -0.365639 739 0.727041 0.686594 0.000000
-12.650153 -11.855796 -0.360295 735 0.727041 0.686594 0.000000
-12.649859 -11.855513 -0.354958 735 0.727041 0.686594 0.000000
-12.650207 -11.855841 -0.349645 775 0.727041 0.686594 0.000000
-12.650433 -11.856057 -0.344322 737 0.727041 0.686594 0.000000
-12.650771 -11.856376 -0.338999 739 0.727041 0.686594 0.000000
-12.650896 -11.856497 -0.333678 759 0.727041 0.686594 0.000000
-12.650918 -11.856509 -0.328357 729 0.727041 0.686594 0.000000
-12.651413 -11.856982 -0.323043 729 0.727041 0.686594 0.000000
-12.651112 -11.856693 -0.317705 731 0.727041 0.686594 0.000000
-12.650165 -11.855803 -0.312354 733 0.727041 0.686594 0.000000
-12.649857 -11.855521 -0.307027 729 0.727041 0.686594 0.000000
-12.649280 -11.854983 -0.301682 743 0.727041 0.686594 0.000000
-12.649286 -11.854983 -0.296362 759 0.727041 0.686594 0.000000
-12.653629 -11.852050 -0.685365 771 0.727041 0.686594 0.000000
-12.654959 -11.853289 -0.680103 763 0.727041 0.686594 0.000000
-12.654091 -11.852477 -0.674731 759 0.727041 0.686594 0.000000
-12.653593 -11.852015 -0.669365 757 0.727041 0.686594 0.000000
-12.652456 -11.850945 -0.663976 761 0.727041 0.686594 0.000000
-12.652234 -11.850734 -0.658638 719 0.727041 0.686594 0.000000
-12.653337 -11.851777 -0.653357 749 0.727041 0.686594 0.000000
-12.654067 -11.852453 -0.648060 755 0.727041 0.686594 0.000000
-12.654792 -11.853138 -0.642773 773 0.727041 0.686594 0.000000
-12.655146 -11.853471 -0.637460 771 0.727041 0.686594 0.000000
-12.654916 -11.853252 -0.632112 781 0.727041 0.686594 0.000000
-12.655096 -11.853431 -0.626790 761 0.727041 0.686594 0.000000
-12.654756 -11.853111 -0.621443 733 0.727041 0.686594 0.000000
-12.653460 -11.851887 -0.616045 743 0.727041 0.686594 0.000000
-12.653483 -11.851912 -0.610715 777 0.727041 0.686594 0.000000
-12.653767 -11.852189 -0.605402 779 0.727041 0.686594 0.000000
-12.654277 -11.852660 -0.600097 775 0.727041 0.686594 0.000000
-12.654306 -11.852692 -0.594767 761 0.727041 0.686594 0.000000
-12.652831 -11.851309 -0.589370 745 0.727041 0.686594 0.000000
-12.653123 -11.851577 -0.584048 753 0.727041 0.686594 0.000000
-12.654207 -11.852592 -0.578767 759 0.727041 0.686594 0.000000
-12.653578 -11.852012 -0.573413 747 0.727041 0.686594 0.000000
-12.653867 -11.852279 -0.568090 755 0.727041 0.686594 0.000000
-12.653036 -11.851497 -0.562728 747 0.727041 0.686594 0.000000
-12.652516 -11.851018 -0.557373 743 0.727041 0.686594 0.000000
-12.653808 -11.852226 -0.552100 779 0.727041 0.686594 0.000000
-12.653720 -11.852136 -0.546771 753 0.727041 0.686594 0.000000
-12.654048 -11.852448 -0.541458 749 0.727041 0.686594 0.000000
-12.653732 -11.852160 -0.536111 773 0.727041 0.686594 0.000000
-12.652573 -11.851071 -0.530731 761 0.727041 0.686594 0.000000
-12.652051 -11.850578 -0.525386 759 0.727041 0.686594 0.000000
-12.652001 -11.850533 -0.520057 747 0.727041 0.686594 0.000000
-12.652063 -11.850591 -0.514726 763 0.727041 0.686594 0.000000
-12.651905 -11.850443 -0.509397 737 0.727041 0.686594 0.000000
-12.653142 -11.851607 -0.504115 747 0.727041 0.686594 0.000000
-12.653668 -11.852106 -0.498810 745 0.727041 0.686594 0.000000
-12.653674 -11.852104 -0.493480 755 0.727041 0.686594 0.000000
-12.653838 -11.852258 -0.488158 759 0.727041 0.686594 0.000000
-12.654366 -11.852757 -0.482843 755 0.727041 0.686594 0.000000
-12.654633 -11.853005 -0.477531 783 0.727041 0.686594 0.000000
-12.653668 -11.852101 -0.472170 757 0.727041 0.686594 0.000000
-12.653131 -11.851595 -0.466815 753 0.727041 0.686594 0.000000
-12.652690 -11.851193 -0.461479 761 0.727041 0.686594 0.000000
-12.653113 -11.851583 -0.456164 771 0.727041 0.686594 0.000000
-12.653215 -11.851685 -0.450843 741 0.727041 0.686594 0.000000
-12.652937 -11.851415 -0.445506 747 0.727041 0.686594 0.000000
-12.653669 -11.852106 -0.440199 773 0.727041 0.686594 0.000000
-12.653983 -11.852406 -0.434886 761 0.727041 0.686594 0.000000
-12.654400 -11.852789 -0.429572 751 0.727041 0.686594 0.000000
-12.653956 -11.852371 -0.424226 751 0.727041 0.686594 0.000000
-12.653341 -11.851803 -0.418881 767 0.727041 0.686594 0.000000
-12.653276 -11.851745 -0.413552 777 0.727041 0.686594 0.000000
-12.653314 -11.851782 -0.408221 747 0.727041 0.686594 0.000000
-12.653399 -11.851858 -0.402901 737 0.727041 0.686594 0.000000
-12.653067 -11.851543 -0.397564 735 0.727041 0.686594 0.000000
-12.653680 -11.852126 -0.392258 747 0.727041 0.686594 0.000000
-12.653442 -11.851901 -0.386920 759 0.727041 0.686594 0.000000
-12.652456 -11.850980 -0.381569 729 0.727041 0.686594 0.000000
-12.652754 -11.851254 -0.376246 745 0.727041 0.686594 0.000000
-12.652997 -11.851483 -0.370934 733 0.727041 0.686594 0.000000
-12.653556 -11.852009 -0.365618 739 0.727041 0.686594 0.000000
-12.654058 -11.852473 -0.360303 735 0.727041 0.686594 0.000000
-12.653765 -11.852204 -0.354966 755 0.727041 0.686594 0.000000
-12.652928 -11.851417 -0.349624 741 0.727041 0.686594 0.000000
-12.653062 -11.851545 -0.344302 725 0.727041 0.686594 0.000000
-12.654361 -11.852759 -0.339010 743 0.727041 0.686594 0.000000
-12.654060 -11.852485 -0.333673 761 0.727041 0.686594 0.000000
-12.653002 -11.851491 -0.328322 753 0.727041 0.686594 0.000000
-12.653822 -11.852267 -0.323015 743 0.727041 0.686594 0.000000
-12.654638 -11.853025 -0.317707 727 0.727041 0.686594 0.000000
-12.654655 -11.853045 -0.312387 741 0.727041 0.686594 0.000000
-12.653542 -11.852009 -0.307027 719 0.727041 0.686594 0.000000
-12.653287 -11.851771 -0.301699 739 0.727041 0.686594 0.000000
-12.654209 -11.852628 -0.296390 743 0.727041 0.686594 0.000000
