328
-22.601931 -21.750427 -0.661602 1135 0.721701 0.692205 0.000000
-22.602194 -21.750683 -0.651969 1135 0.721701 0.692205 0.000000
-22.602440 -21.750927 -0.642336 1165 0.721701 0.692205 0.000000
-22.602308 -21.750795 -0.632697 1155 0.721701 0.692205 0.000000
-22.600760 -21.749300 -0.623022 1173 0.721701 0.692205 0.000000
-22.601046 -21.749590 -0.613389 1159 0.721701 0.692205 0.000000
-22.601919 -21.750427 -0.603780 1159 0.721701 0.692205 0.000000
-22.600933 -21.749475 -0.594119 1149 0.721701 0.692205 0.000000
-22.601328 -21.749853 -0.584495 1155 0.721701 0.692205 0.000000
-22.600039 -21.748613 -0.574827 1133 0.721701 0.692205 0.000000
-22.601107 -21.749651 -0.565217 1135 0.721701 0.692205 0.000000
-22.603180 -21.751642 -0.555627 1155 0.721701 0.692205 0.000000
-22.602871 -21.751348 -0.545990 1161 0.721701 0.692205 0.000000
-22.602833 -21.751307 -0.536350 1167 0.721701 0.692205 0.000000
-22.602201 -21.750713 -0.526696 1165 0.721701 0.692205 0.000000
-22.603222 -21.751684 -0.517086 1161 0.721701 0.692205 0.000000
-22.604427 -21.752857 -0.507474 1163 0.721701 0.692205 0.000000
-22.604116 -21.752552 -0.497837 1169 0.721701 0.692205 0.000000
-22.603592 -21.752043 -0.488192 1157 0.721701 0.692205 0.000000
-22.604012 -21.752455 -0.478558 1173 0.721701 0.692205 0.000000
-22.603426 -21.751884 -0.468913 1165 0.721701 0.692205 0.000000
-22.602779 -21.751278 -0.459269 1145 0.721701 0.692205 0.000000
-22.602039 -21.750566 -0.449615 1165 0.721701 0.692205 0.000000
-22.601665 -21.750195 -0.439969 1179 0.721701 0.692205 0.000000
-22.601063 -21.749624 -0.430324 1167 0.721701 0.692205 0.000000
-22.600847 -21.749409 -0.420686 1161 0.721701 0.692205 0.000000
-22.601030 -21.749601 -0.411054 1157 0.721701 0.692205 0.000000
-22.601645 -21.750185 -0.401438 1145 0.721701 0.692205 0.000000
-22.602322 -21.750835 -0.391811 1179 0.721701 0.692205 0.000000
-22.601557 -21.750103 -0.382168 1151 0.721701 0.692205 0.000000
-22.603582 -21.752056 -0.372559 1159 0.721701 0.692205 0.000000
-22.603924 -21.752390 -0.362936 1145 0.721701 0.692205 0.000000
-22.602736 -21.751245 -0.353277 1169 0.721701 0.692205 0.000000
-22.601490 -21.750044 -0.343628 1165 0.721701 0.692205 0.000000
-22.601236 -21.749809 -0.333990 1157 0.721701 0.692205 0.000000
-22.600737 -21.749321 -0.324355 1139 0.721701 0.692205 0.000000
-22.601334 -21.749893 -0.314729 1159 0.721701 0.692205 0.000000
-22.602922 -21.751421 -0.305114 1159 0.721701 0.692205 0.000000
-22.601982 -21.750521 -0.295472 1177 0.721701 0.692205 0.000000
-22.600515 -21.749121 -0.285816 1161 0.721701 0.692205 0.000000
-22.603313 -21.751816 -0.276219 1161 0.721701 0.692205 0.000000
-22.611355 -21.745413 -0.661673 1171 0.721701 0.692205 0.000000
-22.609224 -21.743362 -0.651973 1165 0.721701 0.692205 0.000000
-22.608515 -21.742691 -0.642319 1177 0.721701 0.692205 0.000000
-22.609663 -21.743792 -0.632708 1177 0.721701 0.692205 0.000000
-22.610386 -21.744480 -0.623091 1175 0.721701 0.692205 0.000000
-22.611824 -21.745872 -0.613497 1157 0.721701 0.692205 0.000000
-22.612534 -21.746561 -0.603880 1187 0.721701 0.692205 0.000000
-22.611197 -21.745266 -0.594203 1171 0.721701 0.692205 0.000000
-22.609747 -21.743870 -0.584536 1155 0.721701 0.692205 0.000000
-22.610332 -21.744442 -0.574910 1161 0.721701 0.692205 0.000000
-22.609934 -21.744053 -0.565264 1135 0.721701 0.692205 0.000000
-22.609798 -21.743927 -0.555625 1169 0.721701 0.692205 0.000000
-22.610435 -21.744545 -0.545999 1199 0.721701 0.692205 0.000000
-22.609709 -21.743847 -0.536345 1171 0.721701 0.692205 0.000000
-22.608974 -21.743141 -0.526702 1157 0.721701 0.692205 0.000000
-22.607826 -21.742029 -0.517033 1161 0.721701 0.692205 0.000000
-22.607985 -21.742188 -0.507401 1139 0.721701 0.692205 0.000000
-22.609518 -21.743670 -0.497806 1157 0.721701 0.692205 0.000000
-22.610312 -21.744429 -0.488189 1145 0.721701 0.692205 0.000000
-22.610565 -21.744677 -0.478556 1159 0.721701 0.692205 0.000000
-22.609516 -21.743662 -0.468896 1141 0.721701 0.692205 0.000000
-22.609762 -21.743906 -0.459263 1163 0.721701 0.692205 0.000000
-22.611336 -21.745420 -0.449658 1165 0.721701 0.692205 0.000000
-22.611700 -21.745773 -0.440034 1167 0.721701 0.692205 0.000000
-22.609890 -21.744026 -0.430361 1159 0.721701 0.692205 0.000000
-22.608507 -21.742710 -0.420704 1149 0.721701 0.692205 0.000000
-22.609238 -21.743404 -0.411087 1169 0.721701 0.692205 0.000000
-22.611639 -21.745718 -0.401494 1171 0.721701 0.692205 0.000000
-22.610775 -21.744892 -0.391842 1185 0.721701 0.692205 0.000000
-22.608269 -21.742481 -0.382165 1173 0.721701 0.692205 0.000000
-22.610935 -21.745039 -0.372570 1165 0.721701 0.692205 0.000000
-22.611912 -21.745987 -0.362951 1155 0.721701 0.692205 0.000000
-22.611311 -21.745403 -0.353306 1163 0.721701 0.692205 0.000000
-22.610060 -21.744209 -0.343657 1147 0.721701 0.692205 0.000000
-22.610125 -21.744276 -0.334027 1161 0.721701 0.692205 0.000000
-22.609360 -21.743530 -0.324374 1173 0.721701 0.692205 0.000000
-22.609684 -21.743853 -0.314750 1125 0.721701 0.692205 0.000000
-22.611389 -21.745489 -0.305134 1163 0.721701 0.692205 0.000000
-22.611500 -21.745596 -0.295503 1173 0.721701 0.692205 0.000000
-22.610767 -21.744890 -0.285859 1155 0.721701 0.692205 0.000000
-22.609718 -21.743889 -0.276209 1161 0.721701 0.692205 0.000000
-22.618580 -21.738537 -0.661684 1159 0.721701 0.692205 0.000000
-22.617931 -21.737913 -0.652030 1165 0.721701 0.692205 0.000000
-22.618013 -21.737995 -0.642398 1145 0.721701 0.692205 0.000000
-22.617191 -21.737206 -0.632736 1159 0.721701 0.692205 0.000000
-22.615698 -21.735771 -0.623060 1169 0.721701 0.692205 0.000000
-22.617159 -21.737169 -0.613456 1163 0.721701 0.692205 0.000000
-22.617916 -21.737907 -0.603839 1171 0.721701 0.692205 0.000000
-22.616207 -21.736259 -0.594164 1157 0.721701 0.692205 0.000000
-22.616541 -21.736588 -0.584531 1163 0.721701 0.692205 0.000000
-22.617931 -21.737926 -0.574928 1181 0.721701 0.692205 0.000000
-22.618107 -21.738087 -0.565296 1173 0.721701 0.692205 0.000000
-22.617115 -21.737143 -0.555635 1179 0.721701 0.692205 0.000000
-22.615541 -21.735630 -0.545959 1165 0.721701 0.692205 0.000000
-22.616667 -21.736712 -0.536359 1161 0.721701 0.692205 0.000000
-22.617735 -21.737736 -0.526738 1165 0.721701 0.692205 0.000000
-22.616570 -21.736624 -0.517079 1157 0.721701 0.692205 0.000000
-22.615200 -21.735304 -0.507412 1139 0.721701 0.692205 0.000000
-22.615736 -21.735823 -0.497796 1163 0.721701 0.692205 0.000000
-22.614479 -21.734610 -0.488128 1159 0.721701 0.692205 0.000000
-22.615688 -21.735775 -0.478516 1177 0.721701 0.692205 0.000000
-22.618216 -21.738205 -0.468933 1195 0.721701 0.692205 0.000000
-22.616516 -21.736578 -0.459268 1173 0.721701 0.692205 0.000000
-22.615509 -21.735607 -0.449618 1171 0.721701 0.692205 0.000000
-22.617496 -21.737528 -0.440019 1201 0.721701 0.692205 0.000000
-22.618071 -21.738079 -0.430393 1177 0.721701 0.692205 0.000000
-22.617479 -21.737503 -0.420748 1157 0.721701 0.692205 0.000000
-22.617510 -21.737534 -0.411108 1171 0.721701 0.692205 0.000000
-22.617498 -21.737524 -0.401478 1165 0.721701 0.692205 0.000000
-22.618210 -21.738213 -0.391851 1159 0.721701 0.692205 0.000000
-22.617506 -21.737534 -0.382207 1149 0.721701 0.692205 0.000000
-22.617321 -21.737356 -0.372569 1151 0.721701 0.692205 0.000000
-22.616915 -21.736973 -0.362932 1151 0.721701 0.692205 0.000000
-22.617352 -21.737398 -0.353298 1141 0.721701 0.692205 0.000000
-22.617062 -21.737110 -0.343660 1127 0.721701 0.692205 0.000000
-22.616816 -21.736885 -0.334022 1143 0.721701 0.692205 0.000000
-22.617258 -21.737314 -0.324398 1159 0.721701 0.692205 0.000000
-22.617331 -21.737373 -0.314757 1155 0.721701 0.692205 0.000000
-22.617758 -21.737793 -0.305133 1151 0.721701 0.692205 0.000000
-22.617241 -21.737293 -0.295488 1143 0.721701 0.692205 0.000000
-22.616526 -21.736601 -0.285844 1151 0.721701 0.692205 0.000000
-22.617735 -21.737766 -0.276232 1155 0.721701 0.692205 0.000000
-22.622391 -21.728643 -0.661605 1163 0.721701 0.692205 0.000000
-22.624384 -21.730556 -0.652026 1171 0.721701 0.692205 0.000000
-22.625469 -21.731607 -0.642416 1163 0.721701 0.692205 0.000000
-22.624027 -21.730217 -0.632739 1153 0.721701 0.692205 0.000000
-22.622734 -21.728985 -0.623071 1165 0.721701 0.692205 0.000000
-22.621605 -21.727888 -0.613401 1153 0.721701 0.692205 0.000000
-22.622252 -21.728512 -0.603785 1163 0.721701 0.692205 0.000000
-22.623970 -21.730177 -0.594189 1145 0.721701 0.692205 0.000000
-22.623629 -21.729845 -0.584542 1169 0.721701 0.692205 0.000000
-22.622753 -21.728996 -0.574890 1157 0.721701 0.692205 0.000000
-22.623713 -21.729931 -0.565270 1153 0.721701 0.692205 0.000000
-22.624313 -21.730503 -0.555655 1153 0.721701 0.692205 0.000000
-22.624361 -21.730558 -0.546014 1179 0.721701 0.692205 0.000000
-22.624710 -21.730885 -0.536390 1153 0.721701 0.692205 0.000000
-22.623293 -21.729527 -0.526724 1149 0.721701 0.692205 0.000000
-22.622498 -21.728771 -0.517071 1147 0.721701 0.692205 0.000000
-22.623928 -21.730145 -0.507467 1163 0.721701 0.692205 0.000000
-22.624777 -21.730961 -0.497849 1157 0.721701 0.692205 0.000000
-22.625938 -21.732073 -0.488238 1161 0.721701 0.692205 0.000000
-22.625519 -21.731665 -0.478591 1159 0.721701 0.692205 0.000000
-22.623987 -21.730198 -0.468926 1167 0.721701 0.692205 0.000000
-22.624405 -21.730597 -0.459291 1161 0.721701 0.692205 0.000000
-22.624331 -21.730536 -0.449652 1165 0.721701 0.692205 0.000000
-22.623589 -21.729824 -0.440009 1161 0.721701 0.692205 0.000000
-22.623520 -21.729755 -0.430369 1149 0.721701 0.692205 0.000000
-22.622873 -21.729136 -0.420725 1133 0.721701 0.692205 0.000000
-22.624176 -21.730391 -0.411112 1159 0.721701 0.692205 0.000000
-22.624258 -21.730473 -0.401481 1171 0.721701 0.692205 0.000000
-22.624552 -21.730755 -0.391848 1167 0.721701 0.692205 0.000000
-22.624743 -21.730940 -0.382216 1139 0.721701 0.692205 0.000000
-22.624252 -21.730457 -0.372571 1165 0.721701 0.692205 0.000000
-22.624153 -21.730379 -0.362941 1169 0.721701 0.692205 0.000000
-22.624187 -21.730410 -0.353301 1159 0.721701 0.692205 0.000000
-22.624159 -21.730375 -0.343671 1149 0.721701 0.692205 0.000000
-22.625126 -21.731316 -0.334052 1149 0.721701 0.692205 0.000000
-22.625883 -21.732042 -0.324424 1151 0.721701 0.692205 0.000000
-22.623981 -21.730221 -0.314762 1141 0.721701 0.692205 0.000000
-22.623011 -21.729280 -0.305121 1129 0.721701 0.692205 0.000000
-22.623751 -21.729996 -0.295494 1155 0.721701 0.692205 0.000000
-22.624594 -21.730806 -0.285866 1165 0.721701 0.692205 0.000000
-22.624132 -21.730366 -0.276230 1139 0.721701 0.692205 0.000000
-22.632856 -21.725147 -0.661714 1165 0.721701 0.692205 0.000000
-22.632732 -21.725019 -0.652075 1161 0.721701 0.692205 0.000000
-22.632242 -21.724552 -0.642419 1165 0.721701 0.692205 0.000000
-22.630787 -21.723166 -0.632743 1157 0.721701 0.692205 0.000000
-22.629248 -21.721680 -0.623067 1145 0.721701 0.692205 0.000000
-22.629797 -21.722210 -0.613442 1153 0.721701 0.692205 0.000000
-22.629715 -21.722132 -0.603802 1149 0.721701 0.692205 0.000000
-22.629631 -21.722052 -0.594163 1149 0.721701 0.692205 0.000000
-22.630709 -21.723097 -0.584552 1149 0.721701 0.692205 0.000000
-22.630619 -21.723009 -0.574913 1161 0.721701 0.692205 0.000000
-22.631123 -21.723492 -0.565288 1137 0.721701 0.692205 0.000000
-22.630444 -21.722843 -0.555644 1135 0.721701 0.692205 0.000000
-22.630407 -21.722801 -0.546004 1143 0.721701 0.692205 0.000000
-22.630630 -21.723026 -0.536372 1157 0.721701 0.692205 0.000000
-22.629528 -21.721966 -0.526712 1155 0.721701 0.692205 0.000000
-22.630369 -21.722776 -0.517094 1153 0.721701 0.692205 0.000000
-22.632175 -21.724510 -0.507497 1167 0.721701 0.692205 0.000000
-22.631691 -21.724051 -0.497851 1161 0.721701 0.692205 0.000000
-22.630121 -21.722536 -0.488186 1145 0.721701 0.692205 0.000000
-22.630066 -21.722483 -0.478546 1143 0.721701 0.692205 0.000000
-22.630917 -21.723301 -0.468928 1147 0.721701 0.692205 0.000000
-22.631493 -21.723852 -0.459302 1163 0.721701 0.692205 0.000000
-22.631041 -21.723433 -0.449656 1151 0.721701 0.692205 0.000000
-22.630934 -21.723318 -0.440017 1151 0.721701 0.692205 0.000000
-22.631031 -21.723413 -0.430386 1173 0.721701 0.692205 0.000000
-22.630281 -21.722694 -0.420743 1167 0.721701 0.692205 0.000000
-22.627878 -21.720396 -0.411065 1131 0.721701 0.692205 0.000000
-22.627758 -21.720285 -0.401426 1143 0.721701 0.692205 0.000000
-22.629953 -21.722393 -0.391835 1169 0.721701 0.692205 0.000000
-22.630568 -21.722975 -0.382209 1147 0.721701 0.692205 0.000000
-22.630281 -21.722702 -0.372562 1155 0.721701 0.692205 0.000000
-22.629452 -21.721907 -0.362919 1143 0.721701 0.692205 0.000000
-22.629583 -21.722040 -0.353288 1163 0.721701 0.692205 0.000000
-22.630392 -21.722813 -0.343670 1161 0.721701 0.692205 0.000000
-22.630522 -21.722948 -0.334028 1145 0.721701 0.692205 0.000000
-22.630117 -21.722549 -0.324392 1133 0.721701 0.692205 0.000000
-22.630762 -21.723173 -0.314766 1151 0.721701 0.692205 0.000000
-22.630405 -21.722830 -0.305129 1125 0.721701 0.692205 0.000000
-22.630892 -21.723299 -0.295504 1131 0.721701 0.692205 0.000000
-22.630424 -21.722851 -0.285858 1135 0.721701 0.692205 0.000000
-22.629488 -21.721952 -0.276217 1151 0.721701 0.692205 0.000000
-22.639341 -21.717312 -0.661703 1155 0.721701 0.692205 0.000000
-22.639805 -21.717760 -0.652078 1145 0.721701 0.692205 0.000000
-22.638515 -21.716518 -0.642400 1129 0.721701 0.692205 0.000000
-22.638182 -21.716209 -0.632753 1139 0.721701 0.692205 0.000000
-22.638638 -21.716637 -0.623129 1155 0.721701 0.692205 0.000000
-22.637709 -21.715759 -0.613467 1163 0.721701 0.692205 0.000000
-22.636106 -21.714220 -0.603792 1147 0.721701 0.692205 0.000000
-22.636648 -21.714733 -0.594167 1131 0.721701 0.692205 0.000000
-22.637781 -21.715822 -0.584556 1123 0.721701 0.692205 0.000000
-22.637596 -21.715645 -0.574917 1143 0.721701 0.692205 0.000000
-22.637981 -21.716017 -0.565294 1145 0.721701 0.692205 0.000000
-22.637995 -21.716028 -0.555653 1125 0.721701 0.692205 0.000000
-22.636900 -21.714987 -0.545993 1151 0.721701 0.692205 0.000000
-22.636433 -21.714540 -0.536347 1145 0.721701 0.692205 0.000000
-22.637821 -21.715866 -0.526744 1133 0.721701 0.692205 0.000000
-22.638248 -21.716284 -0.517120 1157 0.721701 0.692205 0.000000
-22.638832 -21.716843 -0.507494 1169 0.721701 0.692205 0.000000
-22.640047 -21.718000 -0.497883 1171 0.721701 0.692205 0.000000
-22.639942 -21.717901 -0.488243 1179 0.721701 0.692205 0.000000
-22.639303 -21.717300 -0.478599 1151 0.721701 0.692205 0.000000
-22.638874 -21.716885 -0.468953 1133 0.721701 0.692205 0.000000
-22.638081 -21.716129 -0.459300 1127 0.721701 0.692205 0.000000
-22.638763 -21.716784 -0.449673 1147 0.721701 0.692205 0.000000
-22.639025 -21.717028 -0.440041 1155 0.721701 0.692205 0.000000
-22.636473 -21.714579 -0.430365 1129 0.721701 0.692205 0.000000
-22.635607 -21.713751 -0.420713 1127 0.721701 0.692205 0.000000
-22.637693 -21.715755 -0.411113 1153 0.721701 0.692205 0.000000
-22.639900 -21.717882 -0.401522 1153 0.721701 0.692205 0.000000
-22.639040 -21.717047 -0.391870 1147 0.721701 0.692205 0.000000
-22.638323 -21.716370 -0.382226 1149 0.721701 0.692205 0.000000
-22.638466 -21.716499 -0.372584 1155 0.721701 0.692205 0.000000
-22.638962 -21.716974 -0.362960 1141 0.721701 0.692205 0.000000
-22.639084 -21.717102 -0.353328 1163 0.721701 0.692205 0.000000
-22.636829 -21.714939 -0.343659 1141 0.721701 0.692205 0.000000
-22.637068 -21.715164 -0.334027 1157 0.721701 0.692205 0.000000
-22.637556 -21.715630 -0.324402 1149 0.721701 0.692205 0.000000
-22.636463 -21.714590 -0.314752 1163 0.721701 0.692205 0.000000
-22.637484 -21.715561 -0.305132 1131 0.721701 0.692205 0.000000
-22.637072 -21.715172 -0.295496 1117 0.721701 0.692205 0.000000
-22.635815 -21.713972 -0.285847 1141 0.721701 0.692205 0.000000
-22.636763 -21.714886 -0.276218 1145 0.721701 0.692205 0.000000
-22.645920 -21.709297 -0.661693 1163 0.721701 0.692205 0.000000
-22.646488 -21.709841 -0.652067 1143 0.721701 0.692205 0.000000
-22.645205 -21.708607 -0.642399 1131 0.721701 0.692205 0.000000
-22.644705 -21.708134 -0.632743 1139 0.721701 0.692205 0.000000
-22.644953 -21.708364 -0.623111 1139 0.721701 0.692205 0.000000
-22.645723 -21.709105 -0.613493 1149 0.721701 0.692205 0.000000
-22.646963 -21.710295 -0.603891 1143 0.721701 0.692205 0.000000
-22.645016 -21.708435 -0.594199 1133 0.721701 0.692205 0.000000
-22.642927 -21.706434 -0.584519 1137 0.721701 0.692205 0.000000
-22.642952 -21.706457 -0.574878 1119 0.721701 0.692205 0.000000
-22.643238 -21.706732 -0.565246 1133 0.721701 0.692205 0.000000
-22.642937 -21.706446 -0.555608 1155 0.721701 0.692205 0.000000
-22.643478 -21.706957 -0.545983 1137 0.721701 0.692205 0.000000
-22.644337 -21.707781 -0.536364 1149 0.721701 0.692205 0.000000
-22.643814 -21.707291 -0.526719 1153 0.721701 0.692205 0.000000
-22.644556 -21.708006 -0.517102 1153 0.721701 0.692205 0.000000
-22.644989 -21.708416 -0.507478 1151 0.721701 0.692205 0.000000
-22.644938 -21.708376 -0.497838 1153 0.721701 0.692205 0.000000
-22.643883 -21.707352 -0.488178 1143 0.721701 0.692205 0.000000
-22.643883 -21.707355 -0.478547 1133 0.721701 0.692205 0.000000
-22.644297 -21.707762 -0.468923 1151 0.721701 0.692205 0.000000
-22.643709 -21.707190 -0.459269 1129 0.721701 0.692205 0.000000
-22.645077 -21.708511 -0.449665 1143 0.721701 0.692205 0.000000
-22.646116 -21.709509 -0.440045 1123 0.721701 0.692205 0.000000
-22.646006 -21.709394 -0.430406 1127 0.721701 0.692205 0.000000
-22.644875 -21.708323 -0.420757 1143 0.721701 0.692205 0.000000
-22.642376 -21.705921 -0.411080 1153 0.721701 0.692205 0.000000
-22.643257 -21.706764 -0.401461 1127 0.721701 0.692205 0.000000
-22.645824 -21.709227 -0.391867 1129 0.721701 0.692205 0.000000
-22.646423 -21.709812 -0.382241 1145 0.721701 0.692205 0.000000
-22.644773 -21.708221 -0.372576 1135 0.721701 0.692205 0.000000
-22.643951 -21.707432 -0.362934 1151 0.721701 0.692205 0.000000
-22.644611 -21.708067 -0.353308 1151 0.721701 0.692205 0.000000
-22.643526 -21.707035 -0.343657 1139 0.721701 0.692205 0.000000
-22.644541 -21.708014 -0.334038 1149 0.721701 0.692205 0.000000
-22.645931 -21.709339 -0.324424 1145 0.721701 0.692205 0.000000
-22.643356 -21.706871 -0.314758 1149 0.721701 0.692205 0.000000
-22.643219 -21.706734 -0.305120 1139 0.721701 0.692205 0.000000
-22.644850 -21.708313 -0.295504 1127 0.721701 0.692205 0.000000
-22.644445 -21.707916 -0.285868 1149 0.721701 0.692205 0.000000
-22.645992 -21.709398 -0.276253 1151 0.721701 0.692205 0.000000
-22.651115 -21.701229 -0.661659 1157 0.721701 0.692205 0.000000
-22.651316 -21.701422 -0.652026 1141 0.721701 0.692205 0.000000
-22.653351 -21.703382 -0.642447 1149 0.721701 0.692205 0.000000
-22.653704 -21.703714 -0.632814 1155 0.721701 0.692205 0.000000
-22.652361 -21.702429 -0.623136 1129 0.721701 0.692205 0.000000
-22.650702 -21.700846 -0.613461 1135 0.721701 0.692205 0.000000
-22.651041 -21.701164 -0.603828 1131 0.721701 0.692205 0.000000
-22.652166 -21.702248 -0.594227 1149 0.721701 0.692205 0.000000
-22.652082 -21.702168 -0.584588 1129 0.721701 0.692205 0.000000
-22.652218 -21.702295 -0.574946 1131 0.721701 0.692205 0.000000
-22.651859 -21.701963 -0.565309 1147 0.721701 0.692205 0.000000
-22.650244 -21.700413 -0.555634 1135 0.721701 0.692205 0.000000
-22.648880 -21.699100 -0.545967 1105 0.721701 0.692205 0.000000
-22.649527 -21.699724 -0.536341 1127 0.721701 0.692205 0.000000
-22.650963 -21.701103 -0.526737 1139 0.721701 0.692205 0.000000
-22.650866 -21.701010 -0.517098 1147 0.721701 0.692205 0.000000
-22.652607 -21.702679 -0.507501 1151 0.721701 0.692205 0.000000
-22.654028 -21.704044 -0.497897 1161 0.721701 0.692205 0.000000
-22.651972 -21.702080 -0.488216 1151 0.721701 0.692205 0.000000
-22.651550 -21.701672 -0.478570 1153 0.721701 0.692205 0.000000
-22.651176 -21.701315 -0.468933 1155 0.721701 0.692205 0.000000
-22.651117 -21.701254 -0.459294 1143 0.721701 0.692205 0.000000
-22.651527 -21.701658 -0.449670 1119 0.721701 0.692205 0.000000
-22.652630 -21.702709 -0.440049 1137 0.721701 0.692205 0.000000
-22.653046 -21.703104 -0.430425 1129 0.721701 0.692205 0.000000
-22.651239 -21.701374 -0.420752 1135 0.721701 0.692205 0.000000
-22.651155 -21.701307 -0.411122 1157 0.721701 0.692205 0.000000
-22.651888 -21.702002 -0.401495 1171 0.721701 0.692205 0.000000
-22.651438 -21.701569 -0.391859 1151 0.721701 0.692205 0.000000
-22.652105 -21.702211 -0.382233 1151 0.721701 0.692205 0.000000
-22.653347 -21.703400 -0.372611 1147 0.721701 0.692205 0.000000
-22.652739 -21.702824 -0.362966 1157 0.721701 0.692205 0.000000
-22.650806 -21.700977 -0.353304 1153 0.721701 0.692205 0.000000
-22.650715 -21.700893 -0.343675 1149 0.721701 0.692205 0.000000
-22.651728 -21.701857 -0.334055 1163 0.721701 0.692205 0.000000
-22.651653 -21.701784 -0.324416 1139 0.721701 0.692205 0.000000
-22.651249 -21.701401 -0.314779 1131 0.721701 0.692205 0.000000
-22.651300 -21.701458 -0.305138 1119 0.721701 0.692205 0.000000
-22.651270 -21.701422 -0.295509 1133 0.721701 0.692205 0.000000
-22.651329 -21.701485 -0.285878 1135 0.721701 0.692205 0.000000
-22.651011 -21.701187 -0.276240 1115 0.721701 0.692205 0.000000
