786
-4.735327 -4.116329 -0.676909 871 0.749660 0.661824 0.000000
-4.735373 -4.116363 -0.674969 869 0.749660 0.661824 0.000000
-4.735689 -4.116636 -0.673066 877 0.749660 0.661824 0.000000
-4.735901 -4.116814 -0.671144 889 0.749660 0.661824 0.000000
-4.735615 -4.116573 -0.669156 901 0.749660 0.661824 0.000000
-4.735439 -4.116419 -0.667178 895 0.749660 0.661824 0.000000
-4.735810 -4.116735 -0.665285 883 0.749660 0.661824 0.000000
-4.735413 -4.116394 -0.663278 897 0.749660 0.661824 0.000000
-4.735183 -4.116196 -0.661300 893 0.749660 0.661824 0.000000
-4.735720 -4.116657 -0.659425 879 0.749660 0.661824 0.000000
-4.735156 -4.116170 -0.657400 887 0.749660 0.661824 0.000000
-4.735472 -4.116444 -0.655497 889 0.749660 0.661824 0.000000
-4.736175 -4.117049 -0.653641 903 0.749660 0.661824 0.000000
-4.735334 -4.116317 -0.651579 899 0.749660 0.661823 0.000000
-4.734992 -4.116019 -0.649592 879 0.749660 0.661824 0.000000
-4.735078 -4.116097 -0.647651 865 0.749660 0.661824 0.000000
-4.734958 -4.115987 -0.645692 881 0.749660 0.661824 0.000000
-4.735044 -4.116066 -0.643751 895 0.749660 0.661824 0.000000
-4.735138 -4.116151 -0.641820 895 0.749660 0.661824 0.000000
-4.735177 -4.116179 -0.639880 891 0.749660 0.661824 0.000000
-4.736205 -4.117067 -0.638071 865 0.749660 0.661824 0.000000
-4.736735 -4.117536 -0.636196 901 0.749660 0.661823 0.000000
-4.735340 -4.116327 -0.634058 899 0.749660 0.661824 0.000000
-4.735157 -4.116167 -0.632090 877 0.749660 0.661824 0.000000
-4.735090 -4.116099 -0.630140 883 0.749660 0.661824 0.000000
-4.734790 -4.115846 -0.628153 905 0.749660 0.661824 0.000000
-4.734216 -4.115339 -0.626128 897 0.749660 0.661824 0.000000
-4.734858 -4.115895 -0.624272 891 0.749660 0.661823 0.000000
-4.735047 -4.116068 -0.622351 911 0.749660 0.661823 0.000000
-4.734815 -4.115857 -0.620373 895 0.749660 0.661824 0.000000
-4.735622 -4.116558 -0.618535 903 0.749660 0.661824 0.000000
-4.736089 -4.116962 -0.616651 915 0.749660 0.661824 0.000000
-4.736118 -4.116984 -0.614701 909 0.749660 0.661823 0.000000
-4.735492 -4.116448 -0.612676 891 0.749660 0.661824 0.000000
-4.735744 -4.116657 -0.610764 893 0.749660 0.661824 0.000000
-4.735830 -4.116736 -0.608833 923 0.749660 0.661824 0.000000
-4.735036 -4.116042 -0.606790 917 0.749660 0.661824 0.000000
-4.735011 -4.116019 -0.604841 915 0.749660 0.661824 0.000000
-4.735035 -4.116049 -0.602900 893 0.749660 0.661824 0.000000
-4.735397 -4.116359 -0.600997 899 0.749660 0.661824 0.000000
-4.735310 -4.116288 -0.599048 905 0.749660 0.661824 0.000000
-4.735561 -4.116497 -0.597135 927 0.749660 0.661824 0.000000
-4.735585 -4.116526 -0.595195 923 0.749660 0.661824 0.000000
-4.735781 -4.116692 -0.593273 919 0.749660 0.661824 0.000000
-4.735858 -4.116751 -0.591333 925 0.749660 0.661824 0.000000
-4.735557 -4.116497 -0.589355 921 0.749660 0.661824 0.000000
-4.734976 -4.115984 -0.587340 919 0.749660 0.661824 0.000000
-4.734564 -4.115630 -0.585344 905 0.749660 0.661824 0.000000
-4.735126 -4.116123 -0.583469 917 0.749660 0.661823 0.000000
-4.734886 -4.115906 -0.581501 903 0.749660 0.661824 0.000000
-4.735677 -4.116594 -0.579654 911 0.749660 0.661823 0.000000
-4.736081 -4.116949 -0.577760 931 0.749660 0.661824 0.000000
-4.735667 -4.116580 -0.575764 917 0.749660 0.661824 0.000000
-4.735467 -4.116408 -0.573796 903 0.749660 0.661824 0.000000
-4.734611 -4.115664 -0.571753 909 0.749660 0.661824 0.000000
-4.735077 -4.116068 -0.569869 917 0.749660 0.661824 0.000000
-4.735590 -4.116511 -0.567985 923 0.749660 0.661824 0.000000
-4.735391 -4.116338 -0.566016 915 0.749660 0.661824 0.000000
-4.734693 -4.115732 -0.563993 917 0.749660 0.661824 0.000000
-4.734652 -4.115697 -0.562053 923 0.749660 0.661824 0.000000
-4.735555 -4.116487 -0.560215 913 0.749660 0.661824 0.000000
-4.735023 -4.116025 -0.558209 913 0.749660 0.661824 0.000000
-4.734483 -4.115557 -0.556204 897 0.749660 0.661824 0.000000
-4.735114 -4.116093 -0.554339 901 0.749660 0.661824 0.000000
-4.735185 -4.116159 -0.552408 913 0.749660 0.661824 0.000000
-4.735199 -4.116168 -0.550468 907 0.749660 0.661824 0.000000
-4.735436 -4.116379 -0.548545 911 0.749660 0.661824 0.000000
-4.735181 -4.116149 -0.546578 919 0.749660 0.661824 0.000000
-4.735688 -4.116599 -0.544693 933 0.749660 0.661824 0.000000
-4.735868 -4.116753 -0.542771 921 0.749660 0.661824 0.000000
-4.735059 -4.116045 -0.540739 889 0.749660 0.661824 0.000000
-4.734353 -4.115433 -0.538725 879 0.749660 0.661824 0.000000
-4.733709 -4.114871 -0.536711 905 0.749660 0.661824 0.000000
-4.733724 -4.114880 -0.534771 909 0.749660 0.661824 0.000000
-4.734286 -4.115374 -0.532896 903 0.749660 0.661824 0.000000
-4.734680 -4.115709 -0.530992 933 0.749660 0.661824 0.000000
-4.734751 -4.115775 -0.529061 923 0.749660 0.661824 0.000000
-4.735201 -4.116168 -0.527177 921 0.749660 0.661824 0.000000
-4.735042 -4.116026 -0.525218 919 0.749660 0.661824 0.000000
-4.735271 -4.116231 -0.523306 915 0.749660 0.661824 0.000000
-4.735776 -4.116668 -0.521412 927 0.749660 0.661824 0.000000
-4.734689 -4.115715 -0.519362 913 0.749660 0.661824 0.000000
-4.734141 -4.115241 -0.517356 905 0.749660 0.661824 0.000000
-4.734488 -4.115539 -0.515453 907 0.749660 0.661824 0.000000
-4.734876 -4.115882 -0.513560 921 0.749660 0.661823 0.000000
-4.735374 -4.116312 -0.511675 945 0.749660 0.661824 0.000000
-4.735277 -4.116220 -0.509726 935 0.749660 0.661824 0.000000
-4.734841 -4.115847 -0.507740 917 0.749660 0.661824 0.000000
-4.734793 -4.115807 -0.505790 921 0.749660 0.661824 0.000000
-4.735194 -4.116148 -0.503897 941 0.749660 0.661824 0.000000
-4.735408 -4.116340 -0.501985 947 0.749660 0.661824 0.000000
-4.735518 -4.116438 -0.500054 947 0.749660 0.661824 0.000000
-4.735421 -4.116346 -0.498105 919 0.749660 0.661824 0.000000
-4.735919 -4.116776 -0.496220 927 0.749660 0.661824 0.000000
-4.735981 -4.116837 -0.494289 925 0.749660 0.661824 0.000000
-4.735426 -4.116356 -0.492294 913 0.749660 0.661824 0.000000
-4.734775 -4.115787 -0.490280 905 0.749660 0.661824 0.000000
-4.734337 -4.115400 -0.488304 915 0.749660 0.661824 0.000000
-4.734502 -4.115541 -0.486383 909 0.749660 0.661824 0.000000
-4.734945 -4.115928 -0.484488 903 0.749660 0.661824 0.000000
-4.735816 -4.116692 -0.482641 913 0.749660 0.661824 0.000000
-4.736543 -4.117316 -0.480774 925 0.749660 0.661824 0.000000
-4.736043 -4.116879 -0.478778 927 0.749660 0.661824 0.000000
-4.735059 -4.116022 -0.476747 905 0.749660 0.661824 0.000000
-4.735715 -4.116590 -0.474871 899 0.749660 0.661824 0.000000
-4.735659 -4.116543 -0.472932 895 0.749660 0.661824 0.000000
-4.735104 -4.116063 -0.470937 903 0.749660 0.661824 0.000000
-4.735483 -4.116399 -0.469043 911 0.749660 0.661824 0.000000
-4.734602 -4.115623 -0.467011 899 0.749660 0.661824 0.000000
-4.734600 -4.115619 -0.465081 905 0.749660 0.661824 0.000000
-4.736137 -4.116961 -0.463287 935 0.749660 0.661824 0.000000
-4.736516 -4.117284 -0.461394 925 0.749660 0.661824 0.000000
-4.735968 -4.116810 -0.459399 933 0.749660 0.661824 0.000000
-4.734960 -4.115933 -0.457368 923 0.749660 0.661823 0.000000
-4.734746 -4.115748 -0.455410 917 0.749660 0.661824 0.000000
-4.735331 -4.116261 -0.453524 913 0.749660 0.661824 0.000000
-4.735440 -4.116344 -0.451603 917 0.749660 0.661824 0.000000
-4.734996 -4.115965 -0.449627 923 0.749660 0.661824 0.000000
-4.735374 -4.116288 -0.447724 945 0.749660 0.661824 0.000000
-4.736308 -4.117102 -0.445875 963 0.749660 0.661823 0.000000
-4.735633 -4.116514 -0.443871 949 0.749660 0.661824 0.000000
-4.735015 -4.115985 -0.441877 935 0.749660 0.661824 0.000000
-4.735781 -4.116640 -0.440010 959 0.749660 0.661824 0.000000
-4.735384 -4.116298 -0.438043 939 0.749660 0.661824 0.000000
-4.733997 -4.115095 -0.435976 911 0.749660 0.661824 0.000000
-4.735200 -4.116134 -0.434155 915 0.749660 0.661824 0.000000
-4.736513 -4.117274 -0.432333 933 0.749660 0.661824 0.000000
-4.735015 -4.115970 -0.430267 903 0.749660 0.661824 0.000000
-4.734507 -4.115528 -0.428281 895 0.749660 0.661824 0.000000
-4.735147 -4.116083 -0.426405 917 0.749660 0.661824 0.000000
-4.735574 -4.116457 -0.424511 929 0.749660 0.661824 0.000000
-4.735510 -4.116404 -0.422562 893 0.749660 0.661824 0.000000
-4.735723 -4.116583 -0.420650 921 0.749660 0.661824 0.000000
-4.735872 -4.116712 -0.418729 935 0.749660 0.661824 0.000000
-4.735529 -4.116413 -0.416762 919 0.749660 0.661824 0.000000
-4.734626 -4.115632 -0.414750 913 0.749660 0.661824 0.000000
-4.733785 -4.114900 -0.412747 915 0.749660 0.661824 0.000000
-4.734433 -4.115461 -0.410861 917 0.749660 0.661824 0.000000
-4.735573 -4.116451 -0.409021 939 0.749660 0.661824 0.000000
-4.735445 -4.116348 -0.407082 927 0.749660 0.661823 0.000000
-4.734706 -4.115697 -0.405079 911 0.749660 0.661824 0.000000
-4.735134 -4.116071 -0.403185 911 0.749660 0.661824 0.000000
-4.735387 -4.116295 -0.401273 909 0.749660 0.661824 0.000000
-4.734989 -4.115939 -0.399306 903 0.749660 0.661823 0.000000
-4.735353 -4.116263 -0.397403 923 0.749660 0.661824 0.000000
-4.734670 -4.115670 -0.395409 905 0.749660 0.661824 0.000000
-4.734930 -4.115885 -0.393497 903 0.749660 0.661824 0.000000
-4.735515 -4.116398 -0.391611 917 0.749660 0.661824 0.000000
-4.735054 -4.115992 -0.389635 907 0.749660 0.661824 0.000000
-4.734753 -4.115739 -0.387678 903 0.749660 0.661824 0.000000
-4.735227 -4.116150 -0.385784 909 0.749660 0.661824 0.000000
-4.735486 -4.116365 -0.383871 915 0.749660 0.661824 0.000000
-4.735074 -4.116011 -0.381905 911 0.749660 0.661824 0.000000
-4.735651 -4.116517 -0.380020 917 0.749660 0.661824 0.000000
-4.735460 -4.116351 -0.378071 907 0.749660 0.661824 0.000000
-4.736052 -4.116856 -0.376176 915 0.749660 0.661824 0.000000
-4.735964 -4.116784 -0.374237 927 0.749660 0.661824 0.000000
-4.734894 -4.115858 -0.372226 929 0.749660 0.661824 0.000000
-4.736018 -4.116834 -0.370376 921 0.749660 0.661824 0.000000
-4.736001 -4.116818 -0.368436 901 0.749660 0.661824 0.000000
-4.735532 -4.116407 -0.366471 889 0.749660 0.661824 0.000000
-4.736331 -4.117101 -0.364603 903 0.749660 0.661824 0.000000
-4.736306 -4.117079 -0.362663 911 0.749660 0.661824 0.000000
-4.735949 -4.116768 -0.360707 921 0.749660 0.661824 0.000000
-4.736033 -4.116833 -0.358776 913 0.749660 0.661824 0.000000
-4.735454 -4.116334 -0.356801 901 0.749660 0.661824 0.000000
-4.734868 -4.115829 -0.354826 909 0.749660 0.661824 0.000000
-4.734399 -4.115417 -0.352861 897 0.749660 0.661824 0.000000
-4.734041 -4.115106 -0.350904 885 0.749660 0.661824 0.000000
-4.734341 -4.115367 -0.348991 893 0.749660 0.661824 0.000000
-4.735520 -4.116387 -0.347140 911 0.749660 0.661824 0.000000
-4.736588 -4.117321 -0.345281 909 0.749660 0.661824 0.000000
-4.735724 -4.116570 -0.343288 895 0.749660 0.661824 0.000000
-4.734543 -4.115544 -0.341279 889 0.749660 0.661824 0.000000
-4.735334 -4.116231 -0.339402 911 0.749660 0.661824 0.000000
-4.735522 -4.116391 -0.337480 899 0.749660 0.661824 0.000000
-4.734666 -4.115647 -0.335488 899 0.749660 0.661824 0.000000
-4.735291 -4.116190 -0.333602 923 0.749660 0.661824 0.000000
-4.736082 -4.116878 -0.331725 927 0.749660 0.661824 0.000000
-4.736707 -4.117421 -0.329829 939 0.749660 0.661824 0.000000
-4.736238 -4.117010 -0.327863 919 0.749660 0.661824 0.000000
-4.735095 -4.116014 -0.325854 911 0.749660 0.661824 0.000000
-4.734951 -4.115885 -0.323915 913 0.749660 0.661824 0.000000
-4.734744 -4.115705 -0.321967 913 0.749660 0.661824 0.000000
-4.734870 -4.115816 -0.320046 925 0.749660 0.661824 0.000000
-4.735107 -4.116027 -0.318133 933 0.749660 0.661824 0.000000
-4.734860 -4.115803 -0.316186 917 0.749660 0.661824 0.000000
-4.734653 -4.115624 -0.314237 907 0.749660 0.661824 0.000000
-4.735602 -4.116450 -0.312369 923 0.749660 0.661824 0.000000
-4.735895 -4.116704 -0.310456 933 0.749660 0.661824 0.000000
-4.735418 -4.116287 -0.308490 929 0.749660 0.661824 0.000000
-4.735702 -4.116535 -0.306578 929 0.749660 0.661824 0.000000
-4.735724 -4.116550 -0.304647 939 0.749660 0.661823 0.000000
-4.736255 -4.114494 -0.694404 879 0.749660 0.661824 0.000000
-4.736641 -4.114824 -0.692511 883 0.749660 0.661824 0.000000
-4.736189 -4.114439 -0.690495 875 0.749660 0.661824 0.000000
-4.736180 -4.114429 -0.688545 865 0.749660 0.661824 0.000000
-4.737216 -4.115324 -0.686735 865 0.749660 0.661824 0.000000
-4.737381 -4.115464 -0.684814 875 0.749660 0.661823 0.000000
-4.736984 -4.115122 -0.682807 877 0.749660 0.661823 0.000000
-4.736540 -4.114743 -0.680791 873 0.749660 0.661824 0.000000
-4.736364 -4.114589 -0.678823 877 0.749660 0.661824 0.000000
-4.736189 -4.114434 -0.676844 885 0.749660 0.661824 0.000000
-4.736457 -4.114670 -0.674932 891 0.749660 0.661824 0.000000
-4.736614 -4.114805 -0.673011 867 0.749660 0.661824 0.000000
-4.736819 -4.114977 -0.671089 873 0.749660 0.661824 0.000000
-4.737031 -4.115156 -0.669167 885 0.749660 0.661824 0.000000
-4.737188 -4.115291 -0.667245 887 0.749660 0.661824 0.000000
-4.736957 -4.115093 -0.665257 879 0.749660 0.661824 0.000000
-4.736228 -4.114462 -0.663214 883 0.749660 0.661824 0.000000
-4.736376 -4.114590 -0.661282 877 0.749660 0.661824 0.000000
-4.736970 -4.115109 -0.659417 895 0.749660 0.661824 0.000000
-4.737229 -4.115325 -0.657505 893 0.749660 0.661824 0.000000
-4.737331 -4.115416 -0.655574 899 0.749660 0.661824 0.000000
-4.736823 -4.114973 -0.653558 877 0.749660 0.661824 0.000000
-4.737185 -4.115283 -0.651655 889 0.749660 0.661824 0.000000
-4.737233 -4.115331 -0.649714 883 0.749660 0.661824 0.000000
-4.736883 -4.115026 -0.647718 879 0.749660 0.661824 0.000000
-4.736921 -4.115054 -0.645777 901 0.749660 0.661824 0.000000
-4.736849 -4.114995 -0.643828 889 0.749660 0.661824 0.000000
-4.737490 -4.115551 -0.641962 897 0.749660 0.661824 0.000000
-4.737694 -4.115723 -0.640040 903 0.749660 0.661824 0.000000
-4.737027 -4.115141 -0.638006 883 0.749660 0.661824 0.000000
-4.737217 -4.115315 -0.636084 875 0.749660 0.661824 0.000000
-4.737587 -4.115632 -0.634191 867 0.749660 0.661824 0.000000
-4.737230 -4.115321 -0.632194 869 0.749660 0.661824 0.000000
-4.736563 -4.114739 -0.630160 889 0.749660 0.661824 0.000000
-4.736046 -4.114290 -0.628145 899 0.749660 0.661824 0.000000
-4.736133 -4.114369 -0.626214 879 0.749660 0.661824 0.000000
-4.736884 -4.115012 -0.624367 901 0.749660 0.661824 0.000000
-4.736804 -4.114946 -0.622408 911 0.749660 0.661824 0.000000
-4.736342 -4.114541 -0.620402 885 0.749660 0.661824 0.000000
-4.736706 -4.114865 -0.618508 893 0.749660 0.661824 0.000000
-4.736403 -4.114597 -0.616521 899 0.749660 0.661824 0.000000
-4.736166 -4.114393 -0.614543 895 0.749660 0.661824 0.000000
-4.736749 -4.114892 -0.612678 887 0.749660 0.661824 0.000000
-4.736939 -4.115066 -0.610756 891 0.749660 0.661824 0.000000
-4.736699 -4.114848 -0.608778 893 0.749660 0.661824 0.000000
-4.736841 -4.114971 -0.606847 897 0.749660 0.661824 0.000000
-4.737189 -4.115283 -0.604954 917 0.749660 0.661824 0.000000
-4.737115 -4.115209 -0.602995 911 0.749660 0.661823 0.000000
-4.736925 -4.115042 -0.601026 921 0.749660 0.661824 0.000000
-4.737446 -4.115491 -0.599151 945 0.749660 0.661824 0.000000
-4.737580 -4.115608 -0.597220 929 0.749660 0.661824 0.000000
-4.737000 -4.115108 -0.595205 913 0.749660 0.661823 0.000000
-4.737142 -4.115231 -0.593274 903 0.749660 0.661824 0.000000
-4.737497 -4.115535 -0.591381 907 0.749660 0.661824 0.000000
-4.737687 -4.115709 -0.589459 921 0.749660 0.661824 0.000000
-4.737384 -4.115441 -0.587472 911 0.749660 0.661824 0.000000
-4.737019 -4.115124 -0.585485 901 0.749660 0.661824 0.000000
-4.736604 -4.114756 -0.583499 919 0.749660 0.661824 0.000000
-4.736137 -4.114358 -0.581493 929 0.749660 0.661824 0.000000
-4.736104 -4.114330 -0.579553 921 0.749660 0.661823 0.000000
-4.736404 -4.114590 -0.577640 927 0.749660 0.661824 0.000000
-4.736973 -4.115076 -0.575765 931 0.749660 0.661824 0.000000
-4.737272 -4.115337 -0.573862 921 0.749660 0.661823 0.000000
-4.737136 -4.115214 -0.571904 915 0.749660 0.661824 0.000000
-4.736929 -4.115035 -0.569935 931 0.749660 0.661824 0.000000
-4.736896 -4.115007 -0.567986 933 0.749660 0.661824 0.000000
-4.736967 -4.115073 -0.566055 901 0.749660 0.661824 0.000000
-4.737377 -4.115421 -0.564161 913 0.749660 0.661824 0.000000
-4.737447 -4.115487 -0.562221 913 0.749660 0.661824 0.000000
-4.736970 -4.115069 -0.560225 905 0.749660 0.661824 0.000000
-4.737041 -4.115136 -0.558294 913 0.749660 0.661824 0.000000
-4.736572 -4.114724 -0.556298 901 0.749660 0.661824 0.000000
-4.735985 -4.114219 -0.554284 879 0.749660 0.661824 0.000000
-4.736546 -4.114698 -0.552409 895 0.749660 0.661824 0.000000
-4.736617 -4.114765 -0.550478 921 0.749660 0.661824 0.000000
-4.736908 -4.115019 -0.548565 923 0.749660 0.661824 0.000000
-4.737256 -4.115317 -0.546662 911 0.749660 0.661823 0.000000
-4.737103 -4.115181 -0.544703 941 0.749660 0.661824 0.000000
-4.736959 -4.115053 -0.542755 923 0.749660 0.661824 0.000000
-4.736864 -4.114975 -0.540795 895 0.749660 0.661824 0.000000
-4.736213 -4.114406 -0.538781 897 0.749660 0.661824 0.000000
-4.735951 -4.114184 -0.536814 905 0.749660 0.661824 0.000000
-4.737177 -4.115241 -0.535012 931 0.749660 0.661824 0.000000
-4.736795 -4.114911 -0.533026 925 0.749660 0.661824 0.000000
-4.736264 -4.114450 -0.531031 921 0.749660 0.661824 0.000000
-4.737372 -4.115415 -0.529211 927 0.749660 0.661824 0.000000
-4.737607 -4.115612 -0.527298 941 0.749660 0.661824 0.000000
-4.737455 -4.115476 -0.525340 937 0.749660 0.661824 0.000000
-4.736798 -4.114915 -0.523326 925 0.749660 0.661824 0.000000
-4.736258 -4.114447 -0.521330 911 0.749660 0.661824 0.000000
-4.736881 -4.114977 -0.519455 919 0.749660 0.661824 0.000000
-4.736612 -4.114748 -0.517487 903 0.749660 0.661824 0.000000
-4.736515 -4.114656 -0.515538 905 0.749660 0.661824 0.000000
-4.736903 -4.114999 -0.513634 917 0.749660 0.661824 0.000000
-4.737130 -4.115190 -0.511722 925 0.749660 0.661824 0.000000
-4.737027 -4.115106 -0.509773 911 0.749660 0.661824 0.000000
-4.736479 -4.114632 -0.507778 909 0.749660 0.661824 0.000000
-4.736050 -4.114251 -0.505792 907 0.749660 0.661823 0.000000
-4.736216 -4.114406 -0.503870 917 0.749660 0.661824 0.000000
-4.736381 -4.114547 -0.501949 929 0.749660 0.661824 0.000000
-4.736117 -4.114310 -0.499981 933 0.749660 0.661824 0.000000
-4.736290 -4.114458 -0.498060 943 0.749660 0.661824 0.000000
-4.736629 -4.114749 -0.496157 941 0.749660 0.661824 0.000000
-4.737288 -4.115332 -0.494290 943 0.749660 0.661824 0.000000
-4.737119 -4.115184 -0.492332 933 0.749660 0.661823 0.000000
-4.737229 -4.115282 -0.490401 939 0.749660 0.661824 0.000000
-4.737124 -4.115183 -0.488452 913 0.749660 0.661824 0.000000
-4.736577 -4.114709 -0.486457 895 0.749660 0.661824 0.000000
-4.736639 -4.114756 -0.484526 899 0.749660 0.661824 0.000000
-4.737676 -4.115664 -0.482697 929 0.749660 0.661824 0.000000
-4.737849 -4.115812 -0.480775 945 0.749660 0.661824 0.000000
-4.737514 -4.115520 -0.478798 925 0.749660 0.661824 0.000000
-4.737022 -4.115089 -0.476813 919 0.749660 0.661824 0.000000
-4.736855 -4.114941 -0.474864 909 0.749660 0.661824 0.000000
-4.736965 -4.115038 -0.472933 913 0.749660 0.661824 0.000000
-4.736679 -4.114798 -0.470966 923 0.749660 0.661824 0.000000
-4.736844 -4.114939 -0.469044 921 0.749660 0.661824 0.000000
-4.737119 -4.115167 -0.467131 917 0.749660 0.661824 0.000000
-4.737665 -4.115648 -0.465246 925 0.749660 0.661824 0.000000
-4.737497 -4.115500 -0.463298 931 0.749660 0.661824 0.000000
-4.736784 -4.114882 -0.461294 921 0.749660 0.661824 0.000000
-4.737162 -4.115205 -0.459391 931 0.749660 0.661824 0.000000
-4.737098 -4.115151 -0.457441 927 0.749660 0.661824 0.000000
-4.736652 -4.114758 -0.455465 903 0.749660 0.661824 0.000000
-4.736263 -4.114422 -0.453489 903 0.749660 0.661824 0.000000
-4.735867 -4.114080 -0.451522 925 0.749660 0.661824 0.000000
-4.736086 -4.114265 -0.449600 929 0.749660 0.661824 0.000000
-4.736514 -4.114639 -0.447707 939 0.749660 0.661824 0.000000
-4.737503 -4.115496 -0.445868 947 0.749660 0.661823 0.000000
-4.736718 -4.114822 -0.443855 939 0.749660 0.661824 0.000000
-4.736051 -4.114241 -0.441861 923 0.749660 0.661824 0.000000
-4.736643 -4.114745 -0.439975 915 0.749660 0.661824 0.000000
-4.736690 -4.114793 -0.438045 909 0.749660 0.661824 0.000000
-4.736356 -4.114501 -0.436078 885 0.749660 0.661824 0.000000
-4.737108 -4.115158 -0.434211 907 0.749660 0.661824 0.000000
-4.737541 -4.115524 -0.432307 919 0.749660 0.661824 0.000000
-4.736978 -4.115038 -0.430322 903 0.749660 0.661824 0.000000
-4.737072 -4.115123 -0.428401 903 0.749660 0.661823 0.000000
-4.736517 -4.114643 -0.426416 893 0.749660 0.661824 0.000000
-4.736618 -4.114720 -0.424485 913 0.749660 0.661824 0.000000
-4.736546 -4.114661 -0.422546 901 0.749660 0.661824 0.000000
-4.736862 -4.114934 -0.420633 919 0.749660 0.661824 0.000000
-4.737234 -4.115265 -0.418729 923 0.749660 0.661824 0.000000
-4.737271 -4.115293 -0.416799 915 0.749660 0.661823 0.000000
-4.736597 -4.114705 -0.414805 905 0.749660 0.661824 0.000000
-4.736144 -4.114305 -0.412829 901 0.749660 0.661824 0.000000
-4.735627 -4.113856 -0.410854 899 0.749660 0.661824 0.000000
-4.735714 -4.113935 -0.408933 911 0.749660 0.661824 0.000000
-4.736695 -4.114786 -0.407074 905 0.749660 0.661824 0.000000
-4.736678 -4.114770 -0.405144 905 0.749660 0.661824 0.000000
-4.736107 -4.114278 -0.403159 911 0.749660 0.661824 0.000000
-4.736913 -4.114978 -0.401292 907 0.749660 0.661824 0.000000
-4.738275 -4.116155 -0.399469 909 0.749660 0.661824 0.000000
-4.738029 -4.115945 -0.397512 909 0.749660 0.661824 0.000000
-4.737076 -4.115113 -0.395500 915 0.749660 0.661824 0.000000
-4.736402 -4.114525 -0.393506 915 0.749660 0.661824 0.000000
-4.736052 -4.114221 -0.391549 903 0.749660 0.661823 0.000000
-4.736138 -4.114299 -0.389619 913 0.749660 0.661824 0.000000
-4.736945 -4.115000 -0.387751 917 0.749660 0.661823 0.000000
-4.736151 -4.114305 -0.385758 903 0.749660 0.661824 0.000000
-4.735905 -4.114095 -0.383801 897 0.749660 0.661824 0.000000
-4.737148 -4.115180 -0.381969 921 0.749660 0.661824 0.000000
-4.737456 -4.115446 -0.380056 921 0.749660 0.661824 0.000000
-4.737819 -4.115757 -0.378153 917 0.749660 0.661824 0.000000
-4.738182 -4.116067 -0.376250 945 0.749660 0.661824 0.000000
-4.737491 -4.115468 -0.374256 933 0.749660 0.661824 0.000000
-4.736524 -4.114636 -0.372255 905 0.749660 0.661824 0.000000
-4.736063 -4.114230 -0.370279 887 0.749660 0.661824 0.000000
-4.736537 -4.114642 -0.368384 893 0.749660 0.661824 0.000000
-4.737059 -4.115090 -0.366490 903 0.749660 0.661824 0.000000
-4.736763 -4.114829 -0.364532 895 0.749660 0.661824 0.000000
-4.736621 -4.114714 -0.362594 903 0.749660 0.661824 0.000000
-4.736921 -4.114975 -0.360681 899 0.749660 0.661824 0.000000
-4.737442 -4.115423 -0.358786 925 0.749660 0.661824 0.000000
-4.736815 -4.114873 -0.356802 923 0.749660 0.661823 0.000000
-4.736672 -4.114758 -0.354863 927 0.749660 0.661824 0.000000
-4.737139 -4.115163 -0.352959 927 0.749660 0.661824 0.000000
-4.737494 -4.115467 -0.351056 921 0.749660 0.661824 0.000000
-4.737246 -4.115243 -0.349108 925 0.749660 0.661823 0.000000
-4.737213 -4.115215 -0.347168 935 0.749660 0.661824 0.000000
-4.737458 -4.115432 -0.345256 939 0.749660 0.661824 0.000000
-4.737363 -4.115355 -0.343316 949 0.749660 0.661824 0.000000
-4.737281 -4.115275 -0.341377 935 0.749660 0.661824 0.000000
-4.737526 -4.115492 -0.339465 907 0.749660 0.661824 0.000000
-4.737382 -4.115363 -0.337516 897 0.749660 0.661824 0.000000
-4.736913 -4.114951 -0.335550 889 0.749660 0.661824 0.000000
-4.736929 -4.114974 -0.333620 917 0.749660 0.661824 0.000000
-4.736681 -4.114750 -0.331672 923 0.749660 0.661824 0.000000
-4.736365 -4.114485 -0.329715 907 0.749660 0.661824 0.000000
-4.735880 -4.114061 -0.327760 901 0.749660 0.661824 0.000000
-4.735307 -4.113554 -0.325785 905 0.749660 0.661824 0.000000
-4.735481 -4.113715 -0.323863 903 0.749660 0.661824 0.000000
-4.736161 -4.114303 -0.321977 897 0.749660 0.661824 0.000000
-4.736176 -4.114312 -0.320047 911 0.749660 0.661824 0.000000
-4.735866 -4.114038 -0.318099 933 0.749660 0.661824 0.000000
-4.736547 -4.114639 -0.316213 915 0.749660 0.661824 0.000000
-4.736512 -4.114596 -0.314274 903 0.749660 0.661824 0.000000
-4.736029 -4.114186 -0.312318 919 0.749660 0.661824 0.000000
-4.736376 -4.114484 -0.310405 923 0.749660 0.661824 0.000000
-4.736502 -4.114594 -0.308483 915 0.749660 0.661823 0.000000
-4.736675 -4.114742 -0.306562 925 0.749660 0.661824 0.000000
-4.737030 -4.115046 -0.304649 919 0.749660 0.661824 0.000000
-4.738027 -4.113449 -0.694471 883 0.749660 0.661824 0.000000
-4.737971 -4.113402 -0.692511 883 0.749660 0.661824 0.000000
-4.737795 -4.113248 -0.690543 889 0.749660 0.661824 0.000000
-4.738174 -4.113571 -0.688640 883 0.749660 0.661824 0.000000
-4.737847 -4.113285 -0.686642 873 0.749660 0.661824 0.000000
-4.738004 -4.113420 -0.684721 889 0.749660 0.661824 0.000000
-4.738265 -4.113649 -0.682809 899 0.749660 0.661823 0.000000
-4.737661 -4.113117 -0.680774 893 0.749660 0.661824 0.000000
-4.737922 -4.113347 -0.678862 903 0.749660 0.661824 0.000000
-4.738128 -4.113533 -0.676940 895 0.749660 0.661823 0.000000
-4.737793 -4.113241 -0.674943 877 0.749660 0.661824 0.000000
-4.737901 -4.113324 -0.673012 871 0.749660 0.661824 0.000000
-4.738384 -4.113742 -0.671127 883 0.749660 0.661824 0.000000
-4.738969 -4.114254 -0.669262 873 0.749660 0.661824 0.000000
-4.739721 -4.114912 -0.667415 883 0.749660 0.661824 0.000000
-4.739165 -4.114430 -0.665390 885 0.749660 0.661824 0.000000
-4.738221 -4.113604 -0.663309 883 0.749660 0.661824 0.000000
-4.738157 -4.113551 -0.661359 883 0.749660 0.661824 0.000000
-4.738140 -4.113534 -0.659409 875 0.749660 0.661824 0.000000
-4.738130 -4.113525 -0.657459 877 0.749660 0.661824 0.000000
-4.738225 -4.113610 -0.655518 889 0.749660 0.661824 0.000000
-4.738041 -4.113450 -0.653550 881 0.749660 0.661824 0.000000
-4.738245 -4.113623 -0.651628 881 0.749660 0.661823 0.000000
-4.738458 -4.113801 -0.649706 879 0.749660 0.661824 0.000000
-4.738282 -4.113646 -0.647738 859 0.749660 0.661824 0.000000
-4.738313 -4.113682 -0.645797 869 0.749660 0.661824 0.000000
-4.739063 -4.114325 -0.643951 887 0.749660 0.661824 0.000000
-4.739103 -4.114367 -0.642010 887 0.749660 0.661824 0.000000
-4.738380 -4.113728 -0.639967 881 0.749660 0.661824 0.000000
-4.738024 -4.113431 -0.637970 873 0.749660 0.661824 0.000000
-4.737957 -4.113363 -0.636010 869 0.749660 0.661824 0.000000
-4.738314 -4.113682 -0.634117 879 0.749660 0.661824 0.000000
-4.738628 -4.113941 -0.632214 867 0.749660 0.661824 0.000000
-4.738992 -4.114265 -0.630311 887 0.749660 0.661824 0.000000
-4.739300 -4.114532 -0.628408 905 0.749660 0.661823 0.000000
-4.738902 -4.114176 -0.626412 887 0.749660 0.661824 0.000000
-4.738331 -4.113683 -0.624387 901 0.749660 0.661824 0.000000
-4.738750 -4.114051 -0.622493 905 0.749660 0.661824 0.000000
-4.739160 -4.114399 -0.620599 891 0.749660 0.661824 0.000000
-4.738533 -4.113863 -0.618575 881 0.749660 0.661824 0.000000
-4.738405 -4.113746 -0.616616 879 0.749660 0.661824 0.000000
-4.738768 -4.114056 -0.614713 887 0.749660 0.661824 0.000000
-4.739013 -4.114273 -0.612800 901 0.749660 0.661824 0.000000
-4.738884 -4.114157 -0.610841 911 0.749660 0.661824 0.000000
-4.738251 -4.113614 -0.608817 893 0.749660 0.661823 0.000000
-4.738502 -4.113823 -0.606905 895 0.749660 0.661824 0.000000
-4.739626 -4.114801 -0.605095 917 0.749660 0.661824 0.000000
-4.739276 -4.114496 -0.603108 909 0.749660 0.661824 0.000000
-4.738039 -4.113425 -0.601009 907 0.749660 0.661824 0.000000
-4.737959 -4.113359 -0.599060 917 0.749660 0.661824 0.000000
-4.738314 -4.113664 -0.597156 921 0.749660 0.661824 0.000000
-4.738336 -4.113679 -0.595216 923 0.749660 0.661824 0.000000
-4.738256 -4.113614 -0.593257 911 0.749660 0.661824 0.000000
-4.738556 -4.113874 -0.591354 909 0.749660 0.661824 0.000000
-4.738641 -4.113939 -0.589423 911 0.749660 0.661824 0.000000
-4.738608 -4.113911 -0.587473 913 0.749660 0.661823 0.000000
-4.738750 -4.114034 -0.585542 933 0.749660 0.661824 0.000000
-4.739090 -4.114339 -0.583639 935 0.749660 0.661824 0.000000
-4.738739 -4.114020 -0.581652 917 0.749660 0.661824 0.000000
-4.737661 -4.113088 -0.579582 901 0.749660 0.661824 0.000000
-4.737731 -4.113154 -0.577651 901 0.749660 0.661824 0.000000
-4.738198 -4.113559 -0.575757 915 0.749660 0.661824 0.000000
-4.737784 -4.113191 -0.573771 901 0.749660 0.661824 0.000000
-4.737530 -4.112975 -0.571793 893 0.749660 0.661824 0.000000
-4.737773 -4.113178 -0.569881 903 0.749660 0.661824 0.000000
-4.738114 -4.113484 -0.567977 903 0.749660 0.661824 0.000000
-4.738739 -4.114027 -0.566112 915 0.749660 0.661824 0.000000
-4.739037 -4.114274 -0.564209 921 0.749660 0.661823 0.000000
-4.738671 -4.113957 -0.562222 913 0.749660 0.661824 0.000000
-4.738481 -4.113791 -0.560254 909 0.749660 0.661824 0.000000
-4.738322 -4.113663 -0.558295 905 0.749660 0.661824 0.000000
-4.738122 -4.113490 -0.556327 895 0.749660 0.661824 0.000000
-4.738137 -4.113499 -0.554387 887 0.749660 0.661824 0.000000
-4.738160 -4.113514 -0.552447 899 0.749660 0.661824 0.000000
-4.737897 -4.113292 -0.550479 905 0.749660 0.661824 0.000000
-4.738521 -4.113822 -0.548603 929 0.749660 0.661824 0.000000
-4.738537 -4.113844 -0.546663 925 0.749660 0.661824 0.000000
-4.738448 -4.113759 -0.544714 919 0.749660 0.661824 0.000000
-4.738344 -4.113674 -0.542765 915 0.749660 0.661824 0.000000
-4.737978 -4.113358 -0.540778 899 0.749660 0.661824 0.000000
-4.737548 -4.112976 -0.538792 899 0.749660 0.661824 0.000000
-4.737729 -4.113130 -0.536870 905 0.749660 0.661823 0.000000
-4.738513 -4.113812 -0.535023 917 0.749660 0.661823 0.000000
-4.738638 -4.113922 -0.533092 915 0.749660 0.661824 0.000000
-4.738265 -4.113598 -0.531105 909 0.749660 0.661824 0.000000
-4.737995 -4.113369 -0.529138 909 0.749660 0.661824 0.000000
-4.737731 -4.113133 -0.527170 915 0.749660 0.661824 0.000000
-4.737255 -4.112715 -0.525174 913 0.749660 0.661824 0.000000
-4.737318 -4.112775 -0.523244 907 0.749660 0.661824 0.000000
-4.738481 -4.113783 -0.521433 911 0.749660 0.661824 0.000000
-4.739256 -4.114459 -0.519576 925 0.749660 0.661824 0.000000
-4.738717 -4.113991 -0.517581 917 0.749660 0.661824 0.000000
-4.738129 -4.113472 -0.515576 899 0.749660 0.661823 0.000000
-4.738564 -4.113852 -0.513682 931 0.749660 0.661824 0.000000
-4.738681 -4.113956 -0.511751 935 0.749660 0.661824 0.000000
-4.738799 -4.114060 -0.509830 919 0.749660 0.661824 0.000000
-4.739027 -4.114251 -0.507908 923 0.749660 0.661824 0.000000
-4.738708 -4.113971 -0.505941 929 0.749660 0.661824 0.000000
-4.738376 -4.113692 -0.503964 933 0.749660 0.661824 0.000000
-4.738278 -4.113601 -0.502015 939 0.749660 0.661823 0.000000
-4.738223 -4.113554 -0.500065 943 0.749660 0.661824 0.000000
-4.738062 -4.113412 -0.498116 939 0.749660 0.661824 0.000000
-4.737626 -4.113039 -0.496130 925 0.749660 0.661824 0.000000
-4.737466 -4.112897 -0.494172 931 0.749660 0.661824 0.000000
-4.737519 -4.112937 -0.492241 917 0.749660 0.661824 0.000000
-4.737700 -4.113091 -0.490319 923 0.749660 0.661823 0.000000
-4.738025 -4.113384 -0.488416 919 0.749660 0.661824 0.000000
-4.737976 -4.113330 -0.486477 913 0.749660 0.661824 0.000000
-4.737420 -4.112849 -0.484482 911 0.749660 0.661824 0.000000
-4.737751 -4.113134 -0.482569 925 0.749660 0.661824 0.000000
-4.738631 -4.113905 -0.480721 943 0.749660 0.661824 0.000000
-4.738907 -4.114148 -0.478818 927 0.749660 0.661824 0.000000
-4.738802 -4.114049 -0.476869 919 0.749660 0.661824 0.000000
-4.739458 -4.114617 -0.474993 917 0.749660 0.661824 0.000000
-4.739457 -4.114614 -0.473053 937 0.749660 0.661824 0.000000
-4.738965 -4.114183 -0.471068 939 0.749660 0.661824 0.000000
-4.738838 -4.114081 -0.469119 927 0.749660 0.661824 0.000000
-4.738012 -4.113361 -0.467096 929 0.749660 0.661824 0.000000
-4.738177 -4.113502 -0.465175 923 0.749660 0.661824 0.000000
-4.738675 -4.113933 -0.463290 925 0.749660 0.661824 0.000000
-4.738215 -4.113541 -0.461304 931 0.749660 0.661823 0.000000
-4.738055 -4.113400 -0.459356 931 0.749660 0.661823 0.000000
-4.738545 -4.113823 -0.457461 947 0.749660 0.661824 0.000000
-4.738432 -4.113719 -0.455512 931 0.749660 0.661824 0.000000
-4.738256 -4.113564 -0.453564 935 0.749660 0.661824 0.000000
-4.737757 -4.113128 -0.451578 933 0.749660 0.661823 0.000000
-4.737645 -4.113038 -0.449629 927 0.749660 0.661824 0.000000
-4.738460 -4.113744 -0.447772 949 0.749660 0.661824 0.000000
-4.738173 -4.113489 -0.445804 945 0.749660 0.661824 0.000000
-4.737000 -4.112482 -0.443765 923 0.749660 0.661824 0.000000
-4.737608 -4.112999 -0.441879 933 0.749660 0.661824 0.000000
-4.738202 -4.113518 -0.440004 935 0.749660 0.661824 0.000000
-4.738026 -4.113364 -0.438045 913 0.749660 0.661824 0.000000
-4.737954 -4.113305 -0.436106 895 0.749660 0.661824 0.000000
-4.738229 -4.113533 -0.434193 925 0.749660 0.661824 0.000000
-4.737936 -4.113286 -0.432236 915 0.749660 0.661824 0.000000
-4.738101 -4.113427 -0.430315 921 0.749660 0.661824 0.000000
-4.738305 -4.113598 -0.428393 927 0.749660 0.661824 0.000000
-4.738454 -4.113728 -0.426471 913 0.749660 0.661824 0.000000
-4.738493 -4.113769 -0.424541 909 0.749660 0.661824 0.000000
-4.737549 -4.112942 -0.422519 921 0.749660 0.661824 0.000000
-4.737144 -4.112594 -0.420553 929 0.749660 0.661824 0.000000
-4.737134 -4.112584 -0.418613 911 0.749660 0.661824 0.000000
-4.737562 -4.112959 -0.416719 905 0.749660 0.661824 0.000000
-4.737995 -4.113325 -0.414815 905 0.749660 0.661824 0.000000
-4.737804 -4.113159 -0.412867 909 0.749660 0.661824 0.000000
-4.736908 -4.112383 -0.410855 905 0.749660 0.661824 0.000000
-4.736995 -4.112462 -0.408934 887 0.749660 0.661824 0.000000
-4.738080 -4.113408 -0.407084 885 0.749660 0.661824 0.000000
-4.738901 -4.114107 -0.405217 907 0.749660 0.661824 0.000000
-4.739042 -4.114229 -0.403295 899 0.749660 0.661824 0.000000
-4.737979 -4.113309 -0.401275 877 0.749660 0.661824 0.000000
-4.737741 -4.113105 -0.399317 889 0.749660 0.661824 0.000000
-4.738603 -4.113850 -0.397459 913 0.749660 0.661824 0.000000
-4.738856 -4.114073 -0.395547 915 0.749660 0.661824 0.000000
-4.738173 -4.113479 -0.393553 913 0.749660 0.661824 0.000000
-4.737554 -4.112935 -0.391569 905 0.749660 0.661824 0.000000
-4.737585 -4.112971 -0.389638 921 0.749660 0.661824 0.000000
-4.738336 -4.113614 -0.387761 915 0.749660 0.661824 0.000000
-4.738534 -4.113794 -0.385840 905 0.749660 0.661824 0.000000
-4.737462 -4.112854 -0.383829 901 0.749660 0.661824 0.000000
-4.737548 -4.112933 -0.381899 889 0.749660 0.661824 0.000000
-4.738078 -4.113387 -0.380004 893 0.749660 0.661824 0.000000
-4.738219 -4.113510 -0.378082 903 0.749660 0.661824 0.000000
-4.738250 -4.113545 -0.376152 919 0.749660 0.661824 0.000000
-4.737511 -4.112895 -0.374159 915 0.749660 0.661823 0.000000
-4.737154 -4.112584 -0.372202 909 0.749660 0.661824 0.000000
-4.737344 -4.112757 -0.370280 907 0.749660 0.661824 0.000000
-4.738372 -4.113646 -0.368431 915 0.749660 0.661824 0.000000
-4.738727 -4.113950 -0.366517 911 0.749660 0.661823 0.000000
-4.738260 -4.113552 -0.364552 901 0.749660 0.661824 0.000000
-4.738012 -4.113328 -0.362604 895 0.749660 0.661824 0.000000
-4.737987 -4.113306 -0.360664 901 0.749660 0.661824 0.000000
-4.738453 -4.113711 -0.358770 943 0.749660 0.661824 0.000000
-4.738476 -4.113726 -0.356840 941 0.749660 0.661823 0.000000
-4.737842 -4.113184 -0.354855 925 0.749660 0.661824 0.000000
-4.737872 -4.113205 -0.352925 925 0.749660 0.661824 0.000000
-4.738608 -4.113850 -0.351048 913 0.749660 0.661824 0.000000
-4.739026 -4.114203 -0.349144 925 0.749660 0.661824 0.000000
-4.738605 -4.113843 -0.347178 947 0.749660 0.661824 0.000000
-4.738303 -4.113576 -0.345221 935 0.749660 0.661824 0.000000
-4.739031 -4.114214 -0.343344 955 0.749660 0.661823 0.000000
-4.738174 -4.113470 -0.341352 943 0.749660 0.661823 0.000000
-4.737705 -4.113058 -0.339386 911 0.749660 0.661824 0.000000
-4.739051 -4.114223 -0.337544 917 0.749660 0.661824 0.000000
-4.738955 -4.114145 -0.335605 925 0.749660 0.661824 0.000000
-4.738216 -4.113493 -0.333621 927 0.749660 0.661823 0.000000
-4.737796 -4.113133 -0.331665 911 0.749660 0.661824 0.000000
-4.737589 -4.112954 -0.329717 919 0.749660 0.661824 0.000000
-4.737611 -4.112969 -0.327787 915 0.749660 0.661824 0.000000
-4.738125 -4.113412 -0.325892 913 0.749660 0.661824 0.000000
-4.738258 -4.113528 -0.323971 919 0.749660 0.661824 0.000000
-4.737830 -4.113162 -0.322005 909 0.749660 0.661824 0.000000
-4.737852 -4.113177 -0.320074 905 0.749660 0.661824 0.000000
-4.738089 -4.113388 -0.318162 911 0.749660 0.661823 0.000000
-4.737937 -4.113253 -0.316213 915 0.749660 0.661824 0.000000
-4.737517 -4.112892 -0.314257 903 0.749660 0.661824 0.000000
-4.737856 -4.113184 -0.312354 899 0.749660 0.661824 0.000000
-4.738100 -4.113387 -0.310432 905 0.749660 0.661824 0.000000
-4.738004 -4.113309 -0.308493 913 0.749660 0.661824 0.000000
-4.738406 -4.113650 -0.306589 929 0.749660 0.661824 0.000000
-4.738905 -4.114095 -0.304694 909 0.749660 0.661824 0.000000
-4.739669 -4.112326 -0.694529 885 0.749660 0.661823 0.000000
-4.740105 -4.112706 -0.692645 889 0.749660 0.661824 0.000000
-4.739660 -4.112327 -0.690629 903 0.749660 0.661824 0.000000
-4.739492 -4.112178 -0.688650 887 0.749660 0.661824 0.000000
-4.739317 -4.112024 -0.686682 883 0.749660 0.661824 0.000000
-4.739427 -4.112122 -0.684741 915 0.749660 0.661824 0.000000
-4.739361 -4.112055 -0.682781 891 0.749660 0.661824 0.000000
-4.739408 -4.112103 -0.680841 877 0.749660 0.661824 0.000000
-4.739336 -4.112043 -0.678881 885 0.749660 0.661824 0.000000
-4.738953 -4.111700 -0.676885 875 0.749660 0.661824 0.000000
-4.738889 -4.111647 -0.674925 875 0.749660 0.661824 0.000000
-4.739205 -4.111919 -0.673023 865 0.749660 0.661824 0.000000
-4.738537 -4.111338 -0.670978 849 0.749660 0.661824 0.000000
-4.738419 -4.111242 -0.669009 831 0.749660 0.661824 0.000000
-4.740104 -4.112702 -0.667294 867 0.749660 0.661824 0.000000
-4.740649 -4.113169 -0.665429 887 0.749660 0.661823 0.000000
-4.740308 -4.112871 -0.663432 867 0.749660 0.661824 0.000000
-4.740077 -4.112673 -0.661444 875 0.749660 0.661824 0.000000
-4.740392 -4.112946 -0.659541 887 0.749660 0.661824 0.000000
-4.739995 -4.112604 -0.657545 887 0.749660 0.661823 0.000000
-4.739867 -4.112487 -0.655576 887 0.749660 0.661824 0.000000
-4.740570 -4.113093 -0.653720 883 0.749660 0.661824 0.000000
-4.740602 -4.113128 -0.651779 869 0.749660 0.661824 0.000000
-4.739935 -4.112547 -0.649745 855 0.749660 0.661824 0.000000
-4.739640 -4.112286 -0.647758 851 0.749660 0.661824 0.000000
-4.740122 -4.112703 -0.645874 843 0.749660 0.661824 0.000000
-4.740645 -4.113166 -0.643999 873 0.749660 0.661823 0.000000
-4.740144 -4.112729 -0.641983 869 0.749660 0.661824 0.000000
-4.739303 -4.111997 -0.639921 867 0.749660 0.661824 0.000000
-4.739444 -4.112119 -0.637990 879 0.749660 0.661824 0.000000
-4.739539 -4.112205 -0.636059 883 0.749660 0.661824 0.000000
-4.738911 -4.111654 -0.634034 867 0.749660 0.661824 0.000000
-4.739282 -4.111971 -0.632131 875 0.749660 0.661824 0.000000
-4.740081 -4.112665 -0.630294 883 0.749660 0.661824 0.000000
-4.740555 -4.113076 -0.628409 889 0.749660 0.661824 0.000000
-4.740205 -4.112772 -0.626412 879 0.749660 0.661824 0.000000
-4.739912 -4.112525 -0.624435 883 0.749660 0.661824 0.000000
-4.739014 -4.111734 -0.622363 897 0.749660 0.661824 0.000000
-4.738221 -4.111054 -0.620320 871 0.749660 0.661824 0.000000
-4.739179 -4.111887 -0.618501 871 0.749660 0.661824 0.000000
-4.739550 -4.112203 -0.616598 893 0.749660 0.661824 0.000000
-4.739628 -4.112276 -0.614667 879 0.749660 0.661824 0.000000
-4.740324 -4.112875 -0.612811 901 0.749660 0.661824 0.000000
-4.740250 -4.112802 -0.610852 925 0.749660 0.661824 0.000000
-4.739125 -4.111832 -0.608762 899 0.749660 0.661824 0.000000
-4.738546 -4.111333 -0.606747 891 0.749660 0.661824 0.000000
-4.739288 -4.111969 -0.604900 901 0.749660 0.661824 0.000000
-4.739596 -4.112237 -0.602987 897 0.749660 0.661824 0.000000
-4.739730 -4.112353 -0.601066 907 0.749660 0.661824 0.000000
-4.739435 -4.112092 -0.599079 919 0.749660 0.661824 0.000000
-4.738744 -4.111492 -0.597055 907 0.749660 0.661823 0.000000
-4.739322 -4.111998 -0.595180 897 0.749660 0.661824 0.000000
-4.740114 -4.112686 -0.593332 917 0.749660 0.661824 0.000000
-4.740032 -4.112606 -0.591383 943 0.749660 0.661823 0.000000
-4.739453 -4.112107 -0.589368 931 0.749660 0.661824 0.000000
-4.739698 -4.112325 -0.587456 927 0.749660 0.661824 0.000000
-4.740164 -4.112730 -0.585562 937 0.749660 0.661824 0.000000
-4.739965 -4.112557 -0.583594 915 0.749660 0.661824 0.000000
-4.739829 -4.112434 -0.581635 919 0.749660 0.661824 0.000000
-4.739796 -4.112406 -0.579685 909 0.749660 0.661824 0.000000
-4.739272 -4.111950 -0.577680 899 0.749660 0.661824 0.000000
-4.739294 -4.111966 -0.575740 909 0.749660 0.661824 0.000000
-4.739531 -4.112176 -0.573827 905 0.749660 0.661824 0.000000
-4.739165 -4.111859 -0.571841 889 0.749660 0.661824 0.000000
-4.739022 -4.111730 -0.569882 881 0.749660 0.661824 0.000000
-4.739322 -4.111991 -0.567979 889 0.749660 0.661824 0.000000
-4.739177 -4.111861 -0.566020 915 0.749660 0.661824 0.000000
-4.739477 -4.112123 -0.564108 921 0.749660 0.661824 0.000000
-4.739990 -4.112565 -0.562223 911 0.749660 0.661824 0.000000
-4.739181 -4.111858 -0.560190 909 0.749660 0.661824 0.000000
-4.738753 -4.111491 -0.558204 903 0.749660 0.661824 0.000000
-4.739156 -4.111846 -0.556300 901 0.749660 0.661823 0.000000
-4.739558 -4.112187 -0.554407 905 0.749660 0.661824 0.000000
-4.739850 -4.112442 -0.552504 905 0.749660 0.661824 0.000000
-4.739263 -4.111937 -0.550489 895 0.749660 0.661823 0.000000
-4.738453 -4.111229 -0.548457 895 0.749660 0.661823 0.000000
-4.738746 -4.111485 -0.546554 905 0.749660 0.661824 0.000000
-4.739862 -4.112455 -0.544734 911 0.749660 0.661824 0.000000
-4.740541 -4.113042 -0.542867 923 0.749660 0.661824 0.000000
-4.740168 -4.112719 -0.540891 909 0.749660 0.661824 0.000000
-4.739795 -4.112395 -0.538904 891 0.749660 0.661824 0.000000
-4.739206 -4.111876 -0.536899 875 0.749660 0.661824 0.000000
-4.739491 -4.112124 -0.534987 903 0.749660 0.661824 0.000000
-4.739616 -4.112235 -0.533066 917 0.749660 0.661824 0.000000
-4.739623 -4.112237 -0.531126 897 0.749660 0.661824 0.000000
-4.740295 -4.112818 -0.529259 895 0.749660 0.661824 0.000000
-4.739319 -4.111967 -0.527208 903 0.749660 0.661824 0.000000
-4.738288 -4.111072 -0.525158 909 0.749660 0.661824 0.000000
-4.738954 -4.111660 -0.523291 917 0.749660 0.661824 0.000000
-4.739680 -4.112284 -0.521425 937 0.749660 0.661824 0.000000
-4.739465 -4.112099 -0.519467 937 0.749660 0.661824 0.000000
-4.739583 -4.112203 -0.517536 931 0.749660 0.661823 0.000000
-4.739535 -4.112163 -0.515586 925 0.749660 0.661824 0.000000
-4.738996 -4.111694 -0.513591 905 0.749660 0.661824 0.000000
-4.739501 -4.112131 -0.511706 925 0.749660 0.661824 0.000000
-4.739957 -4.112515 -0.509812 935 0.749660 0.661824 0.000000
-4.739522 -4.112143 -0.507826 917 0.749660 0.661824 0.000000
-4.739465 -4.112095 -0.505886 917 0.749660 0.661824 0.000000
-4.739471 -4.112099 -0.503946 917 0.749660 0.661824 0.000000
-4.739153 -4.111819 -0.501979 923 0.749660 0.661824 0.000000
-4.739485 -4.112104 -0.500066 933 0.749660 0.661824 0.000000
-4.739865 -4.112441 -0.498173 929 0.749660 0.661824 0.000000
-4.739325 -4.111973 -0.496177 919 0.749660 0.661824 0.000000
-4.739441 -4.112063 -0.494246 923 0.749660 0.661824 0.000000
-4.739607 -4.112218 -0.492325 911 0.749660 0.661824 0.000000
-4.739115 -4.111787 -0.490339 917 0.749660 0.661824 0.000000
-4.739280 -4.111928 -0.488418 923 0.749660 0.661824 0.000000
-4.740222 -4.112749 -0.486569 927 0.749660 0.661824 0.000000
-4.740387 -4.112890 -0.484648 905 0.749660 0.661824 0.000000
-4.739998 -4.112554 -0.482671 897 0.749660 0.661824 0.000000
-4.740281 -4.112788 -0.480769 921 0.749660 0.661824 0.000000
-4.740057 -4.112597 -0.478800 931 0.749660 0.661824 0.000000
-4.739447 -4.112073 -0.476806 921 0.749660 0.661824 0.000000
-4.739564 -4.112163 -0.474875 923 0.749660 0.661824 0.000000
-4.739549 -4.112161 -0.472935 945 0.749660 0.661824 0.000000
-4.739721 -4.112309 -0.471023 941 0.749660 0.661824 0.000000
-4.740211 -4.112732 -0.469129 921 0.749660 0.661824 0.000000
-4.739219 -4.111868 -0.467098 911 0.749660 0.661824 0.000000
-4.738997 -4.111677 -0.465140 907 0.749660 0.661824 0.000000
-4.739874 -4.112433 -0.463282 929 0.749660 0.661824 0.000000
-4.739922 -4.112481 -0.461351 927 0.749660 0.661824 0.000000
-4.740363 -4.112854 -0.459457 929 0.749660 0.661824 0.000000
-4.740632 -4.113090 -0.457545 963 0.749660 0.661824 0.000000
-4.740068 -4.112603 -0.455550 945 0.749660 0.661824 0.000000
-4.739797 -4.112360 -0.453592 951 0.749660 0.661824 0.000000
-4.739400 -4.112018 -0.451616 947 0.749660 0.661824 0.000000
-4.739280 -4.111922 -0.449667 943 0.749660 0.661824 0.000000
-4.739057 -4.111716 -0.447709 939 0.749660 0.661824 0.000000
-4.739713 -4.112285 -0.445833 939 0.749660 0.661824 0.000000
-4.739862 -4.112413 -0.443911 941 0.749660 0.661824 0.000000
-4.738482 -4.111217 -0.441844 931 0.749660 0.661824 0.000000
-4.738688 -4.111403 -0.439932 931 0.749660 0.661824 0.000000
-4.739503 -4.112110 -0.438075 909 0.749660 0.661824 0.000000
-4.739778 -4.112338 -0.436162 907 0.749660 0.661824 0.000000
-4.740198 -4.112706 -0.434258 911 0.749660 0.661824 0.000000
-4.740078 -4.112609 -0.432309 933 0.749660 0.661824 0.000000
-4.739292 -4.111921 -0.430306 929 0.749660 0.661823 0.000000
-4.739886 -4.112440 -0.428421 917 0.749660 0.661824 0.000000
-4.740755 -4.113189 -0.426563 933 0.749660 0.661824 0.000000
-4.740310 -4.112796 -0.424587 915 0.749660 0.661824 0.000000
-4.739351 -4.111971 -0.422566 913 0.749660 0.661824 0.000000
-4.739446 -4.112056 -0.420645 921 0.749660 0.661823 0.000000
-4.739380 -4.111989 -0.418705 917 0.749660 0.661823 0.000000
-4.739419 -4.112031 -0.416775 921 0.749660 0.661824 0.000000
-4.739021 -4.111675 -0.414798 931 0.749660 0.661823 0.000000
-4.738291 -4.111044 -0.412805 929 0.749660 0.661824 0.000000
-4.738108 -4.110884 -0.410857 917 0.749660 0.661823 0.000000
-4.738756 -4.111446 -0.408971 897 0.749660 0.661824 0.000000
-4.739508 -4.112103 -0.407104 905 0.749660 0.661824 0.000000
-4.739554 -4.112137 -0.405173 917 0.749660 0.661824 0.000000
-4.739861 -4.112403 -0.403261 913 0.749660 0.661824 0.000000
-4.739844 -4.112388 -0.401321 903 0.749660 0.661823 0.000000
-4.739211 -4.111846 -0.399336 897 0.749660 0.661824 0.000000
-4.738869 -4.111547 -0.397379 919 0.749660 0.661824 0.000000
-4.739294 -4.111907 -0.395476 911 0.749660 0.661824 0.000000
-4.739706 -4.112269 -0.393572 889 0.749660 0.661824 0.000000
-4.739689 -4.112253 -0.391642 895 0.749660 0.661824 0.000000
-4.739443 -4.112043 -0.389684 889 0.749660 0.661824 0.000000
-4.739868 -4.112403 -0.387790 891 0.749660 0.661823 0.000000
-4.739622 -4.112194 -0.385832 903 0.749660 0.661824 0.000000
-4.738669 -4.111361 -0.383821 891 0.749660 0.661824 0.000000
-4.738748 -4.111434 -0.381890 889 0.749660 0.661824 0.000000
-4.738889 -4.111556 -0.379969 903 0.749660 0.661824 0.000000
-4.738761 -4.111439 -0.378030 885 0.749660 0.661824 0.000000
-4.739069 -4.111706 -0.376117 879 0.749660 0.661824 0.000000
-4.739314 -4.111923 -0.374205 899 0.749660 0.661824 0.000000
-4.739185 -4.111806 -0.372256 909 0.749660 0.661824 0.000000
-4.738765 -4.111446 -0.370300 921 0.749660 0.661824 0.000000
-4.739018 -4.111670 -0.368377 921 0.749660 0.661824 0.000000
-4.739547 -4.112124 -0.366493 929 0.749660 0.661824 0.000000
-4.739681 -4.112240 -0.364561 933 0.749660 0.661823 0.000000
-4.739219 -4.111835 -0.362595 913 0.749660 0.661824 0.000000
-4.739520 -4.112095 -0.360683 939 0.749660 0.661824 0.000000
-4.740048 -4.112550 -0.358788 929 0.749660 0.661824 0.000000
-4.739961 -4.112479 -0.356849 909 0.749660 0.661824 0.000000
-4.739762 -4.112306 -0.354900 925 0.749660 0.661824 0.000000
-4.738739 -4.111417 -0.352900 897 0.749660 0.661824 0.000000
-4.738111 -4.110868 -0.350915 901 0.749660 0.661824 0.000000
-4.738514 -4.111223 -0.349012 911 0.749660 0.661824 0.000000
-4.738981 -4.111628 -0.347117 931 0.749660 0.661824 0.000000
-4.739177 -4.111794 -0.345195 931 0.749660 0.661824 0.000000
-4.739192 -4.111803 -0.343265 923 0.749660 0.661824 0.000000
-4.738938 -4.111587 -0.341318 927 0.749660 0.661823 0.000000
-4.738746 -4.111420 -0.339369 927 0.749660 0.661824 0.000000
-4.738706 -4.111386 -0.337440 941 0.749660 0.661824 0.000000
-4.739718 -4.112262 -0.335570 945 0.749660 0.661823 0.000000
-4.739797 -4.112335 -0.333650 941 0.749660 0.661824 0.000000
-4.739819 -4.112350 -0.331719 947 0.749660 0.661824 0.000000
-4.740444 -4.112893 -0.329824 953 0.749660 0.661824 0.000000
