336
-21.220461 -20.297810 -0.652273 1389 0.732289 0.680993 0.000000
-21.220808 -20.298141 -0.643269 1393 0.732289 0.680993 0.000000
-21.220371 -20.297728 -0.634233 1393 0.732289 0.680993 0.000000
-21.220455 -20.297812 -0.625212 1401 0.732289 0.680993 0.000000
-21.221592 -20.298901 -0.616221 1411 0.732289 0.680993 0.000000
-21.221148 -20.298479 -0.607185 1393 0.732289 0.680993 0.000000
-21.221075 -20.298409 -0.598166 1391 0.732289 0.680993 0.000000
-21.220884 -20.298231 -0.589137 1397 0.732289 0.680993 0.000000
-21.220747 -20.298096 -0.580108 1385 0.732289 0.680993 0.000000
-21.221672 -20.298988 -0.571109 1401 0.732289 0.680993 0.000000
-21.222118 -20.299404 -0.562105 1389 0.732289 0.680993 0.000000
-21.221437 -20.298765 -0.553061 1399 0.732289 0.680993 0.000000
-21.221245 -20.298574 -0.544033 1407 0.732289 0.680993 0.000000
-21.221735 -20.299047 -0.535028 1405 0.732289 0.680993 0.000000
-21.221907 -20.299215 -0.526016 1397 0.732289 0.680993 0.000000
-21.221272 -20.298613 -0.516972 1393 0.732289 0.680993 0.000000
-21.220661 -20.298018 -0.507937 1381 0.732289 0.680993 0.000000
-21.221292 -20.298635 -0.498931 1379 0.732289 0.680993 0.000000
-21.221663 -20.298988 -0.489918 1385 0.732289 0.680993 0.000000
-21.221827 -20.299135 -0.480906 1383 0.732289 0.680993 0.000000
-21.222141 -20.299444 -0.471893 1389 0.732289 0.680993 0.000000
-21.221504 -20.298843 -0.462858 1391 0.732289 0.680993 0.000000
-21.220222 -20.297613 -0.453810 1389 0.732289 0.680993 0.000000
-21.220173 -20.297562 -0.444791 1385 0.732289 0.680993 0.000000
-21.220953 -20.298313 -0.435783 1399 0.732289 0.680993 0.000000
-21.221262 -20.298615 -0.426770 1401 0.732289 0.680993 0.000000
-21.221245 -20.298605 -0.417750 1405 0.732289 0.680993 0.000000
-21.221392 -20.298737 -0.408728 1395 0.732289 0.680993 0.000000
-21.221106 -20.298470 -0.399701 1387 0.732289 0.680993 0.000000
-21.220669 -20.298054 -0.390675 1387 0.732289 0.680993 0.000000
-21.220278 -20.297676 -0.381648 1389 0.732289 0.680993 0.000000
-21.220207 -20.297607 -0.372628 1385 0.732289 0.680993 0.000000
-21.220284 -20.297686 -0.363618 1381 0.732289 0.680993 0.000000
-21.220201 -20.297609 -0.354588 1385 0.732289 0.680993 0.000000
-21.221127 -20.298500 -0.345589 1385 0.732289 0.680993 0.000000
-21.221148 -20.298521 -0.336569 1393 0.732289 0.680993 0.000000
-21.220743 -20.298128 -0.327542 1403 0.732289 0.680993 0.000000
-21.220711 -20.298105 -0.318522 1403 0.732289 0.680993 0.000000
-21.220676 -20.298069 -0.309503 1387 0.732289 0.680993 0.000000
-21.221748 -20.299091 -0.300502 1399 0.732289 0.680993 0.000000
-21.222025 -20.299356 -0.291489 1403 0.732289 0.680993 0.000000
-21.220821 -20.298216 -0.282451 1393 0.732289 0.680993 0.000000
-21.228523 -20.292860 -0.652330 1403 0.732289 0.680993 0.000000
-21.229517 -20.293810 -0.643340 1415 0.732289 0.680993 0.000000
-21.228962 -20.293285 -0.634305 1393 0.732289 0.680993 0.000000
-21.228733 -20.293076 -0.625267 1399 0.732289 0.680993 0.000000
-21.228661 -20.293005 -0.616248 1403 0.732289 0.680993 0.000000
-21.227417 -20.291807 -0.607189 1391 0.732289 0.680993 0.000000
-21.227604 -20.291986 -0.598167 1387 0.732289 0.680993 0.000000
-21.228266 -20.292629 -0.589171 1391 0.732289 0.680993 0.000000
-21.227806 -20.292192 -0.580135 1389 0.732289 0.680993 0.000000
-21.227409 -20.291809 -0.571098 1385 0.732289 0.680993 0.000000
-21.228333 -20.292688 -0.562099 1401 0.732289 0.680993 0.000000
-21.227911 -20.292297 -0.553073 1397 0.732289 0.680993 0.000000
-21.226994 -20.291416 -0.544021 1399 0.732289 0.680993 0.000000
-21.227268 -20.291677 -0.535009 1381 0.732289 0.680993 0.000000
-21.227804 -20.292192 -0.526004 1371 0.732289 0.680993 0.000000
-21.227556 -20.291954 -0.516976 1375 0.732289 0.680993 0.000000
-21.226923 -20.291355 -0.507941 1389 0.732289 0.680993 0.000000
-21.227182 -20.291605 -0.498929 1383 0.732289 0.680993 0.000000
-21.227884 -20.292278 -0.489922 1385 0.732289 0.680993 0.000000
-21.228048 -20.292427 -0.480900 1407 0.732289 0.680993 0.000000
-21.227507 -20.291914 -0.471875 1395 0.732289 0.680993 0.000000
-21.226929 -20.291370 -0.462840 1397 0.732289 0.680993 0.000000
-21.226980 -20.291414 -0.453819 1393 0.732289 0.680993 0.000000
-21.226654 -20.291101 -0.444792 1389 0.732289 0.680993 0.000000
-21.227436 -20.291853 -0.435785 1387 0.732289 0.680993 0.000000
-21.228058 -20.292448 -0.426779 1385 0.732289 0.680993 0.000000
-21.226990 -20.291433 -0.417738 1397 0.732289 0.680993 0.000000
-21.227026 -20.291462 -0.408718 1397 0.732289 0.680993 0.000000
-21.227278 -20.291708 -0.399705 1403 0.732289 0.680993 0.000000
-21.226883 -20.291338 -0.390679 1409 0.732289 0.680993 0.000000
-21.227133 -20.291569 -0.381666 1391 0.732289 0.680993 0.000000
-21.226950 -20.291397 -0.372638 1401 0.732289 0.680993 0.000000
-21.226444 -20.290924 -0.363612 1397 0.732289 0.680993 0.000000
-21.226685 -20.291149 -0.354600 1397 0.732289 0.680993 0.000000
-21.226343 -20.290821 -0.345573 1389 0.732289 0.680993 0.000000
-21.226894 -20.291348 -0.336568 1395 0.732289 0.680993 0.000000
-21.227802 -20.292227 -0.327559 1393 0.732289 0.680993 0.000000
-21.227722 -20.292152 -0.318539 1381 0.732289 0.680993 0.000000
-21.226898 -20.291359 -0.309507 1397 0.732289 0.680993 0.000000
-21.225473 -20.289999 -0.300470 1389 0.732289 0.680993 0.000000
-21.225544 -20.290071 -0.291449 1387 0.732289 0.680993 0.000000
-21.226349 -20.290840 -0.282441 1383 0.732289 0.680993 0.000000
-21.234343 -20.285295 -0.652310 1393 0.732289 0.680993 0.000000
-21.234640 -20.285580 -0.643297 1387 0.732289 0.680993 0.000000
-21.234356 -20.285311 -0.634270 1387 0.732289 0.680993 0.000000
-21.234716 -20.285658 -0.625256 1405 0.732289 0.680993 0.000000
-21.234793 -20.285721 -0.616235 1395 0.732289 0.680993 0.000000
-21.235147 -20.286062 -0.607222 1403 0.732289 0.680993 0.000000
-21.235121 -20.286043 -0.598202 1419 0.732289 0.680993 0.000000
-21.234297 -20.285263 -0.589159 1393 0.732289 0.680993 0.000000
-21.233681 -20.284674 -0.580115 1381 0.732289 0.680993 0.000000
-21.233181 -20.284195 -0.571079 1389 0.732289 0.680993 0.000000
-21.233360 -20.284369 -0.562067 1415 0.732289 0.680993 0.000000
-21.233952 -20.284939 -0.553061 1391 0.732289 0.680993 0.000000
-21.234447 -20.285408 -0.544057 1385 0.732289 0.680993 0.000000
-21.235031 -20.285973 -0.535041 1395 0.732289 0.680993 0.000000
-21.236008 -20.286896 -0.526052 1393 0.732289 0.680993 0.000000
-21.234640 -20.285595 -0.516994 1393 0.732289 0.680993 0.000000
-21.232952 -20.283989 -0.507930 1389 0.732289 0.680993 0.000000
-21.233061 -20.284092 -0.498919 1395 0.732289 0.680993 0.000000
-21.233755 -20.284760 -0.489912 1383 0.732289 0.680993 0.000000
-21.235027 -20.285971 -0.480920 1403 0.732289 0.680993 0.000000
-21.234331 -20.285303 -0.471886 1393 0.732289 0.680993 0.000000
-21.233805 -20.284805 -0.462851 1383 0.732289 0.680993 0.000000
-21.234333 -20.285311 -0.453836 1395 0.732289 0.680993 0.000000
-21.234118 -20.285101 -0.444817 1385 0.732289 0.680993 0.000000
-21.234314 -20.285301 -0.435795 1389 0.732289 0.680993 0.000000
-21.233616 -20.284636 -0.426762 1395 0.732289 0.680993 0.000000
-21.232965 -20.284008 -0.417728 1397 0.732289 0.680993 0.000000
-21.232847 -20.283899 -0.408708 1377 0.732289 0.680993 0.000000
-21.232561 -20.283632 -0.399681 1389 0.732289 0.680993 0.000000
-21.232756 -20.283819 -0.390669 1389 0.732289 0.680993 0.000000
-21.233212 -20.284254 -0.381654 1389 0.732289 0.680993 0.000000
-21.233559 -20.284590 -0.372641 1399 0.732289 0.680993 0.000000
-21.233438 -20.284468 -0.363622 1397 0.732289 0.680993 0.000000
-21.233135 -20.284187 -0.354604 1397 0.732289 0.680993 0.000000
-21.233473 -20.284500 -0.345591 1399 0.732289 0.680993 0.000000
-21.233921 -20.284929 -0.336577 1403 0.732289 0.680993 0.000000
-21.233944 -20.284964 -0.327556 1385 0.732289 0.680993 0.000000
-21.233429 -20.284472 -0.318531 1391 0.732289 0.680993 0.000000
-21.233032 -20.284088 -0.309504 1391 0.732289 0.680993 0.000000
-21.233471 -20.284510 -0.300490 1393 0.732289 0.680993 0.000000
-21.233004 -20.284071 -0.291464 1383 0.732289 0.680993 0.000000
-21.233011 -20.284077 -0.282444 1389 0.732289 0.680993 0.000000
-21.241991 -20.278971 -0.652346 1417 0.732289 0.680993 0.000000
-21.241398 -20.278416 -0.643301 1421 0.732289 0.680993 0.000000
-21.241798 -20.278793 -0.634297 1403 0.732289 0.680993 0.000000
-21.241352 -20.278372 -0.625261 1407 0.732289 0.680993 0.000000
-21.241018 -20.278049 -0.616224 1403 0.732289 0.680993 0.000000
-21.241049 -20.278078 -0.607204 1397 0.732289 0.680993 0.000000
-21.240913 -20.277956 -0.598175 1399 0.732289 0.680993 0.000000
-21.241211 -20.278238 -0.589162 1393 0.732289 0.680993 0.000000
-21.241604 -20.278612 -0.580148 1387 0.732289 0.680993 0.000000
-21.241619 -20.278624 -0.571127 1401 0.732289 0.680993 0.000000
-21.241695 -20.278702 -0.562106 1395 0.732289 0.680993 0.000000
-21.241180 -20.278208 -0.553071 1389 0.732289 0.680993 0.000000
-21.240982 -20.278025 -0.544053 1389 0.732289 0.680993 0.000000
-21.241264 -20.278294 -0.535030 1389 0.732289 0.680993 0.000000
-21.240747 -20.277802 -0.526004 1395 0.732289 0.680993 0.000000
-21.240906 -20.277956 -0.516983 1393 0.732289 0.680993 0.000000
-21.240871 -20.277918 -0.507963 1385 0.732289 0.680993 0.000000
-21.240664 -20.277727 -0.498935 1377 0.732289 0.680993 0.000000
-21.240503 -20.277573 -0.489916 1387 0.732289 0.680993 0.000000
-21.240349 -20.277428 -0.480887 1389 0.732289 0.680993 0.000000
-21.240507 -20.277580 -0.471875 1399 0.732289 0.680993 0.000000
-21.240719 -20.277781 -0.462853 1391 0.732289 0.680993 0.000000
-21.240297 -20.277376 -0.453827 1387 0.732289 0.680993 0.000000
-21.240225 -20.277321 -0.444807 1389 0.732289 0.680993 0.000000
-21.240223 -20.277309 -0.435787 1391 0.732289 0.680993 0.000000
-21.240110 -20.277206 -0.426758 1385 0.732289 0.680993 0.000000
-21.240244 -20.277344 -0.417747 1393 0.732289 0.680993 0.000000
-21.239704 -20.276817 -0.408711 1395 0.732289 0.680993 0.000000
-21.240065 -20.277164 -0.399698 1389 0.732289 0.680993 0.000000
-21.241360 -20.278408 -0.390705 1403 0.732289 0.680993 0.000000
-21.240395 -20.277487 -0.381664 1397 0.732289 0.680993 0.000000
-21.239681 -20.276810 -0.372641 1389 0.732289 0.680993 0.000000
-21.240240 -20.277340 -0.363625 1391 0.732289 0.680993 0.000000
-21.240049 -20.277163 -0.354607 1393 0.732289 0.680993 0.000000
-21.240128 -20.277241 -0.345586 1399 0.732289 0.680993 0.000000
-21.240837 -20.277920 -0.336579 1407 0.732289 0.680993 0.000000
-21.241600 -20.278645 -0.327572 1397 0.732289 0.680993 0.000000
-21.241030 -20.278107 -0.318547 1397 0.732289 0.680993 0.000000
-21.240309 -20.277409 -0.309513 1393 0.732289 0.680993 0.000000
-21.240538 -20.277634 -0.300501 1413 0.732289 0.680993 0.000000
-21.240551 -20.277649 -0.291481 1399 0.732289 0.680993 0.000000
-21.240192 -20.277308 -0.282454 1387 0.732289 0.680993 0.000000
-21.248573 -20.271639 -0.652341 1403 0.732289 0.680993 0.000000
-21.248247 -20.271326 -0.643304 1407 0.732289 0.680993 0.000000
-21.247488 -20.270609 -0.634261 1401 0.732289 0.680993 0.000000
-21.248165 -20.271252 -0.625265 1407 0.732289 0.680993 0.000000
-21.248772 -20.271833 -0.616259 1391 0.732289 0.680993 0.000000
-21.248381 -20.271458 -0.607222 1391 0.732289 0.680993 0.000000
-21.247717 -20.270828 -0.598178 1387 0.732289 0.680993 0.000000
-21.247421 -20.270542 -0.589151 1397 0.732289 0.680993 0.000000
-21.247610 -20.270721 -0.580139 1391 0.732289 0.680993 0.000000
-21.247688 -20.270800 -0.571118 1383 0.732289 0.680993 0.000000
-21.247757 -20.270872 -0.562097 1385 0.732289 0.680993 0.000000
-21.247242 -20.270378 -0.553062 1395 0.732289 0.680993 0.000000
-21.247152 -20.270296 -0.544032 1389 0.732289 0.680993 0.000000
-21.247484 -20.270617 -0.535019 1377 0.732289 0.680993 0.000000
-21.246382 -20.269562 -0.525979 1383 0.732289 0.680993 0.000000
-21.246872 -20.270035 -0.516964 1379 0.732289 0.680993 0.000000
-21.247620 -20.270748 -0.507967 1377 0.732289 0.680993 0.000000
-21.246708 -20.269884 -0.498925 1381 0.732289 0.680993 0.000000
-21.246714 -20.269890 -0.489905 1385 0.732289 0.680993 0.000000
-21.248104 -20.271212 -0.480912 1383 0.732289 0.680993 0.000000
-21.248102 -20.271210 -0.471892 1375 0.732289 0.680993 0.000000
-21.246826 -20.270002 -0.462843 1387 0.732289 0.680993 0.000000
-21.246880 -20.270046 -0.453823 1379 0.732289 0.680993 0.000000
-21.247559 -20.270702 -0.444816 1387 0.732289 0.680993 0.000000
-21.247705 -20.270838 -0.435805 1381 0.732289 0.680993 0.000000
-21.247278 -20.270426 -0.426768 1389 0.732289 0.680993 0.000000
-21.246677 -20.269865 -0.417744 1393 0.732289 0.680993 0.000000
-21.245970 -20.269178 -0.408710 1385 0.732289 0.680993 0.000000
-21.245747 -20.268974 -0.399682 1389 0.732289 0.680993 0.000000
-21.246361 -20.269564 -0.390676 1397 0.732289 0.680993 0.000000
-21.246613 -20.269796 -0.381664 1397 0.732289 0.680993 0.000000
-21.246218 -20.269426 -0.372637 1379 0.732289 0.680993 0.000000
-21.246563 -20.269760 -0.363624 1377 0.732289 0.680993 0.000000
-21.247066 -20.270235 -0.354609 1385 0.732289 0.680993 0.000000
-21.247042 -20.270216 -0.345589 1391 0.732289 0.680993 0.000000
-21.246683 -20.269876 -0.336572 1379 0.732289 0.680993 0.000000
-21.246233 -20.269449 -0.327546 1399 0.732289 0.680993 0.000000
-21.245771 -20.269014 -0.318520 1387 0.732289 0.680993 0.000000
-21.246687 -20.269888 -0.309511 1399 0.732289 0.680993 0.000000
-21.247656 -20.270802 -0.300502 1403 0.732289 0.680993 0.000000
-21.246975 -20.270163 -0.291478 1395 0.732289 0.680993 0.000000
-21.247091 -20.270271 -0.282457 1395 0.732289 0.680993 0.000000
-21.254820 -20.264692 -0.652337 1399 0.732289 0.680993 0.000000
-21.254745 -20.264624 -0.643317 1397 0.732289 0.680993 0.000000
-21.255630 -20.265469 -0.634319 1401 0.732289 0.680993 0.000000
-21.256031 -20.265848 -0.625305 1401 0.732289 0.680993 0.000000
-21.253738 -20.263670 -0.616216 1377 0.732289 0.680993 0.000000
-21.253540 -20.263487 -0.607188 1385 0.732289 0.680993 0.000000
-21.255007 -20.264881 -0.598204 1395 0.732289 0.680993 0.000000
-21.255400 -20.265255 -0.589200 1397 0.732289 0.680993 0.000000
-21.254948 -20.264828 -0.580164 1395 0.732289 0.680993 0.000000
-21.254124 -20.264046 -0.571121 1389 0.732289 0.680993 0.000000
-21.254250 -20.264162 -0.562100 1389 0.732289 0.680993 0.000000
-21.255590 -20.265442 -0.553117 1393 0.732289 0.680993 0.000000
-21.255556 -20.265406 -0.544087 1385 0.732289 0.680993 0.000000
-21.255617 -20.265469 -0.535067 1389 0.732289 0.680993 0.000000
-21.255150 -20.265030 -0.526041 1381 0.732289 0.680993 0.000000
-21.254004 -20.263933 -0.516991 1391 0.732289 0.680993 0.000000
-21.254009 -20.263943 -0.507971 1389 0.732289 0.680993 0.000000
-21.253904 -20.263847 -0.498942 1393 0.732289 0.680993 0.000000
-21.253536 -20.263487 -0.489915 1395 0.732289 0.680993 0.000000
-21.253914 -20.263847 -0.480901 1383 0.732289 0.680993 0.000000
-21.254642 -20.264553 -0.471894 1381 0.732289 0.680993 0.000000
-21.254377 -20.264303 -0.462866 1379 0.732289 0.680993 0.000000
-21.254272 -20.264194 -0.453847 1387 0.732289 0.680993 0.000000
-21.253639 -20.263594 -0.444813 1397 0.732289 0.680993 0.000000
-21.252460 -20.262472 -0.435774 1391 0.732289 0.680993 0.000000
-21.253193 -20.263172 -0.426767 1385 0.732289 0.680993 0.000000
-21.253017 -20.263006 -0.417738 1381 0.732289 0.680993 0.000000
-21.252792 -20.262789 -0.408720 1387 0.732289 0.680993 0.000000
-21.253305 -20.263285 -0.399705 1393 0.732289 0.680993 0.000000
-21.253445 -20.263411 -0.390694 1387 0.732289 0.680993 0.000000
-21.253531 -20.263496 -0.381673 1393 0.732289 0.680993 0.000000
-21.253664 -20.263632 -0.372661 1385 0.732289 0.680993 0.000000
-21.253851 -20.263811 -0.363639 1391 0.732289 0.680993 0.000000
-21.254251 -20.264191 -0.354625 1401 0.732289 0.680993 0.000000
-21.254061 -20.264011 -0.345607 1379 0.732289 0.680993 0.000000
-21.253553 -20.263527 -0.336581 1367 0.732289 0.680993 0.000000
-21.253843 -20.263802 -0.327568 1395 0.732289 0.680993 0.000000
-21.252737 -20.262753 -0.318528 1389 0.732289 0.680993 0.000000
-21.252537 -20.262568 -0.309510 1393 0.732289 0.680993 0.000000
-21.253571 -20.263548 -0.300500 1393 0.732289 0.680993 0.000000
-21.253214 -20.263210 -0.291483 1403 0.732289 0.680993 0.000000
-21.252848 -20.262863 -0.282457 1391 0.732289 0.680993 0.000000
-21.261143 -20.258568 -0.652348 1393 0.732289 0.680993 0.000000
-21.260914 -20.258358 -0.643320 1401 0.732289 0.680993 0.000000
-21.260794 -20.258236 -0.634291 1393 0.732289 0.680993 0.000000
-21.261518 -20.258928 -0.625294 1395 0.732289 0.680993 0.000000
-21.261444 -20.258858 -0.616264 1403 0.732289 0.680993 0.000000
-21.260408 -20.257881 -0.607214 1403 0.732289 0.680993 0.000000
-21.260494 -20.257950 -0.598193 1395 0.732289 0.680993 0.000000
-21.260628 -20.258087 -0.589181 1385 0.732289 0.680993 0.000000
-21.261391 -20.258812 -0.580174 1391 0.732289 0.680993 0.000000
-21.260504 -20.257965 -0.571132 1385 0.732289 0.680993 0.000000
-21.259159 -20.256685 -0.562074 1373 0.732289 0.680993 0.000000
-21.259703 -20.257206 -0.553069 1393 0.732289 0.680993 0.000000
-21.260193 -20.257681 -0.544054 1385 0.732289 0.680993 0.000000
-21.260845 -20.258303 -0.535048 1389 0.732289 0.680993 0.000000
-21.260378 -20.257849 -0.526022 1375 0.732289 0.680993 0.000000
-21.259901 -20.257399 -0.516986 1375 0.732289 0.680993 0.000000
-21.259813 -20.257318 -0.507967 1381 0.732289 0.680993 0.000000
-21.259865 -20.257364 -0.498946 1393 0.732289 0.680993 0.000000
-21.260347 -20.257832 -0.489931 1395 0.732289 0.680993 0.000000
-21.260305 -20.257788 -0.480912 1391 0.732289 0.680993 0.000000
-21.259983 -20.257479 -0.471884 1395 0.732289 0.680993 0.000000
-21.259975 -20.257475 -0.462864 1393 0.732289 0.680993 0.000000
-21.259752 -20.257271 -0.453836 1381 0.732289 0.680993 0.000000
-21.259554 -20.257072 -0.444818 1389 0.732289 0.680993 0.000000
-21.258896 -20.256451 -0.435784 1385 0.732289 0.680993 0.000000
-21.259415 -20.256952 -0.426769 1393 0.732289 0.680993 0.000000
-21.259453 -20.256987 -0.417758 1393 0.732289 0.680993 0.000000
-21.259602 -20.257133 -0.408736 1393 0.732289 0.680993 0.000000
-21.260168 -20.257673 -0.399731 1385 0.732289 0.680993 0.000000
-21.260405 -20.257904 -0.390708 1391 0.732289 0.680993 0.000000
-21.259802 -20.257328 -0.381684 1387 0.732289 0.680993 0.000000
-21.259727 -20.257259 -0.372664 1387 0.732289 0.680993 0.000000
-21.260344 -20.257849 -0.363648 1393 0.732289 0.680993 0.000000
-21.260056 -20.257566 -0.354631 1399 0.732289 0.680993 0.000000
-21.259809 -20.257330 -0.345603 1393 0.732289 0.680993 0.000000
-21.259193 -20.256756 -0.336579 1381 0.732289 0.680993 0.000000
-21.258852 -20.256430 -0.327552 1385 0.732289 0.680993 0.000000
-21.259024 -20.256598 -0.318530 1391 0.732289 0.680993 0.000000
-21.259567 -20.257118 -0.309524 1389 0.732289 0.680993 0.000000
-21.259216 -20.256784 -0.300497 1403 0.732289 0.680993 0.000000
-21.259058 -20.256632 -0.291479 1399 0.732289 0.680993 0.000000
-21.259079 -20.256651 -0.282458 1407 0.732289 0.680993 0.000000
-21.267466 -20.251734 -0.652352 1405 0.732289 0.680993 0.000000
-21.267134 -20.251415 -0.643315 1407 0.732289 0.680993 0.000000
-21.267698 -20.251951 -0.634310 1401 0.732289 0.680993 0.000000
-21.267736 -20.251986 -0.625289 1393 0.732289 0.680993 0.000000
-21.267973 -20.252216 -0.616277 1377 0.732289 0.680993 0.000000
-21.267260 -20.251539 -0.607233 1387 0.732289 0.680993 0.000000
-21.265739 -20.250090 -0.598167 1377 0.732289 0.680993 0.000000
-21.266569 -20.250881 -0.589169 1385 0.732289 0.680993 0.000000
-21.267548 -20.251818 -0.580170 1391 0.732289 0.680993 0.000000
-21.267994 -20.252245 -0.571165 1401 0.732289 0.680993 0.000000
-21.267431 -20.251701 -0.562120 1395 0.732289 0.680993 0.000000
-21.266602 -20.250916 -0.553078 1399 0.732289 0.680993 0.000000
-21.267153 -20.251442 -0.544073 1407 0.732289 0.680993 0.000000
-21.266779 -20.251089 -0.535046 1387 0.732289 0.680993 0.000000
-21.266541 -20.250858 -0.526018 1377 0.732289 0.680993 0.000000
-21.266973 -20.251276 -0.517004 1395 0.732289 0.680993 0.000000
-21.267303 -20.251585 -0.507990 1401 0.732289 0.680993 0.000000
-21.267143 -20.251432 -0.498972 1401 0.732289 0.680993 0.000000
-21.267141 -20.251431 -0.489941 1403 0.732289 0.680993 0.000000
-21.267044 -20.251343 -0.480922 1399 0.732289 0.680993 0.000000
-21.265825 -20.250191 -0.471873 1391 0.732289 0.680993 0.000000
-21.265608 -20.249979 -0.462855 1385 0.732289 0.680993 0.000000
-21.266289 -20.250633 -0.453848 1397 0.732289 0.680993 0.000000
-21.267185 -20.251480 -0.444840 1387 0.732289 0.680993 0.000000
-21.267122 -20.251432 -0.435820 1397 0.732289 0.680993 0.000000
-21.266321 -20.250668 -0.426788 1387 0.732289 0.680993 0.000000
-21.266352 -20.250696 -0.417767 1385 0.732289 0.680993 0.000000
-21.265551 -20.249931 -0.408734 1383 0.732289 0.680993 0.000000
-21.265423 -20.249805 -0.399705 1385 0.732289 0.680993 0.000000
-21.266520 -20.250864 -0.390705 1395 0.732289 0.680993 0.000000
-21.266178 -20.250538 -0.381688 1383 0.732289 0.680993 0.000000
-21.265467 -20.249861 -0.372654 1379 0.732289 0.680993 0.000000
-21.265715 -20.250090 -0.363642 1369 0.732289 0.680993 0.000000
-21.265635 -20.250013 -0.354612 1371 0.732289 0.680993 0.000000
-21.265230 -20.249636 -0.345586 1387 0.732289 0.680993 0.000000
-21.265995 -20.250362 -0.336589 1391 0.732289 0.680993 0.000000
-21.265963 -20.250338 -0.327569 1387 0.732289 0.680993 0.000000
-21.266134 -20.250505 -0.318547 1391 0.732289 0.680993 0.000000
-21.266266 -20.250628 -0.309535 1409 0.732289 0.680993 0.000000
-21.266273 -20.250633 -0.300515 1399 0.732289 0.680993 0.000000
-21.265606 -20.249994 -0.291481 1399 0.732289 0.680993 0.000000
-21.265873 -20.250250 -0.282468 1393 0.732289 0.680993 0.000000
