774
-3.921078 -3.529953 -0.445246 1327 0.736995 0.675898 0.000000
-3.920419 -3.529366 -0.443542 1317 0.736995 0.675898 0.000000
-3.920474 -3.529408 -0.441911 1329 0.736995 0.675898 0.000000
-3.920403 -3.529350 -0.440282 1337 0.736995 0.675898 0.000000
-3.920826 -3.529733 -0.438688 1329 0.736995 0.675898 0.000000
-3.921034 -3.529920 -0.437086 1325 0.736995 0.675898 0.000000
-3.920435 -3.529369 -0.435391 1323 0.736995 0.675898 0.000000
-3.920198 -3.529167 -0.433733 1321 0.736995 0.675898 0.000000
-3.920190 -3.529159 -0.432104 1317 0.736995 0.675898 0.000000
-3.920237 -3.529194 -0.430473 1311 0.736995 0.675898 0.000000
-3.920279 -3.529237 -0.428853 1323 0.736995 0.675898 0.000000
-3.919554 -3.528587 -0.427139 1325 0.736995 0.675898 0.000000
-3.919601 -3.528622 -0.425519 1299 0.736995 0.675898 0.000000
-3.920678 -3.529598 -0.423999 1305 0.736995 0.675898 0.000000
-3.920821 -3.529722 -0.422387 1321 0.736995 0.675898 0.000000
-3.920479 -3.529411 -0.420721 1321 0.736995 0.675898 0.000000
-3.920631 -3.529555 -0.419109 1329 0.736995 0.675898 0.000000
-3.920567 -3.529490 -0.417470 1327 0.736995 0.675898 0.000000
-3.920712 -3.529627 -0.415848 1317 0.736995 0.675898 0.000000
-3.921244 -3.530097 -0.414273 1319 0.736995 0.675898 0.000000
-3.921548 -3.530373 -0.412681 1319 0.736995 0.675898 0.000000
-3.921810 -3.530604 -0.411078 1311 0.736995 0.675898 0.000000
-3.921683 -3.530488 -0.409429 1307 0.736995 0.675898 0.000000
-3.920855 -3.529743 -0.407717 1299 0.736995 0.675898 0.000000
-3.921000 -3.529881 -0.406105 1301 0.736995 0.675898 0.000000
-3.921192 -3.530056 -0.404494 1305 0.736995 0.675898 0.000000
-3.921072 -3.529947 -0.402855 1309 0.736995 0.675898 0.000000
-3.921049 -3.529927 -0.401225 1311 0.736995 0.675898 0.000000
-3.921415 -3.530252 -0.399632 1315 0.736995 0.675898 0.000000
-3.921177 -3.530036 -0.397974 1313 0.736995 0.675898 0.000000
-3.920349 -3.529291 -0.396261 1295 0.736995 0.675898 0.000000
-3.920540 -3.529466 -0.394649 1295 0.736995 0.675898 0.000000
-3.921656 -3.530473 -0.393139 1325 0.736995 0.675898 0.000000
-3.922126 -3.530893 -0.391555 1341 0.736995 0.675898 0.000000
-3.921839 -3.530626 -0.389897 1337 0.736995 0.675898 0.000000
-3.920956 -3.529837 -0.388175 1321 0.736995 0.675898 0.000000
-3.920821 -3.529716 -0.386537 1311 0.736995 0.675898 0.000000
-3.921776 -3.530570 -0.384998 1313 0.736995 0.675898 0.000000
-3.922134 -3.530890 -0.383404 1323 0.736995 0.675898 0.000000
-3.922383 -3.531122 -0.381802 1325 0.736995 0.675898 0.000000
-3.922734 -3.531435 -0.380209 1329 0.736995 0.675898 0.000000
-3.922176 -3.530929 -0.378524 1319 0.736995 0.675898 0.000000
-3.921659 -3.530468 -0.376849 1313 0.736995 0.675898 0.000000
-3.921579 -3.530390 -0.375209 1305 0.736995 0.675898 0.000000
-3.921508 -3.530332 -0.373570 1301 0.736995 0.675898 0.000000
-3.921428 -3.530254 -0.371941 1307 0.736995 0.675898 0.000000
-3.921023 -3.529894 -0.370274 1307 0.736995 0.675898 0.000000
-3.920728 -3.529620 -0.368617 1303 0.736995 0.675898 0.000000
-3.920920 -3.529795 -0.367005 1315 0.736995 0.675898 0.000000
-3.921057 -3.529927 -0.365394 1313 0.736995 0.675898 0.000000
-3.921143 -3.529993 -0.363773 1311 0.736995 0.675898 0.000000
-3.921327 -3.530162 -0.362161 1311 0.736995 0.675898 0.000000
-3.921407 -3.530236 -0.360541 1313 0.736995 0.675898 0.000000
-3.921273 -3.530115 -0.358902 1313 0.736995 0.675898 0.000000
-3.921775 -3.530574 -0.357317 1309 0.736995 0.675898 0.000000
-3.922245 -3.530994 -0.355733 1313 0.736995 0.675898 0.000000
-3.922165 -3.530916 -0.354094 1315 0.736995 0.675898 0.000000
-3.922565 -3.531281 -0.352510 1319 0.736995 0.675898 0.000000
-3.922422 -3.531153 -0.350861 1317 0.736995 0.675898 0.000000
-3.921155 -3.530010 -0.349123 1307 0.736995 0.675898 0.000000
-3.920637 -3.529535 -0.347458 1305 0.736995 0.675898 0.000000
-3.920655 -3.529560 -0.345827 1299 0.736995 0.675898 0.000000
-3.920623 -3.529533 -0.344198 1295 0.736995 0.675898 0.000000
-3.921355 -3.530186 -0.342631 1305 0.736995 0.675898 0.000000
-3.921213 -3.530059 -0.340992 1299 0.736995 0.675898 0.000000
-3.921293 -3.530133 -0.339371 1301 0.736995 0.675898 0.000000
-3.921587 -3.530388 -0.337769 1303 0.736995 0.675898 0.000000
-3.921278 -3.530116 -0.336121 1305 0.736995 0.675898 0.000000
-3.921405 -3.530228 -0.334500 1289 0.736995 0.675898 0.000000
-3.921429 -3.530245 -0.332880 1273 0.736995 0.675898 0.000000
-3.921343 -3.530174 -0.331251 1283 0.736995 0.675898 0.000000
-3.921415 -3.530242 -0.329630 1291 0.736995 0.675898 0.000000
-3.921493 -3.530303 -0.328009 1291 0.736995 0.675898 0.000000
-3.921566 -3.530370 -0.326388 1287 0.736995 0.675898 0.000000
-3.921145 -3.529998 -0.324722 1277 0.736995 0.675898 0.000000
-3.921335 -3.530159 -0.323110 1285 0.736995 0.675898 0.000000
-3.921997 -3.530756 -0.321544 1301 0.736995 0.675898 0.000000
-3.921799 -3.530585 -0.319896 1311 0.736995 0.675898 0.000000
-3.921496 -3.530305 -0.318249 1297 0.736995 0.675898 0.000000
-3.921831 -3.530606 -0.316646 1313 0.736995 0.675898 0.000000
-3.921633 -3.530435 -0.315008 1313 0.736995 0.675898 0.000000
-3.920891 -3.529758 -0.313324 1293 0.736995 0.675898 0.000000
-3.921743 -3.528455 -0.551432 1331 0.736995 0.675898 0.000000
-3.922732 -3.529349 -0.549933 1347 0.736995 0.675898 0.000000
-3.922595 -3.529213 -0.548275 1355 0.736995 0.675898 0.000000
-3.922174 -3.528840 -0.546588 1355 0.736995 0.675898 0.000000
-3.922350 -3.529003 -0.544967 1355 0.736995 0.675898 0.000000
-3.922796 -3.529404 -0.543393 1357 0.736995 0.675898 0.000000
-3.922542 -3.529176 -0.541725 1353 0.736995 0.675898 0.000000
-3.922064 -3.528746 -0.540019 1337 0.736995 0.675898 0.000000
-3.921323 -3.528069 -0.538286 1331 0.736995 0.675898 0.000000
-3.920806 -3.527607 -0.536571 1333 0.736995 0.675898 0.000000
-3.921029 -3.527807 -0.534969 1327 0.736995 0.675898 0.000000
-3.921309 -3.528064 -0.533376 1315 0.736995 0.675898 0.000000
-3.921755 -3.528466 -0.531792 1307 0.736995 0.675898 0.000000
-3.922153 -3.528816 -0.530208 1315 0.736995 0.675898 0.000000
-3.921348 -3.528089 -0.528466 1307 0.736995 0.675898 0.000000
-3.921413 -3.528151 -0.526845 1311 0.736995 0.675898 0.000000
-3.922233 -3.528887 -0.525317 1331 0.736995 0.675898 0.000000
-3.922186 -3.528847 -0.523668 1333 0.736995 0.675898 0.000000
-3.921772 -3.528466 -0.521982 1337 0.736995 0.675898 0.000000
-3.921773 -3.528479 -0.520341 1347 0.736995 0.675898 0.000000
-3.922545 -3.529163 -0.518814 1345 0.736995 0.675898 0.000000
-3.922776 -3.529369 -0.517202 1343 0.736995 0.675898 0.000000
-3.921805 -3.528497 -0.515441 1329 0.736995 0.675898 0.000000
-3.921224 -3.527973 -0.513736 1325 0.736995 0.675898 0.000000
-3.921272 -3.528022 -0.512106 1323 0.736995 0.675898 0.000000
-3.921288 -3.528032 -0.510476 1333 0.736995 0.675898 0.000000
-3.921664 -3.528378 -0.508882 1329 0.736995 0.675898 0.000000
-3.922651 -3.529258 -0.507373 1345 0.736995 0.675898 0.000000
-3.922715 -3.529320 -0.505752 1341 0.736995 0.675898 0.000000
-3.922333 -3.528978 -0.504066 1335 0.736995 0.675898 0.000000
-3.922071 -3.528743 -0.502398 1337 0.736995 0.675898 0.000000
-3.921322 -3.528060 -0.500665 1333 0.736995 0.675898 0.000000
-3.921108 -3.527876 -0.499007 1341 0.736995 0.675898 0.000000
-3.921872 -3.528554 -0.497470 1337 0.736995 0.675898 0.000000
-3.922471 -3.529102 -0.495914 1327 0.736995 0.675898 0.000000
-3.922256 -3.528904 -0.494246 1327 0.736995 0.675898 0.000000
-3.921833 -3.528517 -0.492560 1315 0.736995 0.675898 0.000000
-3.922367 -3.529001 -0.490995 1309 0.736995 0.675898 0.000000
-3.922861 -3.529440 -0.489421 1337 0.736995 0.675898 0.000000
-3.922328 -3.528966 -0.487716 1343 0.736995 0.675898 0.000000
-3.922113 -3.528769 -0.486058 1329 0.736995 0.675898 0.000000
-3.922162 -3.528818 -0.484437 1331 0.736995 0.675898 0.000000
-3.922051 -3.528716 -0.482788 1329 0.736995 0.675898 0.000000
-3.922385 -3.529016 -0.481195 1319 0.736995 0.675898 0.000000
-3.922648 -3.529247 -0.479593 1321 0.736995 0.675898 0.000000
-3.922108 -3.528767 -0.477897 1331 0.736995 0.675898 0.000000
-3.921685 -3.528380 -0.476211 1331 0.736995 0.675898 0.000000
-3.921407 -3.528133 -0.474544 1331 0.736995 0.675898 0.000000
-3.921129 -3.527886 -0.472876 1333 0.736995 0.675898 0.000000
-3.921511 -3.528224 -0.471293 1327 0.736995 0.675898 0.000000
-3.921296 -3.528027 -0.469635 1319 0.736995 0.675898 0.000000
-3.921671 -3.528372 -0.468041 1323 0.736995 0.675898 0.000000
-3.922372 -3.529001 -0.466495 1341 0.736995 0.675898 0.000000
-3.922421 -3.529050 -0.464864 1347 0.736995 0.675898 0.000000
-3.921767 -3.528455 -0.463160 1317 0.736995 0.675898 0.000000
-3.921274 -3.528012 -0.461465 1315 0.736995 0.675898 0.000000
-3.921212 -3.527961 -0.459825 1317 0.736995 0.675898 0.000000
-3.921760 -3.528443 -0.458260 1313 0.736995 0.675898 0.000000
-3.921913 -3.528587 -0.456649 1309 0.736995 0.675898 0.000000
-3.921968 -3.528629 -0.455018 1313 0.736995 0.675898 0.000000
-3.921627 -3.528332 -0.453351 1319 0.736995 0.675898 0.000000
-3.920862 -3.527636 -0.451628 1305 0.736995 0.675898 0.000000
-3.921404 -3.528126 -0.450063 1307 0.736995 0.675898 0.000000
-3.922097 -3.528748 -0.448507 1319 0.736995 0.675898 0.000000
-3.921819 -3.528501 -0.446839 1327 0.736995 0.675898 0.000000
-3.921651 -3.528341 -0.445191 1321 0.736995 0.675898 0.000000
-3.921373 -3.528094 -0.443533 1307 0.736995 0.675898 0.000000
-3.920928 -3.527702 -0.441848 1309 0.736995 0.675898 0.000000
-3.921573 -3.528273 -0.440292 1319 0.736995 0.675898 0.000000
-3.921780 -3.528460 -0.438680 1319 0.736995 0.675898 0.000000
-3.921821 -3.528504 -0.437059 1321 0.736995 0.675898 0.000000
-3.922187 -3.528829 -0.435466 1323 0.736995 0.675898 0.000000
-3.922131 -3.528770 -0.433826 1331 0.736995 0.675898 0.000000
-3.922117 -3.528769 -0.432196 1321 0.736995 0.675898 0.000000
-3.922101 -3.528755 -0.430566 1325 0.736995 0.675898 0.000000
-3.922197 -3.528842 -0.428945 1329 0.736995 0.675898 0.000000
-3.922182 -3.528827 -0.427306 1333 0.736995 0.675898 0.000000
-3.922118 -3.528762 -0.425676 1317 0.736995 0.675898 0.000000
-3.922325 -3.528949 -0.424064 1327 0.736995 0.675898 0.000000
-3.921991 -3.528645 -0.422397 1331 0.736995 0.675898 0.000000
-3.922024 -3.528682 -0.420767 1325 0.736995 0.675898 0.000000
-3.921855 -3.528521 -0.419118 1315 0.736995 0.675898 0.000000
-3.921952 -3.528608 -0.417508 1315 0.736995 0.675898 0.000000
-3.922208 -3.528847 -0.415895 1315 0.736995 0.675898 0.000000
-3.922239 -3.528870 -0.414275 1311 0.736995 0.675898 0.000000
-3.922447 -3.529057 -0.412663 1311 0.736995 0.675898 0.000000
-3.922104 -3.528746 -0.410996 1305 0.736995 0.675898 0.000000
-3.921437 -3.528153 -0.409302 1293 0.736995 0.675898 0.000000
-3.920983 -3.527742 -0.407626 1291 0.736995 0.675898 0.000000
-3.921079 -3.527828 -0.406005 1295 0.736995 0.675898 0.000000
-3.921715 -3.528393 -0.404439 1313 0.736995 0.675898 0.000000
-3.921533 -3.528234 -0.402791 1309 0.736995 0.675898 0.000000
-3.921461 -3.528162 -0.401152 1301 0.736995 0.675898 0.000000
-3.922585 -3.529175 -0.399641 1313 0.736995 0.675898 0.000000
-3.922722 -3.529307 -0.398020 1317 0.736995 0.675898 0.000000
-3.922003 -3.528648 -0.396327 1307 0.736995 0.675898 0.000000
-3.922037 -3.528685 -0.394696 1305 0.736995 0.675898 0.000000
-3.922452 -3.529062 -0.393112 1317 0.736995 0.675898 0.000000
-3.922865 -3.529425 -0.391519 1343 0.736995 0.675898 0.000000
-3.922460 -3.529065 -0.389852 1347 0.736995 0.675898 0.000000
-3.922276 -3.528892 -0.388204 1335 0.736995 0.675898 0.000000
-3.922309 -3.528929 -0.386584 1337 0.736995 0.675898 0.000000
-3.921967 -3.528618 -0.384917 1325 0.736995 0.675898 0.000000
-3.922540 -3.529133 -0.383341 1317 0.736995 0.675898 0.000000
-3.923225 -3.529749 -0.381785 1325 0.736995 0.675898 0.000000
-3.923633 -3.530119 -0.380191 1331 0.736995 0.675898 0.000000
-3.923609 -3.530099 -0.378561 1323 0.736995 0.675898 0.000000
-3.922940 -3.529491 -0.376868 1315 0.736995 0.675898 0.000000
-3.922263 -3.528878 -0.375174 1299 0.736995 0.675898 0.000000
-3.922400 -3.529010 -0.373562 1297 0.736995 0.675898 0.000000
-3.922328 -3.528938 -0.371923 1311 0.736995 0.675898 0.000000
-3.921803 -3.528471 -0.370248 1303 0.736995 0.675898 0.000000
-3.922265 -3.528885 -0.368664 1317 0.736995 0.675898 0.000000
-3.922672 -3.529255 -0.367070 1307 0.736995 0.675898 0.000000
-3.922870 -3.529423 -0.365458 1301 0.736995 0.675898 0.000000
-3.923062 -3.529598 -0.363856 1305 0.736995 0.675898 0.000000
-3.922712 -3.529281 -0.362189 1297 0.736995 0.675898 0.000000
-3.922250 -3.528863 -0.360524 1299 0.736995 0.675898 0.000000
-3.921782 -3.528453 -0.358858 1303 0.736995 0.675898 0.000000
-3.922626 -3.529207 -0.357300 1307 0.736995 0.675898 0.000000
-3.923025 -3.529571 -0.355706 1309 0.736995 0.675898 0.000000
-3.922348 -3.528958 -0.354022 1311 0.736995 0.675898 0.000000
-3.923080 -3.529611 -0.352456 1311 0.736995 0.675898 0.000000
-3.923480 -3.529975 -0.350862 1319 0.736995 0.675898 0.000000
-3.922851 -3.529413 -0.349188 1307 0.736995 0.675898 0.000000
-3.922668 -3.529240 -0.347539 1309 0.736995 0.675898 0.000000
-3.922309 -3.528917 -0.345883 1295 0.736995 0.675898 0.000000
-3.921904 -3.528557 -0.344216 1291 0.736995 0.675898 0.000000
-3.921705 -3.528372 -0.342578 1293 0.736995 0.675898 0.000000
-3.921458 -3.528149 -0.340930 1275 0.736995 0.675898 0.000000
-3.922239 -3.528854 -0.339363 1269 0.736995 0.675898 0.000000
-3.923020 -3.529558 -0.337806 1291 0.736995 0.675898 0.000000
-3.922766 -3.529330 -0.336158 1285 0.736995 0.675898 0.000000
-3.922200 -3.528817 -0.334483 1275 0.736995 0.675898 0.000000
-3.921995 -3.528640 -0.332835 1277 0.736995 0.675898 0.000000
-3.922449 -3.529047 -0.331251 1303 0.736995 0.675898 0.000000
-3.922257 -3.528869 -0.329613 1291 0.736995 0.675898 0.000000
-3.922433 -3.529032 -0.328001 1279 0.736995 0.675898 0.000000
-3.922457 -3.529048 -0.326371 1277 0.736995 0.675898 0.000000
-3.922314 -3.528921 -0.324732 1289 0.736995 0.675898 0.000000
-3.922060 -3.528692 -0.323084 1293 0.736995 0.675898 0.000000
-3.922132 -3.528760 -0.321464 1295 0.736995 0.675898 0.000000
-3.922530 -3.529111 -0.319870 1295 0.736995 0.675898 0.000000
-3.922769 -3.529323 -0.318268 1289 0.736995 0.675898 0.000000
-3.922937 -3.529479 -0.316656 1287 0.736995 0.675898 0.000000
-3.922468 -3.529055 -0.314990 1279 0.736995 0.675898 0.000000
-3.921831 -3.528487 -0.313316 1281 0.736995 0.675898 0.000000
-3.923184 -3.527631 -0.551490 1337 0.736995 0.675898 0.000000
-3.923408 -3.527831 -0.549888 1335 0.736995 0.675898 0.000000
-3.923112 -3.527557 -0.548200 1337 0.736995 0.675898 0.000000
-3.922858 -3.527329 -0.546533 1345 0.736995 0.675898 0.000000
-3.923296 -3.527724 -0.544959 1349 0.736995 0.675898 0.000000
-3.923480 -3.527893 -0.543347 1351 0.736995 0.675898 0.000000
-3.923002 -3.527463 -0.541641 1343 0.736995 0.675898 0.000000
-3.922533 -3.527038 -0.539936 1321 0.736995 0.675898 0.000000
-3.922118 -3.526658 -0.538249 1329 0.736995 0.675898 0.000000
-3.921863 -3.526429 -0.536572 1341 0.736995 0.675898 0.000000
-3.921650 -3.526246 -0.534913 1323 0.736995 0.675898 0.000000
-3.921499 -3.526112 -0.533255 1301 0.736995 0.675898 0.000000
-3.921458 -3.526065 -0.531615 1301 0.736995 0.675898 0.000000
-3.922120 -3.526662 -0.530069 1311 0.736995 0.675898 0.000000
-3.923052 -3.527498 -0.528551 1327 0.736995 0.675898 0.000000
-3.923332 -3.527756 -0.526958 1339 0.736995 0.675898 0.000000
-3.923833 -3.528201 -0.525383 1335 0.736995 0.675898 0.000000
-3.923849 -3.528211 -0.523753 1331 0.736995 0.675898 0.000000
-3.922878 -3.527340 -0.521992 1323 0.736995 0.675898 0.000000
-3.922560 -3.527062 -0.520315 1325 0.736995 0.675898 0.000000
-3.922520 -3.527015 -0.518665 1323 0.736995 0.675898 0.000000
-3.923119 -3.527562 -0.517110 1327 0.736995 0.675898 0.000000
-3.923565 -3.527964 -0.515535 1335 0.736995 0.675898 0.000000
-3.922442 -3.526947 -0.513756 1331 0.736995 0.675898 0.000000
-3.922068 -3.526611 -0.512069 1331 0.736995 0.675898 0.000000
-3.922283 -3.526805 -0.510467 1311 0.736995 0.675898 0.000000
-3.922459 -3.526968 -0.508855 1311 0.736995 0.675898 0.000000
-3.922953 -3.527407 -0.507281 1333 0.736995 0.675898 0.000000
-3.923168 -3.527600 -0.505669 1339 0.736995 0.675898 0.000000
-3.922691 -3.527170 -0.503973 1333 0.736995 0.675898 0.000000
-3.922261 -3.526791 -0.502287 1339 0.736995 0.675898 0.000000
-3.922158 -3.526694 -0.500638 1341 0.736995 0.675898 0.000000
-3.922700 -3.527184 -0.499073 1345 0.736995 0.675898 0.000000
-3.923090 -3.527528 -0.497489 1343 0.736995 0.675898 0.000000
-3.922883 -3.527337 -0.495831 1313 0.736995 0.675898 0.000000
-3.923210 -3.527632 -0.494238 1323 0.736995 0.675898 0.000000
-3.923640 -3.528021 -0.492654 1329 0.736995 0.675898 0.000000
-3.923433 -3.527830 -0.490996 1321 0.736995 0.675898 0.000000
-3.922836 -3.527292 -0.489292 1321 0.736995 0.675898 0.000000
-3.922838 -3.527304 -0.487651 1327 0.736995 0.675898 0.000000
-3.922566 -3.527049 -0.485984 1325 0.736995 0.675898 0.000000
-3.922137 -3.526670 -0.484298 1323 0.736995 0.675898 0.000000
-3.922026 -3.526568 -0.482659 1335 0.736995 0.675898 0.000000
-3.922742 -3.527208 -0.481112 1333 0.736995 0.675898 0.000000
-3.923222 -3.527649 -0.479538 1321 0.736995 0.675898 0.000000
-3.922513 -3.527010 -0.477814 1323 0.736995 0.675898 0.000000
-3.922028 -3.526574 -0.476129 1333 0.736995 0.675898 0.000000
-3.922617 -3.527101 -0.474563 1331 0.736995 0.675898 0.000000
-3.922999 -3.527439 -0.472970 1333 0.736995 0.675898 0.000000
-3.922617 -3.527097 -0.471293 1327 0.736995 0.675898 0.000000
-3.922625 -3.527102 -0.469663 1331 0.736995 0.675898 0.000000
-3.922889 -3.527346 -0.468061 1341 0.736995 0.675898 0.000000
-3.922667 -3.527143 -0.466403 1333 0.736995 0.675898 0.000000
-3.922340 -3.526845 -0.464736 1321 0.736995 0.675898 0.000000
-3.922117 -3.526641 -0.463078 1325 0.736995 0.675898 0.000000
-3.922381 -3.526886 -0.461475 1335 0.736995 0.675898 0.000000
-3.922923 -3.527376 -0.459900 1323 0.736995 0.675898 0.000000
-3.923409 -3.527808 -0.458326 1327 0.736995 0.675898 0.000000
-3.923131 -3.527561 -0.456668 1321 0.736995 0.675898 0.000000
-3.922581 -3.527061 -0.454973 1319 0.736995 0.675898 0.000000
-3.922358 -3.526857 -0.453315 1317 0.736995 0.675898 0.000000
-3.922843 -3.527290 -0.451731 1319 0.736995 0.675898 0.000000
-3.923427 -3.527825 -0.450165 1313 0.736995 0.675898 0.000000
-3.923043 -3.527469 -0.448499 1321 0.736995 0.675898 0.000000
-3.922662 -3.527128 -0.446822 1327 0.736995 0.675898 0.000000
-3.922814 -3.527272 -0.445201 1335 0.736995 0.675898 0.000000
-3.922487 -3.526973 -0.443534 1323 0.736995 0.675898 0.000000
-3.922472 -3.526959 -0.441904 1321 0.736995 0.675898 0.000000
-3.922838 -3.527284 -0.440310 1319 0.736995 0.675898 0.000000
-3.922720 -3.527189 -0.438671 1313 0.736995 0.675898 0.000000
-3.923198 -3.527616 -0.437087 1329 0.736995 0.675898 0.000000
-3.923676 -3.528043 -0.435513 1343 0.736995 0.675898 0.000000
-3.923349 -3.527744 -0.433846 1339 0.736995 0.675898 0.000000
-3.922737 -3.527194 -0.432151 1311 0.736995 0.675898 0.000000
-3.923326 -3.527722 -0.430586 1315 0.736995 0.675898 0.000000
-3.924131 -3.528445 -0.429038 1339 0.736995 0.675898 0.000000
-3.923948 -3.528286 -0.427390 1345 0.736995 0.675898 0.000000
-3.923232 -3.527642 -0.425676 1329 0.736995 0.675898 0.000000
-3.923271 -3.527671 -0.424056 1337 0.736995 0.675898 0.000000
-3.923152 -3.527561 -0.422407 1341 0.736995 0.675898 0.000000
-3.922277 -3.526779 -0.420685 1315 0.736995 0.675898 0.000000
-3.922261 -3.526765 -0.419055 1305 0.736995 0.675898 0.000000
-3.922731 -3.527185 -0.417471 1321 0.736995 0.675898 0.000000
-3.922876 -3.527323 -0.415860 1323 0.736995 0.675898 0.000000
-3.922964 -3.527403 -0.414239 1317 0.736995 0.675898 0.000000
-3.923012 -3.527438 -0.412618 1321 0.736995 0.675898 0.000000
-3.922565 -3.527033 -0.410942 1307 0.736995 0.675898 0.000000
-3.922113 -3.526635 -0.409266 1297 0.736995 0.675898 0.000000
-3.922201 -3.526716 -0.407646 1297 0.736995 0.675898 0.000000
-3.922352 -3.526846 -0.406024 1291 0.736995 0.675898 0.000000
-3.923045 -3.527467 -0.404468 1303 0.736995 0.675898 0.000000
-3.923022 -3.527447 -0.402838 1309 0.736995 0.675898 0.000000
-3.922409 -3.526898 -0.401144 1301 0.736995 0.675898 0.000000
-3.923198 -3.527608 -0.399596 1317 0.736995 0.675898 0.000000
-3.923030 -3.527447 -0.397948 1319 0.736995 0.675898 0.000000
-3.922298 -3.526791 -0.396244 1307 0.736995 0.675898 0.000000
-3.922983 -3.527406 -0.394688 1295 0.736995 0.675898 0.000000
-3.923883 -3.528218 -0.393150 1305 0.736995 0.675898 0.000000
-3.923653 -3.528008 -0.391492 1311 0.736995 0.675898 0.000000
-3.924060 -3.528379 -0.389908 1321 0.736995 0.675898 0.000000
-3.924259 -3.528560 -0.388296 1325 0.736995 0.675898 0.000000
-3.923798 -3.528142 -0.386620 1337 0.736995 0.675898 0.000000
-3.923128 -3.527535 -0.384927 1321 0.736995 0.675898 0.000000
-3.923001 -3.527420 -0.383288 1303 0.736995 0.675898 0.000000
-3.923089 -3.527500 -0.381667 1303 0.736995 0.675898 0.000000
-3.923496 -3.527871 -0.380083 1309 0.736995 0.675898 0.000000
-3.923904 -3.528241 -0.378489 1321 0.736995 0.675898 0.000000
-3.923393 -3.527772 -0.376814 1305 0.736995 0.675898 0.000000
-3.923315 -3.527709 -0.375175 1299 0.736995 0.675898 0.000000
-3.923506 -3.527883 -0.373563 1305 0.736995 0.675898 0.000000
-3.923323 -3.527711 -0.371924 1305 0.736995 0.675898 0.000000
-3.922598 -3.527060 -0.370221 1307 0.736995 0.675898 0.000000
-3.922567 -3.527033 -0.368591 1301 0.736995 0.675898 0.000000
-3.923307 -3.527693 -0.367034 1297 0.736995 0.675898 0.000000
-3.923436 -3.527818 -0.365413 1299 0.736995 0.675898 0.000000
-3.923634 -3.527985 -0.363811 1307 0.736995 0.675898 0.000000
-3.923764 -3.528111 -0.362190 1315 0.736995 0.675898 0.000000
-3.923253 -3.527642 -0.360515 1299 0.736995 0.675898 0.000000
-3.923118 -3.527520 -0.358876 1299 0.736995 0.675898 0.000000
-3.923740 -3.528086 -0.357310 1307 0.736995 0.675898 0.000000
-3.923756 -3.528097 -0.355680 1295 0.736995 0.675898 0.000000
-3.923788 -3.528120 -0.354060 1303 0.736995 0.675898 0.000000
-3.923590 -3.527949 -0.352412 1295 0.736995 0.675898 0.000000
-3.923351 -3.527733 -0.350764 1289 0.736995 0.675898 0.000000
-3.923042 -3.527461 -0.349106 1295 0.736995 0.675898 0.000000
-3.922970 -3.527389 -0.347477 1285 0.736995 0.675898 0.000000
-3.923257 -3.527653 -0.345874 1285 0.736995 0.675898 0.000000
-3.923122 -3.527531 -0.344236 1283 0.736995 0.675898 0.000000
-3.923201 -3.527591 -0.342615 1285 0.736995 0.675898 0.000000
-3.922677 -3.527124 -0.340940 1273 0.736995 0.675898 0.000000
-3.922915 -3.527336 -0.339337 1275 0.736995 0.675898 0.000000
-3.923697 -3.528041 -0.337770 1283 0.736995 0.675898 0.000000
-3.923234 -3.527623 -0.336104 1287 0.736995 0.675898 0.000000
-3.922765 -3.527199 -0.334439 1275 0.736995 0.675898 0.000000
-3.923165 -3.527563 -0.332855 1295 0.736995 0.675898 0.000000
-3.923341 -3.527726 -0.331243 1305 0.736995 0.675898 0.000000
-3.923530 -3.527887 -0.329632 1291 0.736995 0.675898 0.000000
-3.923388 -3.527759 -0.327993 1273 0.736995 0.675898 0.000000
-3.923182 -3.527582 -0.326345 1275 0.736995 0.675898 0.000000
-3.923157 -3.527547 -0.324715 1291 0.736995 0.675898 0.000000
-3.923118 -3.527515 -0.323085 1277 0.736995 0.675898 0.000000
-3.923405 -3.527778 -0.321483 1293 0.736995 0.675898 0.000000
-3.923214 -3.527599 -0.319844 1299 0.736995 0.675898 0.000000
-3.923112 -3.527516 -0.318215 1291 0.736995 0.675898 0.000000
-3.923567 -3.527925 -0.316621 1279 0.736995 0.675898 0.000000
-3.923901 -3.528225 -0.315018 1269 0.736995 0.675898 0.000000
-3.924140 -3.528437 -0.313416 1285 0.736995 0.675898 0.000000
-3.923822 -3.526032 -0.551435 1311 0.736995 0.675898 0.000000
-3.923895 -3.526100 -0.549804 1317 0.736995 0.675898 0.000000
-3.923911 -3.526111 -0.548164 1331 0.736995 0.675898 0.000000
-3.923386 -3.525643 -0.546459 1337 0.736995 0.675898 0.000000
-3.923450 -3.525705 -0.544828 1329 0.736995 0.675898 0.000000
-3.923529 -3.525765 -0.543207 1331 0.736995 0.675898 0.000000
-3.922996 -3.525291 -0.541492 1323 0.736995 0.675898 0.000000
-3.923172 -3.525454 -0.539880 1307 0.736995 0.675898 0.000000
-3.923140 -3.525413 -0.538241 1313 0.736995 0.675898 0.000000
-3.923411 -3.525664 -0.536638 1329 0.736995 0.675898 0.000000
-3.923650 -3.525876 -0.535036 1333 0.736995 0.675898 0.000000
-3.923014 -3.525308 -0.533312 1311 0.736995 0.675898 0.000000
-3.923238 -3.525508 -0.531710 1303 0.736995 0.675898 0.000000
-3.924336 -3.526488 -0.530219 1311 0.736995 0.675898 0.000000
-3.925156 -3.527224 -0.528692 1325 0.736995 0.675898 0.000000
-3.925172 -3.527234 -0.527062 1331 0.736995 0.675898 0.000000
-3.924528 -3.526659 -0.525338 1337 0.736995 0.675898 0.000000
-3.923725 -3.525947 -0.523595 1327 0.736995 0.675898 0.000000
-3.923248 -3.525517 -0.521899 1303 0.736995 0.675898 0.000000
-3.922991 -3.525274 -0.520232 1307 0.736995 0.675898 0.000000
-3.923645 -3.525865 -0.518676 1317 0.736995 0.675898 0.000000
-3.924203 -3.526367 -0.517110 1319 0.736995 0.675898 0.000000
-3.923774 -3.525988 -0.515424 1327 0.736995 0.675898 0.000000
-3.923352 -3.525601 -0.513738 1323 0.736995 0.675898 0.000000
-3.923631 -3.525859 -0.512136 1325 0.736995 0.675898 0.000000
-3.923312 -3.525566 -0.510458 1315 0.736995 0.675898 0.000000
-3.923369 -3.525622 -0.508828 1313 0.736995 0.675898 0.000000
-3.924133 -3.526300 -0.507291 1331 0.736995 0.675898 0.000000
-3.924628 -3.526753 -0.505726 1339 0.736995 0.675898 0.000000
-3.924309 -3.526460 -0.504049 1333 0.736995 0.675898 0.000000
-3.923393 -3.525633 -0.502298 1331 0.736995 0.675898 0.000000
-3.923187 -3.525455 -0.500639 1341 0.736995 0.675898 0.000000
-3.923299 -3.525554 -0.499018 1333 0.736995 0.675898 0.000000
-3.923084 -3.525357 -0.497360 1317 0.736995 0.675898 0.000000
-3.923092 -3.525361 -0.495720 1313 0.736995 0.675898 0.000000
-3.923793 -3.525990 -0.494174 1325 0.736995 0.675898 0.000000
-3.924128 -3.526290 -0.492581 1339 0.736995 0.675898 0.000000
-3.923857 -3.526049 -0.490913 1337 0.736995 0.675898 0.000000
-3.923746 -3.525947 -0.489264 1327 0.736995 0.675898 0.000000
-3.924018 -3.526197 -0.487671 1331 0.736995 0.675898 0.000000
-3.924130 -3.526297 -0.486050 1339 0.736995 0.675898 0.000000
-3.923748 -3.525955 -0.484364 1331 0.736995 0.675898 0.000000
-3.923000 -3.525285 -0.482641 1329 0.736995 0.675898 0.000000
-3.923541 -3.525762 -0.481076 1327 0.736995 0.675898 0.000000
-3.923916 -3.526107 -0.479492 1315 0.736995 0.675898 0.000000
-3.923701 -3.525910 -0.477834 1323 0.736995 0.675898 0.000000
-3.924236 -3.526394 -0.476259 1331 0.736995 0.675898 0.000000
-3.924459 -3.526594 -0.474657 1327 0.736995 0.675898 0.000000
-3.924195 -3.526345 -0.472989 1317 0.736995 0.675898 0.000000
-3.924132 -3.526293 -0.471350 1325 0.736995 0.675898 0.000000
-3.924132 -3.526291 -0.469720 1331 0.736995 0.675898 0.000000
-3.924397 -3.526536 -0.468117 1335 0.736995 0.675898 0.000000
-3.924340 -3.526477 -0.466478 1331 0.736995 0.675898 0.000000
-3.923855 -3.526040 -0.464782 1319 0.736995 0.675898 0.000000
-3.923680 -3.525888 -0.463134 1321 0.736995 0.675898 0.000000
-3.924000 -3.526176 -0.461541 1325 0.736995 0.675898 0.000000
-3.923839 -3.526022 -0.459882 1317 0.736995 0.675898 0.000000
-3.923403 -3.525637 -0.458206 1313 0.736995 0.675898 0.000000
-3.923769 -3.525962 -0.456613 1325 0.736995 0.675898 0.000000
-3.924033 -3.526207 -0.455011 1319 0.736995 0.675898 0.000000
-3.923810 -3.526004 -0.453353 1301 0.736995 0.675898 0.000000
-3.923699 -3.525901 -0.451714 1305 0.736995 0.675898 0.000000
-3.923532 -3.525755 -0.450065 1301 0.736995 0.675898 0.000000
-3.923031 -3.525306 -0.448370 1305 0.736995 0.675898 0.000000
-3.923197 -3.525448 -0.446758 1311 0.736995 0.675898 0.000000
-3.924002 -3.526171 -0.445221 1319 0.736995 0.675898 0.000000
-3.923986 -3.526157 -0.443591 1323 0.736995 0.675898 0.000000
-3.923875 -3.526054 -0.441942 1319 0.736995 0.675898 0.000000
-3.924241 -3.526379 -0.440348 1315 0.736995 0.675898 0.000000
-3.924178 -3.526328 -0.438709 1313 0.736995 0.675898 0.000000
-3.924275 -3.526415 -0.437088 1327 0.736995 0.675898 0.000000
-3.924482 -3.526602 -0.435486 1337 0.736995 0.675898 0.000000
-3.924474 -3.526594 -0.433856 1331 0.736995 0.675898 0.000000
-3.924085 -3.526246 -0.432180 1305 0.736995 0.675898 0.000000
-3.923965 -3.526137 -0.430531 1311 0.736995 0.675898 0.000000
-3.924220 -3.526362 -0.428928 1333 0.736995 0.675898 0.000000
-3.923672 -3.525875 -0.427243 1329 0.736995 0.675898 0.000000
-3.923384 -3.525608 -0.425586 1311 0.736995 0.675898 0.000000
-3.923807 -3.525991 -0.423992 1309 0.736995 0.675898 0.000000
-3.924015 -3.526179 -0.422390 1323 0.736995 0.675898 0.000000
-3.924062 -3.526214 -0.420760 1307 0.736995 0.675898 0.000000
-3.924311 -3.526447 -0.419157 1301 0.736995 0.675898 0.000000
-3.924407 -3.526533 -0.417536 1315 0.736995 0.675898 0.000000
-3.923794 -3.525983 -0.415842 1317 0.736995 0.675898 0.000000
-3.923890 -3.526070 -0.414221 1317 0.736995 0.675898 0.000000
-3.924630 -3.526729 -0.412674 1323 0.736995 0.675898 0.000000
-3.924885 -3.526954 -0.411072 1323 0.736995 0.675898 0.000000
-3.924432 -3.526556 -0.409396 1311 0.736995 0.675898 0.000000
-3.924098 -3.526251 -0.407729 1301 0.736995 0.675898 0.000000
-3.924289 -3.526427 -0.406117 1309 0.736995 0.675898 0.000000
-3.924282 -3.526418 -0.404487 1313 0.736995 0.675898 0.000000
-3.924043 -3.526202 -0.402829 1317 0.736995 0.675898 0.000000
-3.924027 -3.526188 -0.401199 1319 0.736995 0.675898 0.000000
-3.924012 -3.526174 -0.399569 1315 0.736995 0.675898 0.000000
-3.924204 -3.526349 -0.397958 1313 0.736995 0.675898 0.000000
-3.924570 -3.526674 -0.396364 1299 0.736995 0.675898 0.000000
-3.924435 -3.526553 -0.394725 1307 0.736995 0.675898 0.000000
-3.924371 -3.526488 -0.393086 1309 0.736995 0.675898 0.000000
-3.924563 -3.526662 -0.391484 1309 0.736995 0.675898 0.000000
-3.925248 -3.527278 -0.389918 1315 0.736995 0.675898 0.000000
-3.925766 -3.527750 -0.388343 1325 0.736995 0.675898 0.000000
-3.925152 -3.527186 -0.386649 1325 0.736995 0.675898 0.000000
-3.924580 -3.526681 -0.384964 1301 0.736995 0.675898 0.000000
-3.924508 -3.526609 -0.383335 1307 0.736995 0.675898 0.000000
-3.924381 -3.526495 -0.381686 1301 0.736995 0.675898 0.000000
-3.924733 -3.526822 -0.380092 1305 0.736995 0.675898 0.000000
-3.924931 -3.526989 -0.378481 1301 0.736995 0.675898 0.000000
-3.924741 -3.526824 -0.376842 1295 0.736995 0.675898 0.000000
-3.924773 -3.526847 -0.375212 1305 0.736995 0.675898 0.000000
-3.924375 -3.526493 -0.373546 1299 0.736995 0.675898 0.000000
-3.923914 -3.526075 -0.371880 1287 0.736995 0.675898 0.000000
-3.924160 -3.526293 -0.370268 1287 0.736995 0.675898 0.000000
-3.924726 -3.526802 -0.368692 1289 0.736995 0.675898 0.000000
-3.924863 -3.526933 -0.367081 1299 0.736995 0.675898 0.000000
-3.924131 -3.526277 -0.365388 1287 0.736995 0.675898 0.000000
-3.924217 -3.526343 -0.363767 1293 0.736995 0.675898 0.000000
-3.924895 -3.526953 -0.362200 1307 0.736995 0.675898 0.000000
-3.924593 -3.526687 -0.360543 1299 0.736995 0.675898 0.000000
-3.924674 -3.526761 -0.358922 1303 0.736995 0.675898 0.000000
-3.925303 -3.527320 -0.357347 1301 0.736995 0.675898 0.000000
-3.924952 -3.527003 -0.355690 1289 0.736995 0.675898 0.000000
-3.924706 -3.526780 -0.354042 1305 0.736995 0.675898 0.000000
-3.924666 -3.526747 -0.352412 1293 0.736995 0.675898 0.000000
-3.924692 -3.526778 -0.350782 1295 0.736995 0.675898 0.000000
-3.924181 -3.526309 -0.349117 1295 0.736995 0.675898 0.000000
-3.924046 -3.526188 -0.347478 1287 0.736995 0.675898 0.000000
-3.924277 -3.526394 -0.345866 1277 0.736995 0.675898 0.000000
-3.924636 -3.526713 -0.344272 1287 0.736995 0.675898 0.000000
-3.924980 -3.527034 -0.342679 1297 0.736995 0.675898 0.000000
-3.924510 -3.526610 -0.341004 1281 0.736995 0.675898 0.000000
-3.924207 -3.526330 -0.339356 1291 0.736995 0.675898 0.000000
-3.924072 -3.526209 -0.337718 1289 0.736995 0.675898 0.000000
-3.924471 -3.526573 -0.336124 1289 0.736995 0.675898 0.000000
-3.924433 -3.526541 -0.334494 1283 0.736995 0.675898 0.000000
-3.924129 -3.526261 -0.332837 1285 0.736995 0.675898 0.000000
-3.924417 -3.526524 -0.331244 1291 0.736995 0.675898 0.000000
-3.924607 -3.526685 -0.329632 1297 0.736995 0.675898 0.000000
-3.924568 -3.526653 -0.328003 1295 0.736995 0.675898 0.000000
-3.924641 -3.526721 -0.326382 1291 0.736995 0.675898 0.000000
-3.924776 -3.526838 -0.324761 1291 0.736995 0.675898 0.000000
-3.924625 -3.526704 -0.323122 1289 0.736995 0.675898 0.000000
-3.924594 -3.526678 -0.321492 1297 0.736995 0.675898 0.000000
-3.924618 -3.526694 -0.319872 1307 0.736995 0.675898 0.000000
-3.925001 -3.527046 -0.318279 1311 0.736995 0.675898 0.000000
-3.925240 -3.527258 -0.316666 1307 0.736995 0.675898 0.000000
-3.924173 -3.526299 -0.314956 1279 0.736995 0.675898 0.000000
-3.923870 -3.526019 -0.313309 1273 0.736995 0.675898 0.000000
-3.925018 -3.524938 -0.551444 1337 0.736995 0.675898 0.000000
-3.924764 -3.524709 -0.549777 1337 0.736995 0.675898 0.000000
-3.924779 -3.524720 -0.548137 1333 0.736995 0.675898 0.000000
-3.924781 -3.524732 -0.546506 1331 0.736995 0.675898 0.000000
-3.925236 -3.525140 -0.544932 1335 0.736995 0.675898 0.000000
-3.925251 -3.525150 -0.543292 1335 0.736995 0.675898 0.000000
-3.924566 -3.524531 -0.541558 1325 0.736995 0.675898 0.000000
-3.924574 -3.524535 -0.539928 1321 0.736995 0.675898 0.000000
-3.925292 -3.525190 -0.538392 1315 0.736995 0.675898 0.000000
-3.925682 -3.525534 -0.536808 1335 0.736995 0.675898 0.000000
-3.925483 -3.525348 -0.535140 1335 0.736995 0.675898 0.000000
-3.925173 -3.525076 -0.533463 1321 0.736995 0.675898 0.000000
-3.925126 -3.525037 -0.531823 1307 0.736995 0.675898 0.000000
-3.924823 -3.524758 -0.530146 1307 0.736995 0.675898 0.000000
-3.924664 -3.524617 -0.528487 1305 0.736995 0.675898 0.000000
-3.925166 -3.525062 -0.526913 1315 0.736995 0.675898 0.000000
-3.925279 -3.525176 -0.525291 1321 0.736995 0.675898 0.000000
-3.925134 -3.525034 -0.523643 1309 0.736995 0.675898 0.000000
-3.925469 -3.525335 -0.522050 1299 0.736995 0.675898 0.000000
-3.925471 -3.525347 -0.520410 1317 0.736995 0.675898 0.000000
-3.924722 -3.524663 -0.518676 1323 0.736995 0.675898 0.000000
-3.924140 -3.524138 -0.516972 1319 0.736995 0.675898 0.000000
-3.924150 -3.524157 -0.515332 1315 0.736995 0.675898 0.000000
-3.924428 -3.524400 -0.513739 1309 0.736995 0.675898 0.000000
-3.924381 -3.524361 -0.512089 1309 0.736995 0.675898 0.000000
-3.924923 -3.524851 -0.510524 1317 0.736995 0.675898 0.000000
-3.925154 -3.525057 -0.508922 1321 0.736995 0.675898 0.000000
-3.925154 -3.525055 -0.507292 1329 0.736995 0.675898 0.000000
-3.925107 -3.525016 -0.505643 1333 0.736995 0.675898 0.000000
-3.924685 -3.524629 -0.503956 1333 0.736995 0.675898 0.000000
-3.924152 -3.524155 -0.502261 1337 0.736995 0.675898 0.000000
-3.924423 -3.524392 -0.500659 1339 0.736995 0.675898 0.000000
-3.924534 -3.524491 -0.499038 1337 0.736995 0.675898 0.000000
-3.924105 -3.524112 -0.497352 1315 0.736995 0.675898 0.000000
-3.924981 -3.524891 -0.495824 1321 0.736995 0.675898 0.000000
-3.925578 -3.525424 -0.494268 1341 0.736995 0.675898 0.000000
-3.925253 -3.525140 -0.492591 1341 0.736995 0.675898 0.000000
-3.925038 -3.524943 -0.490933 1327 0.736995 0.675898 0.000000
-3.925310 -3.525194 -0.489330 1329 0.736995 0.675898 0.000000
-3.924339 -3.524323 -0.487579 1325 0.736995 0.675898 0.000000
-3.923374 -3.523444 -0.485828 1309 0.736995 0.675898 0.000000
-3.923908 -3.523927 -0.484253 1305 0.736995 0.675898 0.000000
-3.924131 -3.524127 -0.482651 1307 0.736995 0.675898 0.000000
-3.924188 -3.524183 -0.481020 1315 0.736995 0.675898 0.000000
-3.924562 -3.524515 -0.479437 1333 0.736995 0.675898 0.000000
-3.924881 -3.524803 -0.477844 1335 0.736995 0.675898 0.000000
-3.925104 -3.525003 -0.476232 1331 0.736995 0.675898 0.000000
-3.925639 -3.525487 -0.474667 1339 0.736995 0.675898 0.000000
-3.925743 -3.525580 -0.473046 1343 0.736995 0.675898 0.000000
-3.925536 -3.525388 -0.471388 1331 0.736995 0.675898 0.000000
-3.925209 -3.525090 -0.469721 1323 0.736995 0.675898 0.000000
-3.924980 -3.524894 -0.468053 1335 0.736995 0.675898 0.000000
-3.925305 -3.525175 -0.466460 1325 0.736995 0.675898 0.000000
-3.925681 -3.525521 -0.464876 1331 0.736995 0.675898 0.000000
-3.925577 -3.525424 -0.463227 1333 0.736995 0.675898 0.000000
-3.925027 -3.524924 -0.461532 1315 0.736995 0.675898 0.000000
-3.924479 -3.524437 -0.459837 1305 0.736995 0.675898 0.000000
-3.923667 -3.523705 -0.458115 1299 0.736995 0.675898 0.000000
-3.924201 -3.524189 -0.456540 1323 0.736995 0.675898 0.000000
-3.924853 -3.524765 -0.454984 1317 0.736995 0.675898 0.000000
-3.924949 -3.524852 -0.453363 1313 0.736995 0.675898 0.000000
-3.925214 -3.525097 -0.451760 1319 0.736995 0.675898 0.000000
-3.925260 -3.525132 -0.450130 1319 0.736995 0.675898 0.000000
-3.925261 -3.525130 -0.448500 1317 0.736995 0.675898 0.000000
-3.924704 -3.524638 -0.446805 1307 0.736995 0.675898 0.000000
-3.924266 -3.524239 -0.445129 1307 0.736995 0.675898 0.000000
-3.924196 -3.524181 -0.443490 1315 0.736995 0.675898 0.000000
-3.924951 -3.524853 -0.441943 1323 0.736995 0.675898 0.000000
-3.925271 -3.525141 -0.440350 1323 0.736995 0.675898 0.000000
-3.924554 -3.524497 -0.438636 1311 0.736995 0.675898 0.000000
-3.924484 -3.524439 -0.436997 1303 0.736995 0.675898 0.000000
-3.925240 -3.525110 -0.435450 1317 0.736995 0.675898 0.000000
-3.925336 -3.525197 -0.433829 1311 0.736995 0.675898 0.000000
-3.925161 -3.525044 -0.432180 1301 0.736995 0.675898 0.000000
-3.925472 -3.525326 -0.430588 1321 0.736995 0.675898 0.000000
-3.925201 -3.525072 -0.428920 1325 0.736995 0.675898 0.000000
-3.924964 -3.524870 -0.427262 1323 0.736995 0.675898 0.000000
-3.925114 -3.524999 -0.425651 1313 0.736995 0.675898 0.000000
-3.925266 -3.525130 -0.424039 1315 0.736995 0.675898 0.000000
-3.925258 -3.525122 -0.422409 1315 0.736995 0.675898 0.000000
-3.924694 -3.524623 -0.420714 1293 0.736995 0.675898 0.000000
-3.924790 -3.524710 -0.419093 1301 0.736995 0.675898 0.000000
-3.925211 -3.525079 -0.417510 1323 0.736995 0.675898 0.000000
-3.925579 -3.525418 -0.415916 1331 0.736995 0.675898 0.000000
-3.925618 -3.525447 -0.414296 1319 0.736995 0.675898 0.000000
-3.925922 -3.525723 -0.412693 1317 0.736995 0.675898 0.000000
-3.926018 -3.525810 -0.411072 1331 0.736995 0.675898 0.000000
-3.925190 -3.525064 -0.409360 1319 0.736995 0.675898 0.000000
-3.925493 -3.525341 -0.407757 1329 0.736995 0.675898 0.000000
-3.925533 -3.525370 -0.406136 1317 0.736995 0.675898 0.000000
-3.925358 -3.525217 -0.404488 1319 0.736995 0.675898 0.000000
-3.925883 -3.525681 -0.402913 1329 0.736995 0.675898 0.000000
-3.925216 -3.525088 -0.401209 1307 0.736995 0.675898 0.000000
-3.924810 -3.524727 -0.399543 1289 0.736995 0.675898 0.000000
-3.925613 -3.525436 -0.397995 1299 0.736995 0.675898 0.000000
-3.925813 -3.525617 -0.396384 1307 0.736995 0.675898 0.000000
-3.925296 -3.525156 -0.394708 1305 0.736995 0.675898 0.000000
-3.925218 -3.525092 -0.393069 1303 0.736995 0.675898 0.000000
-3.925584 -3.525418 -0.391476 1311 0.736995 0.675898 0.000000
-3.925943 -3.525737 -0.389882 1321 0.736995 0.675898 0.000000
-3.925927 -3.525723 -0.388252 1321 0.736995 0.675898 0.000000
-3.925250 -3.525109 -0.386559 1309 0.736995 0.675898 0.000000
-3.925019 -3.524899 -0.384901 1309 0.736995 0.675898 0.000000
-3.925156 -3.525031 -0.383289 1315 0.736995 0.675898 0.000000
-3.925403 -3.525250 -0.381687 1315 0.736995 0.675898 0.000000
-3.925491 -3.525330 -0.380066 1303 0.736995 0.675898 0.000000
-3.925522 -3.525353 -0.378436 1297 0.736995 0.675898 0.000000
-3.925548 -3.525383 -0.376816 1291 0.736995 0.675898 0.000000
-3.925524 -3.525363 -0.375186 1293 0.736995 0.675898 0.000000
-3.925556 -3.525386 -0.373555 1287 0.736995 0.675898 0.000000
-3.925254 -3.525120 -0.371898 1275 0.736995 0.675898 0.000000
-3.925078 -3.524954 -0.370260 1289 0.736995 0.675898 0.000000
-3.925262 -3.525123 -0.368648 1309 0.736995 0.675898 0.000000
-3.925675 -3.525486 -0.367054 1313 0.736995 0.675898 0.000000
-3.925486 -3.525321 -0.365406 1297 0.736995 0.675898 0.000000
-3.925184 -3.525055 -0.363759 1289 0.736995 0.675898 0.000000
-3.925112 -3.524983 -0.362119 1287 0.736995 0.675898 0.000000
-3.925136 -3.525000 -0.360499 1289 0.736995 0.675898 0.000000
-3.925480 -3.525321 -0.358896 1293 0.736995 0.675898 0.000000
-3.925942 -3.525735 -0.357311 1297 0.736995 0.675898 0.000000
-3.925974 -3.525758 -0.355691 1291 0.736995 0.675898 0.000000
-3.926054 -3.525832 -0.354070 1299 0.736995 0.675898 0.000000
-3.926236 -3.525987 -0.352459 1291 0.736995 0.675898 0.000000
-3.926101 -3.525865 -0.350820 1303 0.736995 0.675898 0.000000
-3.925146 -3.525007 -0.349109 1293 0.736995 0.675898 0.000000
-3.924956 -3.524842 -0.347460 1281 0.736995 0.675898 0.000000
-3.925626 -3.525445 -0.345894 1289 0.736995 0.675898 0.000000
-3.925984 -3.525765 -0.344301 1305 0.736995 0.675898 0.000000
-3.925945 -3.525732 -0.342661 1311 0.736995 0.675898 0.000000
-3.925865 -3.525654 -0.341032 1305 0.736995 0.675898 0.000000
-3.925722 -3.525526 -0.339393 1303 0.736995 0.675898 0.000000
-3.925849 -3.525638 -0.337772 1297 0.736995 0.675898 0.000000
-3.925930 -3.525712 -0.336151 1291 0.736995 0.675898 0.000000
-3.926114 -3.525881 -0.334549 1299 0.736995 0.675898 0.000000
-3.925699 -3.525500 -0.332883 1285 0.736995 0.675898 0.000000
-3.925071 -3.524938 -0.331209 1289 0.736995 0.675898 0.000000
-3.925629 -3.525440 -0.329624 1303 0.736995 0.675898 0.000000
-3.926187 -3.525943 -0.328049 1305 0.736995 0.675898 0.000000
-3.925662 -3.525476 -0.326373 1293 0.736995 0.675898 0.000000
-3.924707 -3.524617 -0.324672 1287 0.736995 0.675898 0.000000
-3.924515 -3.524438 -0.323034 1289 0.736995 0.675898 0.000000
-3.924961 -3.524840 -0.321440 1287 0.736995 0.675898 0.000000
-3.925631 -3.525443 -0.319864 1301 0.736995 0.675898 0.000000
-3.925807 -3.525606 -0.318252 1305 0.736995 0.675898 0.000000
-3.925553 -3.525378 -0.316604 1293 0.736995 0.675898 0.000000
-3.925138 -3.524997 -0.314948 1277 0.736995 0.675898 0.000000
-3.924940 -3.524826 -0.313310 1277 0.736995 0.675898 0.000000
-3.927245 -3.524735 -0.551605 1343 0.736995 0.675898 0.000000
-3.927803 -3.525237 -0.550040 1349 0.736995 0.675898 0.000000
-3.927652 -3.525103 -0.548381 1329 0.736995 0.675898 0.000000
-3.927016 -3.524534 -0.546657 1321 0.736995 0.675898 0.000000
-3.927198 -3.524690 -0.545045 1339 0.736995 0.675898 0.000000
-3.926889 -3.524418 -0.543368 1335 0.736995 0.675898 0.000000
-3.926250 -3.523835 -0.541644 1327 0.736995 0.675898 0.000000
-3.926211 -3.523802 -0.540004 1325 0.736995 0.675898 0.000000
-3.926442 -3.524008 -0.538392 1323 0.736995 0.675898 0.000000
-3.926188 -3.523779 -0.536724 1323 0.736995 0.675898 0.000000
-3.926037 -3.523645 -0.535066 1315 0.736995 0.675898 0.000000
-3.926429 -3.524004 -0.533482 1317 0.736995 0.675898 0.000000
-3.926110 -3.523712 -0.531805 1315 0.736995 0.675898 0.000000
-3.926133 -3.523728 -0.530175 1317 0.736995 0.675898 0.000000
-3.926135 -3.523740 -0.528535 1321 0.736995 0.675898 0.000000
-3.926699 -3.524235 -0.526969 1315 0.736995 0.675898 0.000000
-3.927735 -3.525166 -0.525470 1317 0.736995 0.675898 0.000000
-3.927410 -3.524881 -0.523793 1313 0.736995 0.675898 0.000000
-3.926510 -3.524066 -0.522041 1309 0.736995 0.675898 0.000000
-3.925595 -3.523252 -0.520289 1323 0.736995 0.675898 0.000000
-3.925069 -3.522771 -0.518584 1325 0.736995 0.675898 0.000000
-3.925452 -3.523123 -0.517001 1323 0.736995 0.675898 0.000000
-3.925182 -3.522882 -0.515323 1311 0.736995 0.675898 0.000000
-3.924983 -3.522697 -0.513665 1291 0.736995 0.675898 0.000000
-3.925691 -3.523331 -0.512118 1299 0.736995 0.675898 0.000000
-3.926457 -3.524024 -0.510581 1329 0.736995 0.675898 0.000000
-3.926520 -3.524071 -0.508961 1325 0.736995 0.675898 0.000000
-3.926576 -3.524127 -0.507330 1319 0.736995 0.675898 0.000000
-3.927015 -3.524522 -0.505756 1329 0.736995 0.675898 0.000000
-3.926641 -3.524186 -0.504069 1325 0.736995 0.675898 0.000000
-3.926052 -3.523655 -0.502365 1321 0.736995 0.675898 0.000000
-3.926379 -3.523950 -0.500772 1331 0.736995 0.675898 0.000000
-3.926179 -3.523765 -0.499104 1339 0.736995 0.675898 0.000000
-3.925257 -3.522944 -0.497362 1323 0.736995 0.675898 0.000000
-3.925257 -3.522943 -0.495722 1323 0.736995 0.675898 0.000000
-3.926291 -3.523860 -0.494222 1343 0.736995 0.675898 0.000000
-3.926890 -3.524407 -0.492657 1339 0.736995 0.675898 0.000000
-3.926467 -3.524020 -0.490971 1329 0.736995 0.675898 0.000000
-3.925815 -3.523439 -0.489257 1331 0.736995 0.675898 0.000000
-3.925330 -3.523003 -0.487561 1323 0.736995 0.675898 0.000000
-3.925011 -3.522711 -0.485894 1315 0.736995 0.675898 0.000000
-3.925442 -3.523100 -0.484310 1319 0.736995 0.675898 0.000000
-3.926143 -3.523728 -0.482763 1323 0.736995 0.675898 0.000000
-3.926414 -3.523979 -0.481161 1325 0.736995 0.675898 0.000000
-3.926151 -3.523731 -0.479493 1327 0.736995 0.675898 0.000000
-3.926470 -3.524019 -0.477900 1341 0.736995 0.675898 0.000000
-3.926742 -3.524270 -0.476298 1341 0.736995 0.675898 0.000000
-3.926200 -3.523776 -0.474603 1329 0.736995 0.675898 0.000000
-3.925826 -3.523441 -0.472926 1321 0.736995 0.675898 0.000000
-3.926312 -3.523873 -0.471352 1313 0.736995 0.675898 0.000000
-3.926186 -3.523772 -0.469703 1323 0.736995 0.675898 0.000000
-3.925812 -3.523436 -0.468026 1327 0.736995 0.675898 0.000000
-3.925437 -3.523087 -0.466350 1325 0.736995 0.675898 0.000000
-3.925263 -3.522934 -0.464701 1317 0.736995 0.675898 0.000000
-3.925971 -3.523569 -0.463145 1317 0.736995 0.675898 0.000000
-3.926283 -3.523851 -0.461552 1313 0.736995 0.675898 0.000000
-3.926179 -3.523754 -0.459903 1313 0.736995 0.675898 0.000000
-3.925838 -3.523458 -0.458236 1311 0.736995 0.675898 0.000000
-3.926059 -3.523643 -0.456634 1319 0.736995 0.675898 0.000000
-3.925997 -3.523592 -0.454994 1311 0.736995 0.675898 0.000000
-3.926420 -3.523975 -0.453410 1311 0.736995 0.675898 0.000000
-3.926905 -3.524408 -0.451826 1315 0.736995 0.675898 0.000000
-3.926579 -3.524109 -0.450159 1313 0.736995 0.675898 0.000000
-3.926404 -3.523957 -0.448510 1319 0.736995 0.675898 0.000000
-3.925911 -3.523514 -0.446825 1309 0.736995 0.675898 0.000000
-3.925633 -3.523267 -0.445157 1311 0.736995 0.675898 0.000000
-3.925945 -3.523549 -0.443564 1325 0.736995 0.675898 0.000000
-3.926422 -3.523976 -0.441990 1327 0.736995 0.675898 0.000000
-3.926741 -3.524264 -0.440387 1321 0.736995 0.675898 0.000000
-3.926510 -3.524054 -0.438729 1319 0.736995 0.675898 0.000000
-3.926399 -3.523951 -0.437090 1311 0.736995 0.675898 0.000000
-3.927092 -3.524573 -0.435534 1313 0.736995 0.675898 0.000000
-3.927251 -3.524709 -0.433922 1311 0.736995 0.675898 0.000000
-3.926264 -3.523826 -0.432181 1303 0.736995 0.675898 0.000000
-3.925755 -3.523371 -0.430496 1307 0.736995 0.675898 0.000000
-3.925963 -3.523558 -0.428884 1317 0.736995 0.675898 0.000000
-3.926495 -3.524028 -0.427309 1327 0.736995 0.675898 0.000000
-3.927349 -3.524802 -0.425771 1327 0.736995 0.675898 0.000000
-3.927181 -3.524642 -0.424123 1307 0.736995 0.675898 0.000000
-3.927269 -3.524722 -0.422502 1301 0.736995 0.675898 0.000000
-3.927150 -3.524613 -0.420863 1309 0.736995 0.675898 0.000000
-3.926052 -3.523629 -0.419113 1315 0.736995 0.675898 0.000000
-3.925932 -3.523520 -0.417474 1321 0.736995 0.675898 0.000000
-3.926451 -3.523992 -0.415899 1331 0.736995 0.675898 0.000000
-3.926770 -3.524280 -0.414296 1321 0.736995 0.675898 0.000000
-3.927240 -3.524700 -0.412722 1323 0.736995 0.675898 0.000000
-3.926794 -3.524295 -0.411046 1315 0.736995 0.675898 0.000000
-3.926563 -3.524085 -0.409388 1327 0.736995 0.675898 0.000000
-3.926700 -3.524216 -0.407777 1327 0.736995 0.675898 0.000000
-3.926420 -3.523955 -0.406109 1307 0.736995 0.675898 0.000000
-3.926669 -3.524188 -0.404507 1311 0.736995 0.675898 0.000000
-3.927027 -3.524507 -0.402914 1313 0.736995 0.675898 0.000000
-3.926908 -3.524398 -0.401275 1305 0.736995 0.675898 0.000000
-3.926454 -3.523987 -0.399599 1295 0.736995 0.675898 0.000000
-3.926327 -3.523871 -0.397960 1295 0.736995 0.675898 0.000000
-3.926256 -3.523813 -0.396320 1299 0.736995 0.675898 0.000000
-3.926017 -3.523597 -0.394673 1299 0.736995 0.675898 0.000000
-3.926321 -3.523873 -0.393070 1299 0.736995 0.675898 0.000000
-3.926783 -3.524287 -0.391486 1297 0.736995 0.675898 0.000000
-3.927260 -3.524714 -0.389901 1305 0.736995 0.675898 0.000000
-3.927619 -3.525033 -0.388308 1319 0.736995 0.675898 0.000000
-3.927540 -3.524969 -0.386668 1323 0.736995 0.675898 0.000000
-3.926926 -3.524406 -0.384984 1333 0.736995 0.675898 0.000000
-3.926035 -3.523611 -0.383272 1317 0.736995 0.675898 0.000000
