786
-3.977749 -3.467971 -0.500937 905 0.736995 0.675898 0.000000
-3.978027 -3.468214 -0.499344 897 0.736995 0.675898 0.000000
-3.978139 -3.468313 -0.497723 883 0.736995 0.675898 0.000000
-3.978639 -3.468744 -0.496148 885 0.736995 0.675898 0.000000
-3.979084 -3.469132 -0.494564 891 0.736995 0.675898 0.000000
-3.978758 -3.468847 -0.492887 891 0.736995 0.675898 0.000000
-3.979037 -3.469090 -0.491285 911 0.736995 0.675898 0.000000
-3.978703 -3.468800 -0.489618 901 0.736995 0.675898 0.000000
-3.978108 -3.468277 -0.487903 873 0.736995 0.675898 0.000000
-3.979039 -3.469099 -0.486385 897 0.736995 0.675898 0.000000
-3.978990 -3.469046 -0.484745 921 0.736995 0.675898 0.000000
-3.978165 -3.468328 -0.483012 897 0.736995 0.675898 0.000000
-3.978547 -3.468666 -0.481419 897 0.736995 0.675898 0.000000
-3.978540 -3.468658 -0.479789 895 0.736995 0.675898 0.000000
-3.977889 -3.468091 -0.478075 881 0.736995 0.675898 0.000000
-3.977611 -3.467844 -0.476407 873 0.736995 0.675898 0.000000
-3.977507 -3.467747 -0.474768 879 0.736995 0.675898 0.000000
-3.978160 -3.468325 -0.473212 901 0.736995 0.675898 0.000000
-3.978223 -3.468372 -0.471582 903 0.736995 0.675898 0.000000
-3.978596 -3.468704 -0.469988 889 0.736995 0.675898 0.000000
-3.979580 -3.469555 -0.468469 889 0.736995 0.675898 0.000000
-3.979255 -3.469271 -0.466802 871 0.736995 0.675898 0.000000
-3.978652 -3.468742 -0.465098 869 0.736995 0.675898 0.000000
-3.978638 -3.468741 -0.463458 885 0.736995 0.675898 0.000000
-3.978415 -3.468538 -0.461800 891 0.736995 0.675898 0.000000
-3.978518 -3.468630 -0.460179 889 0.736995 0.675898 0.000000
-3.977694 -3.467913 -0.458456 877 0.736995 0.675898 0.000000
-3.976813 -3.467139 -0.456724 867 0.736995 0.675898 0.000000
-3.977790 -3.467998 -0.455205 873 0.736995 0.675898 0.000000
-3.978836 -3.468899 -0.453686 891 0.736995 0.675898 0.000000
-3.979099 -3.469130 -0.452083 891 0.736995 0.675898 0.000000
-3.978815 -3.468890 -0.450416 895 0.736995 0.675898 0.000000
-3.978100 -3.468260 -0.448702 885 0.736995 0.675898 0.000000
-3.977871 -3.468064 -0.447044 883 0.736995 0.675898 0.000000
-3.977863 -3.468056 -0.445414 885 0.736995 0.675898 0.000000
-3.978125 -3.468287 -0.443812 875 0.736995 0.675898 0.000000
-3.978276 -3.468417 -0.442200 885 0.736995 0.675898 0.000000
-3.978061 -3.468220 -0.440542 887 0.736995 0.675898 0.000000
-3.978482 -3.468588 -0.438959 877 0.736995 0.675898 0.000000
-3.979023 -3.469065 -0.437384 887 0.736995 0.675898 0.000000
-3.978682 -3.468768 -0.435717 901 0.736995 0.675898 0.000000
-3.978183 -3.468333 -0.434031 899 0.736995 0.675898 0.000000
-3.978667 -3.468751 -0.432447 907 0.736995 0.675898 0.000000
-3.978381 -3.468498 -0.430789 891 0.736995 0.675898 0.000000
-3.978810 -3.468874 -0.429195 895 0.736995 0.675898 0.000000
-3.979024 -3.469053 -0.427593 891 0.736995 0.675898 0.000000
-3.978890 -3.468946 -0.425945 899 0.736995 0.675898 0.000000
-3.978659 -3.468736 -0.424287 903 0.736995 0.675898 0.000000
-3.978755 -3.468822 -0.422666 905 0.736995 0.675898 0.000000
-3.978082 -3.468237 -0.420972 891 0.736995 0.675898 0.000000
-3.977249 -3.467514 -0.419249 889 0.736995 0.675898 0.000000
-3.978113 -3.468258 -0.417711 893 0.736995 0.675898 0.000000
-3.979304 -3.469299 -0.416201 899 0.736995 0.675898 0.000000
-3.979130 -3.469146 -0.414552 893 0.736995 0.675898 0.000000
-3.978844 -3.468893 -0.412895 895 0.736995 0.675898 0.000000
-3.978544 -3.468641 -0.411227 911 0.736995 0.675898 0.000000
-3.978417 -3.468526 -0.409589 915 0.736995 0.675898 0.000000
-3.978734 -3.468801 -0.407986 895 0.736995 0.675898 0.000000
-3.978171 -3.468302 -0.406301 885 0.736995 0.675898 0.000000
-3.977267 -3.467523 -0.404579 877 0.736995 0.675898 0.000000
-3.977203 -3.467457 -0.402939 859 0.736995 0.675898 0.000000
-3.977998 -3.468160 -0.401392 853 0.736995 0.675898 0.000000
-3.977879 -3.468051 -0.399753 865 0.736995 0.675898 0.000000
-3.977585 -3.467791 -0.398096 881 0.736995 0.675898 0.000000
-3.977728 -3.467915 -0.396474 873 0.736995 0.675898 0.000000
-3.977595 -3.467808 -0.394836 863 0.736995 0.675898 0.000000
-3.977856 -3.468025 -0.393233 871 0.736995 0.675898 0.000000
-3.978389 -3.468494 -0.391658 879 0.736995 0.675898 0.000000
-3.978420 -3.468517 -0.390028 875 0.736995 0.675898 0.000000
-3.978675 -3.468742 -0.388426 873 0.736995 0.675898 0.000000
-3.978651 -3.468721 -0.386786 867 0.736995 0.675898 0.000000
-3.977588 -3.467790 -0.385056 857 0.736995 0.675898 0.000000
-3.977946 -3.468109 -0.383462 867 0.736995 0.675898 0.000000
-3.978477 -3.468565 -0.381887 867 0.736995 0.675898 0.000000
-3.978836 -3.468885 -0.380294 869 0.736995 0.675898 0.000000
-3.978701 -3.468763 -0.378645 885 0.736995 0.675898 0.000000
-3.978074 -3.468215 -0.376961 863 0.736995 0.675898 0.000000
-3.978272 -3.468382 -0.375349 861 0.736995 0.675898 0.000000
-3.978305 -3.468419 -0.373729 873 0.736995 0.675898 0.000000
-3.978274 -3.468393 -0.372089 883 0.736995 0.675898 0.000000
-3.978305 -3.468415 -0.370469 883 0.736995 0.675898 0.000000
-3.978719 -3.468778 -0.368875 869 0.736995 0.675898 0.000000
-3.978750 -3.468801 -0.367255 857 0.736995 0.675898 0.000000
-3.978116 -3.468247 -0.365560 863 0.736995 0.675898 0.000000
-3.978147 -3.468270 -0.363940 883 0.736995 0.675898 0.000000
-3.978228 -3.468344 -0.362319 879 0.736995 0.675898 0.000000
-3.978426 -3.468511 -0.360707 865 0.736995 0.675898 0.000000
-3.978339 -3.468441 -0.359068 859 0.736995 0.675898 0.000000
-3.978363 -3.468458 -0.357448 871 0.736995 0.675898 0.000000
-3.979054 -3.469066 -0.355882 875 0.736995 0.675898 0.000000
-3.979237 -3.469220 -0.354270 875 0.736995 0.675898 0.000000
-3.978285 -3.468390 -0.352558 869 0.736995 0.675898 0.000000
-3.977318 -3.467547 -0.350847 853 0.736995 0.675898 0.000000
-3.978166 -3.468279 -0.349290 881 0.736995 0.675898 0.000000
-3.978358 -3.468454 -0.347678 893 0.736995 0.675898 0.000000
-3.977390 -3.467611 -0.345966 865 0.736995 0.675898 0.000000
-3.977572 -3.467766 -0.344355 855 0.736995 0.675898 0.000000
-3.978366 -3.468455 -0.342798 855 0.736995 0.675898 0.000000
-3.978891 -3.468919 -0.341213 851 0.736995 0.675898 0.000000
-3.979406 -3.469362 -0.339628 857 0.736995 0.675898 0.000000
-3.979708 -3.469624 -0.338025 859 0.736995 0.675898 0.000000
-3.979010 -3.469020 -0.336342 867 0.736995 0.675898 0.000000
-3.978813 -3.468849 -0.334693 875 0.736995 0.675898 0.000000
-3.979162 -3.469148 -0.333100 863 0.736995 0.675898 0.000000
-3.978964 -3.468977 -0.331452 847 0.736995 0.675898 0.000000
-3.977996 -3.468134 -0.329751 845 0.736995 0.675898 0.000000
-3.977624 -3.467813 -0.328094 857 0.736995 0.675898 0.000000
-3.977926 -3.468074 -0.326491 855 0.736995 0.675898 0.000000
-3.978329 -3.468417 -0.324888 863 0.736995 0.675898 0.000000
-3.978623 -3.468673 -0.323285 863 0.736995 0.675898 0.000000
-3.978148 -3.468256 -0.321629 853 0.736995 0.675898 0.000000
-3.977887 -3.468036 -0.319981 869 0.736995 0.675898 0.000000
-3.978728 -3.468761 -0.318414 883 0.736995 0.675898 0.000000
-3.978855 -3.468873 -0.316803 873 0.736995 0.675898 0.000000
-3.977776 -3.467929 -0.315092 865 0.736995 0.675898 0.000000
-3.977793 -3.467953 -0.313462 853 0.736995 0.675898 0.000000
-3.979379 -3.467353 -0.537023 861 0.736995 0.675898 0.000000
-3.979665 -3.467602 -0.535420 887 0.736995 0.675898 0.000000
-3.979022 -3.467041 -0.533696 891 0.736995 0.675898 0.000000
-3.978546 -3.466625 -0.532000 869 0.736995 0.675898 0.000000
-3.979054 -3.467062 -0.530426 863 0.736995 0.675898 0.000000
-3.979229 -3.467211 -0.528814 869 0.736995 0.675898 0.000000
-3.978960 -3.466984 -0.527136 871 0.736995 0.675898 0.000000
-3.979468 -3.467422 -0.525572 871 0.736995 0.675898 0.000000
-3.979365 -3.467339 -0.523923 871 0.736995 0.675898 0.000000
-3.978715 -3.466772 -0.522198 877 0.736995 0.675898 0.000000
-3.978835 -3.466877 -0.520577 881 0.736995 0.675898 0.000000
-3.979184 -3.467176 -0.518984 863 0.736995 0.675898 0.000000
-3.980120 -3.467991 -0.517476 879 0.736995 0.675898 0.000000
-3.980343 -3.468190 -0.515864 891 0.736995 0.675898 0.000000
-3.979755 -3.467673 -0.514149 889 0.736995 0.675898 0.000000
-3.978661 -3.466717 -0.512379 877 0.736995 0.675898 0.000000
-3.978835 -3.466866 -0.510767 879 0.736995 0.675898 0.000000
-3.979392 -3.467354 -0.509202 891 0.736995 0.675898 0.000000
-3.979779 -3.467684 -0.507609 895 0.736995 0.675898 0.000000
-3.979956 -3.467846 -0.505997 895 0.736995 0.675898 0.000000
-3.979082 -3.467078 -0.504255 889 0.736995 0.675898 0.000000
-3.979306 -3.467278 -0.502643 901 0.736995 0.675898 0.000000
-3.979750 -3.467665 -0.501069 915 0.736995 0.675898 0.000000
-3.979376 -3.467330 -0.499382 903 0.736995 0.675898 0.000000
-3.979203 -3.467191 -0.497724 899 0.736995 0.675898 0.000000
-3.978886 -3.466913 -0.496056 893 0.736995 0.675898 0.000000
-3.979823 -3.467728 -0.494538 891 0.736995 0.675898 0.000000
-3.980759 -3.468542 -0.493009 895 0.736995 0.675898 0.000000
-3.979990 -3.467868 -0.491286 909 0.736995 0.675898 0.000000
-3.979118 -3.467113 -0.489544 883 0.736995 0.675898 0.000000
-3.979506 -3.467444 -0.487951 875 0.736995 0.675898 0.000000
-3.979943 -3.467825 -0.486377 909 0.736995 0.675898 0.000000
-3.979563 -3.467497 -0.484690 909 0.736995 0.675898 0.000000
-3.979451 -3.467394 -0.483041 893 0.736995 0.675898 0.000000
-3.979674 -3.467594 -0.481439 903 0.736995 0.675898 0.000000
-3.979459 -3.467397 -0.479781 895 0.736995 0.675898 0.000000
-3.978905 -3.466919 -0.478076 889 0.736995 0.675898 0.000000
-3.978801 -3.466822 -0.476427 883 0.736995 0.675898 0.000000
-3.979183 -3.467160 -0.474843 899 0.736995 0.675898 0.000000
-3.979295 -3.467259 -0.473222 909 0.736995 0.675898 0.000000
-3.979557 -3.467489 -0.471620 899 0.736995 0.675898 0.000000
-3.979945 -3.467820 -0.470026 897 0.736995 0.675898 0.000000
-3.980216 -3.468057 -0.468434 905 0.736995 0.675898 0.000000
-3.980049 -3.467911 -0.466775 893 0.736995 0.675898 0.000000
-3.979828 -3.467721 -0.465117 889 0.736995 0.675898 0.000000
-3.979605 -3.467517 -0.463459 881 0.736995 0.675898 0.000000
-3.978939 -3.466938 -0.461745 881 0.736995 0.675898 0.000000
-3.978654 -3.466699 -0.460088 873 0.736995 0.675898 0.000000
-3.978931 -3.466928 -0.458485 871 0.736995 0.675898 0.000000
-3.979750 -3.467649 -0.456938 889 0.736995 0.675898 0.000000
-3.980179 -3.468025 -0.455354 905 0.736995 0.675898 0.000000
-3.980289 -3.468109 -0.453733 899 0.736995 0.675898 0.000000
-3.979838 -3.467726 -0.452057 871 0.736995 0.675898 0.000000
-3.979069 -3.467052 -0.450334 875 0.736995 0.675898 0.000000
-3.978513 -3.466560 -0.448639 879 0.736995 0.675898 0.000000
-3.978990 -3.466986 -0.447064 897 0.736995 0.675898 0.000000
-3.979045 -3.467027 -0.445434 909 0.736995 0.675898 0.000000
-3.979046 -3.467026 -0.443804 893 0.736995 0.675898 0.000000
-3.979141 -3.467112 -0.442183 895 0.736995 0.675898 0.000000
-3.978530 -3.466577 -0.440478 883 0.736995 0.675898 0.000000
-3.979285 -3.467234 -0.438932 883 0.736995 0.675898 0.000000
-3.979825 -3.467710 -0.437357 895 0.736995 0.675898 0.000000
-3.978381 -3.466453 -0.435570 891 0.736995 0.675898 0.000000
-3.978437 -3.466495 -0.433949 899 0.736995 0.675898 0.000000
-3.979128 -3.467102 -0.432393 909 0.736995 0.675898 0.000000
-3.979128 -3.467100 -0.430763 897 0.736995 0.675898 0.000000
-3.979167 -3.467129 -0.429132 903 0.736995 0.675898 0.000000
-3.978882 -3.466876 -0.427465 899 0.736995 0.675898 0.000000
-3.979477 -3.467396 -0.425900 901 0.736995 0.675898 0.000000
-3.979677 -3.467577 -0.424288 923 0.736995 0.675898 0.000000
-3.979391 -3.467324 -0.422630 911 0.736995 0.675898 0.000000
-3.979217 -3.467171 -0.420982 893 0.736995 0.675898 0.000000
-3.979581 -3.467483 -0.419388 895 0.736995 0.675898 0.000000
-3.979740 -3.467619 -0.417777 887 0.736995 0.675898 0.000000
-3.979773 -3.467656 -0.416147 887 0.736995 0.675898 0.000000
-3.979433 -3.467359 -0.414480 873 0.736995 0.675898 0.000000
-3.979472 -3.467388 -0.412849 889 0.736995 0.675898 0.000000
-3.980059 -3.467901 -0.411284 899 0.736995 0.675898 0.000000
-3.979711 -3.467598 -0.409617 889 0.736995 0.675898 0.000000
-3.978871 -3.466869 -0.407905 875 0.736995 0.675898 0.000000
-3.978473 -3.466515 -0.406228 887 0.736995 0.675898 0.000000
-3.979061 -3.467028 -0.404663 889 0.736995 0.675898 0.000000
-3.979641 -3.467535 -0.403087 873 0.736995 0.675898 0.000000
-3.980013 -3.467853 -0.401494 867 0.736995 0.675898 0.000000
-3.979561 -3.467455 -0.399818 859 0.736995 0.675898 0.000000
-3.979371 -3.467290 -0.398170 871 0.736995 0.675898 0.000000
-3.979737 -3.467616 -0.396577 881 0.736995 0.675898 0.000000
-3.979277 -3.467212 -0.394901 867 0.736995 0.675898 0.000000
-3.978825 -3.466815 -0.393225 857 0.736995 0.675898 0.000000
-3.978691 -3.466707 -0.391586 861 0.736995 0.675898 0.000000
-3.979381 -3.467301 -0.390020 877 0.736995 0.675898 0.000000
-3.979635 -3.467526 -0.388417 879 0.736995 0.675898 0.000000
-3.979508 -3.467410 -0.386778 873 0.736995 0.675898 0.000000
-3.979207 -3.467145 -0.385121 863 0.736995 0.675898 0.000000
-3.978858 -3.466842 -0.383454 853 0.736995 0.675898 0.000000
-3.979002 -3.466966 -0.381843 859 0.736995 0.675898 0.000000
-3.979360 -3.467285 -0.380250 857 0.736995 0.675898 0.000000
-3.979550 -3.467446 -0.378638 865 0.736995 0.675898 0.000000
-3.979701 -3.467576 -0.377016 871 0.736995 0.675898 0.000000
-3.979836 -3.467693 -0.375405 881 0.736995 0.675898 0.000000
-3.980304 -3.468100 -0.373821 891 0.736995 0.675898 0.000000
-3.980177 -3.467985 -0.372172 881 0.736995 0.675898 0.000000
-3.979266 -3.467199 -0.370460 869 0.736995 0.675898 0.000000
-3.978910 -3.466890 -0.368803 859 0.736995 0.675898 0.000000
-3.979212 -3.467152 -0.367201 869 0.736995 0.675898 0.000000
-3.979355 -3.467276 -0.365589 867 0.736995 0.675898 0.000000
-3.979553 -3.467443 -0.363977 857 0.736995 0.675898 0.000000
-3.979418 -3.467321 -0.362329 849 0.736995 0.675898 0.000000
-3.979498 -3.467396 -0.360708 851 0.736995 0.675898 0.000000
-3.979903 -3.467752 -0.359124 871 0.736995 0.675898 0.000000
-3.979927 -3.467769 -0.357494 879 0.736995 0.675898 0.000000
-3.979792 -3.467648 -0.355855 873 0.736995 0.675898 0.000000
-3.979872 -3.467722 -0.354234 861 0.736995 0.675898 0.000000
-3.979516 -3.467413 -0.352578 851 0.736995 0.675898 0.000000
-3.978882 -3.466858 -0.350893 859 0.736995 0.675898 0.000000
-3.979072 -3.467020 -0.349281 881 0.736995 0.675898 0.000000
-3.979761 -3.467613 -0.347715 885 0.736995 0.675898 0.000000
-3.979175 -3.467110 -0.346030 857 0.736995 0.675898 0.000000
-3.978596 -3.466599 -0.344356 851 0.736995 0.675898 0.000000
-3.979389 -3.467288 -0.342798 857 0.736995 0.675898 0.000000
-3.979851 -3.467702 -0.341204 851 0.736995 0.675898 0.000000
-3.979819 -3.467661 -0.339575 859 0.736995 0.675898 0.000000
-3.979844 -3.467692 -0.337954 841 0.736995 0.675898 0.000000
-3.979756 -3.467608 -0.336315 849 0.736995 0.675898 0.000000
-3.979717 -3.467575 -0.334685 853 0.736995 0.675898 0.000000
-3.979582 -3.467453 -0.333047 855 0.736995 0.675898 0.000000
-3.979273 -3.467182 -0.331399 853 0.736995 0.675898 0.000000
-3.979400 -3.467293 -0.329778 871 0.736995 0.675898 0.000000
-3.978591 -3.466588 -0.328085 859 0.736995 0.675898 0.000000
-3.978719 -3.466700 -0.326474 853 0.736995 0.675898 0.000000
-3.979020 -3.466962 -0.324871 855 0.736995 0.675898 0.000000
-3.979093 -3.467030 -0.323251 855 0.736995 0.675898 0.000000
-3.979553 -3.467429 -0.321657 841 0.736995 0.675898 0.000000
-3.979728 -3.467578 -0.320045 859 0.736995 0.675898 0.000000
-3.979751 -3.467595 -0.318415 861 0.736995 0.675898 0.000000
-3.979602 -3.467475 -0.316776 857 0.736995 0.675898 0.000000
-3.979285 -3.467197 -0.315129 853 0.736995 0.675898 0.000000
-3.979697 -3.467546 -0.313535 861 0.736995 0.675898 0.000000
-3.980746 -3.466445 -0.537061 855 0.736995 0.675898 0.000000
-3.980873 -3.466556 -0.535440 869 0.736995 0.675898 0.000000
-3.980889 -3.466567 -0.533809 877 0.736995 0.675898 0.000000
-3.980891 -3.466579 -0.532169 867 0.736995 0.675898 0.000000
-3.980970 -3.466639 -0.530539 875 0.736995 0.675898 0.000000
-3.980264 -3.466028 -0.528815 879 0.736995 0.675898 0.000000
-3.979718 -3.465556 -0.527110 879 0.736995 0.675898 0.000000
-3.980503 -3.466239 -0.525573 877 0.736995 0.675898 0.000000
-3.981391 -3.467002 -0.524045 881 0.736995 0.675898 0.000000
-3.980694 -3.466398 -0.522321 877 0.736995 0.675898 0.000000
-3.979655 -3.465499 -0.520550 877 0.736995 0.675898 0.000000
-3.979448 -3.465307 -0.518892 861 0.736995 0.675898 0.000000
-3.980670 -3.466373 -0.517411 873 0.736995 0.675898 0.000000
-3.981656 -3.467239 -0.515902 901 0.736995 0.675898 0.000000
-3.980790 -3.466477 -0.514150 891 0.736995 0.675898 0.000000
-3.980188 -3.465961 -0.512445 875 0.736995 0.675898 0.000000
-3.980314 -3.466058 -0.510824 865 0.736995 0.675898 0.000000
-3.980759 -3.466446 -0.509240 869 0.736995 0.675898 0.000000
-3.981474 -3.467073 -0.507694 883 0.736995 0.675898 0.000000
-3.980553 -3.466267 -0.505942 875 0.736995 0.675898 0.000000
-3.979015 -3.464935 -0.504116 861 0.736995 0.675898 0.000000
-3.979419 -3.465278 -0.502532 867 0.736995 0.675898 0.000000
-3.980238 -3.465999 -0.500995 885 0.736995 0.675898 0.000000
-3.980363 -3.466096 -0.499373 889 0.736995 0.675898 0.000000
-3.980475 -3.466195 -0.497752 891 0.736995 0.675898 0.000000
-3.980142 -3.465904 -0.496075 885 0.736995 0.675898 0.000000
-3.980087 -3.465859 -0.494436 885 0.736995 0.675898 0.000000
-3.980152 -3.465921 -0.492815 879 0.736995 0.675898 0.000000
-3.980152 -3.465919 -0.491175 883 0.736995 0.675898 0.000000
-3.980048 -3.465822 -0.489526 895 0.736995 0.675898 0.000000
-3.980985 -3.466637 -0.488008 907 0.736995 0.675898 0.000000
-3.981859 -3.467402 -0.486480 917 0.736995 0.675898 0.000000
-3.981533 -3.467117 -0.484802 901 0.736995 0.675898 0.000000
-3.980820 -3.466501 -0.483089 893 0.736995 0.675898 0.000000
-3.980550 -3.466259 -0.481421 895 0.736995 0.675898 0.000000
-3.980113 -3.465874 -0.479735 885 0.736995 0.675898 0.000000
-3.980321 -3.466062 -0.478123 897 0.736995 0.675898 0.000000
-3.980883 -3.466542 -0.476558 909 0.736995 0.675898 0.000000
-3.980821 -3.466491 -0.474919 901 0.736995 0.675898 0.000000
-3.980877 -3.466547 -0.473288 907 0.736995 0.675898 0.000000
-3.980870 -3.466538 -0.471648 895 0.736995 0.675898 0.000000
-3.980766 -3.466442 -0.470009 897 0.736995 0.675898 0.000000
-3.980925 -3.466578 -0.468388 917 0.736995 0.675898 0.000000
-3.981250 -3.466858 -0.466795 905 0.736995 0.675898 0.000000
-3.981299 -3.466908 -0.465164 893 0.736995 0.675898 0.000000
-3.980584 -3.466277 -0.463451 883 0.736995 0.675898 0.000000
-3.980688 -3.466370 -0.461830 883 0.736995 0.675898 0.000000
-3.980688 -3.466368 -0.460200 883 0.736995 0.675898 0.000000
-3.980245 -3.465991 -0.458514 881 0.736995 0.675898 0.000000
-3.980514 -3.466214 -0.456911 885 0.736995 0.675898 0.000000
-3.980555 -3.466257 -0.455281 891 0.736995 0.675898 0.000000
-3.979848 -3.465633 -0.453567 869 0.736995 0.675898 0.000000
-3.979674 -3.465480 -0.451919 869 0.736995 0.675898 0.000000
-3.980381 -3.466100 -0.450362 891 0.736995 0.675898 0.000000
-3.981198 -3.466808 -0.448825 883 0.736995 0.675898 0.000000
-3.981460 -3.467039 -0.447222 883 0.736995 0.675898 0.000000
-3.980906 -3.466560 -0.445527 897 0.736995 0.675898 0.000000
-3.980628 -3.466313 -0.443860 897 0.736995 0.675898 0.000000
-3.980890 -3.466544 -0.442257 893 0.736995 0.675898 0.000000
-3.980334 -3.466052 -0.440573 883 0.736995 0.675898 0.000000
-3.980217 -3.465957 -0.438923 881 0.736995 0.675898 0.000000
-3.980423 -3.466130 -0.437312 889 0.736995 0.675898 0.000000
-3.980248 -3.465978 -0.435663 887 0.736995 0.675898 0.000000
-3.980732 -3.466397 -0.434079 899 0.736995 0.675898 0.000000
-3.980836 -3.466489 -0.432458 907 0.736995 0.675898 0.000000
-3.981265 -3.466865 -0.430874 911 0.736995 0.675898 0.000000
-3.981416 -3.466994 -0.429262 915 0.736995 0.675898 0.000000
-3.980964 -3.466597 -0.427576 903 0.736995 0.675898 0.000000
-3.980781 -3.466438 -0.425928 915 0.736995 0.675898 0.000000
-3.980496 -3.466185 -0.424271 909 0.736995 0.675898 0.000000
-3.979879 -3.465657 -0.422576 871 0.736995 0.675898 0.000000
-3.979426 -3.465259 -0.420900 867 0.736995 0.675898 0.000000
-3.979847 -3.465628 -0.419306 885 0.736995 0.675898 0.000000
-3.980443 -3.466148 -0.417741 879 0.736995 0.675898 0.000000
-3.981252 -3.466849 -0.416194 885 0.736995 0.675898 0.000000
-3.981403 -3.466979 -0.414572 887 0.736995 0.675898 0.000000
-3.981005 -3.466624 -0.412906 893 0.736995 0.675898 0.000000
-3.980705 -3.466373 -0.411248 903 0.736995 0.675898 0.000000
-3.979983 -3.465736 -0.409535 893 0.736995 0.675898 0.000000
-3.979635 -3.465433 -0.407878 871 0.736995 0.675898 0.000000
-3.980056 -3.465802 -0.406284 869 0.736995 0.675898 0.000000
-3.980698 -3.466359 -0.404718 877 0.736995 0.675898 0.000000
-3.980683 -3.466345 -0.403088 867 0.736995 0.675898 0.000000
-3.981000 -3.466619 -0.401486 867 0.736995 0.675898 0.000000
-3.981192 -3.466794 -0.399884 873 0.736995 0.675898 0.000000
-3.980628 -3.466296 -0.398189 867 0.736995 0.675898 0.000000
-3.980391 -3.466094 -0.396541 861 0.736995 0.675898 0.000000
-3.980368 -3.466073 -0.394911 853 0.736995 0.675898 0.000000
-3.980074 -3.465814 -0.393254 853 0.736995 0.675898 0.000000
-3.980113 -3.465842 -0.391623 855 0.736995 0.675898 0.000000
-3.980638 -3.466306 -0.390049 877 0.736995 0.675898 0.000000
-3.981003 -3.466618 -0.388455 885 0.736995 0.675898 0.000000
-3.980813 -3.466453 -0.386807 875 0.736995 0.675898 0.000000
-3.979918 -3.465680 -0.385085 839 0.736995 0.675898 0.000000
-3.980004 -3.465746 -0.383464 831 0.736995 0.675898 0.000000
-3.980814 -3.466447 -0.381917 849 0.736995 0.675898 0.000000
-3.980997 -3.466616 -0.380305 855 0.736995 0.675898 0.000000
-3.980982 -3.466602 -0.378675 853 0.736995 0.675898 0.000000
-3.981450 -3.467008 -0.377081 875 0.736995 0.675898 0.000000
-3.981378 -3.466936 -0.375452 877 0.736995 0.675898 0.000000
-3.980625 -3.466289 -0.373748 855 0.736995 0.675898 0.000000
-3.980443 -3.466130 -0.372110 863 0.736995 0.675898 0.000000
-3.980634 -3.466291 -0.370498 849 0.736995 0.675898 0.000000
-3.979897 -3.465657 -0.368795 835 0.736995 0.675898 0.000000
-3.979921 -3.465673 -0.367175 847 0.736995 0.675898 0.000000
-3.980555 -3.466223 -0.365599 859 0.736995 0.675898 0.000000
-3.980532 -3.466203 -0.363969 861 0.736995 0.675898 0.000000
-3.981055 -3.466652 -0.362384 853 0.736995 0.675898 0.000000
-3.981247 -3.466828 -0.360772 861 0.736995 0.675898 0.000000
-3.981000 -3.466605 -0.359125 869 0.736995 0.675898 0.000000
-3.980748 -3.466391 -0.357477 873 0.736995 0.675898 0.000000
-3.980613 -3.466270 -0.355838 863 0.736995 0.675898 0.000000
-3.980915 -3.466532 -0.354235 865 0.736995 0.675898 0.000000
-3.980446 -3.466121 -0.352569 873 0.736995 0.675898 0.000000
-3.979591 -3.465380 -0.350867 861 0.736995 0.675898 0.000000
-3.979726 -3.465497 -0.349246 865 0.736995 0.675898 0.000000
-3.980083 -3.465803 -0.347653 853 0.736995 0.675898 0.000000
-3.980592 -3.466254 -0.346068 847 0.736995 0.675898 0.000000
-3.980790 -3.466421 -0.344456 849 0.736995 0.675898 0.000000
-3.980862 -3.466489 -0.342835 847 0.736995 0.675898 0.000000
-3.980615 -3.466266 -0.341188 859 0.736995 0.675898 0.000000
-3.980139 -3.465850 -0.339522 849 0.736995 0.675898 0.000000
-3.980005 -3.465729 -0.337883 835 0.736995 0.675898 0.000000
-3.980077 -3.465797 -0.336262 839 0.736995 0.675898 0.000000
-3.980316 -3.466009 -0.334650 847 0.736995 0.675898 0.000000
-3.979950 -3.465680 -0.332994 833 0.736995 0.675898 0.000000
-3.979476 -3.465278 -0.331328 849 0.736995 0.675898 0.000000
-3.979833 -3.465583 -0.329735 865 0.736995 0.675898 0.000000
-3.980618 -3.466265 -0.328167 853 0.736995 0.675898 0.000000
-3.981182 -3.466760 -0.326582 857 0.736995 0.675898 0.000000
-3.980936 -3.466538 -0.324934 859 0.736995 0.675898 0.000000
-3.980563 -3.466216 -0.323278 861 0.736995 0.675898 0.000000
-3.980858 -3.466472 -0.321675 855 0.736995 0.675898 0.000000
-3.981159 -3.466734 -0.320072 869 0.736995 0.675898 0.000000
-3.981112 -3.466695 -0.318443 867 0.736995 0.675898 0.000000
-3.980582 -3.466235 -0.316777 869 0.736995 0.675898 0.000000
-3.980493 -3.466151 -0.315138 867 0.736995 0.675898 0.000000
-3.981001 -3.466588 -0.313554 867 0.736995 0.675898 0.000000
-3.982011 -3.465328 -0.537090 887 0.736995 0.675898 0.000000
-3.981916 -3.465252 -0.535431 883 0.736995 0.675898 0.000000
-3.981758 -3.465112 -0.533783 895 0.736995 0.675898 0.000000
-3.981782 -3.465129 -0.532142 891 0.736995 0.675898 0.000000
-3.982171 -3.465473 -0.530559 883 0.736995 0.675898 0.000000
-3.982187 -3.465483 -0.528919 873 0.736995 0.675898 0.000000
-3.981807 -3.465155 -0.527232 867 0.736995 0.675898 0.000000
-3.982093 -3.465405 -0.525639 887 0.736995 0.675898 0.000000
-3.982156 -3.465452 -0.524009 879 0.736995 0.675898 0.000000
-3.981625 -3.464993 -0.522304 865 0.736995 0.675898 0.000000
-3.981245 -3.464665 -0.520617 865 0.736995 0.675898 0.000000
-3.981316 -3.464719 -0.518986 857 0.736995 0.675898 0.000000
-3.981706 -3.465063 -0.517403 881 0.736995 0.675898 0.000000
-3.982483 -3.465739 -0.515866 899 0.736995 0.675898 0.000000
-3.982928 -3.466127 -0.514282 893 0.736995 0.675898 0.000000
-3.982278 -3.465560 -0.512567 873 0.736995 0.675898 0.000000
-3.981794 -3.465137 -0.510872 857 0.736995 0.675898 0.000000
-3.982460 -3.465713 -0.509316 875 0.736995 0.675898 0.000000
-3.982246 -3.465529 -0.507658 883 0.736995 0.675898 0.000000
-3.981596 -3.464963 -0.505933 883 0.736995 0.675898 0.000000
-3.981430 -3.464816 -0.504285 865 0.736995 0.675898 0.000000
-3.981500 -3.464870 -0.502654 875 0.736995 0.675898 0.000000
-3.980899 -3.464355 -0.500940 879 0.736995 0.675898 0.000000
-3.980629 -3.464114 -0.499272 887 0.736995 0.675898 0.000000
-3.981295 -3.464689 -0.497726 893 0.736995 0.675898 0.000000
-3.981789 -3.465128 -0.496151 899 0.736995 0.675898 0.000000
-3.981630 -3.464988 -0.494493 893 0.736995 0.675898 0.000000
-3.981248 -3.464646 -0.492816 881 0.736995 0.675898 0.000000
-3.981742 -3.465085 -0.491242 885 0.736995 0.675898 0.000000
-3.982408 -3.465660 -0.489686 891 0.736995 0.675898 0.000000
-3.983233 -3.466374 -0.488148 905 0.736995 0.675898 0.000000
-3.983511 -3.466617 -0.486546 933 0.736995 0.675898 0.000000
-3.982353 -3.465611 -0.484776 909 0.736995 0.675898 0.000000
-3.981869 -3.465189 -0.483081 899 0.736995 0.675898 0.000000
-3.981973 -3.465281 -0.481459 893 0.736995 0.675898 0.000000
-3.981378 -3.464758 -0.479755 895 0.736995 0.675898 0.000000
-3.980775 -3.464228 -0.478050 907 0.736995 0.675898 0.000000
-3.980879 -3.464321 -0.476429 893 0.736995 0.675898 0.000000
-3.981537 -3.464890 -0.474873 883 0.736995 0.675898 0.000000
-3.982522 -3.465756 -0.473354 901 0.736995 0.675898 0.000000
-3.981807 -3.465125 -0.471631 883 0.736995 0.675898 0.000000
-3.981531 -3.464892 -0.469973 883 0.736995 0.675898 0.000000
-3.981968 -3.465274 -0.468389 899 0.736995 0.675898 0.000000
-3.982127 -3.465410 -0.466768 911 0.736995 0.675898 0.000000
-3.982023 -3.465313 -0.465129 903 0.736995 0.675898 0.000000
-3.981245 -3.464633 -0.463406 897 0.736995 0.675898 0.000000
-3.981620 -3.464965 -0.461812 895 0.736995 0.675898 0.000000
-3.982770 -3.465961 -0.460312 889 0.736995 0.675898 0.000000
-3.982936 -3.466103 -0.458700 895 0.736995 0.675898 0.000000
-3.981549 -3.464903 -0.456903 871 0.736995 0.675898 0.000000
-3.981445 -3.464807 -0.455264 863 0.736995 0.675898 0.000000
-3.982707 -3.465904 -0.453772 883 0.736995 0.675898 0.000000
-3.982740 -3.465940 -0.452142 899 0.736995 0.675898 0.000000
-3.982033 -3.465316 -0.450428 905 0.736995 0.675898 0.000000
-3.982684 -3.465879 -0.448872 883 0.736995 0.675898 0.000000
-3.982510 -3.465727 -0.447214 885 0.736995 0.675898 0.000000
-3.981622 -3.464960 -0.445482 883 0.736995 0.675898 0.000000
-3.981726 -3.465053 -0.443861 887 0.736995 0.675898 0.000000
-3.981385 -3.464756 -0.442194 881 0.736995 0.675898 0.000000
-3.981377 -3.464748 -0.440564 885 0.736995 0.675898 0.000000
-3.981480 -3.464826 -0.438943 885 0.736995 0.675898 0.000000
-3.981466 -3.464826 -0.437313 873 0.736995 0.675898 0.000000
-3.981346 -3.464717 -0.435664 869 0.736995 0.675898 0.000000
-3.980902 -3.464325 -0.433988 883 0.736995 0.675898 0.000000
-3.981934 -3.465228 -0.432459 893 0.736995 0.675898 0.000000
-3.982030 -3.465315 -0.430838 883 0.736995 0.675898 0.000000
-3.981196 -3.464577 -0.429125 875 0.736995 0.675898 0.000000
-3.981188 -3.464569 -0.427485 877 0.736995 0.675898 0.000000
-3.981554 -3.464895 -0.425902 887 0.736995 0.675898 0.000000
-3.981317 -3.464693 -0.424244 887 0.736995 0.675898 0.000000
-3.981253 -3.464628 -0.422605 881 0.736995 0.675898 0.000000
-3.981682 -3.465003 -0.421021 885 0.736995 0.675898 0.000000
-3.981388 -3.464743 -0.419353 877 0.736995 0.675898 0.000000
-3.981984 -3.465263 -0.417788 879 0.736995 0.675898 0.000000
-3.982793 -3.465963 -0.416241 883 0.736995 0.675898 0.000000
-3.982064 -3.465335 -0.414537 875 0.736995 0.675898 0.000000
-3.981334 -3.464692 -0.412824 887 0.736995 0.675898 0.000000
-3.981160 -3.464540 -0.411175 893 0.736995 0.675898 0.000000
-3.981303 -3.464663 -0.409564 895 0.736995 0.675898 0.000000
-3.981939 -3.465228 -0.407998 889 0.736995 0.675898 0.000000
-3.982145 -3.465401 -0.406386 883 0.736995 0.675898 0.000000
-3.981963 -3.465243 -0.404738 891 0.736995 0.675898 0.000000
-3.981177 -3.464556 -0.403025 865 0.736995 0.675898 0.000000
-3.980892 -3.464303 -0.401368 865 0.736995 0.675898 0.000000
-3.981526 -3.464854 -0.399802 879 0.736995 0.675898 0.000000
-3.981996 -3.465274 -0.398217 875 0.736995 0.675898 0.000000
-3.981877 -3.465165 -0.396579 863 0.736995 0.675898 0.000000
-3.981917 -3.465194 -0.394948 865 0.736995 0.675898 0.000000
-3.981456 -3.464790 -0.393282 865 0.736995 0.675898 0.000000
-3.982036 -3.465297 -0.391707 879 0.736995 0.675898 0.000000
-3.982449 -3.465660 -0.390113 877 0.736995 0.675898 0.000000
-3.981727 -3.465023 -0.388420 867 0.736995 0.675898 0.000000
-3.981911 -3.465192 -0.386808 859 0.736995 0.675898 0.000000
-3.981950 -3.465221 -0.385178 835 0.736995 0.675898 0.000000
-3.981927 -3.465201 -0.383548 851 0.736995 0.675898 0.000000
-3.981911 -3.465186 -0.381918 865 0.736995 0.675898 0.000000
-3.981825 -3.465117 -0.380279 857 0.736995 0.675898 0.000000
-3.982023 -3.465283 -0.378667 863 0.736995 0.675898 0.000000
-3.982333 -3.465552 -0.377064 883 0.736995 0.675898 0.000000
-3.982254 -3.465488 -0.375435 879 0.736995 0.675898 0.000000
-3.982777 -3.465937 -0.373850 879 0.736995 0.675898 0.000000
-3.982858 -3.466012 -0.372229 881 0.736995 0.675898 0.000000
-3.982897 -3.466040 -0.370599 879 0.736995 0.675898 0.000000
-3.982644 -3.465826 -0.368951 857 0.736995 0.675898 0.000000
-3.981802 -3.465082 -0.367239 839 0.736995 0.675898 0.000000
-3.981716 -3.465013 -0.365609 867 0.736995 0.675898 0.000000
-3.981685 -3.464986 -0.363980 883 0.736995 0.675898 0.000000
-3.982383 -3.465586 -0.362413 879 0.736995 0.675898 0.000000
-3.982463 -3.465660 -0.360792 883 0.736995 0.675898 0.000000
-3.981550 -3.464860 -0.359081 875 0.736995 0.675898 0.000000
-3.981519 -3.464833 -0.357451 869 0.736995 0.675898 0.000000
-3.981433 -3.464764 -0.355812 855 0.736995 0.675898 0.000000
-3.981243 -3.464599 -0.354163 853 0.736995 0.675898 0.000000
-3.981163 -3.464521 -0.352534 873 0.736995 0.675898 0.000000
-3.981672 -3.464972 -0.350949 877 0.736995 0.675898 0.000000
-3.982203 -3.465428 -0.349365 883 0.736995 0.675898 0.000000
-3.982005 -3.465257 -0.347726 877 0.736995 0.675898 0.000000
-3.981419 -3.464754 -0.346042 861 0.736995 0.675898 0.000000
-3.981118 -3.464488 -0.344394 837 0.736995 0.675898 0.000000
-3.981966 -3.465220 -0.342837 857 0.736995 0.675898 0.000000
-3.981714 -3.465006 -0.341189 861 0.736995 0.675898 0.000000
-3.981459 -3.464777 -0.339541 857 0.736995 0.675898 0.000000
-3.981976 -3.465235 -0.337956 859 0.736995 0.675898 0.000000
-3.981833 -3.465107 -0.336318 849 0.736995 0.675898 0.000000
-3.981690 -3.464979 -0.334679 847 0.736995 0.675898 0.000000
-3.981493 -3.464808 -0.333031 859 0.736995 0.675898 0.000000
-3.980962 -3.464349 -0.331365 865 0.736995 0.675898 0.000000
-3.981581 -3.464887 -0.329780 853 0.736995 0.675898 0.000000
-3.982104 -3.465337 -0.328195 869 0.736995 0.675898 0.000000
-3.981795 -3.465065 -0.326548 869 0.736995 0.675898 0.000000
-3.981922 -3.465176 -0.324926 869 0.736995 0.675898 0.000000
-3.981717 -3.464999 -0.323288 863 0.736995 0.675898 0.000000
-3.981574 -3.464871 -0.321650 845 0.736995 0.675898 0.000000
-3.981758 -3.465040 -0.320038 853 0.736995 0.675898 0.000000
-3.981448 -3.464768 -0.318381 861 0.736995 0.675898 0.000000
-3.981568 -3.464873 -0.316770 869 0.736995 0.675898 0.000000
-3.981813 -3.465078 -0.315157 855 0.736995 0.675898 0.000000
-3.981996 -3.465233 -0.313546 859 0.736995 0.675898 0.000000
-3.983431 -3.464384 -0.535498 885 0.736995 0.675898 0.000000
-3.983613 -3.464539 -0.533877 895 0.736995 0.675898 0.000000
-3.983130 -3.464116 -0.532181 883 0.736995 0.675898 0.000000
-3.983249 -3.464221 -0.530560 873 0.736995 0.675898 0.000000
-3.982877 -3.463900 -0.528873 863 0.736995 0.675898 0.000000
-3.982234 -3.463339 -0.527149 865 0.736995 0.675898 0.000000
-3.982299 -3.463401 -0.525518 873 0.736995 0.675898 0.000000
-3.982140 -3.463261 -0.523870 875 0.736995 0.675898 0.000000
-3.981657 -3.462838 -0.522164 863 0.736995 0.675898 0.000000
-3.982164 -3.463275 -0.520599 849 0.736995 0.675898 0.000000
-3.982338 -3.463424 -0.518978 853 0.736995 0.675898 0.000000
-3.982783 -3.463811 -0.517404 877 0.736995 0.675898 0.000000
-3.983290 -3.464249 -0.515829 891 0.736995 0.675898 0.000000
-3.982919 -3.463927 -0.514153 889 0.736995 0.675898 0.000000
-3.982538 -3.463599 -0.512466 865 0.736995 0.675898 0.000000
-3.983087 -3.464082 -0.510901 855 0.736995 0.675898 0.000000
-3.983983 -3.464851 -0.509373 881 0.736995 0.675898 0.000000
-3.982999 -3.463995 -0.507612 899 0.736995 0.675898 0.000000
-3.982515 -3.463573 -0.505916 903 0.736995 0.675898 0.000000
-3.983334 -3.464294 -0.504388 901 0.736995 0.675898 0.000000
-3.983896 -3.464775 -0.502823 913 0.736995 0.675898 0.000000
-3.983295 -3.464259 -0.501109 907 0.736995 0.675898 0.000000
-3.982699 -3.463736 -0.499404 903 0.736995 0.675898 0.000000
-3.982645 -3.463691 -0.497755 901 0.736995 0.675898 0.000000
-3.982819 -3.463840 -0.496143 889 0.736995 0.675898 0.000000
-3.983089 -3.464077 -0.494540 891 0.736995 0.675898 0.000000
-3.983589 -3.464507 -0.492966 887 0.736995 0.675898 0.000000
-3.984255 -3.465083 -0.491410 887 0.736995 0.675898 0.000000
-3.983597 -3.464510 -0.489696 893 0.736995 0.675898 0.000000
-3.982835 -3.463842 -0.487973 893 0.736995 0.675898 0.000000
-3.983051 -3.464036 -0.486361 911 0.736995 0.675898 0.000000
-3.983162 -3.464135 -0.484740 925 0.736995 0.675898 0.000000
-3.983384 -3.464320 -0.483138 923 0.736995 0.675898 0.000000
-3.983274 -3.464232 -0.481489 905 0.736995 0.675898 0.000000
-3.983171 -3.464135 -0.479839 901 0.736995 0.675898 0.000000
-3.982401 -3.463461 -0.478116 899 0.736995 0.675898 0.000000
-3.982512 -3.463560 -0.476495 891 0.736995 0.675898 0.000000
-3.983053 -3.464036 -0.474920 889 0.736995 0.675898 0.000000
-3.982894 -3.463896 -0.473272 905 0.736995 0.675898 0.000000
-3.983386 -3.464321 -0.471697 911 0.736995 0.675898 0.000000
-3.983433 -3.464356 -0.470067 909 0.736995 0.675898 0.000000
-3.982666 -3.463696 -0.468344 903 0.736995 0.675898 0.000000
-3.982166 -3.463262 -0.466648 899 0.736995 0.675898 0.000000
-3.982332 -3.463404 -0.465037 889 0.736995 0.675898 0.000000
-3.982761 -3.463779 -0.463453 903 0.736995 0.675898 0.000000
-3.982317 -3.463388 -0.461767 899 0.736995 0.675898 0.000000
-3.982096 -3.463198 -0.460109 893 0.736995 0.675898 0.000000
-3.982913 -3.463905 -0.458571 877 0.736995 0.675898 0.000000
-3.983246 -3.464192 -0.456978 867 0.736995 0.675898 0.000000
-3.982572 -3.463606 -0.455264 861 0.736995 0.675898 0.000000
-3.982842 -3.463844 -0.453662 879 0.736995 0.675898 0.000000
-3.982898 -3.463885 -0.452041 883 0.736995 0.675898 0.000000
-3.982564 -3.463594 -0.450364 893 0.736995 0.675898 0.000000
-3.983264 -3.464209 -0.448818 919 0.736995 0.675898 0.000000
-3.983152 -3.464106 -0.447169 909 0.736995 0.675898 0.000000
-3.983089 -3.464054 -0.445529 895 0.736995 0.675898 0.000000
-3.983240 -3.464185 -0.443918 905 0.736995 0.675898 0.000000
-3.983177 -3.464133 -0.442279 895 0.736995 0.675898 0.000000
-3.984106 -3.464941 -0.440740 901 0.736995 0.675898 0.000000
-3.983987 -3.464832 -0.439101 891 0.736995 0.675898 0.000000
-3.983591 -3.464492 -0.437425 889 0.736995 0.675898 0.000000
-3.983693 -3.464571 -0.435804 879 0.736995 0.675898 0.000000
-3.983409 -3.464331 -0.434136 893 0.736995 0.675898 0.000000
-3.982728 -3.463740 -0.432432 901 0.736995 0.675898 0.000000
-3.982346 -3.463398 -0.430766 899 0.736995 0.675898 0.000000
-3.982663 -3.463672 -0.429163 883 0.736995 0.675898 0.000000
-3.983259 -3.464192 -0.427598 869 0.736995 0.675898 0.000000
-3.983355 -3.464278 -0.425977 871 0.736995 0.675898 0.000000
-3.983561 -3.464452 -0.424365 873 0.736995 0.675898 0.000000
-3.983871 -3.464720 -0.422762 883 0.736995 0.675898 0.000000
-3.982871 -3.463852 -0.421031 887 0.736995 0.675898 0.000000
-3.982531 -3.463555 -0.419364 883 0.736995 0.675898 0.000000
-3.983222 -3.464163 -0.417808 903 0.736995 0.675898 0.000000
-3.983269 -3.464199 -0.416177 907 0.736995 0.675898 0.000000
-3.982699 -3.463708 -0.414492 885 0.736995 0.675898 0.000000
-3.983009 -3.463976 -0.412889 867 0.736995 0.675898 0.000000
-3.982619 -3.463628 -0.411223 887 0.736995 0.675898 0.000000
-3.981620 -3.462760 -0.409482 893 0.736995 0.675898 0.000000
-3.982311 -3.463368 -0.407926 893 0.736995 0.675898 0.000000
-3.982905 -3.463874 -0.406360 875 0.736995 0.675898 0.000000
-3.982764 -3.463760 -0.404711 871 0.736995 0.675898 0.000000
-3.982708 -3.463701 -0.403072 853 0.736995 0.675898 0.000000
-3.983121 -3.464063 -0.401488 867 0.736995 0.675898 0.000000
-3.983105 -3.464049 -0.399858 883 0.736995 0.675898 0.000000
-3.982265 -3.463320 -0.398146 869 0.736995 0.675898 0.000000
-3.982075 -3.463155 -0.396498 869 0.736995 0.675898 0.000000
-3.982988 -3.463950 -0.394949 883 0.736995 0.675898 0.000000
-3.982640 -3.463647 -0.393292 875 0.736995 0.675898 0.000000
-3.982346 -3.463388 -0.391635 863 0.736995 0.675898 0.000000
-3.982980 -3.463938 -0.390059 849 0.736995 0.675898 0.000000
-3.983623 -3.464495 -0.388493 853 0.736995 0.675898 0.000000
-3.983274 -3.464192 -0.386827 869 0.736995 0.675898 0.000000
-3.982648 -3.463644 -0.385142 861 0.736995 0.675898 0.000000
-3.982957 -3.463912 -0.383539 863 0.736995 0.675898 0.000000
-3.982657 -3.463660 -0.381882 865 0.736995 0.675898 0.000000
-3.982848 -3.463822 -0.380270 873 0.736995 0.675898 0.000000
-3.983428 -3.464329 -0.378695 881 0.736995 0.675898 0.000000
-3.982634 -3.463636 -0.376992 879 0.736995 0.675898 0.000000
-3.982507 -3.463521 -0.375353 877 0.736995 0.675898 0.000000
-3.983087 -3.464028 -0.373778 877 0.736995 0.675898 0.000000
-3.982842 -3.463820 -0.372130 887 0.736995 0.675898 0.000000
-3.982374 -3.463410 -0.370454 883 0.736995 0.675898 0.000000
-3.982184 -3.463245 -0.368806 853 0.736995 0.675898 0.000000
-3.982548 -3.463556 -0.367213 853 0.736995 0.675898 0.000000
-3.982906 -3.463862 -0.365619 877 0.736995 0.675898 0.000000
-3.983319 -3.464225 -0.364026 889 0.736995 0.675898 0.000000
-3.983675 -3.464530 -0.362432 897 0.736995 0.675898 0.000000
-3.983542 -3.464422 -0.360793 877 0.736995 0.675898 0.000000
-3.983233 -3.464151 -0.359136 865 0.736995 0.675898 0.000000
-3.982210 -3.463265 -0.357415 853 0.736995 0.675898 0.000000
-3.981797 -3.462898 -0.355749 835 0.736995 0.675898 0.000000
-3.982599 -3.463593 -0.354192 831 0.736995 0.675898 0.000000
-3.983171 -3.464093 -0.352617 877 0.736995 0.675898 0.000000
-3.983472 -3.464355 -0.351014 891 0.736995 0.675898 0.000000
-3.983067 -3.463995 -0.349348 887 0.736995 0.675898 0.000000
-3.982426 -3.463449 -0.347663 859 0.736995 0.675898 0.000000
-3.982671 -3.463653 -0.346061 847 0.736995 0.675898 0.000000
-3.982640 -3.463626 -0.344431 841 0.736995 0.675898 0.000000
-3.982497 -3.463498 -0.342793 843 0.736995 0.675898 0.000000
-3.983228 -3.464138 -0.341226 857 0.736995 0.675898 0.000000
-3.982816 -3.463785 -0.339560 867 0.736995 0.675898 0.000000
-3.982341 -3.463369 -0.337894 857 0.736995 0.675898 0.000000
-3.982697 -3.463674 -0.336301 855 0.736995 0.675898 0.000000
-3.982666 -3.463647 -0.334671 851 0.736995 0.675898 0.000000
-3.982897 -3.463853 -0.333059 859 0.736995 0.675898 0.000000
-3.983143 -3.464058 -0.331447 869 0.736995 0.675898 0.000000
-3.983111 -3.464031 -0.329817 871 0.736995 0.675898 0.000000
-3.983183 -3.464099 -0.328196 871 0.736995 0.675898 0.000000
-3.983199 -3.464110 -0.326576 877 0.736995 0.675898 0.000000
-3.983834 -3.464660 -0.325000 881 0.736995 0.675898 0.000000
-3.983795 -3.464627 -0.323370 861 0.736995 0.675898 0.000000
-3.982598 -3.463590 -0.321641 843 0.736995 0.675898 0.000000
-3.982399 -3.463405 -0.320003 863 0.736995 0.675898 0.000000
-3.982859 -3.463805 -0.318409 883 0.736995 0.675898 0.000000
-3.983257 -3.464156 -0.316815 877 0.736995 0.675898 0.000000
-3.982781 -3.463740 -0.315149 871 0.736995 0.675898 0.000000
-3.982297 -3.463317 -0.313494 871 0.736995 0.675898 0.000000
-3.983722 -3.462498 -0.535396 899 0.736995 0.675898 0.000000
-3.984119 -3.462848 -0.533813 903 0.736995 0.675898 0.000000
-3.984843 -3.463481 -0.532266 909 0.736995 0.675898 0.000000
-3.984851 -3.463486 -0.530636 887 0.736995 0.675898 0.000000
-3.983667 -3.462447 -0.528837 855 0.736995 0.675898 0.000000
-3.982907 -3.461793 -0.527103 857 0.736995 0.675898 0.000000
-3.983407 -3.462224 -0.525529 871 0.736995 0.675898 0.000000
-3.983804 -3.462574 -0.523945 867 0.736995 0.675898 0.000000
-3.983479 -3.462291 -0.522268 851 0.736995 0.675898 0.000000
-3.983550 -3.462344 -0.520638 857 0.736995 0.675898 0.000000
-3.984335 -3.463027 -0.519100 891 0.736995 0.675898 0.000000
-3.984392 -3.463082 -0.517480 907 0.736995 0.675898 0.000000
-3.984075 -3.462804 -0.515803 885 0.736995 0.675898 0.000000
-3.983583 -3.462375 -0.514097 873 0.736995 0.675898 0.000000
-3.983487 -3.462285 -0.512448 863 0.736995 0.675898 0.000000
-3.983981 -3.462724 -0.510873 867 0.736995 0.675898 0.000000
-3.983940 -3.462677 -0.509234 875 0.736995 0.675898 0.000000
-3.983893 -3.462638 -0.507594 875 0.736995 0.675898 0.000000
-3.983901 -3.462642 -0.505964 873 0.736995 0.675898 0.000000
-3.984346 -3.463029 -0.504380 875 0.736995 0.675898 0.000000
-3.983854 -3.462601 -0.502684 875 0.736995 0.675898 0.000000
-3.982871 -3.461745 -0.500923 881 0.736995 0.675898 0.000000
-3.982706 -3.461613 -0.499275 889 0.736995 0.675898 0.000000
-3.982602 -3.461516 -0.497626 897 0.736995 0.675898 0.000000
-3.983484 -3.462287 -0.496098 909 0.736995 0.675898 0.000000
-3.984205 -3.462906 -0.494551 899 0.736995 0.675898 0.000000
-3.984428 -3.463106 -0.492939 883 0.736995 0.675898 0.000000
-3.984713 -3.463341 -0.491336 909 0.736995 0.675898 0.000000
-3.983888 -3.462624 -0.489604 917 0.736995 0.675898 0.000000
-3.983557 -3.462348 -0.487937 915 0.736995 0.675898 0.000000
-3.984382 -3.463061 -0.486399 915 0.736995 0.675898 0.000000
-3.984278 -3.462964 -0.484750 909 0.736995 0.675898 0.000000
-3.984057 -3.462775 -0.483092 905 0.736995 0.675898 0.000000
-3.984168 -3.462873 -0.481471 907 0.736995 0.675898 0.000000
-3.984327 -3.463010 -0.479850 901 0.736995 0.675898 0.000000
-3.984057 -3.462769 -0.478182 891 0.736995 0.675898 0.000000
-3.983669 -3.462435 -0.476506 891 0.736995 0.675898 0.000000
-3.983614 -3.462389 -0.474866 903 0.736995 0.675898 0.000000
-3.983669 -3.462431 -0.473235 907 0.736995 0.675898 0.000000
-3.984606 -3.463245 -0.471717 911 0.736995 0.675898 0.000000
-3.985264 -3.463814 -0.470161 913 0.736995 0.675898 0.000000
-3.985098 -3.463668 -0.468502 893 0.736995 0.675898 0.000000
-3.984218 -3.462908 -0.466770 883 0.736995 0.675898 0.000000
-3.984265 -3.462943 -0.465140 889 0.736995 0.675898 0.000000
-3.984702 -3.463324 -0.463556 921 0.736995 0.675898 0.000000
-3.983918 -3.462652 -0.461833 919 0.736995 0.675898 0.000000
-3.982990 -3.461840 -0.460091 897 0.736995 0.675898 0.000000
-3.982982 -3.461832 -0.458461 877 0.736995 0.675898 0.000000
-3.984189 -3.462885 -0.456960 887 0.736995 0.675898 0.000000
-3.984458 -3.463108 -0.455358 895 0.736995 0.675898 0.000000
-3.983903 -3.462630 -0.453663 893 0.736995 0.675898 0.000000
-3.983951 -3.462665 -0.452042 895 0.736995 0.675898 0.000000
-3.983999 -3.462714 -0.450412 901 0.736995 0.675898 0.000000
-3.984816 -3.463422 -0.448874 911 0.736995 0.675898 0.000000
-3.984920 -3.463515 -0.447253 897 0.736995 0.675898 0.000000
-3.984197 -3.462878 -0.445540 885 0.736995 0.675898 0.000000
-3.984356 -3.463014 -0.443919 899 0.736995 0.675898 0.000000
-3.984342 -3.463014 -0.442289 891 0.736995 0.675898 0.000000
-3.983731 -3.462478 -0.440584 879 0.736995 0.675898 0.000000
-3.983835 -3.462571 -0.438963 883 0.736995 0.675898 0.000000
-3.984207 -3.462888 -0.437380 893 0.736995 0.675898 0.000000
-3.983970 -3.462687 -0.435722 893 0.736995 0.675898 0.000000
-3.983138 -3.461963 -0.433999 885 0.736995 0.675898 0.000000
-3.983130 -3.461955 -0.432369 889 0.736995 0.675898 0.000000
-3.984772 -3.463377 -0.430905 897 0.736995 0.675898 0.000000
-3.985152 -3.463701 -0.429321 891 0.736995 0.675898 0.000000
-3.983916 -3.462633 -0.427552 871 0.736995 0.675898 0.000000
-3.984075 -3.462770 -0.425941 883 0.736995 0.675898 0.000000
-3.984780 -3.463376 -0.424384 901 0.736995 0.675898 0.000000
-3.985043 -3.463607 -0.422782 893 0.736995 0.675898 0.000000
-3.984257 -3.462921 -0.421069 889 0.736995 0.675898 0.000000
-3.983141 -3.461960 -0.419319 887 0.736995 0.675898 0.000000
-3.983402 -3.462177 -0.417717 873 0.736995 0.675898 0.000000
-3.984870 -3.463463 -0.416233 895 0.736995 0.675898 0.000000
-3.985188 -3.463737 -0.414640 899 0.736995 0.675898 0.000000
-3.984791 -3.463383 -0.412964 907 0.736995 0.675898 0.000000
-3.984387 -3.463036 -0.411288 905 0.736995 0.675898 0.000000
-3.983705 -3.462445 -0.409594 887 0.736995 0.675898 0.000000
-3.983531 -3.462292 -0.407945 887 0.736995 0.675898 0.000000
-3.983625 -3.462365 -0.406324 875 0.736995 0.675898 0.000000
-3.983500 -3.462264 -0.404685 873 0.736995 0.675898 0.000000
-3.983476 -3.462243 -0.403046 873 0.736995 0.675898 0.000000
-3.983524 -3.462279 -0.401425 865 0.736995 0.675898 0.000000
-3.984103 -3.462786 -0.399850 875 0.736995 0.675898 0.000000
-3.984254 -3.462916 -0.398238 883 0.736995 0.675898 0.000000
-3.983516 -3.462267 -0.396535 883 0.736995 0.675898 0.000000
-3.984374 -3.463019 -0.394987 889 0.736995 0.675898 0.000000
-3.984954 -3.463526 -0.393412 873 0.736995 0.675898 0.000000
-3.984447 -3.463085 -0.391737 861 0.736995 0.675898 0.000000
-3.984090 -3.462776 -0.390070 857 0.736995 0.675898 0.000000
-3.984408 -3.463050 -0.388467 855 0.736995 0.675898 0.000000
-3.984764 -3.463356 -0.386874 869 0.736995 0.675898 0.000000
-3.984304 -3.462952 -0.385198 871 0.736995 0.675898 0.000000
-3.983789 -3.462504 -0.383522 863 0.736995 0.675898 0.000000
-3.983711 -3.462440 -0.381883 863 0.736995 0.675898 0.000000
-3.984138 -3.462801 -0.380299 881 0.736995 0.675898 0.000000
-3.984107 -3.462775 -0.378659 901 0.736995 0.675898 0.000000
-3.983640 -3.462379 -0.376994 881 0.736995 0.675898 0.000000
-3.983893 -3.462590 -0.375381 869 0.736995 0.675898 0.000000
-3.984085 -3.462765 -0.373779 871 0.736995 0.675898 0.000000
-3.984671 -3.463264 -0.372194 879 0.736995 0.675898 0.000000
-3.984863 -3.463439 -0.370592 867 0.736995 0.675898 0.000000
-3.984457 -3.463078 -0.368926 863 0.736995 0.675898 0.000000
-3.984205 -3.462864 -0.367268 869 0.736995 0.675898 0.000000
-3.983633 -3.462359 -0.365593 863 0.736995 0.675898 0.000000
-3.983325 -3.462102 -0.363936 867 0.736995 0.675898 0.000000
-3.983802 -3.462514 -0.362352 885 0.736995 0.675898 0.000000
-3.983659 -3.462386 -0.360703 867 0.736995 0.675898 0.000000
-3.983802 -3.462510 -0.359092 859 0.736995 0.675898 0.000000
-3.983984 -3.462665 -0.357480 867 0.736995 0.675898 0.000000
-3.983898 -3.462595 -0.355841 849 0.736995 0.675898 0.000000
-3.983763 -3.462473 -0.354202 839 0.736995 0.675898 0.000000
-3.983961 -3.462641 -0.352590 861 0.736995 0.675898 0.000000
-3.984263 -3.462903 -0.350987 875 0.736995 0.675898 0.000000
-3.984557 -3.463158 -0.349385 891 0.736995 0.675898 0.000000
-3.984200 -3.462849 -0.347728 869 0.736995 0.675898 0.000000
-3.983670 -3.462389 -0.346053 867 0.736995 0.675898 0.000000
-3.984026 -3.462695 -0.344459 869 0.736995 0.675898 0.000000
-3.983940 -3.462625 -0.342820 855 0.736995 0.675898 0.000000
