222
-26.305811 -23.682976 -0.657986 869 0.748867 0.662720 0.000000
-26.305140 -23.682367 -0.647092 851 0.748867 0.662720 0.000000
-26.303371 -23.680782 -0.636178 873 0.748867 0.662720 0.000000
-26.305429 -23.682631 -0.625359 849 0.748867 0.662720 0.000000
-26.307144 -23.684183 -0.614522 871 0.748867 0.662720 0.000000
-26.305819 -23.682981 -0.603614 865 0.748867 0.662720 0.000000
-26.304310 -23.681637 -0.592708 861 0.748867 0.662720 0.000000
-26.303743 -23.681122 -0.581823 843 0.748867 0.662720 0.000000
-26.303934 -23.681295 -0.570961 863 0.748867 0.662720 0.000000
-26.304922 -23.682186 -0.560112 867 0.748867 0.662720 0.000000
-26.304386 -23.681707 -0.549226 857 0.748867 0.662720 0.000000
-26.304842 -23.682110 -0.538362 857 0.748867 0.662720 0.000000
-26.306755 -23.683832 -0.527524 845 0.748867 0.662720 0.000000
-26.306551 -23.683647 -0.516646 865 0.748867 0.662720 0.000000
-26.306337 -23.683458 -0.505777 851 0.748867 0.662720 0.000000
-26.308083 -23.685036 -0.494931 843 0.748867 0.662720 0.000000
-26.308037 -23.684988 -0.484061 869 0.748867 0.662720 0.000000
-26.307320 -23.684343 -0.473177 867 0.748867 0.662720 0.000000
-26.308033 -23.684986 -0.462311 865 0.748867 0.662720 0.000000
-26.307432 -23.684444 -0.451436 847 0.748867 0.662720 0.000000
-26.306320 -23.683458 -0.440546 851 0.748867 0.662720 0.000000
-26.306049 -23.683212 -0.429668 877 0.748867 0.662720 0.000000
-26.307343 -23.684376 -0.418816 855 0.748867 0.662720 0.000000
-26.307758 -23.684748 -0.407952 837 0.748867 0.662720 0.000000
-26.306589 -23.683704 -0.397062 831 0.748867 0.662720 0.000000
-26.305651 -23.682852 -0.386171 823 0.748867 0.662720 0.000000
-26.304586 -23.681900 -0.375290 833 0.748867 0.662720 0.000000
-26.305645 -23.682846 -0.364430 839 0.748867 0.662720 0.000000
-26.306923 -23.683998 -0.353578 833 0.748867 0.662720 0.000000
-26.307545 -23.684557 -0.342712 845 0.748867 0.662720 0.000000
-26.307673 -23.684681 -0.331841 845 0.748867 0.662720 0.000000
-26.306767 -23.683867 -0.320959 809 0.748867 0.662720 0.000000
-26.308479 -23.685406 -0.310113 803 0.748867 0.662720 0.000000
-26.307621 -23.684628 -0.299230 833 0.748867 0.662720 0.000000
-26.307144 -23.684208 -0.288355 843 0.748867 0.662720 0.000000
-26.304981 -23.682255 -0.277454 825 0.748867 0.662720 0.000000
-26.303183 -23.680635 -0.266571 841 0.748867 0.662720 0.000000
-26.313921 -23.675165 -0.658005 877 0.748867 0.662720 0.000000
-26.314455 -23.675642 -0.647140 865 0.748867 0.662720 0.000000
-26.314106 -23.675320 -0.636263 865 0.748867 0.662720 0.000000
-26.314688 -23.675848 -0.625397 869 0.748867 0.662720 0.000000
-26.312986 -23.674316 -0.614483 841 0.748867 0.662720 0.000000
-26.312677 -23.674040 -0.603605 871 0.748867 0.662720 0.000000
-26.313463 -23.674747 -0.592748 849 0.748867 0.662720 0.000000
-26.313974 -23.675207 -0.581893 845 0.748867 0.662720 0.000000
-26.313723 -23.674986 -0.571015 841 0.748867 0.662720 0.000000
-26.314291 -23.675503 -0.560149 853 0.748867 0.662720 0.000000
-26.314466 -23.675663 -0.549277 851 0.748867 0.662720 0.000000
-26.314487 -23.675678 -0.538407 865 0.748867 0.662720 0.000000
-26.315466 -23.676563 -0.527557 865 0.748867 0.662720 0.000000
-26.313795 -23.675055 -0.516653 875 0.748867 0.662720 0.000000
-26.309944 -23.671593 -0.505708 869 0.748867 0.662720 0.000000
-26.310431 -23.672033 -0.494843 843 0.748867 0.662720 0.000000
-26.312820 -23.674185 -0.484011 851 0.748867 0.662720 0.000000
-26.314194 -23.675413 -0.473168 863 0.748867 0.662720 0.000000
-26.315874 -23.676929 -0.462322 873 0.748867 0.662720 0.000000
-26.316025 -23.677071 -0.451451 839 0.748867 0.662720 0.000000
-26.315094 -23.676226 -0.440569 835 0.748867 0.662720 0.000000
-26.315018 -23.676165 -0.429689 869 0.748867 0.662720 0.000000
-26.314684 -23.675869 -0.418812 869 0.748867 0.662720 0.000000
-26.312862 -23.674232 -0.407919 843 0.748867 0.662720 0.000000
-26.313124 -23.674459 -0.397046 847 0.748867 0.662720 0.000000
-26.313440 -23.674744 -0.386183 819 0.748867 0.662720 0.000000
-26.313955 -23.675217 -0.375318 839 0.748867 0.662720 0.000000
-26.315729 -23.676805 -0.364471 837 0.748867 0.662720 0.000000
-26.315535 -23.676628 -0.353593 841 0.748867 0.662720 0.000000
-26.314840 -23.676016 -0.342719 831 0.748867 0.662720 0.000000
-26.312910 -23.674269 -0.331816 843 0.748867 0.662720 0.000000
-26.309343 -23.671064 -0.320909 835 0.748867 0.662720 0.000000
-26.308807 -23.670588 -0.310034 819 0.748867 0.662720 0.000000
-26.311550 -23.673050 -0.299188 825 0.748867 0.662720 0.000000
-26.313791 -23.675064 -0.288347 803 0.748867 0.662720 0.000000
-26.315544 -23.676647 -0.277491 809 0.748867 0.662720 0.000000
-26.315535 -23.676640 -0.266621 833 0.748867 0.662720 0.000000
-26.321066 -23.666470 -0.658003 859 0.748867 0.662720 0.000000
-26.320940 -23.666348 -0.647124 859 0.748867 0.662720 0.000000
-26.321518 -23.666870 -0.636258 861 0.748867 0.662720 0.000000
-26.321869 -23.667192 -0.625395 851 0.748867 0.662720 0.000000
-26.321527 -23.666878 -0.614518 825 0.748867 0.662720 0.000000
-26.319809 -23.665331 -0.603603 837 0.748867 0.662720 0.000000
-26.318695 -23.664331 -0.592703 811 0.748867 0.662720 0.000000
-26.318829 -23.664459 -0.581832 837 0.748867 0.662720 0.000000
-26.320919 -23.666344 -0.571012 831 0.748867 0.662720 0.000000
-26.320286 -23.665764 -0.560118 841 0.748867 0.662720 0.000000
-26.318279 -23.663971 -0.549206 851 0.748867 0.662720 0.000000
-26.320370 -23.665842 -0.538377 867 0.748867 0.662720 0.000000
-26.322508 -23.667774 -0.527547 873 0.748867 0.662720 0.000000
-26.322296 -23.667585 -0.516668 867 0.748867 0.662720 0.000000
-26.322412 -23.667688 -0.505807 859 0.748867 0.662720 0.000000
-26.322090 -23.667398 -0.494920 845 0.748867 0.662720 0.000000
-26.320780 -23.666222 -0.484031 841 0.748867 0.662720 0.000000
-26.321373 -23.666756 -0.473166 839 0.748867 0.662720 0.000000
-26.323109 -23.668318 -0.462319 863 0.748867 0.662720 0.000000
-26.323050 -23.668257 -0.451450 851 0.748867 0.662720 0.000000
-26.324026 -23.669140 -0.440591 851 0.748867 0.662720 0.000000
-26.325644 -23.670593 -0.429745 869 0.748867 0.662720 0.000000
-26.322918 -23.668142 -0.418830 853 0.748867 0.662720 0.000000
-26.321707 -23.667055 -0.407941 835 0.748867 0.662720 0.000000
-26.323313 -23.668499 -0.397096 857 0.748867 0.662720 0.000000
-26.323891 -23.669022 -0.386230 853 0.748867 0.662720 0.000000
-26.322834 -23.668077 -0.375340 847 0.748867 0.662720 0.000000
-26.322813 -23.668062 -0.364470 859 0.748867 0.662720 0.000000
-26.321369 -23.666754 -0.353583 851 0.748867 0.662720 0.000000
-26.321985 -23.667320 -0.342717 855 0.748867 0.662720 0.000000
-26.323273 -23.668467 -0.331855 849 0.748867 0.662720 0.000000
-26.320780 -23.666235 -0.320958 823 0.748867 0.662720 0.000000
-26.320641 -23.666101 -0.310089 853 0.748867 0.662720 0.000000
-26.323309 -23.668509 -0.299244 835 0.748867 0.662720 0.000000
-26.323927 -23.669062 -0.288378 831 0.748867 0.662720 0.000000
-26.321041 -23.666473 -0.277474 831 0.748867 0.662720 0.000000
-26.321692 -23.667051 -0.266618 849 0.748867 0.662720 0.000000
-26.328592 -23.658398 -0.658006 861 0.748867 0.662720 0.000000
-26.328138 -23.657997 -0.647120 859 0.748867 0.662720 0.000000
-26.329271 -23.659012 -0.636280 839 0.748867 0.662720 0.000000
-26.327892 -23.657780 -0.625372 829 0.748867 0.662720 0.000000
-26.327314 -23.657257 -0.614487 847 0.748867 0.662720 0.000000
-26.330185 -23.659834 -0.603680 847 0.748867 0.662720 0.000000
-26.330320 -23.659962 -0.592809 849 0.748867 0.662720 0.000000
-26.329304 -23.659048 -0.581908 823 0.748867 0.662720 0.000000
-26.328234 -23.658083 -0.571007 843 0.748867 0.662720 0.000000
-26.328152 -23.658007 -0.560138 823 0.748867 0.662720 0.000000
-26.329742 -23.659439 -0.549303 851 0.748867 0.662720 0.000000
-26.330576 -23.660185 -0.538445 851 0.748867 0.662720 0.000000
-26.331120 -23.660683 -0.527580 843 0.748867 0.662720 0.000000
-26.330210 -23.659863 -0.516688 849 0.748867 0.662720 0.000000
-26.328634 -23.658442 -0.505782 863 0.748867 0.662720 0.000000
-26.328632 -23.658453 -0.494912 853 0.748867 0.662720 0.000000
-26.328033 -23.657913 -0.484027 837 0.748867 0.662720 0.000000
-26.328152 -23.658016 -0.473156 827 0.748867 0.662720 0.000000
-26.326571 -23.656590 -0.462260 815 0.748867 0.662720 0.000000
-26.325848 -23.655943 -0.451377 833 0.748867 0.662720 0.000000
-26.327803 -23.657709 -0.440538 825 0.748867 0.662720 0.000000
-26.331116 -23.660679 -0.429718 837 0.748867 0.662720 0.000000
-26.331161 -23.660727 -0.418847 847 0.748867 0.662720 0.000000
-26.328476 -23.658321 -0.407931 839 0.748867 0.662720 0.000000
-26.329706 -23.659424 -0.397080 867 0.748867 0.662720 0.000000
-26.328703 -23.658522 -0.386199 873 0.748867 0.662720 0.000000
-26.327648 -23.657578 -0.375308 873 0.748867 0.662720 0.000000
-26.330244 -23.659903 -0.364474 833 0.748867 0.662720 0.000000
-26.330812 -23.660419 -0.353608 829 0.748867 0.662720 0.000000
-26.329689 -23.659410 -0.342729 821 0.748867 0.662720 0.000000
-26.329262 -23.659027 -0.331852 843 0.748867 0.662720 0.000000
-26.329449 -23.659199 -0.320980 829 0.748867 0.662720 0.000000
-26.330061 -23.659746 -0.310114 809 0.748867 0.662720 0.000000
-26.329805 -23.659512 -0.299237 789 0.748867 0.662720 0.000000
-26.329821 -23.659523 -0.288366 835 0.748867 0.662720 0.000000
-26.331234 -23.660807 -0.277513 815 0.748867 0.662720 0.000000
-26.331425 -23.660965 -0.266641 837 0.748867 0.662720 0.000000
-26.336456 -23.650082 -0.658019 859 0.748867 0.662720 0.000000
-26.337154 -23.650711 -0.647162 857 0.748867 0.662720 0.000000
-26.338657 -23.652063 -0.636318 863 0.748867 0.662720 0.000000
-26.337662 -23.651165 -0.625427 859 0.748867 0.662720 0.000000
-26.335733 -23.649433 -0.614505 857 0.748867 0.662720 0.000000
-26.337341 -23.650881 -0.603670 841 0.748867 0.662720 0.000000
-26.336821 -23.650415 -0.592784 797 0.748867 0.662720 0.000000
-26.337496 -23.651026 -0.581928 835 0.748867 0.662720 0.000000
-26.338604 -23.652021 -0.571077 833 0.748867 0.662720 0.000000
-26.337151 -23.650705 -0.560170 807 0.748867 0.662720 0.000000
-26.338646 -23.652054 -0.549326 839 0.748867 0.662720 0.000000
-26.338926 -23.652308 -0.538463 849 0.748867 0.662720 0.000000
-26.339268 -23.652611 -0.527590 859 0.748867 0.662720 0.000000
-26.339499 -23.652826 -0.516728 865 0.748867 0.662720 0.000000
-26.338295 -23.651743 -0.505828 855 0.748867 0.662720 0.000000
-26.336828 -23.650431 -0.494932 859 0.748867 0.662720 0.000000
-26.336622 -23.650246 -0.484053 857 0.748867 0.662720 0.000000
-26.335306 -23.649063 -0.473155 847 0.748867 0.662720 0.000000
-26.335472 -23.649204 -0.462283 833 0.748867 0.662720 0.000000
-26.338078 -23.651550 -0.451459 799 0.748867 0.662720 0.000000
-26.338076 -23.651550 -0.440589 811 0.748867 0.662720 0.000000
-26.338015 -23.651489 -0.429709 833 0.748867 0.662720 0.000000
-26.336790 -23.650402 -0.418820 835 0.748867 0.662720 0.000000
-26.339329 -23.652683 -0.407987 841 0.748867 0.662720 0.000000
-26.339642 -23.652964 -0.397123 833 0.748867 0.662720 0.000000
-26.335646 -23.649378 -0.386190 819 0.748867 0.662720 0.000000
-26.335133 -23.648905 -0.375315 825 0.748867 0.662720 0.000000
-26.335161 -23.648939 -0.364444 799 0.748867 0.662720 0.000000
-26.334307 -23.648176 -0.353562 801 0.748867 0.662720 0.000000
-26.334173 -23.648046 -0.342693 775 0.748867 0.662720 0.000000
-26.336046 -23.649736 -0.331845 807 0.748867 0.662720 0.000000
-26.337915 -23.651413 -0.320998 819 0.748867 0.662720 0.000000
-26.338968 -23.652351 -0.310138 799 0.748867 0.662720 0.000000
-26.340012 -23.653299 -0.299278 779 0.748867 0.662720 0.000000
-26.337370 -23.650927 -0.288372 775 0.748867 0.662720 0.000000
-26.334976 -23.648781 -0.277474 791 0.748867 0.662720 0.000000
-26.336084 -23.649765 -0.266613 815 0.748867 0.662720 0.000000
-26.347065 -23.643650 -0.658089 813 0.748867 0.662720 0.000000
-26.346994 -23.643581 -0.647210 839 0.748867 0.662720 0.000000
-26.346107 -23.642780 -0.636318 847 0.748867 0.662720 0.000000
-26.347504 -23.644039 -0.625475 825 0.748867 0.662720 0.000000
-26.349224 -23.645586 -0.614638 815 0.748867 0.662720 0.000000
-26.348698 -23.645115 -0.603753 835 0.748867 0.662720 0.000000
-26.347359 -23.643913 -0.592845 827 0.748867 0.662720 0.000000
-26.346035 -23.642723 -0.581947 847 0.748867 0.662720 0.000000
-26.344244 -23.641125 -0.571033 819 0.748867 0.662720 0.000000
-26.342697 -23.639736 -0.560127 843 0.748867 0.662720 0.000000
-26.342918 -23.639933 -0.549255 851 0.748867 0.662720 0.000000
-26.344896 -23.641703 -0.538427 833 0.748867 0.662720 0.000000
-26.343708 -23.640646 -0.527527 843 0.748867 0.662720 0.000000
-26.344051 -23.640949 -0.516664 815 0.748867 0.662720 0.000000
-26.344225 -23.641108 -0.505792 835 0.748867 0.662720 0.000000
-26.343248 -23.640224 -0.494901 813 0.748867 0.662720 0.000000
-26.343840 -23.640759 -0.484045 847 0.748867 0.662720 0.000000
-26.344500 -23.641357 -0.473189 843 0.748867 0.662720 0.000000
-26.345251 -23.642029 -0.462321 841 0.748867 0.662720 0.000000
-26.346327 -23.643002 -0.451471 819 0.748867 0.662720 0.000000
-26.345463 -23.642218 -0.440579 817 0.748867 0.662720 0.000000
-26.345169 -23.641953 -0.429711 825 0.748867 0.662720 0.000000
-26.345713 -23.642450 -0.418846 835 0.748867 0.662720 0.000000
-26.344324 -23.641199 -0.407949 809 0.748867 0.662720 0.000000
-26.342012 -23.639130 -0.397040 819 0.748867 0.662720 0.000000
-26.345694 -23.642435 -0.386226 797 0.748867 0.662720 0.000000
-26.348619 -23.645054 -0.375398 789 0.748867 0.662720 0.000000
-26.347395 -23.643953 -0.364509 791 0.748867 0.662720 0.000000
-26.347269 -23.643845 -0.353630 781 0.748867 0.662720 0.000000
-26.346035 -23.642736 -0.342741 799 0.748867 0.662720 0.000000
-26.345238 -23.642031 -0.331859 791 0.748867 0.662720 0.000000
-26.346462 -23.643118 -0.321007 809 0.748867 0.662720 0.000000
-26.346638 -23.643278 -0.310135 811 0.748867 0.662720 0.000000
-26.346048 -23.642759 -0.299260 789 0.748867 0.662720 0.000000
-26.343945 -23.640863 -0.288359 815 0.748867 0.662720 0.000000
-26.345026 -23.641842 -0.277499 819 0.748867 0.662720 0.000000
-26.345861 -23.642588 -0.266641 817 0.748867 0.662720 0.000000
