245
-25.911015 -25.555624 -0.637477 1399 0.730622 0.682782 0.000000
-25.911686 -25.556280 -0.626310 1401 0.730622 0.682782 0.000000
-25.911671 -25.556267 -0.615130 1415 0.730622 0.682782 0.000000
-25.910908 -25.555521 -0.603937 1405 0.730622 0.682782 0.000000
-25.911625 -25.556229 -0.592770 1405 0.730622 0.682782 0.000000
-25.911709 -25.556309 -0.581589 1415 0.730622 0.682782 0.000000
-25.910936 -25.555557 -0.570396 1399 0.730622 0.682782 0.000000
-25.910812 -25.555426 -0.559217 1407 0.730622 0.682782 0.000000
-25.910881 -25.555494 -0.548036 1399 0.730622 0.682782 0.000000
-25.910948 -25.555565 -0.536855 1405 0.730622 0.682782 0.000000
-25.910236 -25.554861 -0.525661 1395 0.730622 0.682782 0.000000
-25.909613 -25.554258 -0.514477 1401 0.730622 0.682782 0.000000
-25.909781 -25.554426 -0.503295 1397 0.730622 0.682782 0.000000
-25.910467 -25.555094 -0.492138 1401 0.730622 0.682782 0.000000
-25.911152 -25.555773 -0.480972 1411 0.730622 0.682782 0.000000
-25.910786 -25.555410 -0.469785 1409 0.730622 0.682782 0.000000
-25.910524 -25.555153 -0.458597 1415 0.730622 0.682782 0.000000
-25.910000 -25.554647 -0.447412 1407 0.730622 0.682782 0.000000
-25.910734 -25.555368 -0.436255 1405 0.730622 0.682782 0.000000
-25.911917 -25.556532 -0.425093 1403 0.730622 0.682782 0.000000
-25.911118 -25.555752 -0.413900 1403 0.730622 0.682782 0.000000
-25.910278 -25.554918 -0.402708 1411 0.730622 0.682782 0.000000
-25.910425 -25.555067 -0.391536 1407 0.730622 0.682782 0.000000
-25.910715 -25.555363 -0.380363 1411 0.730622 0.682782 0.000000
-25.911373 -25.556005 -0.369197 1415 0.730622 0.682782 0.000000
-25.910515 -25.555166 -0.358005 1409 0.730622 0.682782 0.000000
-25.908983 -25.553656 -0.346809 1409 0.730622 0.682782 0.000000
-25.910465 -25.555113 -0.335655 1399 0.730622 0.682782 0.000000
-25.911516 -25.556150 -0.324484 1403 0.730622 0.682782 0.000000
-25.911137 -25.555777 -0.313308 1411 0.730622 0.682782 0.000000
-25.911722 -25.556362 -0.302132 1417 0.730622 0.682782 0.000000
-25.910225 -25.554882 -0.290936 1407 0.730622 0.682782 0.000000
-25.909306 -25.553980 -0.279755 1409 0.730622 0.682782 0.000000
-25.910458 -25.555117 -0.268593 1397 0.730622 0.682782 0.000000
-25.910566 -25.555216 -0.257412 1399 0.730622 0.682782 0.000000
-25.918350 -25.546938 -0.637467 1407 0.730622 0.682782 0.000000
-25.918594 -25.547182 -0.626284 1411 0.730622 0.682782 0.000000
-25.919312 -25.547888 -0.615127 1415 0.730622 0.682782 0.000000
-25.918871 -25.547453 -0.603941 1407 0.730622 0.682782 0.000000
-25.918480 -25.547071 -0.592745 1403 0.730622 0.682782 0.000000
-25.919193 -25.547773 -0.581588 1411 0.730622 0.682782 0.000000
-25.919685 -25.548252 -0.570413 1411 0.730622 0.682782 0.000000
-25.919020 -25.547602 -0.559219 1419 0.730622 0.682782 0.000000
-25.918217 -25.546808 -0.548026 1407 0.730622 0.682782 0.000000
-25.918432 -25.547029 -0.536854 1405 0.730622 0.682782 0.000000
-25.918972 -25.547558 -0.525688 1407 0.730622 0.682782 0.000000
-25.918665 -25.547260 -0.514501 1403 0.730622 0.682782 0.000000
-25.918108 -25.546703 -0.503306 1401 0.730622 0.682782 0.000000
-25.918007 -25.546616 -0.492127 1405 0.730622 0.682782 0.000000
-25.918854 -25.547447 -0.480968 1419 0.730622 0.682782 0.000000
-25.919109 -25.547697 -0.469796 1425 0.730622 0.682782 0.000000
-25.919165 -25.547756 -0.458615 1423 0.730622 0.682782 0.000000
-25.918797 -25.547396 -0.447438 1407 0.730622 0.682782 0.000000
-25.918062 -25.546675 -0.436245 1405 0.730622 0.682782 0.000000
-25.919153 -25.547749 -0.425084 1405 0.730622 0.682782 0.000000
-25.919878 -25.548460 -0.413917 1407 0.730622 0.682782 0.000000
-25.918550 -25.547159 -0.402719 1407 0.730622 0.682782 0.000000
-25.918266 -25.546883 -0.391542 1397 0.730622 0.682782 0.000000
-25.918983 -25.547588 -0.380375 1397 0.730622 0.682782 0.000000
-25.919275 -25.547873 -0.369202 1415 0.730622 0.682782 0.000000
-25.918634 -25.547243 -0.358008 1405 0.730622 0.682782 0.000000
-25.918297 -25.546906 -0.346831 1399 0.730622 0.682782 0.000000
-25.919044 -25.547653 -0.335663 1399 0.730622 0.682782 0.000000
-25.919182 -25.547792 -0.324492 1405 0.730622 0.682782 0.000000
-25.919100 -25.547709 -0.313312 1403 0.730622 0.682782 0.000000
-25.919788 -25.548391 -0.302145 1407 0.730622 0.682782 0.000000
-25.919077 -25.547689 -0.290952 1413 0.730622 0.682782 0.000000
-25.918251 -25.546879 -0.279769 1415 0.730622 0.682782 0.000000
-25.918518 -25.547142 -0.268597 1413 0.730622 0.682782 0.000000
-25.918436 -25.547058 -0.257417 1407 0.730622 0.682782 0.000000
-25.926991 -25.539528 -0.637485 1411 0.730622 0.682782 0.000000
-25.927607 -25.540138 -0.626319 1403 0.730622 0.682782 0.000000
-25.926229 -25.538784 -0.615102 1399 0.730622 0.682782 0.000000
-25.926668 -25.539217 -0.603937 1407 0.730622 0.682782 0.000000
-25.927803 -25.540329 -0.592786 1405 0.730622 0.682782 0.000000
-25.926624 -25.539179 -0.581577 1403 0.730622 0.682782 0.000000
-25.925079 -25.537659 -0.570362 1411 0.730622 0.682782 0.000000
-25.925634 -25.538204 -0.559196 1411 0.730622 0.682782 0.000000
-25.926477 -25.539028 -0.548038 1423 0.730622 0.682782 0.000000
-25.926559 -25.539112 -0.536857 1415 0.730622 0.682782 0.000000
-25.926096 -25.538656 -0.525671 1417 0.730622 0.682782 0.000000
-25.925644 -25.538210 -0.514485 1423 0.730622 0.682782 0.000000
-25.926384 -25.538950 -0.503318 1407 0.730622 0.682782 0.000000
-25.926544 -25.539110 -0.492146 1405 0.730622 0.682782 0.000000
-25.927021 -25.539576 -0.480981 1413 0.730622 0.682782 0.000000
-25.928125 -25.540659 -0.469820 1407 0.730622 0.682782 0.000000
-25.928841 -25.541376 -0.458653 1413 0.730622 0.682782 0.000000
-25.928679 -25.541214 -0.447474 1409 0.730622 0.682782 0.000000
-25.927944 -25.540491 -0.436281 1403 0.730622 0.682782 0.000000
-25.927361 -25.539923 -0.425096 1401 0.730622 0.682782 0.000000
-25.926682 -25.539248 -0.413903 1395 0.730622 0.682782 0.000000
-25.926189 -25.538767 -0.402717 1387 0.730622 0.682782 0.000000
-25.926447 -25.539024 -0.391544 1397 0.730622 0.682782 0.000000
-25.926584 -25.539164 -0.380373 1399 0.730622 0.682782 0.000000
-25.927031 -25.539604 -0.369198 1395 0.730622 0.682782 0.000000
-25.926598 -25.539175 -0.358012 1405 0.730622 0.682782 0.000000
-25.926836 -25.539413 -0.346839 1409 0.730622 0.682782 0.000000
-25.927887 -25.540453 -0.335679 1421 0.730622 0.682782 0.000000
-25.927294 -25.539862 -0.324495 1429 0.730622 0.682782 0.000000
-25.925758 -25.538351 -0.313299 1403 0.730622 0.682782 0.000000
-25.925354 -25.537958 -0.302113 1407 0.730622 0.682782 0.000000
-25.924845 -25.537451 -0.290937 1405 0.730622 0.682782 0.000000
-25.924967 -25.537580 -0.279756 1413 0.730622 0.682782 0.000000
-25.926746 -25.539335 -0.268598 1411 0.730622 0.682782 0.000000
-25.926653 -25.539240 -0.257429 1403 0.730622 0.682782 0.000000
-25.935310 -25.532112 -0.637504 1419 0.730622 0.682782 0.000000
-25.934841 -25.531641 -0.626309 1415 0.730622 0.682782 0.000000
-25.935177 -25.531975 -0.615135 1407 0.730622 0.682782 0.000000
-25.935732 -25.532530 -0.603970 1419 0.730622 0.682782 0.000000
-25.935137 -25.531940 -0.592775 1411 0.730622 0.682782 0.000000
-25.934484 -25.531298 -0.581581 1417 0.730622 0.682782 0.000000
-25.934093 -25.530916 -0.570394 1425 0.730622 0.682782 0.000000
-25.934010 -25.530834 -0.559215 1413 0.730622 0.682782 0.000000
-25.933563 -25.530394 -0.548029 1415 0.730622 0.682782 0.000000
-25.933681 -25.530519 -0.536848 1417 0.730622 0.682782 0.000000
-25.934006 -25.530842 -0.525674 1407 0.730622 0.682782 0.000000
-25.934389 -25.531216 -0.514510 1405 0.730622 0.682782 0.000000
-25.934906 -25.531729 -0.503345 1415 0.730622 0.682782 0.000000
-25.934599 -25.531431 -0.492158 1411 0.730622 0.682782 0.000000
-25.934292 -25.531122 -0.480970 1415 0.730622 0.682782 0.000000
-25.934149 -25.530987 -0.469791 1417 0.730622 0.682782 0.000000
-25.934504 -25.531336 -0.458618 1407 0.730622 0.682782 0.000000
-25.935080 -25.531898 -0.447452 1399 0.730622 0.682782 0.000000
-25.934969 -25.531792 -0.436273 1389 0.730622 0.682782 0.000000
-25.933651 -25.530502 -0.425075 1381 0.730622 0.682782 0.000000
-25.933601 -25.530447 -0.413895 1391 0.730622 0.682782 0.000000
-25.933846 -25.530689 -0.402723 1401 0.730622 0.682782 0.000000
-25.934355 -25.531195 -0.391548 1405 0.730622 0.682782 0.000000
-25.935173 -25.532000 -0.380390 1401 0.730622 0.682782 0.000000
-25.934690 -25.531528 -0.369204 1411 0.730622 0.682782 0.000000
-25.933826 -25.530684 -0.358012 1403 0.730622 0.682782 0.000000
-25.933966 -25.530813 -0.346840 1409 0.730622 0.682782 0.000000
-25.934088 -25.530943 -0.335659 1409 0.730622 0.682782 0.000000
-25.934263 -25.531116 -0.324487 1401 0.730622 0.682782 0.000000
-25.934492 -25.531332 -0.313315 1419 0.730622 0.682782 0.000000
-25.934031 -25.530893 -0.302129 1407 0.730622 0.682782 0.000000
-25.933538 -25.530399 -0.290943 1403 0.730622 0.682782 0.000000
-25.934008 -25.530874 -0.279778 1395 0.730622 0.682782 0.000000
-25.935013 -25.531860 -0.268608 1411 0.730622 0.682782 0.000000
-25.934660 -25.531511 -0.257432 1421 0.730622 0.682782 0.000000
-25.942551 -25.523932 -0.637493 1415 0.730622 0.682782 0.000000
-25.941746 -25.523153 -0.626300 1401 0.730622 0.682782 0.000000
-25.942774 -25.524160 -0.615140 1429 0.730622 0.682782 0.000000
-25.942856 -25.524240 -0.603959 1423 0.730622 0.682782 0.000000
-25.942362 -25.523762 -0.592773 1409 0.730622 0.682782 0.000000
-25.942755 -25.524141 -0.581599 1399 0.730622 0.682782 0.000000
-25.943720 -25.525097 -0.570440 1405 0.730622 0.682782 0.000000
-25.943066 -25.524454 -0.559246 1409 0.730622 0.682782 0.000000
-25.942299 -25.523705 -0.548053 1403 0.730622 0.682782 0.000000
-25.941839 -25.523254 -0.536867 1397 0.730622 0.682782 0.000000
-25.940718 -25.522141 -0.525667 1399 0.730622 0.682782 0.000000
-25.941769 -25.523180 -0.514507 1401 0.730622 0.682782 0.000000
-25.943649 -25.525034 -0.503369 1417 0.730622 0.682782 0.000000
-25.943554 -25.524940 -0.492190 1417 0.730622 0.682782 0.000000
-25.943504 -25.524897 -0.481010 1411 0.730622 0.682782 0.000000
-25.942570 -25.523981 -0.469808 1417 0.730622 0.682782 0.000000
-25.941532 -25.522951 -0.458608 1401 0.730622 0.682782 0.000000
-25.941738 -25.523165 -0.447436 1395 0.730622 0.682782 0.000000
-25.941525 -25.522945 -0.436258 1399 0.730622 0.682782 0.000000
-25.942608 -25.524014 -0.425097 1411 0.730622 0.682782 0.000000
-25.943542 -25.524940 -0.413938 1409 0.730622 0.682782 0.000000
-25.942755 -25.524158 -0.402745 1415 0.730622 0.682782 0.000000
-25.941534 -25.522964 -0.391546 1403 0.730622 0.682782 0.000000
-25.942196 -25.523611 -0.380380 1399 0.730622 0.682782 0.000000
-25.942482 -25.523903 -0.369207 1407 0.730622 0.682782 0.000000
-25.941156 -25.522593 -0.358009 1409 0.730622 0.682782 0.000000
-25.941610 -25.523039 -0.346845 1407 0.730622 0.682782 0.000000
-25.943516 -25.524916 -0.335686 1405 0.730622 0.682782 0.000000
-25.942890 -25.524309 -0.324502 1413 0.730622 0.682782 0.000000
-25.942291 -25.523714 -0.313317 1429 0.730622 0.682782 0.000000
-25.941643 -25.523077 -0.302133 1399 0.730622 0.682782 0.000000
-25.941710 -25.523146 -0.290962 1419 0.730622 0.682782 0.000000
-25.941347 -25.522791 -0.279776 1399 0.730622 0.682782 0.000000
-25.940800 -25.522251 -0.268591 1399 0.730622 0.682782 0.000000
-25.941572 -25.523016 -0.257423 1413 0.730622 0.682782 0.000000
-25.950804 -25.516159 -0.637504 1413 0.730622 0.682782 0.000000
-25.950899 -25.516254 -0.626333 1415 0.730622 0.682782 0.000000
-25.951082 -25.516447 -0.615151 1421 0.730622 0.682782 0.000000
-25.951063 -25.516428 -0.603971 1425 0.730622 0.682782 0.000000
-25.950251 -25.515631 -0.592778 1429 0.730622 0.682782 0.000000
-25.948771 -25.514164 -0.581562 1397 0.730622 0.682782 0.000000
-25.949732 -25.515112 -0.570403 1399 0.730622 0.682782 0.000000
-25.950689 -25.516062 -0.559243 1419 0.730622 0.682782 0.000000
-25.950872 -25.516241 -0.548071 1405 0.730622 0.682782 0.000000
-25.950626 -25.515995 -0.536883 1401 0.730622 0.682782 0.000000
-25.949648 -25.515039 -0.525693 1409 0.730622 0.682782 0.000000
-25.950232 -25.515608 -0.514527 1401 0.730622 0.682782 0.000000
-25.951546 -25.516909 -0.503374 1411 0.730622 0.682782 0.000000
-25.950665 -25.516037 -0.492172 1415 0.730622 0.682782 0.000000
-25.949574 -25.514965 -0.480972 1405 0.730622 0.682782 0.000000
-25.949059 -25.514465 -0.469787 1415 0.730622 0.682782 0.000000
-25.949112 -25.514523 -0.458606 1415 0.730622 0.682782 0.000000
-25.949890 -25.515282 -0.447448 1413 0.730622 0.682782 0.000000
-25.950150 -25.515537 -0.436276 1407 0.730622 0.682782 0.000000
-25.950657 -25.516043 -0.425100 1419 0.730622 0.682782 0.000000
-25.950439 -25.515831 -0.413922 1421 0.730622 0.682782 0.000000
-25.950691 -25.516083 -0.402750 1417 0.730622 0.682782 0.000000
-25.950260 -25.515656 -0.391564 1409 0.730622 0.682782 0.000000
-25.950083 -25.515480 -0.380385 1407 0.730622 0.682782 0.000000
-25.949598 -25.515007 -0.369199 1425 0.730622 0.682782 0.000000
-25.949932 -25.515337 -0.358026 1411 0.730622 0.682782 0.000000
-25.951059 -25.516439 -0.346865 1421 0.730622 0.682782 0.000000
-25.950310 -25.515707 -0.335682 1419 0.730622 0.682782 0.000000
-25.950058 -25.515469 -0.324494 1405 0.730622 0.682782 0.000000
-25.950342 -25.515743 -0.313321 1409 0.730622 0.682782 0.000000
-25.950104 -25.515507 -0.302143 1409 0.730622 0.682782 0.000000
-25.950014 -25.515417 -0.290964 1413 0.730622 0.682782 0.000000
-25.950809 -25.516205 -0.279796 1409 0.730622 0.682782 0.000000
-25.950191 -25.515606 -0.268611 1413 0.730622 0.682782 0.000000
-25.949631 -25.515055 -0.257436 1421 0.730622 0.682782 0.000000
-25.959471 -25.508173 -0.637525 1419 0.730622 0.682782 0.000000
-25.959715 -25.508419 -0.626352 1425 0.730622 0.682782 0.000000
-25.958763 -25.507475 -0.615141 1411 0.730622 0.682782 0.000000
-25.958851 -25.507561 -0.603970 1409 0.730622 0.682782 0.000000
-25.959352 -25.508062 -0.592795 1415 0.730622 0.682782 0.000000
-25.959892 -25.508591 -0.581630 1413 0.730622 0.682782 0.000000
-25.959974 -25.508673 -0.570459 1425 0.730622 0.682782 0.000000
-25.959110 -25.507830 -0.559256 1413 0.730622 0.682782 0.000000
-25.958344 -25.507080 -0.548063 1407 0.730622 0.682782 0.000000
-25.958876 -25.507607 -0.536888 1427 0.730622 0.682782 0.000000
-25.958849 -25.507568 -0.525708 1423 0.730622 0.682782 0.000000
-25.958332 -25.507069 -0.514523 1417 0.730622 0.682782 0.000000
-25.958818 -25.507542 -0.503358 1413 0.730622 0.682782 0.000000
-25.958929 -25.507647 -0.492177 1401 0.730622 0.682782 0.000000
-25.957817 -25.506571 -0.480977 1419 0.730622 0.682782 0.000000
-25.958668 -25.507401 -0.469819 1415 0.730622 0.682782 0.000000
-25.959082 -25.507812 -0.458644 1419 0.730622 0.682782 0.000000
-25.958241 -25.506990 -0.447452 1419 0.730622 0.682782 0.000000
-25.958778 -25.507505 -0.436287 1419 0.730622 0.682782 0.000000
-25.960011 -25.508724 -0.425125 1411 0.730622 0.682782 0.000000
-25.959843 -25.508556 -0.413946 1407 0.730622 0.682782 0.000000
-25.958418 -25.507162 -0.402749 1401 0.730622 0.682782 0.000000
-25.958204 -25.506956 -0.391561 1397 0.730622 0.682782 0.000000
-25.957508 -25.506268 -0.380378 1415 0.730622 0.682782 0.000000
-25.957747 -25.506506 -0.369205 1401 0.730622 0.682782 0.000000
-25.959032 -25.507767 -0.358042 1401 0.730622 0.682782 0.000000
-25.958431 -25.507183 -0.346858 1397 0.730622 0.682782 0.000000
-25.958347 -25.507101 -0.335678 1389 0.730622 0.682782 0.000000
-25.958374 -25.507122 -0.324508 1407 0.730622 0.682782 0.000000
-25.957657 -25.506428 -0.313314 1419 0.730622 0.682782 0.000000
-25.958414 -25.507168 -0.302147 1403 0.730622 0.682782 0.000000
-25.959740 -25.508463 -0.290994 1409 0.730622 0.682782 0.000000
-25.959167 -25.507906 -0.279809 1405 0.730622 0.682782 0.000000
-25.959597 -25.508331 -0.268635 1415 0.730622 0.682782 0.000000
-25.960381 -25.509106 -0.257467 1413 0.730622 0.682782 0.000000
