774
-8.339187 -7.623141 -0.548902 1283 0.741553 0.670894 0.000000
-8.339195 -7.623156 -0.545422 1273 0.741553 0.670894 0.000000
-8.339035 -7.623015 -0.541933 1267 0.741553 0.670894 0.000000
-8.339162 -7.623122 -0.538462 1285 0.741553 0.670894 0.000000
-8.338800 -7.622799 -0.534965 1275 0.741553 0.670894 0.000000
-8.339081 -7.623051 -0.531502 1275 0.741553 0.670894 0.000000
-8.338758 -7.622759 -0.528005 1255 0.741553 0.670894 0.000000
-8.338822 -7.622817 -0.524534 1261 0.741553 0.670894 0.000000
-8.339315 -7.623271 -0.521090 1273 0.741553 0.670894 0.000000
-8.339759 -7.623672 -0.517636 1287 0.741553 0.670894 0.000000
-8.338896 -7.622886 -0.514114 1269 0.741553 0.670894 0.000000
-8.338473 -7.622492 -0.510607 1263 0.741553 0.670894 0.000000
-8.339121 -7.623090 -0.507171 1261 0.741553 0.670894 0.000000
-8.339337 -7.623292 -0.503709 1253 0.741553 0.670894 0.000000
-8.339562 -7.623487 -0.500247 1265 0.741553 0.670894 0.000000
-8.339563 -7.623496 -0.496767 1265 0.741553 0.670894 0.000000
-8.339773 -7.623692 -0.493305 1285 0.741553 0.670894 0.000000
-8.339182 -7.623142 -0.489790 1263 0.741553 0.670894 0.000000
-8.338964 -7.622944 -0.486302 1267 0.741553 0.670894 0.000000
-8.339344 -7.623298 -0.482849 1273 0.741553 0.670894 0.000000
-8.339505 -7.623443 -0.479387 1281 0.741553 0.670894 0.000000
-8.339021 -7.623001 -0.475881 1263 0.741553 0.670894 0.000000
-8.338795 -7.622797 -0.472394 1273 0.741553 0.670894 0.000000
-8.339004 -7.622979 -0.468932 1279 0.741553 0.670894 0.000000
-8.338730 -7.622738 -0.465444 1259 0.741553 0.670894 0.000000
-8.338616 -7.622633 -0.461955 1253 0.741553 0.670894 0.000000
-8.339045 -7.623024 -0.458501 1253 0.741553 0.670894 0.000000
-8.339359 -7.623313 -0.455048 1269 0.741553 0.670894 0.000000
-8.339189 -7.623152 -0.451559 1273 0.741553 0.670894 0.000000
-8.339074 -7.623047 -0.448080 1253 0.741553 0.670894 0.000000
-8.338744 -7.622750 -0.444593 1255 0.741553 0.670894 0.000000
-8.338074 -7.622138 -0.441079 1251 0.741553 0.670894 0.000000
-8.338502 -7.622528 -0.437625 1259 0.741553 0.670894 0.000000
-8.339350 -7.623306 -0.434197 1267 0.741553 0.670894 0.000000
-8.339558 -7.623489 -0.430735 1265 0.741553 0.670894 0.000000
-8.339325 -7.623278 -0.427248 1263 0.741553 0.670894 0.000000
-8.338985 -7.622974 -0.423761 1273 0.741553 0.670894 0.000000
-8.338695 -7.622707 -0.420263 1267 0.741553 0.670894 0.000000
-8.339113 -7.623090 -0.416809 1261 0.741553 0.670894 0.000000
-8.339639 -7.623568 -0.413364 1255 0.741553 0.670894 0.000000
-8.339291 -7.623257 -0.409877 1265 0.741553 0.670894 0.000000
-8.339169 -7.623133 -0.406398 1271 0.741553 0.670894 0.000000
-8.339096 -7.623073 -0.402919 1267 0.741553 0.670894 0.000000
-8.339458 -7.623399 -0.399456 1271 0.741553 0.670894 0.000000
-8.339708 -7.623627 -0.395993 1283 0.741553 0.670894 0.000000
-8.339733 -7.623654 -0.392523 1271 0.741553 0.670894 0.000000
-8.340039 -7.623938 -0.389060 1275 0.741553 0.670894 0.000000
-8.339637 -7.623571 -0.385574 1267 0.741553 0.670894 0.000000
-8.339022 -7.623003 -0.382069 1243 0.741553 0.670894 0.000000
-8.338457 -7.622485 -0.378574 1249 0.741553 0.670894 0.000000
-8.338368 -7.622413 -0.375095 1259 0.741553 0.670894 0.000000
-8.338780 -7.622791 -0.371641 1255 0.741553 0.670894 0.000000
-8.338964 -7.622955 -0.368179 1255 0.741553 0.670894 0.000000
-8.338716 -7.622733 -0.364692 1257 0.741553 0.670894 0.000000
-8.338852 -7.622859 -0.361230 1259 0.741553 0.670894 0.000000
-8.339037 -7.623024 -0.357759 1265 0.741553 0.670894 0.000000
-8.339117 -7.623094 -0.354288 1265 0.741553 0.670894 0.000000
-8.339304 -7.623272 -0.350826 1237 0.741553 0.670894 0.000000
-8.339705 -7.623629 -0.347372 1251 0.741553 0.670894 0.000000
-8.339884 -7.623801 -0.343900 1263 0.741553 0.670894 0.000000
-8.339746 -7.623664 -0.340422 1275 0.741553 0.670894 0.000000
-8.339438 -7.623385 -0.336944 1251 0.741553 0.670894 0.000000
-8.339463 -7.623412 -0.333464 1247 0.741553 0.670894 0.000000
-8.339261 -7.623227 -0.329986 1251 0.741553 0.670894 0.000000
-8.339607 -7.623541 -0.326532 1249 0.741553 0.670894 0.000000
-8.340212 -7.624093 -0.323077 1271 0.741553 0.670894 0.000000
-8.339793 -7.623714 -0.319591 1267 0.741553 0.670894 0.000000
-8.339703 -7.623628 -0.316111 1257 0.741553 0.670894 0.000000
-8.339503 -7.623456 -0.312633 1239 0.741553 0.670894 0.000000
-8.339293 -7.623264 -0.309155 1241 0.741553 0.670894 0.000000
-8.339640 -7.623579 -0.305692 1251 0.741553 0.670894 0.000000
-8.341911 -7.620770 -0.695084 1257 0.741553 0.670894 0.000000
-8.341474 -7.620365 -0.691568 1247 0.741553 0.670894 0.000000
-8.340755 -7.619717 -0.688024 1227 0.741553 0.670894 0.000000
-8.341134 -7.620056 -0.684571 1241 0.741553 0.670894 0.000000
-8.341174 -7.620096 -0.681090 1247 0.741553 0.670894 0.000000
-8.341110 -7.620042 -0.677611 1233 0.741553 0.670894 0.000000
-8.341901 -7.620763 -0.674183 1251 0.741553 0.670894 0.000000
-8.341738 -7.620608 -0.670695 1259 0.741553 0.670894 0.000000
-8.340851 -7.619803 -0.667143 1235 0.741553 0.670894 0.000000
-8.341326 -7.620230 -0.663698 1251 0.741553 0.670894 0.000000
-8.341955 -7.620814 -0.660262 1257 0.741553 0.670894 0.000000
-8.342101 -7.620948 -0.656791 1267 0.741553 0.670894 0.000000
-8.341705 -7.620587 -0.653285 1255 0.741553 0.670894 0.000000
-8.341906 -7.620763 -0.649823 1245 0.741553 0.670894 0.000000
-8.341567 -7.620460 -0.646316 1249 0.741553 0.670894 0.000000
-8.341002 -7.619942 -0.642791 1255 0.741553 0.670894 0.000000
-8.341751 -7.620619 -0.639364 1275 0.741553 0.670894 0.000000
-8.341938 -7.620796 -0.635902 1267 0.741553 0.670894 0.000000
-8.341703 -7.620586 -0.632404 1253 0.741553 0.670894 0.000000
-8.341469 -7.620362 -0.628906 1265 0.741553 0.670894 0.000000
-8.341654 -7.620539 -0.625434 1263 0.741553 0.670894 0.000000
-8.341680 -7.620567 -0.621954 1257 0.741553 0.670894 0.000000
-8.341493 -7.620394 -0.618466 1263 0.741553 0.670894 0.000000
-8.341418 -7.620319 -0.614976 1259 0.741553 0.670894 0.000000
-8.340806 -7.619765 -0.611452 1249 0.741553 0.670894 0.000000
-8.340773 -7.619736 -0.607972 1251 0.741553 0.670894 0.000000
-8.341177 -7.620107 -0.604528 1245 0.741553 0.670894 0.000000
-8.341256 -7.620177 -0.601048 1253 0.741553 0.670894 0.000000
-8.340692 -7.619660 -0.597533 1249 0.741553 0.670894 0.000000
-8.340714 -7.619674 -0.594052 1237 0.741553 0.670894 0.000000
-8.341547 -7.620440 -0.590635 1259 0.741553 0.670894 0.000000
-8.341030 -7.619973 -0.587119 1257 0.741553 0.670894 0.000000
-8.340778 -7.619736 -0.583622 1239 0.741553 0.670894 0.000000
-8.340965 -7.619914 -0.580160 1249 0.741553 0.670894 0.000000
-8.340447 -7.619433 -0.576645 1241 0.741553 0.670894 0.000000
-8.340947 -7.619892 -0.573200 1257 0.741553 0.670894 0.000000
-8.341990 -7.620845 -0.569790 1263 0.741553 0.670894 0.000000
-8.341803 -7.620671 -0.566302 1253 0.741553 0.670894 0.000000
-8.341600 -7.620485 -0.562814 1261 0.741553 0.670894 0.000000
-8.341608 -7.620501 -0.559333 1261 0.741553 0.670894 0.000000
-8.341141 -7.620071 -0.555828 1259 0.741553 0.670894 0.000000
-8.341100 -7.620035 -0.552348 1251 0.741553 0.670894 0.000000
-8.341705 -7.620588 -0.548902 1285 0.741553 0.670894 0.000000
-8.341559 -7.620459 -0.545423 1271 0.741553 0.670894 0.000000
-8.341624 -7.620517 -0.541943 1263 0.741553 0.670894 0.000000
-8.341476 -7.620374 -0.538464 1267 0.741553 0.670894 0.000000
-8.341437 -7.620339 -0.534974 1271 0.741553 0.670894 0.000000
-8.341599 -7.620498 -0.531513 1267 0.741553 0.670894 0.000000
-8.341720 -7.620599 -0.528042 1267 0.741553 0.670894 0.000000
-8.341299 -7.620220 -0.524535 1267 0.741553 0.670894 0.000000
-8.341202 -7.620128 -0.521056 1257 0.741553 0.670894 0.000000
-8.341096 -7.620029 -0.517577 1241 0.741553 0.670894 0.000000
-8.340895 -7.619843 -0.514089 1253 0.741553 0.670894 0.000000
-8.340676 -7.619645 -0.510601 1259 0.741553 0.670894 0.000000
-8.341056 -7.619998 -0.507147 1259 0.741553 0.670894 0.000000
-8.341928 -7.620794 -0.503719 1259 0.741553 0.670894 0.000000
-8.342089 -7.620940 -0.500247 1267 0.741553 0.670894 0.000000
-8.341821 -7.620691 -0.496760 1273 0.741553 0.670894 0.000000
-8.341232 -7.620155 -0.493245 1255 0.741553 0.670894 0.000000
-8.341119 -7.620051 -0.489766 1255 0.741553 0.670894 0.000000
-8.341773 -7.620654 -0.486330 1263 0.741553 0.670894 0.000000
-8.341708 -7.620600 -0.482851 1261 0.741553 0.670894 0.000000
-8.341385 -7.620295 -0.479353 1271 0.741553 0.670894 0.000000
-8.340949 -7.619904 -0.475857 1265 0.741553 0.670894 0.000000
-8.340949 -7.619899 -0.472377 1259 0.741553 0.670894 0.000000
-8.341488 -7.620388 -0.468932 1269 0.741553 0.670894 0.000000
-8.341965 -7.620828 -0.465488 1257 0.741553 0.670894 0.000000
-8.342279 -7.621118 -0.462025 1261 0.741553 0.670894 0.000000
-8.342278 -7.621113 -0.458555 1265 0.741553 0.670894 0.000000
-8.341940 -7.620809 -0.455058 1265 0.741553 0.670894 0.000000
-8.341769 -7.620647 -0.451569 1271 0.741553 0.670894 0.000000
-8.341867 -7.620745 -0.448098 1257 0.741553 0.670894 0.000000
-8.341754 -7.620640 -0.444619 1261 0.741553 0.670894 0.000000
-8.340987 -7.619942 -0.441106 1251 0.741553 0.670894 0.000000
-8.340921 -7.619874 -0.437627 1245 0.741553 0.670894 0.000000
-8.341340 -7.620257 -0.434173 1245 0.741553 0.670894 0.000000
-8.340953 -7.619903 -0.430686 1245 0.741553 0.670894 0.000000
-8.341365 -7.620280 -0.427232 1253 0.741553 0.670894 0.000000
-8.342058 -7.620913 -0.423786 1265 0.741553 0.670894 0.000000
-8.342092 -7.620948 -0.420316 1261 0.741553 0.670894 0.000000
-8.342132 -7.620987 -0.416845 1255 0.741553 0.670894 0.000000
-8.342010 -7.620876 -0.413366 1263 0.741553 0.670894 0.000000
-8.342147 -7.621004 -0.409895 1267 0.741553 0.670894 0.000000
-8.342131 -7.620986 -0.406425 1271 0.741553 0.670894 0.000000
-8.341678 -7.620568 -0.402929 1259 0.741553 0.670894 0.000000
-8.341340 -7.620265 -0.399432 1255 0.741553 0.670894 0.000000
-8.341041 -7.619991 -0.395945 1241 0.741553 0.670894 0.000000
-8.341516 -7.620418 -0.392500 1255 0.741553 0.670894 0.000000
-8.342130 -7.620991 -0.389054 1273 0.741553 0.670894 0.000000
-8.342161 -7.621010 -0.385574 1273 0.741553 0.670894 0.000000
-8.342355 -7.621194 -0.382112 1265 0.741553 0.670894 0.000000
-8.342484 -7.621315 -0.378641 1263 0.741553 0.670894 0.000000
-8.342248 -7.621091 -0.375163 1259 0.741553 0.670894 0.000000
-8.341903 -7.620781 -0.371676 1257 0.741553 0.670894 0.000000
-8.342031 -7.620902 -0.368205 1261 0.741553 0.670894 0.000000
-8.341901 -7.620771 -0.364726 1265 0.741553 0.670894 0.000000
-8.341537 -7.620449 -0.361239 1263 0.741553 0.670894 0.000000
-8.341780 -7.620669 -0.357777 1269 0.741553 0.670894 0.000000
-8.341917 -7.620798 -0.354306 1263 0.741553 0.670894 0.000000
-8.342215 -7.621061 -0.350843 1251 0.741553 0.670894 0.000000
-8.342175 -7.621025 -0.347373 1253 0.741553 0.670894 0.000000
-8.341659 -7.620559 -0.343878 1249 0.741553 0.670894 0.000000
-8.341949 -7.620817 -0.340415 1253 0.741553 0.670894 0.000000
-8.341747 -7.620645 -0.336937 1257 0.741553 0.670894 0.000000
-8.341820 -7.620709 -0.333466 1251 0.741553 0.670894 0.000000
-8.342328 -7.621174 -0.330011 1255 0.741553 0.670894 0.000000
-8.341537 -7.620443 -0.326508 1239 0.741553 0.670894 0.000000
-8.341769 -7.620658 -0.323046 1249 0.741553 0.670894 0.000000
-8.342495 -7.621316 -0.319599 1261 0.741553 0.670894 0.000000
-8.342391 -7.621231 -0.316120 1247 0.741553 0.670894 0.000000
-8.342189 -7.621045 -0.312642 1249 0.741553 0.670894 0.000000
-8.341882 -7.620766 -0.309165 1249 0.741553 0.670894 0.000000
-8.342600 -7.621418 -0.305718 1259 0.741553 0.670894 0.000000
-8.343354 -7.617235 -0.695004 1245 0.741553 0.670894 0.000000
-8.343290 -7.617181 -0.691515 1239 0.741553 0.670894 0.000000
-8.343773 -7.617614 -0.688070 1239 0.741553 0.670894 0.000000
-8.343386 -7.617259 -0.684564 1239 0.741553 0.670894 0.000000
-8.343538 -7.617399 -0.681092 1229 0.741553 0.670894 0.000000
-8.343854 -7.617689 -0.677639 1237 0.741553 0.670894 0.000000
-8.344048 -7.617873 -0.674167 1249 0.741553 0.670894 0.000000
-8.344369 -7.618155 -0.670714 1253 0.741553 0.670894 0.000000
-8.344563 -7.618339 -0.667242 1257 0.741553 0.670894 0.000000
-8.344870 -7.618622 -0.663789 1261 0.741553 0.670894 0.000000
-8.344812 -7.618561 -0.660300 1251 0.741553 0.670894 0.000000
-8.344740 -7.618501 -0.656810 1263 0.741553 0.670894 0.000000
-8.344078 -7.617896 -0.653286 1251 0.741553 0.670894 0.000000
-8.343843 -7.617685 -0.649778 1255 0.741553 0.670894 0.000000
-8.343665 -7.617518 -0.646290 1251 0.741553 0.670894 0.000000
-8.343965 -7.617795 -0.642827 1243 0.741553 0.670894 0.000000
-8.344593 -7.618366 -0.639401 1257 0.741553 0.670894 0.000000
-8.344302 -7.618099 -0.635894 1269 0.741553 0.670894 0.000000
-8.343906 -7.617738 -0.632388 1271 0.741553 0.670894 0.000000
-8.343819 -7.617666 -0.628898 1253 0.741553 0.670894 0.000000
-8.344124 -7.617936 -0.625445 1253 0.741553 0.670894 0.000000
-8.344485 -7.618262 -0.621992 1267 0.741553 0.670894 0.000000
-8.344623 -7.618390 -0.618521 1269 0.741553 0.670894 0.000000
-8.343790 -7.617628 -0.614978 1253 0.741553 0.670894 0.000000
-8.343550 -7.617412 -0.611480 1259 0.741553 0.670894 0.000000
-8.344220 -7.618027 -0.608054 1265 0.741553 0.670894 0.000000
-8.344250 -7.618047 -0.604574 1255 0.741553 0.670894 0.000000
-8.344001 -7.617824 -0.601076 1251 0.741553 0.670894 0.000000
-8.343921 -7.617758 -0.597587 1253 0.741553 0.670894 0.000000
-8.344154 -7.617973 -0.594124 1239 0.741553 0.670894 0.000000
-8.343637 -7.617492 -0.590609 1247 0.741553 0.670894 0.000000
-8.343070 -7.616974 -0.587094 1253 0.741553 0.670894 0.000000
-8.343516 -7.617391 -0.583650 1263 0.741553 0.670894 0.000000
-8.343758 -7.617611 -0.580188 1259 0.741553 0.670894 0.000000
-8.343943 -7.617775 -0.576716 1257 0.741553 0.670894 0.000000
-8.343577 -7.617439 -0.573219 1249 0.741553 0.670894 0.000000
-8.344248 -7.618054 -0.569783 1265 0.741553 0.670894 0.000000
-8.344538 -7.618311 -0.566320 1257 0.741553 0.670894 0.000000
-8.344555 -7.618334 -0.562850 1269 0.741553 0.670894 0.000000
-8.344353 -7.618148 -0.559352 1283 0.741553 0.670894 0.000000
-8.343077 -7.616979 -0.555793 1255 0.741553 0.670894 0.000000
-8.342440 -7.616407 -0.552279 1251 0.741553 0.670894 0.000000
-8.343206 -7.617109 -0.548852 1259 0.741553 0.670894 0.000000
-8.343649 -7.617511 -0.545398 1255 0.741553 0.670894 0.000000
-8.343778 -7.617619 -0.541927 1253 0.741553 0.670894 0.000000
-8.344432 -7.618222 -0.538490 1267 0.741553 0.670894 0.000000
-8.344278 -7.618086 -0.535012 1271 0.741553 0.670894 0.000000
-8.344293 -7.618094 -0.531532 1271 0.741553 0.670894 0.000000
-8.344295 -7.618103 -0.528051 1275 0.741553 0.670894 0.000000
-8.343768 -7.617616 -0.524546 1271 0.741553 0.670894 0.000000
-8.343397 -7.617274 -0.521050 1251 0.741553 0.670894 0.000000
-8.343510 -7.617383 -0.517579 1247 0.741553 0.670894 0.000000
-8.343412 -7.617290 -0.514089 1263 0.741553 0.670894 0.000000
-8.342773 -7.616704 -0.510575 1255 0.741553 0.670894 0.000000
-8.343259 -7.617150 -0.507131 1257 0.741553 0.670894 0.000000
-8.343799 -7.617640 -0.503686 1253 0.741553 0.670894 0.000000
-8.343154 -7.617061 -0.500171 1255 0.741553 0.670894 0.000000
-8.342943 -7.616869 -0.496683 1243 0.741553 0.670894 0.000000
-8.343701 -7.617552 -0.493256 1239 0.741553 0.670894 0.000000
-8.344081 -7.617905 -0.489803 1263 0.741553 0.670894 0.000000
-8.343476 -7.617357 -0.486288 1251 0.741553 0.670894 0.000000
-8.343426 -7.617301 -0.482808 1253 0.741553 0.670894 0.000000
-8.344121 -7.617949 -0.479372 1267 0.741553 0.670894 0.000000
-8.344283 -7.618094 -0.475910 1257 0.741553 0.670894 0.000000
-8.343798 -7.617652 -0.472405 1249 0.741553 0.670894 0.000000
-8.343740 -7.617590 -0.468925 1253 0.741553 0.670894 0.000000
-8.344105 -7.617932 -0.465472 1265 0.741553 0.670894 0.000000
-8.344110 -7.617933 -0.461992 1261 0.741553 0.670894 0.000000
-8.344369 -7.618165 -0.458539 1253 0.741553 0.670894 0.000000
-8.344901 -7.618649 -0.455084 1269 0.741553 0.670894 0.000000
-8.344458 -7.618251 -0.451588 1247 0.741553 0.670894 0.000000
-8.344119 -7.617948 -0.448091 1249 0.741553 0.670894 0.000000
-8.344602 -7.618380 -0.444647 1257 0.741553 0.670894 0.000000
-8.344214 -7.618025 -0.441150 1241 0.741553 0.670894 0.000000
-8.343609 -7.617477 -0.437646 1237 0.741553 0.670894 0.000000
-8.344569 -7.618355 -0.434217 1249 0.741553 0.670894 0.000000
-8.345480 -7.619182 -0.430788 1279 0.741553 0.670894 0.000000
-8.345022 -7.618773 -0.427292 1277 0.741553 0.670894 0.000000
-8.344198 -7.618017 -0.423780 1253 0.741553 0.670894 0.000000
-8.343923 -7.617762 -0.420292 1239 0.741553 0.670894 0.000000
-8.344060 -7.617889 -0.416821 1251 0.741553 0.670894 0.000000
-8.343939 -7.617779 -0.413342 1273 0.741553 0.670894 0.000000
-8.343431 -7.617318 -0.409847 1251 0.741553 0.670894 0.000000
-8.343631 -7.617494 -0.406375 1243 0.741553 0.670894 0.000000
-8.344309 -7.618116 -0.402938 1259 0.741553 0.670894 0.000000
-8.344188 -7.618005 -0.399459 1251 0.741553 0.670894 0.000000
-8.344219 -7.618039 -0.395989 1257 0.741553 0.670894 0.000000
-8.343872 -7.617714 -0.392492 1249 0.741553 0.670894 0.000000
-8.343580 -7.617447 -0.389005 1249 0.741553 0.670894 0.000000
-8.344154 -7.617975 -0.385559 1247 0.741553 0.670894 0.000000
-8.343855 -7.617702 -0.382072 1245 0.741553 0.670894 0.000000
-8.343669 -7.617529 -0.378594 1241 0.741553 0.670894 0.000000
-8.343701 -7.617562 -0.375123 1249 0.741553 0.670894 0.000000
-8.344106 -7.617933 -0.371670 1259 0.741553 0.670894 0.000000
-8.344993 -7.618742 -0.368231 1259 0.741553 0.670894 0.000000
-8.344806 -7.618568 -0.364753 1265 0.741553 0.670894 0.000000
-8.344023 -7.617858 -0.361240 1265 0.741553 0.670894 0.000000
-8.343499 -7.617385 -0.357745 1253 0.741553 0.670894 0.000000
-8.344386 -7.618194 -0.354306 1259 0.741553 0.670894 0.000000
-8.345282 -7.619008 -0.350878 1259 0.741553 0.670894 0.000000
-8.344330 -7.618141 -0.347367 1245 0.741553 0.670894 0.000000
-8.343594 -7.617467 -0.343864 1243 0.741553 0.670894 0.000000
-8.343932 -7.617775 -0.340400 1259 0.741553 0.670894 0.000000
-8.344224 -7.618047 -0.336938 1259 0.741553 0.670894 0.000000
-8.344134 -7.617961 -0.333468 1247 0.741553 0.670894 0.000000
-8.343561 -7.617437 -0.329974 1235 0.741553 0.670894 0.000000
-8.343794 -7.617652 -0.326501 1249 0.741553 0.670894 0.000000
-8.344512 -7.618304 -0.323065 1253 0.741553 0.670894 0.000000
-8.344584 -7.618368 -0.319594 1259 0.741553 0.670894 0.000000
-8.344488 -7.618290 -0.316115 1257 0.741553 0.670894 0.000000
-8.344497 -7.618291 -0.312644 1263 0.741553 0.670894 0.000000
-8.344842 -7.618606 -0.309181 1253 0.741553 0.670894 0.000000
-8.345118 -7.618865 -0.305719 1257 0.741553 0.670894 0.000000
-8.346520 -7.615170 -0.695059 1241 0.741553 0.670894 0.000000
-8.346400 -7.615073 -0.691570 1253 0.741553 0.670894 0.000000
-8.346341 -7.615012 -0.688081 1255 0.741553 0.670894 0.000000
-8.346278 -7.614958 -0.684601 1243 0.741553 0.670894 0.000000
-8.346003 -7.614703 -0.681094 1239 0.741553 0.670894 0.000000
-8.345931 -7.614643 -0.677604 1239 0.741553 0.670894 0.000000
-8.346139 -7.614825 -0.674142 1253 0.741553 0.670894 0.000000
-8.346454 -7.615115 -0.670679 1247 0.741553 0.670894 0.000000
-8.346924 -7.615550 -0.667235 1247 0.741553 0.670894 0.000000
-8.347011 -7.615626 -0.663764 1247 0.741553 0.670894 0.000000
-8.346510 -7.615172 -0.660248 1243 0.741553 0.670894 0.000000
-8.346606 -7.615254 -0.656767 1247 0.741553 0.670894 0.000000
-8.346751 -7.615387 -0.653296 1255 0.741553 0.670894 0.000000
-8.346307 -7.614976 -0.649780 1259 0.741553 0.670894 0.000000
-8.346718 -7.615354 -0.646336 1263 0.741553 0.670894 0.000000
-8.346372 -7.615043 -0.642829 1253 0.741553 0.670894 0.000000
-8.345926 -7.614631 -0.639313 1259 0.741553 0.670894 0.000000
-8.346226 -7.614909 -0.635860 1257 0.741553 0.670894 0.000000
-8.347170 -7.615775 -0.632452 1267 0.741553 0.670894 0.000000
-8.347750 -7.616295 -0.629006 1265 0.741553 0.670894 0.000000
-8.347459 -7.616027 -0.625509 1259 0.741553 0.670894 0.000000
-8.346621 -7.615274 -0.621966 1263 0.741553 0.670894 0.000000
-8.346005 -7.614705 -0.618442 1245 0.741553 0.670894 0.000000
-8.346247 -7.614926 -0.614980 1253 0.741553 0.670894 0.000000
-8.345948 -7.614653 -0.611482 1255 0.741553 0.670894 0.000000
-8.345756 -7.614487 -0.607984 1253 0.741553 0.670894 0.000000
-8.345900 -7.614607 -0.604513 1251 0.741553 0.670894 0.000000
-8.346189 -7.614878 -0.601060 1247 0.741553 0.670894 0.000000
-8.346432 -7.615099 -0.597598 1247 0.741553 0.670894 0.000000
-8.346779 -7.615414 -0.594144 1243 0.741553 0.670894 0.000000
-8.346592 -7.615240 -0.590646 1241 0.741553 0.670894 0.000000
-8.346067 -7.614767 -0.587131 1243 0.741553 0.670894 0.000000
-8.346365 -7.615030 -0.583678 1261 0.741553 0.670894 0.000000
-8.346277 -7.614958 -0.580189 1251 0.741553 0.670894 0.000000
-8.346350 -7.615023 -0.576718 1261 0.741553 0.670894 0.000000
-8.346366 -7.615044 -0.573238 1273 0.741553 0.670894 0.000000
-8.345905 -7.614620 -0.569732 1261 0.741553 0.670894 0.000000
-8.345921 -7.614628 -0.566252 1259 0.741553 0.670894 0.000000
-8.345509 -7.614254 -0.562745 1253 0.741553 0.670894 0.000000
-8.346008 -7.614713 -0.559301 1271 0.741553 0.670894 0.000000
-8.346510 -7.615172 -0.555856 1267 0.741553 0.670894 0.000000
-8.345928 -7.614642 -0.552341 1247 0.741553 0.670894 0.000000
-8.346210 -7.614894 -0.548889 1267 0.741553 0.670894 0.000000
-8.346007 -7.614708 -0.545390 1261 0.741553 0.670894 0.000000
-8.346985 -7.615612 -0.541981 1259 0.741553 0.670894 0.000000
-8.347767 -7.616313 -0.538554 1271 0.741553 0.670894 0.000000
-8.346903 -7.615527 -0.535022 1271 0.741553 0.670894 0.000000
-8.346975 -7.615592 -0.531541 1265 0.741553 0.670894 0.000000
-8.347039 -7.615650 -0.528070 1277 0.741553 0.670894 0.000000
-8.346611 -7.615264 -0.524574 1267 0.741553 0.670894 0.000000
-8.346451 -7.615123 -0.521086 1271 0.741553 0.670894 0.000000
-8.345763 -7.614486 -0.517562 1267 0.741553 0.670894 0.000000
-8.346467 -7.615139 -0.514135 1265 0.741553 0.670894 0.000000
-8.346361 -7.615041 -0.510646 1245 0.741553 0.670894 0.000000
-8.345772 -7.614505 -0.507132 1251 0.741553 0.670894 0.000000
-8.345505 -7.614257 -0.503644 1259 0.741553 0.670894 0.000000
-8.345132 -7.613914 -0.500147 1249 0.741553 0.670894 0.000000
-8.345891 -7.614610 -0.496710 1259 0.741553 0.670894 0.000000
-8.346110 -7.614813 -0.493248 1251 0.741553 0.670894 0.000000
-8.345997 -7.614709 -0.489769 1241 0.741553 0.670894 0.000000
-8.346108 -7.614804 -0.486298 1235 0.741553 0.670894 0.000000
-8.346915 -7.615537 -0.482870 1261 0.741553 0.670894 0.000000
-8.346803 -7.615447 -0.479391 1265 0.741553 0.670894 0.000000
-8.346261 -7.614947 -0.475886 1249 0.741553 0.670894 0.000000
-8.346584 -7.615243 -0.472423 1253 0.741553 0.670894 0.000000
-8.346633 -7.615289 -0.468953 1257 0.741553 0.670894 0.000000
-8.346954 -7.615585 -0.465490 1263 0.741553 0.670894 0.000000
-8.346292 -7.614981 -0.461986 1257 0.741553 0.670894 0.000000
-8.346396 -7.615069 -0.458515 1261 0.741553 0.670894 0.000000
-8.346825 -7.615459 -0.455061 1257 0.741553 0.670894 0.000000
-8.346647 -7.615305 -0.451572 1255 0.741553 0.670894 0.000000
-8.346696 -7.615351 -0.448102 1271 0.741553 0.670894 0.000000
-8.346372 -7.615046 -0.444615 1261 0.741553 0.670894 0.000000
-8.346461 -7.615136 -0.441144 1253 0.741553 0.670894 0.000000
-8.347202 -7.615807 -0.437707 1255 0.741553 0.670894 0.000000
-8.347573 -7.616139 -0.434243 1259 0.741553 0.670894 0.000000
-8.346912 -7.615549 -0.430739 1265 0.741553 0.670894 0.000000
-8.346784 -7.615432 -0.427260 1261 0.741553 0.670894 0.000000
-8.346662 -7.615321 -0.423781 1257 0.741553 0.670894 0.000000
-8.346920 -7.615554 -0.420319 1263 0.741553 0.670894 0.000000
-8.347014 -7.615637 -0.416848 1261 0.741553 0.670894 0.000000
-8.346571 -7.615225 -0.413352 1263 0.741553 0.670894 0.000000
-8.346266 -7.614960 -0.409865 1245 0.741553 0.670894 0.000000
-8.346313 -7.614992 -0.406394 1257 0.741553 0.670894 0.000000
-8.346344 -7.615026 -0.402914 1249 0.741553 0.670894 0.000000
-8.346861 -7.615497 -0.399469 1261 0.741553 0.670894 0.000000
-8.346892 -7.615530 -0.395998 1247 0.741553 0.670894 0.000000
-8.346449 -7.615119 -0.392503 1265 0.741553 0.670894 0.000000
-8.346094 -7.614802 -0.389016 1261 0.741553 0.670894 0.000000
-8.346561 -7.615222 -0.385561 1261 0.741553 0.670894 0.000000
-8.346423 -7.615100 -0.382083 1247 0.741553 0.670894 0.000000
-8.346457 -7.615134 -0.378612 1239 0.741553 0.670894 0.000000
-8.346537 -7.615204 -0.375141 1253 0.741553 0.670894 0.000000
-8.346408 -7.615087 -0.371662 1267 0.741553 0.670894 0.000000
-8.346649 -7.615308 -0.368200 1253 0.741553 0.670894 0.000000
-8.346617 -7.615279 -0.364720 1255 0.741553 0.670894 0.000000
-8.346100 -7.614812 -0.361225 1257 0.741553 0.670894 0.000000
-8.345915 -7.614638 -0.357747 1249 0.741553 0.670894 0.000000
-8.346310 -7.615003 -0.354293 1249 0.741553 0.670894 0.000000
-8.346552 -7.615224 -0.350831 1253 0.741553 0.670894 0.000000
-8.346842 -7.615482 -0.347368 1253 0.741553 0.670894 0.000000
-8.347300 -7.615896 -0.343914 1261 0.741553 0.670894 0.000000
-8.346889 -7.615523 -0.340417 1251 0.741553 0.670894 0.000000
-8.347018 -7.615644 -0.336956 1267 0.741553 0.670894 0.000000
-8.346704 -7.615359 -0.333469 1253 0.741553 0.670894 0.000000
-8.346832 -7.615479 -0.329997 1247 0.741553 0.670894 0.000000
-8.347010 -7.615638 -0.326536 1261 0.741553 0.670894 0.000000
-8.346210 -7.614915 -0.323033 1261 0.741553 0.670894 0.000000
-8.346347 -7.615028 -0.319562 1251 0.741553 0.670894 0.000000
-8.346580 -7.615242 -0.316100 1251 0.741553 0.670894 0.000000
-8.346581 -7.615252 -0.312629 1259 0.741553 0.670894 0.000000
-8.346766 -7.615417 -0.309168 1261 0.741553 0.670894 0.000000
-8.346451 -7.615130 -0.305680 1247 0.741553 0.670894 0.000000
-8.349101 -7.612666 -0.695079 1247 0.741553 0.670894 0.000000
-8.348609 -7.612217 -0.691554 1245 0.741553 0.670894 0.000000
-8.347892 -7.611570 -0.688020 1231 0.741553 0.670894 0.000000
-8.347623 -7.611321 -0.684512 1229 0.741553 0.670894 0.000000
-8.347826 -7.611511 -0.681050 1233 0.741553 0.670894 0.000000
-8.348302 -7.611938 -0.677606 1245 0.741553 0.670894 0.000000
-8.348825 -7.612415 -0.674161 1247 0.741553 0.670894 0.000000
-8.349035 -7.612611 -0.670699 1249 0.741553 0.670894 0.000000
-8.348801 -7.612401 -0.667201 1245 0.741553 0.670894 0.000000
-8.348519 -7.612140 -0.663694 1245 0.741553 0.670894 0.000000
-8.349154 -7.612716 -0.660258 1261 0.741553 0.670894 0.000000
-8.349463 -7.613000 -0.656805 1259 0.741553 0.670894 0.000000
-8.348896 -7.612483 -0.653280 1243 0.741553 0.670894 0.000000
-8.348880 -7.612466 -0.649800 1249 0.741553 0.670894 0.000000
-8.348703 -7.612312 -0.646302 1245 0.741553 0.670894 0.000000
-8.348525 -7.612144 -0.642813 1243 0.741553 0.670894 0.000000
-8.348444 -7.612078 -0.639324 1245 0.741553 0.670894 0.000000
-8.348216 -7.611860 -0.635826 1249 0.741553 0.670894 0.000000
-8.348087 -7.611743 -0.632337 1247 0.741553 0.670894 0.000000
-8.348232 -7.611876 -0.628865 1235 0.741553 0.670894 0.000000
-8.348371 -7.612004 -0.625394 1241 0.741553 0.670894 0.000000
-8.348556 -7.612182 -0.621932 1249 0.741553 0.670894 0.000000
-8.348644 -7.612258 -0.618461 1253 0.741553 0.670894 0.000000
-8.348991 -7.612573 -0.615008 1237 0.741553 0.670894 0.000000
-8.349506 -7.613044 -0.611563 1251 0.741553 0.670894 0.000000
-8.348780 -7.612376 -0.608030 1241 0.741553 0.670894 0.000000
-8.348481 -7.612103 -0.604533 1255 0.741553 0.670894 0.000000
-8.348997 -7.612574 -0.601088 1263 0.741553 0.670894 0.000000
-8.349393 -7.612939 -0.597634 1249 0.741553 0.670894 0.000000
-8.349304 -7.612866 -0.594155 1247 0.741553 0.670894 0.000000
-8.348577 -7.612199 -0.590621 1247 0.741553 0.670894 0.000000
-8.348973 -7.612564 -0.587168 1239 0.741553 0.670894 0.000000
-8.349973 -7.613473 -0.583758 1259 0.741553 0.670894 0.000000
-8.349069 -7.612642 -0.580217 1245 0.741553 0.670894 0.000000
-8.348173 -7.611831 -0.576675 1245 0.741553 0.670894 0.000000
-8.348036 -7.611708 -0.573196 1241 0.741553 0.670894 0.000000
-8.348374 -7.612017 -0.569733 1259 0.741553 0.670894 0.000000
-8.348285 -7.611931 -0.566254 1253 0.741553 0.670894 0.000000
-8.347929 -7.611600 -0.562747 1255 0.741553 0.670894 0.000000
-8.348099 -7.611766 -0.559285 1253 0.741553 0.670894 0.000000
-8.348712 -7.612324 -0.555849 1269 0.741553 0.670894 0.000000
-8.348621 -7.612238 -0.552360 1271 0.741553 0.670894 0.000000
-8.348687 -7.612297 -0.548889 1269 0.741553 0.670894 0.000000
-8.348696 -7.612312 -0.545409 1261 0.741553 0.670894 0.000000
-8.348711 -7.612319 -0.541939 1249 0.741553 0.670894 0.000000
-8.348774 -7.612377 -0.538468 1251 0.741553 0.670894 0.000000
-8.348734 -7.612342 -0.534979 1267 0.741553 0.670894 0.000000
-8.348686 -7.612301 -0.531499 1263 0.741553 0.670894 0.000000
-8.349016 -7.612602 -0.528046 1265 0.741553 0.670894 0.000000
-8.348814 -7.612416 -0.524558 1261 0.741553 0.670894 0.000000
-8.348443 -7.612074 -0.521061 1255 0.741553 0.670894 0.000000
-8.348451 -7.612089 -0.517581 1249 0.741553 0.670894 0.000000
-8.348613 -7.612236 -0.514119 1247 0.741553 0.670894 0.000000
-8.348781 -7.612387 -0.510648 1251 0.741553 0.670894 0.000000
-8.349112 -7.612689 -0.507194 1269 0.741553 0.670894 0.000000
-8.349225 -7.612798 -0.503723 1265 0.741553 0.670894 0.000000
-8.348788 -7.612392 -0.500217 1253 0.741553 0.670894 0.000000
-8.348585 -7.612206 -0.496729 1251 0.741553 0.670894 0.000000
-8.348692 -7.612309 -0.493258 1237 0.741553 0.670894 0.000000
-8.349069 -7.612648 -0.489804 1253 0.741553 0.670894 0.000000
-8.348635 -7.612257 -0.486308 1243 0.741553 0.670894 0.000000
-8.348205 -7.611857 -0.482812 1235 0.741553 0.670894 0.000000
-8.348198 -7.611860 -0.479332 1249 0.741553 0.670894 0.000000
-8.347930 -7.611611 -0.475845 1239 0.741553 0.670894 0.000000
-8.348682 -7.612302 -0.472408 1249 0.741553 0.670894 0.000000
-8.349215 -7.612786 -0.468963 1257 0.741553 0.670894 0.000000
-8.348777 -7.612380 -0.465467 1257 0.741553 0.670894 0.000000
-8.348341 -7.611989 -0.461960 1257 0.741553 0.670894 0.000000
-8.348228 -7.611885 -0.458481 1263 0.741553 0.670894 0.000000
-8.348164 -7.611830 -0.455002 1251 0.741553 0.670894 0.000000
-8.348963 -7.612557 -0.451574 1243 0.741553 0.670894 0.000000
-8.349229 -7.612797 -0.448112 1251 0.741553 0.670894 0.000000
-8.349057 -7.612635 -0.444623 1265 0.741553 0.670894 0.000000
-8.349098 -7.612675 -0.441153 1263 0.741553 0.670894 0.000000
-8.348872 -7.612471 -0.437665 1259 0.741553 0.670894 0.000000
-8.349292 -7.612854 -0.434211 1253 0.741553 0.670894 0.000000
-8.349760 -7.613289 -0.430767 1261 0.741553 0.670894 0.000000
-8.349912 -7.613414 -0.427295 1269 0.741553 0.670894 0.000000
-8.349839 -7.613355 -0.423816 1267 0.741553 0.670894 0.000000
-8.349614 -7.613150 -0.420328 1249 0.741553 0.670894 0.000000
-8.349647 -7.613184 -0.416857 1255 0.741553 0.670894 0.000000
-8.349363 -7.612923 -0.413370 1249 0.741553 0.670894 0.000000
-8.348685 -7.612306 -0.409866 1235 0.741553 0.670894 0.000000
-8.348297 -7.611951 -0.406370 1235 0.741553 0.670894 0.000000
-8.348701 -7.612322 -0.402916 1257 0.741553 0.670894 0.000000
-8.349064 -7.612649 -0.399462 1261 0.741553 0.670894 0.000000
-8.349104 -7.612689 -0.395992 1267 0.741553 0.670894 0.000000
-8.348756 -7.612365 -0.392495 1259 0.741553 0.670894 0.000000
-8.348901 -7.612498 -0.389034 1257 0.741553 0.670894 0.000000
-8.349079 -7.612669 -0.385562 1251 0.741553 0.670894 0.000000
-8.348417 -7.612065 -0.382058 1249 0.741553 0.670894 0.000000
-8.348497 -7.612135 -0.378597 1247 0.741553 0.670894 0.000000
-8.348956 -7.612549 -0.375143 1247 0.741553 0.670894 0.000000
-8.348932 -7.612526 -0.371663 1257 0.741553 0.670894 0.000000
-8.349230 -7.612804 -0.368200 1245 0.741553 0.670894 0.000000
-8.349416 -7.612968 -0.364738 1251 0.741553 0.670894 0.000000
-8.349222 -7.612802 -0.361260 1255 0.741553 0.670894 0.000000
-8.348916 -7.612523 -0.357773 1251 0.741553 0.670894 0.000000
-8.348454 -7.612099 -0.354277 1245 0.741553 0.670894 0.000000
-8.348585 -7.612220 -0.350816 1247 0.741553 0.670894 0.000000
-8.348994 -7.612584 -0.347352 1251 0.741553 0.670894 0.000000
-8.348794 -7.612412 -0.343873 1261 0.741553 0.670894 0.000000
-8.348599 -7.612232 -0.340395 1249 0.741553 0.670894 0.000000
-8.348834 -7.612447 -0.336933 1253 0.741553 0.670894 0.000000
-8.349068 -7.612661 -0.333471 1259 0.741553 0.670894 0.000000
-8.349744 -7.613269 -0.330024 1257 0.741553 0.670894 0.000000
-8.349753 -7.613285 -0.326554 1261 0.741553 0.670894 0.000000
-8.349284 -7.612854 -0.323058 1269 0.741553 0.670894 0.000000
-8.349567 -7.613120 -0.319596 1263 0.741553 0.670894 0.000000
-8.349864 -7.613383 -0.316133 1251 0.741553 0.670894 0.000000
-8.349325 -7.612898 -0.312648 1243 0.741553 0.670894 0.000000
-8.348694 -7.612318 -0.309154 1235 0.741553 0.670894 0.000000
-8.348605 -7.612232 -0.305674 1243 0.741553 0.670894 0.000000
-8.350707 -7.609281 -0.695008 1239 0.741553 0.670894 0.000000
-8.351338 -7.609866 -0.691582 1243 0.741553 0.670894 0.000000
-8.352208 -7.610649 -0.688174 1255 0.741553 0.670894 0.000000
-8.352248 -7.610689 -0.684693 1245 0.741553 0.670894 0.000000
-8.351965 -7.610427 -0.681186 1235 0.741553 0.670894 0.000000
-8.352014 -7.610473 -0.677705 1237 0.741553 0.670894 0.000000
-8.351563 -7.610069 -0.674189 1237 0.741553 0.670894 0.000000
-8.350796 -7.609371 -0.670646 1235 0.741553 0.670894 0.000000
-8.351861 -7.610342 -0.667247 1241 0.741553 0.670894 0.000000
-8.352006 -7.610476 -0.663775 1251 0.741553 0.670894 0.000000
-8.351076 -7.609626 -0.660224 1241 0.741553 0.670894 0.000000
-8.351384 -7.609910 -0.656771 1251 0.741553 0.670894 0.000000
-8.351422 -7.609936 -0.653290 1253 0.741553 0.670894 0.000000
-8.351351 -7.609876 -0.649801 1245 0.741553 0.670894 0.000000
-8.351439 -7.609952 -0.646330 1251 0.741553 0.670894 0.000000
-8.351205 -7.609742 -0.642832 1249 0.741553 0.670894 0.000000
-8.351026 -7.609574 -0.639334 1247 0.741553 0.670894 0.000000
-8.351550 -7.610052 -0.635899 1247 0.741553 0.670894 0.000000
-8.351905 -7.610373 -0.632445 1243 0.741553 0.670894 0.000000
-8.351832 -7.610312 -0.628956 1249 0.741553 0.670894 0.000000
-8.351372 -7.609889 -0.625440 1239 0.741553 0.670894 0.000000
-8.351348 -7.609865 -0.621960 1247 0.741553 0.670894 0.000000
-8.351645 -7.610143 -0.618497 1243 0.741553 0.670894 0.000000
-8.351896 -7.610370 -0.615045 1245 0.741553 0.670894 0.000000
-8.351596 -7.610096 -0.611538 1237 0.741553 0.670894 0.000000
-8.351411 -7.609923 -0.608049 1237 0.741553 0.670894 0.000000
-8.351160 -7.609700 -0.604552 1247 0.741553 0.670894 0.000000
-8.351354 -7.609870 -0.601080 1237 0.741553 0.670894 0.000000
-8.351540 -7.610048 -0.597618 1251 0.741553 0.670894 0.000000
-8.350965 -7.609525 -0.594103 1243 0.741553 0.670894 0.000000
-8.350991 -7.609552 -0.590623 1249 0.741553 0.670894 0.000000
-8.351231 -7.609759 -0.587161 1257 0.741553 0.670894 0.000000
-8.351473 -7.609980 -0.583698 1249 0.741553 0.670894 0.000000
-8.351384 -7.609908 -0.580209 1241 0.741553 0.670894 0.000000
-8.351506 -7.610023 -0.576738 1249 0.741553 0.670894 0.000000
-8.351691 -7.610187 -0.573276 1253 0.741553 0.670894 0.000000
-8.351327 -7.609851 -0.569769 1247 0.741553 0.670894 0.000000
-8.350753 -7.609327 -0.566254 1245 0.741553 0.670894 0.000000
-8.351578 -7.610087 -0.562837 1273 0.741553 0.670894 0.000000
-8.352562 -7.610982 -0.559417 1283 0.741553 0.670894 0.000000
-8.351939 -7.610408 -0.555903 1279 0.741553 0.670894 0.000000
-8.350874 -7.609441 -0.552353 1253 0.741553 0.670894 0.000000
-8.350826 -7.609400 -0.548873 1249 0.741553 0.670894 0.000000
-8.351220 -7.609751 -0.545420 1249 0.741553 0.670894 0.000000
-8.351286 -7.609823 -0.541949 1257 0.741553 0.670894 0.000000
-8.351405 -7.609924 -0.538478 1265 0.741553 0.670894 0.000000
-8.351631 -7.610133 -0.535016 1255 0.741553 0.670894 0.000000
-8.351212 -7.609754 -0.531509 1259 0.741553 0.670894 0.000000
-8.350574 -7.609167 -0.527995 1251 0.741553 0.670894 0.000000
-8.350904 -7.609469 -0.524542 1243 0.741553 0.670894 0.000000
-8.351397 -7.609922 -0.521097 1247 0.741553 0.670894 0.000000
-8.351995 -7.610468 -0.517652 1269 0.741553 0.670894 0.000000
-8.352057 -7.610526 -0.514181 1265 0.741553 0.670894 0.000000
-8.351257 -7.609789 -0.510658 1255 0.741553 0.670894 0.000000
-8.351201 -7.609742 -0.507179 1245 0.741553 0.670894 0.000000
-8.352065 -7.610532 -0.503751 1249 0.741553 0.670894 0.000000
-8.352242 -7.610690 -0.500279 1259 0.741553 0.670894 0.000000
-8.351912 -7.610392 -0.496782 1257 0.741553 0.670894 0.000000
-8.351490 -7.609999 -0.493286 1237 0.741553 0.670894 0.000000
-8.351588 -7.610095 -0.489815 1249 0.741553 0.670894 0.000000
-8.351427 -7.609954 -0.486326 1249 0.741553 0.670894 0.000000
-8.350997 -7.609555 -0.482830 1239 0.741553 0.670894 0.000000
-8.351263 -7.609794 -0.479368 1247 0.741553 0.670894 0.000000
-8.351255 -7.609797 -0.475898 1243 0.741553 0.670894 0.000000
-8.351684 -7.610186 -0.472444 1257 0.741553 0.670894 0.000000
-8.352224 -7.610676 -0.468998 1257 0.741553 0.670894 0.000000
-8.351956 -7.610427 -0.465501 1257 0.741553 0.670894 0.000000
-8.351342 -7.609873 -0.461996 1251 0.741553 0.670894 0.000000
-8.351342 -7.609868 -0.458526 1245 0.741553 0.670894 0.000000
-8.351116 -7.609664 -0.455038 1245 0.741553 0.670894 0.000000
-8.350624 -7.609216 -0.451533 1245 0.741553 0.670894 0.000000
-8.351043 -7.609599 -0.448079 1251 0.741553 0.670894 0.000000
-8.351680 -7.610176 -0.444643 1257 0.741553 0.670894 0.000000
-8.352053 -7.610523 -0.441179 1257 0.741553 0.670894 0.000000
-8.352148 -7.610606 -0.437708 1247 0.741553 0.670894 0.000000
-8.352084 -7.610552 -0.434239 1259 0.741553 0.670894 0.000000
-8.351850 -7.610341 -0.430751 1251 0.741553 0.670894 0.000000
-8.352221 -7.610674 -0.427288 1243 0.741553 0.670894 0.000000
-8.352203 -7.610657 -0.423818 1237 0.741553 0.670894 0.000000
-8.351380 -7.609902 -0.420305 1241 0.741553 0.670894 0.000000
-8.351083 -7.609643 -0.416818 1251 0.741553 0.670894 0.000000
-8.351130 -7.609674 -0.413337 1245 0.741553 0.670894 0.000000
-8.351162 -7.609708 -0.409867 1233 0.741553 0.670894 0.000000
-8.351953 -7.610429 -0.406430 1245 0.741553 0.670894 0.000000
-8.352589 -7.611006 -0.402984 1259 0.741553 0.670894 0.000000
-8.352185 -7.610639 -0.399497 1263 0.741553 0.670894 0.000000
-8.351677 -7.610178 -0.395992 1257 0.741553 0.670894 0.000000
-8.351605 -7.610119 -0.392522 1263 0.741553 0.670894 0.000000
-8.351468 -7.609996 -0.389044 1253 0.741553 0.670894 0.000000
-8.351823 -7.610316 -0.385580 1253 0.741553 0.670894 0.000000
-8.351581 -7.610100 -0.382102 1251 0.741553 0.670894 0.000000
-8.351669 -7.610177 -0.378631 1255 0.741553 0.670894 0.000000
-8.352129 -7.610591 -0.375177 1251 0.741553 0.670894 0.000000
-8.352208 -7.610661 -0.371706 1271 0.741553 0.670894 0.000000
-8.351482 -7.610007 -0.368203 1257 0.741553 0.670894 0.000000
-8.351126 -7.609677 -0.364716 1245 0.741553 0.670894 0.000000
-8.351480 -7.609998 -0.361253 1243 0.741553 0.670894 0.000000
-8.351498 -7.610019 -0.357783 1245 0.741553 0.670894 0.000000
-8.351198 -7.609746 -0.354295 1243 0.741553 0.670894 0.000000
-8.351602 -7.610117 -0.350841 1247 0.741553 0.670894 0.000000
-8.351569 -7.610087 -0.347362 1249 0.741553 0.670894 0.000000
-8.351916 -7.610402 -0.343908 1247 0.741553 0.670894 0.000000
-8.352206 -7.610660 -0.340446 1239 0.741553 0.670894 0.000000
-8.352118 -7.610588 -0.336966 1243 0.741553 0.670894 0.000000
-8.352577 -7.611001 -0.333512 1255 0.741553 0.670894 0.000000
-8.352158 -7.610622 -0.330026 1253 0.741553 0.670894 0.000000
-8.351794 -7.610287 -0.326539 1255 0.741553 0.670894 0.000000
-8.352139 -7.610601 -0.323076 1261 0.741553 0.670894 0.000000
-8.351503 -7.610028 -0.319582 1245 0.741553 0.670894 0.000000
-8.351189 -7.609743 -0.316094 1241 0.741553 0.670894 0.000000
-8.351316 -7.609849 -0.312633 1253 0.741553 0.670894 0.000000
-8.351275 -7.609814 -0.309153 1257 0.741553 0.670894 0.000000
-8.351776 -7.610273 -0.305699 1255 0.741553 0.670894 0.000000
-8.353942 -7.607472 -0.695081 1245 0.741553 0.670894 0.000000
-8.354473 -7.607955 -0.691646 1249 0.741553 0.670894 0.000000
-8.354843 -7.608288 -0.688193 1247 0.741553 0.670894 0.000000
-8.354730 -7.608183 -0.684704 1257 0.741553 0.670894 0.000000
-8.353964 -7.607484 -0.681161 1263 0.741553 0.670894 0.000000
-8.353575 -7.607129 -0.677644 1247 0.741553 0.670894 0.000000
-8.353672 -7.607226 -0.674173 1239 0.741553 0.670894 0.000000
-8.353495 -7.607059 -0.670675 1251 0.741553 0.670894 0.000000
-8.353963 -7.607493 -0.667230 1257 0.741553 0.670894 0.000000
-8.354221 -7.607726 -0.663768 1259 0.741553 0.670894 0.000000
-8.353558 -7.607121 -0.660234 1247 0.741553 0.670894 0.000000
-8.353325 -7.606911 -0.656736 1243 0.741553 0.670894 0.000000
-8.353371 -7.606943 -0.653256 1233 0.741553 0.670894 0.000000
-8.353727 -7.607277 -0.649802 1255 0.741553 0.670894 0.000000
-8.353436 -7.607010 -0.646305 1249 0.741553 0.670894 0.000000
-8.352386 -7.606054 -0.642744 1243 0.741553 0.670894 0.000000
-8.352645 -7.606288 -0.639282 1245 0.741553 0.670894 0.000000
-8.353540 -7.607103 -0.635874 1249 0.741553 0.670894 0.000000
-8.353354 -7.606929 -0.632375 1249 0.741553 0.670894 0.000000
-8.353443 -7.607019 -0.628904 1255 0.741553 0.670894 0.000000
-8.354119 -7.607627 -0.625468 1253 0.741553 0.670894 0.000000
-8.353991 -7.607511 -0.621979 1243 0.741553 0.670894 0.000000
-8.353433 -7.606999 -0.618464 1221 0.741553 0.670894 0.000000
-8.354265 -7.607765 -0.615046 1241 0.741553 0.670894 0.000000
-8.354014 -7.607542 -0.611549 1251 0.741553 0.670894 0.000000
-8.353675 -7.607224 -0.608042 1249 0.741553 0.670894 0.000000
-8.354449 -7.607933 -0.604614 1249 0.741553 0.670894 0.000000
-8.354321 -7.607817 -0.601126 1255 0.741553 0.670894 0.000000
-8.353755 -7.607299 -0.597611 1245 0.741553 0.670894 0.000000
-8.353827 -7.607363 -0.594130 1249 0.741553 0.670894 0.000000
-8.352931 -7.606552 -0.590588 1259 0.741553 0.670894 0.000000
-8.351922 -7.605628 -0.587048 1239 0.741553 0.670894 0.000000
-8.353246 -7.606838 -0.583655 1233 0.741553 0.670894 0.000000
-8.354238 -7.607740 -0.580246 1249 0.741553 0.670894 0.000000
-8.353882 -7.607410 -0.576739 1251 0.741553 0.670894 0.000000
-8.353574 -7.607131 -0.573242 1257 0.741553 0.670894 0.000000
-8.353542 -7.607101 -0.569762 1247 0.741553 0.670894 0.000000
-8.353938 -7.607466 -0.566308 1255 0.741553 0.670894 0.000000
-8.354325 -7.607825 -0.562865 1261 0.741553 0.670894 0.000000
-8.354566 -7.608032 -0.559392 1261 0.741553 0.670894 0.000000
-8.354525 -7.607996 -0.555913 1267 0.741553 0.670894 0.000000
-8.353951 -7.607473 -0.552398 1267 0.741553 0.670894 0.000000
-8.353041 -7.606650 -0.548866 1255 0.741553 0.670894 0.000000
-8.353055 -7.606658 -0.545386 1257 0.741553 0.670894 0.000000
-8.353823 -7.607360 -0.541959 1261 0.741553 0.670894 0.000000
-8.354266 -7.607763 -0.538515 1267 0.741553 0.670894 0.000000
-8.353734 -7.607284 -0.534999 1271 0.741553 0.670894 0.000000
-8.352612 -7.606260 -0.531450 1253 0.741553 0.670894 0.000000
-8.352726 -7.606369 -0.527989 1241 0.741553 0.670894 0.000000
-8.353435 -7.607014 -0.524552 1251 0.741553 0.670894 0.000000
-8.353393 -7.606965 -0.521072 1261 0.741553 0.670894 0.000000
-8.353240 -7.606830 -0.517584 1251 0.741553 0.670894 0.000000
-8.353296 -7.606882 -0.514113 1235 0.741553 0.670894 0.000000
-8.353190 -7.606784 -0.510634 1237 0.741553 0.670894 0.000000
-8.353304 -7.606892 -0.507163 1237 0.741553 0.670894 0.000000
-8.354343 -7.607831 -0.503743 1249 0.741553 0.670894 0.000000
-8.354336 -7.607834 -0.500263 1243 0.741553 0.670894 0.000000
-8.353690 -7.607242 -0.496749 1257 0.741553 0.670894 0.000000
-8.353206 -7.606800 -0.493253 1253 0.741553 0.670894 0.000000
-8.353423 -7.607002 -0.489791 1241 0.741553 0.670894 0.000000
-8.353964 -7.607491 -0.486336 1251 0.741553 0.670894 0.000000
-8.353971 -7.607493 -0.482866 1259 0.741553 0.670894 0.000000
-8.353423 -7.607002 -0.479361 1253 0.741553 0.670894 0.000000
-8.353849 -7.607391 -0.475907 1253 0.741553 0.670894 0.000000
-8.354333 -7.607824 -0.472462 1255 0.741553 0.670894 0.000000
-8.354115 -7.607626 -0.468974 1261 0.741553 0.670894 0.000000
-8.354325 -7.607822 -0.465502 1261 0.741553 0.670894 0.000000
-8.353946 -7.607473 -0.462006 1263 0.741553 0.670894 0.000000
-8.353495 -7.607070 -0.458510 1247 0.741553 0.670894 0.000000
-8.353438 -7.607022 -0.455030 1247 0.741553 0.670894 0.000000
-8.353218 -7.606810 -0.451542 1245 0.741553 0.670894 0.000000
-8.353687 -7.607244 -0.448098 1249 0.741553 0.670894 0.000000
-8.353791 -7.607333 -0.444627 1245 0.741553 0.670894 0.000000
-8.353402 -7.606978 -0.441130 1237 0.741553 0.670894 0.000000
-8.352952 -7.606575 -0.437634 1239 0.741553 0.670894 0.000000
-8.353751 -7.607302 -0.434197 1257 0.741553 0.670894 0.000000
-8.354548 -7.608029 -0.430769 1259 0.741553 0.670894 0.000000
-8.354104 -7.607618 -0.427274 1255 0.741553 0.670894 0.000000
-8.353928 -7.607464 -0.423785 1247 0.741553 0.670894 0.000000
-8.353854 -7.607390 -0.420306 1255 0.741553 0.670894 0.000000
-8.353452 -7.607037 -0.416819 1251 0.741553 0.670894 0.000000
-8.354152 -7.607663 -0.413373 1257 0.741553 0.670894 0.000000
-8.354563 -7.608040 -0.409919 1255 0.741553 0.670894 0.000000
-8.353838 -7.607387 -0.406405 1239 0.741553 0.670894 0.000000
-8.353497 -7.607069 -0.402919 1237 0.741553 0.670894 0.000000
-8.353909 -7.607447 -0.399465 1247 0.741553 0.670894 0.000000
-8.353941 -7.607480 -0.395994 1239 0.741553 0.670894 0.000000
-8.353974 -7.607513 -0.392524 1251 0.741553 0.670894 0.000000
-8.353950 -7.607490 -0.389044 1257 0.741553 0.670894 0.000000
-8.354038 -7.607567 -0.385573 1245 0.741553 0.670894 0.000000
-8.354230 -7.607737 -0.382111 1265 0.741553 0.670894 0.000000
-8.354417 -7.607915 -0.378649 1263 0.741553 0.670894 0.000000
-8.354279 -7.607792 -0.375171 1271 0.741553 0.670894 0.000000
-8.353714 -7.607275 -0.371666 1247 0.741553 0.670894 0.000000
-8.353745 -7.607295 -0.368195 1237 0.741553 0.670894 0.000000
-8.354036 -7.607566 -0.364733 1245 0.741553 0.670894 0.000000
-8.354278 -7.607787 -0.361270 1251 0.741553 0.670894 0.000000
-8.353713 -7.607270 -0.357775 1247 0.741553 0.670894 0.000000
-8.353414 -7.606996 -0.354288 1241 0.741553 0.670894 0.000000
-8.353535 -7.607111 -0.350827 1235 0.741553 0.670894 0.000000
-8.353776 -7.607332 -0.347355 1253 0.741553 0.670894 0.000000
-8.353632 -7.607203 -0.343886 1255 0.741553 0.670894 0.000000
-8.353550 -7.607123 -0.340407 1245 0.741553 0.670894 0.000000
-8.354275 -7.607781 -0.336960 1251 0.741553 0.670894 0.000000
-8.355100 -7.608541 -0.333522 1263 0.741553 0.670894 0.000000
-8.354582 -7.608060 -0.330027 1243 0.741553 0.670894 0.000000
-8.353841 -7.607394 -0.326523 1235 0.741553 0.670894 0.000000
-8.353905 -7.607452 -0.323053 1253 0.741553 0.670894 0.000000
-8.354413 -7.607917 -0.319598 1251 0.741553 0.670894 0.000000
-8.354427 -7.607924 -0.316128 1257 0.741553 0.670894 0.000000
-8.354114 -7.607639 -0.312651 1263 0.741553 0.670894 0.000000
-8.353806 -7.607360 -0.309163 1249 0.741553 0.670894 0.000000
-8.354362 -7.607861 -0.305708 1253 0.741553 0.670894 0.000000
-8.355993 -7.604671 -0.695065 1239 0.741553 0.670894 0.000000
-8.356201 -7.604854 -0.691603 1227 0.741553 0.670894 0.000000
-8.356839 -7.605444 -0.688167 1253 0.741553 0.670894 0.000000
-8.356402 -7.605039 -0.684651 1237 0.741553 0.670894 0.000000
-8.356605 -7.605229 -0.681179 1249 0.741553 0.670894 0.000000
-8.356322 -7.604968 -0.677682 1255 0.741553 0.670894 0.000000
-8.356532 -7.605165 -0.674210 1247 0.741553 0.670894 0.000000
-8.356411 -7.605054 -0.670721 1245 0.741553 0.670894 0.000000
-8.355902 -7.604593 -0.667205 1253 0.741553 0.670894 0.000000
-8.355789 -7.604489 -0.663706 1241 0.741553 0.670894 0.000000
-8.355553 -7.604264 -0.660208 1243 0.741553 0.670894 0.000000
-8.355804 -7.604506 -0.656746 1249 0.741553 0.670894 0.000000
-8.356328 -7.604982 -0.653311 1251 0.741553 0.670894 0.000000
-8.356860 -7.605465 -0.649866 1261 0.741553 0.670894 0.000000
-8.356732 -7.605349 -0.646377 1253 0.741553 0.670894 0.000000
-8.356125 -7.604787 -0.642853 1237 0.741553 0.670894 0.000000
-8.355558 -7.604269 -0.639328 1235 0.741553 0.670894 0.000000
-8.355803 -7.604505 -0.635866 1253 0.741553 0.670894 0.000000
-8.356544 -7.605174 -0.632439 1259 0.741553 0.670894 0.000000
-8.355713 -7.604413 -0.628896 1253 0.741553 0.670894 0.000000
-8.355520 -7.604248 -0.625408 1247 0.741553 0.670894 0.000000
-8.356149 -7.604818 -0.621972 1259 0.741553 0.670894 0.000000
-8.355800 -7.604494 -0.618465 1239 0.741553 0.670894 0.000000
-8.356042 -7.604715 -0.615003 1233 0.741553 0.670894 0.000000
-8.356566 -7.605192 -0.611558 1239 0.741553 0.670894 0.000000
