693
-14.867902 -13.883302 -0.689645 1123 0.733306 0.679899 0.000000
-14.868054 -13.883442 -0.683404 1129 0.733306 0.679899 0.000000
-14.867498 -13.882930 -0.677119 1107 0.733306 0.679899 0.000000
-14.867277 -13.882723 -0.670861 1111 0.733306 0.679899 0.000000
-14.866458 -13.881965 -0.664568 1113 0.733306 0.679899 0.000000
-14.866661 -13.882156 -0.658326 1115 0.733306 0.679899 0.000000
-14.866965 -13.882443 -0.652083 1101 0.733306 0.679899 0.000000
-14.867105 -13.882571 -0.645841 1107 0.733306 0.679899 0.000000
-14.867297 -13.882757 -0.639589 1109 0.733306 0.679899 0.000000
-14.867490 -13.882928 -0.633348 1131 0.733306 0.679899 0.000000
-14.867086 -13.882564 -0.627081 1131 0.733306 0.679899 0.000000
-14.867121 -13.882596 -0.620831 1133 0.733306 0.679899 0.000000
-14.867522 -13.882973 -0.614597 1133 0.733306 0.679899 0.000000
-14.867818 -13.883238 -0.608354 1125 0.733306 0.679899 0.000000
-14.868062 -13.883477 -0.602111 1131 0.733306 0.679899 0.000000
-14.867435 -13.882895 -0.595837 1133 0.733306 0.679899 0.000000
-14.867301 -13.882770 -0.589578 1127 0.733306 0.679899 0.000000
-14.867534 -13.882986 -0.583336 1123 0.733306 0.679899 0.000000
-14.867289 -13.882760 -0.577068 1117 0.733306 0.679899 0.000000
-14.867092 -13.882572 -0.570810 1123 0.733306 0.679899 0.000000
-14.867380 -13.882845 -0.564567 1115 0.733306 0.679899 0.000000
-14.867981 -13.883404 -0.558341 1137 0.733306 0.679899 0.000000
-14.867569 -13.883020 -0.552075 1111 0.733306 0.679899 0.000000
-14.867476 -13.882939 -0.545826 1119 0.733306 0.679899 0.000000
-14.866570 -13.882099 -0.539534 1121 0.733306 0.679899 0.000000
-14.866211 -13.881758 -0.533277 1119 0.733306 0.679899 0.000000
-14.866700 -13.882215 -0.527042 1115 0.733306 0.679899 0.000000
-14.867023 -13.882528 -0.520799 1109 0.733306 0.679899 0.000000
-14.866658 -13.882180 -0.514542 1119 0.733306 0.679899 0.000000
-14.866709 -13.882240 -0.508292 1115 0.733306 0.679899 0.000000
-14.867516 -13.882988 -0.502064 1103 0.733306 0.679899 0.000000
-14.867255 -13.882750 -0.495806 1107 0.733306 0.679899 0.000000
-14.866931 -13.882447 -0.489549 1121 0.733306 0.679899 0.000000
-14.867571 -13.883037 -0.483323 1119 0.733306 0.679899 0.000000
-14.867789 -13.883242 -0.477071 1125 0.733306 0.679899 0.000000
-14.867400 -13.882889 -0.470814 1127 0.733306 0.679899 0.000000
-14.866923 -13.882440 -0.464549 1113 0.733306 0.679899 0.000000
-14.866327 -13.881884 -0.458284 1119 0.733306 0.679899 0.000000
-14.865885 -13.881474 -0.452018 1097 0.733306 0.679899 0.000000
-14.865982 -13.881571 -0.445777 1117 0.733306 0.679899 0.000000
-14.865754 -13.881357 -0.439519 1131 0.733306 0.679899 0.000000
-14.865746 -13.881345 -0.433269 1131 0.733306 0.679899 0.000000
-14.866421 -13.881989 -0.427042 1131 0.733306 0.679899 0.000000
-14.866517 -13.882072 -0.420791 1121 0.733306 0.679899 0.000000
-14.865811 -13.881415 -0.414528 1117 0.733306 0.679899 0.000000
-14.865573 -13.881195 -0.408270 1123 0.733306 0.679899 0.000000
-14.865664 -13.881286 -0.402019 1125 0.733306 0.679899 0.000000
-14.865267 -13.880913 -0.395763 1137 0.733306 0.679899 0.000000
-14.865029 -13.880692 -0.389515 1137 0.733306 0.679899 0.000000
-14.865591 -13.881221 -0.383279 1121 0.733306 0.679899 0.000000
-14.866207 -13.881791 -0.377043 1121 0.733306 0.679899 0.000000
-14.865915 -13.881529 -0.370786 1111 0.733306 0.679899 0.000000
-14.865933 -13.881549 -0.364545 1107 0.733306 0.679899 0.000000
-14.865800 -13.881424 -0.358287 1099 0.733306 0.679899 0.000000
-14.865555 -13.881197 -0.352039 1095 0.733306 0.679899 0.000000
-14.866163 -13.881763 -0.345803 1103 0.733306 0.679899 0.000000
-14.866078 -13.881689 -0.339554 1107 0.733306 0.679899 0.000000
-14.865515 -13.881158 -0.333289 1117 0.733306 0.679899 0.000000
-14.864727 -13.880424 -0.327026 1105 0.733306 0.679899 0.000000
-14.864635 -13.880343 -0.320777 1109 0.733306 0.679899 0.000000
-14.864699 -13.880403 -0.314536 1109 0.733306 0.679899 0.000000
-14.864448 -13.880171 -0.308278 1105 0.733306 0.679899 0.000000
-14.865310 -13.880976 -0.302050 1097 0.733306 0.679899 0.000000
-14.872574 -13.878826 -0.689664 1119 0.733306 0.679899 0.000000
-14.872400 -13.878669 -0.683396 1115 0.733306 0.679899 0.000000
-14.871430 -13.877765 -0.677105 1099 0.733306 0.679899 0.000000
-14.872381 -13.878654 -0.670886 1113 0.733306 0.679899 0.000000
-14.872258 -13.878549 -0.664627 1103 0.733306 0.679899 0.000000
-14.871222 -13.877581 -0.658336 1095 0.733306 0.679899 0.000000
-14.872230 -13.878512 -0.652127 1115 0.733306 0.679899 0.000000
-14.871993 -13.878305 -0.645859 1117 0.733306 0.679899 0.000000
-14.871484 -13.877831 -0.639583 1119 0.733306 0.679899 0.000000
-14.872005 -13.878315 -0.633358 1131 0.733306 0.679899 0.000000
-14.871927 -13.878247 -0.627099 1125 0.733306 0.679899 0.000000
-14.872009 -13.878318 -0.620848 1121 0.733306 0.679899 0.000000
-14.872245 -13.878549 -0.614606 1123 0.733306 0.679899 0.000000
-14.872063 -13.878372 -0.608347 1131 0.733306 0.679899 0.000000
-14.871770 -13.878108 -0.602080 1107 0.733306 0.679899 0.000000
-14.871683 -13.878019 -0.595830 1107 0.733306 0.679899 0.000000
-14.871590 -13.877939 -0.589571 1117 0.733306 0.679899 0.000000
-14.871570 -13.877916 -0.583321 1123 0.733306 0.679899 0.000000
-14.871858 -13.878190 -0.577078 1113 0.733306 0.679899 0.000000
-14.871494 -13.877856 -0.570812 1115 0.733306 0.679899 0.000000
-14.870930 -13.877325 -0.564547 1115 0.733306 0.679899 0.000000
-14.871163 -13.877542 -0.558304 1117 0.733306 0.679899 0.000000
-14.871284 -13.877658 -0.552053 1125 0.733306 0.679899 0.000000
-14.870968 -13.877362 -0.545786 1105 0.733306 0.679899 0.000000
-14.871196 -13.877586 -0.539544 1111 0.733306 0.679899 0.000000
-14.871254 -13.877639 -0.533303 1133 0.733306 0.679899 0.000000
-14.871591 -13.877950 -0.527060 1119 0.733306 0.679899 0.000000
-14.871433 -13.877807 -0.520801 1123 0.733306 0.679899 0.000000
-14.871061 -13.877466 -0.514544 1131 0.733306 0.679899 0.000000
-14.870958 -13.877365 -0.508285 1115 0.733306 0.679899 0.000000
-14.870753 -13.877170 -0.502027 1111 0.733306 0.679899 0.000000
-14.871180 -13.877579 -0.495793 1127 0.733306 0.679899 0.000000
-14.871500 -13.877877 -0.489560 1113 0.733306 0.679899 0.000000
-14.871223 -13.877625 -0.483292 1129 0.733306 0.679899 0.000000
-14.870962 -13.877373 -0.477034 1123 0.733306 0.679899 0.000000
-14.870742 -13.877179 -0.470786 1129 0.733306 0.679899 0.000000
-14.871057 -13.877473 -0.464543 1119 0.733306 0.679899 0.000000
-14.871473 -13.877861 -0.458309 1109 0.733306 0.679899 0.000000
-14.870933 -13.877348 -0.452044 1139 0.733306 0.679899 0.000000
-14.870280 -13.876748 -0.445770 1131 0.733306 0.679899 0.000000
-14.869947 -13.876439 -0.439513 1119 0.733306 0.679899 0.000000
-14.870309 -13.876784 -0.433279 1123 0.733306 0.679899 0.000000
-14.870081 -13.876571 -0.427021 1107 0.733306 0.679899 0.000000
-14.870122 -13.876610 -0.420771 1105 0.733306 0.679899 0.000000
-14.870955 -13.877391 -0.414543 1107 0.733306 0.679899 0.000000
-14.870781 -13.877220 -0.408294 1109 0.733306 0.679899 0.000000
-14.869913 -13.876410 -0.402022 1109 0.733306 0.679899 0.000000
-14.870051 -13.876539 -0.395771 1119 0.733306 0.679899 0.000000
-14.870558 -13.877024 -0.389536 1119 0.733306 0.679899 0.000000
-14.870264 -13.876745 -0.383289 1117 0.733306 0.679899 0.000000
-14.869916 -13.876425 -0.377032 1129 0.733306 0.679899 0.000000
-14.869790 -13.876306 -0.370773 1129 0.733306 0.679899 0.000000
-14.869807 -13.876326 -0.364532 1119 0.733306 0.679899 0.000000
-14.870370 -13.876854 -0.358297 1107 0.733306 0.679899 0.000000
-14.870604 -13.877070 -0.352055 1121 0.733306 0.679899 0.000000
-14.869553 -13.876090 -0.345784 1113 0.733306 0.679899 0.000000
-14.868988 -13.875572 -0.339519 1097 0.733306 0.679899 0.000000
-14.870021 -13.876538 -0.333300 1121 0.733306 0.679899 0.000000
-14.870732 -13.877198 -0.327063 1133 0.733306 0.679899 0.000000
-14.870750 -13.877219 -0.320812 1125 0.733306 0.679899 0.000000
-14.869963 -13.876486 -0.314550 1113 0.733306 0.679899 0.000000
-14.868960 -13.875543 -0.308289 1101 0.733306 0.679899 0.000000
-14.869450 -13.876014 -0.302044 1103 0.733306 0.679899 0.000000
-14.876171 -13.873358 -0.689624 1107 0.733306 0.679899 0.000000
-14.875582 -13.872807 -0.683349 1121 0.733306 0.679899 0.000000
-14.875840 -13.873043 -0.677107 1117 0.733306 0.679899 0.000000
-14.876247 -13.873424 -0.670873 1129 0.733306 0.679899 0.000000
-14.875589 -13.872819 -0.664589 1101 0.733306 0.679899 0.000000
-14.876381 -13.873554 -0.658371 1121 0.733306 0.679899 0.000000
-14.876423 -13.873593 -0.652121 1115 0.733306 0.679899 0.000000
-14.875757 -13.872983 -0.645837 1115 0.733306 0.679899 0.000000
-14.875837 -13.873053 -0.639586 1117 0.733306 0.679899 0.000000
-14.875769 -13.872991 -0.633326 1099 0.733306 0.679899 0.000000
-14.876066 -13.873272 -0.627093 1093 0.733306 0.679899 0.000000
-14.876890 -13.874046 -0.620875 1123 0.733306 0.679899 0.000000
-14.877403 -13.874523 -0.614640 1107 0.733306 0.679899 0.000000
-14.876957 -13.874099 -0.608365 1117 0.733306 0.679899 0.000000
-14.876275 -13.873474 -0.602091 1135 0.733306 0.679899 0.000000
-14.876619 -13.873792 -0.595847 1149 0.733306 0.679899 0.000000
-14.876120 -13.873325 -0.589582 1119 0.733306 0.679899 0.000000
-14.875818 -13.873041 -0.583315 1135 0.733306 0.679899 0.000000
-14.876475 -13.873658 -0.577088 1143 0.733306 0.679899 0.000000
-14.876493 -13.873678 -0.570838 1111 0.733306 0.679899 0.000000
-14.876191 -13.873394 -0.564571 1119 0.733306 0.679899 0.000000
-14.876148 -13.873365 -0.558321 1131 0.733306 0.679899 0.000000
-14.875782 -13.873018 -0.552054 1119 0.733306 0.679899 0.000000
-14.875211 -13.872495 -0.545789 1135 0.733306 0.679899 0.000000
-14.875547 -13.872806 -0.539546 1123 0.733306 0.679899 0.000000
-14.875886 -13.873118 -0.533313 1129 0.733306 0.679899 0.000000
-14.875465 -13.872727 -0.527046 1131 0.733306 0.679899 0.000000
-14.875682 -13.872931 -0.520804 1117 0.733306 0.679899 0.000000
-14.876809 -13.873983 -0.514584 1133 0.733306 0.679899 0.000000
-14.877076 -13.874240 -0.508351 1121 0.733306 0.679899 0.000000
-14.876281 -13.873501 -0.502068 1115 0.733306 0.679899 0.000000
-14.875478 -13.872755 -0.495795 1109 0.733306 0.679899 0.000000
-14.875263 -13.872553 -0.489537 1101 0.733306 0.679899 0.000000
-14.876008 -13.873252 -0.483310 1123 0.733306 0.679899 0.000000
-14.876018 -13.873252 -0.477060 1133 0.733306 0.679899 0.000000
-14.875310 -13.872595 -0.470787 1135 0.733306 0.679899 0.000000
-14.875458 -13.872744 -0.464545 1119 0.733306 0.679899 0.000000
-14.874821 -13.872143 -0.458271 1111 0.733306 0.679899 0.000000
-14.874225 -13.871586 -0.452006 1107 0.733306 0.679899 0.000000
-14.874690 -13.872025 -0.445772 1129 0.733306 0.679899 0.000000
-14.874941 -13.872269 -0.439529 1123 0.733306 0.679899 0.000000
-14.875245 -13.872556 -0.433296 1129 0.733306 0.679899 0.000000
-14.875072 -13.872386 -0.427038 1129 0.733306 0.679899 0.000000
-14.875808 -13.873078 -0.420811 1097 0.733306 0.679899 0.000000
-14.875420 -13.872712 -0.414544 1091 0.733306 0.679899 0.000000
-14.874600 -13.871954 -0.408282 1117 0.733306 0.679899 0.000000
-14.874578 -13.871929 -0.402032 1115 0.733306 0.679899 0.000000
-14.874660 -13.872014 -0.395781 1119 0.733306 0.679899 0.000000
-14.874697 -13.872048 -0.389540 1125 0.733306 0.679899 0.000000
-14.874347 -13.871726 -0.383283 1129 0.733306 0.679899 0.000000
-14.874589 -13.871949 -0.377041 1133 0.733306 0.679899 0.000000
-14.874935 -13.872281 -0.370798 1135 0.733306 0.679899 0.000000
-14.874906 -13.872251 -0.364548 1113 0.733306 0.679899 0.000000
-14.875146 -13.872474 -0.358305 1117 0.733306 0.679899 0.000000
-14.874902 -13.872248 -0.352047 1105 0.733306 0.679899 0.000000
-14.875295 -13.872618 -0.345814 1133 0.733306 0.679899 0.000000
-14.875001 -13.872339 -0.339556 1121 0.733306 0.679899 0.000000
-14.873847 -13.871264 -0.333287 1115 0.733306 0.679899 0.000000
-14.873690 -13.871119 -0.327038 1109 0.733306 0.679899 0.000000
-14.873334 -13.870791 -0.320781 1109 0.733306 0.679899 0.000000
-14.873511 -13.870966 -0.314539 1105 0.733306 0.679899 0.000000
-14.874215 -13.871619 -0.308303 1117 0.733306 0.679899 0.000000
-14.873803 -13.871235 -0.302046 1111 0.733306 0.679899 0.000000
-14.879130 -13.867612 -0.689568 1123 0.733306 0.679899 0.000000
-14.880513 -13.868907 -0.683375 1121 0.733306 0.679899 0.000000
-14.881410 -13.869739 -0.677166 1123 0.733306 0.679899 0.000000
-14.880813 -13.869183 -0.670881 1111 0.733306 0.679899 0.000000
-14.880473 -13.868867 -0.664614 1099 0.733306 0.679899 0.000000
-14.880992 -13.869349 -0.658389 1113 0.733306 0.679899 0.000000
-14.880549 -13.868940 -0.652113 1103 0.733306 0.679899 0.000000
-14.879570 -13.868030 -0.645822 1123 0.733306 0.679899 0.000000
-14.879867 -13.868310 -0.639579 1131 0.733306 0.679899 0.000000
-14.880651 -13.869040 -0.633362 1133 0.733306 0.679899 0.000000
-14.880191 -13.868617 -0.627086 1117 0.733306 0.679899 0.000000
-14.880116 -13.868550 -0.620827 1119 0.733306 0.679899 0.000000
-14.880037 -13.868482 -0.614577 1111 0.733306 0.679899 0.000000
-14.879370 -13.867856 -0.608293 1119 0.733306 0.679899 0.000000
-14.879555 -13.868035 -0.602051 1143 0.733306 0.679899 0.000000
-14.880116 -13.868549 -0.595826 1141 0.733306 0.679899 0.000000
-14.880079 -13.868526 -0.589566 1131 0.733306 0.679899 0.000000
-14.880050 -13.868496 -0.583316 1133 0.733306 0.679899 0.000000
-14.880019 -13.868465 -0.577067 1115 0.733306 0.679899 0.000000
-14.880356 -13.868777 -0.570823 1109 0.733306 0.679899 0.000000
-14.880637 -13.869045 -0.564580 1119 0.733306 0.679899 0.000000
-14.879859 -13.868320 -0.558308 1103 0.733306 0.679899 0.000000
-14.880028 -13.868485 -0.552056 1131 0.733306 0.679899 0.000000
-14.880414 -13.868848 -0.545822 1131 0.733306 0.679899 0.000000
-14.879619 -13.868109 -0.539539 1129 0.733306 0.679899 0.000000
-14.878943 -13.867477 -0.533265 1145 0.733306 0.679899 0.000000
-14.879057 -13.867585 -0.527024 1145 0.733306 0.679899 0.000000
-14.880288 -13.868734 -0.520813 1111 0.733306 0.679899 0.000000
-14.881254 -13.869635 -0.514593 1131 0.733306 0.679899 0.000000
-14.880515 -13.868939 -0.508320 1125 0.733306 0.679899 0.000000
-14.879394 -13.867903 -0.502030 1135 0.733306 0.679899 0.000000
-14.879228 -13.867752 -0.495782 1127 0.733306 0.679899 0.000000
-14.879286 -13.867804 -0.489531 1109 0.733306 0.679899 0.000000
-14.879552 -13.868060 -0.483289 1105 0.733306 0.679899 0.000000
-14.880415 -13.868853 -0.477070 1135 0.733306 0.679899 0.000000
-14.880130 -13.868594 -0.470813 1129 0.733306 0.679899 0.000000
-14.879814 -13.868299 -0.464546 1129 0.733306 0.679899 0.000000
-14.879960 -13.868446 -0.458304 1147 0.733306 0.679899 0.000000
-14.880217 -13.868682 -0.452062 1125 0.733306 0.679899 0.000000
-14.880316 -13.868780 -0.445810 1121 0.733306 0.679899 0.000000
-14.879935 -13.868420 -0.439554 1117 0.733306 0.679899 0.000000
-14.879116 -13.867661 -0.433281 1113 0.733306 0.679899 0.000000
-14.878888 -13.867448 -0.427023 1115 0.733306 0.679899 0.000000
-14.878546 -13.867132 -0.420766 1113 0.733306 0.679899 0.000000
-14.878317 -13.866919 -0.414518 1119 0.733306 0.679899 0.000000
-14.878463 -13.867053 -0.408267 1107 0.733306 0.679899 0.000000
-14.878331 -13.866942 -0.402018 1131 0.733306 0.679899 0.000000
-14.878204 -13.866822 -0.395769 1121 0.733306 0.679899 0.000000
-14.878078 -13.866703 -0.389520 1121 0.733306 0.679899 0.000000
-14.877683 -13.866330 -0.383254 1113 0.733306 0.679899 0.000000
-14.877758 -13.866409 -0.377013 1103 0.733306 0.679899 0.000000
-14.878270 -13.866886 -0.370778 1119 0.733306 0.679899 0.000000
-14.878448 -13.867059 -0.364536 1127 0.733306 0.679899 0.000000
-14.879065 -13.867630 -0.358300 1125 0.733306 0.679899 0.000000
-14.878181 -13.866808 -0.352028 1125 0.733306 0.679899 0.000000
-14.877242 -13.865929 -0.345767 1117 0.733306 0.679899 0.000000
-14.878273 -13.866893 -0.339537 1111 0.733306 0.679899 0.000000
-14.878882 -13.867473 -0.333301 1113 0.733306 0.679899 0.000000
-14.878796 -13.867384 -0.327052 1117 0.733306 0.679899 0.000000
-14.878433 -13.867052 -0.320795 1123 0.733306 0.679899 0.000000
-14.878172 -13.866813 -0.314547 1115 0.733306 0.679899 0.000000
-14.877656 -13.866333 -0.308292 1113 0.733306 0.679899 0.000000
-14.877235 -13.865941 -0.302036 1121 0.733306 0.679899 0.000000
-14.885404 -13.864968 -0.689660 1119 0.733306 0.679899 0.000000
-14.884536 -13.864159 -0.683368 1101 0.733306 0.679899 0.000000
-14.884093 -13.863750 -0.677092 1117 0.733306 0.679899 0.000000
-14.884142 -13.863794 -0.670842 1097 0.733306 0.679899 0.000000
-14.883801 -13.863480 -0.664575 1109 0.733306 0.679899 0.000000
-14.883676 -13.863360 -0.658316 1111 0.733306 0.679899 0.000000
-14.884517 -13.864148 -0.652108 1117 0.733306 0.679899 0.000000
-14.884072 -13.863737 -0.645832 1117 0.733306 0.679899 0.000000
-14.883843 -13.863524 -0.639574 1125 0.733306 0.679899 0.000000
-14.883981 -13.863651 -0.633322 1107 0.733306 0.679899 0.000000
-14.884542 -13.864180 -0.627097 1109 0.733306 0.679899 0.000000
-14.885269 -13.864852 -0.620870 1123 0.733306 0.679899 0.000000
-14.884919 -13.864530 -0.614603 1111 0.733306 0.679899 0.000000
-14.884731 -13.864362 -0.608345 1131 0.733306 0.679899 0.000000
-14.884009 -13.863693 -0.602061 1137 0.733306 0.679899 0.000000
-14.883020 -13.862761 -0.595770 1119 0.733306 0.679899 0.000000
-14.883623 -13.863335 -0.589545 1129 0.733306 0.679899 0.000000
-14.884295 -13.863949 -0.583318 1129 0.733306 0.679899 0.000000
-14.884464 -13.864118 -0.577076 1103 0.733306 0.679899 0.000000
-14.884492 -13.864144 -0.570826 1117 0.733306 0.679899 0.000000
-14.883384 -13.863105 -0.564536 1107 0.733306 0.679899 0.000000
-14.883657 -13.863367 -0.558293 1113 0.733306 0.679899 0.000000
-14.884371 -13.864041 -0.552067 1119 0.733306 0.679899 0.000000
-14.883686 -13.863402 -0.545793 1117 0.733306 0.679899 0.000000
-14.883856 -13.863556 -0.539541 1125 0.733306 0.679899 0.000000
-14.884514 -13.864173 -0.533315 1141 0.733306 0.679899 0.000000
-14.884474 -13.864135 -0.527065 1123 0.733306 0.679899 0.000000
-14.883943 -13.863644 -0.520800 1111 0.733306 0.679899 0.000000
-14.883301 -13.863050 -0.514526 1103 0.733306 0.679899 0.000000
-14.883517 -13.863255 -0.508283 1121 0.733306 0.679899 0.000000
-14.884381 -13.864060 -0.502065 1125 0.733306 0.679899 0.000000
-14.884111 -13.863802 -0.495798 1111 0.733306 0.679899 0.000000
-14.882878 -13.862663 -0.489509 1119 0.733306 0.679899 0.000000
-14.883096 -13.862867 -0.483267 1135 0.733306 0.679899 0.000000
-14.884375 -13.864054 -0.477065 1139 0.733306 0.679899 0.000000
-14.885223 -13.864848 -0.470837 1135 0.733306 0.679899 0.000000
-14.884580 -13.864254 -0.464562 1131 0.733306 0.679899 0.000000
-14.883345 -13.863102 -0.458284 1119 0.733306 0.679899 0.000000
-14.883601 -13.863338 -0.452041 1097 0.733306 0.679899 0.000000
-14.883811 -13.863536 -0.445799 1113 0.733306 0.679899 0.000000
-14.883631 -13.863374 -0.439541 1123 0.733306 0.679899 0.000000
-14.883561 -13.863312 -0.433291 1131 0.733306 0.679899 0.000000
-14.883979 -13.863700 -0.427057 1129 0.733306 0.679899 0.000000
-14.883964 -13.863682 -0.420807 1117 0.733306 0.679899 0.000000
-14.883680 -13.863424 -0.414550 1119 0.733306 0.679899 0.000000
-14.883442 -13.863204 -0.408292 1127 0.733306 0.679899 0.000000
-14.883110 -13.862895 -0.402035 1125 0.733306 0.679899 0.000000
-14.882713 -13.862522 -0.395778 1123 0.733306 0.679899 0.000000
-14.882636 -13.862455 -0.389529 1139 0.733306 0.679899 0.000000
-14.883523 -13.863279 -0.383300 1117 0.733306 0.679899 0.000000
-14.884197 -13.863909 -0.377064 1127 0.733306 0.679899 0.000000
-14.883202 -13.862986 -0.370793 1107 0.733306 0.679899 0.000000
-14.883068 -13.862860 -0.364544 1099 0.733306 0.679899 0.000000
-14.883461 -13.863229 -0.358310 1111 0.733306 0.679899 0.000000
-14.883434 -13.863214 -0.352060 1111 0.733306 0.679899 0.000000
-14.883992 -13.863728 -0.345825 1123 0.733306 0.679899 0.000000
-14.883150 -13.862949 -0.339553 1131 0.733306 0.679899 0.000000
-14.881886 -13.861773 -0.333284 1111 0.733306 0.679899 0.000000
-14.882070 -13.861939 -0.327033 1113 0.733306 0.679899 0.000000
-14.882879 -13.862702 -0.320805 1103 0.733306 0.679899 0.000000
-14.882944 -13.862761 -0.314564 1113 0.733306 0.679899 0.000000
-14.882365 -13.862231 -0.308299 1123 0.733306 0.679899 0.000000
-14.882590 -13.862441 -0.302057 1117 0.733306 0.679899 0.000000
-14.888459 -13.858993 -0.689605 1113 0.733306 0.679899 0.000000
-14.887065 -13.857688 -0.683288 1101 0.733306 0.679899 0.000000
-14.887426 -13.858032 -0.677054 1107 0.733306 0.679899 0.000000
-14.888806 -13.859313 -0.670861 1097 0.733306 0.679899 0.000000
-14.889224 -13.859701 -0.664627 1099 0.733306 0.679899 0.000000
-14.888772 -13.859284 -0.658351 1093 0.733306 0.679899 0.000000
-14.888918 -13.859419 -0.652110 1119 0.733306 0.679899 0.000000
-14.889279 -13.859763 -0.645866 1123 0.733306 0.679899 0.000000
-14.888820 -13.859341 -0.639600 1123 0.733306 0.679899 0.000000
-14.888854 -13.859374 -0.633340 1117 0.733306 0.679899 0.000000
-14.889310 -13.859793 -0.627115 1117 0.733306 0.679899 0.000000
-14.889026 -13.859535 -0.620848 1139 0.733306 0.679899 0.000000
-14.888629 -13.859163 -0.614581 1113 0.733306 0.679899 0.000000
-14.888441 -13.858994 -0.608323 1125 0.733306 0.679899 0.000000
-14.888299 -13.858862 -0.602064 1105 0.733306 0.679899 0.000000
-14.888484 -13.859028 -0.595812 1099 0.733306 0.679899 0.000000
-14.888400 -13.858954 -0.589563 1127 0.733306 0.679899 0.000000
-14.889015 -13.859526 -0.583337 1121 0.733306 0.679899 0.000000
-14.888333 -13.858901 -0.577053 1117 0.733306 0.679899 0.000000
-14.887337 -13.857965 -0.570772 1115 0.733306 0.679899 0.000000
-14.888416 -13.858980 -0.564562 1115 0.733306 0.679899 0.000000
-14.888379 -13.858944 -0.558302 1107 0.733306 0.679899 0.000000
-14.887753 -13.858363 -0.552028 1107 0.733306 0.679899 0.000000
-14.888949 -13.859472 -0.545827 1121 0.733306 0.679899 0.000000
-14.889599 -13.860083 -0.539590 1133 0.733306 0.679899 0.000000
-14.888700 -13.859248 -0.533309 1121 0.733306 0.679899 0.000000
-14.888015 -13.858609 -0.527035 1109 0.733306 0.679899 0.000000
-14.888344 -13.858914 -0.520802 1123 0.733306 0.679899 0.000000
-14.888937 -13.859468 -0.514566 1105 0.733306 0.679899 0.000000
-14.889212 -13.859729 -0.508323 1117 0.733306 0.679899 0.000000
-14.889102 -13.859623 -0.502074 1123 0.733306 0.679899 0.000000
-14.889208 -13.859726 -0.495823 1137 0.733306 0.679899 0.000000
-14.888724 -13.859284 -0.489557 1115 0.733306 0.679899 0.000000
-14.888024 -13.858634 -0.483284 1115 0.733306 0.679899 0.000000
-14.887597 -13.858236 -0.477028 1105 0.733306 0.679899 0.000000
-14.888182 -13.858784 -0.470792 1121 0.733306 0.679899 0.000000
-14.888494 -13.859076 -0.464559 1127 0.733306 0.679899 0.000000
-14.888273 -13.858869 -0.458301 1125 0.733306 0.679899 0.000000
-14.888212 -13.858813 -0.452051 1117 0.733306 0.679899 0.000000
-14.888475 -13.859055 -0.445809 1119 0.733306 0.679899 0.000000
-14.888727 -13.859299 -0.439566 1119 0.733306 0.679899 0.000000
-14.888936 -13.859483 -0.433324 1115 0.733306 0.679899 0.000000
-14.888865 -13.859421 -0.427065 1123 0.733306 0.679899 0.000000
-14.888741 -13.859315 -0.420816 1121 0.733306 0.679899 0.000000
-14.888456 -13.859044 -0.414558 1103 0.733306 0.679899 0.000000
-14.887478 -13.858134 -0.408287 1109 0.733306 0.679899 0.000000
-14.887401 -13.858066 -0.402038 1105 0.733306 0.679899 0.000000
-14.888551 -13.859138 -0.395817 1123 0.733306 0.679899 0.000000
-14.888060 -13.858677 -0.389551 1111 0.733306 0.679899 0.000000
-14.887766 -13.858412 -0.383294 1131 0.733306 0.679899 0.000000
-14.888703 -13.859289 -0.377075 1129 0.733306 0.679899 0.000000
-14.888721 -13.859309 -0.370824 1141 0.733306 0.679899 0.000000
-14.887366 -13.858036 -0.364547 1125 0.733306 0.679899 0.000000
-14.886311 -13.857064 -0.358267 1113 0.733306 0.679899 0.000000
-14.886495 -13.857230 -0.352025 1111 0.733306 0.679899 0.000000
-14.886895 -13.857605 -0.345791 1123 0.733306 0.679899 0.000000
-14.887017 -13.857720 -0.339550 1107 0.733306 0.679899 0.000000
-14.887995 -13.858643 -0.333320 1113 0.733306 0.679899 0.000000
-14.888068 -13.858706 -0.327070 1119 0.733306 0.679899 0.000000
-14.887176 -13.857878 -0.320808 1097 0.733306 0.679899 0.000000
-14.886978 -13.857690 -0.314559 1093 0.733306 0.679899 0.000000
-14.888169 -13.858806 -0.308328 1105 0.733306 0.679899 0.000000
-14.889090 -13.859656 -0.302099 1121 0.733306 0.679899 0.000000
-14.893182 -13.854890 -0.689632 1105 0.733306 0.679899 0.000000
-14.893064 -13.854776 -0.683373 1099 0.733306 0.679899 0.000000
-14.893585 -13.855272 -0.677138 1125 0.733306 0.679899 0.000000
-14.893682 -13.855355 -0.670887 1113 0.733306 0.679899 0.000000
-14.892815 -13.854547 -0.664595 1099 0.733306 0.679899 0.000000
-14.892746 -13.854486 -0.658345 1105 0.733306 0.679899 0.000000
-14.893314 -13.855019 -0.652110 1113 0.733306 0.679899 0.000000
-14.893245 -13.854957 -0.645860 1103 0.733306 0.679899 0.000000
-14.893702 -13.855375 -0.639626 1109 0.733306 0.679899 0.000000
-14.893791 -13.855466 -0.633375 1103 0.733306 0.679899 0.000000
-14.893827 -13.855500 -0.627124 1117 0.733306 0.679899 0.000000
-14.892992 -13.854730 -0.620832 1113 0.733306 0.679899 0.000000
-14.892707 -13.854459 -0.614575 1111 0.733306 0.679899 0.000000
-14.892671 -13.854436 -0.608325 1109 0.733306 0.679899 0.000000
-14.893341 -13.855050 -0.602098 1125 0.733306 0.679899 0.000000
-14.894053 -13.855724 -0.595872 1131 0.733306 0.679899 0.000000
-14.892851 -13.854598 -0.589573 1113 0.733306 0.679899 0.000000
-14.892503 -13.854276 -0.583306 1089 0.733306 0.679899 0.000000
-14.892888 -13.854639 -0.577072 1111 0.733306 0.679899 0.000000
-14.893232 -13.854957 -0.570829 1121 0.733306 0.679899 0.000000
-14.892815 -13.854581 -0.564562 1113 0.733306 0.679899 0.000000
-14.892942 -13.854689 -0.558321 1101 0.733306 0.679899 0.000000
-14.893385 -13.855109 -0.552087 1111 0.733306 0.679899 0.000000
-14.893131 -13.854876 -0.545819 1135 0.733306 0.679899 0.000000
-14.893413 -13.855130 -0.539586 1119 0.733306 0.679899 0.000000
-14.892888 -13.854644 -0.533311 1113 0.733306 0.679899 0.000000
-14.892086 -13.853912 -0.527038 1113 0.733306 0.679899 0.000000
-14.892366 -13.854166 -0.520796 1131 0.733306 0.679899 0.000000
-14.891883 -13.853724 -0.514530 1121 0.733306 0.679899 0.000000
-14.892267 -13.854074 -0.508286 1141 0.733306 0.679899 0.000000
-14.892749 -13.854526 -0.502051 1121 0.733306 0.679899 0.000000
-14.892423 -13.854222 -0.495794 1115 0.733306 0.679899 0.000000
-14.892426 -13.854231 -0.489544 1117 0.733306 0.679899 0.000000
-14.892747 -13.854530 -0.483301 1105 0.733306 0.679899 0.000000
-14.893596 -13.855324 -0.477083 1115 0.733306 0.679899 0.000000
-14.893494 -13.855224 -0.470824 1117 0.733306 0.679899 0.000000
-14.892570 -13.854370 -0.464552 1115 0.733306 0.679899 0.000000
-14.891657 -13.853523 -0.458271 1095 0.733306 0.679899 0.000000
-14.891436 -13.853316 -0.452023 1097 0.733306 0.679899 0.000000
-14.892124 -13.853957 -0.445786 1107 0.733306 0.679899 0.000000
-14.893179 -13.854941 -0.439566 1103 0.733306 0.679899 0.000000
-14.893818 -13.855532 -0.433340 1117 0.733306 0.679899 0.000000
-14.893367 -13.855115 -0.427074 1125 0.733306 0.679899 0.000000
-14.892220 -13.854059 -0.420794 1109 0.733306 0.679899 0.000000
-14.891994 -13.853847 -0.414546 1107 0.733306 0.679899 0.000000
-14.892035 -13.853885 -0.408296 1109 0.733306 0.679899 0.000000
-14.891958 -13.853818 -0.402046 1129 0.733306 0.679899 0.000000
-14.892309 -13.854141 -0.395803 1145 0.733306 0.679899 0.000000
-14.892345 -13.854176 -0.389552 1127 0.733306 0.679899 0.000000
-14.891995 -13.853853 -0.383296 1119 0.733306 0.679899 0.000000
-14.892023 -13.853881 -0.377055 1133 0.733306 0.679899 0.000000
-14.892320 -13.854161 -0.370812 1105 0.733306 0.679899 0.000000
-14.891973 -13.853841 -0.364555 1093 0.733306 0.679899 0.000000
-14.891671 -13.853557 -0.358298 1105 0.733306 0.679899 0.000000
-14.892231 -13.854083 -0.352063 1121 0.733306 0.679899 0.000000
-14.892242 -13.854098 -0.345812 1115 0.733306 0.679899 0.000000
-14.891789 -13.853668 -0.339556 1097 0.733306 0.679899 0.000000
-14.891856 -13.853742 -0.333316 1111 0.733306 0.679899 0.000000
-14.891554 -13.853457 -0.327058 1109 0.733306 0.679899 0.000000
-14.892003 -13.853870 -0.320824 1107 0.733306 0.679899 0.000000
-14.892278 -13.854132 -0.314581 1113 0.733306 0.679899 0.000000
-14.892247 -13.854101 -0.308331 1111 0.733306 0.679899 0.000000
-14.892035 -13.853913 -0.302073 1117 0.733306 0.679899 0.000000
-14.897093 -13.850039 -0.689617 1095 0.733306 0.679899 0.000000
-14.898204 -13.851080 -0.683416 1105 0.733306 0.679899 0.000000
-14.898946 -13.851765 -0.677189 1133 0.733306 0.679899 0.000000
-14.898447 -13.851312 -0.670914 1121 0.733306 0.679899 0.000000
-14.897517 -13.850451 -0.664622 1091 0.733306 0.679899 0.000000
-14.896650 -13.849643 -0.658330 1107 0.733306 0.679899 0.000000
-14.897121 -13.850074 -0.652096 1107 0.733306 0.679899 0.000000
-14.897254 -13.850210 -0.645854 1105 0.733306 0.679899 0.000000
-14.897287 -13.850244 -0.639604 1101 0.733306 0.679899 0.000000
-14.898397 -13.851271 -0.633393 1117 0.733306 0.679899 0.000000
-14.899021 -13.851848 -0.627167 1115 0.733306 0.679899 0.000000
-14.898722 -13.851579 -0.620900 1121 0.733306 0.679899 0.000000
-14.897727 -13.850655 -0.614609 1111 0.733306 0.679899 0.000000
-14.897553 -13.850484 -0.608351 1101 0.733306 0.679899 0.000000
-14.897995 -13.850904 -0.602116 1127 0.733306 0.679899 0.000000
-14.897654 -13.850589 -0.595849 1115 0.733306 0.679899 0.000000
-14.897138 -13.850109 -0.589574 1095 0.733306 0.679899 0.000000
-14.897204 -13.850168 -0.583323 1097 0.733306 0.679899 0.000000
-14.896528 -13.849549 -0.577049 1115 0.733306 0.679899 0.000000
-14.896660 -13.849671 -0.570808 1101 0.733306 0.679899 0.000000
-14.897641 -13.850585 -0.564589 1131 0.733306 0.679899 0.000000
-14.897659 -13.850593 -0.558338 1133 0.733306 0.679899 0.000000
-14.897933 -13.850854 -0.552096 1127 0.733306 0.679899 0.000000
-14.898382 -13.851267 -0.545861 1129 0.733306 0.679899 0.000000
-14.898170 -13.851079 -0.539603 1125 0.733306 0.679899 0.000000
-14.898180 -13.851093 -0.533353 1129 0.733306 0.679899 0.000000
-14.897983 -13.850905 -0.527095 1125 0.733306 0.679899 0.000000
-14.897228 -13.850210 -0.520821 1119 0.733306 0.679899 0.000000
-14.897134 -13.850117 -0.514562 1109 0.733306 0.679899 0.000000
-14.897936 -13.850873 -0.508344 1109 0.733306 0.679899 0.000000
-14.897251 -13.850234 -0.502071 1125 0.733306 0.679899 0.000000
-14.896494 -13.849525 -0.495788 1117 0.733306 0.679899 0.000000
-14.896067 -13.849129 -0.489532 1111 0.733306 0.679899 0.000000
-14.896172 -13.849231 -0.483280 1105 0.733306 0.679899 0.000000
-14.897188 -13.850183 -0.477061 1121 0.733306 0.679899 0.000000
-14.897292 -13.850272 -0.470820 1107 0.733306 0.679899 0.000000
-14.897441 -13.850422 -0.464568 1109 0.733306 0.679899 0.000000
-14.896740 -13.849770 -0.458304 1085 0.733306 0.679899 0.000000
-14.896679 -13.849714 -0.452055 1099 0.733306 0.679899 0.000000
-14.896936 -13.849951 -0.445812 1127 0.733306 0.679899 0.000000
-14.896716 -13.849744 -0.439554 1107 0.733306 0.679899 0.000000
-14.897028 -13.850036 -0.433311 1111 0.733306 0.679899 0.000000
-14.897223 -13.850223 -0.427069 1107 0.733306 0.679899 0.000000
-14.896778 -13.849813 -0.420803 1121 0.733306 0.679899 0.000000
-14.896390 -13.849445 -0.414547 1109 0.733306 0.679899 0.000000
-14.895730 -13.848840 -0.408283 1105 0.733306 0.679899 0.000000
-14.895868 -13.848968 -0.402041 1113 0.733306 0.679899 0.000000
-14.896804 -13.849844 -0.395812 1111 0.733306 0.679899 0.000000
-14.897754 -13.850718 -0.389583 1119 0.733306 0.679899 0.000000
-14.897670 -13.850645 -0.383334 1121 0.733306 0.679899 0.000000
-14.896947 -13.849975 -0.377071 1119 0.733306 0.679899 0.000000
-14.896335 -13.849406 -0.370806 1113 0.733306 0.679899 0.000000
-14.895876 -13.848985 -0.364550 1105 0.733306 0.679899 0.000000
-14.895845 -13.848954 -0.358300 1117 0.733306 0.679899 0.000000
-14.895870 -13.848980 -0.352050 1107 0.733306 0.679899 0.000000
-14.896265 -13.849350 -0.345816 1103 0.733306 0.679899 0.000000
-14.896395 -13.849472 -0.339565 1093 0.733306 0.679899 0.000000
-14.896467 -13.849536 -0.333324 1097 0.733306 0.679899 0.000000
-14.896160 -13.849260 -0.327067 1105 0.733306 0.679899 0.000000
-14.895858 -13.848976 -0.320809 1097 0.733306 0.679899 0.000000
-14.897217 -13.850238 -0.314597 1113 0.733306 0.679899 0.000000
-14.897059 -13.850094 -0.308348 1113 0.733306 0.679899 0.000000
-14.896170 -13.849266 -0.302076 1119 0.733306 0.679899 0.000000
-14.902070 -13.845858 -0.689643 1107 0.733306 0.679899 0.000000
-14.902280 -13.846055 -0.683401 1103 0.733306 0.679899 0.000000
-14.902001 -13.845789 -0.677134 1091 0.733306 0.679899 0.000000
-14.902154 -13.845929 -0.670882 1105 0.733306 0.679899 0.000000
-14.902135 -13.845920 -0.664632 1101 0.733306 0.679899 0.000000
-14.902119 -13.845901 -0.658382 1109 0.733306 0.679899 0.000000
-14.902210 -13.845992 -0.652131 1105 0.733306 0.679899 0.000000
-14.902508 -13.846272 -0.645888 1111 0.733306 0.679899 0.000000
-14.901959 -13.845754 -0.639613 1093 0.733306 0.679899 0.000000
-14.901721 -13.845533 -0.633345 1095 0.733306 0.679899 0.000000
-14.902237 -13.846025 -0.627120 1101 0.733306 0.679899 0.000000
-14.902102 -13.845899 -0.620861 1101 0.733306 0.679899 0.000000
-14.901649 -13.845483 -0.614585 1103 0.733306 0.679899 0.000000
-14.901781 -13.845605 -0.608344 1105 0.733306 0.679899 0.000000
-14.902347 -13.846124 -0.602109 1107 0.733306 0.679899 0.000000
-14.902581 -13.846342 -0.595866 1107 0.733306 0.679899 0.000000
-14.902607 -13.846369 -0.589616 1093 0.733306 0.679899 0.000000
-14.902363 -13.846143 -0.583358 1115 0.733306 0.679899 0.000000
-14.901258 -13.845119 -0.577068 1123 0.733306 0.679899 0.000000
-14.901540 -13.845387 -0.570825 1125 0.733306 0.679899 0.000000
-14.902466 -13.846243 -0.564607 1109 0.733306 0.679899 0.000000
-14.901941 -13.845757 -0.558331 1111 0.733306 0.679899 0.000000
-14.901362 -13.845226 -0.552067 1111 0.733306 0.679899 0.000000
-14.902401 -13.846185 -0.545847 1113 0.733306 0.679899 0.000000
-14.901981 -13.845807 -0.539580 1107 0.733306 0.679899 0.000000
-14.900810 -13.844719 -0.533291 1125 0.733306 0.679899 0.000000
-14.902059 -13.845880 -0.527079 1121 0.733306 0.679899 0.000000
-14.902969 -13.846723 -0.520861 1127 0.733306 0.679899 0.000000
-14.901695 -13.845540 -0.514573 1119 0.733306 0.679899 0.000000
-14.900669 -13.844592 -0.508282 1119 0.733306 0.679899 0.000000
-14.900847 -13.844751 -0.502040 1101 0.733306 0.679899 0.000000
-14.901751 -13.845603 -0.495822 1101 0.733306 0.679899 0.000000
-14.903044 -13.846800 -0.489609 1113 0.733306 0.679899 0.000000
-14.902072 -13.845896 -0.483328 1111 0.733306 0.679899 0.000000
-14.900887 -13.844795 -0.477049 1077 0.733306 0.679899 0.000000
-14.901097 -13.844994 -0.470797 1093 0.733306 0.679899 0.000000
-14.901258 -13.845140 -0.464555 1111 0.733306 0.679899 0.000000
-14.901621 -13.845486 -0.458322 1111 0.733306 0.679899 0.000000
-14.901774 -13.845627 -0.452070 1101 0.733306 0.679899 0.000000
-14.901552 -13.845418 -0.445812 1103 0.733306 0.679899 0.000000
-14.901754 -13.845610 -0.439570 1101 0.733306 0.679899 0.000000
-14.901734 -13.845600 -0.433320 1107 0.733306 0.679899 0.000000
-14.901617 -13.845488 -0.427071 1111 0.733306 0.679899 0.000000
-14.900851 -13.844772 -0.420798 1117 0.733306 0.679899 0.000000
-14.900409 -13.844363 -0.414542 1115 0.733306 0.679899 0.000000
-14.901297 -13.845201 -0.408314 1111 0.733306 0.679899 0.000000
-14.902087 -13.845922 -0.402086 1113 0.733306 0.679899 0.000000
-14.902274 -13.846103 -0.395844 1125 0.733306 0.679899 0.000000
-14.901295 -13.845192 -0.389563 1117 0.733306 0.679899 0.000000
-14.901211 -13.845119 -0.383314 1131 0.733306 0.679899 0.000000
-14.901133 -13.845050 -0.377064 1105 0.733306 0.679899 0.000000
-14.901423 -13.845325 -0.370822 1111 0.733306 0.679899 0.000000
-14.901344 -13.845243 -0.364572 1111 0.733306 0.679899 0.000000
-14.901370 -13.845269 -0.358332 1123 0.733306 0.679899 0.000000
-14.901023 -13.844949 -0.352075 1107 0.733306 0.679899 0.000000
-14.900452 -13.844425 -0.345810 1095 0.733306 0.679899 0.000000
-14.900685 -13.844644 -0.339568 1087 0.733306 0.679899 0.000000
-14.901132 -13.845055 -0.333333 1109 0.733306 0.679899 0.000000
-14.901095 -13.845018 -0.327084 1087 0.733306 0.679899 0.000000
-14.900413 -13.844395 -0.320820 1085 0.733306 0.679899 0.000000
-14.900743 -13.844700 -0.314577 1097 0.733306 0.679899 0.000000
-14.901565 -13.845461 -0.308349 1113 0.733306 0.679899 0.000000
-14.901201 -13.845127 -0.302092 1137 0.733306 0.679899 0.000000
-14.907298 -13.842065 -0.689687 1101 0.733306 0.679899 0.000000
-14.907340 -13.842104 -0.683436 1099 0.733306 0.679899 0.000000
-14.906960 -13.841744 -0.677160 1095 0.733306 0.679899 0.000000
-14.907209 -13.841988 -0.670917 1089 0.733306 0.679899 0.000000
-14.907363 -13.842128 -0.664675 1089 0.733306 0.679899 0.000000
-14.907611 -13.842357 -0.658433 1113 0.733306 0.679899 0.000000
-14.906898 -13.841694 -0.652149 1105 0.733306 0.679899 0.000000
-14.906293 -13.841131 -0.645865 1113 0.733306 0.679899 0.000000
-14.906542 -13.841360 -0.639623 1101 0.733306 0.679899 0.000000
-14.906194 -13.841040 -0.633356 1103 0.733306 0.679899 0.000000
-14.906275 -13.841124 -0.627105 1093 0.733306 0.679899 0.000000
-14.907220 -13.842007 -0.620896 1111 0.733306 0.679899 0.000000
-14.907564 -13.842324 -0.614652 1085 0.733306 0.679899 0.000000
-14.907438 -13.842206 -0.608403 1087 0.733306 0.679899 0.000000
-14.907139 -13.841935 -0.602136 1109 0.733306 0.679899 0.000000
-14.906575 -13.841404 -0.595861 1085 0.733306 0.679899 0.000000
-14.907351 -13.842128 -0.589634 1107 0.733306 0.679899 0.000000
-14.906348 -13.841198 -0.583343 1111 0.733306 0.679899 0.000000
-14.904971 -13.839921 -0.577046 1107 0.733306 0.679899 0.000000
-14.906066 -13.840936 -0.570835 1109 0.733306 0.679899 0.000000
-14.906673 -13.841500 -0.564600 1111 0.733306 0.679899 0.000000
-14.906685 -13.841516 -0.558349 1117 0.733306 0.679899 0.000000
-14.907078 -13.841885 -0.552115 1123 0.733306 0.679899 0.000000
-14.907200 -13.842001 -0.545864 1131 0.733306 0.679899 0.000000
-14.906618 -13.841456 -0.539599 1113 0.733306 0.679899 0.000000
-14.905770 -13.840674 -0.533317 1101 0.733306 0.679899 0.000000
-14.905452 -13.840377 -0.527050 1109 0.733306 0.679899 0.000000
-14.905566 -13.840487 -0.520809 1111 0.733306 0.679899 0.000000
-14.906054 -13.840944 -0.514574 1121 0.733306 0.679899 0.000000
-14.906225 -13.841098 -0.508332 1121 0.733306 0.679899 0.000000
-14.905533 -13.840453 -0.502059 1085 0.733306 0.679899 0.000000
-14.905749 -13.840657 -0.495816 1101 0.733306 0.679899 0.000000
-14.905633 -13.840557 -0.489557 1109 0.733306 0.679899 0.000000
-14.905531 -13.840458 -0.483308 1091 0.733306 0.679899 0.000000
-14.905742 -13.840655 -0.477066 1101 0.733306 0.679899 0.000000
-14.905354 -13.840303 -0.470799 1105 0.733306 0.679899 0.000000
-14.905301 -13.840255 -0.464550 1117 0.733306 0.679899 0.000000
-14.905078 -13.840046 -0.458292 1101 0.733306 0.679899 0.000000
-14.904802 -13.839795 -0.452034 1093 0.733306 0.679899 0.000000
-14.904517 -13.839524 -0.445777 1087 0.733306 0.679899 0.000000
-14.905422 -13.840376 -0.439558 1103 0.733306 0.679899 0.000000
-14.906963 -13.841808 -0.433354 1115 0.733306 0.679899 0.000000
-14.906359 -13.841246 -0.427089 1131 0.733306 0.679899 0.000000
-14.905380 -13.840336 -0.420808 1111 0.733306 0.679899 0.000000
-14.904834 -13.839831 -0.414543 1105 0.733306 0.679899 0.000000
-14.904970 -13.839958 -0.408302 1105 0.733306 0.679899 0.000000
-14.906130 -13.841038 -0.402081 1121 0.733306 0.679899 0.000000
-14.905843 -13.840765 -0.395823 1125 0.733306 0.679899 0.000000
-14.905281 -13.840249 -0.389558 1107 0.733306 0.679899 0.000000
-14.905577 -13.840528 -0.383325 1103 0.733306 0.679899 0.000000
-14.905660 -13.840599 -0.377074 1101 0.733306 0.679899 0.000000
-14.905471 -13.840430 -0.370826 1113 0.733306 0.679899 0.000000
-14.905505 -13.840464 -0.364576 1099 0.733306 0.679899 0.000000
-14.905787 -13.840732 -0.358333 1103 0.733306 0.679899 0.000000
-14.905065 -13.840062 -0.352069 1099 0.733306 0.679899 0.000000
-14.905089 -13.840075 -0.345819 1109 0.733306 0.679899 0.000000
-14.906072 -13.840989 -0.339590 1109 0.733306 0.679899 0.000000
-14.905652 -13.840611 -0.333333 1117 0.733306 0.679899 0.000000
-14.905026 -13.840032 -0.327079 1119 0.733306 0.679899 0.000000
-14.904986 -13.839993 -0.320829 1109 0.733306 0.679899 0.000000
-14.904847 -13.839863 -0.314580 1103 0.733306 0.679899 0.000000
-14.904809 -13.839827 -0.308331 1107 0.733306 0.679899 0.000000
-14.904979 -13.839993 -0.302079 1111 0.733306 0.679899 0.000000
-14.910402 -13.836460 -0.689639 1111 0.733306 0.679899 0.000000
-14.910988 -13.837008 -0.683413 1109 0.733306 0.679899 0.000000
-14.911237 -13.837236 -0.677171 1099 0.733306 0.679899 0.000000
-14.911286 -13.837282 -0.670920 1099 0.733306 0.679899 0.000000
-14.911106 -13.837120 -0.664652 1097 0.733306 0.679899 0.000000
-14.910709 -13.836747 -0.658385 1097 0.733306 0.679899 0.000000
-14.910322 -13.836394 -0.652119 1093 0.733306 0.679899 0.000000
-14.910460 -13.836523 -0.645867 1075 0.733306 0.679899 0.000000
-14.910931 -13.836954 -0.639633 1099 0.733306 0.679899 0.000000
-14.910640 -13.836691 -0.633365 1093 0.733306 0.679899 0.000000
-14.910826 -13.836870 -0.627124 1097 0.733306 0.679899 0.000000
-14.911074 -13.837098 -0.620881 1101 0.733306 0.679899 0.000000
-14.910780 -13.836821 -0.614614 1073 0.733306 0.679899 0.000000
-14.911397 -13.837394 -0.608388 1109 0.733306 0.679899 0.000000
-14.911424 -13.837420 -0.602137 1109 0.733306 0.679899 0.000000
-14.910525 -13.836598 -0.595856 1099 0.733306 0.679899 0.000000
-14.910558 -13.836617 -0.589595 1099 0.733306 0.679899 0.000000
-14.910689 -13.836741 -0.583354 1109 0.733306 0.679899 0.000000
-14.910333 -13.836413 -0.577087 1105 0.733306 0.679899 0.000000
-14.910183 -13.836276 -0.570828 1099 0.733306 0.679899 0.000000
-14.910044 -13.836159 -0.564579 1099 0.733306 0.679899 0.000000
-14.910435 -13.836513 -0.558336 1103 0.733306 0.679899 0.000000
-14.910981 -13.837029 -0.552110 1125 0.733306 0.679899 0.000000
-14.911047 -13.837087 -0.545860 1099 0.733306 0.679899 0.000000
-14.911007 -13.837049 -0.539600 1099 0.733306 0.679899 0.000000
-14.911019 -13.837065 -0.533350 1091 0.733306 0.679899 0.000000
-14.910757 -13.836825 -0.527092 1091 0.733306 0.679899 0.000000
-14.911302 -13.837326 -0.520857 1099 0.733306 0.679899 0.000000
-14.911679 -13.837684 -0.514623 1117 0.733306 0.679899 0.000000
-14.910933 -13.836995 -0.508350 1105 0.733306 0.679899 0.000000
-14.909756 -13.835902 -0.502060 1111 0.733306 0.679899 0.000000
-14.909867 -13.835997 -0.495809 1101 0.733306 0.679899 0.000000
-14.910620 -13.836701 -0.489582 1103 0.733306 0.679899 0.000000
-14.910502 -13.836602 -0.483333 1099 0.733306 0.679899 0.000000
-14.909694 -13.835852 -0.477060 1085 0.733306 0.679899 0.000000
-14.910126 -13.836251 -0.470816 1091 0.733306 0.679899 0.000000
-14.910550 -13.836646 -0.464582 1099 0.733306 0.679899 0.000000
-14.910703 -13.836786 -0.458341 1127 0.733306 0.679899 0.000000
-14.910268 -13.836383 -0.452075 1099 0.733306 0.679899 0.000000
-14.910246 -13.836372 -0.445825 1103 0.733306 0.679899 0.000000
-14.910409 -13.836520 -0.439583 1115 0.733306 0.679899 0.000000
-14.910553 -13.836653 -0.433331 1127 0.733306 0.679899 0.000000
-14.910955 -13.837029 -0.427097 1107 0.733306 0.679899 0.000000
-14.911004 -13.837074 -0.420847 1107 0.733306 0.679899 0.000000
-14.910935 -13.837012 -0.414597 1109 0.733306 0.679899 0.000000
-14.910858 -13.836946 -0.408348 1115 0.733306 0.679899 0.000000
-14.909872 -13.836028 -0.402067 1099 0.733306 0.679899 0.000000
-14.909108 -13.835314 -0.395804 1093 0.733306 0.679899 0.000000
-14.909558 -13.835740 -0.389570 1109 0.733306 0.679899 0.000000
-14.910190 -13.836325 -0.383334 1103 0.733306 0.679899 0.000000
-14.909945 -13.836098 -0.377076 1109 0.733306 0.679899 0.000000
-14.909436 -13.835624 -0.370820 1095 0.733306 0.679899 0.000000
-14.909838 -13.835999 -0.364576 1089 0.733306 0.679899 0.000000
-14.910279 -13.836420 -0.358342 1107 0.733306 0.679899 0.000000
-14.909564 -13.835756 -0.352079 1099 0.733306 0.679899 0.000000
-14.908930 -13.835170 -0.345814 1095 0.733306 0.679899 0.000000
-14.908795 -13.835044 -0.339566 1085 0.733306 0.679899 0.000000
-14.909355 -13.835559 -0.333330 1089 0.733306 0.679899 0.000000
-14.909860 -13.836028 -0.327085 1121 0.733306 0.679899 0.000000
-14.909432 -13.835645 -0.320829 1097 0.733306 0.679899 0.000000
-14.909186 -13.835404 -0.314581 1091 0.733306 0.679899 0.000000
-14.908927 -13.835167 -0.308324 1093 0.733306 0.679899 0.000000
-14.909160 -13.835382 -0.302081 1107 0.733306 0.679899 0.000000
