312
-23.747889 -23.469011 -0.648732 1165 0.704056 0.710145 0.000000
-23.748392 -23.469517 -0.638487 1159 0.704056 0.710145 0.000000
-23.748331 -23.469452 -0.628227 1149 0.704055 0.710145 0.000000
-23.747845 -23.468975 -0.617961 1153 0.704056 0.710145 0.000000
-23.748089 -23.469208 -0.607709 1145 0.704056 0.710145 0.000000
-23.748009 -23.469139 -0.597449 1165 0.704056 0.710145 0.000000
-23.747101 -23.468245 -0.587168 1145 0.704056 0.710145 0.000000
-23.747017 -23.468159 -0.576908 1159 0.704056 0.710145 0.000000
-23.748123 -23.469254 -0.566678 1171 0.704055 0.710145 0.000000
-23.748465 -23.469593 -0.556434 1167 0.704056 0.710145 0.000000
-23.749262 -23.470385 -0.546196 1151 0.704056 0.710145 0.000000
-23.749378 -23.470497 -0.535945 1161 0.704056 0.710145 0.000000
-23.747776 -23.468910 -0.525650 1173 0.704055 0.710145 0.000000
-23.747801 -23.468943 -0.515389 1157 0.704056 0.710145 0.000000
-23.748388 -23.469519 -0.505154 1153 0.704056 0.710145 0.000000
-23.749170 -23.470299 -0.494916 1143 0.704056 0.710145 0.000000
-23.750532 -23.471630 -0.484683 1177 0.704056 0.710145 0.000000
-23.749332 -23.470448 -0.474404 1169 0.704056 0.710145 0.000000
-23.748289 -23.469421 -0.464123 1153 0.704056 0.710145 0.000000
-23.748699 -23.469835 -0.453879 1149 0.704056 0.710145 0.000000
-23.748329 -23.469471 -0.443613 1153 0.704056 0.710145 0.000000
-23.747957 -23.469103 -0.433356 1169 0.704056 0.710145 0.000000
-23.747593 -23.468731 -0.423089 1151 0.704056 0.710145 0.000000
-23.747368 -23.468517 -0.412831 1169 0.704056 0.710145 0.000000
-23.747253 -23.468407 -0.402572 1171 0.704056 0.710145 0.000000
-23.747545 -23.468693 -0.392329 1177 0.704056 0.710145 0.000000
-23.748468 -23.469604 -0.382090 1165 0.704056 0.710145 0.000000
-23.748716 -23.469852 -0.371837 1159 0.704056 0.710145 0.000000
-23.749102 -23.470234 -0.361583 1175 0.704056 0.710145 0.000000
-23.750164 -23.471289 -0.351353 1177 0.704056 0.710145 0.000000
-23.749630 -23.470758 -0.341088 1177 0.704056 0.710145 0.000000
-23.750055 -23.471184 -0.330833 1177 0.704055 0.710145 0.000000
-23.750862 -23.471983 -0.320595 1167 0.704055 0.710145 0.000000
-23.749739 -23.470863 -0.310326 1157 0.704056 0.710145 0.000000
-23.750380 -23.471498 -0.300080 1157 0.704055 0.710145 0.000000
-23.750244 -23.471371 -0.289821 1145 0.704056 0.710145 0.000000
-23.748177 -23.469322 -0.279540 1169 0.704056 0.710145 0.000000
-23.749168 -23.470306 -0.269291 1155 0.704056 0.710145 0.000000
-23.750105 -23.471241 -0.259051 1141 0.704056 0.710145 0.000000
-23.755619 -23.462030 -0.648742 1169 0.704055 0.710145 0.000000
-23.755287 -23.461699 -0.638485 1181 0.704056 0.710145 0.000000
-23.755905 -23.462313 -0.628239 1163 0.704055 0.710145 0.000000
-23.755510 -23.461929 -0.617972 1163 0.704056 0.710145 0.000000
-23.755541 -23.461954 -0.607712 1155 0.704055 0.710145 0.000000
-23.755573 -23.461983 -0.597461 1169 0.704055 0.710145 0.000000
-23.755959 -23.462376 -0.587217 1177 0.704055 0.710145 0.000000
-23.757406 -23.463795 -0.576993 1191 0.704055 0.710145 0.000000
-23.756950 -23.463345 -0.566727 1183 0.704056 0.710145 0.000000
-23.755629 -23.462044 -0.556430 1185 0.704056 0.710145 0.000000
-23.754543 -23.460972 -0.546150 1167 0.704056 0.710145 0.000000
-23.755033 -23.461462 -0.535905 1155 0.704056 0.710145 0.000000
-23.755623 -23.462042 -0.525669 1155 0.704055 0.710145 0.000000
-23.755846 -23.462254 -0.515417 1173 0.704056 0.710145 0.000000
-23.756311 -23.462729 -0.505172 1175 0.704055 0.710145 0.000000
-23.756163 -23.462578 -0.494913 1175 0.704056 0.710145 0.000000
-23.755281 -23.461700 -0.484631 1161 0.704056 0.710145 0.000000
-23.755018 -23.461454 -0.474374 1179 0.704056 0.710145 0.000000
-23.755808 -23.462225 -0.464136 1175 0.704056 0.710145 0.000000
-23.756466 -23.462889 -0.453889 1167 0.704056 0.710145 0.000000
-23.756475 -23.462896 -0.443639 1179 0.704056 0.710145 0.000000
-23.755276 -23.461712 -0.433360 1179 0.704055 0.710145 0.000000
-23.755114 -23.461550 -0.423102 1161 0.704056 0.710145 0.000000
-23.755463 -23.461897 -0.412848 1153 0.704055 0.710145 0.000000
-23.755812 -23.462244 -0.402604 1163 0.704056 0.710145 0.000000
-23.755331 -23.461761 -0.392339 1163 0.704055 0.710145 0.000000
-23.755207 -23.461645 -0.382080 1141 0.704055 0.710145 0.000000
-23.755865 -23.462290 -0.371833 1157 0.704055 0.710145 0.000000
-23.755842 -23.462275 -0.361583 1153 0.704055 0.710145 0.000000
-23.756075 -23.462509 -0.351331 1169 0.704056 0.710145 0.000000
-23.757149 -23.463562 -0.341090 1187 0.704056 0.710145 0.000000
-23.756964 -23.463379 -0.330832 1167 0.704056 0.710145 0.000000
-23.757498 -23.463911 -0.320586 1143 0.704056 0.710145 0.000000
-23.757778 -23.464186 -0.310333 1143 0.704056 0.710145 0.000000
-23.756338 -23.462774 -0.300057 1147 0.704056 0.710145 0.000000
-23.757082 -23.463507 -0.289819 1157 0.704056 0.710145 0.000000
-23.756989 -23.463415 -0.279560 1147 0.704056 0.710145 0.000000
-23.756008 -23.462442 -0.269289 1145 0.704056 0.710145 0.000000
-23.757421 -23.463833 -0.259055 1157 0.704055 0.710145 0.000000
-23.764074 -23.455757 -0.648785 1175 0.704056 0.710145 0.000000
-23.764894 -23.456570 -0.638547 1167 0.704056 0.710145 0.000000
-23.764511 -23.456190 -0.628281 1165 0.704056 0.710145 0.000000
-23.763456 -23.455145 -0.617991 1141 0.704055 0.710145 0.000000
-23.763634 -23.455320 -0.607739 1143 0.704056 0.710145 0.000000
-23.762985 -23.454681 -0.597465 1147 0.704056 0.710145 0.000000
-23.763231 -23.454931 -0.587212 1157 0.704056 0.710145 0.000000
-23.762529 -23.454231 -0.576938 1187 0.704056 0.710145 0.000000
-23.762707 -23.454409 -0.566687 1187 0.704056 0.710145 0.000000
-23.763561 -23.455261 -0.556458 1197 0.704056 0.710145 0.000000
-23.763891 -23.455582 -0.546205 1175 0.704056 0.710145 0.000000
-23.764210 -23.455902 -0.535951 1167 0.704055 0.710145 0.000000
-23.763800 -23.455505 -0.525685 1163 0.704056 0.710145 0.000000
-23.764549 -23.456242 -0.515448 1163 0.704056 0.710145 0.000000
-23.764080 -23.455782 -0.505182 1183 0.704056 0.710145 0.000000
-23.763468 -23.455173 -0.494917 1177 0.704056 0.710145 0.000000
-23.764782 -23.456467 -0.484685 1173 0.704055 0.710145 0.000000
-23.764311 -23.456005 -0.474419 1167 0.704056 0.710145 0.000000
-23.763432 -23.455143 -0.464147 1167 0.704056 0.710145 0.000000
-23.763685 -23.455385 -0.453894 1169 0.704056 0.710145 0.000000
-23.763725 -23.455431 -0.443644 1179 0.704056 0.710145 0.000000
-23.763678 -23.455378 -0.433384 1165 0.704056 0.710145 0.000000
-23.763617 -23.455328 -0.423124 1179 0.704056 0.710145 0.000000
-23.762564 -23.454283 -0.412854 1139 0.704056 0.710145 0.000000
-23.763592 -23.455294 -0.402614 1153 0.704055 0.710145 0.000000
-23.764568 -23.456264 -0.392375 1167 0.704056 0.710145 0.000000
-23.763611 -23.455324 -0.382103 1153 0.704056 0.710145 0.000000
-23.763485 -23.455193 -0.371844 1159 0.704056 0.710145 0.000000
-23.764654 -23.456350 -0.361613 1175 0.704056 0.710145 0.000000
-23.764221 -23.455921 -0.351347 1163 0.704055 0.710145 0.000000
-23.762054 -23.453789 -0.341057 1165 0.704056 0.710145 0.000000
-23.762234 -23.453968 -0.330805 1163 0.704056 0.710145 0.000000
-23.763510 -23.455231 -0.320573 1171 0.704056 0.710145 0.000000
-23.764679 -23.456373 -0.310332 1155 0.704055 0.710145 0.000000
-23.764416 -23.456127 -0.300074 1157 0.704055 0.710145 0.000000
-23.763193 -23.454908 -0.289805 1147 0.704056 0.710145 0.000000
-23.762375 -23.454115 -0.279543 1143 0.704056 0.710145 0.000000
-23.763931 -23.455652 -0.269308 1169 0.704056 0.710145 0.000000
-23.764263 -23.455973 -0.259054 1151 0.704056 0.710145 0.000000
-23.770578 -23.447285 -0.648759 1151 0.704055 0.710145 0.000000
-23.770510 -23.447227 -0.638499 1159 0.704055 0.710145 0.000000
-23.771950 -23.448639 -0.628285 1141 0.704056 0.710145 0.000000
-23.771786 -23.448477 -0.618016 1153 0.704055 0.710145 0.000000
-23.770239 -23.446959 -0.607721 1149 0.704056 0.710145 0.000000
-23.770123 -23.446836 -0.597462 1153 0.704056 0.710145 0.000000
-23.770157 -23.446878 -0.587211 1151 0.704056 0.710145 0.000000
-23.769342 -23.446072 -0.576929 1173 0.704055 0.710145 0.000000
-23.769669 -23.446402 -0.566685 1155 0.704056 0.710145 0.000000
-23.771147 -23.447861 -0.556461 1171 0.704056 0.710145 0.000000
-23.772005 -23.448704 -0.546223 1191 0.704055 0.710145 0.000000
-23.771441 -23.448149 -0.535958 1155 0.704056 0.710145 0.000000
-23.770420 -23.447144 -0.525677 1147 0.704056 0.710145 0.000000
-23.770546 -23.447260 -0.515426 1171 0.704055 0.710145 0.000000
-23.769400 -23.446138 -0.505137 1161 0.704056 0.710145 0.000000
-23.770241 -23.446966 -0.494898 1167 0.704056 0.710145 0.000000
-23.771757 -23.448458 -0.484684 1175 0.704055 0.710145 0.000000
-23.771395 -23.448099 -0.474417 1157 0.704055 0.710145 0.000000
-23.770149 -23.446877 -0.464139 1167 0.704056 0.710145 0.000000
-23.769361 -23.446106 -0.453866 1141 0.704056 0.710145 0.000000
-23.771700 -23.448410 -0.443653 1157 0.704056 0.710145 0.000000
-23.772161 -23.448868 -0.433408 1169 0.704056 0.710145 0.000000
-23.769812 -23.446541 -0.423111 1155 0.704056 0.710145 0.000000
-23.769632 -23.446379 -0.412852 1157 0.704055 0.710145 0.000000
-23.771080 -23.447796 -0.402618 1171 0.704056 0.710145 0.000000
-23.771637 -23.448347 -0.392373 1165 0.704056 0.710145 0.000000
-23.771780 -23.448494 -0.382121 1183 0.704056 0.710145 0.000000
-23.771126 -23.447851 -0.371857 1159 0.704056 0.710145 0.000000
-23.771273 -23.447989 -0.361605 1167 0.704056 0.710145 0.000000
-23.771406 -23.448128 -0.351354 1159 0.704056 0.710145 0.000000
-23.770649 -23.447384 -0.341081 1141 0.704056 0.710145 0.000000
-23.770920 -23.447653 -0.330828 1161 0.704056 0.710145 0.000000
-23.772612 -23.449320 -0.320601 1159 0.704056 0.710145 0.000000
-23.772940 -23.449646 -0.310348 1183 0.704056 0.710145 0.000000
-23.772188 -23.448896 -0.300085 1157 0.704055 0.710145 0.000000
-23.772360 -23.449066 -0.289833 1155 0.704055 0.710145 0.000000
-23.770849 -23.447582 -0.279557 1153 0.704055 0.710145 0.000000
-23.769623 -23.446375 -0.269289 1159 0.704056 0.710145 0.000000
-23.771507 -23.448231 -0.259061 1159 0.704056 0.710145 0.000000
-23.778809 -23.440504 -0.648786 1139 0.704056 0.710145 0.000000
-23.778584 -23.440290 -0.638528 1141 0.704055 0.710145 0.000000
-23.777578 -23.439297 -0.628237 1139 0.704056 0.710145 0.000000
-23.777565 -23.439285 -0.617977 1161 0.704056 0.710145 0.000000
-23.777748 -23.439466 -0.607725 1143 0.704055 0.710145 0.000000
-23.777821 -23.439541 -0.597474 1151 0.704056 0.710145 0.000000
-23.778322 -23.440033 -0.587229 1153 0.704056 0.710145 0.000000
-23.778147 -23.439856 -0.576970 1147 0.704056 0.710145 0.000000
-23.778006 -23.439724 -0.566711 1159 0.704056 0.710145 0.000000
-23.778704 -23.440407 -0.556464 1169 0.704056 0.710145 0.000000
-23.777836 -23.439556 -0.546193 1169 0.704055 0.710145 0.000000
-23.777494 -23.439217 -0.535926 1161 0.704056 0.710145 0.000000
-23.779114 -23.440821 -0.525710 1147 0.704056 0.710145 0.000000
-23.779448 -23.441141 -0.515456 1169 0.704056 0.710145 0.000000
-23.778828 -23.440540 -0.505192 1151 0.704056 0.710145 0.000000
-23.778934 -23.440645 -0.494931 1161 0.704055 0.710145 0.000000
-23.778734 -23.440449 -0.484672 1161 0.704056 0.710145 0.000000
-23.778944 -23.440655 -0.474420 1155 0.704056 0.710145 0.000000
-23.778889 -23.440596 -0.464161 1155 0.704056 0.710145 0.000000
-23.778673 -23.440386 -0.453902 1169 0.704056 0.710145 0.000000
-23.777946 -23.439669 -0.443639 1151 0.704056 0.710145 0.000000
-23.777250 -23.438988 -0.433365 1167 0.704056 0.710145 0.000000
-23.777250 -23.438988 -0.423115 1161 0.704056 0.710145 0.000000
-23.777817 -23.439547 -0.412870 1161 0.704055 0.710145 0.000000
-23.778265 -23.439989 -0.402615 1153 0.704056 0.710145 0.000000
-23.776747 -23.438486 -0.392339 1163 0.704056 0.710145 0.000000
-23.777615 -23.439352 -0.382101 1163 0.704056 0.710145 0.000000
-23.778017 -23.439743 -0.371847 1151 0.704055 0.710145 0.000000
-23.777838 -23.439568 -0.361588 1151 0.704056 0.710145 0.000000
-23.779474 -23.441185 -0.351362 1159 0.704055 0.710145 0.000000
-23.779341 -23.441061 -0.341103 1175 0.704055 0.710145 0.000000
-23.779009 -23.440727 -0.330846 1159 0.704056 0.710145 0.000000
-23.779436 -23.441154 -0.320592 1165 0.704056 0.710145 0.000000
-23.780294 -23.441998 -0.310353 1121 0.704056 0.710145 0.000000
-23.780882 -23.442574 -0.300108 1151 0.704056 0.710145 0.000000
-23.780682 -23.442379 -0.289849 1149 0.704056 0.710145 0.000000
-23.779699 -23.441418 -0.279578 1153 0.704056 0.710145 0.000000
-23.779089 -23.440811 -0.269314 1141 0.704055 0.710145 0.000000
-23.780186 -23.441896 -0.259073 1161 0.704056 0.710145 0.000000
-23.786196 -23.432909 -0.648791 1151 0.704055 0.710145 0.000000
-23.787424 -23.434118 -0.638569 1161 0.704056 0.710145 0.000000
-23.787464 -23.434164 -0.628308 1159 0.704056 0.710145 0.000000
-23.785507 -23.432236 -0.617996 1159 0.704056 0.710145 0.000000
-23.785130 -23.431864 -0.607730 1153 0.704055 0.710145 0.000000
-23.786577 -23.433285 -0.597516 1153 0.704056 0.710145 0.000000
-23.786644 -23.433357 -0.587255 1145 0.704056 0.710145 0.000000
-23.786097 -23.432814 -0.576990 1143 0.704056 0.710145 0.000000
-23.785809 -23.432533 -0.566722 1141 0.704055 0.710145 0.000000
-23.785046 -23.431784 -0.556449 1139 0.704056 0.710145 0.000000
-23.785284 -23.432011 -0.546197 1147 0.704056 0.710145 0.000000
-23.786028 -23.432745 -0.535960 1155 0.704056 0.710145 0.000000
-23.786251 -23.432976 -0.525707 1153 0.704056 0.710145 0.000000
-23.785988 -23.432713 -0.515439 1159 0.704056 0.710145 0.000000
-23.786161 -23.432886 -0.505188 1153 0.704055 0.710145 0.000000
-23.786686 -23.433393 -0.494942 1155 0.704056 0.710145 0.000000
-23.787056 -23.433760 -0.484699 1153 0.704056 0.710145 0.000000
-23.786383 -23.433102 -0.474425 1159 0.704056 0.710145 0.000000
-23.785851 -23.432585 -0.464160 1165 0.704056 0.710145 0.000000
-23.786222 -23.432953 -0.453916 1155 0.704056 0.710145 0.000000
-23.786015 -23.432739 -0.443648 1141 0.704055 0.710145 0.000000
-23.786268 -23.432991 -0.433405 1149 0.704056 0.710145 0.000000
-23.786880 -23.433601 -0.423159 1141 0.704056 0.710145 0.000000
-23.786873 -23.433598 -0.412899 1145 0.704056 0.710145 0.000000
-23.786123 -23.432858 -0.402635 1139 0.704056 0.710145 0.000000
-23.785133 -23.431877 -0.392355 1151 0.704055 0.710145 0.000000
-23.785164 -23.431906 -0.382104 1155 0.704056 0.710145 0.000000
-23.785976 -23.432709 -0.371866 1155 0.704056 0.710145 0.000000
-23.785845 -23.432587 -0.361607 1175 0.704056 0.710145 0.000000
-23.785667 -23.432411 -0.351349 1143 0.704055 0.710145 0.000000
-23.786146 -23.432880 -0.341104 1153 0.704055 0.710145 0.000000
-23.785915 -23.432659 -0.330846 1145 0.704056 0.710145 0.000000
-23.786001 -23.432734 -0.320585 1127 0.704056 0.710145 0.000000
-23.785801 -23.432537 -0.310326 1135 0.704056 0.710145 0.000000
-23.786396 -23.433132 -0.300080 1153 0.704056 0.710145 0.000000
-23.787348 -23.434069 -0.289841 1155 0.704055 0.710145 0.000000
-23.787209 -23.433924 -0.279582 1143 0.704056 0.710145 0.000000
-23.786791 -23.433519 -0.269326 1145 0.704056 0.710145 0.000000
-23.786280 -23.433010 -0.259061 1151 0.704056 0.710145 0.000000
-23.793253 -23.424692 -0.648780 1163 0.704056 0.710145 0.000000
-23.792982 -23.424425 -0.638513 1143 0.704056 0.710145 0.000000
-23.792858 -23.424309 -0.628253 1127 0.704055 0.710145 0.000000
-23.792736 -23.424192 -0.617994 1131 0.704056 0.710145 0.000000
-23.792767 -23.424219 -0.607734 1147 0.704056 0.710145 0.000000
-23.793789 -23.425226 -0.597504 1157 0.704056 0.710145 0.000000
-23.794230 -23.425667 -0.587259 1143 0.704056 0.710145 0.000000
-23.793837 -23.425280 -0.576993 1143 0.704056 0.710145 0.000000
-23.792614 -23.424078 -0.566704 1131 0.704056 0.710145 0.000000
-23.793049 -23.424498 -0.556460 1125 0.704056 0.710145 0.000000
-23.793324 -23.424770 -0.546207 1137 0.704056 0.710145 0.000000
-23.793072 -23.424532 -0.535949 1155 0.704056 0.710145 0.000000
-23.793303 -23.424755 -0.525697 1153 0.704056 0.710145 0.000000
-23.792328 -23.423800 -0.515416 1147 0.704055 0.710145 0.000000
-23.792219 -23.423681 -0.505167 1145 0.704056 0.710145 0.000000
-23.793264 -23.424725 -0.494926 1147 0.704055 0.710145 0.000000
-23.794216 -23.425659 -0.484697 1159 0.704056 0.710145 0.000000
-23.793961 -23.425404 -0.474429 1133 0.704056 0.710145 0.000000
-23.793909 -23.425360 -0.464170 1141 0.704056 0.710145 0.000000
-23.794008 -23.425457 -0.453918 1139 0.704056 0.710145 0.000000
-23.794226 -23.425669 -0.443666 1149 0.704056 0.710145 0.000000
-23.794474 -23.425917 -0.433413 1163 0.704056 0.710145 0.000000
-23.793892 -23.425333 -0.423149 1141 0.704055 0.710145 0.000000
-23.794249 -23.425690 -0.412905 1135 0.704056 0.710145 0.000000
-23.795525 -23.426950 -0.402663 1133 0.704055 0.710145 0.000000
-23.795671 -23.427088 -0.392411 1127 0.704056 0.710145 0.000000
-23.793779 -23.425228 -0.382129 1137 0.704056 0.710145 0.000000
-23.793970 -23.425415 -0.371877 1139 0.704056 0.710145 0.000000
-23.794987 -23.426418 -0.361637 1141 0.704055 0.710145 0.000000
-23.795273 -23.426701 -0.351384 1137 0.704055 0.710145 0.000000
-23.795301 -23.426725 -0.341123 1145 0.704056 0.710145 0.000000
-23.793762 -23.425217 -0.330848 1145 0.704055 0.710145 0.000000
-23.793423 -23.424877 -0.320591 1139 0.704055 0.710145 0.000000
-23.794065 -23.425510 -0.310344 1133 0.704056 0.710145 0.000000
-23.793344 -23.424812 -0.300081 1125 0.704056 0.710145 0.000000
-23.793371 -23.424833 -0.289831 1133 0.704056 0.710145 0.000000
-23.793425 -23.424894 -0.279570 1127 0.704056 0.710145 0.000000
-23.794531 -23.425972 -0.269329 1171 0.704056 0.710145 0.000000
-23.795792 -23.427223 -0.259087 1165 0.704056 0.710145 0.000000
-23.799887 -23.416067 -0.648764 1139 0.704056 0.710145 0.000000
-23.800133 -23.416315 -0.638511 1131 0.704056 0.710145 0.000000
-23.800955 -23.417128 -0.628273 1151 0.704056 0.710145 0.000000
-23.800150 -23.416330 -0.617991 1131 0.704056 0.710145 0.000000
-23.801497 -23.417654 -0.607767 1139 0.704056 0.710145 0.000000
-23.801828 -23.417986 -0.597524 1157 0.704056 0.710145 0.000000
-23.800398 -23.416582 -0.587227 1151 0.704056 0.710145 0.000000
-23.798866 -23.415064 -0.576932 1135 0.704056 0.710145 0.000000
-23.799309 -23.415504 -0.566687 1129 0.704056 0.710145 0.000000
-23.800779 -23.416956 -0.556473 1141 0.704056 0.710145 0.000000
-23.800531 -23.416708 -0.546205 1135 0.704056 0.710145 0.000000
-23.800240 -23.416422 -0.535948 1131 0.704056 0.710145 0.000000
-23.801987 -23.418135 -0.525731 1139 0.704055 0.710145 0.000000
-23.801315 -23.417475 -0.515457 1141 0.704056 0.710145 0.000000
-23.800331 -23.416515 -0.505176 1139 0.704056 0.710145 0.000000
-23.800339 -23.416523 -0.494926 1119 0.704056 0.710145 0.000000
-23.800758 -23.416941 -0.484672 1125 0.704056 0.710145 0.000000
-23.802217 -23.418373 -0.474447 1143 0.704056 0.710145 0.000000
-23.801176 -23.417349 -0.464177 1143 0.704056 0.710145 0.000000
-23.800810 -23.416988 -0.453910 1147 0.704056 0.710145 0.000000
-23.801323 -23.417500 -0.443665 1139 0.704055 0.710145 0.000000
-23.801468 -23.417635 -0.433414 1147 0.704056 0.710145 0.000000
-23.802042 -23.418200 -0.423168 1143 0.704055 0.710145 0.000000
-23.801353 -23.417528 -0.412894 1141 0.704056 0.710145 0.000000
-23.801239 -23.417416 -0.402635 1147 0.704056 0.710145 0.000000
-23.800381 -23.416574 -0.392373 1147 0.704056 0.710145 0.000000
-23.800268 -23.416456 -0.382114 1127 0.704055 0.710145 0.000000
-23.802059 -23.418230 -0.371886 1125 0.704056 0.710145 0.000000
-23.802773 -23.418924 -0.361639 1151 0.704056 0.710145 0.000000
-23.802338 -23.418491 -0.351383 1141 0.704056 0.710145 0.000000
-23.802834 -23.418989 -0.341128 1143 0.704056 0.710145 0.000000
-23.802601 -23.418755 -0.330870 1139 0.704056 0.710145 0.000000
-23.801563 -23.417736 -0.320600 1123 0.704056 0.710145 0.000000
-23.801790 -23.417965 -0.310348 1143 0.704056 0.710145 0.000000
-23.801556 -23.417730 -0.300090 1141 0.704056 0.710145 0.000000
-23.800838 -23.417030 -0.289826 1125 0.704055 0.710145 0.000000
-23.801048 -23.417236 -0.279574 1139 0.704056 0.710145 0.000000
-23.801853 -23.418034 -0.269336 1129 0.704056 0.710145 0.000000
-23.802378 -23.418543 -0.259081 1153 0.704056 0.710145 0.000000
