761
-13.514515 -12.399769 -0.656926 799 0.737693 0.675137 0.000000
-13.515579 -12.400744 -0.651336 807 0.737693 0.675137 0.000000
-13.515233 -12.400427 -0.645679 799 0.737693 0.675137 0.000000
-13.514028 -12.399326 -0.639990 773 0.737693 0.675137 0.000000
-13.514446 -12.399703 -0.634366 797 0.737693 0.675137 0.000000
-13.513336 -12.398690 -0.628676 805 0.737693 0.675137 0.000000
-13.512561 -12.397982 -0.623003 783 0.737693 0.675137 0.000000
-13.512702 -12.398112 -0.617372 785 0.737693 0.675137 0.000000
-13.513583 -12.398919 -0.611774 799 0.737693 0.675137 0.000000
-13.514098 -12.399397 -0.606159 813 0.737693 0.675137 0.000000
-13.514342 -12.399609 -0.600527 807 0.737693 0.675137 0.000000
-13.514907 -12.400140 -0.594921 809 0.737693 0.675137 0.000000
-13.514874 -12.400105 -0.589281 809 0.737693 0.675137 0.000000
-13.514630 -12.399883 -0.583633 813 0.737693 0.675137 0.000000
-13.515137 -12.400341 -0.578009 831 0.737693 0.675137 0.000000
-13.515262 -12.400459 -0.572377 837 0.737693 0.675137 0.000000
-13.514949 -12.400181 -0.566730 829 0.737693 0.675137 0.000000
-13.515719 -12.400886 -0.561123 825 0.737693 0.675137 0.000000
-13.515421 -12.400605 -0.555475 827 0.737693 0.675137 0.000000
-13.514782 -12.400029 -0.549811 827 0.737693 0.675137 0.000000
-13.515544 -12.400729 -0.544204 827 0.737693 0.675137 0.000000
-13.515350 -12.400543 -0.538556 817 0.737693 0.675137 0.000000
-13.515029 -12.400258 -0.532908 809 0.737693 0.675137 0.000000
-13.515576 -12.400762 -0.527293 813 0.737693 0.675137 0.000000
-13.515693 -12.400860 -0.521662 839 0.737693 0.675137 0.000000
-13.514893 -12.400131 -0.515989 819 0.737693 0.675137 0.000000
-13.515168 -12.400381 -0.510367 785 0.737693 0.675137 0.000000
-13.516361 -12.401472 -0.504765 819 0.737693 0.675137 0.000000
-13.516033 -12.401182 -0.499118 833 0.737693 0.675137 0.000000
-13.515121 -12.400339 -0.493447 833 0.737693 0.675137 0.000000
-13.514633 -12.399896 -0.487801 829 0.737693 0.675137 0.000000
-13.515226 -12.400435 -0.482185 793 0.737693 0.675137 0.000000
-13.515815 -12.400984 -0.476570 795 0.737693 0.675137 0.000000
-13.515008 -12.400236 -0.470897 813 0.737693 0.675137 0.000000
-13.515697 -12.400879 -0.465291 809 0.737693 0.675137 0.000000
-13.516557 -12.401668 -0.459682 827 0.737693 0.675137 0.000000
-13.516004 -12.401159 -0.454028 831 0.737693 0.675137 0.000000
-13.515467 -12.400665 -0.448372 811 0.737693 0.675137 0.000000
-13.515561 -12.400759 -0.442741 805 0.737693 0.675137 0.000000
-13.515334 -12.400547 -0.437093 817 0.737693 0.675137 0.000000
-13.515850 -12.401026 -0.431478 813 0.737693 0.675137 0.000000
-13.516380 -12.401503 -0.425853 807 0.737693 0.675137 0.000000
-13.515828 -12.400995 -0.420198 803 0.737693 0.675137 0.000000
-13.515864 -12.401032 -0.414568 807 0.737693 0.675137 0.000000
-13.515687 -12.400872 -0.408929 833 0.737693 0.675137 0.000000
-13.514913 -12.400164 -0.403266 823 0.737693 0.675137 0.000000
-13.514997 -12.400238 -0.397636 795 0.737693 0.675137 0.000000
-13.515943 -12.401108 -0.392027 805 0.737693 0.675137 0.000000
-13.516682 -12.401788 -0.386410 785 0.737693 0.675137 0.000000
-13.515785 -12.400970 -0.380758 789 0.737693 0.675137 0.000000
-13.515169 -12.400400 -0.375103 801 0.737693 0.675137 0.000000
-13.516657 -12.401763 -0.369509 809 0.737693 0.675137 0.000000
-13.516624 -12.401743 -0.363870 813 0.737693 0.675137 0.000000
-13.516055 -12.401223 -0.358215 789 0.737693 0.675137 0.000000
-13.516944 -12.402036 -0.352606 803 0.737693 0.675137 0.000000
-13.515451 -12.400669 -0.346930 791 0.737693 0.675137 0.000000
-13.514723 -12.399998 -0.341287 795 0.737693 0.675137 0.000000
-13.515758 -12.400949 -0.335677 807 0.737693 0.675137 0.000000
-13.516432 -12.401567 -0.330051 797 0.737693 0.675137 0.000000
-13.515686 -12.400883 -0.324397 797 0.737693 0.675137 0.000000
-13.514521 -12.399814 -0.318738 797 0.737693 0.675137 0.000000
-13.515180 -12.400418 -0.313122 811 0.737693 0.675137 0.000000
-13.516062 -12.401224 -0.307503 803 0.737693 0.675137 0.000000
-13.515964 -12.401140 -0.301864 797 0.737693 0.675137 0.000000
-13.516025 -12.401195 -0.296234 783 0.737693 0.675137 0.000000
-13.518436 -12.395308 -0.690770 815 0.737693 0.675137 0.000000
-13.517941 -12.394859 -0.685104 801 0.737693 0.675137 0.000000
-13.518147 -12.395054 -0.679472 803 0.737693 0.675137 0.000000
-13.518024 -12.394938 -0.673823 821 0.737693 0.675137 0.000000
-13.518444 -12.395329 -0.668209 827 0.737693 0.675137 0.000000
-13.519453 -12.396249 -0.662610 809 0.737693 0.675137 0.000000
-13.519928 -12.396682 -0.656995 803 0.737693 0.675137 0.000000
-13.519313 -12.396125 -0.651331 803 0.737693 0.675137 0.000000
-13.518918 -12.395756 -0.645674 803 0.737693 0.675137 0.000000
-13.519171 -12.395988 -0.640042 805 0.737693 0.675137 0.000000
-13.519033 -12.395874 -0.634393 811 0.737693 0.675137 0.000000
-13.518639 -12.395504 -0.628737 809 0.737693 0.675137 0.000000
-13.518892 -12.395736 -0.623114 797 0.737693 0.675137 0.000000
-13.519288 -12.396108 -0.617490 805 0.737693 0.675137 0.000000
-13.519166 -12.395991 -0.611851 807 0.737693 0.675137 0.000000
-13.518701 -12.395566 -0.606185 819 0.737693 0.675137 0.000000
-13.518132 -12.395047 -0.600521 803 0.737693 0.675137 0.000000
-13.518321 -12.395215 -0.594899 807 0.737693 0.675137 0.000000
-13.518987 -12.395824 -0.589282 805 0.737693 0.675137 0.000000
-13.518801 -12.395659 -0.583634 811 0.737693 0.675137 0.000000
-13.517476 -12.394438 -0.577946 795 0.737693 0.675137 0.000000
-13.518239 -12.395151 -0.572339 803 0.737693 0.675137 0.000000
-13.519558 -12.396355 -0.566757 825 0.737693 0.675137 0.000000
-13.519732 -12.396511 -0.561125 833 0.737693 0.675137 0.000000
-13.520509 -12.397223 -0.555518 835 0.737693 0.675137 0.000000
-13.520572 -12.397291 -0.549877 841 0.737693 0.675137 0.000000
-13.520473 -12.397195 -0.544238 815 0.737693 0.675137 0.000000
-13.520214 -12.396958 -0.538590 827 0.737693 0.675137 0.000000
-13.519679 -12.396478 -0.532935 809 0.737693 0.675137 0.000000
-13.519047 -12.395894 -0.527270 817 0.737693 0.675137 0.000000
-13.518892 -12.395753 -0.521632 823 0.737693 0.675137 0.000000
-13.519168 -12.396004 -0.515999 833 0.737693 0.675137 0.000000
-13.518910 -12.395767 -0.510351 799 0.737693 0.675137 0.000000
-13.519714 -12.396512 -0.504744 815 0.737693 0.675137 0.000000
-13.519502 -12.396314 -0.499105 821 0.737693 0.675137 0.000000
-13.518646 -12.395527 -0.493433 819 0.737693 0.675137 0.000000
-13.518701 -12.395577 -0.487803 817 0.737693 0.675137 0.000000
-13.519128 -12.395973 -0.482179 799 0.737693 0.675137 0.000000
-13.518967 -12.395826 -0.476540 807 0.737693 0.675137 0.000000
-13.519601 -12.396411 -0.470924 823 0.737693 0.675137 0.000000
-13.519924 -12.396700 -0.465301 843 0.737693 0.675137 0.000000
-13.519916 -12.396700 -0.459661 819 0.737693 0.675137 0.000000
-13.520550 -12.397285 -0.454045 821 0.737693 0.675137 0.000000
-13.518713 -12.395596 -0.448352 795 0.737693 0.675137 0.000000
-13.518647 -12.395537 -0.442712 807 0.737693 0.675137 0.000000
-13.518644 -12.395529 -0.437072 787 0.737693 0.675137 0.000000
-13.518792 -12.395664 -0.431440 783 0.737693 0.675137 0.000000
-13.520281 -12.397040 -0.425856 821 0.737693 0.675137 0.000000
-13.520048 -12.396825 -0.420209 803 0.737693 0.675137 0.000000
-13.519652 -12.396455 -0.414562 801 0.737693 0.675137 0.000000
-13.519206 -12.396057 -0.408916 823 0.737693 0.675137 0.000000
-13.519243 -12.396093 -0.403286 821 0.737693 0.675137 0.000000
-13.518898 -12.395776 -0.397639 809 0.737693 0.675137 0.000000
-13.519524 -12.396340 -0.392023 831 0.737693 0.675137 0.000000
-13.519928 -12.396718 -0.386399 789 0.737693 0.675137 0.000000
-13.519685 -12.396495 -0.380751 795 0.737693 0.675137 0.000000
-13.519076 -12.395930 -0.375096 807 0.737693 0.675137 0.000000
-13.519745 -12.396555 -0.369480 795 0.737693 0.675137 0.000000
-13.520698 -12.397417 -0.363871 813 0.737693 0.675137 0.000000
-13.520065 -12.396848 -0.358217 793 0.737693 0.675137 0.000000
-13.520143 -12.396915 -0.352586 775 0.737693 0.675137 0.000000
-13.520011 -12.396792 -0.346947 773 0.737693 0.675137 0.000000
-13.520082 -12.396868 -0.341316 771 0.737693 0.675137 0.000000
-13.520907 -12.397617 -0.335699 785 0.737693 0.675137 0.000000
-13.520769 -12.397489 -0.330060 777 0.737693 0.675137 0.000000
-13.519867 -12.396667 -0.324408 781 0.737693 0.675137 0.000000
-13.519769 -12.396582 -0.318769 805 0.737693 0.675137 0.000000
-13.519726 -12.396543 -0.313139 799 0.737693 0.675137 0.000000
-13.519038 -12.395915 -0.307485 763 0.737693 0.675137 0.000000
-13.518566 -12.395484 -0.301839 769 0.737693 0.675137 0.000000
-13.519120 -12.395994 -0.296214 797 0.737693 0.675137 0.000000
-13.522913 -12.391506 -0.690797 819 0.737693 0.675137 0.000000
-13.523127 -12.391707 -0.685165 801 0.737693 0.675137 0.000000
-13.523165 -12.391745 -0.679524 807 0.737693 0.675137 0.000000
-13.523854 -12.392373 -0.673918 819 0.737693 0.675137 0.000000
-13.523517 -12.392061 -0.668261 805 0.737693 0.675137 0.000000
-13.523561 -12.392103 -0.662620 797 0.737693 0.675137 0.000000
-13.523640 -12.392184 -0.656990 825 0.737693 0.675137 0.000000
-13.522823 -12.391430 -0.651307 819 0.737693 0.675137 0.000000
-13.522374 -12.391017 -0.645651 811 0.737693 0.675137 0.000000
-13.522787 -12.391402 -0.640027 813 0.737693 0.675137 0.000000
-13.523949 -12.392468 -0.634446 807 0.737693 0.675137 0.000000
-13.523816 -12.392345 -0.628797 815 0.737693 0.675137 0.000000
-13.522827 -12.391441 -0.623116 809 0.737693 0.675137 0.000000
-13.522369 -12.391022 -0.617450 781 0.737693 0.675137 0.000000
-13.522239 -12.390899 -0.611811 791 0.737693 0.675137 0.000000
-13.522852 -12.391467 -0.606196 815 0.737693 0.675137 0.000000
-13.522178 -12.390851 -0.600532 805 0.737693 0.675137 0.000000
-13.522312 -12.390977 -0.594900 823 0.737693 0.675137 0.000000
-13.522554 -12.391188 -0.589268 799 0.737693 0.675137 0.000000
-13.522089 -12.390762 -0.583612 799 0.737693 0.675137 0.000000
-13.522264 -12.390933 -0.577980 815 0.737693 0.675137 0.000000
-13.523042 -12.391644 -0.572373 821 0.737693 0.675137 0.000000
-13.523548 -12.392103 -0.566758 827 0.737693 0.675137 0.000000
-13.523021 -12.391629 -0.561103 787 0.737693 0.675137 0.000000
-13.523090 -12.391689 -0.555462 811 0.737693 0.675137 0.000000
-13.524076 -12.392591 -0.549863 831 0.737693 0.675137 0.000000
-13.523769 -12.392318 -0.544216 815 0.737693 0.675137 0.000000
-13.523295 -12.391872 -0.538560 837 0.737693 0.675137 0.000000
-13.523197 -12.391789 -0.532921 803 0.737693 0.675137 0.000000
-13.523147 -12.391743 -0.527281 817 0.737693 0.675137 0.000000
-13.523432 -12.392000 -0.521658 819 0.737693 0.675137 0.000000
-13.523867 -12.392402 -0.516034 817 0.737693 0.675137 0.000000
-13.523594 -12.392154 -0.510386 819 0.737693 0.675137 0.000000
-13.523543 -12.392107 -0.504747 835 0.737693 0.675137 0.000000
-13.523819 -12.392359 -0.499114 813 0.737693 0.675137 0.000000
-13.523986 -12.392523 -0.493492 821 0.737693 0.675137 0.000000
-13.523072 -12.391679 -0.487821 811 0.737693 0.675137 0.000000
-13.522639 -12.391279 -0.482165 809 0.737693 0.675137 0.000000
-13.522957 -12.391575 -0.476542 821 0.737693 0.675137 0.000000
-13.523654 -12.392209 -0.470925 823 0.737693 0.675137 0.000000
-13.524512 -12.392998 -0.465317 805 0.737693 0.675137 0.000000
-13.524557 -12.393041 -0.459686 793 0.737693 0.675137 0.000000
-13.524334 -12.392844 -0.454038 785 0.737693 0.675137 0.000000
-13.523412 -12.391994 -0.448377 791 0.737693 0.675137 0.000000
-13.523449 -12.392030 -0.442746 795 0.737693 0.675137 0.000000
-13.523224 -12.391820 -0.437098 787 0.737693 0.675137 0.000000
-13.522776 -12.391420 -0.431452 785 0.737693 0.675137 0.000000
-13.524438 -12.392934 -0.425867 809 0.737693 0.675137 0.000000
-13.524421 -12.392927 -0.420227 791 0.737693 0.675137 0.000000
-13.523054 -12.391673 -0.414549 781 0.737693 0.675137 0.000000
-13.522390 -12.391065 -0.408895 801 0.737693 0.675137 0.000000
-13.522316 -12.391002 -0.403256 791 0.737693 0.675137 0.000000
-13.521811 -12.390531 -0.397610 797 0.737693 0.675137 0.000000
-13.522916 -12.391553 -0.392010 805 0.737693 0.675137 0.000000
-13.524189 -12.392719 -0.386408 801 0.737693 0.675137 0.000000
-13.523414 -12.392011 -0.380745 807 0.737693 0.675137 0.000000
-13.522845 -12.391490 -0.375100 795 0.737693 0.675137 0.000000
-13.523305 -12.391912 -0.369476 779 0.737693 0.675137 0.000000
-13.524091 -12.392631 -0.363858 783 0.737693 0.675137 0.000000
-13.525354 -12.393790 -0.358256 783 0.737693 0.675137 0.000000
-13.525592 -12.394010 -0.352624 795 0.737693 0.675137 0.000000
-13.524537 -12.393041 -0.346964 795 0.737693 0.675137 0.000000
-13.523696 -12.392267 -0.341311 791 0.737693 0.675137 0.000000
-13.523983 -12.392539 -0.335679 805 0.737693 0.675137 0.000000
-13.524002 -12.392549 -0.330048 785 0.737693 0.675137 0.000000
-13.524661 -12.393153 -0.324432 771 0.737693 0.675137 0.000000
-13.524843 -12.393330 -0.318800 791 0.737693 0.675137 0.000000
-13.523611 -12.392196 -0.313132 777 0.737693 0.675137 0.000000
-13.523085 -12.391721 -0.307486 767 0.737693 0.675137 0.000000
-13.523744 -12.392325 -0.301870 783 0.737693 0.675137 0.000000
-13.524186 -12.392720 -0.296246 797 0.737693 0.675137 0.000000
-13.527205 -12.387698 -0.690815 809 0.737693 0.675137 0.000000
-13.527035 -12.387544 -0.685167 801 0.737693 0.675137 0.000000
-13.526043 -12.386638 -0.679476 793 0.737693 0.675137 0.000000
-13.526201 -12.386783 -0.673844 791 0.737693 0.675137 0.000000
-13.526940 -12.387463 -0.668247 797 0.737693 0.675137 0.000000
-13.527032 -12.387543 -0.662606 797 0.737693 0.675137 0.000000
-13.527027 -12.387532 -0.656966 805 0.737693 0.675137 0.000000
-13.527058 -12.387563 -0.651326 809 0.737693 0.675137 0.000000
-13.527525 -12.387992 -0.645711 809 0.737693 0.675137 0.000000
-13.527181 -12.387687 -0.640054 781 0.737693 0.675137 0.000000
-13.527328 -12.387811 -0.634423 811 0.737693 0.675137 0.000000
-13.527302 -12.387796 -0.628783 805 0.737693 0.675137 0.000000
-13.526686 -12.387225 -0.623118 791 0.737693 0.675137 0.000000
-13.525799 -12.386415 -0.617436 793 0.737693 0.675137 0.000000
-13.526361 -12.386931 -0.611821 797 0.737693 0.675137 0.000000
-13.527093 -12.387606 -0.606214 801 0.737693 0.675137 0.000000
-13.526899 -12.387434 -0.600566 787 0.737693 0.675137 0.000000
-13.527732 -12.388189 -0.594968 821 0.737693 0.675137 0.000000
-13.527005 -12.387531 -0.589295 801 0.737693 0.675137 0.000000
-13.526698 -12.387244 -0.583647 795 0.737693 0.675137 0.000000
-13.527803 -12.388252 -0.578057 817 0.737693 0.675137 0.000000
-13.528630 -12.389015 -0.572449 833 0.737693 0.675137 0.000000
-13.528636 -12.389026 -0.566809 819 0.737693 0.675137 0.000000
-13.527317 -12.387811 -0.561121 797 0.737693 0.675137 0.000000
-13.526894 -12.387430 -0.555465 821 0.737693 0.675137 0.000000
-13.526747 -12.387296 -0.549826 823 0.737693 0.675137 0.000000
-13.527080 -12.387604 -0.544193 833 0.737693 0.675137 0.000000
-13.526390 -12.386976 -0.538529 839 0.737693 0.675137 0.000000
-13.526189 -12.386786 -0.532891 823 0.737693 0.675137 0.000000
-13.526305 -12.386897 -0.527260 797 0.737693 0.675137 0.000000
-13.525561 -12.386213 -0.521586 793 0.737693 0.675137 0.000000
-13.526380 -12.386956 -0.515989 795 0.737693 0.675137 0.000000
-13.528049 -12.388488 -0.510413 815 0.737693 0.675137 0.000000
-13.528049 -12.388494 -0.504773 819 0.737693 0.675137 0.000000
-13.527671 -12.388151 -0.499116 819 0.737693 0.675137 0.000000
-13.528059 -12.388503 -0.493502 809 0.737693 0.675137 0.000000
-13.527418 -12.387913 -0.487838 807 0.737693 0.675137 0.000000
-13.527248 -12.387759 -0.482200 807 0.737693 0.675137 0.000000
-13.528266 -12.388699 -0.476590 809 0.737693 0.675137 0.000000
-13.529180 -12.389531 -0.470992 843 0.737693 0.675137 0.000000
-13.528197 -12.388633 -0.465321 835 0.737693 0.675137 0.000000
-13.526473 -12.387057 -0.459626 793 0.737693 0.675137 0.000000
-13.527060 -12.387592 -0.454011 795 0.737693 0.675137 0.000000
-13.526722 -12.387280 -0.448364 789 0.737693 0.675137 0.000000
-13.526281 -12.386875 -0.442708 799 0.737693 0.675137 0.000000
-13.527570 -12.388054 -0.437116 789 0.737693 0.675137 0.000000
-13.527073 -12.387604 -0.431460 799 0.737693 0.675137 0.000000
-13.526847 -12.387392 -0.425822 789 0.737693 0.675137 0.000000
-13.527842 -12.388314 -0.420213 781 0.737693 0.675137 0.000000
-13.527776 -12.388256 -0.414573 799 0.737693 0.675137 0.000000
-13.526513 -12.387096 -0.408905 793 0.737693 0.675137 0.000000
-13.527037 -12.387583 -0.403290 797 0.737693 0.675137 0.000000
-13.528150 -12.388597 -0.397679 809 0.737693 0.675137 0.000000
-13.528075 -12.388532 -0.392040 801 0.737693 0.675137 0.000000
-13.527784 -12.388257 -0.386402 791 0.737693 0.675137 0.000000
-13.527112 -12.387643 -0.380749 775 0.737693 0.675137 0.000000
-13.527086 -12.387629 -0.375109 785 0.737693 0.675137 0.000000
-13.527012 -12.387550 -0.369469 785 0.737693 0.675137 0.000000
-13.527949 -12.388415 -0.363860 789 0.737693 0.675137 0.000000
-13.528290 -12.388729 -0.358237 801 0.737693 0.675137 0.000000
-13.527618 -12.388115 -0.352583 769 0.737693 0.675137 0.000000
-13.527152 -12.387689 -0.346937 755 0.737693 0.675137 0.000000
-13.526848 -12.387416 -0.341300 765 0.737693 0.675137 0.000000
-13.526764 -12.387331 -0.335661 777 0.737693 0.675137 0.000000
-13.527807 -12.388291 -0.330051 771 0.737693 0.675137 0.000000
-13.528625 -12.389048 -0.324433 783 0.737693 0.675137 0.000000
-13.528160 -12.388621 -0.318787 785 0.737693 0.675137 0.000000
-13.527305 -12.387836 -0.313135 747 0.737693 0.675137 0.000000
-13.527213 -12.387745 -0.307496 795 0.737693 0.675137 0.000000
-13.526956 -12.387509 -0.301858 801 0.737693 0.675137 0.000000
-13.526698 -12.387274 -0.296220 809 0.737693 0.675137 0.000000
-13.532321 -12.384923 -0.690894 819 0.737693 0.675137 0.000000
-13.531338 -12.384025 -0.685203 819 0.737693 0.675137 0.000000
-13.530944 -12.383670 -0.679537 811 0.737693 0.675137 0.000000
-13.531094 -12.383806 -0.673905 803 0.737693 0.675137 0.000000
-13.530924 -12.383653 -0.668257 795 0.737693 0.675137 0.000000
-13.530371 -12.383145 -0.662592 809 0.737693 0.675137 0.000000
-13.531277 -12.383971 -0.656993 801 0.737693 0.675137 0.000000
-13.531361 -12.384044 -0.651362 821 0.737693 0.675137 0.000000
-13.530377 -12.383145 -0.645671 833 0.737693 0.675137 0.000000
-13.529602 -12.382435 -0.639998 811 0.737693 0.675137 0.000000
-13.529902 -12.382718 -0.634375 805 0.737693 0.675137 0.000000
-13.531502 -12.384183 -0.628810 803 0.737693 0.675137 0.000000
-13.531427 -12.384117 -0.623161 805 0.737693 0.675137 0.000000
-13.530533 -12.383302 -0.617489 799 0.737693 0.675137 0.000000
-13.530401 -12.383179 -0.611840 799 0.737693 0.675137 0.000000
-13.530702 -12.383448 -0.606217 809 0.737693 0.675137 0.000000
-13.530508 -12.383276 -0.600569 793 0.737693 0.675137 0.000000
-13.530634 -12.383394 -0.594937 813 0.737693 0.675137 0.000000
-13.531044 -12.383764 -0.589314 805 0.737693 0.675137 0.000000
-13.531384 -12.384078 -0.583690 805 0.737693 0.675137 0.000000
-13.531997 -12.384646 -0.578074 797 0.737693 0.675137 0.000000
-13.531801 -12.384459 -0.572426 809 0.737693 0.675137 0.000000
-13.531552 -12.384231 -0.566778 803 0.737693 0.675137 0.000000
-13.531677 -12.384349 -0.561147 825 0.737693 0.675137 0.000000
-13.530940 -12.383670 -0.555484 803 0.737693 0.675137 0.000000
-13.530182 -12.382988 -0.549811 793 0.737693 0.675137 0.000000
-13.529716 -12.382562 -0.544155 839 0.737693 0.675137 0.000000
-13.529675 -12.382523 -0.538515 817 0.737693 0.675137 0.000000
-13.530978 -12.383715 -0.532933 805 0.737693 0.675137 0.000000
-13.530985 -12.383726 -0.527293 813 0.737693 0.675137 0.000000
-13.529211 -12.382100 -0.521589 803 0.737693 0.675137 0.000000
-13.529391 -12.382262 -0.515957 803 0.737693 0.675137 0.000000
-13.530626 -12.383398 -0.510365 807 0.737693 0.675137 0.000000
-13.532408 -12.385032 -0.504799 813 0.737693 0.675137 0.000000
-13.532684 -12.385283 -0.499166 831 0.737693 0.675137 0.000000
-13.532473 -12.385084 -0.493528 819 0.737693 0.675137 0.000000
-13.533173 -12.385734 -0.487911 827 0.737693 0.675137 0.000000
-13.532198 -12.384841 -0.482240 833 0.737693 0.675137 0.000000
-13.529987 -12.382817 -0.476531 801 0.737693 0.675137 0.000000
-13.529553 -12.382418 -0.470875 793 0.737693 0.675137 0.000000
-13.530087 -12.382910 -0.465259 787 0.737693 0.675137 0.000000
-13.530512 -12.383290 -0.459635 815 0.737693 0.675137 0.000000
-13.530982 -12.383734 -0.454021 795 0.737693 0.675137 0.000000
-13.530874 -12.383630 -0.448372 803 0.737693 0.675137 0.000000
-13.530593 -12.383375 -0.442734 805 0.737693 0.675137 0.000000
-13.531284 -12.384005 -0.437118 801 0.737693 0.675137 0.000000
-13.531375 -12.384084 -0.431487 791 0.737693 0.675137 0.000000
-13.530929 -12.383685 -0.425831 805 0.737693 0.675137 0.000000
-13.531673 -12.384357 -0.420224 819 0.737693 0.675137 0.000000
-13.531218 -12.383954 -0.414568 801 0.737693 0.675137 0.000000
-13.530616 -12.383395 -0.408923 771 0.737693 0.675137 0.000000
-13.531992 -12.384656 -0.403320 785 0.737693 0.675137 0.000000
-13.531816 -12.384498 -0.397682 789 0.737693 0.675137 0.000000
-13.530275 -12.383094 -0.392006 785 0.737693 0.675137 0.000000
-13.530957 -12.383716 -0.386389 797 0.737693 0.675137 0.000000
-13.532173 -12.384826 -0.380788 821 0.737693 0.675137 0.000000
-13.531876 -12.384559 -0.375141 817 0.737693 0.675137 0.000000
-13.531960 -12.384633 -0.369510 813 0.737693 0.675137 0.000000
-13.530905 -12.383664 -0.363849 781 0.737693 0.675137 0.000000
-13.530928 -12.383688 -0.358209 767 0.737693 0.675137 0.000000
-13.532247 -12.384892 -0.352607 785 0.737693 0.675137 0.000000
-13.531678 -12.384371 -0.346962 781 0.737693 0.675137 0.000000
-13.531312 -12.384049 -0.341315 793 0.737693 0.675137 0.000000
-13.530909 -12.383674 -0.335669 783 0.737693 0.675137 0.000000
-13.531303 -12.384032 -0.330045 779 0.737693 0.675137 0.000000
-13.532020 -12.384694 -0.324428 771 0.737693 0.675137 0.000000
-13.532576 -12.385203 -0.318803 779 0.737693 0.675137 0.000000
-13.532325 -12.384974 -0.313165 787 0.737693 0.675137 0.000000
-13.531526 -12.384246 -0.307512 785 0.737693 0.675137 0.000000
-13.531851 -12.384547 -0.301889 797 0.737693 0.675137 0.000000
-13.532247 -12.384906 -0.296255 793 0.737693 0.675137 0.000000
-13.534639 -12.379898 -0.690828 811 0.737693 0.675137 0.000000
-13.534582 -12.379846 -0.685188 811 0.737693 0.675137 0.000000
-13.534946 -12.380178 -0.679564 807 0.737693 0.675137 0.000000
-13.533789 -12.379129 -0.673865 795 0.737693 0.675137 0.000000
-13.533131 -12.378527 -0.668191 783 0.737693 0.675137 0.000000
-13.533336 -12.378708 -0.662569 787 0.737693 0.675137 0.000000
-13.532950 -12.378358 -0.656912 795 0.737693 0.675137 0.000000
-13.533466 -12.378837 -0.651297 799 0.737693 0.675137 0.000000
-13.534038 -12.379359 -0.645682 783 0.737693 0.675137 0.000000
-13.534019 -12.379337 -0.640042 817 0.737693 0.675137 0.000000
-13.533680 -12.379025 -0.634385 793 0.737693 0.675137 0.000000
-13.533821 -12.379157 -0.628754 801 0.737693 0.675137 0.000000
-13.533198 -12.378594 -0.623089 795 0.737693 0.675137 0.000000
-13.533608 -12.378963 -0.617465 771 0.737693 0.675137 0.000000
-13.534117 -12.379436 -0.611851 771 0.737693 0.675137 0.000000
-13.533397 -12.378770 -0.606177 797 0.737693 0.675137 0.000000
-13.533895 -12.379236 -0.600562 797 0.737693 0.675137 0.000000
-13.535174 -12.380396 -0.594980 807 0.737693 0.675137 0.000000
-13.535023 -12.380268 -0.589332 805 0.737693 0.675137 0.000000
-13.534620 -12.379893 -0.583675 783 0.737693 0.675137 0.000000
-13.534697 -12.379960 -0.578044 775 0.737693 0.675137 0.000000
-13.534385 -12.379682 -0.572387 791 0.737693 0.675137 0.000000
-13.534892 -12.380140 -0.566772 799 0.737693 0.675137 0.000000
-13.535557 -12.380750 -0.561166 825 0.737693 0.675137 0.000000
-13.534703 -12.379978 -0.555494 811 0.737693 0.675137 0.000000
-13.534071 -12.379395 -0.549829 793 0.737693 0.675137 0.000000
-13.534514 -12.379805 -0.544205 795 0.737693 0.675137 0.000000
-13.534258 -12.379570 -0.538557 807 0.737693 0.675137 0.000000
-13.535138 -12.380375 -0.532959 807 0.737693 0.675137 0.000000
-13.535678 -12.380873 -0.527344 833 0.737693 0.675137 0.000000
-13.534066 -12.379399 -0.521639 785 0.737693 0.675137 0.000000
-13.533648 -12.379011 -0.515993 797 0.737693 0.675137 0.000000
-13.534250 -12.379559 -0.510377 807 0.737693 0.675137 0.000000
-13.534623 -12.379911 -0.504753 795 0.737693 0.675137 0.000000
-13.535169 -12.380402 -0.499128 823 0.737693 0.675137 0.000000
-13.534188 -12.379517 -0.493457 795 0.737693 0.675137 0.000000
-13.533929 -12.379267 -0.487819 801 0.737693 0.675137 0.000000
-13.534079 -12.379417 -0.482188 807 0.737693 0.675137 0.000000
-13.533550 -12.378930 -0.476533 807 0.737693 0.675137 0.000000
-13.534186 -12.379516 -0.470917 811 0.737693 0.675137 0.000000
-13.535202 -12.380441 -0.465317 793 0.737693 0.675137 0.000000
-13.534929 -12.380194 -0.459669 791 0.737693 0.675137 0.000000
-13.534656 -12.379946 -0.454022 801 0.737693 0.675137 0.000000
-13.534804 -12.380083 -0.448390 791 0.737693 0.675137 0.000000
-13.533988 -12.379329 -0.442728 781 0.737693 0.675137 0.000000
-13.534463 -12.379762 -0.437103 799 0.737693 0.675137 0.000000
-13.534182 -12.379508 -0.431466 799 0.737693 0.675137 0.000000
-13.534330 -12.379644 -0.425834 791 0.737693 0.675137 0.000000
-13.535548 -12.380769 -0.420233 817 0.737693 0.675137 0.000000
-13.535698 -12.380906 -0.414601 823 0.737693 0.675137 0.000000
-13.535573 -12.380789 -0.408962 813 0.737693 0.675137 0.000000
-13.535014 -12.380276 -0.403307 777 0.737693 0.675137 0.000000
-13.533751 -12.379117 -0.397639 771 0.737693 0.675137 0.000000
-13.533025 -12.378460 -0.391985 769 0.737693 0.675137 0.000000
-13.534670 -12.379959 -0.386390 767 0.737693 0.675137 0.000000
-13.535360 -12.380589 -0.380774 773 0.737693 0.675137 0.000000
-13.535224 -12.380476 -0.375135 805 0.737693 0.675137 0.000000
-13.536494 -12.381627 -0.369533 803 0.737693 0.675137 0.000000
-13.536627 -12.381751 -0.363901 787 0.737693 0.675137 0.000000
-13.534865 -12.380147 -0.358227 757 0.737693 0.675137 0.000000
-13.534281 -12.379614 -0.352573 779 0.737693 0.675137 0.000000
-13.535179 -12.380433 -0.346964 783 0.737693 0.675137 0.000000
-13.536013 -12.381202 -0.341346 775 0.737693 0.675137 0.000000
-13.535437 -12.380677 -0.335702 767 0.737693 0.675137 0.000000
-13.534865 -12.380143 -0.330047 761 0.737693 0.675137 0.000000
-13.534713 -12.380015 -0.324408 757 0.737693 0.675137 0.000000
-13.534727 -12.380020 -0.318778 773 0.737693 0.675137 0.000000
-13.534095 -12.379450 -0.313124 769 0.737693 0.675137 0.000000
-13.532810 -12.378274 -0.307465 755 0.737693 0.675137 0.000000
-13.533962 -12.379333 -0.301854 767 0.737693 0.675137 0.000000
-13.535864 -12.381061 -0.296267 775 0.737693 0.675137 0.000000
-13.538055 -12.375728 -0.690822 801 0.737693 0.675137 0.000000
-13.537183 -12.374928 -0.685140 789 0.737693 0.675137 0.000000
-13.537819 -12.375515 -0.679533 779 0.737693 0.675137 0.000000
-13.537538 -12.375261 -0.673876 797 0.737693 0.675137 0.000000
-13.536824 -12.374601 -0.668202 793 0.737693 0.675137 0.000000
-13.537515 -12.375231 -0.662596 809 0.737693 0.675137 0.000000
-13.537870 -12.375556 -0.656973 785 0.737693 0.675137 0.000000
-13.537694 -12.375398 -0.651324 819 0.737693 0.675137 0.000000
-13.537890 -12.375586 -0.645692 787 0.737693 0.675137 0.000000
-13.538247 -12.375914 -0.640069 787 0.737693 0.675137 0.000000
-13.538178 -12.375840 -0.634429 807 0.737693 0.675137 0.000000
-13.538153 -12.375826 -0.628789 805 0.737693 0.675137 0.000000
-13.537696 -12.375407 -0.623123 797 0.737693 0.675137 0.000000
-13.537829 -12.375532 -0.617492 797 0.737693 0.675137 0.000000
-13.538177 -12.375853 -0.611869 785 0.737693 0.675137 0.000000
-13.538054 -12.375736 -0.606230 801 0.737693 0.675137 0.000000
-13.536999 -12.374767 -0.600539 817 0.737693 0.675137 0.000000
-13.537133 -12.374892 -0.594908 805 0.737693 0.675137 0.000000
-13.538126 -12.375800 -0.589309 799 0.737693 0.675137 0.000000
-13.537708 -12.375425 -0.583662 801 0.737693 0.675137 0.000000
-13.538495 -12.376143 -0.578055 789 0.737693 0.675137 0.000000
-13.538994 -12.376595 -0.572430 807 0.737693 0.675137 0.000000
-13.537979 -12.375672 -0.566749 781 0.737693 0.675137 0.000000
-13.538869 -12.376485 -0.561151 813 0.737693 0.675137 0.000000
-13.539202 -12.376794 -0.555528 793 0.737693 0.675137 0.000000
-13.539280 -12.376862 -0.549887 801 0.737693 0.675137 0.000000
-13.539173 -12.376771 -0.544248 815 0.737693 0.675137 0.000000
-13.538429 -12.376087 -0.538584 793 0.737693 0.675137 0.000000
-13.538443 -12.376104 -0.532944 801 0.737693 0.675137 0.000000
-13.538177 -12.375862 -0.527296 805 0.737693 0.675137 0.000000
-13.537218 -12.374982 -0.521625 789 0.737693 0.675137 0.000000
-13.537223 -12.374980 -0.515985 805 0.737693 0.675137 0.000000
-13.537603 -12.375338 -0.510361 789 0.737693 0.675137 0.000000
-13.537177 -12.374944 -0.504715 789 0.737693 0.675137 0.000000
-13.537883 -12.375586 -0.499099 791 0.737693 0.675137 0.000000
-13.538853 -12.376475 -0.493500 793 0.737693 0.675137 0.000000
-13.538207 -12.375894 -0.487835 785 0.737693 0.675137 0.000000
-13.537715 -12.375435 -0.482190 795 0.737693 0.675137 0.000000
-13.537674 -12.375395 -0.476550 793 0.737693 0.675137 0.000000
-13.537616 -12.375342 -0.470910 793 0.737693 0.675137 0.000000
-13.538300 -12.375980 -0.465294 807 0.737693 0.675137 0.000000
-13.538622 -12.376268 -0.459671 793 0.737693 0.675137 0.000000
-13.538014 -12.375717 -0.454016 793 0.737693 0.675137 0.000000
-13.539040 -12.376650 -0.448417 805 0.737693 0.675137 0.000000
-13.538647 -12.376294 -0.442760 801 0.737693 0.675137 0.000000
-13.538317 -12.375989 -0.437113 783 0.737693 0.675137 0.000000
-13.538403 -12.376077 -0.431482 785 0.737693 0.675137 0.000000
-13.537531 -12.375278 -0.425820 783 0.737693 0.675137 0.000000
-13.538164 -12.375849 -0.420204 811 0.737693 0.675137 0.000000
-13.538895 -12.376524 -0.414587 799 0.737693 0.675137 0.000000
-13.538934 -12.376561 -0.408957 781 0.737693 0.675137 0.000000
-13.538921 -12.376546 -0.403317 765 0.737693 0.675137 0.000000
-13.539007 -12.376633 -0.397686 803 0.737693 0.675137 0.000000
-13.538663 -12.376315 -0.392039 791 0.737693 0.675137 0.000000
-13.538581 -12.376244 -0.386399 797 0.737693 0.675137 0.000000
-13.538713 -12.376369 -0.380768 787 0.737693 0.675137 0.000000
-13.538749 -12.376391 -0.375138 789 0.737693 0.675137 0.000000
-13.538342 -12.376024 -0.369491 757 0.737693 0.675137 0.000000
-13.538481 -12.376154 -0.363860 763 0.737693 0.675137 0.000000
-13.538774 -12.376417 -0.358227 775 0.737693 0.675137 0.000000
-13.539059 -12.376687 -0.352604 777 0.737693 0.675137 0.000000
-13.539302 -12.376899 -0.346972 791 0.737693 0.675137 0.000000
-13.537809 -12.375546 -0.341305 769 0.737693 0.675137 0.000000
-13.536531 -12.374376 -0.335637 765 0.737693 0.675137 0.000000
-13.536880 -12.374698 -0.330014 731 0.737693 0.675137 0.000000
-13.538671 -12.376337 -0.324417 739 0.737693 0.675137 0.000000
-13.540150 -12.377680 -0.318813 755 0.737693 0.675137 0.000000
-13.538816 -12.376466 -0.313156 743 0.737693 0.675137 0.000000
-13.537531 -12.375290 -0.307487 763 0.737693 0.675137 0.000000
-13.538189 -12.375894 -0.301871 771 0.737693 0.675137 0.000000
-13.540251 -12.377774 -0.296282 767 0.737693 0.675137 0.000000
-13.541941 -12.371687 -0.690833 793 0.737693 0.675137 0.000000
-13.541502 -12.371295 -0.685167 783 0.737693 0.675137 0.000000
-13.541649 -12.371431 -0.679535 787 0.737693 0.675137 0.000000
-13.541639 -12.371416 -0.673895 797 0.737693 0.675137 0.000000
-13.540767 -12.370618 -0.668213 781 0.737693 0.675137 0.000000
-13.541451 -12.371242 -0.662607 791 0.737693 0.675137 0.000000
-13.542946 -12.372611 -0.657033 807 0.737693 0.675137 0.000000
-13.542879 -12.372552 -0.651393 789 0.737693 0.675137 0.000000
-13.542861 -12.372531 -0.645753 795 0.737693 0.675137 0.000000
-13.542723 -12.372416 -0.640104 787 0.737693 0.675137 0.000000
-13.542974 -12.372647 -0.634472 803 0.737693 0.675137 0.000000
-13.542518 -12.372229 -0.628816 803 0.737693 0.675137 0.000000
-13.541306 -12.371122 -0.623117 757 0.737693 0.675137 0.000000
-13.541883 -12.371650 -0.617511 757 0.737693 0.675137 0.000000
-13.542836 -12.372513 -0.611912 797 0.737693 0.675137 0.000000
-13.542532 -12.372240 -0.606255 799 0.737693 0.675137 0.000000
-13.542289 -12.372015 -0.600607 803 0.737693 0.675137 0.000000
-13.542964 -12.372634 -0.595001 815 0.737693 0.675137 0.000000
-13.542228 -12.371969 -0.589328 811 0.737693 0.675137 0.000000
-13.541978 -12.371739 -0.583680 807 0.737693 0.675137 0.000000
-13.542485 -12.372199 -0.578065 787 0.737693 0.675137 0.000000
-13.542722 -12.372417 -0.572433 799 0.737693 0.675137 0.000000
-13.541548 -12.371342 -0.566743 793 0.737693 0.675137 0.000000
-13.540589 -12.370475 -0.561072 805 0.737693 0.675137 0.000000
-13.541200 -12.371028 -0.555456 787 0.737693 0.675137 0.000000
-13.542408 -12.372132 -0.549865 807 0.737693 0.675137 0.000000
-13.542629 -12.372339 -0.544243 799 0.737693 0.675137 0.000000
-13.541781 -12.371560 -0.538571 805 0.737693 0.675137 0.000000
-13.542169 -12.371912 -0.532947 795 0.737693 0.675137 0.000000
-13.542126 -12.371871 -0.527307 789 0.737693 0.675137 0.000000
-13.542070 -12.371834 -0.521667 783 0.737693 0.675137 0.000000
-13.542296 -12.372032 -0.516035 791 0.737693 0.675137 0.000000
-13.542088 -12.371847 -0.510397 797 0.737693 0.675137 0.000000
-13.542092 -12.371844 -0.504757 799 0.737693 0.675137 0.000000
-13.542743 -12.372443 -0.499141 791 0.737693 0.675137 0.000000
-13.542852 -12.372550 -0.493510 807 0.737693 0.675137 0.000000
-13.542897 -12.372591 -0.487879 805 0.737693 0.675137 0.000000
-13.542958 -12.372646 -0.482238 807 0.737693 0.675137 0.000000
-13.543067 -12.372739 -0.476607 803 0.737693 0.675137 0.000000
-13.543119 -12.372787 -0.470966 815 0.737693 0.675137 0.000000
-13.542783 -12.372489 -0.465319 807 0.737693 0.675137 0.000000
-13.542557 -12.372279 -0.459681 779 0.737693 0.675137 0.000000
-13.542499 -12.372227 -0.454042 791 0.737693 0.675137 0.000000
-13.542056 -12.371819 -0.448386 785 0.737693 0.675137 0.000000
-13.543019 -12.372703 -0.442787 801 0.737693 0.675137 0.000000
-13.543933 -12.373534 -0.437178 801 0.737693 0.675137 0.000000
-13.542887 -12.372584 -0.431508 793 0.737693 0.675137 0.000000
-13.543417 -12.373063 -0.425883 809 0.737693 0.675137 0.000000
-13.542962 -12.372659 -0.420237 811 0.737693 0.675137 0.000000
-13.542192 -12.371955 -0.414574 793 0.737693 0.675137 0.000000
-13.542390 -12.372129 -0.408952 785 0.737693 0.675137 0.000000
-13.541989 -12.371768 -0.403305 791 0.737693 0.675137 0.000000
-13.542027 -12.371804 -0.397665 785 0.737693 0.675137 0.000000
-13.542381 -12.372129 -0.392041 777 0.737693 0.675137 0.000000
-13.542569 -12.372297 -0.386410 779 0.737693 0.675137 0.000000
-13.542393 -12.372139 -0.380771 779 0.737693 0.675137 0.000000
-13.541775 -12.371568 -0.375117 773 0.737693 0.675137 0.000000
-13.542125 -12.371889 -0.369493 759 0.737693 0.675137 0.000000
-13.542574 -12.372303 -0.363869 761 0.737693 0.675137 0.000000
-13.542064 -12.371841 -0.358224 759 0.737693 0.675137 0.000000
-13.542252 -12.372009 -0.352592 733 0.737693 0.675137 0.000000
-13.543994 -12.373598 -0.346995 785 0.737693 0.675137 0.000000
-13.544133 -12.373730 -0.341364 793 0.737693 0.675137 0.000000
-13.543119 -12.372807 -0.335703 779 0.737693 0.675137 0.000000
-13.542113 -12.371889 -0.330052 765 0.737693 0.675137 0.000000
-13.540996 -12.370871 -0.324393 733 0.737693 0.675137 0.000000
-13.542195 -12.371966 -0.318781 749 0.737693 0.675137 0.000000
-13.543674 -12.373309 -0.313178 779 0.737693 0.675137 0.000000
-13.543409 -12.373080 -0.307540 777 0.737693 0.675137 0.000000
-13.543478 -12.373141 -0.301909 775 0.737693 0.675137 0.000000
-13.543429 -12.373096 -0.296269 781 0.737693 0.675137 0.000000
-13.545723 -12.367118 -0.690817 781 0.737693 0.675137 0.000000
-13.545832 -12.367210 -0.685186 779 0.737693 0.675137 0.000000
-13.546571 -12.367890 -0.679579 783 0.737693 0.675137 0.000000
-13.546720 -12.368028 -0.673947 811 0.737693 0.675137 0.000000
-13.544603 -12.366093 -0.668207 767 0.737693 0.675137 0.000000
-13.544267 -12.365781 -0.662550 783 0.737693 0.675137 0.000000
-13.545220 -12.366656 -0.656951 779 0.737693 0.675137 0.000000
-13.546173 -12.367518 -0.651362 787 0.737693 0.675137 0.000000
-13.546266 -12.367613 -0.645721 773 0.737693 0.675137 0.000000
-13.546033 -12.367396 -0.640073 779 0.737693 0.675137 0.000000
-13.546381 -12.367717 -0.634449 781 0.737693 0.675137 0.000000
-13.546417 -12.367752 -0.628809 793 0.737693 0.675137 0.000000
-13.546613 -12.367927 -0.623187 787 0.737693 0.675137 0.000000
-13.546963 -12.368247 -0.617554 783 0.737693 0.675137 0.000000
-13.546400 -12.367733 -0.611899 773 0.737693 0.675137 0.000000
-13.546096 -12.367460 -0.606241 767 0.737693 0.675137 0.000000
-13.545965 -12.367338 -0.600592 785 0.737693 0.675137 0.000000
-13.546098 -12.367463 -0.594961 793 0.737693 0.675137 0.000000
-13.546551 -12.367878 -0.589347 775 0.737693 0.675137 0.000000
-13.545821 -12.367207 -0.583673 749 0.737693 0.675137 0.000000
-13.546376 -12.367716 -0.578058 773 0.737693 0.675137 0.000000
-13.546726 -12.368036 -0.572435 783 0.737693 0.675137 0.000000
-13.545711 -12.367112 -0.566754 771 0.737693 0.675137 0.000000
-13.546163 -12.367527 -0.561140 783 0.737693 0.675137 0.000000
-13.545959 -12.367334 -0.555492 811 0.737693 0.675137 0.000000
-13.546731 -12.368042 -0.549884 803 0.737693 0.675137 0.000000
-13.547174 -12.368450 -0.544260 813 0.737693 0.675137 0.000000
-13.546700 -12.368018 -0.538604 815 0.737693 0.675137 0.000000
-13.547463 -12.368717 -0.532997 775 0.737693 0.675137 0.000000
-13.548123 -12.369322 -0.527381 783 0.737693 0.675137 0.000000
-13.546891 -12.368188 -0.521702 771 0.737693 0.675137 0.000000
-13.545973 -12.367353 -0.516030 787 0.737693 0.675137 0.000000
-13.546034 -12.367408 -0.510390 801 0.737693 0.675137 0.000000
-13.545873 -12.367262 -0.504751 777 0.737693 0.675137 0.000000
-13.546579 -12.367918 -0.499134 787 0.737693 0.675137 0.000000
-13.546633 -12.367967 -0.493504 793 0.737693 0.675137 0.000000
-13.545451 -12.366884 -0.487825 787 0.737693 0.675137 0.000000
-13.545342 -12.366780 -0.482185 795 0.737693 0.675137 0.000000
-13.546855 -12.368161 -0.476601 803 0.737693 0.675137 0.000000
-13.547276 -12.368552 -0.470977 785 0.737693 0.675137 0.000000
-13.546618 -12.367949 -0.465323 803 0.737693 0.675137 0.000000
-13.545644 -12.367057 -0.459652 785 0.737693 0.675137 0.000000
-13.546016 -12.367396 -0.454029 801 0.737693 0.675137 0.000000
-13.546498 -12.367837 -0.448404 793 0.737693 0.675137 0.000000
-13.546208 -12.367576 -0.442757 783 0.737693 0.675137 0.000000
-13.547067 -12.368362 -0.437148 779 0.737693 0.675137 0.000000
-13.546834 -12.368147 -0.431510 761 0.737693 0.675137 0.000000
-13.546226 -12.367596 -0.425856 771 0.737693 0.675137 0.000000
-13.546693 -12.368023 -0.420231 775 0.737693 0.675137 0.000000
-13.546363 -12.367718 -0.414584 781 0.737693 0.675137 0.000000
-13.546227 -12.367604 -0.408946 775 0.737693 0.675137 0.000000
-13.546645 -12.367979 -0.403322 769 0.737693 0.675137 0.000000
-13.547216 -12.368502 -0.397706 777 0.737693 0.675137 0.000000
-13.546879 -12.368190 -0.392059 767 0.737693 0.675137 0.000000
-13.547011 -12.368315 -0.386428 779 0.737693 0.675137 0.000000
-13.548069 -12.369287 -0.380818 793 0.737693 0.675137 0.000000
-13.547660 -12.368918 -0.375171 767 0.737693 0.675137 0.000000
-13.546453 -12.367804 -0.369503 741 0.737693 0.675137 0.000000
-13.546412 -12.367778 -0.363863 747 0.737693 0.675137 0.000000
-13.546607 -12.367951 -0.358241 757 0.737693 0.675137 0.000000
-13.546684 -12.368019 -0.352600 769 0.737693 0.675137 0.000000
-13.546052 -12.367449 -0.346956 773 0.737693 0.675137 0.000000
-13.546402 -12.367770 -0.341322 761 0.737693 0.675137 0.000000
-13.546852 -12.368185 -0.335708 751 0.737693 0.675137 0.000000
-13.546116 -12.367507 -0.330055 767 0.737693 0.675137 0.000000
-13.545643 -12.367075 -0.324409 757 0.737693 0.675137 0.000000
-13.546740 -12.368077 -0.318799 751 0.737693 0.675137 0.000000
-13.547072 -12.368385 -0.313165 757 0.737693 0.675137 0.000000
-13.545572 -12.367013 -0.307499 757 0.737693 0.675137 0.000000
-13.544724 -12.366234 -0.301847 751 0.737693 0.675137 0.000000
-13.545543 -12.366990 -0.296229 735 0.737693 0.675137 0.000000
-13.549511 -12.362539 -0.690811 767 0.737693 0.675137 0.000000
-13.549438 -12.362476 -0.685172 781 0.737693 0.675137 0.000000
-13.549115 -12.362176 -0.679515 769 0.737693 0.675137 0.000000
-13.548555 -12.361662 -0.673840 779 0.737693 0.675137 0.000000
-13.548219 -12.361365 -0.668193 767 0.737693 0.675137 0.000000
-13.550045 -12.363022 -0.662636 773 0.737693 0.675137 0.000000
-13.551438 -12.364297 -0.657063 767 0.737693 0.675137 0.000000
-13.550774 -12.363688 -0.651389 785 0.737693 0.675137 0.000000
-13.550916 -12.363819 -0.645757 783 0.737693 0.675137 0.000000
-13.550291 -12.363256 -0.640093 793 0.737693 0.675137 0.000000
-13.549731 -12.362742 -0.634428 797 0.737693 0.675137 0.000000
-13.549933 -12.362922 -0.628796 781 0.737693 0.675137 0.000000
-13.550013 -12.363004 -0.623155 771 0.737693 0.675137 0.000000
-13.550585 -12.363525 -0.617539 773 0.737693 0.675137 0.000000
-13.550238 -12.363207 -0.611893 767 0.737693 0.675137 0.000000
-13.549509 -12.362535 -0.606219 765 0.737693 0.675137 0.000000
-13.549753 -12.362761 -0.600587 793 0.737693 0.675137 0.000000
-13.549928 -12.362930 -0.594955 773 0.737693 0.675137 0.000000
-13.550497 -12.363439 -0.589350 763 0.737693 0.675137 0.000000
-13.550678 -12.363615 -0.583718 767 0.737693 0.675137 0.000000
-13.550164 -12.363138 -0.578052 775 0.737693 0.675137 0.000000
-13.549638 -12.362664 -0.572397 785 0.737693 0.675137 0.000000
-13.549825 -12.362832 -0.566765 781 0.737693 0.675137 0.000000
-13.550158 -12.363140 -0.561142 785 0.737693 0.675137 0.000000
-13.550450 -12.363403 -0.555509 781 0.737693 0.675137 0.000000
-13.550894 -12.363812 -0.549895 785 0.737693 0.675137 0.000000
-13.551487 -12.364352 -0.544279 793 0.737693 0.675137 0.000000
-13.551135 -12.364029 -0.538622 803 0.737693 0.675137 0.000000
-13.550439 -12.363396 -0.532959 775 0.737693 0.675137 0.000000
-13.550611 -12.363550 -0.527327 767 0.737693 0.675137 0.000000
-13.551534 -12.364403 -0.521728 783 0.737693 0.675137 0.000000
-13.552025 -12.364849 -0.516104 797 0.737693 0.675137 0.000000
-13.550787 -12.363723 -0.510425 797 0.737693 0.675137 0.000000
-13.549446 -12.362489 -0.504737 773 0.737693 0.675137 0.000000
-13.550360 -12.363335 -0.499129 781 0.737693 0.675137 0.000000
-13.551231 -12.364120 -0.493531 777 0.737693 0.675137 0.000000
-13.550418 -12.363380 -0.487858 795 0.737693 0.675137 0.000000
-13.550303 -12.363284 -0.482219 815 0.737693 0.675137 0.000000
-13.551010 -12.363926 -0.476612 781 0.737693 0.675137 0.000000
-13.550300 -12.363280 -0.470949 791 0.737693 0.675137 0.000000
-13.549005 -12.362097 -0.465270 777 0.737693 0.675137 0.000000
-13.548572 -12.361697 -0.459614 763 0.737693 0.675137 0.000000
-13.549262 -12.362326 -0.454008 787 0.737693 0.675137 0.000000
-13.550814 -12.363752 -0.448423 769 0.737693 0.675137 0.000000
-13.551941 -12.364779 -0.442813 773 0.737693 0.675137 0.000000
-13.552521 -12.365308 -0.437197 783 0.737693 0.675137 0.000000
-13.552191 -12.365003 -0.431550 777 0.737693 0.675137 0.000000
-13.551311 -12.364198 -0.425888 785 0.737693 0.675137 0.000000
-13.550584 -12.363540 -0.420235 773 0.737693 0.675137 0.000000
-13.549816 -12.362837 -0.414572 761 0.737693 0.675137 0.000000
-13.550230 -12.363222 -0.408948 759 0.737693 0.675137 0.000000
-13.551239 -12.364141 -0.403338 765 0.737693 0.675137 0.000000
-13.551594 -12.364468 -0.397715 753 0.737693 0.675137 0.000000
-13.551735 -12.364598 -0.392083 759 0.737693 0.675137 0.000000
-13.551923 -12.364767 -0.386451 775 0.737693 0.675137 0.000000
-13.551960 -12.364803 -0.380821 775 0.737693 0.675137 0.000000
-13.551343 -12.364233 -0.375167 771 0.737693 0.675137 0.000000
-13.550233 -12.363220 -0.369497 765 0.737693 0.675137 0.000000
-13.549936 -12.362954 -0.363859 749 0.737693 0.675137 0.000000
-13.549686 -12.362723 -0.358212 753 0.737693 0.675137 0.000000
-13.549438 -12.362509 -0.352574 769 0.737693 0.675137 0.000000
-13.550333 -12.363313 -0.346965 771 0.737693 0.675137 0.000000
-13.550619 -12.363584 -0.341332 753 0.737693 0.675137 0.000000
-13.550481 -12.363455 -0.335694 745 0.737693 0.675137 0.000000
-13.551141 -12.364060 -0.330077 743 0.737693 0.675137 0.000000
-13.550674 -12.363635 -0.324432 755 0.737693 0.675137 0.000000
-13.550529 -12.363502 -0.318793 735 0.737693 0.675137 0.000000
-13.551403 -12.364301 -0.313175 755 0.737693 0.675137 0.000000
-13.550444 -12.363420 -0.307523 765 0.737693 0.675137 0.000000
-13.550623 -12.363582 -0.301892 757 0.737693 0.675137 0.000000
-13.551984 -12.364832 -0.296289 789 0.737693 0.675137 0.000000
-13.553396 -12.358051 -0.690804 775 0.737693 0.675137 0.000000
-13.554036 -12.358629 -0.685198 779 0.737693 0.675137 0.000000
-13.554681 -12.359222 -0.679592 773 0.737693 0.675137 0.000000
-13.553577 -12.358215 -0.673892 767 0.737693 0.675137 0.000000
-13.553352 -12.358006 -0.668244 771 0.737693 0.675137 0.000000
-13.553660 -12.358294 -0.662621 773 0.737693 0.675137 0.000000
-13.553648 -12.358278 -0.656981 757 0.737693 0.675137 0.000000
-13.554492 -12.359055 -0.651383 773 0.737693 0.675137 0.000000
-13.555501 -12.359975 -0.645784 757 0.737693 0.675137 0.000000
-13.554510 -12.359070 -0.640103 771 0.737693 0.675137 0.000000
-13.554221 -12.358809 -0.634445 765 0.737693 0.675137 0.000000
-13.553826 -12.358440 -0.628789 763 0.737693 0.675137 0.000000
-13.553905 -12.358521 -0.623158 777 0.737693 0.675137 0.000000
-13.554795 -12.359334 -0.617560 795 0.737693 0.675137 0.000000
-13.554726 -12.359261 -0.611910 781 0.737693 0.675137 0.000000
-13.554421 -12.358988 -0.606263 775 0.737693 0.675137 0.000000
-13.554292 -12.358866 -0.600614 771 0.737693 0.675137 0.000000
-13.554472 -12.359042 -0.594982 751 0.737693 0.675137 0.000000
-13.554389 -12.358957 -0.589343 765 0.737693 0.675137 0.000000
-13.554952 -12.359472 -0.583727 767 0.737693 0.675137 0.000000
-13.554599 -12.359149 -0.578071 767 0.737693 0.675137 0.000000
-13.553418 -12.358081 -0.572391 759 0.737693 0.675137 0.000000
-13.553119 -12.357800 -0.566734 757 0.737693 0.675137 0.000000
-13.554050 -12.358658 -0.561135 767 0.737693 0.675137 0.000000
-13.555528 -12.360001 -0.555561 779 0.737693 0.675137 0.000000
-13.554993 -12.359519 -0.549896 775 0.737693 0.675137 0.000000
-13.554527 -12.359094 -0.544240 767 0.737693 0.675137 0.000000
-13.554972 -12.359503 -0.538616 777 0.737693 0.675137 0.000000
-13.554602 -12.359165 -0.532969 779 0.737693 0.675137 0.000000
-13.553907 -12.358534 -0.527306 755 0.737693 0.675137 0.000000
-13.554509 -12.359079 -0.521690 791 0.737693 0.675137 0.000000
-13.555376 -12.359874 -0.516082 777 0.737693 0.675137 0.000000
-13.554353 -12.358944 -0.510411 775 0.737693 0.675137 0.000000
-13.553226 -12.357905 -0.504732 771 0.737693 0.675137 0.000000
-13.553175 -12.357859 -0.499092 771 0.737693 0.675137 0.000000
-13.553603 -12.358256 -0.493468 765 0.737693 0.675137 0.000000
-13.555178 -12.359687 -0.487893 799 0.737693 0.675137 0.000000
-13.555239 -12.359741 -0.482252 779 0.737693 0.675137 0.000000
-13.554902 -12.359444 -0.476605 799 0.737693 0.675137 0.000000
-13.553927 -12.358551 -0.470934 793 0.737693 0.675137 0.000000
-13.554298 -12.358891 -0.465311 773 0.737693 0.675137 0.000000
-13.554559 -12.359128 -0.459688 775 0.737693 0.675137 0.000000
-13.554173 -12.358779 -0.454032 771 0.737693 0.675137 0.000000
-13.555414 -12.359907 -0.448440 775 0.737693 0.675137 0.000000
-13.555721 -12.360196 -0.442817 793 0.737693 0.675137 0.000000
-13.554795 -12.359342 -0.437145 793 0.737693 0.675137 0.000000
-13.554297 -12.358891 -0.431500 767 0.737693 0.675137 0.000000
-13.553579 -12.358239 -0.425836 749 0.737693 0.675137 0.000000
-13.555026 -12.359557 -0.420243 769 0.737693 0.675137 0.000000
-13.555167 -12.359689 -0.414611 775 0.737693 0.675137 0.000000
-13.553102 -12.357804 -0.408920 763 0.737693 0.675137 0.000000
-13.553289 -12.357973 -0.403289 731 0.737693 0.675137 0.000000
-13.554083 -12.358697 -0.397671 745 0.737693 0.675137 0.000000
-13.553946 -12.358582 -0.392032 753 0.737693 0.675137 0.000000
-13.554253 -12.358857 -0.386409 747 0.737693 0.675137 0.000000
-13.555142 -12.359670 -0.380801 755 0.737693 0.675137 0.000000
-13.555442 -12.359940 -0.375168 725 0.737693 0.675137 0.000000
