749
-11.794585 -11.294032 -0.380716 1323 0.724118 0.689676 0.000000
-11.794411 -11.293860 -0.375698 1315 0.724118 0.689676 0.000000
-11.794379 -11.293829 -0.370678 1317 0.724118 0.689676 0.000000
-11.794460 -11.293915 -0.365657 1327 0.724118 0.689676 0.000000
-11.794119 -11.293583 -0.360630 1319 0.724118 0.689676 0.000000
-11.793976 -11.293450 -0.355612 1317 0.724118 0.689676 0.000000
-11.794111 -11.293578 -0.350600 1319 0.724118 0.689676 0.000000
-11.794550 -11.294001 -0.345596 1319 0.724118 0.689676 0.000000
-11.794878 -11.294322 -0.340583 1317 0.724118 0.689676 0.000000
-11.794486 -11.293938 -0.335556 1325 0.724118 0.689676 0.000000
-11.794393 -11.293858 -0.330537 1327 0.724118 0.689676 0.000000
-11.794831 -11.294280 -0.325533 1323 0.724118 0.689676 0.000000
-11.795540 -11.294956 -0.320536 1343 0.724118 0.689676 0.000000
-11.794761 -11.294211 -0.315503 1327 0.724118 0.689676 0.000000
-11.793926 -11.293408 -0.310461 1315 0.724118 0.689676 0.000000
-11.793147 -11.292664 -0.305428 1319 0.724118 0.689676 0.000000
-11.792949 -11.292473 -0.300410 1327 0.724118 0.689676 0.000000
-11.799335 -11.291467 -0.687014 1319 0.724118 0.689676 0.000000
-11.799432 -11.291563 -0.682003 1323 0.724118 0.689676 0.000000
-11.799369 -11.291508 -0.676973 1321 0.724118 0.689676 0.000000
-11.799672 -11.291796 -0.671970 1323 0.724118 0.689676 0.000000
-11.799870 -11.291987 -0.666948 1321 0.724118 0.689676 0.000000
-11.799801 -11.291925 -0.661929 1319 0.724118 0.689676 0.000000
-11.799577 -11.291702 -0.656891 1321 0.724118 0.689676 0.000000
-11.799658 -11.291787 -0.651870 1325 0.724118 0.689676 0.000000
-11.799747 -11.291878 -0.646849 1321 0.724118 0.689676 0.000000
-11.799524 -11.291655 -0.641821 1319 0.724118 0.689676 0.000000
-11.799557 -11.291688 -0.636801 1319 0.724118 0.689676 0.000000
-11.799478 -11.291619 -0.631771 1317 0.724118 0.689676 0.000000
-11.798825 -11.290988 -0.626717 1329 0.724118 0.689676 0.000000
-11.798546 -11.290720 -0.621680 1323 0.724118 0.689676 0.000000
-11.798357 -11.290549 -0.616641 1325 0.724118 0.689676 0.000000
-11.798437 -11.290620 -0.611630 1323 0.724118 0.689676 0.000000
-11.798994 -11.291151 -0.606635 1317 0.724118 0.689676 0.000000
-11.799115 -11.291281 -0.601614 1315 0.724118 0.689676 0.000000
-11.799147 -11.291300 -0.596593 1311 0.724118 0.689676 0.000000
-11.799115 -11.291268 -0.591574 1323 0.724118 0.689676 0.000000
-11.799300 -11.291450 -0.586562 1329 0.724118 0.689676 0.000000
-11.799839 -11.291965 -0.581567 1331 0.724118 0.689676 0.000000
-11.799913 -11.292045 -0.576546 1335 0.724118 0.689676 0.000000
-11.799515 -11.291656 -0.571509 1331 0.724118 0.689676 0.000000
-11.799319 -11.291480 -0.566481 1323 0.724118 0.689676 0.000000
-11.799071 -11.291237 -0.561443 1317 0.724118 0.689676 0.000000
-11.798810 -11.290997 -0.556416 1307 0.724118 0.689676 0.000000
-11.799470 -11.291622 -0.551419 1311 0.724118 0.689676 0.000000
-11.799748 -11.291891 -0.546417 1325 0.724118 0.689676 0.000000
-11.799335 -11.291490 -0.541370 1321 0.724118 0.689676 0.000000
-11.799393 -11.291555 -0.536350 1327 0.724118 0.689676 0.000000
-11.799513 -11.291672 -0.531338 1325 0.724118 0.689676 0.000000
-11.799369 -11.291525 -0.526310 1325 0.724118 0.689676 0.000000
-11.799163 -11.291328 -0.521281 1331 0.724118 0.689676 0.000000
-11.798734 -11.290928 -0.516245 1327 0.724118 0.689676 0.000000
-11.798959 -11.291140 -0.511233 1325 0.724118 0.689676 0.000000
-11.798903 -11.291090 -0.506214 1321 0.724118 0.689676 0.000000
-11.798912 -11.291104 -0.501193 1323 0.724118 0.689676 0.000000
-11.799492 -11.291653 -0.496198 1321 0.724118 0.689676 0.000000
-11.799129 -11.291304 -0.491161 1321 0.724118 0.689676 0.000000
-11.798692 -11.290896 -0.486125 1315 0.724118 0.689676 0.000000
-11.799120 -11.291298 -0.481121 1309 0.724118 0.689676 0.000000
-11.799433 -11.291607 -0.476118 1315 0.724118 0.689676 0.000000
-11.799965 -11.292104 -0.471113 1315 0.724118 0.689676 0.000000
-11.799481 -11.291647 -0.466077 1313 0.724118 0.689676 0.000000
-11.798574 -11.290786 -0.461026 1317 0.724118 0.689676 0.000000
-11.798193 -11.290423 -0.455989 1313 0.724118 0.689676 0.000000
-11.798027 -11.290259 -0.450970 1313 0.724118 0.689676 0.000000
-11.798019 -11.290260 -0.445950 1307 0.724118 0.689676 0.000000
-11.798378 -11.290606 -0.440947 1317 0.724118 0.689676 0.000000
-11.798474 -11.290689 -0.435926 1325 0.724118 0.689676 0.000000
-11.798513 -11.290729 -0.430915 1329 0.724118 0.689676 0.000000
-11.798761 -11.290972 -0.425903 1335 0.724118 0.689676 0.000000
-11.797696 -11.289947 -0.420843 1321 0.724118 0.689676 0.000000
-11.797036 -11.289321 -0.415809 1321 0.724118 0.689676 0.000000
-11.798079 -11.290318 -0.410819 1321 0.724118 0.689676 0.000000
-11.798540 -11.290759 -0.405825 1317 0.724118 0.689676 0.000000
-11.798256 -11.290486 -0.400797 1305 0.724118 0.689676 0.000000
-11.798335 -11.290570 -0.395776 1309 0.724118 0.689676 0.000000
-11.798161 -11.290399 -0.390758 1325 0.724118 0.689676 0.000000
-11.797812 -11.290075 -0.385731 1325 0.724118 0.689676 0.000000
-11.797741 -11.289999 -0.380711 1315 0.724118 0.689676 0.000000
-11.797925 -11.290179 -0.375700 1325 0.724118 0.689676 0.000000
-11.798329 -11.290562 -0.370686 1319 0.724118 0.689676 0.000000
-11.798715 -11.290941 -0.365682 1321 0.724118 0.689676 0.000000
-11.798325 -11.290559 -0.360655 1317 0.724118 0.689676 0.000000
-11.798182 -11.290425 -0.355637 1315 0.724118 0.689676 0.000000
-11.798475 -11.290707 -0.350624 1323 0.724118 0.689676 0.000000
-11.798285 -11.290523 -0.345605 1317 0.724118 0.689676 0.000000
-11.797832 -11.290090 -0.340570 1313 0.724118 0.689676 0.000000
-11.798058 -11.290316 -0.335567 1325 0.724118 0.689676 0.000000
-11.797756 -11.290030 -0.330540 1327 0.724118 0.689676 0.000000
-11.797668 -11.289941 -0.325521 1331 0.724118 0.689676 0.000000
-11.798217 -11.290464 -0.320516 1335 0.724118 0.689676 0.000000
-11.797430 -11.289713 -0.315483 1317 0.724118 0.689676 0.000000
-11.796810 -11.289120 -0.310449 1311 0.724118 0.689676 0.000000
-11.797091 -11.289391 -0.305436 1321 0.724118 0.689676 0.000000
-11.797569 -11.289858 -0.300431 1325 0.724118 0.689676 0.000000
-11.802463 -11.287565 -0.686998 1321 0.724118 0.689676 0.000000
-11.802351 -11.287457 -0.681969 1319 0.724118 0.689676 0.000000
-11.802502 -11.287599 -0.676958 1321 0.724118 0.689676 0.000000
-11.802964 -11.288039 -0.671963 1325 0.724118 0.689676 0.000000
-11.802941 -11.288028 -0.666933 1317 0.724118 0.689676 0.000000
-11.802775 -11.287864 -0.661905 1325 0.724118 0.689676 0.000000
-11.802917 -11.287997 -0.656883 1331 0.724118 0.689676 0.000000
-11.802792 -11.287878 -0.651854 1323 0.724118 0.689676 0.000000
-11.802935 -11.288012 -0.646843 1325 0.724118 0.689676 0.000000
-11.802753 -11.287848 -0.641805 1323 0.724118 0.689676 0.000000
-11.802896 -11.287983 -0.636793 1323 0.724118 0.689676 0.000000
-11.803032 -11.288111 -0.631772 1325 0.724118 0.689676 0.000000
-11.802063 -11.287188 -0.626701 1329 0.724118 0.689676 0.000000
-11.801769 -11.286907 -0.621663 1327 0.724118 0.689676 0.000000
-11.801802 -11.286941 -0.616643 1309 0.724118 0.689676 0.000000
-11.802145 -11.287274 -0.611640 1305 0.724118 0.689676 0.000000
-11.803171 -11.288258 -0.606670 1329 0.724118 0.689676 0.000000
-11.802884 -11.287984 -0.601632 1317 0.724118 0.689676 0.000000
-11.802646 -11.287748 -0.596604 1321 0.724118 0.689676 0.000000
-11.803037 -11.288119 -0.591601 1323 0.724118 0.689676 0.000000
-11.802950 -11.288044 -0.586571 1327 0.724118 0.689676 0.000000
-11.802966 -11.288064 -0.581551 1321 0.724118 0.689676 0.000000
-11.803095 -11.288188 -0.576540 1321 0.724118 0.689676 0.000000
-11.802696 -11.287798 -0.571493 1323 0.724118 0.689676 0.000000
-11.802722 -11.287826 -0.566473 1317 0.724118 0.689676 0.000000
-11.803144 -11.288235 -0.561479 1321 0.724118 0.689676 0.000000
-11.802373 -11.287496 -0.556416 1311 0.724118 0.689676 0.000000
-11.802333 -11.287457 -0.551396 1323 0.724118 0.689676 0.000000
-11.802404 -11.287521 -0.546376 1323 0.724118 0.689676 0.000000
-11.801612 -11.286777 -0.541323 1309 0.724118 0.689676 0.000000
-11.801729 -11.286879 -0.536302 1321 0.724118 0.689676 0.000000
-11.802265 -11.287405 -0.531306 1329 0.724118 0.689676 0.000000
-11.802654 -11.287776 -0.526303 1325 0.724118 0.689676 0.000000
-11.802662 -11.287776 -0.521283 1321 0.724118 0.689676 0.000000
-11.802456 -11.287580 -0.516254 1321 0.724118 0.689676 0.000000
-11.802928 -11.288041 -0.511260 1317 0.724118 0.689676 0.000000
-11.802992 -11.288099 -0.506239 1323 0.724118 0.689676 0.000000
-11.802045 -11.287194 -0.501178 1307 0.724118 0.689676 0.000000
-11.802045 -11.287189 -0.496158 1305 0.724118 0.689676 0.000000
-11.803208 -11.288307 -0.491187 1321 0.724118 0.689676 0.000000
-11.803264 -11.288358 -0.486176 1317 0.724118 0.689676 0.000000
-11.802931 -11.288047 -0.481139 1325 0.724118 0.689676 0.000000
-11.802613 -11.287748 -0.476102 1327 0.724118 0.689676 0.000000
-11.801189 -11.286383 -0.471035 1301 0.724118 0.689676 0.000000
-11.801341 -11.286524 -0.466024 1313 0.724118 0.689676 0.000000
-11.802027 -11.287184 -0.461027 1319 0.724118 0.689676 0.000000
-11.801859 -11.287018 -0.455999 1315 0.724118 0.689676 0.000000
-11.801955 -11.287115 -0.450987 1315 0.724118 0.689676 0.000000
-11.802211 -11.287366 -0.445975 1331 0.724118 0.689676 0.000000
-11.802570 -11.287711 -0.440971 1327 0.724118 0.689676 0.000000
-11.802396 -11.287540 -0.435943 1325 0.724118 0.689676 0.000000
-11.801752 -11.286928 -0.430909 1319 0.724118 0.689676 0.000000
-11.801894 -11.287063 -0.425887 1329 0.724118 0.689676 0.000000
-11.801775 -11.286949 -0.420869 1325 0.724118 0.689676 0.000000
-11.801594 -11.286785 -0.415850 1327 0.724118 0.689676 0.000000
-11.801420 -11.286613 -0.410822 1321 0.724118 0.689676 0.000000
-11.801881 -11.287054 -0.405817 1327 0.724118 0.689676 0.000000
-11.802287 -11.287438 -0.400813 1323 0.724118 0.689676 0.000000
-11.801739 -11.286916 -0.395778 1319 0.724118 0.689676 0.000000
-11.800810 -11.286037 -0.390727 1307 0.724118 0.689676 0.000000
-11.801424 -11.286626 -0.385731 1321 0.724118 0.689676 0.000000
-11.801455 -11.286658 -0.380720 1321 0.724118 0.689676 0.000000
-11.801479 -11.286672 -0.375700 1319 0.724118 0.689676 0.000000
-11.802673 -11.287814 -0.370719 1323 0.724118 0.689676 0.000000
-11.802539 -11.287687 -0.365700 1325 0.724118 0.689676 0.000000
-11.801768 -11.286963 -0.360657 1317 0.724118 0.689676 0.000000
-11.801896 -11.287085 -0.355646 1331 0.724118 0.689676 0.000000
-11.801705 -11.286901 -0.350617 1331 0.724118 0.689676 0.000000
-11.801251 -11.286468 -0.345592 1313 0.724118 0.689676 0.000000
-11.802120 -11.287297 -0.340593 1329 0.724118 0.689676 0.000000
-11.802462 -11.287617 -0.335590 1333 0.724118 0.689676 0.000000
-11.801367 -11.286580 -0.330540 1325 0.724118 0.689676 0.000000
-11.800690 -11.285930 -0.325506 1325 0.724118 0.689676 0.000000
-11.801080 -11.286301 -0.320503 1329 0.724118 0.689676 0.000000
-11.801257 -11.286474 -0.315491 1309 0.724118 0.689676 0.000000
-11.801161 -11.286379 -0.310472 1315 0.724118 0.689676 0.000000
-11.800908 -11.286145 -0.305454 1309 0.724118 0.689676 0.000000
-11.801179 -11.286407 -0.300441 1317 0.724118 0.689676 0.000000
-11.806602 -11.284078 -0.687026 1325 0.724118 0.689676 0.000000
-11.806643 -11.284118 -0.682006 1323 0.724118 0.689676 0.000000
-11.806006 -11.283512 -0.676941 1321 0.724118 0.689676 0.000000
-11.806358 -11.283852 -0.671938 1325 0.724118 0.689676 0.000000
-11.806510 -11.283993 -0.666926 1315 0.724118 0.689676 0.000000
-11.806382 -11.283873 -0.661898 1311 0.724118 0.689676 0.000000
-11.806361 -11.283862 -0.656878 1319 0.724118 0.689676 0.000000
-11.806662 -11.284149 -0.651865 1319 0.724118 0.689676 0.000000
-11.807125 -11.284591 -0.646870 1325 0.724118 0.689676 0.000000
-11.807158 -11.284624 -0.641850 1327 0.724118 0.689676 0.000000
-11.806561 -11.284051 -0.636795 1335 0.724118 0.689676 0.000000
-11.806005 -11.283523 -0.631740 1333 0.724118 0.689676 0.000000
-11.806258 -11.283758 -0.626728 1327 0.724118 0.689676 0.000000
-11.806394 -11.283886 -0.621716 1321 0.724118 0.689676 0.000000
-11.806261 -11.283761 -0.616688 1313 0.724118 0.689676 0.000000
-11.806389 -11.283896 -0.611666 1317 0.724118 0.689676 0.000000
-11.806260 -11.283762 -0.606637 1317 0.724118 0.689676 0.000000
-11.805966 -11.283483 -0.601600 1317 0.724118 0.689676 0.000000
-11.805729 -11.283259 -0.596572 1311 0.724118 0.689676 0.000000
-11.805960 -11.283479 -0.591560 1327 0.724118 0.689676 0.000000
-11.806033 -11.283557 -0.586539 1327 0.724118 0.689676 0.000000
-11.806161 -11.283679 -0.581528 1319 0.724118 0.689676 0.000000
-11.805758 -11.283298 -0.576491 1313 0.724118 0.689676 0.000000
-11.805717 -11.283259 -0.571462 1317 0.724118 0.689676 0.000000
-11.806427 -11.283937 -0.566475 1321 0.724118 0.689676 0.000000
-11.806760 -11.284251 -0.561472 1333 0.724118 0.689676 0.000000
-11.806458 -11.283964 -0.556434 1327 0.724118 0.689676 0.000000
-11.806205 -11.283731 -0.551407 1335 0.724118 0.689676 0.000000
-11.805687 -11.283232 -0.546361 1315 0.724118 0.689676 0.000000
-11.805760 -11.283298 -0.541341 1319 0.724118 0.689676 0.000000
-11.806032 -11.283561 -0.536338 1325 0.724118 0.689676 0.000000
-11.805936 -11.283465 -0.531309 1321 0.724118 0.689676 0.000000
-11.806105 -11.283633 -0.526297 1317 0.724118 0.689676 0.000000
-11.805898 -11.283437 -0.521269 1321 0.724118 0.689676 0.000000
-11.805746 -11.283297 -0.516240 1333 0.724118 0.689676 0.000000
-11.806433 -11.283956 -0.511253 1325 0.724118 0.689676 0.000000
-11.805970 -11.283502 -0.506208 1319 0.724118 0.689676 0.000000
-11.805223 -11.282795 -0.501165 1321 0.724118 0.689676 0.000000
-11.805708 -11.283256 -0.496160 1325 0.724118 0.689676 0.000000
-11.806021 -11.283565 -0.491157 1325 0.724118 0.689676 0.000000
-11.805808 -11.283361 -0.486129 1315 0.724118 0.689676 0.000000
-11.805862 -11.283413 -0.481108 1317 0.724118 0.689676 0.000000
-11.805808 -11.283362 -0.476088 1317 0.724118 0.689676 0.000000
-11.805696 -11.283255 -0.471059 1309 0.724118 0.689676 0.000000
-11.806055 -11.283601 -0.466056 1315 0.724118 0.689676 0.000000
-11.806056 -11.283595 -0.461036 1319 0.724118 0.689676 0.000000
-11.805253 -11.282831 -0.455993 1303 0.724118 0.689676 0.000000
-11.804873 -11.282468 -0.450957 1305 0.724118 0.689676 0.000000
-11.805349 -11.282922 -0.445962 1315 0.724118 0.689676 0.000000
-11.805699 -11.283261 -0.440949 1327 0.724118 0.689676 0.000000
-11.805741 -11.283301 -0.435938 1329 0.724118 0.689676 0.000000
-11.805311 -11.282887 -0.430902 1321 0.724118 0.689676 0.000000
-11.804868 -11.282475 -0.425866 1315 0.724118 0.689676 0.000000
-11.805225 -11.282806 -0.420863 1325 0.724118 0.689676 0.000000
-11.805361 -11.282948 -0.415851 1323 0.724118 0.689676 0.000000
-11.805036 -11.282629 -0.410824 1317 0.724118 0.689676 0.000000
-11.804798 -11.282408 -0.405796 1323 0.724118 0.689676 0.000000
-11.805840 -11.283404 -0.400806 1329 0.724118 0.689676 0.000000
-11.805873 -11.283437 -0.395796 1321 0.724118 0.689676 0.000000
-11.804895 -11.282507 -0.390745 1325 0.724118 0.689676 0.000000
-11.804714 -11.282330 -0.385717 1315 0.724118 0.689676 0.000000
-11.804960 -11.282559 -0.380714 1317 0.724118 0.689676 0.000000
-11.805088 -11.282695 -0.375703 1317 0.724118 0.689676 0.000000
-11.805120 -11.282715 -0.370682 1319 0.724118 0.689676 0.000000
-11.805143 -11.282741 -0.365662 1319 0.724118 0.689676 0.000000
-11.805271 -11.282863 -0.360651 1313 0.724118 0.689676 0.000000
-11.805297 -11.282889 -0.355640 1311 0.724118 0.689676 0.000000
-11.805052 -11.282661 -0.350613 1317 0.724118 0.689676 0.000000
-11.805077 -11.282689 -0.345592 1319 0.724118 0.689676 0.000000
-11.805251 -11.282848 -0.340580 1321 0.724118 0.689676 0.000000
-11.804854 -11.282474 -0.335554 1323 0.724118 0.689676 0.000000
-11.804497 -11.282130 -0.330527 1327 0.724118 0.689676 0.000000
-11.804727 -11.282347 -0.325515 1321 0.724118 0.689676 0.000000
-11.804585 -11.282214 -0.320496 1319 0.724118 0.689676 0.000000
-11.803902 -11.281572 -0.315462 1321 0.724118 0.689676 0.000000
-11.804356 -11.281993 -0.310458 1329 0.724118 0.689676 0.000000
-11.804833 -11.282460 -0.305454 1317 0.724118 0.689676 0.000000
-11.804684 -11.282322 -0.300435 1315 0.724118 0.689676 0.000000
-11.810750 -11.280597 -0.687054 1333 0.724118 0.689676 0.000000
-11.810686 -11.280527 -0.682024 1327 0.724118 0.689676 0.000000
-11.810569 -11.280428 -0.676995 1329 0.724118 0.689676 0.000000
-11.810082 -11.279955 -0.671940 1329 0.724118 0.689676 0.000000
-11.810171 -11.280046 -0.666929 1327 0.724118 0.689676 0.000000
-11.809845 -11.279728 -0.661882 1309 0.724118 0.689676 0.000000
-11.810244 -11.280118 -0.656888 1317 0.724118 0.689676 0.000000
-11.810069 -11.279946 -0.651849 1313 0.724118 0.689676 0.000000
-11.809838 -11.279731 -0.646811 1329 0.724118 0.689676 0.000000
-11.809928 -11.279822 -0.641800 1325 0.724118 0.689676 0.000000
-11.809865 -11.279752 -0.636771 1325 0.724118 0.689676 0.000000
-11.809578 -11.279479 -0.631733 1317 0.724118 0.689676 0.000000
-11.809292 -11.279204 -0.626696 1313 0.724118 0.689676 0.000000
-11.809683 -11.279590 -0.621692 1325 0.724118 0.689676 0.000000
-11.810248 -11.280127 -0.616697 1327 0.724118 0.689676 0.000000
-11.810266 -11.280148 -0.611676 1327 0.724118 0.689676 0.000000
-11.810559 -11.280428 -0.606674 1319 0.724118 0.689676 0.000000
-11.810275 -11.280156 -0.601636 1313 0.724118 0.689676 0.000000
-11.809765 -11.279664 -0.596591 1311 0.724118 0.689676 0.000000
-11.809418 -11.279341 -0.591554 1319 0.724118 0.689676 0.000000
-11.809546 -11.279463 -0.586533 1321 0.724118 0.689676 0.000000
-11.809990 -11.279891 -0.581538 1315 0.724118 0.689676 0.000000
-11.809744 -11.279650 -0.576501 1321 0.724118 0.689676 0.000000
-11.809815 -11.279715 -0.571480 1319 0.724118 0.689676 0.000000
-11.809936 -11.279830 -0.566469 1331 0.724118 0.689676 0.000000
-11.809842 -11.279749 -0.561439 1321 0.724118 0.689676 0.000000
-11.810288 -11.280178 -0.556445 1319 0.724118 0.689676 0.000000
-11.809929 -11.279834 -0.551408 1331 0.724118 0.689676 0.000000
-11.809253 -11.279182 -0.546355 1321 0.724118 0.689676 0.000000
-11.809899 -11.279811 -0.541358 1329 0.724118 0.689676 0.000000
-11.809805 -11.279716 -0.536339 1325 0.724118 0.689676 0.000000
-11.809544 -11.279475 -0.531311 1317 0.724118 0.689676 0.000000
-11.809661 -11.279576 -0.526290 1315 0.724118 0.689676 0.000000
-11.809773 -11.279686 -0.521279 1327 0.724118 0.689676 0.000000
-11.809616 -11.279542 -0.516250 1317 0.724118 0.689676 0.000000
-11.810047 -11.279958 -0.511246 1327 0.724118 0.689676 0.000000
-11.810475 -11.280359 -0.506242 1321 0.724118 0.689676 0.000000
-11.810802 -11.280680 -0.501239 1313 0.724118 0.689676 0.000000
-11.810484 -11.280368 -0.496202 1315 0.724118 0.689676 0.000000
-11.809794 -11.279719 -0.491158 1313 0.724118 0.689676 0.000000
-11.809644 -11.279567 -0.486129 1313 0.724118 0.689676 0.000000
-11.809748 -11.279670 -0.481118 1315 0.724118 0.689676 0.000000
-11.810002 -11.279920 -0.476106 1313 0.724118 0.689676 0.000000
-11.809518 -11.279462 -0.471070 1313 0.724118 0.689676 0.000000
-11.809199 -11.279149 -0.466043 1315 0.724118 0.689676 0.000000
-11.809727 -11.279655 -0.461038 1315 0.724118 0.689676 0.000000
-11.809813 -11.279745 -0.456027 1319 0.724118 0.689676 0.000000
-11.809393 -11.279338 -0.450991 1315 0.724118 0.689676 0.000000
-11.809536 -11.279473 -0.445979 1323 0.724118 0.689676 0.000000
-11.809258 -11.279219 -0.440952 1323 0.724118 0.689676 0.000000
-11.809101 -11.279060 -0.435923 1307 0.724118 0.689676 0.000000
-11.809292 -11.279246 -0.430911 1313 0.724118 0.689676 0.000000
-11.808537 -11.278521 -0.425868 1315 0.724118 0.689676 0.000000
-11.808894 -11.278865 -0.420865 1317 0.724118 0.689676 0.000000
-11.809461 -11.279415 -0.415859 1321 0.724118 0.689676 0.000000
-11.808650 -11.278631 -0.410817 1317 0.724118 0.689676 0.000000
-11.808207 -11.278218 -0.405781 1321 0.724118 0.689676 0.000000
-11.808825 -11.278799 -0.400785 1327 0.724118 0.689676 0.000000
-11.808643 -11.278635 -0.395767 1319 0.724118 0.689676 0.000000
-11.808566 -11.278567 -0.390747 1321 0.724118 0.689676 0.000000
-11.808813 -11.278797 -0.385735 1327 0.724118 0.689676 0.000000
-11.808734 -11.278728 -0.380715 1315 0.724118 0.689676 0.000000
-11.809132 -11.279105 -0.375711 1309 0.724118 0.689676 0.000000
-11.809210 -11.279175 -0.370691 1321 0.724118 0.689676 0.000000
-11.808758 -11.278743 -0.365665 1327 0.724118 0.689676 0.000000
-11.808623 -11.278616 -0.360646 1315 0.724118 0.689676 0.000000
-11.809070 -11.279044 -0.355642 1317 0.724118 0.689676 0.000000
-11.808674 -11.278670 -0.350615 1309 0.724118 0.689676 0.000000
-11.808372 -11.278384 -0.345588 1313 0.724118 0.689676 0.000000
-11.809192 -11.279163 -0.340590 1319 0.724118 0.689676 0.000000
-11.809152 -11.279125 -0.335570 1323 0.724118 0.689676 0.000000
-11.808215 -11.278241 -0.330529 1321 0.724118 0.689676 0.000000
-11.808023 -11.278056 -0.325511 1315 0.724118 0.689676 0.000000
-11.807826 -11.277866 -0.320493 1315 0.724118 0.689676 0.000000
-11.808527 -11.278537 -0.315486 1325 0.724118 0.689676 0.000000
-11.808599 -11.278602 -0.310475 1319 0.724118 0.689676 0.000000
-11.808497 -11.278515 -0.305456 1325 0.724118 0.689676 0.000000
-11.808512 -11.278521 -0.300446 1325 0.724118 0.689676 0.000000
-11.813875 -11.276682 -0.687038 1331 0.724118 0.689676 0.000000
-11.813915 -11.276721 -0.682018 1329 0.724118 0.689676 0.000000
-11.813430 -11.276249 -0.676962 1327 0.724118 0.689676 0.000000
-11.813208 -11.276040 -0.671924 1325 0.724118 0.689676 0.000000
-11.813465 -11.276291 -0.666922 1327 0.724118 0.689676 0.000000
-11.813551 -11.276366 -0.661901 1315 0.724118 0.689676 0.000000
-11.813528 -11.276356 -0.656881 1319 0.724118 0.689676 0.000000
-11.813672 -11.276491 -0.651859 1317 0.724118 0.689676 0.000000
-11.813975 -11.276778 -0.646856 1331 0.724118 0.689676 0.000000
-11.813219 -11.276052 -0.641793 1327 0.724118 0.689676 0.000000
-11.812720 -11.275581 -0.636738 1325 0.724118 0.689676 0.000000
-11.812649 -11.275518 -0.631719 1317 0.724118 0.689676 0.000000
-11.813053 -11.275902 -0.626715 1321 0.724118 0.689676 0.000000
-11.813079 -11.275929 -0.621694 1319 0.724118 0.689676 0.000000
-11.813215 -11.276058 -0.616683 1325 0.724118 0.689676 0.000000
-11.813979 -11.276793 -0.611696 1335 0.724118 0.689676 0.000000
-11.814218 -11.277017 -0.606683 1327 0.724118 0.689676 0.000000
-11.813931 -11.276743 -0.601646 1313 0.724118 0.689676 0.000000
-11.813581 -11.276405 -0.596609 1319 0.724118 0.689676 0.000000
-11.813439 -11.276273 -0.591580 1319 0.724118 0.689676 0.000000
-11.813727 -11.276548 -0.586567 1327 0.724118 0.689676 0.000000
-11.813600 -11.276427 -0.581548 1323 0.724118 0.689676 0.000000
-11.813560 -11.276391 -0.576519 1329 0.724118 0.689676 0.000000
-11.813475 -11.276316 -0.571499 1329 0.724118 0.689676 0.000000
-11.813596 -11.276432 -0.566478 1321 0.724118 0.689676 0.000000
-11.813348 -11.276190 -0.561450 1317 0.724118 0.689676 0.000000
-11.812991 -11.275860 -0.556414 1313 0.724118 0.689676 0.000000
-11.813213 -11.276071 -0.551401 1323 0.724118 0.689676 0.000000
-11.812912 -11.275784 -0.546364 1315 0.724118 0.689676 0.000000
-11.812874 -11.275747 -0.541344 1313 0.724118 0.689676 0.000000
-11.812882 -11.275748 -0.536324 1313 0.724118 0.689676 0.000000
-11.813263 -11.276113 -0.531320 1319 0.724118 0.689676 0.000000
-11.813273 -11.276128 -0.526300 1305 0.724118 0.689676 0.000000
-11.813590 -11.276427 -0.521297 1313 0.724118 0.689676 0.000000
-11.813968 -11.276800 -0.516293 1313 0.724118 0.689676 0.000000
-11.813760 -11.276603 -0.511265 1321 0.724118 0.689676 0.000000
-11.813608 -11.276450 -0.506237 1321 0.724118 0.689676 0.000000
-11.813610 -11.276458 -0.501216 1317 0.724118 0.689676 0.000000
-11.813245 -11.276109 -0.496180 1317 0.724118 0.689676 0.000000
-11.812712 -11.275599 -0.491135 1311 0.724118 0.689676 0.000000
-11.812975 -11.275855 -0.486132 1313 0.724118 0.689676 0.000000
-11.813874 -11.276711 -0.481143 1327 0.724118 0.689676 0.000000
-11.813549 -11.276405 -0.476116 1327 0.724118 0.689676 0.000000
-11.813016 -11.275896 -0.471071 1313 0.724118 0.689676 0.000000
-11.813224 -11.276095 -0.466059 1309 0.724118 0.689676 0.000000
-11.813217 -11.276084 -0.461039 1315 0.724118 0.689676 0.000000
-11.813321 -11.276186 -0.456028 1325 0.724118 0.689676 0.000000
-11.812630 -11.275524 -0.450984 1317 0.724118 0.689676 0.000000
-11.811660 -11.274599 -0.445933 1313 0.724118 0.689676 0.000000
-11.812495 -11.275406 -0.440945 1331 0.724118 0.689676 0.000000
-11.812958 -11.275846 -0.435941 1319 0.724118 0.689676 0.000000
-11.812418 -11.275331 -0.430906 1311 0.724118 0.689676 0.000000
-11.812139 -11.275064 -0.425878 1327 0.724118 0.689676 0.000000
-11.812339 -11.275256 -0.420866 1329 0.724118 0.689676 0.000000
-11.812641 -11.275544 -0.415854 1319 0.724118 0.689676 0.000000
-11.812412 -11.275329 -0.410825 1321 0.724118 0.689676 0.000000
-11.812388 -11.275304 -0.405816 1317 0.724118 0.689676 0.000000
-11.812531 -11.275438 -0.400794 1323 0.724118 0.689676 0.000000
-11.812460 -11.275375 -0.395775 1315 0.724118 0.689676 0.000000
-11.812278 -11.275198 -0.390756 1307 0.724118 0.689676 0.000000
-11.812469 -11.275384 -0.385744 1323 0.724118 0.689676 0.000000
-11.812964 -11.275865 -0.380740 1321 0.724118 0.689676 0.000000
-11.812735 -11.275649 -0.375722 1321 0.724118 0.689676 0.000000
-11.812543 -11.275464 -0.370693 1317 0.724118 0.689676 0.000000
-11.812790 -11.275695 -0.365681 1321 0.724118 0.689676 0.000000
-11.812656 -11.275569 -0.360662 1315 0.724118 0.689676 0.000000
-11.812044 -11.274982 -0.355628 1309 0.724118 0.689676 0.000000
-11.811847 -11.274805 -0.350609 1301 0.724118 0.689676 0.000000
-11.812299 -11.275227 -0.345605 1313 0.724118 0.689676 0.000000
-11.812317 -11.275248 -0.340585 1315 0.724118 0.689676 0.000000
-11.812382 -11.275319 -0.335574 1317 0.724118 0.689676 0.000000
-11.812253 -11.275185 -0.330545 1325 0.724118 0.689676 0.000000
-11.812160 -11.275104 -0.325526 1325 0.724118 0.689676 0.000000
-11.812596 -11.275525 -0.320521 1319 0.724118 0.689676 0.000000
-11.812765 -11.275680 -0.315510 1323 0.724118 0.689676 0.000000
-11.812304 -11.275240 -0.310484 1325 0.724118 0.689676 0.000000
-11.812526 -11.275451 -0.305472 1321 0.724118 0.689676 0.000000
-11.812489 -11.275428 -0.300452 1325 0.724118 0.689676 0.000000
-11.816952 -11.272715 -0.687013 1331 0.724118 0.689676 0.000000
-11.816999 -11.272759 -0.681993 1331 0.724118 0.689676 0.000000
-11.817080 -11.272844 -0.676982 1333 0.724118 0.689676 0.000000
-11.817233 -11.272985 -0.671960 1325 0.724118 0.689676 0.000000
-11.817750 -11.273484 -0.666965 1329 0.724118 0.689676 0.000000
-11.817424 -11.273166 -0.661928 1319 0.724118 0.689676 0.000000
-11.816614 -11.272395 -0.656856 1315 0.724118 0.689676 0.000000
-11.816591 -11.272385 -0.651836 1319 0.724118 0.689676 0.000000
-11.816735 -11.272519 -0.646815 1315 0.724118 0.689676 0.000000
-11.816456 -11.272252 -0.641777 1323 0.724118 0.689676 0.000000
-11.815431 -11.271270 -0.636707 1311 0.724118 0.689676 0.000000
-11.815353 -11.271201 -0.631677 1313 0.724118 0.689676 0.000000
-11.815856 -11.271688 -0.626682 1315 0.724118 0.689676 0.000000
-11.815942 -11.271764 -0.621661 1315 0.724118 0.689676 0.000000
-11.816444 -11.272251 -0.616666 1323 0.724118 0.689676 0.000000
-11.816476 -11.272271 -0.611646 1319 0.724118 0.689676 0.000000
-11.816660 -11.272450 -0.606634 1319 0.724118 0.689676 0.000000
-11.816897 -11.272674 -0.601622 1315 0.724118 0.689676 0.000000
-11.816971 -11.272753 -0.596611 1327 0.724118 0.689676 0.000000
-11.816997 -11.272779 -0.591591 1319 0.724118 0.689676 0.000000
-11.817019 -11.272792 -0.586570 1317 0.724118 0.689676 0.000000
-11.816884 -11.272665 -0.581542 1323 0.724118 0.689676 0.000000
-11.816679 -11.272482 -0.576503 1335 0.724118 0.689676 0.000000
-11.816600 -11.272401 -0.571484 1323 0.724118 0.689676 0.000000
-11.816718 -11.272515 -0.566463 1321 0.724118 0.689676 0.000000
-11.816848 -11.272638 -0.561451 1309 0.724118 0.689676 0.000000
-11.817016 -11.272805 -0.556440 1315 0.724118 0.689676 0.000000
-11.816609 -11.272410 -0.551403 1313 0.724118 0.689676 0.000000
-11.816357 -11.272176 -0.546366 1323 0.724118 0.689676 0.000000
-11.816317 -11.272138 -0.541346 1319 0.724118 0.689676 0.000000
-11.816160 -11.271993 -0.536317 1315 0.724118 0.689676 0.000000
-11.816390 -11.272211 -0.531305 1319 0.724118 0.689676 0.000000
-11.816716 -11.272518 -0.526302 1327 0.724118 0.689676 0.000000
-11.816559 -11.272373 -0.521273 1327 0.724118 0.689676 0.000000
-11.816622 -11.272431 -0.516252 1319 0.724118 0.689676 0.000000
-11.816838 -11.272636 -0.511250 1307 0.724118 0.689676 0.000000
-11.816791 -11.272593 -0.506221 1317 0.724118 0.689676 0.000000
-11.816314 -11.272141 -0.501185 1317 0.724118 0.689676 0.000000
-11.816369 -11.272192 -0.496164 1325 0.724118 0.689676 0.000000
-11.816155 -11.271988 -0.491136 1315 0.724118 0.689676 0.000000
-11.816213 -11.272041 -0.486126 1319 0.724118 0.689676 0.000000
-11.816475 -11.272297 -0.481113 1319 0.724118 0.689676 0.000000
-11.816102 -11.271942 -0.476076 1325 0.724118 0.689676 0.000000
-11.815879 -11.271731 -0.471048 1315 0.724118 0.689676 0.000000
-11.815458 -11.271323 -0.466022 1309 0.724118 0.689676 0.000000
-11.815603 -11.271473 -0.461001 1315 0.724118 0.689676 0.000000
-11.816184 -11.272022 -0.456005 1309 0.724118 0.689676 0.000000
-11.816599 -11.272426 -0.451001 1313 0.724118 0.689676 0.000000
-11.816369 -11.272210 -0.445973 1329 0.724118 0.689676 0.000000
-11.815948 -11.271803 -0.440947 1321 0.724118 0.689676 0.000000
-11.815877 -11.271740 -0.435928 1311 0.724118 0.689676 0.000000
-11.815488 -11.271371 -0.430891 1313 0.724118 0.689676 0.000000
-11.815423 -11.271300 -0.425872 1317 0.724118 0.689676 0.000000
-11.815146 -11.271047 -0.420844 1323 0.724118 0.689676 0.000000
-11.815130 -11.271029 -0.415824 1313 0.724118 0.689676 0.000000
-11.815274 -11.271164 -0.410813 1315 0.724118 0.689676 0.000000
-11.815410 -11.271292 -0.405801 1321 0.724118 0.689676 0.000000
-11.815920 -11.271785 -0.400796 1313 0.724118 0.689676 0.000000
-11.816484 -11.272322 -0.395801 1321 0.724118 0.689676 0.000000
-11.816883 -11.272698 -0.390797 1319 0.724118 0.689676 0.000000
-11.816326 -11.272170 -0.385762 1325 0.724118 0.689676 0.000000
-11.815677 -11.271554 -0.380718 1325 0.724118 0.689676 0.000000
-11.815541 -11.271427 -0.375699 1321 0.724118 0.689676 0.000000
-11.814985 -11.270899 -0.370664 1317 0.724118 0.689676 0.000000
-11.815329 -11.271233 -0.365661 1317 0.724118 0.689676 0.000000
-11.815616 -11.271507 -0.360648 1319 0.724118 0.689676 0.000000
-11.815425 -11.271322 -0.355630 1311 0.724118 0.689676 0.000000
-11.815504 -11.271394 -0.350609 1311 0.724118 0.689676 0.000000
-11.815210 -11.271114 -0.345592 1311 0.724118 0.689676 0.000000
-11.815441 -11.271331 -0.340579 1311 0.724118 0.689676 0.000000
-11.815516 -11.271410 -0.335558 1317 0.724118 0.689676 0.000000
-11.815054 -11.270970 -0.330533 1321 0.724118 0.689676 0.000000
-11.814753 -11.270685 -0.325505 1315 0.724118 0.689676 0.000000
-11.815086 -11.270998 -0.320502 1317 0.724118 0.689676 0.000000
-11.815310 -11.271223 -0.315490 1327 0.724118 0.689676 0.000000
-11.814960 -11.270885 -0.310463 1319 0.724118 0.689676 0.000000
-11.815549 -11.271441 -0.305467 1327 0.724118 0.689676 0.000000
-11.815614 -11.271513 -0.300447 1329 0.724118 0.689676 0.000000
-11.820482 -11.269316 -0.687024 1327 0.724118 0.689676 0.000000
-11.820167 -11.269018 -0.681986 1319 0.724118 0.689676 0.000000
-11.820046 -11.268903 -0.676957 1331 0.724118 0.689676 0.000000
-11.820612 -11.269440 -0.671962 1319 0.724118 0.689676 0.000000
-11.820708 -11.269537 -0.666941 1329 0.724118 0.689676 0.000000
-11.819898 -11.268766 -0.661879 1325 0.724118 0.689676 0.000000
-11.820312 -11.269156 -0.656874 1319 0.724118 0.689676 0.000000
-11.820026 -11.268896 -0.651837 1305 0.724118 0.689676 0.000000
-11.819374 -11.268265 -0.646783 1303 0.724118 0.689676 0.000000
-11.819725 -11.268605 -0.641780 1321 0.724118 0.689676 0.000000
-11.820450 -11.269295 -0.636793 1329 0.724118 0.689676 0.000000
-11.821054 -11.269876 -0.631797 1327 0.724118 0.689676 0.000000
-11.820498 -11.269348 -0.626752 1331 0.724118 0.689676 0.000000
-11.820268 -11.269133 -0.621714 1331 0.724118 0.689676 0.000000
-11.820459 -11.269304 -0.616702 1333 0.724118 0.689676 0.000000
-11.820381 -11.269237 -0.611673 1325 0.724118 0.689676 0.000000
-11.820667 -11.269511 -0.606670 1319 0.724118 0.689676 0.000000
-11.820643 -11.269486 -0.601650 1329 0.724118 0.689676 0.000000
-11.819874 -11.268762 -0.596587 1317 0.724118 0.689676 0.000000
-11.820105 -11.268979 -0.591575 1309 0.724118 0.689676 0.000000
-11.820709 -11.269547 -0.586579 1323 0.724118 0.689676 0.000000
-11.820258 -11.269129 -0.581543 1325 0.724118 0.689676 0.000000
-11.820218 -11.269091 -0.576513 1317 0.724118 0.689676 0.000000
-11.820766 -11.269614 -0.571518 1325 0.724118 0.689676 0.000000
-11.820370 -11.269226 -0.566482 1315 0.724118 0.689676 0.000000
-11.819536 -11.268435 -0.561419 1299 0.724118 0.689676 0.000000
-11.819758 -11.268646 -0.556407 1323 0.724118 0.689676 0.000000
-11.820356 -11.269223 -0.551421 1327 0.724118 0.689676 0.000000
-11.819736 -11.268630 -0.546367 1321 0.724118 0.689676 0.000000
-11.819537 -11.268439 -0.541339 1329 0.724118 0.689676 0.000000
-11.819912 -11.268798 -0.536335 1331 0.724118 0.689676 0.000000
-11.819978 -11.268871 -0.531315 1319 0.724118 0.689676 0.000000
-11.820095 -11.268972 -0.526303 1325 0.724118 0.689676 0.000000
-11.820047 -11.268929 -0.521284 1327 0.724118 0.689676 0.000000
-11.820105 -11.268994 -0.516263 1317 0.724118 0.689676 0.000000
-11.820113 -11.268994 -0.511243 1319 0.724118 0.689676 0.000000
-11.819686 -11.268595 -0.506207 1319 0.724118 0.689676 0.000000
-11.819798 -11.268705 -0.501196 1327 0.724118 0.689676 0.000000
-11.820227 -11.269107 -0.496191 1333 0.724118 0.689676 0.000000
-11.820283 -11.269157 -0.491171 1323 0.724118 0.689676 0.000000
-11.820118 -11.269008 -0.486142 1323 0.724118 0.689676 0.000000
-11.819695 -11.268599 -0.481106 1323 0.724118 0.689676 0.000000
-11.820061 -11.268950 -0.476102 1323 0.724118 0.689676 0.000000
-11.820636 -11.269508 -0.471107 1327 0.724118 0.689676 0.000000
-11.820152 -11.269050 -0.466071 1323 0.724118 0.689676 0.000000
-11.820041 -11.268942 -0.461042 1319 0.724118 0.689676 0.000000
-11.819827 -11.268740 -0.456024 1311 0.724118 0.689676 0.000000
-11.819286 -11.268224 -0.450979 1315 0.724118 0.689676 0.000000
-11.819224 -11.268167 -0.445960 1319 0.724118 0.689676 0.000000
-11.819319 -11.268251 -0.440949 1327 0.724118 0.689676 0.000000
-11.818883 -11.267844 -0.435913 1313 0.724118 0.689676 0.000000
-11.818502 -11.267481 -0.430876 1305 0.724118 0.689676 0.000000
-11.819170 -11.268114 -0.425890 1313 0.724118 0.689676 0.000000
-11.820170 -11.269064 -0.420900 1331 0.724118 0.689676 0.000000
-11.819512 -11.268440 -0.415856 1315 0.724118 0.689676 0.000000
-11.819236 -11.268174 -0.410829 1323 0.724118 0.689676 0.000000
-11.819793 -11.268718 -0.405833 1323 0.724118 0.689676 0.000000
-11.819721 -11.268641 -0.400814 1325 0.724118 0.689676 0.000000
-11.819380 -11.268324 -0.395787 1315 0.724118 0.689676 0.000000
-11.819627 -11.268554 -0.390774 1315 0.724118 0.689676 0.000000
-11.819709 -11.268640 -0.385764 1327 0.724118 0.689676 0.000000
-11.819477 -11.268410 -0.380736 1319 0.724118 0.689676 0.000000
-11.819128 -11.268086 -0.375709 1321 0.724118 0.689676 0.000000
-11.818524 -11.267507 -0.370674 1325 0.724118 0.689676 0.000000
-11.818652 -11.267629 -0.365653 1313 0.724118 0.689676 0.000000
-11.818995 -11.267962 -0.360650 1311 0.724118 0.689676 0.000000
-11.818964 -11.267931 -0.355630 1327 0.724118 0.689676 0.000000
-11.818670 -11.267652 -0.350613 1311 0.724118 0.689676 0.000000
-11.818797 -11.267774 -0.345591 1313 0.724118 0.689676 0.000000
-11.819030 -11.267991 -0.340589 1319 0.724118 0.689676 0.000000
-11.819467 -11.268413 -0.335575 1321 0.724118 0.689676 0.000000
-11.818911 -11.267884 -0.330550 1319 0.724118 0.689676 0.000000
-11.818498 -11.267497 -0.325523 1313 0.724118 0.689676 0.000000
-11.818514 -11.267505 -0.320503 1307 0.724118 0.689676 0.000000
-11.818158 -11.267175 -0.315476 1319 0.724118 0.689676 0.000000
-11.818119 -11.267137 -0.310457 1323 0.724118 0.689676 0.000000
-11.817865 -11.266890 -0.305439 1317 0.724118 0.689676 0.000000
-11.817824 -11.266851 -0.300419 1315 0.724118 0.689676 0.000000
-11.823977 -11.265772 -0.687035 1331 0.724118 0.689676 0.000000
-11.824182 -11.265956 -0.682023 1329 0.724118 0.689676 0.000000
-11.824057 -11.265850 -0.676994 1323 0.724118 0.689676 0.000000
-11.823843 -11.265635 -0.671956 1319 0.724118 0.689676 0.000000
-11.824138 -11.265928 -0.666943 1327 0.724118 0.689676 0.000000
-11.823971 -11.265764 -0.661914 1325 0.724118 0.689676 0.000000
-11.823851 -11.265649 -0.656885 1329 0.724118 0.689676 0.000000
-11.823669 -11.265486 -0.651847 1317 0.724118 0.689676 0.000000
-11.823654 -11.265468 -0.646827 1319 0.724118 0.689676 0.000000
-11.823639 -11.265449 -0.641807 1317 0.724118 0.689676 0.000000
-11.823617 -11.265438 -0.636777 1317 0.724118 0.689676 0.000000
-11.823544 -11.265361 -0.631757 1321 0.724118 0.689676 0.000000
-11.823458 -11.265286 -0.626728 1315 0.724118 0.689676 0.000000
-11.823760 -11.265574 -0.621715 1325 0.724118 0.689676 0.000000
-11.823888 -11.265697 -0.616704 1343 0.724118 0.689676 0.000000
-11.823562 -11.265378 -0.611667 1319 0.724118 0.689676 0.000000
-11.823580 -11.265399 -0.606646 1313 0.724118 0.689676 0.000000
-11.823444 -11.265272 -0.601618 1327 0.724118 0.689676 0.000000
-11.823095 -11.264948 -0.596581 1317 0.724118 0.689676 0.000000
-11.823493 -11.265326 -0.591577 1323 0.724118 0.689676 0.000000
-11.823828 -11.265638 -0.586574 1323 0.724118 0.689676 0.000000
-11.824171 -11.265972 -0.581560 1325 0.724118 0.689676 0.000000
-11.823923 -11.265730 -0.576533 1331 0.724118 0.689676 0.000000
-11.823146 -11.264997 -0.571470 1319 0.724118 0.689676 0.000000
-11.823226 -11.265069 -0.566459 1321 0.724118 0.689676 0.000000
-11.823449 -11.265281 -0.561447 1305 0.724118 0.689676 0.000000
-11.823569 -11.265396 -0.556425 1315 0.724118 0.689676 0.000000
-11.823426 -11.265264 -0.551407 1309 0.724118 0.689676 0.000000
-11.823339 -11.265175 -0.546377 1313 0.724118 0.689676 0.000000
-11.823658 -11.265489 -0.541374 1323 0.724118 0.689676 0.000000
-11.823508 -11.265349 -0.536345 1321 0.724118 0.689676 0.000000
-11.823461 -11.265306 -0.531326 1319 0.724118 0.689676 0.000000
-11.823484 -11.265319 -0.526305 1323 0.724118 0.689676 0.000000
-11.823541 -11.265371 -0.521285 1333 0.724118 0.689676 0.000000
-11.823175 -11.265035 -0.516248 1317 0.724118 0.689676 0.000000
-11.822700 -11.264582 -0.511212 1323 0.724118 0.689676 0.000000
-11.823240 -11.265087 -0.506217 1325 0.724118 0.689676 0.000000
-11.822964 -11.264833 -0.501180 1319 0.724118 0.689676 0.000000
-11.823137 -11.264994 -0.496168 1325 0.724118 0.689676 0.000000
-11.823823 -11.265652 -0.491181 1319 0.724118 0.689676 0.000000
-11.823449 -11.265295 -0.486145 1315 0.724118 0.689676 0.000000
-11.823347 -11.265195 -0.481116 1325 0.724118 0.689676 0.000000
-11.823030 -11.264896 -0.476089 1325 0.724118 0.689676 0.000000
-11.822648 -11.264532 -0.471052 1305 0.724118 0.689676 0.000000
-11.823540 -11.265383 -0.466074 1313 0.724118 0.689676 0.000000
-11.823534 -11.265385 -0.461053 1327 0.724118 0.689676 0.000000
-11.822792 -11.264669 -0.456000 1321 0.724118 0.689676 0.000000
-11.823359 -11.265221 -0.451005 1315 0.724118 0.689676 0.000000
-11.823302 -11.265157 -0.445985 1319 0.724118 0.689676 0.000000
-11.822499 -11.264393 -0.440933 1321 0.724118 0.689676 0.000000
-11.822056 -11.263979 -0.435907 1323 0.724118 0.689676 0.000000
-11.822049 -11.263968 -0.430887 1315 0.724118 0.689676 0.000000
-11.822191 -11.264102 -0.425875 1305 0.724118 0.689676 0.000000
-11.822384 -11.264289 -0.420863 1323 0.724118 0.689676 0.000000
-11.822529 -11.264439 -0.415852 1321 0.724118 0.689676 0.000000
-11.822727 -11.264616 -0.410840 1311 0.724118 0.689676 0.000000
-11.822704 -11.264606 -0.405820 1313 0.724118 0.689676 0.000000
-11.822792 -11.264683 -0.400799 1325 0.724118 0.689676 0.000000
-11.822776 -11.264664 -0.395789 1321 0.724118 0.689676 0.000000
-11.822857 -11.264749 -0.390768 1323 0.724118 0.689676 0.000000
-11.822944 -11.264825 -0.385757 1331 0.724118 0.689676 0.000000
-11.822334 -11.264254 -0.380723 1321 0.724118 0.689676 0.000000
-11.822620 -11.264528 -0.375710 1315 0.724118 0.689676 0.000000
-11.822389 -11.264298 -0.370682 1321 0.724118 0.689676 0.000000
-11.821722 -11.263669 -0.365648 1323 0.724118 0.689676 0.000000
-11.821795 -11.263747 -0.360637 1317 0.724118 0.689676 0.000000
-11.822193 -11.264124 -0.355633 1321 0.724118 0.689676 0.000000
-11.822694 -11.264597 -0.350629 1319 0.724118 0.689676 0.000000
-11.822870 -11.264771 -0.345617 1331 0.724118 0.689676 0.000000
-11.822308 -11.264236 -0.340582 1329 0.724118 0.689676 0.000000
-11.821646 -11.263598 -0.335548 1327 0.724118 0.689676 0.000000
-11.821766 -11.263714 -0.330537 1327 0.724118 0.689676 0.000000
-11.822044 -11.263983 -0.325524 1315 0.724118 0.689676 0.000000
-11.822109 -11.264055 -0.320513 1323 0.724118 0.689676 0.000000
-11.822080 -11.264024 -0.315493 1327 0.724118 0.689676 0.000000
-11.821936 -11.263878 -0.310475 1331 0.724118 0.689676 0.000000
-11.821523 -11.263490 -0.305449 1319 0.724118 0.689676 0.000000
-11.821587 -11.263548 -0.300428 1319 0.724118 0.689676 0.000000
-11.827473 -11.261666 -0.687018 1321 0.724118 0.689676 0.000000
-11.827257 -11.261463 -0.681990 1327 0.724118 0.689676 0.000000
-11.827457 -11.261656 -0.676978 1335 0.724118 0.689676 0.000000
-11.827498 -11.261695 -0.671948 1329 0.724118 0.689676 0.000000
-11.827689 -11.261881 -0.666936 1327 0.724118 0.689676 0.000000
-11.827791 -11.261970 -0.661925 1327 0.724118 0.689676 0.000000
-11.827610 -11.261806 -0.656886 1329 0.724118 0.689676 0.000000
-11.827540 -11.261744 -0.651857 1327 0.724118 0.689676 0.000000
-11.827468 -11.261667 -0.646837 1327 0.724118 0.689676 0.000000
-11.827612 -11.261803 -0.641816 1327 0.724118 0.689676 0.000000
-11.827494 -11.261689 -0.636787 1315 0.724118 0.689676 0.000000
-11.827677 -11.261868 -0.631775 1321 0.724118 0.689676 0.000000
-11.827599 -11.261800 -0.626746 1319 0.724118 0.689676 0.000000
-11.827415 -11.261622 -0.621717 1323 0.724118 0.689676 0.000000
-11.827234 -11.261457 -0.616689 1321 0.724118 0.689676 0.000000
-11.826941 -11.261178 -0.611652 1315 0.724118 0.689676 0.000000
-11.826648 -11.260899 -0.606614 1327 0.724118 0.689676 0.000000
-11.826838 -11.261070 -0.601602 1333 0.724118 0.689676 0.000000
-11.826591 -11.260841 -0.596565 1325 0.724118 0.689676 0.000000
-11.826784 -11.261029 -0.591553 1313 0.724118 0.689676 0.000000
-11.827117 -11.261341 -0.586549 1319 0.724118 0.689676 0.000000
-11.827134 -11.261363 -0.581529 1333 0.724118 0.689676 0.000000
-11.827374 -11.261586 -0.576517 1327 0.724118 0.689676 0.000000
-11.827445 -11.261664 -0.571506 1335 0.724118 0.689676 0.000000
-11.827408 -11.261628 -0.566476 1325 0.724118 0.689676 0.000000
-11.827160 -11.261385 -0.561448 1319 0.724118 0.689676 0.000000
-11.826803 -11.261055 -0.556412 1315 0.724118 0.689676 0.000000
-11.827137 -11.261369 -0.551408 1327 0.724118 0.689676 0.000000
-11.827044 -11.261288 -0.546379 1325 0.724118 0.689676 0.000000
-11.827051 -11.261288 -0.541359 1313 0.724118 0.689676 0.000000
-11.827441 -11.261659 -0.536355 1321 0.724118 0.689676 0.000000
-11.827553 -11.261767 -0.531344 1321 0.724118 0.689676 0.000000
-11.827507 -11.261724 -0.526314 1311 0.724118 0.689676 0.000000
-11.827299 -11.261527 -0.521286 1311 0.724118 0.689676 0.000000
-11.826941 -11.261184 -0.516249 1311 0.724118 0.689676 0.000000
-11.827206 -11.261440 -0.511247 1315 0.724118 0.689676 0.000000
-11.826786 -11.261047 -0.506211 1319 0.724118 0.689676 0.000000
-11.826682 -11.260944 -0.501181 1317 0.724118 0.689676 0.000000
-11.827215 -11.261456 -0.496186 1331 0.724118 0.689676 0.000000
-11.827271 -11.261509 -0.491166 1333 0.724118 0.689676 0.000000
-11.827369 -11.261606 -0.486155 1327 0.724118 0.689676 0.000000
-11.827154 -11.261402 -0.481126 1319 0.724118 0.689676 0.000000
-11.826740 -11.261001 -0.476090 1321 0.724118 0.689676 0.000000
-11.826463 -11.260735 -0.471063 1313 0.724118 0.689676 0.000000
-11.826717 -11.260984 -0.466050 1317 0.724118 0.689676 0.000000
-11.826815 -11.261081 -0.461039 1323 0.724118 0.689676 0.000000
-11.826663 -11.260929 -0.456011 1315 0.724118 0.689676 0.000000
-11.826489 -11.260771 -0.450982 1313 0.724118 0.689676 0.000000
-11.826419 -11.260709 -0.445963 1315 0.724118 0.689676 0.000000
-11.826522 -11.260798 -0.440951 1315 0.724118 0.689676 0.000000
-11.826570 -11.260843 -0.435931 1321 0.724118 0.689676 0.000000
-11.826340 -11.260628 -0.430903 1321 0.724118 0.689676 0.000000
-11.825537 -11.259862 -0.425860 1313 0.724118 0.689676 0.000000
-11.825937 -11.260255 -0.420856 1323 0.724118 0.689676 0.000000
-11.826342 -11.260638 -0.415853 1325 0.724118 0.689676 0.000000
-11.826700 -11.260970 -0.410849 1327 0.724118 0.689676 0.000000
-11.826740 -11.261009 -0.405829 1315 0.724118 0.689676 0.000000
-11.826241 -11.260538 -0.400793 1325 0.724118 0.689676 0.000000
-11.825740 -11.260068 -0.395758 1315 0.724118 0.689676 0.000000
-11.826035 -11.260350 -0.390755 1331 0.724118 0.689676 0.000000
-11.826012 -11.260325 -0.385735 1329 0.724118 0.689676 0.000000
-11.825774 -11.260103 -0.380707 1323 0.724118 0.689676 0.000000
-11.825592 -11.259926 -0.375689 1319 0.724118 0.689676 0.000000
-11.825672 -11.260010 -0.370678 1303 0.724118 0.689676 0.000000
-11.826444 -11.260737 -0.365680 1307 0.724118 0.689676 0.000000
-11.826309 -11.260611 -0.360662 1315 0.724118 0.689676 0.000000
-11.826436 -11.260733 -0.355650 1323 0.724118 0.689676 0.000000
-11.826556 -11.260849 -0.350629 1327 0.724118 0.689676 0.000000
-11.825309 -11.259664 -0.345581 1327 0.724118 0.689676 0.000000
-11.825166 -11.259531 -0.340562 1319 0.724118 0.689676 0.000000
-11.826518 -11.260813 -0.335579 1327 0.724118 0.689676 0.000000
-11.826638 -11.260929 -0.330568 1327 0.724118 0.689676 0.000000
-11.826337 -11.260643 -0.325540 1325 0.724118 0.689676 0.000000
-11.826353 -11.260663 -0.320530 1319 0.724118 0.689676 0.000000
-11.826157 -11.260474 -0.315502 1323 0.724118 0.689676 0.000000
-11.825902 -11.260240 -0.310484 1315 0.724118 0.689676 0.000000
-11.826444 -11.260756 -0.305479 1327 0.724118 0.689676 0.000000
-11.826037 -11.260362 -0.300453 1323 0.724118 0.689676 0.000000
-11.831271 -11.258111 -0.687038 1333 0.724118 0.689676 0.000000
-11.831200 -11.258047 -0.682009 1321 0.724118 0.689676 0.000000
-11.831185 -11.258044 -0.676989 1331 0.724118 0.689676 0.000000
-11.831448 -11.258286 -0.671976 1323 0.724118 0.689676 0.000000
-11.831378 -11.258224 -0.666947 1325 0.724118 0.689676 0.000000
-11.831050 -11.257904 -0.661910 1315 0.724118 0.689676 0.000000
-11.830869 -11.257741 -0.656871 1317 0.724118 0.689676 0.000000
-11.830963 -11.257824 -0.651850 1327 0.724118 0.689676 0.000000
-11.830894 -11.257762 -0.646831 1331 0.724118 0.689676 0.000000
-11.830448 -11.257336 -0.641785 1321 0.724118 0.689676 0.000000
-11.830323 -11.257228 -0.636756 1325 0.724118 0.689676 0.000000
-11.830569 -11.257459 -0.631743 1327 0.724118 0.689676 0.000000
-11.831126 -11.257989 -0.626748 1323 0.724118 0.689676 0.000000
-11.831110 -11.257970 -0.621728 1319 0.724118 0.689676 0.000000
-11.831024 -11.257895 -0.616699 1325 0.724118 0.689676 0.000000
-11.830580 -11.257469 -0.611653 1319 0.724118 0.689676 0.000000
-11.830231 -11.257144 -0.606616 1317 0.724118 0.689676 0.000000
-11.830629 -11.257524 -0.601612 1317 0.724118 0.689676 0.000000
-11.830915 -11.257798 -0.596609 1327 0.724118 0.689676 0.000000
-11.830733 -11.257621 -0.591571 1323 0.724118 0.689676 0.000000
-11.830909 -11.257793 -0.586559 1331 0.724118 0.689676 0.000000
-11.830775 -11.257668 -0.581530 1329 0.724118 0.689676 0.000000
-11.830901 -11.257776 -0.576519 1327 0.724118 0.689676 0.000000
-11.831284 -11.258153 -0.571515 1325 0.724118 0.689676 0.000000
-11.831301 -11.258161 -0.566495 1325 0.724118 0.689676 0.000000
-11.830944 -11.257832 -0.561458 1317 0.724118 0.689676 0.000000
-11.830594 -11.257494 -0.556421 1327 0.724118 0.689676 0.000000
-11.830076 -11.256995 -0.551376 1321 0.724118 0.689676 0.000000
-11.830301 -11.257221 -0.546364 1319 0.724118 0.689676 0.000000
-11.830523 -11.257432 -0.541352 1315 0.724118 0.689676 0.000000
