405
-19.887293 -18.787266 -0.649507 825 0.735886 0.677105 0.000000
-19.888287 -18.788206 -0.641138 849 0.735886 0.677105 0.000000
-19.889532 -18.789389 -0.632766 853 0.735886 0.677105 0.000000
-19.889305 -18.789167 -0.624358 859 0.735886 0.677105 0.000000
-19.887211 -18.787199 -0.615887 865 0.735886 0.677105 0.000000
-19.886921 -18.786926 -0.607470 859 0.735886 0.677105 0.000000
-19.888494 -18.788403 -0.599115 849 0.735886 0.677105 0.000000
-19.888622 -18.788521 -0.590713 865 0.735886 0.677105 0.000000
-19.888441 -18.788351 -0.582295 861 0.735886 0.677105 0.000000
-19.889311 -18.789175 -0.573917 905 0.735886 0.677105 0.000000
-19.888855 -18.788744 -0.565501 877 0.735886 0.677105 0.000000
-19.888390 -18.788305 -0.557075 867 0.735886 0.677105 0.000000
-19.889471 -18.789326 -0.548705 867 0.735886 0.677105 0.000000
-19.889748 -18.789593 -0.540302 873 0.735886 0.677105 0.000000
-19.888647 -18.788559 -0.531872 861 0.735886 0.677105 0.000000
-19.888977 -18.788870 -0.523478 867 0.735886 0.677105 0.000000
-19.889263 -18.789129 -0.515076 879 0.735886 0.677105 0.000000
-19.888624 -18.788538 -0.506651 859 0.735886 0.677105 0.000000
-19.889273 -18.789143 -0.498265 859 0.735886 0.677105 0.000000
-19.889059 -18.788948 -0.489857 869 0.735886 0.677105 0.000000
-19.888691 -18.788599 -0.481440 847 0.735886 0.677105 0.000000
-19.889652 -18.789499 -0.473061 847 0.735886 0.677105 0.000000
-19.889914 -18.789755 -0.464658 889 0.735886 0.677105 0.000000
-19.888205 -18.788136 -0.456214 869 0.735886 0.677105 0.000000
-19.888151 -18.788082 -0.447814 885 0.735886 0.677105 0.000000
-19.888727 -18.788630 -0.439419 871 0.735886 0.677105 0.000000
-19.887869 -18.787819 -0.430997 879 0.735886 0.677105 0.000000
-19.888218 -18.788157 -0.422603 849 0.735886 0.677105 0.000000
-19.889330 -18.789206 -0.414223 875 0.735886 0.677105 0.000000
-19.889582 -18.789438 -0.405820 859 0.735886 0.677105 0.000000
-19.889086 -18.788973 -0.397405 845 0.735886 0.677105 0.000000
-19.888859 -18.788754 -0.388996 859 0.735886 0.677105 0.000000
-19.888781 -18.788692 -0.380587 837 0.735886 0.677105 0.000000
-19.889183 -18.789061 -0.372193 849 0.735886 0.677105 0.000000
-19.889727 -18.789583 -0.363798 861 0.735886 0.677105 0.000000
-19.889549 -18.789415 -0.355399 861 0.735886 0.677105 0.000000
-19.888145 -18.788084 -0.346962 857 0.735886 0.677105 0.000000
-19.887850 -18.787806 -0.338555 853 0.735886 0.677105 0.000000
-19.888025 -18.787977 -0.330153 849 0.735886 0.677105 0.000000
-19.886400 -18.786442 -0.321728 817 0.735886 0.677105 0.000000
-19.887323 -18.787310 -0.313339 815 0.735886 0.677105 0.000000
-19.889097 -18.788986 -0.304962 835 0.735886 0.677105 0.000000
-19.888208 -18.788151 -0.296550 837 0.735886 0.677105 0.000000
-19.888908 -18.788815 -0.288154 843 0.735886 0.677105 0.000000
-19.889769 -18.789619 -0.279765 853 0.735886 0.677105 0.000000
-19.893719 -18.781612 -0.649536 861 0.735886 0.677105 0.000000
-19.894186 -18.782059 -0.641141 851 0.735886 0.677105 0.000000
-19.893793 -18.781693 -0.632724 857 0.735886 0.677105 0.000000
-19.893936 -18.781824 -0.624323 871 0.735886 0.677105 0.000000
-19.894440 -18.782301 -0.615928 867 0.735886 0.677105 0.000000
-19.895174 -18.782990 -0.607551 849 0.735886 0.677105 0.000000
-19.895836 -18.783621 -0.599165 855 0.735886 0.677105 0.000000
-19.894426 -18.782286 -0.590708 843 0.735886 0.677105 0.000000
-19.894560 -18.782410 -0.582306 857 0.735886 0.677105 0.000000
-19.896278 -18.784029 -0.573950 903 0.735886 0.677105 0.000000
-19.896784 -18.784506 -0.565565 873 0.735886 0.677105 0.000000
-19.895683 -18.783472 -0.557125 869 0.735886 0.677105 0.000000
-19.895693 -18.783482 -0.548715 865 0.735886 0.677105 0.000000
-19.896196 -18.783960 -0.540330 877 0.735886 0.677105 0.000000
-19.895678 -18.783463 -0.531905 857 0.735886 0.677105 0.000000
-19.895151 -18.782972 -0.523489 857 0.735886 0.677105 0.000000
-19.894680 -18.782528 -0.515063 867 0.735886 0.677105 0.000000
-19.894419 -18.782280 -0.506656 857 0.735886 0.677105 0.000000
-19.895334 -18.783142 -0.498277 867 0.735886 0.677105 0.000000
-19.894382 -18.782244 -0.489846 867 0.735886 0.677105 0.000000
-19.893368 -18.781292 -0.481415 859 0.735886 0.677105 0.000000
-19.892509 -18.780481 -0.472993 833 0.735886 0.677105 0.000000
-19.893953 -18.781837 -0.464619 857 0.735886 0.677105 0.000000
-19.896193 -18.783957 -0.456268 875 0.735886 0.677105 0.000000
-19.896450 -18.784197 -0.447865 829 0.735886 0.677105 0.000000
-19.896437 -18.784187 -0.439465 871 0.735886 0.677105 0.000000
-19.896006 -18.783789 -0.431049 859 0.735886 0.677105 0.000000
-19.895937 -18.783722 -0.422639 847 0.735886 0.677105 0.000000
-19.895124 -18.782949 -0.414217 867 0.735886 0.677105 0.000000
-19.895267 -18.783092 -0.405825 863 0.735886 0.677105 0.000000
-19.896322 -18.784084 -0.397435 865 0.735886 0.677105 0.000000
-19.895609 -18.783415 -0.389022 849 0.735886 0.677105 0.000000
-19.895418 -18.783237 -0.380613 849 0.735886 0.677105 0.000000
-19.894238 -18.782112 -0.372184 845 0.735886 0.677105 0.000000
-19.893356 -18.781282 -0.363762 863 0.735886 0.677105 0.000000
-19.894501 -18.782372 -0.355381 861 0.735886 0.677105 0.000000
-19.895281 -18.783096 -0.346994 837 0.735886 0.677105 0.000000
-19.894922 -18.782768 -0.338587 841 0.735886 0.677105 0.000000
-19.895590 -18.783392 -0.330191 809 0.735886 0.677105 0.000000
-19.894701 -18.782557 -0.321769 823 0.735886 0.677105 0.000000
-19.894562 -18.782419 -0.313370 825 0.735886 0.677105 0.000000
-19.894577 -18.782436 -0.304959 807 0.735886 0.677105 0.000000
-19.893902 -18.781799 -0.296546 825 0.735886 0.677105 0.000000
-19.894382 -18.782257 -0.288151 831 0.735886 0.677105 0.000000
-19.894138 -18.782024 -0.279743 849 0.735886 0.677105 0.000000
-19.900312 -18.776342 -0.649561 835 0.735886 0.677105 0.000000
-19.899076 -18.775169 -0.641123 837 0.735886 0.677105 0.000000
-19.898998 -18.775099 -0.632713 845 0.735886 0.677105 0.000000
-19.899780 -18.775839 -0.624326 831 0.735886 0.677105 0.000000
-19.900717 -18.776720 -0.615947 839 0.735886 0.677105 0.000000
-19.900482 -18.776506 -0.607539 833 0.735886 0.677105 0.000000
-19.900089 -18.776125 -0.599122 819 0.735886 0.677105 0.000000
-19.900059 -18.776102 -0.590712 815 0.735886 0.677105 0.000000
-19.899870 -18.775927 -0.582304 855 0.735886 0.677105 0.000000
-19.899359 -18.775436 -0.573878 855 0.735886 0.677105 0.000000
-19.900393 -18.776421 -0.565508 857 0.735886 0.677105 0.000000
-19.900410 -18.776436 -0.557098 867 0.735886 0.677105 0.000000
-19.899685 -18.775747 -0.548675 875 0.735886 0.677105 0.000000
-19.899853 -18.775913 -0.540273 881 0.735886 0.677105 0.000000
-19.900665 -18.776678 -0.531885 867 0.735886 0.677105 0.000000
-19.901791 -18.777739 -0.523514 873 0.735886 0.677105 0.000000
-19.901752 -18.777697 -0.515105 857 0.735886 0.677105 0.000000
-19.901541 -18.777502 -0.506696 881 0.735886 0.677105 0.000000
-19.900385 -18.776409 -0.498257 863 0.735886 0.677105 0.000000
-19.900494 -18.776516 -0.489856 851 0.735886 0.677105 0.000000
-19.902096 -18.778027 -0.481491 877 0.735886 0.677105 0.000000
-19.901720 -18.777672 -0.473074 865 0.735886 0.677105 0.000000
-19.901396 -18.777374 -0.464667 861 0.735886 0.677105 0.000000
-19.900547 -18.776569 -0.456244 861 0.735886 0.677105 0.000000
-19.900162 -18.776209 -0.447828 861 0.735886 0.677105 0.000000
-19.900156 -18.776205 -0.439428 839 0.735886 0.677105 0.000000
-19.900093 -18.776146 -0.431018 843 0.735886 0.677105 0.000000
-19.901573 -18.777531 -0.422644 871 0.735886 0.677105 0.000000
-19.899014 -18.775118 -0.414188 855 0.735886 0.677105 0.000000
-19.897978 -18.774149 -0.405757 849 0.735886 0.677105 0.000000
-19.899664 -18.775742 -0.397391 871 0.735886 0.677105 0.000000
-19.900169 -18.776218 -0.388996 865 0.735886 0.677105 0.000000
-19.900530 -18.776554 -0.380603 839 0.735886 0.677105 0.000000
-19.899651 -18.775726 -0.372181 837 0.735886 0.677105 0.000000
-19.898777 -18.774902 -0.363759 841 0.735886 0.677105 0.000000
-19.898651 -18.774778 -0.355360 859 0.735886 0.677105 0.000000
-19.898409 -18.774557 -0.346952 833 0.735886 0.677105 0.000000
-19.899340 -18.775433 -0.338563 849 0.735886 0.677105 0.000000
-19.900318 -18.776360 -0.330174 817 0.735886 0.677105 0.000000
-19.899372 -18.775463 -0.321762 813 0.735886 0.677105 0.000000
-19.899549 -18.775635 -0.313360 833 0.735886 0.677105 0.000000
-19.899776 -18.775850 -0.304958 845 0.735886 0.677105 0.000000
-19.898951 -18.775064 -0.296546 837 0.735886 0.677105 0.000000
-19.900448 -18.776480 -0.288161 853 0.735886 0.677105 0.000000
-19.900616 -18.776644 -0.279760 855 0.735886 0.677105 0.000000
-19.907005 -18.770945 -0.649597 859 0.735886 0.677105 0.000000
-19.906038 -18.770031 -0.641156 831 0.735886 0.677105 0.000000
-19.906441 -18.770414 -0.632762 823 0.735886 0.677105 0.000000
-19.906530 -18.770502 -0.624361 839 0.735886 0.677105 0.000000
-19.906080 -18.770075 -0.615945 851 0.735886 0.677105 0.000000
-19.906208 -18.770193 -0.607533 827 0.735886 0.677105 0.000000
-19.905933 -18.769934 -0.599126 847 0.735886 0.677105 0.000000
-19.905636 -18.769655 -0.590708 855 0.735886 0.677105 0.000000
-19.905233 -18.769281 -0.582292 869 0.735886 0.677105 0.000000
-19.906528 -18.770502 -0.573920 867 0.735886 0.677105 0.000000
-19.907623 -18.771524 -0.565549 857 0.735886 0.677105 0.000000
-19.906576 -18.770548 -0.557109 867 0.735886 0.677105 0.000000
-19.907122 -18.771057 -0.548724 859 0.735886 0.677105 0.000000
-19.907459 -18.771374 -0.540320 877 0.735886 0.677105 0.000000
-19.906822 -18.770767 -0.531906 849 0.735886 0.677105 0.000000
-19.907106 -18.771042 -0.523503 853 0.735886 0.677105 0.000000
-19.906534 -18.770500 -0.515078 851 0.735886 0.677105 0.000000
-19.906282 -18.770260 -0.506670 873 0.735886 0.677105 0.000000
-19.907984 -18.771866 -0.498304 877 0.735886 0.677105 0.000000
-19.907236 -18.771172 -0.489881 849 0.735886 0.677105 0.000000
-19.906868 -18.770821 -0.481474 873 0.735886 0.677105 0.000000
-19.907776 -18.771679 -0.473086 879 0.735886 0.677105 0.000000
-19.906603 -18.770575 -0.464656 873 0.735886 0.677105 0.000000
-19.907564 -18.771475 -0.456267 881 0.735886 0.677105 0.000000
-19.907022 -18.770971 -0.447852 885 0.735886 0.677105 0.000000
-19.905054 -18.769104 -0.439410 857 0.735886 0.677105 0.000000
-19.905298 -18.769344 -0.431008 845 0.735886 0.677105 0.000000
-19.905333 -18.769373 -0.422607 867 0.735886 0.677105 0.000000
-19.906765 -18.770723 -0.414234 889 0.735886 0.677105 0.000000
-19.906916 -18.770859 -0.405832 899 0.735886 0.677105 0.000000
-19.906137 -18.770142 -0.397409 849 0.735886 0.677105 0.000000
-19.906610 -18.770578 -0.389015 829 0.735886 0.677105 0.000000
-19.907391 -18.771318 -0.380627 835 0.735886 0.677105 0.000000
-19.906464 -18.770439 -0.372206 859 0.735886 0.677105 0.000000
-19.905794 -18.769808 -0.363792 833 0.735886 0.677105 0.000000
-19.906244 -18.770241 -0.355397 837 0.735886 0.677105 0.000000
-19.904568 -18.768661 -0.346963 841 0.735886 0.677105 0.000000
-19.904696 -18.768782 -0.338561 837 0.735886 0.677105 0.000000
-19.905098 -18.769148 -0.330167 827 0.735886 0.677105 0.000000
-19.905226 -18.769281 -0.321766 805 0.735886 0.677105 0.000000
-19.906462 -18.770443 -0.313374 799 0.735886 0.677105 0.000000
-19.906801 -18.770760 -0.304981 831 0.735886 0.677105 0.000000
-19.906544 -18.770514 -0.296573 837 0.735886 0.677105 0.000000
-19.905281 -18.769325 -0.288155 841 0.735886 0.677105 0.000000
-19.904379 -18.768476 -0.279733 829 0.735886 0.677105 0.000000
-19.913183 -18.764601 -0.649600 839 0.735886 0.677105 0.000000
-19.911633 -18.763136 -0.641144 835 0.735886 0.677105 0.000000
-19.912886 -18.764324 -0.632782 877 0.735886 0.677105 0.000000
-19.913874 -18.765259 -0.624403 885 0.735886 0.677105 0.000000
-19.913109 -18.764538 -0.615970 877 0.735886 0.677105 0.000000
-19.912399 -18.763861 -0.607546 851 0.735886 0.677105 0.000000
-19.913174 -18.764595 -0.599159 867 0.735886 0.677105 0.000000
-19.914206 -18.765566 -0.590789 843 0.735886 0.677105 0.000000
-19.914711 -18.766043 -0.582394 881 0.735886 0.677105 0.000000
-19.913988 -18.765369 -0.573971 867 0.735886 0.677105 0.000000
-19.912304 -18.763783 -0.565516 839 0.735886 0.677105 0.000000
-19.911634 -18.763151 -0.557092 851 0.735886 0.677105 0.000000
-19.911488 -18.763008 -0.548673 853 0.735886 0.677105 0.000000
-19.912621 -18.764074 -0.540303 859 0.735886 0.677105 0.000000
-19.913652 -18.765045 -0.531923 865 0.735886 0.677105 0.000000
-19.912806 -18.764256 -0.523501 849 0.735886 0.677105 0.000000
-19.912718 -18.764160 -0.515091 851 0.735886 0.677105 0.000000
-19.913681 -18.765076 -0.506712 847 0.735886 0.677105 0.000000
-19.912830 -18.764271 -0.498280 857 0.735886 0.677105 0.000000
-19.911350 -18.762878 -0.489843 849 0.735886 0.677105 0.000000
-19.912470 -18.763931 -0.481463 879 0.735886 0.677105 0.000000
-19.912354 -18.763826 -0.473054 847 0.735886 0.677105 0.000000
-19.912197 -18.763676 -0.464645 847 0.735886 0.677105 0.000000
-19.913158 -18.764578 -0.456266 853 0.735886 0.677105 0.000000
-19.913355 -18.764767 -0.447864 851 0.735886 0.677105 0.000000
-19.911751 -18.763258 -0.439428 845 0.735886 0.677105 0.000000
-19.911318 -18.762844 -0.431012 865 0.735886 0.677105 0.000000
-19.912855 -18.764303 -0.422638 867 0.735886 0.677105 0.000000
-19.911942 -18.763435 -0.414216 863 0.735886 0.677105 0.000000
-19.912243 -18.763720 -0.405813 835 0.735886 0.677105 0.000000
-19.912849 -18.764296 -0.397427 843 0.735886 0.677105 0.000000
-19.911827 -18.763336 -0.389006 827 0.735886 0.677105 0.000000
-19.913239 -18.764668 -0.380623 873 0.735886 0.677105 0.000000
-19.914238 -18.765598 -0.372244 855 0.735886 0.677105 0.000000
-19.914051 -18.765423 -0.363835 837 0.735886 0.677105 0.000000
-19.913115 -18.764549 -0.355414 847 0.735886 0.677105 0.000000
-19.912455 -18.763924 -0.347000 825 0.735886 0.677105 0.000000
-19.913431 -18.764851 -0.338610 813 0.735886 0.677105 0.000000
-19.913292 -18.764713 -0.330201 805 0.735886 0.677105 0.000000
-19.912466 -18.763943 -0.321789 813 0.735886 0.677105 0.000000
-19.912428 -18.763901 -0.313379 803 0.735886 0.677105 0.000000
-19.913561 -18.764969 -0.304998 819 0.735886 0.677105 0.000000
-19.913208 -18.764631 -0.296581 825 0.735886 0.677105 0.000000
-19.912949 -18.764399 -0.288174 817 0.735886 0.677105 0.000000
-19.912699 -18.764158 -0.279776 829 0.735886 0.677105 0.000000
-19.920103 -18.759180 -0.649635 859 0.735886 0.677105 0.000000
-19.917215 -18.756460 -0.641142 819 0.735886 0.677105 0.000000
-19.917671 -18.756887 -0.632747 827 0.735886 0.677105 0.000000
-19.918926 -18.758076 -0.624375 841 0.735886 0.677105 0.000000
-19.918957 -18.758104 -0.615975 855 0.735886 0.677105 0.000000
-19.918516 -18.757685 -0.607559 847 0.735886 0.677105 0.000000
-19.918652 -18.757811 -0.599147 841 0.735886 0.677105 0.000000
-19.918787 -18.757936 -0.590746 821 0.735886 0.677105 0.000000
-19.918707 -18.757862 -0.582336 839 0.735886 0.677105 0.000000
-19.918985 -18.758129 -0.573943 843 0.735886 0.677105 0.000000
-19.918539 -18.757702 -0.565527 853 0.735886 0.677105 0.000000
-19.919828 -18.758923 -0.557155 825 0.735886 0.677105 0.000000
-19.921122 -18.760143 -0.548783 847 0.735886 0.677105 0.000000
-19.919216 -18.758354 -0.540321 833 0.735886 0.677105 0.000000
-19.918604 -18.757767 -0.531906 829 0.735886 0.677105 0.000000
-19.918242 -18.757425 -0.523489 821 0.735886 0.677105 0.000000
-19.918512 -18.757685 -0.515087 847 0.735886 0.677105 0.000000
-19.918150 -18.757341 -0.506670 849 0.735886 0.677105 0.000000
-19.918688 -18.757845 -0.498285 837 0.735886 0.677105 0.000000
-19.918316 -18.757496 -0.489868 831 0.735886 0.677105 0.000000
-19.917358 -18.756603 -0.481436 839 0.735886 0.677105 0.000000
-19.918159 -18.757349 -0.473059 853 0.735886 0.677105 0.000000
-19.918423 -18.757605 -0.464656 849 0.735886 0.677105 0.000000
-19.918266 -18.757454 -0.456247 845 0.735886 0.677105 0.000000
-19.917612 -18.756836 -0.447833 835 0.735886 0.677105 0.000000
-19.917978 -18.757187 -0.439430 853 0.735886 0.677105 0.000000
-19.917591 -18.756824 -0.431023 845 0.735886 0.677105 0.000000
-19.916634 -18.755919 -0.422592 841 0.735886 0.677105 0.000000
-19.916979 -18.756241 -0.414199 849 0.735886 0.677105 0.000000
-19.918360 -18.757545 -0.405825 845 0.735886 0.677105 0.000000
-19.918871 -18.758028 -0.397430 851 0.735886 0.677105 0.000000
-19.918425 -18.757603 -0.389014 829 0.735886 0.677105 0.000000
-19.917715 -18.756941 -0.380601 837 0.735886 0.677105 0.000000
-19.918173 -18.757366 -0.372206 827 0.735886 0.677105 0.000000
-19.919048 -18.758198 -0.363818 819 0.735886 0.677105 0.000000
-19.918751 -18.757917 -0.355411 793 0.735886 0.677105 0.000000
-19.918894 -18.758049 -0.347009 805 0.735886 0.677105 0.000000
-19.918335 -18.757521 -0.338594 801 0.735886 0.677105 0.000000
-19.918360 -18.757544 -0.330194 805 0.735886 0.677105 0.000000
-19.918423 -18.757612 -0.321793 807 0.735886 0.677105 0.000000
-19.918495 -18.757673 -0.313382 821 0.735886 0.677105 0.000000
-19.918566 -18.757746 -0.304981 805 0.735886 0.677105 0.000000
-19.918316 -18.757505 -0.296573 791 0.735886 0.677105 0.000000
-19.919323 -18.758459 -0.288184 789 0.735886 0.677105 0.000000
-19.920357 -18.759430 -0.279804 811 0.735886 0.677105 0.000000
-19.924612 -18.751493 -0.649592 815 0.735886 0.677105 0.000000
-19.924818 -18.751688 -0.641200 815 0.735886 0.677105 0.000000
-19.924536 -18.751423 -0.632782 823 0.735886 0.677105 0.000000
-19.924082 -18.751005 -0.624356 833 0.735886 0.677105 0.000000
-19.924334 -18.751238 -0.615964 811 0.735886 0.677105 0.000000
-19.925484 -18.752317 -0.607593 821 0.735886 0.677105 0.000000
-19.925730 -18.752546 -0.599191 827 0.735886 0.677105 0.000000
-19.926651 -18.753414 -0.590812 829 0.735886 0.677105 0.000000
-19.926889 -18.753649 -0.582409 855 0.735886 0.677105 0.000000
-19.925205 -18.752062 -0.573955 843 0.735886 0.677105 0.000000
-19.924223 -18.751137 -0.565524 853 0.735886 0.677105 0.000000
-19.925522 -18.752352 -0.557151 847 0.735886 0.677105 0.000000
-19.925428 -18.752266 -0.548742 837 0.735886 0.677105 0.000000
-19.924688 -18.751577 -0.540319 813 0.735886 0.677105 0.000000
-19.923965 -18.750889 -0.531885 835 0.735886 0.677105 0.000000
-19.924406 -18.751301 -0.523501 843 0.735886 0.677105 0.000000
-19.925903 -18.752714 -0.515127 869 0.735886 0.677105 0.000000
-19.925913 -18.752724 -0.506727 849 0.735886 0.677105 0.000000
-19.925646 -18.752470 -0.498309 835 0.735886 0.677105 0.000000
-19.924646 -18.751534 -0.489878 827 0.735886 0.677105 0.000000
-19.924482 -18.751375 -0.481469 833 0.735886 0.677105 0.000000
-19.923735 -18.750681 -0.473046 857 0.735886 0.677105 0.000000
-19.923523 -18.750473 -0.464638 829 0.735886 0.677105 0.000000
-19.924423 -18.751326 -0.456259 825 0.735886 0.677105 0.000000
-19.923887 -18.750814 -0.447844 845 0.735886 0.677105 0.000000
-19.923347 -18.750313 -0.439429 835 0.735886 0.677105 0.000000
-19.924088 -18.751009 -0.431032 825 0.735886 0.677105 0.000000
-19.924767 -18.751654 -0.422645 825 0.735886 0.677105 0.000000
-19.924696 -18.751585 -0.414236 815 0.735886 0.677105 0.000000
-19.923399 -18.750364 -0.405808 807 0.735886 0.677105 0.000000
-19.922327 -18.749357 -0.397388 813 0.735886 0.677105 0.000000
-19.922785 -18.749783 -0.388993 837 0.735886 0.677105 0.000000
-19.923243 -18.750221 -0.380599 845 0.735886 0.677105 0.000000
-19.922314 -18.749340 -0.372177 823 0.735886 0.677105 0.000000
-19.923197 -18.750177 -0.363789 799 0.735886 0.677105 0.000000
-19.923599 -18.750546 -0.355395 819 0.735886 0.677105 0.000000
-19.923519 -18.750471 -0.346985 821 0.735886 0.677105 0.000000
-19.925451 -18.752302 -0.338617 811 0.735886 0.677105 0.000000
-19.925413 -18.752260 -0.330217 823 0.735886 0.677105 0.000000
-19.924107 -18.751034 -0.321789 827 0.735886 0.677105 0.000000
-19.923975 -18.750902 -0.313380 843 0.735886 0.677105 0.000000
-19.924305 -18.751211 -0.304987 823 0.735886 0.677105 0.000000
-19.925488 -18.752333 -0.296596 833 0.735886 0.677105 0.000000
-19.925976 -18.752798 -0.288201 809 0.735886 0.677105 0.000000
-19.925295 -18.752155 -0.279787 817 0.735886 0.677105 0.000000
-19.931107 -18.745676 -0.649621 829 0.735886 0.677105 0.000000
-19.930565 -18.745161 -0.641196 823 0.735886 0.677105 0.000000
-19.930061 -18.744690 -0.632770 827 0.735886 0.677105 0.000000
-19.932497 -18.746981 -0.624437 829 0.735886 0.677105 0.000000
-19.931944 -18.746458 -0.616012 803 0.735886 0.677105 0.000000
-19.930262 -18.744886 -0.607558 795 0.735886 0.677105 0.000000
-19.930559 -18.745157 -0.599155 825 0.735886 0.677105 0.000000
-19.930483 -18.745085 -0.590755 823 0.735886 0.677105 0.000000
-19.930824 -18.745417 -0.582352 813 0.735886 0.677105 0.000000
-19.930471 -18.745081 -0.573935 843 0.735886 0.677105 0.000000
-19.929697 -18.744352 -0.565512 821 0.735886 0.677105 0.000000
-19.929827 -18.744471 -0.557111 811 0.735886 0.677105 0.000000
-19.929302 -18.743982 -0.548685 823 0.735886 0.677105 0.000000
-19.930166 -18.744793 -0.540307 801 0.735886 0.677105 0.000000
-19.929546 -18.744213 -0.531883 817 0.735886 0.677105 0.000000
-19.929136 -18.743818 -0.523466 843 0.735886 0.677105 0.000000
-19.930264 -18.744879 -0.515096 843 0.735886 0.677105 0.000000
-19.929155 -18.743839 -0.506656 827 0.735886 0.677105 0.000000
-19.929691 -18.744341 -0.498271 827 0.735886 0.677105 0.000000
-19.930534 -18.745148 -0.489883 825 0.735886 0.677105 0.000000
-19.930119 -18.744745 -0.481466 857 0.735886 0.677105 0.000000
-19.931883 -18.746403 -0.473110 839 0.735886 0.677105 0.000000
-19.931931 -18.746458 -0.464699 843 0.735886 0.677105 0.000000
-19.930752 -18.745346 -0.456270 837 0.735886 0.677105 0.000000
-19.929358 -18.744038 -0.447833 851 0.735886 0.677105 0.000000
-19.929039 -18.743740 -0.439425 837 0.735886 0.677105 0.000000
-19.930731 -18.745325 -0.431059 835 0.735886 0.677105 0.000000
-19.931511 -18.746065 -0.422672 827 0.735886 0.677105 0.000000
-19.931189 -18.745754 -0.414255 857 0.735886 0.677105 0.000000
-19.930380 -18.744995 -0.405832 831 0.735886 0.677105 0.000000
-19.930521 -18.745127 -0.397431 807 0.735886 0.677105 0.000000
-19.931026 -18.745604 -0.389036 815 0.735886 0.677105 0.000000
-19.931051 -18.745628 -0.380635 819 0.735886 0.677105 0.000000
-19.928801 -18.743517 -0.372186 793 0.735886 0.677105 0.000000
-19.928833 -18.743547 -0.363786 807 0.735886 0.677105 0.000000
-19.930511 -18.745119 -0.355410 813 0.735886 0.677105 0.000000
-19.930323 -18.744944 -0.347011 821 0.735886 0.677105 0.000000
-19.929710 -18.744370 -0.338597 797 0.735886 0.677105 0.000000
-19.929192 -18.743887 -0.330181 815 0.735886 0.677105 0.000000
-19.929420 -18.744102 -0.321779 793 0.735886 0.677105 0.000000
-19.930555 -18.745169 -0.313398 829 0.735886 0.677105 0.000000
-19.930161 -18.744785 -0.304992 807 0.735886 0.677105 0.000000
-19.929367 -18.744040 -0.296569 793 0.735886 0.677105 0.000000
-19.929329 -18.744013 -0.288169 795 0.735886 0.677105 0.000000
-19.929605 -18.744267 -0.279766 809 0.735886 0.677105 0.000000
-19.935608 -18.738651 -0.649585 823 0.735886 0.677105 0.000000
-19.935326 -18.738386 -0.641168 795 0.735886 0.677105 0.000000
-19.936050 -18.739069 -0.632781 787 0.735886 0.677105 0.000000
-19.935932 -18.738949 -0.624372 799 0.735886 0.677105 0.000000
-19.935053 -18.738134 -0.615939 803 0.735886 0.677105 0.000000
-19.935030 -18.738104 -0.607530 807 0.735886 0.677105 0.000000
-19.935211 -18.738281 -0.599138 805 0.735886 0.677105 0.000000
-19.934504 -18.737604 -0.590704 793 0.735886 0.677105 0.000000
-19.934151 -18.737282 -0.582287 823 0.735886 0.677105 0.000000
-19.934963 -18.738049 -0.573909 803 0.735886 0.677105 0.000000
-19.935736 -18.738770 -0.565522 813 0.735886 0.677105 0.000000
-19.936720 -18.739687 -0.557143 807 0.735886 0.677105 0.000000
-19.936790 -18.739761 -0.548742 789 0.735886 0.677105 0.000000
-19.935581 -18.738626 -0.540303 819 0.735886 0.677105 0.000000
-19.936024 -18.739038 -0.531909 809 0.735886 0.677105 0.000000
-19.936291 -18.739298 -0.523516 817 0.735886 0.677105 0.000000
-19.935883 -18.738905 -0.515099 833 0.735886 0.677105 0.000000
-19.936314 -18.739309 -0.506705 815 0.735886 0.677105 0.000000
-19.936640 -18.739616 -0.498302 839 0.735886 0.677105 0.000000
-19.935947 -18.738966 -0.489878 833 0.735886 0.677105 0.000000
-19.935043 -18.738117 -0.481456 839 0.735886 0.677105 0.000000
-19.933342 -18.736519 -0.473012 815 0.735886 0.677105 0.000000
-19.934298 -18.737427 -0.464633 849 0.735886 0.677105 0.000000
-19.937172 -18.740128 -0.456296 811 0.735886 0.677105 0.000000
-19.937912 -18.740824 -0.447899 835 0.735886 0.677105 0.000000
-19.937214 -18.740168 -0.439485 849 0.735886 0.677105 0.000000
-19.935442 -18.738499 -0.431042 827 0.735886 0.677105 0.000000
-19.935539 -18.738592 -0.422640 831 0.735886 0.677105 0.000000
-19.935949 -18.738979 -0.414246 813 0.735886 0.677105 0.000000
-19.933910 -18.737055 -0.405795 783 0.735886 0.677105 0.000000
-19.934107 -18.737244 -0.397393 811 0.735886 0.677105 0.000000
-19.935898 -18.738932 -0.389026 809 0.735886 0.677105 0.000000
-19.934015 -18.737162 -0.380584 781 0.735886 0.677105 0.000000
-19.933466 -18.736639 -0.372179 769 0.735886 0.677105 0.000000
-19.936798 -18.739775 -0.363837 795 0.735886 0.677105 0.000000
-19.935759 -18.738792 -0.355407 799 0.735886 0.677105 0.000000
-19.935619 -18.738668 -0.347008 797 0.735886 0.677105 0.000000
-19.936012 -18.739042 -0.338604 779 0.735886 0.677105 0.000000
-19.935982 -18.739006 -0.330204 791 0.735886 0.677105 0.000000
-19.937069 -18.740036 -0.321814 809 0.735886 0.677105 0.000000
-19.935440 -18.738495 -0.313389 797 0.735886 0.677105 0.000000
-19.935024 -18.738108 -0.304982 815 0.735886 0.677105 0.000000
-19.935301 -18.738375 -0.296580 813 0.735886 0.677105 0.000000
-19.935522 -18.738583 -0.288177 793 0.735886 0.677105 0.000000
-19.936823 -18.739798 -0.279795 803 0.735886 0.677105 0.000000
