761
-10.202869 -10.047057 -0.497722 783 0.721096 0.692835 0.000000
-10.203867 -10.048045 -0.493362 795 0.721096 0.692835 0.000000
-10.203809 -10.047990 -0.488963 801 0.721096 0.692835 0.000000
-10.204126 -10.048295 -0.484570 791 0.721096 0.692835 0.000000
-10.204115 -10.048292 -0.480170 777 0.721096 0.692835 0.000000
-10.204119 -10.048290 -0.475769 773 0.721096 0.692835 0.000000
-10.203805 -10.047978 -0.471352 779 0.721096 0.692835 0.000000
-10.203538 -10.047720 -0.466935 769 0.721096 0.692835 0.000000
-10.203009 -10.047200 -0.462510 781 0.721096 0.692835 0.000000
-10.202951 -10.047145 -0.458110 777 0.721096 0.692835 0.000000
-10.204611 -10.048776 -0.453774 791 0.721096 0.692835 0.000000
-10.204290 -10.048458 -0.449357 783 0.721096 0.692835 0.000000
-10.203554 -10.047734 -0.444924 775 0.721096 0.692835 0.000000
-10.203911 -10.048085 -0.440541 785 0.721096 0.692835 0.000000
-10.204523 -10.048694 -0.436165 793 0.721096 0.692835 0.000000
-10.204611 -10.048776 -0.431764 823 0.721096 0.692835 0.000000
-10.204029 -10.048210 -0.427339 777 0.721096 0.692835 0.000000
-10.205057 -10.049224 -0.422979 779 0.721096 0.692835 0.000000
-10.205769 -10.049915 -0.418602 803 0.721096 0.692835 0.000000
-10.204138 -10.048313 -0.414138 783 0.721096 0.692835 0.000000
-10.202869 -10.047072 -0.409690 775 0.721096 0.692835 0.000000
-10.203273 -10.047462 -0.405306 795 0.721096 0.692835 0.000000
-10.202890 -10.047079 -0.400890 783 0.721096 0.692835 0.000000
-10.203233 -10.047418 -0.396496 767 0.721096 0.692835 0.000000
-10.203885 -10.048072 -0.392120 783 0.721096 0.692835 0.000000
-10.203924 -10.048100 -0.387719 779 0.721096 0.692835 0.000000
-10.204522 -10.048696 -0.383343 769 0.721096 0.692835 0.000000
-10.204494 -10.048667 -0.378944 785 0.721096 0.692835 0.000000
-10.204051 -10.048231 -0.374528 767 0.721096 0.692835 0.000000
-10.204076 -10.048262 -0.370127 777 0.721096 0.692835 0.000000
-10.204519 -10.048699 -0.365743 787 0.721096 0.692835 0.000000
-10.205479 -10.049641 -0.361374 797 0.721096 0.692835 0.000000
-10.205195 -10.049356 -0.356966 779 0.721096 0.692835 0.000000
-10.203912 -10.048100 -0.352518 767 0.721096 0.692835 0.000000
-10.203984 -10.048170 -0.348118 771 0.721096 0.692835 0.000000
-10.203541 -10.047735 -0.343702 763 0.721096 0.692835 0.000000
-10.202718 -10.046926 -0.339280 753 0.721096 0.692835 0.000000
-10.203315 -10.047506 -0.334894 779 0.721096 0.692835 0.000000
-10.203234 -10.047432 -0.330494 773 0.721096 0.692835 0.000000
-10.202936 -10.047134 -0.326087 749 0.721096 0.692835 0.000000
-10.203518 -10.047717 -0.321702 769 0.721096 0.692835 0.000000
-10.204005 -10.048192 -0.317317 771 0.721096 0.692835 0.000000
-10.204594 -10.048766 -0.312941 757 0.721096 0.692835 0.000000
-10.204182 -10.048370 -0.308525 765 0.721096 0.692835 0.000000
-10.203737 -10.047922 -0.304109 751 0.721096 0.692835 0.000000
-10.203170 -10.047368 -0.299694 753 0.721096 0.692835 0.000000
-10.207870 -10.045469 -0.687241 797 0.721096 0.692835 0.000000
-10.208899 -10.046482 -0.682902 815 0.721096 0.692835 0.000000
-10.207214 -10.044834 -0.678388 773 0.721096 0.692835 0.000000
-10.207988 -10.045592 -0.674030 805 0.721096 0.692835 0.000000
-10.208446 -10.046042 -0.669646 791 0.721096 0.692835 0.000000
-10.208217 -10.045816 -0.665228 775 0.721096 0.692835 0.000000
-10.208782 -10.046371 -0.660852 785 0.721096 0.692835 0.000000
-10.208194 -10.045799 -0.656408 783 0.721096 0.692835 0.000000
-10.208126 -10.045723 -0.651998 801 0.721096 0.692835 0.000000
-10.207745 -10.045355 -0.647572 793 0.721096 0.692835 0.000000
-10.207517 -10.045129 -0.643144 801 0.721096 0.692835 0.000000
-10.207451 -10.045067 -0.638734 803 0.721096 0.692835 0.000000
-10.207946 -10.045549 -0.634359 795 0.721096 0.692835 0.000000
-10.208241 -10.045835 -0.629977 793 0.721096 0.692835 0.000000
-10.207497 -10.045105 -0.625524 771 0.721096 0.692835 0.000000
-10.207516 -10.045128 -0.621113 775 0.721096 0.692835 0.000000
-10.207758 -10.045369 -0.616721 779 0.721096 0.692835 0.000000
-10.207829 -10.045438 -0.612320 773 0.721096 0.692835 0.000000
-10.208065 -10.045672 -0.607928 783 0.721096 0.692835 0.000000
-10.207104 -10.044718 -0.603467 785 0.721096 0.692835 0.000000
-10.207075 -10.044688 -0.599067 787 0.721096 0.692835 0.000000
-10.207828 -10.045441 -0.594700 777 0.721096 0.692835 0.000000
-10.206758 -10.044382 -0.590230 767 0.721096 0.692835 0.000000
-10.206153 -10.043783 -0.585796 779 0.721096 0.692835 0.000000
-10.206850 -10.044476 -0.581429 783 0.721096 0.692835 0.000000
-10.206714 -10.044342 -0.577020 787 0.721096 0.692835 0.000000
-10.206739 -10.044358 -0.572610 793 0.721096 0.692835 0.000000
-10.206697 -10.044331 -0.568210 797 0.721096 0.692835 0.000000
-10.206870 -10.044498 -0.563808 801 0.721096 0.692835 0.000000
-10.206787 -10.044411 -0.559399 801 0.721096 0.692835 0.000000
-10.206906 -10.044533 -0.555008 795 0.721096 0.692835 0.000000
-10.206917 -10.044536 -0.550597 805 0.721096 0.692835 0.000000
-10.206882 -10.044501 -0.546198 795 0.721096 0.692835 0.000000
-10.207100 -10.044722 -0.541805 783 0.721096 0.692835 0.000000
-10.206949 -10.044575 -0.537397 759 0.721096 0.692835 0.000000
-10.207062 -10.044690 -0.532996 793 0.721096 0.692835 0.000000
-10.206972 -10.044596 -0.528586 791 0.721096 0.692835 0.000000
-10.207291 -10.044914 -0.524203 789 0.721096 0.692835 0.000000
-10.207771 -10.045384 -0.519818 783 0.721096 0.692835 0.000000
-10.207466 -10.045079 -0.515401 797 0.721096 0.692835 0.000000
-10.207678 -10.045294 -0.511009 817 0.721096 0.692835 0.000000
-10.208621 -10.046223 -0.506650 807 0.721096 0.692835 0.000000
-10.207676 -10.045296 -0.502199 811 0.721096 0.692835 0.000000
-10.206437 -10.044065 -0.497741 811 0.721096 0.692835 0.000000
-10.206178 -10.043814 -0.493323 811 0.721096 0.692835 0.000000
-10.206697 -10.044330 -0.488948 789 0.721096 0.692835 0.000000
-10.206964 -10.044590 -0.484555 779 0.721096 0.692835 0.000000
-10.206434 -10.044069 -0.480130 763 0.721096 0.692835 0.000000
-10.206900 -10.044525 -0.475746 771 0.721096 0.692835 0.000000
-10.206949 -10.044575 -0.471345 793 0.721096 0.692835 0.000000
-10.205905 -10.043550 -0.466895 777 0.721096 0.692835 0.000000
-10.206007 -10.043646 -0.462504 789 0.721096 0.692835 0.000000
-10.206619 -10.044252 -0.458128 785 0.721096 0.692835 0.000000
-10.207547 -10.045169 -0.453769 787 0.721096 0.692835 0.000000
-10.208684 -10.046288 -0.449408 807 0.721096 0.692835 0.000000
-10.208626 -10.046232 -0.445008 805 0.721096 0.692835 0.000000
-10.207989 -10.045608 -0.440574 799 0.721096 0.692835 0.000000
-10.207452 -10.045080 -0.436149 791 0.721096 0.692835 0.000000
-10.206877 -10.044506 -0.431725 775 0.721096 0.692835 0.000000
-10.207011 -10.044641 -0.427334 753 0.721096 0.692835 0.000000
-10.206582 -10.044219 -0.422908 755 0.721096 0.692835 0.000000
-10.206878 -10.044505 -0.418525 783 0.721096 0.692835 0.000000
-10.206867 -10.044503 -0.414125 773 0.721096 0.692835 0.000000
-10.205705 -10.043352 -0.409676 761 0.721096 0.692835 0.000000
-10.205786 -10.043443 -0.405275 759 0.721096 0.692835 0.000000
-10.206706 -10.044338 -0.400916 761 0.721096 0.692835 0.000000
-10.207156 -10.044781 -0.396531 775 0.721096 0.692835 0.000000
-10.207653 -10.045278 -0.392147 783 0.721096 0.692835 0.000000
-10.208774 -10.046384 -0.387786 783 0.721096 0.692835 0.000000
-10.209077 -10.046675 -0.383393 767 0.721096 0.692835 0.000000
-10.207747 -10.045367 -0.378945 747 0.721096 0.692835 0.000000
-10.207041 -10.044670 -0.374522 775 0.721096 0.692835 0.000000
-10.207429 -10.045061 -0.370128 769 0.721096 0.692835 0.000000
-10.207717 -10.045341 -0.365745 775 0.721096 0.692835 0.000000
-10.207789 -10.045410 -0.361345 781 0.721096 0.692835 0.000000
-10.207400 -10.045034 -0.356928 761 0.721096 0.692835 0.000000
-10.206855 -10.044486 -0.352513 761 0.721096 0.692835 0.000000
-10.206504 -10.044144 -0.348097 779 0.721096 0.692835 0.000000
-10.206115 -10.043767 -0.343690 755 0.721096 0.692835 0.000000
-10.206448 -10.044086 -0.339297 761 0.721096 0.692835 0.000000
-10.207029 -10.044667 -0.334911 775 0.721096 0.692835 0.000000
-10.207156 -10.044796 -0.330520 777 0.721096 0.692835 0.000000
-10.206235 -10.043888 -0.326089 761 0.721096 0.692835 0.000000
-10.205890 -10.043537 -0.321682 757 0.721096 0.692835 0.000000
-10.206734 -10.044382 -0.317304 763 0.721096 0.692835 0.000000
-10.207376 -10.045002 -0.312927 751 0.721096 0.692835 0.000000
-10.206656 -10.044305 -0.308504 739 0.721096 0.692835 0.000000
-10.206041 -10.043698 -0.304090 745 0.721096 0.692835 0.000000
-10.206167 -10.043814 -0.299689 757 0.721096 0.692835 0.000000
-10.210376 -10.041442 -0.687200 771 0.721096 0.692835 0.000000
-10.210424 -10.041492 -0.682790 795 0.721096 0.692835 0.000000
-10.210574 -10.041640 -0.678398 789 0.721096 0.692835 0.000000
-10.210138 -10.041212 -0.673962 777 0.721096 0.692835 0.000000
-10.209770 -10.040841 -0.669526 771 0.721096 0.692835 0.000000
-10.210583 -10.041646 -0.665168 779 0.721096 0.692835 0.000000
-10.210054 -10.041125 -0.660733 771 0.721096 0.692835 0.000000
-10.210141 -10.041207 -0.656332 767 0.721096 0.692835 0.000000
-10.210647 -10.041710 -0.651957 771 0.721096 0.692835 0.000000
-10.210272 -10.041333 -0.647521 789 0.721096 0.692835 0.000000
-10.209983 -10.041056 -0.643103 783 0.721096 0.692835 0.000000
-10.209862 -10.040935 -0.638684 787 0.721096 0.692835 0.000000
-10.210165 -10.041227 -0.634301 791 0.721096 0.692835 0.000000
-10.210862 -10.041920 -0.629934 777 0.721096 0.692835 0.000000
-10.210634 -10.041695 -0.625517 785 0.721096 0.692835 0.000000
-10.210405 -10.041469 -0.621099 799 0.721096 0.692835 0.000000
-10.210478 -10.041538 -0.616698 789 0.721096 0.692835 0.000000
-10.210612 -10.041674 -0.612296 757 0.721096 0.692835 0.000000
-10.211109 -10.042170 -0.607922 783 0.721096 0.692835 0.000000
-10.211605 -10.042652 -0.603547 799 0.721096 0.692835 0.000000
-10.211153 -10.042211 -0.599111 805 0.721096 0.692835 0.000000
-10.210294 -10.041368 -0.594659 777 0.721096 0.692835 0.000000
-10.209803 -10.040880 -0.590224 771 0.721096 0.692835 0.000000
-10.209922 -10.041003 -0.585822 787 0.721096 0.692835 0.000000
-10.210263 -10.041327 -0.581439 789 0.721096 0.692835 0.000000
-10.210019 -10.041089 -0.577021 817 0.721096 0.692835 0.000000
-10.209830 -10.040910 -0.572603 795 0.721096 0.692835 0.000000
-10.210311 -10.041379 -0.568228 789 0.721096 0.692835 0.000000
-10.210539 -10.041606 -0.563836 807 0.721096 0.692835 0.000000
-10.211074 -10.042135 -0.559461 811 0.721096 0.692835 0.000000
-10.211099 -10.042151 -0.555060 811 0.721096 0.692835 0.000000
-10.210116 -10.041192 -0.550600 809 0.721096 0.692835 0.000000
-10.210127 -10.041196 -0.546200 791 0.721096 0.692835 0.000000
-10.210816 -10.041883 -0.541833 797 0.721096 0.692835 0.000000
-10.211404 -10.042456 -0.537457 787 0.721096 0.692835 0.000000
-10.211045 -10.042107 -0.533030 787 0.721096 0.692835 0.000000
-10.210532 -10.041598 -0.528605 787 0.721096 0.692835 0.000000
-10.210173 -10.041248 -0.524179 791 0.721096 0.692835 0.000000
-10.209813 -10.040898 -0.519762 781 0.721096 0.692835 0.000000
-10.210032 -10.041105 -0.515370 777 0.721096 0.692835 0.000000
-10.210768 -10.041831 -0.511003 799 0.721096 0.692835 0.000000
-10.210724 -10.041789 -0.506593 799 0.721096 0.692835 0.000000
-10.209680 -10.040764 -0.502143 777 0.721096 0.692835 0.000000
-10.209475 -10.040557 -0.497735 803 0.721096 0.692835 0.000000
-10.209846 -10.040922 -0.493341 821 0.721096 0.692835 0.000000
-10.210204 -10.041273 -0.488957 783 0.721096 0.692835 0.000000
-10.209422 -10.040510 -0.484525 765 0.721096 0.692835 0.000000
-10.209424 -10.040508 -0.480115 783 0.721096 0.692835 0.000000
-10.210871 -10.041943 -0.475781 807 0.721096 0.692835 0.000000
-10.210248 -10.041329 -0.471347 797 0.721096 0.692835 0.000000
-10.209357 -10.040448 -0.466905 769 0.721096 0.692835 0.000000
-10.209352 -10.040439 -0.462505 783 0.721096 0.692835 0.000000
-10.208985 -10.040082 -0.458088 775 0.721096 0.692835 0.000000
-10.209443 -10.040532 -0.453704 779 0.721096 0.692835 0.000000
-10.210064 -10.041146 -0.449328 785 0.721096 0.692835 0.000000
-10.209998 -10.041085 -0.444928 781 0.721096 0.692835 0.000000
-10.210093 -10.041174 -0.440527 775 0.721096 0.692835 0.000000
-10.210342 -10.041420 -0.436135 781 0.721096 0.692835 0.000000
-10.210384 -10.041463 -0.431734 765 0.721096 0.692835 0.000000
-10.210480 -10.041553 -0.427343 785 0.721096 0.692835 0.000000
-10.210713 -10.041787 -0.422951 779 0.721096 0.692835 0.000000
-10.209923 -10.041003 -0.418518 757 0.721096 0.692835 0.000000
-10.210112 -10.041198 -0.414127 761 0.721096 0.692835 0.000000
-10.210670 -10.041746 -0.409741 789 0.721096 0.692835 0.000000
-10.210340 -10.041422 -0.405324 787 0.721096 0.692835 0.000000
-10.210274 -10.041348 -0.400925 781 0.721096 0.692835 0.000000
-10.209885 -10.040971 -0.396508 763 0.721096 0.692835 0.000000
-10.210280 -10.041355 -0.392124 783 0.721096 0.692835 0.000000
-10.210830 -10.041896 -0.387739 785 0.721096 0.692835 0.000000
-10.210502 -10.041573 -0.383332 793 0.721096 0.692835 0.000000
-10.210468 -10.041552 -0.378932 755 0.721096 0.692835 0.000000
-10.210501 -10.041574 -0.374532 771 0.721096 0.692835 0.000000
-10.210319 -10.041401 -0.370124 763 0.721096 0.692835 0.000000
-10.211493 -10.042553 -0.365762 797 0.721096 0.692835 0.000000
-10.211513 -10.042577 -0.361362 777 0.721096 0.692835 0.000000
-10.210969 -10.042044 -0.356937 771 0.721096 0.692835 0.000000
-10.210617 -10.041700 -0.352530 777 0.721096 0.692835 0.000000
-10.210851 -10.041921 -0.348138 759 0.721096 0.692835 0.000000
-10.210615 -10.041687 -0.343730 765 0.721096 0.692835 0.000000
-10.210210 -10.041299 -0.339314 773 0.721096 0.692835 0.000000
-10.210443 -10.041518 -0.334921 763 0.721096 0.692835 0.000000
-10.209939 -10.041032 -0.330506 765 0.721096 0.692835 0.000000
-10.210420 -10.041501 -0.326121 773 0.721096 0.692835 0.000000
-10.210855 -10.041931 -0.321737 747 0.721096 0.692835 0.000000
-10.210556 -10.041633 -0.317330 775 0.721096 0.692835 0.000000
-10.209743 -10.040830 -0.312898 781 0.721096 0.692835 0.000000
-10.209384 -10.040481 -0.308491 789 0.721096 0.692835 0.000000
-10.209664 -10.040753 -0.304098 775 0.721096 0.692835 0.000000
-10.209828 -10.040915 -0.299707 757 0.721096 0.692835 0.000000
-10.212797 -10.037437 -0.687150 763 0.721096 0.692835 0.000000
-10.213039 -10.037678 -0.682757 753 0.721096 0.692835 0.000000
-10.213544 -10.038179 -0.678382 773 0.721096 0.692835 0.000000
-10.214009 -10.038636 -0.674008 783 0.721096 0.692835 0.000000
-10.213943 -10.038575 -0.669588 771 0.721096 0.692835 0.000000
-10.213723 -10.038357 -0.665170 759 0.721096 0.692835 0.000000
-10.213556 -10.038182 -0.660752 765 0.721096 0.692835 0.000000
-10.213221 -10.037866 -0.656325 771 0.721096 0.692835 0.000000
-10.213940 -10.038565 -0.651968 781 0.721096 0.692835 0.000000
-10.213926 -10.038548 -0.647558 771 0.721096 0.692835 0.000000
-10.213901 -10.038533 -0.643148 783 0.721096 0.692835 0.000000
-10.214512 -10.039127 -0.638782 789 0.721096 0.692835 0.000000
-10.215062 -10.039669 -0.634407 785 0.721096 0.692835 0.000000
-10.214163 -10.038780 -0.629945 783 0.721096 0.692835 0.000000
-10.213774 -10.038404 -0.625519 787 0.721096 0.692835 0.000000
-10.213845 -10.038474 -0.621118 747 0.721096 0.692835 0.000000
-10.213725 -10.038354 -0.616699 781 0.721096 0.692835 0.000000
-10.213860 -10.038488 -0.612298 795 0.721096 0.692835 0.000000
-10.213408 -10.038047 -0.607872 799 0.721096 0.692835 0.000000
-10.213803 -10.038431 -0.603488 775 0.721096 0.692835 0.000000
-10.214246 -10.038868 -0.599104 781 0.721096 0.692835 0.000000
-10.213479 -10.038118 -0.594661 785 0.721096 0.692835 0.000000
-10.213605 -10.038246 -0.590260 787 0.721096 0.692835 0.000000
-10.214263 -10.038894 -0.585893 797 0.721096 0.692835 0.000000
-10.214537 -10.039160 -0.581501 801 0.721096 0.692835 0.000000
-10.214247 -10.038868 -0.577083 775 0.721096 0.692835 0.000000
-10.214056 -10.038689 -0.572665 793 0.721096 0.692835 0.000000
-10.214075 -10.038699 -0.568265 783 0.721096 0.692835 0.000000
-10.213515 -10.038152 -0.563830 767 0.721096 0.692835 0.000000
-10.213742 -10.038380 -0.559438 767 0.721096 0.692835 0.000000
-10.214123 -10.038751 -0.555054 785 0.721096 0.692835 0.000000
-10.214242 -10.038873 -0.550653 799 0.721096 0.692835 0.000000
-10.214299 -10.038929 -0.546252 807 0.721096 0.692835 0.000000
-10.213585 -10.038225 -0.541809 787 0.721096 0.692835 0.000000
-10.213703 -10.038333 -0.537407 781 0.721096 0.692835 0.000000
-10.214393 -10.039020 -0.533041 801 0.721096 0.692835 0.000000
-10.213880 -10.038512 -0.528616 785 0.721096 0.692835 0.000000
-10.214468 -10.039086 -0.524240 795 0.721096 0.692835 0.000000
-10.214941 -10.039549 -0.519855 797 0.721096 0.692835 0.000000
-10.213488 -10.038123 -0.515379 783 0.721096 0.692835 0.000000
-10.213020 -10.037669 -0.510953 797 0.721096 0.692835 0.000000
-10.213131 -10.037770 -0.506562 799 0.721096 0.692835 0.000000
-10.213343 -10.037985 -0.502170 789 0.721096 0.692835 0.000000
-10.213963 -10.038599 -0.497794 793 0.721096 0.692835 0.000000
-10.213650 -10.038288 -0.493377 805 0.721096 0.692835 0.000000
-10.213598 -10.038239 -0.488967 783 0.721096 0.692835 0.000000
-10.214434 -10.039063 -0.484609 801 0.721096 0.692835 0.000000
-10.214753 -10.039369 -0.480216 803 0.721096 0.692835 0.000000
-10.214225 -10.038849 -0.475791 795 0.721096 0.692835 0.000000
-10.213286 -10.037928 -0.471350 769 0.721096 0.692835 0.000000
-10.212914 -10.037564 -0.466923 769 0.721096 0.692835 0.000000
-10.213634 -10.038277 -0.462556 783 0.721096 0.692835 0.000000
-10.213420 -10.038065 -0.458148 781 0.721096 0.692835 0.000000
-10.213314 -10.037956 -0.453739 779 0.721096 0.692835 0.000000
-10.213664 -10.038301 -0.449356 779 0.721096 0.692835 0.000000
-10.213191 -10.037841 -0.444930 771 0.721096 0.692835 0.000000
-10.212761 -10.037417 -0.440514 773 0.721096 0.692835 0.000000
-10.212857 -10.037507 -0.436113 785 0.721096 0.692835 0.000000
-10.213470 -10.038115 -0.431737 775 0.721096 0.692835 0.000000
-10.214182 -10.038820 -0.427360 755 0.721096 0.692835 0.000000
-10.215048 -10.039670 -0.423002 763 0.721096 0.692835 0.000000
-10.214364 -10.038992 -0.418568 757 0.721096 0.692835 0.000000
-10.213097 -10.037750 -0.414120 753 0.721096 0.692835 0.000000
-10.213331 -10.037984 -0.409728 775 0.721096 0.692835 0.000000
-10.214313 -10.038945 -0.405358 763 0.721096 0.692835 0.000000
-10.215858 -10.040463 -0.401013 791 0.721096 0.692835 0.000000
-10.214742 -10.039367 -0.396574 773 0.721096 0.692835 0.000000
-10.213212 -10.037863 -0.392119 777 0.721096 0.692835 0.000000
-10.213507 -10.038147 -0.387726 787 0.721096 0.692835 0.000000
-10.214158 -10.038788 -0.383349 789 0.721096 0.692835 0.000000
-10.214392 -10.039021 -0.378957 789 0.721096 0.692835 0.000000
-10.214211 -10.038849 -0.374549 775 0.721096 0.692835 0.000000
-10.214338 -10.038978 -0.370147 771 0.721096 0.692835 0.000000
-10.214210 -10.038851 -0.365748 761 0.721096 0.692835 0.000000
-10.213396 -10.038048 -0.361316 763 0.721096 0.692835 0.000000
-10.213168 -10.037823 -0.356908 755 0.721096 0.692835 0.000000
-10.213655 -10.038298 -0.352524 737 0.721096 0.692835 0.000000
-10.214614 -10.039240 -0.348154 755 0.721096 0.692835 0.000000
-10.214217 -10.038857 -0.343748 739 0.721096 0.692835 0.000000
-10.213619 -10.038264 -0.339324 747 0.721096 0.692835 0.000000
-10.213999 -10.038635 -0.334940 753 0.721096 0.692835 0.000000
-10.213232 -10.037886 -0.330507 737 0.721096 0.692835 0.000000
-10.212881 -10.037542 -0.326100 733 0.721096 0.692835 0.000000
-10.214194 -10.038838 -0.321738 747 0.721096 0.692835 0.000000
-10.214582 -10.039215 -0.317354 775 0.721096 0.692835 0.000000
-10.214331 -10.038971 -0.312946 767 0.721096 0.692835 0.000000
-10.213409 -10.038063 -0.308515 751 0.721096 0.692835 0.000000
-10.212743 -10.037411 -0.304101 779 0.721096 0.692835 0.000000
-10.212807 -10.037475 -0.299700 767 0.721096 0.692835 0.000000
-10.216638 -10.035085 -0.687204 775 0.721096 0.692835 0.000000
-10.217094 -10.035534 -0.682820 773 0.721096 0.692835 0.000000
-10.216990 -10.035426 -0.678410 767 0.721096 0.692835 0.000000
-10.216708 -10.035156 -0.673983 781 0.721096 0.692835 0.000000
-10.216856 -10.035290 -0.669582 781 0.721096 0.692835 0.000000
-10.217106 -10.035537 -0.665189 787 0.721096 0.692835 0.000000
-10.217665 -10.036084 -0.660824 791 0.721096 0.692835 0.000000
-10.218069 -10.036489 -0.656440 789 0.721096 0.692835 0.000000
-10.217686 -10.036105 -0.652013 815 0.721096 0.692835 0.000000
-10.217558 -10.035993 -0.647594 783 0.721096 0.692835 0.000000
-10.217230 -10.035668 -0.643167 787 0.721096 0.692835 0.000000
-10.216739 -10.035179 -0.638732 777 0.721096 0.692835 0.000000
-10.218184 -10.036600 -0.634408 785 0.721096 0.692835 0.000000
-10.218627 -10.037038 -0.630034 803 0.721096 0.692835 0.000000
-10.217257 -10.035684 -0.625537 791 0.721096 0.692835 0.000000
-10.216712 -10.035150 -0.621102 757 0.721096 0.692835 0.000000
-10.216847 -10.035285 -0.616700 763 0.721096 0.692835 0.000000
-10.216712 -10.035151 -0.612292 763 0.721096 0.692835 0.000000
-10.216993 -10.035439 -0.607899 779 0.721096 0.692835 0.000000
-10.217280 -10.035717 -0.603516 791 0.721096 0.692835 0.000000
-10.217098 -10.035531 -0.599098 783 0.721096 0.692835 0.000000
-10.216817 -10.035259 -0.594680 779 0.721096 0.692835 0.000000
-10.216473 -10.034922 -0.590253 785 0.721096 0.692835 0.000000
-10.216800 -10.035248 -0.585860 779 0.721096 0.692835 0.000000
-10.217141 -10.035572 -0.581477 799 0.721096 0.692835 0.000000
-10.216744 -10.035191 -0.577050 781 0.721096 0.692835 0.000000
-10.217279 -10.035718 -0.572675 773 0.721096 0.692835 0.000000
-10.217196 -10.035630 -0.568266 777 0.721096 0.692835 0.000000
-10.216792 -10.035241 -0.563840 777 0.721096 0.692835 0.000000
-10.216186 -10.034642 -0.559405 791 0.721096 0.692835 0.000000
-10.217136 -10.035577 -0.555046 777 0.721096 0.692835 0.000000
-10.218356 -10.036767 -0.550704 785 0.721096 0.692835 0.000000
-10.217683 -10.036109 -0.546271 777 0.721096 0.692835 0.000000
-10.217546 -10.035975 -0.541862 799 0.721096 0.692835 0.000000
-10.216301 -10.034754 -0.537394 795 0.721096 0.692835 0.000000
-10.215843 -10.034306 -0.532958 781 0.721096 0.692835 0.000000
-10.217464 -10.035903 -0.528642 801 0.721096 0.692835 0.000000
-10.218053 -10.036478 -0.524267 813 0.721096 0.692835 0.000000
-10.217578 -10.036016 -0.519841 803 0.721096 0.692835 0.000000
-10.217435 -10.035876 -0.515432 799 0.721096 0.692835 0.000000
-10.218177 -10.036593 -0.511065 781 0.721096 0.692835 0.000000
-10.218644 -10.037065 -0.506680 783 0.721096 0.692835 0.000000
-10.217505 -10.035933 -0.502221 783 0.721096 0.692835 0.000000
-10.217138 -10.035576 -0.497805 777 0.721096 0.692835 0.000000
-10.217450 -10.035889 -0.493412 785 0.721096 0.692835 0.000000
-10.217344 -10.035781 -0.489003 801 0.721096 0.692835 0.000000
-10.216986 -10.035431 -0.484586 795 0.721096 0.692835 0.000000
-10.217089 -10.035526 -0.480185 805 0.721096 0.692835 0.000000
-10.217347 -10.035780 -0.475792 801 0.721096 0.692835 0.000000
-10.216925 -10.035363 -0.471376 781 0.721096 0.692835 0.000000
-10.216874 -10.035316 -0.466967 787 0.721096 0.692835 0.000000
-10.216440 -10.034901 -0.462551 785 0.721096 0.692835 0.000000
-10.216387 -10.034838 -0.458141 785 0.721096 0.692835 0.000000
-10.217422 -10.035858 -0.453781 801 0.721096 0.692835 0.000000
-10.217781 -10.036211 -0.449397 785 0.721096 0.692835 0.000000
-10.217660 -10.036089 -0.444988 777 0.721096 0.692835 0.000000
-10.216824 -10.035268 -0.440556 765 0.721096 0.692835 0.000000
-10.216389 -10.034853 -0.436130 775 0.721096 0.692835 0.000000
-10.217370 -10.035814 -0.431771 791 0.721096 0.692835 0.000000
-10.217412 -10.035857 -0.427370 779 0.721096 0.692835 0.000000
-10.216920 -10.035369 -0.422955 763 0.721096 0.692835 0.000000
-10.217123 -10.035563 -0.418553 779 0.721096 0.692835 0.000000
-10.216943 -10.035390 -0.414145 783 0.721096 0.692835 0.000000
-10.216146 -10.034615 -0.409712 769 0.721096 0.692835 0.000000
-10.216078 -10.034539 -0.405313 749 0.721096 0.692835 0.000000
-10.216112 -10.034576 -0.400912 755 0.721096 0.692835 0.000000
-10.217025 -10.035479 -0.396543 777 0.721096 0.692835 0.000000
-10.218307 -10.036735 -0.392191 791 0.721096 0.692835 0.000000
-10.217347 -10.035794 -0.387760 771 0.721096 0.692835 0.000000
-10.216178 -10.034638 -0.383311 765 0.721096 0.692835 0.000000
-10.216728 -10.035179 -0.378936 757 0.721096 0.692835 0.000000
-10.217278 -10.035722 -0.374550 775 0.721096 0.692835 0.000000
-10.216681 -10.035142 -0.370126 769 0.721096 0.692835 0.000000
-10.215928 -10.034391 -0.365703 753 0.721096 0.692835 0.000000
-10.215485 -10.033956 -0.361287 737 0.721096 0.692835 0.000000
-10.216236 -10.034695 -0.356910 743 0.721096 0.692835 0.000000
-10.216924 -10.035380 -0.352533 765 0.721096 0.692835 0.000000
-10.216589 -10.035051 -0.348126 763 0.721096 0.692835 0.000000
-10.216190 -10.034654 -0.343710 749 0.721096 0.692835 0.000000
-10.215638 -10.034114 -0.339295 731 0.721096 0.692835 0.000000
-10.217013 -10.035462 -0.334932 741 0.721096 0.692835 0.000000
-10.218119 -10.036555 -0.330571 779 0.721096 0.692835 0.000000
-10.217567 -10.036015 -0.326156 771 0.721096 0.692835 0.000000
-10.217270 -10.035717 -0.321739 753 0.721096 0.692835 0.000000
-10.216447 -10.034907 -0.317317 759 0.721096 0.692835 0.000000
-10.215681 -10.034158 -0.312894 747 0.721096 0.692835 0.000000
-10.215954 -10.034425 -0.308502 749 0.721096 0.692835 0.000000
-10.216389 -10.034855 -0.304117 733 0.721096 0.692835 0.000000
-10.215875 -10.034347 -0.299702 737 0.721096 0.692835 0.000000
-10.220741 -10.033101 -0.687275 783 0.721096 0.692835 0.000000
-10.221515 -10.033859 -0.682918 783 0.721096 0.692835 0.000000
-10.221233 -10.033587 -0.678490 795 0.721096 0.692835 0.000000
-10.220812 -10.033172 -0.674054 791 0.721096 0.692835 0.000000
-10.220584 -10.032947 -0.669636 779 0.721096 0.692835 0.000000
-10.220270 -10.032635 -0.665209 785 0.721096 0.692835 0.000000
-10.220150 -10.032514 -0.660790 793 0.721096 0.692835 0.000000
-10.219821 -10.032190 -0.656363 759 0.721096 0.692835 0.000000
-10.220319 -10.032686 -0.651989 781 0.721096 0.692835 0.000000
-10.221192 -10.033543 -0.647630 789 0.721096 0.692835 0.000000
-10.220501 -10.032858 -0.643187 773 0.721096 0.692835 0.000000
-10.219904 -10.032278 -0.638742 773 0.721096 0.692835 0.000000
-10.220514 -10.032872 -0.634376 775 0.721096 0.692835 0.000000
-10.220695 -10.033061 -0.629974 775 0.721096 0.692835 0.000000
-10.220529 -10.032887 -0.625556 783 0.721096 0.692835 0.000000
-10.220549 -10.032910 -0.621156 785 0.721096 0.692835 0.000000
-10.220320 -10.032685 -0.616738 785 0.721096 0.692835 0.000000
-10.220183 -10.032552 -0.612319 773 0.721096 0.692835 0.000000
-10.219902 -10.032281 -0.607901 765 0.721096 0.692835 0.000000
-10.220345 -10.032717 -0.603517 775 0.721096 0.692835 0.000000
-10.221101 -10.033448 -0.599160 773 0.721096 0.692835 0.000000
-10.221067 -10.033426 -0.594750 779 0.721096 0.692835 0.000000
-10.220523 -10.032880 -0.590315 783 0.721096 0.692835 0.000000
-10.219286 -10.031678 -0.585837 765 0.721096 0.692835 0.000000
-10.219412 -10.031793 -0.581436 779 0.721096 0.692835 0.000000
-10.219854 -10.032229 -0.577061 771 0.721096 0.692835 0.000000
-10.219402 -10.031787 -0.572625 761 0.721096 0.692835 0.000000
-10.220206 -10.032572 -0.568268 767 0.721096 0.692835 0.000000
-10.220580 -10.032949 -0.563884 771 0.721096 0.692835 0.000000
-10.219659 -10.032043 -0.559433 771 0.721096 0.692835 0.000000
-10.218836 -10.031233 -0.554980 761 0.721096 0.692835 0.000000
-10.219849 -10.032220 -0.550631 769 0.721096 0.692835 0.000000
-10.220484 -10.032846 -0.546264 773 0.721096 0.692835 0.000000
-10.220595 -10.032963 -0.541863 791 0.721096 0.692835 0.000000
-10.220297 -10.032664 -0.537446 791 0.721096 0.692835 0.000000
-10.219684 -10.032059 -0.533012 783 0.721096 0.692835 0.000000
-10.220319 -10.032686 -0.528636 791 0.721096 0.692835 0.000000
-10.220014 -10.032396 -0.524218 793 0.721096 0.692835 0.000000
-10.220333 -10.032701 -0.519825 803 0.721096 0.692835 0.000000
-10.220289 -10.032660 -0.515426 811 0.721096 0.692835 0.000000
-10.219816 -10.032198 -0.511000 781 0.721096 0.692835 0.000000
-10.220187 -10.032561 -0.506606 779 0.721096 0.692835 0.000000
-10.220298 -10.032663 -0.502215 775 0.721096 0.692835 0.000000
-10.220355 -10.032720 -0.497815 767 0.721096 0.692835 0.000000
-10.219781 -10.032161 -0.493380 785 0.721096 0.692835 0.000000
-10.219675 -10.032053 -0.488971 787 0.721096 0.692835 0.000000
-10.219880 -10.032261 -0.484579 773 0.721096 0.692835 0.000000
-10.220098 -10.032467 -0.480187 791 0.721096 0.692835 0.000000
-10.219979 -10.032361 -0.475778 799 0.721096 0.692835 0.000000
-10.219504 -10.031899 -0.471352 775 0.721096 0.692835 0.000000
-10.220078 -10.032461 -0.466976 797 0.721096 0.692835 0.000000
-10.220859 -10.033224 -0.462609 795 0.721096 0.692835 0.000000
-10.221424 -10.033779 -0.458233 783 0.721096 0.692835 0.000000
-10.220633 -10.032996 -0.453801 791 0.721096 0.692835 0.000000
-10.219843 -10.032228 -0.449358 779 0.721096 0.692835 0.000000
-10.220563 -10.032939 -0.444991 781 0.721096 0.692835 0.000000
-10.220713 -10.033074 -0.440590 797 0.721096 0.692835 0.000000
-10.220329 -10.032704 -0.436173 797 0.721096 0.692835 0.000000
-10.220641 -10.033004 -0.431780 801 0.721096 0.692835 0.000000
-10.220575 -10.032942 -0.427381 773 0.721096 0.692835 0.000000
-10.220293 -10.032671 -0.422963 763 0.721096 0.692835 0.000000
-10.219964 -10.032347 -0.418556 769 0.721096 0.692835 0.000000
-10.219636 -10.032022 -0.414139 771 0.721096 0.692835 0.000000
-10.219670 -10.032060 -0.409739 777 0.721096 0.692835 0.000000
-10.219804 -10.032195 -0.405338 769 0.721096 0.692835 0.000000
-10.219321 -10.031713 -0.400922 759 0.721096 0.692835 0.000000
-10.219563 -10.031953 -0.396530 747 0.721096 0.692835 0.000000
-10.219228 -10.031624 -0.392113 771 0.721096 0.692835 0.000000
-10.218738 -10.031149 -0.387697 779 0.721096 0.692835 0.000000
-10.219550 -10.031940 -0.383330 763 0.721096 0.692835 0.000000
-10.219738 -10.032120 -0.378938 747 0.721096 0.692835 0.000000
-10.220388 -10.032761 -0.374551 739 0.721096 0.692835 0.000000
-10.220677 -10.033053 -0.370168 771 0.721096 0.692835 0.000000
-10.219917 -10.032310 -0.365736 777 0.721096 0.692835 0.000000
-10.219843 -10.032228 -0.361336 747 0.721096 0.692835 0.000000
-10.219862 -10.032252 -0.356936 759 0.721096 0.692835 0.000000
-10.219518 -10.031916 -0.352519 773 0.721096 0.692835 0.000000
-10.219543 -10.031932 -0.348119 755 0.721096 0.692835 0.000000
-10.219717 -10.032114 -0.343727 751 0.721096 0.692835 0.000000
-10.220730 -10.033101 -0.339357 743 0.721096 0.692835 0.000000
-10.221117 -10.033478 -0.334973 733 0.721096 0.692835 0.000000
-10.220349 -10.032729 -0.330551 741 0.721096 0.692835 0.000000
-10.220261 -10.032647 -0.326141 759 0.721096 0.692835 0.000000
-10.219440 -10.031839 -0.321719 729 0.721096 0.692835 0.000000
-10.219249 -10.031645 -0.317311 765 0.721096 0.692835 0.000000
-10.219938 -10.032332 -0.312934 757 0.721096 0.692835 0.000000
-10.220103 -10.032493 -0.308542 747 0.721096 0.692835 0.000000
-10.219135 -10.031532 -0.304112 737 0.721096 0.692835 0.000000
-10.219346 -10.031747 -0.299719 751 0.721096 0.692835 0.000000
-10.222534 -10.028968 -0.687198 763 0.721096 0.692835 0.000000
-10.223093 -10.029517 -0.682833 779 0.721096 0.692835 0.000000
-10.222780 -10.029205 -0.678406 777 0.721096 0.692835 0.000000
-10.222775 -10.029197 -0.673995 765 0.721096 0.692835 0.000000
-10.223433 -10.029842 -0.669629 789 0.721096 0.692835 0.000000
-10.223991 -10.030391 -0.665254 787 0.721096 0.692835 0.000000
-10.223201 -10.029621 -0.660801 773 0.721096 0.692835 0.000000
-10.222133 -10.028577 -0.656321 775 0.721096 0.692835 0.000000
-10.222490 -10.028929 -0.651938 787 0.721096 0.692835 0.000000
-10.222940 -10.029372 -0.647563 769 0.721096 0.692835 0.000000
-10.223605 -10.030010 -0.643197 757 0.721096 0.692835 0.000000
-10.223316 -10.029734 -0.638769 759 0.721096 0.692835 0.000000
-10.222309 -10.028741 -0.634299 759 0.721096 0.692835 0.000000
-10.222706 -10.029138 -0.629925 769 0.721096 0.692835 0.000000
-10.223095 -10.029516 -0.625541 763 0.721096 0.692835 0.000000
-10.222919 -10.029349 -0.621123 765 0.721096 0.692835 0.000000
-10.222845 -10.029267 -0.616713 785 0.721096 0.692835 0.000000
-10.222356 -10.028793 -0.612278 775 0.721096 0.692835 0.000000
-10.222219 -10.028659 -0.607859 753 0.721096 0.692835 0.000000
-10.222871 -10.029300 -0.603493 787 0.721096 0.692835 0.000000
-10.223050 -10.029474 -0.599101 777 0.721096 0.692835 0.000000
-10.223078 -10.029505 -0.594701 767 0.721096 0.692835 0.000000
-10.222163 -10.028603 -0.590239 757 0.721096 0.692835 0.000000
-10.222390 -10.028831 -0.585847 761 0.721096 0.692835 0.000000
-10.222878 -10.029306 -0.581472 773 0.721096 0.692835 0.000000
-10.222797 -10.029232 -0.577063 761 0.721096 0.692835 0.000000
-10.223547 -10.029957 -0.572696 793 0.721096 0.692835 0.000000
-10.223712 -10.030132 -0.568304 777 0.721096 0.692835 0.000000
-10.223577 -10.029998 -0.563885 781 0.721096 0.692835 0.000000
-10.223541 -10.029963 -0.559485 785 0.721096 0.692835 0.000000
-10.223768 -10.030176 -0.555093 791 0.721096 0.692835 0.000000
-10.223523 -10.029937 -0.550675 801 0.721096 0.692835 0.000000
-10.222286 -10.028722 -0.546207 785 0.721096 0.692835 0.000000
-10.221827 -10.028273 -0.541771 773 0.721096 0.692835 0.000000
-10.222038 -10.028487 -0.537379 777 0.721096 0.692835 0.000000
-10.222364 -10.028799 -0.532996 765 0.721096 0.692835 0.000000
-10.223316 -10.029735 -0.528637 783 0.721096 0.692835 0.000000
-10.222963 -10.029391 -0.524220 777 0.721096 0.692835 0.000000
-10.222543 -10.028975 -0.519794 779 0.721096 0.692835 0.000000
-10.222816 -10.029241 -0.515401 783 0.721096 0.692835 0.000000
-10.223236 -10.029658 -0.511017 783 0.721096 0.692835 0.000000
-10.223448 -10.029873 -0.506625 793 0.721096 0.692835 0.000000
-10.222672 -10.029103 -0.502182 787 0.721096 0.692835 0.000000
-10.222721 -10.029153 -0.497782 769 0.721096 0.692835 0.000000
-10.223041 -10.029471 -0.493399 789 0.721096 0.692835 0.000000
-10.222935 -10.029364 -0.488989 795 0.721096 0.692835 0.000000
-10.224086 -10.030496 -0.484638 811 0.721096 0.692835 0.000000
-10.224081 -10.030487 -0.480238 809 0.721096 0.692835 0.000000
-10.222721 -10.029153 -0.475771 795 0.721096 0.692835 0.000000
-10.221784 -10.028233 -0.471330 789 0.721096 0.692835 0.000000
-10.222966 -10.029405 -0.466979 789 0.721096 0.692835 0.000000
-10.223600 -10.030017 -0.462603 789 0.721096 0.692835 0.000000
-10.222864 -10.029293 -0.458170 787 0.721096 0.692835 0.000000
-10.223052 -10.029488 -0.453778 819 0.721096 0.692835 0.000000
-10.221846 -10.028297 -0.449319 785 0.721096 0.692835 0.000000
-10.222566 -10.029011 -0.444952 763 0.721096 0.692835 0.000000
-10.223500 -10.029919 -0.440583 779 0.721096 0.692835 0.000000
-10.223588 -10.030015 -0.436192 787 0.721096 0.692835 0.000000
-10.223005 -10.029436 -0.431767 791 0.721096 0.692835 0.000000
-10.221953 -10.028404 -0.427318 769 0.721096 0.692835 0.000000
-10.222619 -10.029057 -0.422941 763 0.721096 0.692835 0.000000
-10.223385 -10.029808 -0.418574 783 0.721096 0.692835 0.000000
-10.223519 -10.029943 -0.414172 789 0.721096 0.692835 0.000000
-10.223091 -10.029521 -0.409756 793 0.721096 0.692835 0.000000
-10.222754 -10.029190 -0.405339 779 0.721096 0.692835 0.000000
-10.222741 -10.029175 -0.400939 763 0.721096 0.692835 0.000000
-10.224125 -10.030543 -0.396596 767 0.721096 0.692835 0.000000
-10.224266 -10.030670 -0.392194 763 0.721096 0.692835 0.000000
-10.223722 -10.030138 -0.387770 765 0.721096 0.692835 0.000000
-10.223540 -10.029964 -0.383371 777 0.721096 0.692835 0.000000
-10.223205 -10.029634 -0.378954 773 0.721096 0.692835 0.000000
-10.222869 -10.029305 -0.374537 759 0.721096 0.692835 0.000000
-10.222256 -10.028712 -0.370123 757 0.721096 0.692835 0.000000
-10.222813 -10.029246 -0.365738 759 0.721096 0.692835 0.000000
-10.222994 -10.029434 -0.361346 743 0.721096 0.692835 0.000000
-10.222388 -10.028835 -0.356922 727 0.721096 0.692835 0.000000
-10.222622 -10.029068 -0.352529 777 0.721096 0.692835 0.000000
-10.223580 -10.030010 -0.348160 769 0.721096 0.692835 0.000000
-10.223606 -10.030026 -0.343760 779 0.721096 0.692835 0.000000
-10.222371 -10.028826 -0.339321 749 0.721096 0.692835 0.000000
-10.221919 -10.028383 -0.334906 735 0.721096 0.692835 0.000000
-10.221783 -10.028250 -0.330507 733 0.721096 0.692835 0.000000
-10.221532 -10.028005 -0.326099 721 0.721096 0.692835 0.000000
-10.221657 -10.028119 -0.321698 739 0.721096 0.692835 0.000000
-10.222507 -10.028956 -0.317330 741 0.721096 0.692835 0.000000
-10.222936 -10.029381 -0.312935 751 0.721096 0.692835 0.000000
-10.223577 -10.030000 -0.308559 745 0.721096 0.692835 0.000000
-10.223327 -10.029755 -0.304151 761 0.721096 0.692835 0.000000
-10.222242 -10.028697 -0.299722 741 0.721096 0.692835 0.000000
-10.225645 -10.026008 -0.687209 773 0.721096 0.692835 0.000000
-10.226621 -10.026977 -0.682869 761 0.721096 0.692835 0.000000
-10.226299 -10.026659 -0.678432 755 0.721096 0.692835 0.000000
-10.226857 -10.027207 -0.674067 767 0.721096 0.692835 0.000000
-10.226489 -10.026836 -0.669630 777 0.721096 0.692835 0.000000
-10.226214 -10.026572 -0.665213 775 0.721096 0.692835 0.000000
-10.226519 -10.026864 -0.660820 767 0.721096 0.692835 0.000000
-10.225606 -10.025977 -0.656358 761 0.721096 0.692835 0.000000
-10.225700 -10.026066 -0.651957 755 0.721096 0.692835 0.000000
-10.226566 -10.026916 -0.647599 769 0.721096 0.692835 0.000000
-10.226493 -10.026848 -0.643190 773 0.721096 0.692835 0.000000
-10.226219 -10.026584 -0.638762 745 0.721096 0.692835 0.000000
-10.225983 -10.026351 -0.634344 775 0.721096 0.692835 0.000000
-10.225031 -10.025417 -0.629883 759 0.721096 0.692835 0.000000
-10.225110 -10.025495 -0.625482 747 0.721096 0.692835 0.000000
-10.225506 -10.025877 -0.621099 761 0.721096 0.692835 0.000000
-10.226472 -10.026826 -0.616749 797 0.721096 0.692835 0.000000
-10.227122 -10.027466 -0.612383 793 0.721096 0.692835 0.000000
-10.227003 -10.027345 -0.607974 779 0.721096 0.692835 0.000000
-10.225872 -10.026234 -0.603495 783 0.721096 0.692835 0.000000
-10.224597 -10.024985 -0.599017 765 0.721096 0.692835 0.000000
-10.225663 -10.026032 -0.594676 771 0.721096 0.692835 0.000000
-10.226051 -10.026410 -0.590293 759 0.721096 0.692835 0.000000
-10.226023 -10.026381 -0.585883 781 0.721096 0.692835 0.000000
-10.226505 -10.026865 -0.581508 781 0.721096 0.692835 0.000000
-10.226631 -10.026979 -0.577107 783 0.721096 0.692835 0.000000
-10.226395 -10.026748 -0.572689 789 0.721096 0.692835 0.000000
-10.226044 -10.026404 -0.568262 767 0.721096 0.692835 0.000000
-10.225801 -10.026165 -0.563844 771 0.721096 0.692835 0.000000
-10.226027 -10.026393 -0.559452 777 0.721096 0.692835 0.000000
-10.226716 -10.027064 -0.555085 795 0.721096 0.692835 0.000000
-10.226203 -10.026571 -0.550660 773 0.721096 0.692835 0.000000
-10.225759 -10.026122 -0.546224 773 0.721096 0.692835 0.000000
-10.225970 -10.026337 -0.541832 773 0.721096 0.692835 0.000000
-10.226350 -10.026707 -0.537448 781 0.721096 0.692835 0.000000
-10.226199 -10.026561 -0.533040 773 0.721096 0.692835 0.000000
-10.227003 -10.027344 -0.528672 775 0.721096 0.692835 0.000000
-10.227108 -10.027453 -0.524281 777 0.721096 0.692835 0.000000
-10.226069 -10.026435 -0.519821 771 0.721096 0.692835 0.000000
-10.225764 -10.026130 -0.515404 763 0.721096 0.692835 0.000000
-10.226029 -10.026390 -0.511011 773 0.721096 0.692835 0.000000
-10.225778 -10.026144 -0.506593 773 0.721096 0.692835 0.000000
-10.225142 -10.025534 -0.502159 753 0.721096 0.692835 0.000000
-10.226039 -10.026408 -0.497801 773 0.721096 0.692835 0.000000
-10.226042 -10.026405 -0.493400 799 0.721096 0.692835 0.000000
-10.226037 -10.026410 -0.489000 785 0.721096 0.692835 0.000000
-10.226610 -10.026972 -0.484625 765 0.721096 0.692835 0.000000
-10.225458 -10.025841 -0.480166 771 0.721096 0.692835 0.000000
-10.225877 -10.026245 -0.475782 777 0.721096 0.692835 0.000000
-10.226605 -10.026963 -0.471414 789 0.721096 0.692835 0.000000
-10.226230 -10.026601 -0.466988 777 0.721096 0.692835 0.000000
-10.225293 -10.025681 -0.462547 757 0.721096 0.692835 0.000000
-10.224917 -10.025303 -0.458130 763 0.721096 0.692835 0.000000
-10.225538 -10.025918 -0.453754 793 0.721096 0.692835 0.000000
-10.225110 -10.025496 -0.449338 777 0.721096 0.692835 0.000000
-10.224264 -10.024667 -0.444896 763 0.721096 0.692835 0.000000
-10.224831 -10.025221 -0.440521 763 0.721096 0.692835 0.000000
-10.226343 -10.026700 -0.436176 783 0.721096 0.692835 0.000000
-10.226840 -10.027197 -0.431801 767 0.721096 0.692835 0.000000
-10.226049 -10.026413 -0.427369 775 0.721096 0.692835 0.000000
-10.225459 -10.025840 -0.422944 759 0.721096 0.692835 0.000000
-10.225917 -10.026291 -0.418560 773 0.721096 0.692835 0.000000
-10.225951 -10.026327 -0.414159 769 0.721096 0.692835 0.000000
-10.225931 -10.026305 -0.409749 757 0.721096 0.692835 0.000000
-10.224924 -10.025312 -0.405309 747 0.721096 0.692835 0.000000
-10.225166 -10.025553 -0.400927 743 0.721096 0.692835 0.000000
-10.226188 -10.026560 -0.396557 761 0.721096 0.692835 0.000000
-10.226168 -10.026538 -0.392157 767 0.721096 0.692835 0.000000
-10.226355 -10.026718 -0.387765 759 0.721096 0.692835 0.000000
-10.225394 -10.025779 -0.383324 743 0.721096 0.692835 0.000000
-10.225105 -10.025500 -0.378917 741 0.721096 0.692835 0.000000
-10.226279 -10.026652 -0.374555 765 0.721096 0.692835 0.000000
-10.225372 -10.025757 -0.370124 747 0.721096 0.692835 0.000000
-10.224567 -10.024961 -0.365692 733 0.721096 0.692835 0.000000
-10.224578 -10.024979 -0.361301 759 0.721096 0.692835 0.000000
-10.224349 -10.024753 -0.356893 743 0.721096 0.692835 0.000000
-10.225200 -10.025590 -0.352515 747 0.721096 0.692835 0.000000
-10.226375 -10.026741 -0.348154 757 0.721096 0.692835 0.000000
-10.227386 -10.027728 -0.343784 773 0.721096 0.692835 0.000000
-10.226990 -10.027346 -0.339378 785 0.721096 0.692835 0.000000
-10.225806 -10.026190 -0.334939 745 0.721096 0.692835 0.000000
-10.225779 -10.026161 -0.330539 743 0.721096 0.692835 0.000000
-10.226151 -10.026525 -0.326145 735 0.721096 0.692835 0.000000
-10.225916 -10.026294 -0.321738 743 0.721096 0.692835 0.000000
-10.225194 -10.025582 -0.317314 739 0.721096 0.692835 0.000000
-10.225937 -10.026315 -0.312937 743 0.721096 0.692835 0.000000
-10.226633 -10.026993 -0.308560 749 0.721096 0.692835 0.000000
-10.226067 -10.026441 -0.304146 749 0.721096 0.692835 0.000000
-10.224621 -10.025022 -0.299699 737 0.721096 0.692835 0.000000
-10.228978 -10.022922 -0.687219 769 0.721096 0.692835 0.000000
-10.229074 -10.023011 -0.682818 741 0.721096 0.692835 0.000000
-10.229585 -10.023507 -0.678443 757 0.721096 0.692835 0.000000
-10.229003 -10.022941 -0.673999 777 0.721096 0.692835 0.000000
-10.228205 -10.022165 -0.669546 771 0.721096 0.692835 0.000000
-10.228399 -10.022351 -0.665144 793 0.721096 0.692835 0.000000
-10.229274 -10.023208 -0.660796 785 0.721096 0.692835 0.000000
-10.229100 -10.023043 -0.656377 749 0.721096 0.692835 0.000000
-10.228771 -10.022718 -0.651950 743 0.721096 0.692835 0.000000
-10.229329 -10.023267 -0.647575 755 0.721096 0.692835 0.000000
-10.229317 -10.023251 -0.643175 759 0.721096 0.692835 0.000000
-10.228302 -10.022250 -0.638705 761 0.721096 0.692835 0.000000
-10.228544 -10.022491 -0.634312 761 0.721096 0.692835 0.000000
-10.228679 -10.022626 -0.629911 763 0.721096 0.692835 0.000000
-10.228659 -10.022604 -0.625501 753 0.721096 0.692835 0.000000
-10.229001 -10.022943 -0.621117 753 0.721096 0.692835 0.000000
-10.229289 -10.023222 -0.616735 779 0.721096 0.692835 0.000000
-10.229731 -10.023658 -0.612350 783 0.721096 0.692835 0.000000
-10.229658 -10.023591 -0.607941 773 0.721096 0.692835 0.000000
-10.229837 -10.023765 -0.603549 773 0.721096 0.692835 0.000000
-10.229971 -10.023887 -0.599148 781 0.721096 0.692835 0.000000
-10.229781 -10.023706 -0.594729 769 0.721096 0.692835 0.000000
-10.229183 -10.023114 -0.590295 759 0.721096 0.692835 0.000000
-10.229149 -10.023093 -0.585885 773 0.721096 0.692835 0.000000
-10.229590 -10.023516 -0.581501 773 0.721096 0.692835 0.000000
-10.229917 -10.023841 -0.577118 797 0.721096 0.692835 0.000000
-10.229420 -10.023346 -0.572682 769 0.721096 0.692835 0.000000
-10.229176 -10.023108 -0.568264 765 0.721096 0.692835 0.000000
-10.229395 -10.023328 -0.563872 769 0.721096 0.692835 0.000000
-10.229152 -10.023089 -0.559455 773 0.721096 0.692835 0.000000
-10.229270 -10.023211 -0.555053 779 0.721096 0.692835 0.000000
-10.229543 -10.023479 -0.550671 765 0.721096 0.692835 0.000000
-10.229461 -10.023390 -0.546261 767 0.721096 0.692835 0.000000
-10.229257 -10.023198 -0.541843 791 0.721096 0.692835 0.000000
-10.228435 -10.022388 -0.537401 763 0.721096 0.692835 0.000000
-10.228607 -10.022555 -0.532999 769 0.721096 0.692835 0.000000
-10.228657 -10.022606 -0.528599 771 0.721096 0.692835 0.000000
-10.229036 -10.022977 -0.524215 757 0.721096 0.692835 0.000000
-10.229872 -10.023801 -0.519857 769 0.721096 0.692835 0.000000
-10.229890 -10.023811 -0.515446 769 0.721096 0.692835 0.000000
-10.229571 -10.023507 -0.511029 763 0.721096 0.692835 0.000000
-10.229111 -10.023059 -0.506604 771 0.721096 0.692835 0.000000
-10.229321 -10.023259 -0.502212 787 0.721096 0.692835 0.000000
-10.229895 -10.023821 -0.497836 793 0.721096 0.692835 0.000000
-10.229274 -10.023208 -0.493402 793 0.721096 0.692835 0.000000
-10.229270 -10.023212 -0.489002 791 0.721096 0.692835 0.000000
-10.229527 -10.023466 -0.484609 773 0.721096 0.692835 0.000000
-10.229638 -10.023567 -0.480208 765 0.721096 0.692835 0.000000
-10.229217 -10.023152 -0.475792 767 0.721096 0.692835 0.000000
-10.229113 -10.023058 -0.471383 785 0.721096 0.692835 0.000000
-10.229678 -10.023613 -0.467007 785 0.721096 0.692835 0.000000
-10.229311 -10.023242 -0.462591 761 0.721096 0.692835 0.000000
-10.228621 -10.022573 -0.458157 763 0.721096 0.692835 0.000000
-10.228770 -10.022720 -0.453756 773 0.721096 0.692835 0.000000
-10.229181 -10.023117 -0.449372 761 0.721096 0.692835 0.000000
-10.229431 -10.023363 -0.444979 769 0.721096 0.692835 0.000000
-10.229212 -10.023159 -0.440571 761 0.721096 0.692835 0.000000
-10.228890 -10.022841 -0.436154 769 0.721096 0.692835 0.000000
-10.229348 -10.023291 -0.431770 781 0.721096 0.692835 0.000000
-10.229698 -10.023636 -0.427386 785 0.721096 0.692835 0.000000
-10.229478 -10.023417 -0.422978 763 0.721096 0.692835 0.000000
-10.229296 -10.023244 -0.418570 749 0.721096 0.692835 0.000000
-10.228297 -10.022258 -0.414129 757 0.721096 0.692835 0.000000
-10.229318 -10.023265 -0.409759 765 0.721096 0.692835 0.000000
-10.230353 -10.024272 -0.405399 773 0.721096 0.692835 0.000000
-10.229492 -10.023430 -0.400967 769 0.721096 0.692835 0.000000
-10.229372 -10.023309 -0.396559 767 0.721096 0.692835 0.000000
-10.228983 -10.022933 -0.392142 761 0.721096 0.692835 0.000000
-10.228954 -10.022904 -0.387742 769 0.721096 0.692835 0.000000
-10.230291 -10.024220 -0.383389 773 0.721096 0.692835 0.000000
-10.230332 -10.024250 -0.378989 757 0.721096 0.692835 0.000000
-10.228941 -10.022890 -0.374542 741 0.721096 0.692835 0.000000
-10.228913 -10.022861 -0.370142 743 0.721096 0.692835 0.000000
-10.229256 -10.023200 -0.365749 753 0.721096 0.692835 0.000000
-10.229175 -10.023126 -0.361350 741 0.721096 0.692835 0.000000
-10.229463 -10.023405 -0.356957 737 0.721096 0.692835 0.000000
-10.229435 -10.023376 -0.352557 737 0.721096 0.692835 0.000000
-10.229345 -10.023295 -0.348148 759 0.721096 0.692835 0.000000
-10.229271 -10.023212 -0.343748 737 0.721096 0.692835 0.000000
-10.228867 -10.022824 -0.339332 731 0.721096 0.692835 0.000000
-10.228152 -10.022120 -0.334909 729 0.721096 0.692835 0.000000
-10.228695 -10.022655 -0.330534 755 0.721096 0.692835 0.000000
-10.229075 -10.023026 -0.326140 757 0.721096 0.692835 0.000000
-10.229511 -10.023457 -0.321755 749 0.721096 0.692835 0.000000
-10.229467 -10.023415 -0.317356 745 0.721096 0.692835 0.000000
-10.229169 -10.023117 -0.312939 747 0.721096 0.692835 0.000000
-10.229288 -10.023239 -0.308547 741 0.721096 0.692835 0.000000
-10.228890 -10.022843 -0.304131 739 0.721096 0.692835 0.000000
-10.228276 -10.022237 -0.299717 729 0.721096 0.692835 0.000000
-10.231960 -10.019354 -0.687204 763 0.721096 0.692835 0.000000
-10.232056 -10.019444 -0.682803 769 0.721096 0.692835 0.000000
-10.231729 -10.019134 -0.678376 769 0.721096 0.692835 0.000000
