638
-15.243865 -14.946694 -0.663517 1107 0.707407 0.706807 0.000000
-15.243944 -14.946765 -0.656966 1129 0.707407 0.706807 0.000000
-15.243883 -14.946707 -0.650396 1123 0.707407 0.706807 0.000000
-15.243922 -14.946745 -0.643836 1127 0.707407 0.706807 0.000000
-15.244166 -14.946994 -0.637283 1141 0.707407 0.706807 0.000000
-15.243420 -14.946259 -0.630690 1117 0.707407 0.706807 0.000000
-15.242977 -14.945830 -0.624114 1103 0.707407 0.706807 0.000000
-15.243226 -14.946069 -0.617562 1125 0.707407 0.706807 0.000000
-15.243616 -14.946452 -0.611018 1123 0.707407 0.706807 0.000000
-15.243595 -14.946441 -0.604448 1127 0.707407 0.706807 0.000000
-15.243619 -14.946466 -0.597888 1113 0.707407 0.706807 0.000000
-15.242966 -14.945823 -0.591304 1139 0.707407 0.706807 0.000000
-15.241789 -14.944664 -0.584695 1117 0.707407 0.706807 0.000000
-15.243216 -14.946069 -0.578191 1115 0.707407 0.706807 0.000000
-15.243654 -14.946507 -0.571646 1119 0.707407 0.706807 0.000000
-15.242322 -14.945190 -0.565039 1107 0.707407 0.706807 0.000000
-15.242346 -14.945217 -0.558479 1099 0.707407 0.706807 0.000000
-15.242777 -14.945646 -0.551934 1117 0.707407 0.706807 0.000000
-15.242591 -14.945458 -0.545366 1137 0.707407 0.706807 0.000000
-15.242708 -14.945575 -0.538815 1121 0.707407 0.706807 0.000000
-15.243138 -14.946005 -0.532270 1127 0.707407 0.706807 0.000000
-15.242414 -14.945289 -0.525677 1123 0.707407 0.706807 0.000000
-15.242157 -14.945042 -0.519110 1109 0.707407 0.706807 0.000000
-15.242742 -14.945614 -0.512574 1119 0.707407 0.706807 0.000000
-15.243219 -14.946082 -0.506029 1127 0.707407 0.706807 0.000000
-15.242862 -14.945738 -0.499462 1143 0.707407 0.706807 0.000000
-15.242186 -14.945074 -0.492879 1153 0.707407 0.706807 0.000000
-15.242606 -14.945483 -0.486335 1133 0.707407 0.706807 0.000000
-15.242709 -14.945588 -0.479773 1117 0.707407 0.706807 0.000000
-15.243123 -14.946005 -0.473229 1127 0.707407 0.706807 0.000000
-15.243014 -14.945893 -0.466670 1123 0.707407 0.706807 0.000000
-15.242595 -14.945484 -0.460094 1139 0.707407 0.706807 0.000000
-15.241966 -14.944873 -0.453520 1119 0.707407 0.706807 0.000000
-15.241483 -14.944399 -0.446944 1117 0.707407 0.706807 0.000000
-15.242318 -14.945217 -0.440416 1115 0.707407 0.706807 0.000000
-15.242670 -14.945569 -0.433863 1141 0.707407 0.706807 0.000000
-15.242404 -14.945302 -0.427295 1131 0.707407 0.706807 0.000000
-15.242445 -14.945341 -0.420744 1135 0.707407 0.706807 0.000000
-15.242742 -14.945634 -0.414191 1131 0.707407 0.706807 0.000000
-15.242985 -14.945880 -0.407639 1135 0.707407 0.706807 0.000000
-15.241771 -14.944691 -0.401050 1135 0.707407 0.706807 0.000000
-15.241124 -14.944053 -0.394476 1121 0.707407 0.706807 0.000000
-15.241632 -14.944548 -0.387931 1123 0.707407 0.706807 0.000000
-15.242187 -14.945094 -0.381386 1141 0.707407 0.706807 0.000000
-15.242842 -14.945737 -0.374850 1139 0.707407 0.706807 0.000000
-15.241776 -14.944697 -0.368260 1125 0.707407 0.706807 0.000000
-15.241488 -14.944425 -0.361702 1123 0.707407 0.706807 0.000000
-15.242136 -14.945062 -0.355156 1129 0.707407 0.706807 0.000000
-15.241544 -14.944468 -0.348581 1117 0.707407 0.706807 0.000000
-15.242130 -14.945055 -0.342046 1121 0.707407 0.706807 0.000000
-15.242413 -14.945334 -0.335493 1111 0.707407 0.706807 0.000000
-15.241915 -14.944847 -0.328927 1099 0.707407 0.706807 0.000000
-15.242085 -14.945009 -0.322365 1119 0.707407 0.706807 0.000000
-15.241736 -14.944671 -0.315809 1123 0.707407 0.706807 0.000000
-15.241240 -14.944184 -0.309243 1133 0.707407 0.706807 0.000000
-15.241763 -14.944705 -0.302698 1129 0.707407 0.706807 0.000000
-15.241942 -14.944873 -0.296136 1125 0.707407 0.706807 0.000000
-15.241889 -14.944835 -0.289587 1129 0.707407 0.706807 0.000000
-15.248364 -14.941787 -0.663520 1115 0.707407 0.706807 0.000000
-15.248513 -14.941929 -0.656959 1129 0.707407 0.706807 0.000000
-15.247860 -14.941298 -0.650365 1113 0.707407 0.706807 0.000000
-15.247434 -14.940884 -0.643789 1113 0.707407 0.706807 0.000000
-15.247417 -14.940863 -0.637229 1127 0.707407 0.706807 0.000000
-15.247925 -14.941357 -0.630684 1111 0.707407 0.706807 0.000000
-15.248052 -14.941495 -0.624132 1121 0.707407 0.706807 0.000000
-15.248355 -14.941779 -0.617579 1101 0.707407 0.706807 0.000000
-15.247860 -14.941306 -0.611004 1113 0.707407 0.706807 0.000000
-15.247625 -14.941078 -0.604426 1119 0.707407 0.706807 0.000000
-15.248070 -14.941507 -0.597882 1101 0.707407 0.706807 0.000000
-15.247829 -14.941273 -0.591314 1115 0.707407 0.706807 0.000000
-15.248010 -14.941455 -0.584762 1137 0.707407 0.706807 0.000000
-15.248299 -14.941741 -0.578209 1123 0.707407 0.706807 0.000000
-15.248059 -14.941507 -0.571641 1113 0.707407 0.706807 0.000000
-15.248332 -14.941779 -0.565088 1137 0.707407 0.706807 0.000000
-15.247781 -14.941235 -0.558513 1123 0.707407 0.706807 0.000000
-15.247532 -14.940992 -0.551936 1125 0.707407 0.706807 0.000000
-15.246716 -14.940201 -0.545353 1125 0.707407 0.706807 0.000000
-15.246365 -14.939848 -0.538776 1107 0.707407 0.706807 0.000000
-15.247153 -14.940629 -0.532249 1107 0.707407 0.706807 0.000000
-15.247271 -14.940746 -0.525687 1107 0.707407 0.706807 0.000000
-15.247646 -14.941117 -0.519144 1109 0.707407 0.706807 0.000000
-15.249221 -14.942657 -0.512638 1127 0.707407 0.706807 0.000000
-15.249494 -14.942917 -0.506086 1139 0.707407 0.706807 0.000000
-15.248714 -14.942156 -0.499503 1135 0.707407 0.706807 0.000000
-15.247993 -14.941455 -0.492920 1139 0.707407 0.706807 0.000000
-15.248197 -14.941656 -0.486368 1141 0.707407 0.706807 0.000000
-15.248516 -14.941969 -0.479814 1129 0.707407 0.706807 0.000000
-15.247317 -14.940791 -0.473216 1129 0.707407 0.706807 0.000000
-15.247053 -14.940536 -0.466648 1129 0.707407 0.706807 0.000000
-15.246930 -14.940428 -0.460089 1123 0.707407 0.706807 0.000000
-15.248085 -14.941553 -0.453568 1127 0.707407 0.706807 0.000000
-15.247976 -14.941442 -0.446999 1131 0.707407 0.706807 0.000000
-15.246606 -14.940108 -0.440402 1107 0.707407 0.706807 0.000000
-15.247066 -14.940563 -0.433857 1125 0.707407 0.706807 0.000000
-15.247691 -14.941169 -0.427321 1139 0.707407 0.706807 0.000000
-15.247046 -14.940544 -0.420747 1121 0.707407 0.706807 0.000000
-15.246354 -14.939869 -0.414164 1137 0.707407 0.706807 0.000000
-15.246541 -14.940057 -0.407611 1125 0.707407 0.706807 0.000000
-15.246690 -14.940200 -0.401060 1127 0.707407 0.706807 0.000000
-15.246349 -14.939869 -0.394493 1123 0.707407 0.706807 0.000000
-15.246443 -14.939953 -0.387932 1115 0.707407 0.706807 0.000000
-15.245945 -14.939478 -0.381367 1119 0.707407 0.706807 0.000000
-15.245355 -14.938900 -0.374792 1117 0.707407 0.706807 0.000000
-15.245481 -14.939024 -0.368241 1105 0.707407 0.706807 0.000000
-15.246711 -14.940225 -0.361719 1113 0.707407 0.706807 0.000000
-15.247313 -14.940825 -0.355173 1123 0.707407 0.706807 0.000000
-15.246760 -14.940277 -0.348598 1115 0.707407 0.706807 0.000000
-15.246379 -14.939900 -0.342032 1115 0.707407 0.706807 0.000000
-15.246285 -14.939816 -0.335472 1113 0.707407 0.706807 0.000000
-15.246671 -14.940194 -0.328928 1111 0.707407 0.706807 0.000000
-15.246375 -14.939900 -0.322361 1119 0.707407 0.706807 0.000000
-15.246500 -14.940024 -0.315810 1121 0.707407 0.706807 0.000000
-15.246625 -14.940146 -0.309258 1121 0.707407 0.706807 0.000000
-15.246939 -14.940467 -0.302705 1115 0.707407 0.706807 0.000000
-15.246120 -14.939659 -0.296133 1107 0.707407 0.706807 0.000000
-15.244829 -14.938393 -0.289555 1117 0.707407 0.706807 0.000000
-15.253578 -14.937411 -0.663538 1117 0.707407 0.706807 0.000000
-15.252987 -14.936831 -0.656953 1117 0.707407 0.706807 0.000000
-15.252653 -14.936508 -0.650376 1125 0.707407 0.706807 0.000000
-15.253067 -14.936910 -0.643832 1125 0.707407 0.706807 0.000000
-15.253878 -14.937710 -0.637304 1131 0.707407 0.706807 0.000000
-15.253232 -14.937073 -0.630711 1131 0.707407 0.706807 0.000000
-15.253007 -14.936852 -0.624142 1127 0.707407 0.706807 0.000000
-15.253569 -14.937403 -0.617597 1119 0.707407 0.706807 0.000000
-15.253486 -14.937326 -0.611038 1123 0.707407 0.706807 0.000000
-15.252831 -14.936681 -0.604454 1137 0.707407 0.706807 0.000000
-15.252863 -14.936715 -0.597893 1147 0.707407 0.706807 0.000000
-15.252888 -14.936741 -0.591333 1139 0.707407 0.706807 0.000000
-15.252552 -14.936415 -0.584756 1145 0.707407 0.706807 0.000000
-15.252569 -14.936435 -0.578196 1135 0.707407 0.706807 0.000000
-15.252430 -14.936297 -0.571627 1139 0.707407 0.706807 0.000000
-15.252557 -14.936421 -0.565075 1147 0.707407 0.706807 0.000000
-15.252627 -14.936500 -0.558515 1131 0.707407 0.706807 0.000000
-15.252434 -14.936304 -0.551946 1115 0.707407 0.706807 0.000000
-15.252139 -14.936026 -0.545379 1129 0.707407 0.706807 0.000000
-15.252047 -14.935927 -0.538810 1125 0.707407 0.706807 0.000000
-15.252896 -14.936760 -0.532281 1141 0.707407 0.706807 0.000000
-15.252805 -14.936676 -0.525722 1135 0.707407 0.706807 0.000000
-15.251713 -14.935602 -0.519122 1123 0.707407 0.706807 0.000000
-15.251614 -14.935512 -0.512563 1117 0.707407 0.706807 0.000000
-15.252245 -14.936135 -0.506027 1125 0.707407 0.706807 0.000000
-15.252200 -14.936091 -0.499457 1125 0.707407 0.706807 0.000000
-15.252372 -14.936253 -0.492905 1111 0.707407 0.706807 0.000000
-15.252576 -14.936455 -0.486353 1127 0.707407 0.706807 0.000000
-15.252258 -14.936155 -0.479786 1125 0.707407 0.706807 0.000000
-15.252266 -14.936154 -0.473226 1119 0.707407 0.706807 0.000000
-15.252204 -14.936095 -0.466666 1117 0.707407 0.706807 0.000000
-15.251732 -14.935642 -0.460091 1117 0.707407 0.706807 0.000000
-15.252201 -14.936104 -0.453546 1129 0.707407 0.706807 0.000000
-15.252614 -14.936507 -0.447002 1125 0.707407 0.706807 0.000000
-15.251508 -14.935420 -0.440412 1123 0.707407 0.706807 0.000000
-15.250300 -14.934237 -0.433814 1113 0.707407 0.706807 0.000000
-15.251120 -14.935042 -0.427286 1123 0.707407 0.706807 0.000000
-15.251425 -14.935343 -0.420733 1113 0.707407 0.706807 0.000000
-15.251254 -14.935181 -0.414174 1111 0.707407 0.706807 0.000000
-15.252542 -14.936441 -0.407652 1111 0.707407 0.706807 0.000000
-15.251793 -14.935706 -0.401069 1113 0.707407 0.706807 0.000000
-15.250417 -14.934368 -0.394482 1115 0.707407 0.706807 0.000000
-15.251492 -14.935413 -0.387951 1129 0.707407 0.706807 0.000000
-15.251844 -14.935765 -0.381398 1127 0.707407 0.706807 0.000000
-15.250724 -14.934667 -0.374808 1121 0.707407 0.706807 0.000000
-15.250749 -14.934692 -0.368258 1119 0.707407 0.706807 0.000000
-15.251410 -14.935343 -0.361711 1141 0.707407 0.706807 0.000000
-15.250750 -14.934692 -0.355148 1129 0.707407 0.706807 0.000000
-15.250728 -14.934679 -0.348588 1121 0.707407 0.706807 0.000000
-15.251212 -14.935155 -0.342043 1115 0.707407 0.706807 0.000000
-15.251189 -14.935127 -0.335483 1107 0.707407 0.706807 0.000000
-15.250722 -14.934680 -0.328917 1109 0.707407 0.706807 0.000000
-15.250646 -14.934608 -0.322358 1115 0.707407 0.706807 0.000000
-15.251613 -14.935551 -0.315818 1117 0.707407 0.706807 0.000000
-15.251512 -14.935459 -0.309259 1121 0.707407 0.706807 0.000000
-15.251428 -14.935369 -0.302700 1133 0.707407 0.706807 0.000000
-15.251336 -14.935285 -0.296140 1131 0.707407 0.706807 0.000000
-15.251561 -14.935505 -0.289588 1123 0.707407 0.706807 0.000000
-15.257536 -14.931792 -0.663508 1113 0.707407 0.706807 0.000000
-15.258512 -14.932755 -0.656988 1129 0.707407 0.706807 0.000000
-15.258706 -14.932936 -0.650436 1119 0.707407 0.706807 0.000000
-15.257851 -14.932111 -0.643834 1103 0.707407 0.706807 0.000000
-15.257586 -14.931844 -0.637257 1115 0.707407 0.706807 0.000000
-15.257043 -14.931317 -0.630672 1115 0.707407 0.706807 0.000000
-15.256343 -14.930635 -0.624088 1111 0.707407 0.706807 0.000000
-15.256218 -14.930511 -0.617519 1109 0.707407 0.706807 0.000000
-15.257131 -14.931409 -0.610990 1121 0.707407 0.706807 0.000000
-15.257840 -14.932096 -0.604463 1137 0.707407 0.706807 0.000000
-15.257133 -14.931409 -0.597870 1127 0.707407 0.706807 0.000000
-15.256900 -14.931181 -0.591302 1123 0.707407 0.706807 0.000000
-15.256348 -14.930648 -0.584717 1131 0.707407 0.706807 0.000000
-15.257105 -14.931389 -0.578190 1135 0.707407 0.706807 0.000000
-15.258164 -14.932423 -0.571669 1137 0.707407 0.706807 0.000000
-15.256516 -14.930817 -0.565045 1117 0.707407 0.706807 0.000000
-15.256485 -14.930784 -0.558485 1115 0.707407 0.706807 0.000000
-15.257281 -14.931572 -0.551957 1113 0.707407 0.706807 0.000000
-15.256619 -14.930921 -0.545373 1119 0.707407 0.706807 0.000000
-15.257205 -14.931492 -0.538828 1121 0.707407 0.706807 0.000000
-15.256902 -14.931193 -0.532261 1121 0.707407 0.706807 0.000000
-15.256707 -14.931011 -0.525692 1125 0.707407 0.706807 0.000000
-15.257707 -14.931993 -0.519172 1127 0.707407 0.706807 0.000000
-15.257037 -14.931337 -0.512589 1121 0.707407 0.706807 0.000000
-15.256625 -14.930934 -0.506012 1133 0.707407 0.706807 0.000000
-15.256261 -14.930584 -0.499446 1127 0.707407 0.706807 0.000000
-15.256899 -14.931199 -0.492900 1117 0.707407 0.706807 0.000000
-15.258100 -14.932377 -0.486378 1149 0.707407 0.706807 0.000000
-15.257891 -14.932182 -0.479820 1135 0.707407 0.706807 0.000000
-15.257423 -14.931720 -0.473244 1131 0.707407 0.706807 0.000000
-15.256740 -14.931049 -0.466660 1119 0.707407 0.706807 0.000000
-15.257527 -14.931817 -0.460123 1127 0.707407 0.706807 0.000000
-15.257730 -14.932019 -0.453571 1129 0.707407 0.706807 0.000000
-15.257094 -14.931402 -0.446997 1121 0.707407 0.706807 0.000000
-15.256824 -14.931143 -0.440429 1125 0.707407 0.706807 0.000000
-15.256449 -14.930771 -0.433862 1119 0.707407 0.706807 0.000000
-15.256957 -14.931278 -0.427317 1143 0.707407 0.706807 0.000000
-15.256739 -14.931064 -0.420749 1147 0.707407 0.706807 0.000000
-15.256000 -14.930335 -0.414176 1123 0.707407 0.706807 0.000000
-15.256086 -14.930427 -0.407615 1115 0.707407 0.706807 0.000000
-15.256376 -14.930713 -0.401072 1121 0.707407 0.706807 0.000000
-15.256416 -14.930752 -0.394512 1119 0.707407 0.706807 0.000000
-15.256501 -14.930829 -0.387961 1133 0.707407 0.706807 0.000000
-15.256590 -14.930921 -0.381400 1133 0.707407 0.706807 0.000000
-15.256147 -14.930492 -0.374834 1127 0.707407 0.706807 0.000000
-15.255548 -14.929907 -0.368259 1129 0.707407 0.706807 0.000000
-15.255416 -14.929776 -0.361701 1127 0.707407 0.706807 0.000000
-15.255706 -14.930062 -0.355148 1127 0.707407 0.706807 0.000000
-15.256462 -14.930803 -0.348610 1133 0.707407 0.706807 0.000000
-15.256697 -14.931031 -0.342058 1139 0.707407 0.706807 0.000000
-15.256395 -14.930745 -0.335491 1123 0.707407 0.706807 0.000000
-15.255732 -14.930095 -0.328927 1115 0.707407 0.706807 0.000000
-15.256381 -14.930733 -0.322380 1133 0.707407 0.706807 0.000000
-15.256661 -14.931012 -0.315828 1105 0.707407 0.706807 0.000000
-15.256576 -14.930920 -0.309268 1109 0.707407 0.706807 0.000000
-15.255806 -14.930166 -0.302695 1109 0.707407 0.706807 0.000000
-15.255396 -14.929777 -0.296129 1101 0.707407 0.706807 0.000000
-15.255934 -14.930297 -0.289584 1099 0.707407 0.706807 0.000000
-15.262477 -14.927150 -0.663518 1141 0.707407 0.706807 0.000000
-15.262626 -14.927292 -0.656966 1133 0.707407 0.706807 0.000000
-15.262503 -14.927182 -0.650397 1131 0.707407 0.706807 0.000000
-15.262340 -14.927013 -0.643829 1131 0.707407 0.706807 0.000000
-15.261945 -14.926637 -0.637242 1105 0.707407 0.706807 0.000000
-15.261509 -14.926214 -0.630666 1113 0.707407 0.706807 0.000000
-15.261385 -14.926090 -0.624097 1119 0.707407 0.706807 0.000000
-15.261634 -14.926330 -0.617545 1123 0.707407 0.706807 0.000000
-15.262189 -14.926876 -0.611009 1113 0.707407 0.706807 0.000000
-15.262938 -14.927611 -0.604482 1121 0.707407 0.706807 0.000000
-15.262400 -14.927077 -0.597897 1111 0.707407 0.706807 0.000000
-15.261794 -14.926499 -0.591313 1101 0.707407 0.706807 0.000000
-15.261973 -14.926668 -0.584761 1125 0.707407 0.706807 0.000000
-15.262310 -14.926992 -0.578207 1123 0.707407 0.706807 0.000000
-15.261548 -14.926259 -0.571625 1121 0.707407 0.706807 0.000000
-15.261666 -14.926375 -0.565063 1123 0.707407 0.706807 0.000000
-15.262585 -14.927265 -0.558534 1109 0.707407 0.706807 0.000000
-15.262751 -14.927436 -0.551983 1119 0.707407 0.706807 0.000000
-15.262191 -14.926895 -0.545398 1123 0.707407 0.706807 0.000000
-15.261366 -14.926082 -0.538815 1113 0.707407 0.706807 0.000000
-15.261540 -14.926260 -0.532264 1129 0.707407 0.706807 0.000000
-15.262069 -14.926772 -0.525718 1127 0.707407 0.706807 0.000000
-15.262771 -14.927454 -0.519182 1127 0.707407 0.706807 0.000000
-15.262719 -14.927417 -0.512622 1137 0.707407 0.706807 0.000000
-15.261628 -14.926343 -0.506022 1127 0.707407 0.706807 0.000000
-15.261115 -14.925843 -0.499447 1129 0.707407 0.706807 0.000000
-15.261475 -14.926200 -0.492903 1133 0.707407 0.706807 0.000000
-15.262473 -14.927182 -0.486374 1125 0.707407 0.706807 0.000000
-15.262426 -14.927135 -0.479814 1129 0.707407 0.706807 0.000000
-15.261173 -14.925900 -0.473216 1119 0.707407 0.706807 0.000000
-15.261058 -14.925797 -0.466647 1129 0.707407 0.706807 0.000000
-15.261426 -14.926162 -0.460103 1125 0.707407 0.706807 0.000000
-15.261161 -14.925894 -0.453535 1141 0.707407 0.706807 0.000000
-15.261208 -14.925939 -0.446975 1135 0.707407 0.706807 0.000000
-15.261045 -14.925783 -0.440416 1125 0.707407 0.706807 0.000000
-15.261234 -14.925973 -0.433864 1105 0.707407 0.706807 0.000000
-15.262178 -14.926896 -0.427335 1115 0.707407 0.706807 0.000000
-15.262521 -14.927239 -0.420782 1127 0.707407 0.706807 0.000000
-15.261781 -14.926512 -0.414209 1121 0.707407 0.706807 0.000000
-15.261822 -14.926551 -0.407648 1113 0.707407 0.706807 0.000000
-15.261643 -14.926382 -0.401079 1129 0.707407 0.706807 0.000000
-15.261629 -14.926362 -0.394529 1123 0.707407 0.706807 0.000000
-15.261132 -14.925888 -0.387954 1119 0.707407 0.706807 0.000000
-15.260798 -14.925563 -0.381387 1119 0.707407 0.706807 0.000000
-15.261351 -14.926095 -0.374842 1133 0.707407 0.706807 0.000000
-15.261384 -14.926128 -0.368291 1129 0.707407 0.706807 0.000000
-15.261354 -14.926109 -0.361731 1125 0.707407 0.706807 0.000000
-15.261379 -14.926136 -0.355171 1135 0.707407 0.706807 0.000000
-15.261363 -14.926115 -0.348611 1119 0.707407 0.706807 0.000000
-15.261170 -14.925934 -0.342053 1115 0.707407 0.706807 0.000000
-15.261296 -14.926057 -0.335501 1117 0.707407 0.706807 0.000000
-15.260323 -14.925108 -0.328920 1133 0.707407 0.706807 0.000000
-15.259709 -14.924510 -0.322356 1129 0.707407 0.706807 0.000000
-15.261034 -14.925804 -0.315823 1113 0.707407 0.706807 0.000000
-15.261946 -14.926688 -0.309284 1127 0.707407 0.706807 0.000000
-15.260647 -14.925426 -0.302707 1109 0.707407 0.706807 0.000000
-15.260548 -14.925336 -0.296147 1093 0.707407 0.706807 0.000000
-15.261566 -14.926323 -0.289607 1123 0.707407 0.706807 0.000000
-15.268018 -14.923256 -0.663562 1107 0.707407 0.706807 0.000000
-15.267482 -14.922736 -0.656976 1115 0.707407 0.706807 0.000000
-15.267056 -14.922320 -0.650390 1115 0.707407 0.706807 0.000000
-15.268037 -14.923275 -0.643871 1111 0.707407 0.706807 0.000000
-15.267594 -14.922846 -0.637295 1107 0.707407 0.706807 0.000000
-15.266536 -14.921812 -0.630685 1105 0.707407 0.706807 0.000000
-15.267035 -14.922300 -0.624140 1111 0.707407 0.706807 0.000000
-15.268221 -14.923465 -0.617629 1127 0.707407 0.706807 0.000000
-15.268353 -14.923594 -0.611077 1121 0.707407 0.706807 0.000000
-15.267965 -14.923223 -0.604491 1131 0.707407 0.706807 0.000000
-15.267258 -14.922534 -0.597907 1119 0.707407 0.706807 0.000000
-15.267336 -14.922606 -0.591346 1121 0.707407 0.706807 0.000000
-15.266986 -14.922268 -0.584769 1129 0.707407 0.706807 0.000000
-15.266280 -14.921579 -0.578186 1133 0.707407 0.706807 0.000000
-15.266405 -14.921702 -0.571625 1117 0.707407 0.706807 0.000000
-15.266592 -14.921877 -0.565073 1111 0.707407 0.706807 0.000000
-15.266609 -14.921897 -0.558512 1125 0.707407 0.706807 0.000000
-15.265933 -14.921247 -0.551929 1111 0.707407 0.706807 0.000000
-15.266953 -14.922235 -0.545409 1125 0.707407 0.706807 0.000000
-15.267437 -14.922709 -0.538864 1117 0.707407 0.706807 0.000000
-15.266824 -14.922112 -0.532280 1107 0.707407 0.706807 0.000000
-15.266514 -14.921820 -0.525713 1121 0.707407 0.706807 0.000000
-15.266311 -14.921617 -0.519144 1111 0.707407 0.706807 0.000000
-15.266476 -14.921787 -0.512593 1123 0.707407 0.706807 0.000000
-15.266748 -14.922046 -0.506040 1135 0.707407 0.706807 0.000000
-15.266337 -14.921644 -0.499464 1111 0.707407 0.706807 0.000000
-15.266291 -14.921597 -0.492904 1117 0.707407 0.706807 0.000000
-15.267858 -14.923131 -0.486399 1123 0.707407 0.706807 0.000000
-15.267493 -14.922781 -0.479822 1117 0.707407 0.706807 0.000000
-15.265928 -14.921247 -0.473217 1129 0.707407 0.706807 0.000000
-15.266288 -14.921603 -0.466673 1131 0.707407 0.706807 0.000000
-15.267021 -14.922325 -0.460136 1115 0.707407 0.706807 0.000000
-15.267801 -14.923087 -0.453598 1123 0.707407 0.706807 0.000000
-15.267000 -14.922306 -0.447016 1121 0.707407 0.706807 0.000000
-15.264702 -14.920056 -0.440388 1103 0.707407 0.706807 0.000000
-15.264431 -14.919797 -0.433820 1103 0.707407 0.706807 0.000000
-15.265360 -14.920708 -0.427291 1103 0.707407 0.706807 0.000000
-15.266855 -14.922170 -0.420777 1119 0.707407 0.706807 0.000000
-15.266951 -14.922268 -0.414216 1119 0.707407 0.706807 0.000000
-15.266414 -14.921734 -0.407651 1113 0.707407 0.706807 0.000000
-15.266088 -14.921416 -0.401084 1121 0.707407 0.706807 0.000000
-15.265490 -14.920844 -0.394509 1129 0.707407 0.706807 0.000000
-15.265265 -14.920623 -0.387941 1105 0.707407 0.706807 0.000000
-15.265085 -14.920440 -0.381383 1113 0.707407 0.706807 0.000000
-15.265221 -14.920585 -0.374831 1107 0.707407 0.706807 0.000000
-15.265516 -14.920862 -0.368278 1105 0.707407 0.706807 0.000000
-15.265697 -14.921045 -0.361726 1119 0.707407 0.706807 0.000000
-15.265985 -14.921331 -0.355173 1121 0.707407 0.706807 0.000000
-15.265697 -14.921044 -0.348606 1105 0.707407 0.706807 0.000000
-15.265553 -14.920917 -0.342047 1101 0.707407 0.706807 0.000000
-15.265320 -14.920689 -0.335489 1131 0.707407 0.706807 0.000000
-15.265180 -14.920551 -0.328930 1121 0.707407 0.706807 0.000000
-15.265827 -14.921188 -0.322384 1111 0.707407 0.706807 0.000000
-15.266583 -14.921916 -0.315847 1099 0.707407 0.706807 0.000000
-15.265859 -14.921213 -0.309274 1079 0.707407 0.706807 0.000000
-15.265036 -14.920416 -0.302701 1089 0.707407 0.706807 0.000000
-15.265262 -14.920635 -0.296149 1109 0.707407 0.706807 0.000000
-15.264640 -14.920031 -0.289575 1121 0.707407 0.706807 0.000000
-15.272364 -14.918390 -0.663556 1093 0.707407 0.706807 0.000000
-15.272256 -14.918280 -0.656987 1117 0.707407 0.706807 0.000000
-15.272450 -14.918474 -0.650425 1117 0.707407 0.706807 0.000000
-15.273473 -14.919476 -0.643915 1125 0.707407 0.706807 0.000000
-15.272937 -14.918956 -0.637330 1129 0.707407 0.706807 0.000000
-15.271878 -14.917921 -0.630720 1121 0.707407 0.706807 0.000000
-15.272431 -14.918454 -0.624184 1117 0.707407 0.706807 0.000000
-15.273034 -14.919054 -0.617638 1123 0.707407 0.706807 0.000000
-15.272178 -14.918215 -0.611046 1119 0.707407 0.706807 0.000000
-15.271525 -14.917584 -0.604462 1127 0.707407 0.706807 0.000000
-15.272234 -14.918273 -0.597925 1145 0.707407 0.706807 0.000000
-15.272516 -14.918553 -0.591372 1127 0.707407 0.706807 0.000000
-15.272173 -14.918221 -0.584796 1121 0.707407 0.706807 0.000000
-15.272665 -14.918703 -0.578261 1109 0.707407 0.706807 0.000000
-15.271754 -14.917805 -0.571659 1113 0.707407 0.706807 0.000000
-15.271087 -14.917162 -0.565076 1125 0.707407 0.706807 0.000000
-15.271523 -14.917583 -0.558531 1113 0.707407 0.706807 0.000000
-15.270816 -14.916895 -0.551948 1109 0.707407 0.706807 0.000000
-15.270724 -14.916811 -0.545378 1129 0.707407 0.706807 0.000000
-15.271051 -14.917129 -0.538835 1119 0.707407 0.706807 0.000000
-15.272112 -14.918162 -0.532315 1123 0.707407 0.706807 0.000000
-15.271808 -14.917862 -0.525738 1115 0.707407 0.706807 0.000000
-15.271350 -14.917420 -0.519162 1127 0.707407 0.706807 0.000000
-15.270985 -14.917070 -0.512595 1121 0.707407 0.706807 0.000000
-15.271203 -14.917284 -0.506043 1145 0.707407 0.706807 0.000000
-15.271680 -14.917753 -0.499498 1121 0.707407 0.706807 0.000000
-15.272311 -14.918363 -0.492952 1119 0.707407 0.706807 0.000000
-15.271946 -14.918013 -0.486385 1121 0.707407 0.706807 0.000000
-15.271108 -14.917201 -0.479803 1095 0.707407 0.706807 0.000000
-15.271528 -14.917610 -0.473249 1113 0.707407 0.706807 0.000000
-15.271731 -14.917811 -0.466697 1105 0.707407 0.706807 0.000000
-15.271265 -14.917349 -0.460131 1129 0.707407 0.706807 0.000000
-15.270893 -14.916992 -0.453555 1117 0.707407 0.706807 0.000000
-15.270309 -14.916420 -0.446980 1131 0.707407 0.706807 0.000000
-15.268892 -14.915035 -0.440383 1101 0.707407 0.706807 0.000000
-15.268769 -14.914926 -0.433824 1117 0.707407 0.706807 0.000000
-15.270077 -14.916191 -0.427302 1123 0.707407 0.706807 0.000000
-15.271263 -14.917356 -0.420770 1115 0.707407 0.706807 0.000000
-15.271716 -14.917805 -0.414226 1117 0.707407 0.706807 0.000000
-15.271179 -14.917284 -0.407651 1117 0.707407 0.706807 0.000000
-15.270432 -14.916551 -0.401078 1115 0.707407 0.706807 0.000000
-15.270309 -14.916426 -0.394519 1111 0.707407 0.706807 0.000000
-15.271019 -14.917129 -0.387982 1093 0.707407 0.706807 0.000000
-15.270693 -14.916809 -0.381415 1111 0.707407 0.706807 0.000000
-15.270818 -14.916933 -0.374853 1111 0.707407 0.706807 0.000000
-15.271271 -14.917369 -0.368309 1107 0.707407 0.706807 0.000000
-15.270937 -14.917044 -0.361742 1121 0.707407 0.706807 0.000000
-15.270860 -14.916972 -0.355183 1119 0.707407 0.706807 0.000000
-15.270355 -14.916477 -0.348617 1107 0.707407 0.706807 0.000000
-15.270115 -14.916245 -0.342049 1105 0.707407 0.706807 0.000000
-15.270769 -14.916887 -0.335513 1127 0.707407 0.706807 0.000000
-15.271152 -14.917264 -0.328959 1127 0.707407 0.706807 0.000000
-15.270436 -14.916569 -0.322386 1103 0.707407 0.706807 0.000000
-15.270188 -14.916329 -0.315828 1101 0.707407 0.706807 0.000000
-15.270998 -14.917114 -0.309290 1105 0.707407 0.706807 0.000000
-15.270276 -14.916413 -0.302717 1125 0.707407 0.706807 0.000000
-15.269974 -14.916127 -0.296150 1109 0.707407 0.706807 0.000000
-15.269570 -14.915731 -0.289583 1097 0.707407 0.706807 0.000000
-15.276879 -14.913680 -0.663548 1095 0.707407 0.706807 0.000000
-15.276756 -14.913556 -0.656979 1099 0.707407 0.706807 0.000000
-15.277474 -14.914266 -0.650452 1115 0.707407 0.706807 0.000000
-15.277779 -14.914564 -0.643899 1113 0.707407 0.706807 0.000000
-15.277703 -14.914494 -0.637340 1125 0.707407 0.706807 0.000000
-15.276745 -14.913556 -0.630739 1115 0.707407 0.706807 0.000000
-15.276201 -14.913031 -0.624154 1109 0.707407 0.706807 0.000000
-15.276709 -14.913524 -0.617609 1105 0.707407 0.706807 0.000000
-15.276685 -14.913497 -0.611049 1109 0.707407 0.706807 0.000000
-15.276500 -14.913321 -0.604480 1119 0.707407 0.706807 0.000000
-15.276056 -14.912893 -0.597894 1115 0.707407 0.706807 0.000000
-15.275816 -14.912659 -0.591327 1103 0.707407 0.706807 0.000000
-15.275646 -14.912484 -0.584758 1089 0.707407 0.706807 0.000000
-15.275709 -14.912555 -0.578197 1105 0.707407 0.706807 0.000000
-15.276729 -14.913542 -0.571677 1121 0.707407 0.706807 0.000000
-15.276388 -14.913210 -0.565101 1121 0.707407 0.706807 0.000000
-15.275145 -14.912009 -0.558502 1101 0.707407 0.706807 0.000000
-15.274997 -14.911865 -0.551933 1101 0.707407 0.706807 0.000000
-15.276641 -14.913465 -0.545428 1123 0.707407 0.706807 0.000000
-15.276440 -14.913277 -0.538869 1113 0.707407 0.706807 0.000000
-15.275879 -14.912723 -0.532285 1117 0.707407 0.706807 0.000000
-15.276736 -14.913562 -0.525756 1111 0.707407 0.706807 0.000000
-15.277004 -14.913829 -0.519203 1127 0.707407 0.706807 0.000000
-15.277167 -14.913984 -0.512652 1139 0.707407 0.706807 0.000000
-15.277122 -14.913939 -0.506082 1127 0.707407 0.706807 0.000000
-15.276547 -14.913387 -0.499507 1123 0.707407 0.706807 0.000000
-15.276135 -14.912984 -0.492931 1119 0.707407 0.706807 0.000000
-15.275769 -14.912633 -0.486365 1115 0.707407 0.706807 0.000000
-15.275825 -14.912684 -0.479804 1113 0.707407 0.706807 0.000000
-15.276395 -14.913244 -0.473268 1115 0.707407 0.706807 0.000000
-15.275663 -14.912521 -0.466685 1117 0.707407 0.706807 0.000000
-15.275034 -14.911911 -0.460101 1105 0.707407 0.706807 0.000000
-15.275292 -14.912171 -0.453558 1101 0.707407 0.706807 0.000000
-15.275393 -14.912262 -0.446997 1127 0.707407 0.706807 0.000000
-15.275434 -14.912315 -0.440437 1117 0.707407 0.706807 0.000000
-15.275903 -14.912763 -0.433892 1111 0.707407 0.706807 0.000000
-15.275990 -14.912854 -0.427341 1111 0.707407 0.706807 0.000000
-15.275881 -14.912743 -0.420782 1111 0.707407 0.706807 0.000000
-15.275336 -14.912217 -0.414207 1109 0.707407 0.706807 0.000000
-15.274949 -14.911846 -0.407640 1111 0.707407 0.706807 0.000000
-15.274886 -14.911775 -0.401081 1111 0.707407 0.706807 0.000000
-15.274607 -14.911508 -0.394513 1119 0.707407 0.706807 0.000000
-15.275169 -14.912062 -0.387968 1105 0.707407 0.706807 0.000000
-15.275614 -14.912490 -0.381424 1111 0.707407 0.706807 0.000000
-15.275334 -14.912223 -0.374856 1103 0.707407 0.706807 0.000000
-15.275725 -14.912607 -0.368312 1109 0.707407 0.706807 0.000000
-15.275812 -14.912684 -0.361751 1111 0.707407 0.706807 0.000000
-15.275985 -14.912861 -0.355199 1115 0.707407 0.706807 0.000000
-15.276009 -14.912887 -0.348639 1107 0.707407 0.706807 0.000000
-15.275722 -14.912614 -0.342081 1117 0.707407 0.706807 0.000000
-15.275745 -14.912625 -0.335521 1107 0.707407 0.706807 0.000000
-15.275085 -14.911990 -0.328947 1101 0.707407 0.706807 0.000000
-15.274945 -14.911852 -0.322388 1085 0.707407 0.706807 0.000000
-15.275172 -14.912074 -0.315836 1105 0.707407 0.706807 0.000000
-15.274863 -14.911782 -0.309279 1105 0.707407 0.706807 0.000000
-15.274568 -14.911489 -0.302712 1101 0.707407 0.706807 0.000000
-15.274537 -14.911456 -0.296152 1095 0.707407 0.706807 0.000000
-15.275324 -14.912236 -0.289614 1099 0.707407 0.706807 0.000000
-15.282307 -14.909689 -0.663583 1101 0.707407 0.706807 0.000000
-15.281924 -14.909311 -0.657006 1103 0.707407 0.706807 0.000000
-15.282223 -14.909605 -0.650453 1111 0.707407 0.706807 0.000000
-15.282044 -14.909436 -0.643885 1103 0.707407 0.706807 0.000000
-15.280886 -14.908305 -0.637276 1123 0.707407 0.706807 0.000000
-15.280551 -14.907979 -0.630699 1103 0.707407 0.706807 0.000000
-15.280482 -14.907915 -0.624139 1111 0.707407 0.706807 0.000000
-15.280826 -14.908246 -0.617586 1107 0.707407 0.706807 0.000000
-15.281894 -14.909300 -0.611076 1105 0.707407 0.706807 0.000000
-15.281770 -14.909176 -0.604507 1101 0.707407 0.706807 0.000000
-15.281694 -14.909105 -0.597937 1087 0.707407 0.706807 0.000000
-15.281351 -14.908772 -0.591360 1089 0.707407 0.706807 0.000000
-15.280908 -14.908330 -0.584784 1105 0.707407 0.706807 0.000000
-15.281507 -14.908915 -0.578249 1095 0.707407 0.706807 0.000000
-15.281315 -14.908733 -0.571680 1107 0.707407 0.706807 0.000000
-15.280607 -14.908044 -0.565097 1105 0.707407 0.706807 0.000000
-15.280049 -14.907506 -0.558512 1095 0.707407 0.706807 0.000000
-15.280594 -14.908031 -0.551967 1107 0.707407 0.706807 0.000000
-15.281491 -14.908916 -0.545438 1117 0.707407 0.706807 0.000000
-15.280829 -14.908265 -0.538854 1111 0.707407 0.706807 0.000000
-15.280791 -14.908226 -0.532294 1117 0.707407 0.706807 0.000000
-15.281376 -14.908798 -0.525759 1099 0.707407 0.706807 0.000000
-15.281752 -14.909168 -0.519205 1107 0.707407 0.706807 0.000000
-15.281223 -14.908655 -0.512630 1105 0.707407 0.706807 0.000000
-15.280717 -14.908161 -0.506054 1109 0.707407 0.706807 0.000000
-15.280562 -14.908012 -0.499486 1113 0.707407 0.706807 0.000000
-15.279941 -14.907407 -0.492911 1105 0.707407 0.706807 0.000000
-15.279419 -14.906900 -0.486336 1087 0.707407 0.706807 0.000000
-15.280152 -14.907621 -0.479799 1105 0.707407 0.706807 0.000000
-15.281515 -14.908947 -0.473286 1115 0.707407 0.706807 0.000000
-15.282195 -14.909612 -0.466739 1099 0.707407 0.706807 0.000000
-15.281619 -14.909044 -0.460165 1123 0.707407 0.706807 0.000000
-15.280141 -14.907608 -0.453559 1127 0.707407 0.706807 0.000000
-15.280142 -14.907615 -0.447008 1125 0.707407 0.706807 0.000000
-15.279973 -14.907454 -0.440440 1119 0.707407 0.706807 0.000000
-15.279598 -14.907082 -0.433873 1101 0.707407 0.706807 0.000000
-15.280270 -14.907739 -0.427337 1107 0.707407 0.706807 0.000000
-15.281883 -14.909312 -0.420821 1123 0.707407 0.706807 0.000000
-15.282390 -14.909805 -0.414276 1131 0.707407 0.706807 0.000000
-15.280950 -14.908414 -0.407680 1123 0.707407 0.706807 0.000000
-15.279736 -14.907225 -0.401081 1121 0.707407 0.706807 0.000000
-15.280454 -14.907920 -0.394544 1103 0.707407 0.706807 0.000000
-15.281171 -14.908628 -0.388007 1103 0.707407 0.706807 0.000000
-15.280938 -14.908401 -0.381439 1133 0.707407 0.706807 0.000000
-15.280549 -14.908017 -0.374873 1119 0.707407 0.706807 0.000000
-15.279789 -14.907285 -0.368300 1103 0.707407 0.706807 0.000000
-15.279034 -14.906543 -0.361717 1117 0.707407 0.706807 0.000000
-15.279898 -14.907387 -0.355188 1111 0.707407 0.706807 0.000000
-15.281068 -14.908538 -0.348657 1109 0.707407 0.706807 0.000000
-15.281093 -14.908565 -0.342097 1105 0.707407 0.706807 0.000000
-15.280284 -14.907763 -0.335524 1093 0.707407 0.706807 0.000000
-15.279676 -14.907172 -0.328950 1093 0.707407 0.706807 0.000000
-15.279693 -14.907192 -0.322390 1107 0.707407 0.706807 0.000000
-15.279290 -14.906810 -0.315833 1109 0.707407 0.706807 0.000000
-15.279251 -14.906770 -0.309273 1113 0.707407 0.706807 0.000000
-15.280272 -14.907758 -0.302734 1111 0.707407 0.706807 0.000000
-15.280172 -14.907667 -0.296174 1105 0.707407 0.706807 0.000000
-15.279558 -14.907069 -0.289610 1109 0.707407 0.706807 0.000000
-15.286267 -14.904256 -0.663562 1091 0.707407 0.706807 0.000000
-15.286259 -14.904241 -0.657002 1087 0.707407 0.706807 0.000000
-15.286868 -14.904847 -0.650456 1111 0.707407 0.706807 0.000000
-15.287484 -14.905445 -0.643920 1095 0.707407 0.706807 0.000000
-15.287625 -14.905581 -0.637368 1119 0.707407 0.706807 0.000000
-15.286349 -14.904339 -0.630750 1093 0.707407 0.706807 0.000000
-15.285859 -14.903858 -0.624165 1103 0.707407 0.706807 0.000000
-15.286936 -14.904919 -0.617654 1111 0.707407 0.706807 0.000000
-15.287022 -14.904996 -0.611093 1103 0.707407 0.706807 0.000000
-15.286680 -14.904664 -0.604516 1101 0.707407 0.706807 0.000000
-15.286448 -14.904437 -0.597948 1095 0.707407 0.706807 0.000000
-15.285848 -14.903851 -0.591364 1093 0.707407 0.706807 0.000000
-15.286068 -14.904079 -0.584812 1095 0.707407 0.706807 0.000000
-15.286412 -14.904411 -0.578258 1121 0.707407 0.706807 0.000000
-15.285913 -14.903923 -0.571683 1111 0.707407 0.706807 0.000000
-15.285145 -14.903182 -0.565090 1097 0.707407 0.706807 0.000000
-15.285059 -14.903090 -0.558531 1105 0.707407 0.706807 0.000000
-15.285389 -14.903424 -0.551977 1109 0.707407 0.706807 0.000000
-15.285046 -14.903078 -0.545401 1115 0.707407 0.706807 0.000000
-15.285414 -14.903443 -0.538857 1107 0.707407 0.706807 0.000000
-15.285430 -14.903461 -0.532296 1113 0.707407 0.706807 0.000000
-15.285236 -14.903267 -0.525728 1101 0.707407 0.706807 0.000000
-15.285876 -14.903897 -0.519192 1103 0.707407 0.706807 0.000000
-15.285620 -14.903650 -0.512624 1101 0.707407 0.706807 0.000000
-15.284942 -14.902987 -0.506041 1109 0.707407 0.706807 0.000000
-15.285162 -14.903202 -0.499488 1103 0.707407 0.706807 0.000000
-15.285786 -14.903819 -0.492952 1105 0.707407 0.706807 0.000000
-15.285849 -14.903877 -0.486391 1101 0.707407 0.706807 0.000000
-15.285429 -14.903467 -0.479825 1091 0.707407 0.706807 0.000000
-15.285742 -14.903773 -0.473272 1097 0.707407 0.706807 0.000000
-15.285736 -14.903774 -0.466712 1101 0.707407 0.706807 0.000000
-15.285791 -14.903826 -0.460151 1103 0.707407 0.706807 0.000000
-15.285730 -14.903768 -0.453592 1109 0.707407 0.706807 0.000000
-15.285676 -14.903715 -0.447032 1111 0.707407 0.706807 0.000000
-15.285770 -14.903812 -0.440471 1101 0.707407 0.706807 0.000000
-15.284814 -14.902877 -0.433890 1095 0.707407 0.706807 0.000000
-15.285118 -14.903175 -0.427337 1091 0.707407 0.706807 0.000000
-15.285634 -14.903675 -0.420792 1109 0.707407 0.706807 0.000000
-15.285620 -14.903670 -0.414232 1113 0.707407 0.706807 0.000000
-15.286127 -14.904164 -0.407687 1113 0.707407 0.706807 0.000000
-15.285480 -14.903540 -0.401113 1109 0.707407 0.706807 0.000000
-15.285209 -14.903266 -0.394545 1117 0.707407 0.706807 0.000000
-15.285233 -14.903293 -0.387995 1117 0.707407 0.706807 0.000000
-15.284323 -14.902408 -0.381413 1111 0.707407 0.706807 0.000000
-15.284674 -14.902746 -0.374860 1107 0.707407 0.706807 0.000000
-15.284964 -14.903032 -0.368317 1109 0.707407 0.706807 0.000000
-15.285300 -14.903371 -0.361764 1107 0.707407 0.706807 0.000000
-15.285323 -14.903382 -0.355203 1087 0.707407 0.706807 0.000000
-15.285357 -14.903416 -0.348653 1087 0.707407 0.706807 0.000000
-15.285170 -14.903240 -0.342084 1103 0.707407 0.706807 0.000000
-15.284564 -14.902649 -0.335520 1093 0.707407 0.706807 0.000000
-15.283738 -14.901850 -0.328938 1097 0.707407 0.706807 0.000000
-15.284014 -14.902123 -0.322385 1097 0.707407 0.706807 0.000000
-15.284776 -14.902856 -0.315847 1105 0.707407 0.706807 0.000000
-15.284995 -14.903071 -0.309295 1113 0.707407 0.706807 0.000000
-15.285534 -14.903604 -0.302750 1101 0.707407 0.706807 0.000000
-15.285502 -14.903571 -0.296190 1103 0.707407 0.706807 0.000000
-15.285561 -14.903638 -0.289639 1097 0.707407 0.706807 0.000000
-15.290044 -14.898825 -0.663531 1077 0.707407 0.706807 0.000000
-15.289337 -14.898149 -0.656938 1081 0.707407 0.706807 0.000000
-15.290272 -14.899052 -0.650409 1101 0.707407 0.706807 0.000000
-15.291666 -14.900416 -0.643905 1113 0.707407 0.706807 0.000000
-15.291333 -14.900091 -0.637338 1103 0.707407 0.706807 0.000000
-15.290593 -14.899363 -0.630745 1083 0.707407 0.706807 0.000000
-15.290822 -14.899598 -0.624193 1091 0.707407 0.706807 0.000000
-15.291281 -14.900039 -0.617648 1111 0.707407 0.706807 0.000000
-15.290689 -14.899460 -0.611054 1093 0.707407 0.706807 0.000000
-15.290497 -14.899278 -0.604486 1105 0.707407 0.706807 0.000000
-15.290894 -14.899668 -0.597942 1089 0.707407 0.706807 0.000000
-15.290811 -14.899591 -0.591382 1091 0.707407 0.706807 0.000000
-15.291566 -14.900331 -0.584845 1099 0.707407 0.706807 0.000000
-15.291590 -14.900344 -0.578284 1105 0.707407 0.706807 0.000000
-15.290619 -14.899409 -0.571684 1079 0.707407 0.706807 0.000000
-15.289903 -14.898712 -0.565100 1073 0.707407 0.706807 0.000000
-15.289242 -14.898063 -0.558516 1075 0.707407 0.706807 0.000000
-15.289422 -14.898244 -0.551964 1091 0.707407 0.706807 0.000000
-15.289804 -14.898608 -0.545411 1099 0.707407 0.706807 0.000000
-15.289237 -14.898062 -0.538836 1093 0.707407 0.706807 0.000000
-15.288521 -14.897367 -0.532253 1085 0.707407 0.706807 0.000000
-15.289683 -14.898499 -0.525731 1095 0.707407 0.706807 0.000000
-15.291148 -14.899934 -0.519217 1103 0.707407 0.706807 0.000000
-15.290961 -14.899746 -0.512649 1091 0.707407 0.706807 0.000000
-15.290441 -14.899238 -0.506074 1077 0.707407 0.706807 0.000000
-15.290394 -14.899193 -0.499514 1111 0.707407 0.706807 0.000000
-15.290714 -14.899505 -0.492961 1097 0.707407 0.706807 0.000000
-15.290341 -14.899147 -0.486394 1093 0.707407 0.706807 0.000000
-15.289245 -14.898082 -0.479804 1101 0.707407 0.706807 0.000000
-15.289457 -14.898291 -0.473252 1099 0.707407 0.706807 0.000000
-15.289139 -14.897978 -0.466675 1087 0.707407 0.706807 0.000000
-15.289032 -14.897882 -0.460116 1073 0.707407 0.706807 0.000000
-15.289920 -14.898746 -0.453587 1089 0.707407 0.706807 0.000000
-15.290176 -14.898991 -0.447035 1089 0.707407 0.706807 0.000000
-15.290427 -14.899246 -0.440482 1095 0.707407 0.706807 0.000000
-15.290311 -14.899128 -0.433923 1103 0.707407 0.706807 0.000000
-15.289362 -14.898199 -0.427332 1093 0.707407 0.706807 0.000000
-15.289028 -14.897887 -0.420765 1087 0.707407 0.706807 0.000000
-15.289021 -14.897875 -0.414205 1081 0.707407 0.706807 0.000000
-15.288531 -14.897392 -0.407640 1083 0.707407 0.706807 0.000000
-15.288517 -14.897387 -0.401079 1087 0.707407 0.706807 0.000000
-15.288923 -14.897783 -0.394535 1087 0.707407 0.706807 0.000000
-15.289687 -14.898531 -0.387988 1087 0.707407 0.706807 0.000000
-15.290085 -14.898920 -0.381444 1105 0.707407 0.706807 0.000000
-15.290171 -14.898997 -0.374893 1101 0.707407 0.706807 0.000000
-15.289192 -14.898056 -0.368302 1095 0.707407 0.706807 0.000000
-15.289178 -14.898036 -0.361752 1093 0.707407 0.706807 0.000000
-15.289568 -14.898420 -0.355198 1109 0.707407 0.706807 0.000000
-15.288385 -14.897269 -0.348619 1091 0.707407 0.706807 0.000000
-15.288830 -14.897698 -0.342065 1091 0.707407 0.706807 0.000000
-15.290364 -14.899192 -0.335540 1085 0.707407 0.706807 0.000000
-15.290234 -14.899076 -0.328981 1097 0.707407 0.706807 0.000000
-15.289987 -14.898836 -0.322423 1077 0.707407 0.706807 0.000000
-15.289855 -14.898706 -0.315865 1105 0.707407 0.706807 0.000000
-15.289130 -14.898005 -0.309291 1109 0.707407 0.706807 0.000000
-15.289412 -14.898271 -0.302739 1101 0.707407 0.706807 0.000000
-15.289468 -14.898336 -0.296178 1101 0.707407 0.706807 0.000000
-15.289063 -14.897939 -0.289622 1093 0.707407 0.706807 0.000000
