774
-4.588637 -4.276903 -0.348866 1605 0.749660 0.661823 0.000000
-4.588445 -4.276722 -0.346928 1593 0.749660 0.661824 0.000000
-4.588795 -4.277049 -0.345015 1599 0.749660 0.661824 0.000000
-4.589080 -4.277311 -0.343102 1603 0.749660 0.661824 0.000000
-4.588624 -4.276884 -0.341146 1605 0.749660 0.661824 0.000000
-4.588488 -4.276761 -0.339197 1601 0.749660 0.661824 0.000000
-4.588885 -4.277123 -0.337294 1611 0.749660 0.661824 0.000000
-4.589276 -4.277495 -0.335390 1619 0.749660 0.661824 0.000000
-4.588972 -4.277214 -0.333443 1611 0.749660 0.661824 0.000000
-4.588404 -4.276685 -0.331468 1607 0.749660 0.661824 0.000000
-4.588586 -4.276853 -0.329546 1609 0.749660 0.661824 0.000000
-4.588823 -4.277063 -0.327634 1611 0.749660 0.661824 0.000000
-4.588951 -4.277188 -0.325713 1611 0.749660 0.661824 0.000000
-4.589022 -4.277254 -0.323782 1609 0.749660 0.661824 0.000000
-4.588933 -4.277169 -0.321843 1619 0.749660 0.661823 0.000000
-4.589003 -4.277235 -0.319922 1613 0.749660 0.661824 0.000000
-4.588803 -4.277049 -0.317974 1615 0.749660 0.661824 0.000000
-4.588865 -4.277109 -0.316053 1615 0.749660 0.661824 0.000000
-4.589151 -4.277372 -0.314141 1619 0.749660 0.661824 0.000000
-4.588958 -4.277191 -0.312192 1607 0.749660 0.661824 0.000000
-4.588592 -4.276860 -0.310236 1607 0.749660 0.661824 0.000000
-4.588398 -4.276680 -0.308298 1605 0.749660 0.661824 0.000000
-4.588245 -4.276530 -0.306349 1595 0.749660 0.661824 0.000000
-4.588316 -4.276597 -0.304428 1599 0.749660 0.661824 0.000000
-4.589345 -4.274782 -0.694071 1595 0.749660 0.661823 0.000000
-4.589343 -4.274778 -0.692121 1581 0.749660 0.661824 0.000000
-4.589813 -4.275211 -0.690247 1583 0.749660 0.661824 0.000000
-4.590388 -4.275754 -0.688382 1605 0.749660 0.661824 0.000000
-4.590490 -4.275846 -0.686441 1603 0.749660 0.661823 0.000000
-4.590217 -4.275589 -0.684453 1593 0.749660 0.661824 0.000000
-4.589992 -4.275383 -0.682475 1597 0.749660 0.661824 0.000000
-4.589991 -4.275379 -0.680525 1595 0.749660 0.661824 0.000000
-4.589878 -4.275275 -0.678556 1595 0.749660 0.661824 0.000000
-4.589708 -4.275113 -0.676588 1601 0.749660 0.661824 0.000000
-4.590068 -4.275460 -0.674694 1607 0.749660 0.661824 0.000000
-4.589899 -4.275298 -0.672716 1605 0.749660 0.661824 0.000000
-4.589786 -4.275193 -0.670757 1591 0.749660 0.661824 0.000000
-4.589873 -4.275272 -0.668816 1603 0.749660 0.661824 0.000000
-4.589863 -4.275263 -0.666866 1611 0.749660 0.661823 0.000000
-4.589750 -4.275158 -0.664907 1603 0.749660 0.661824 0.000000
-4.589692 -4.275097 -0.662948 1607 0.749660 0.661824 0.000000
-4.589563 -4.274981 -0.660979 1607 0.749660 0.661824 0.000000
-4.589867 -4.275269 -0.659076 1603 0.749660 0.661824 0.000000
-4.590337 -4.275702 -0.657201 1605 0.749660 0.661824 0.000000
-4.590327 -4.275692 -0.655251 1603 0.749660 0.661824 0.000000
-4.589880 -4.275285 -0.653235 1593 0.749660 0.661824 0.000000
-4.589279 -4.274717 -0.651211 1587 0.749660 0.661824 0.000000
-4.589637 -4.275050 -0.649308 1599 0.749660 0.661823 0.000000
-4.589836 -4.275244 -0.647396 1603 0.749660 0.661824 0.000000
-4.589499 -4.274923 -0.645399 1585 0.749660 0.661824 0.000000
-4.589754 -4.275161 -0.643486 1585 0.749660 0.661824 0.000000
-4.589680 -4.275087 -0.641537 1599 0.749660 0.661823 0.000000
-4.589663 -4.275072 -0.639587 1603 0.749660 0.661824 0.000000
-4.589645 -4.275056 -0.637637 1605 0.749660 0.661823 0.000000
-4.589525 -4.274945 -0.635668 1591 0.749660 0.661824 0.000000
-4.589347 -4.274777 -0.633700 1593 0.749660 0.661824 0.000000
-4.589428 -4.274864 -0.631769 1603 0.749660 0.661824 0.000000
-4.589465 -4.274891 -0.629829 1603 0.749660 0.661824 0.000000
-4.589552 -4.274971 -0.627898 1603 0.749660 0.661824 0.000000
-4.589584 -4.275006 -0.625958 1605 0.749660 0.661824 0.000000
-4.589455 -4.274889 -0.623989 1607 0.749660 0.661823 0.000000
-4.589374 -4.274810 -0.622039 1603 0.749660 0.661824 0.000000
-4.589356 -4.274794 -0.620090 1605 0.749660 0.661824 0.000000
-4.589443 -4.274873 -0.618159 1605 0.749660 0.661824 0.000000
-4.589578 -4.275003 -0.616227 1591 0.749660 0.661824 0.000000
-4.589831 -4.275227 -0.614315 1587 0.749660 0.661824 0.000000
-4.590015 -4.275408 -0.612403 1585 0.749660 0.661824 0.000000
-4.590684 -4.276025 -0.610547 1597 0.749660 0.661824 0.000000
-4.590659 -4.276003 -0.608597 1597 0.749660 0.661824 0.000000
-4.589995 -4.275386 -0.606563 1603 0.749660 0.661824 0.000000
-4.589858 -4.275262 -0.604605 1607 0.749660 0.661824 0.000000
-4.590209 -4.275589 -0.602701 1601 0.749660 0.661824 0.000000
-4.590127 -4.275508 -0.600752 1593 0.749660 0.661824 0.000000
-4.589782 -4.275182 -0.598765 1587 0.749660 0.661824 0.000000
-4.590236 -4.275603 -0.596871 1599 0.749660 0.661824 0.000000
-4.590475 -4.275828 -0.594959 1609 0.749660 0.661824 0.000000
-4.589756 -4.275167 -0.592925 1601 0.749660 0.661824 0.000000
-4.589452 -4.274886 -0.590948 1601 0.749660 0.661824 0.000000
-4.589329 -4.274761 -0.588989 1599 0.749660 0.661824 0.000000
-4.589457 -4.274885 -0.587058 1601 0.749660 0.661824 0.000000
-4.589479 -4.274900 -0.585118 1595 0.749660 0.661823 0.000000
-4.589558 -4.274973 -0.583187 1595 0.749660 0.661824 0.000000
-4.590109 -4.275497 -0.581312 1607 0.749660 0.661824 0.000000
-4.590555 -4.275911 -0.579427 1611 0.749660 0.661824 0.000000
-4.590898 -4.276232 -0.577524 1611 0.749660 0.661824 0.000000
-4.590607 -4.275948 -0.575547 1605 0.749660 0.661824 0.000000
-4.590623 -4.275971 -0.573607 1607 0.749660 0.661824 0.000000
-4.590381 -4.275740 -0.571639 1601 0.749660 0.661824 0.000000
-4.589438 -4.274862 -0.569578 1597 0.749660 0.661824 0.000000
-4.589190 -4.274639 -0.567610 1591 0.749660 0.661824 0.000000
-4.589739 -4.275148 -0.565735 1597 0.749660 0.661824 0.000000
-4.590025 -4.275411 -0.563822 1601 0.749660 0.661824 0.000000
-4.590104 -4.275484 -0.561891 1613 0.749660 0.661824 0.000000
-4.589952 -4.275348 -0.559933 1609 0.749660 0.661824 0.000000
-4.589711 -4.275116 -0.557965 1603 0.749660 0.661824 0.000000
-4.590102 -4.275487 -0.556071 1617 0.749660 0.661824 0.000000
-4.590603 -4.275945 -0.554186 1609 0.749660 0.661823 0.000000
-4.590611 -4.275962 -0.552246 1611 0.749660 0.661824 0.000000
-4.590632 -4.275977 -0.550306 1609 0.749660 0.661824 0.000000
-4.590753 -4.276095 -0.548385 1599 0.749660 0.661824 0.000000
-4.590446 -4.275800 -0.546408 1599 0.749660 0.661824 0.000000
-4.590191 -4.275569 -0.544430 1601 0.749660 0.661824 0.000000
-4.590316 -4.275680 -0.542509 1613 0.749660 0.661824 0.000000
-4.589685 -4.275101 -0.540495 1603 0.749660 0.661824 0.000000
-4.589748 -4.275162 -0.538564 1607 0.749660 0.661824 0.000000
-4.589553 -4.274967 -0.536596 1601 0.749660 0.661824 0.000000
-4.589777 -4.275179 -0.534684 1603 0.749660 0.661823 0.000000
-4.590536 -4.275892 -0.532826 1625 0.749660 0.661823 0.000000
-4.590446 -4.275807 -0.530877 1627 0.749660 0.661824 0.000000
-4.590564 -4.275910 -0.528956 1605 0.749660 0.661824 0.000000
-4.590564 -4.275921 -0.527016 1607 0.749660 0.661824 0.000000
-4.590155 -4.275531 -0.525030 1611 0.749660 0.661824 0.000000
-4.589579 -4.274996 -0.523025 1609 0.749660 0.661824 0.000000
-4.589418 -4.274854 -0.521067 1597 0.749660 0.661823 0.000000
-4.589593 -4.275015 -0.519145 1601 0.749660 0.661824 0.000000
-4.589975 -4.275367 -0.517251 1615 0.749660 0.661824 0.000000
-4.589718 -4.275122 -0.515284 1599 0.749660 0.661824 0.000000
-4.589558 -4.274981 -0.513325 1599 0.749660 0.661824 0.000000
-4.590203 -4.275579 -0.511459 1597 0.749660 0.661824 0.000000
-4.590642 -4.275987 -0.509565 1601 0.749660 0.661824 0.000000
-4.590648 -4.275990 -0.507625 1603 0.749660 0.661824 0.000000
-4.590232 -4.275607 -0.505639 1615 0.749660 0.661824 0.000000
-4.589703 -4.275110 -0.503644 1621 0.749660 0.661824 0.000000
-4.589647 -4.275063 -0.501704 1619 0.749660 0.661824 0.000000
-4.589814 -4.275218 -0.499783 1615 0.749660 0.661823 0.000000
-4.589869 -4.275272 -0.497852 1605 0.749660 0.661823 0.000000
-4.589938 -4.275325 -0.495921 1607 0.749660 0.661824 0.000000
-4.589881 -4.275278 -0.493972 1613 0.749660 0.661823 0.000000
-4.589720 -4.275122 -0.492023 1619 0.749660 0.661824 0.000000
-4.589824 -4.275228 -0.490092 1615 0.749660 0.661824 0.000000
-4.589934 -4.275325 -0.488171 1613 0.749660 0.661824 0.000000
-4.589301 -4.274733 -0.486167 1613 0.749660 0.661824 0.000000
-4.589509 -4.274933 -0.484245 1613 0.749660 0.661824 0.000000
-4.590529 -4.275879 -0.482415 1615 0.749660 0.661824 0.000000
-4.590417 -4.275775 -0.480466 1611 0.749660 0.661824 0.000000
-4.589673 -4.275082 -0.478453 1603 0.749660 0.661824 0.000000
-4.589616 -4.275035 -0.476514 1607 0.749660 0.661824 0.000000
-4.590469 -4.275823 -0.474656 1613 0.749660 0.661824 0.000000
-4.589774 -4.275181 -0.472652 1603 0.749660 0.661824 0.000000
-4.588598 -4.274082 -0.470593 1595 0.749660 0.661824 0.000000
-4.588805 -4.274282 -0.468681 1601 0.749660 0.661824 0.000000
-4.589234 -4.274670 -0.466787 1603 0.749660 0.661824 0.000000
-4.589602 -4.275023 -0.464884 1603 0.749660 0.661824 0.000000
-4.589337 -4.274772 -0.462926 1603 0.749660 0.661824 0.000000
-4.589112 -4.274567 -0.460968 1603 0.749660 0.661824 0.000000
-4.589590 -4.275006 -0.459074 1611 0.749660 0.661824 0.000000
-4.589692 -4.275098 -0.457153 1607 0.749660 0.661824 0.000000
-4.589517 -4.274944 -0.455194 1597 0.749660 0.661824 0.000000
-4.589570 -4.274984 -0.453264 1605 0.749660 0.661824 0.000000
-4.589721 -4.275126 -0.451342 1603 0.749660 0.661824 0.000000
-4.590040 -4.275428 -0.449439 1617 0.749660 0.661824 0.000000
-4.590405 -4.275766 -0.447536 1615 0.749660 0.661824 0.000000
-4.590557 -4.275909 -0.445614 1615 0.749660 0.661824 0.000000
-4.590276 -4.275646 -0.443657 1615 0.749660 0.661824 0.000000
-4.589635 -4.275047 -0.441663 1615 0.749660 0.661823 0.000000
-4.589252 -4.274690 -0.439686 1613 0.749660 0.661824 0.000000
-4.589242 -4.274681 -0.437746 1621 0.749660 0.661824 0.000000
-4.589504 -4.274924 -0.435844 1621 0.749660 0.661823 0.000000
-4.589536 -4.274960 -0.433914 1619 0.749660 0.661824 0.000000
-4.589103 -4.274550 -0.431938 1601 0.749660 0.661824 0.000000
-4.589031 -4.274491 -0.429988 1603 0.749660 0.661824 0.000000
-4.589237 -4.274677 -0.428076 1605 0.749660 0.661824 0.000000
-4.589276 -4.274719 -0.426146 1605 0.749660 0.661824 0.000000
-4.589371 -4.274805 -0.424215 1607 0.749660 0.661824 0.000000
-4.589625 -4.275043 -0.422302 1609 0.749660 0.661824 0.000000
-4.589456 -4.274880 -0.420354 1601 0.749660 0.661824 0.000000
-4.589223 -4.274669 -0.418406 1611 0.749660 0.661824 0.000000
-4.589367 -4.274805 -0.416485 1609 0.749660 0.661824 0.000000
-4.589780 -4.275181 -0.414581 1613 0.749660 0.661824 0.000000
-4.590034 -4.275419 -0.412668 1611 0.749660 0.661824 0.000000
-4.589914 -4.275308 -0.410730 1617 0.749660 0.661824 0.000000
-4.589842 -4.275249 -0.408780 1617 0.749660 0.661824 0.000000
-4.590192 -4.275575 -0.406877 1621 0.749660 0.661823 0.000000
-4.590279 -4.275654 -0.404956 1619 0.749660 0.661824 0.000000
-4.590110 -4.275492 -0.403007 1609 0.749660 0.661824 0.000000
-4.589989 -4.275381 -0.401059 1607 0.749660 0.661824 0.000000
-4.590124 -4.275512 -0.399137 1611 0.749660 0.661824 0.000000
-4.589794 -4.275198 -0.397180 1615 0.749660 0.661824 0.000000
-4.589283 -4.274727 -0.395195 1601 0.749660 0.661824 0.000000
-4.589056 -4.274507 -0.393247 1601 0.749660 0.661824 0.000000
-4.589352 -4.274790 -0.391334 1615 0.749660 0.661824 0.000000
-4.589703 -4.275116 -0.389431 1619 0.749660 0.661824 0.000000
-4.589949 -4.275347 -0.387519 1619 0.749660 0.661824 0.000000
-4.590147 -4.275527 -0.385607 1609 0.749660 0.661824 0.000000
-4.590067 -4.275462 -0.383667 1605 0.749660 0.661824 0.000000
-4.590049 -4.275432 -0.381728 1617 0.749660 0.661824 0.000000
-4.590080 -4.275467 -0.379797 1619 0.749660 0.661824 0.000000
-4.589944 -4.275344 -0.377858 1615 0.749660 0.661824 0.000000
-4.589648 -4.275069 -0.375901 1607 0.749660 0.661824 0.000000
-4.589686 -4.275097 -0.373971 1605 0.749660 0.661824 0.000000
-4.589883 -4.275277 -0.372049 1603 0.749660 0.661824 0.000000
-4.589796 -4.275205 -0.370110 1605 0.749660 0.661824 0.000000
-4.589875 -4.275278 -0.368189 1607 0.749660 0.661824 0.000000
-4.589849 -4.275256 -0.366249 1601 0.749660 0.661824 0.000000
-4.590040 -4.275430 -0.364327 1599 0.749660 0.661824 0.000000
-4.590062 -4.275445 -0.362397 1603 0.749660 0.661823 0.000000
-4.589933 -4.275329 -0.360458 1603 0.749660 0.661824 0.000000
-4.589637 -4.275053 -0.358501 1603 0.749660 0.661823 0.000000
-4.589556 -4.274973 -0.356562 1601 0.749660 0.661824 0.000000
-4.589634 -4.275046 -0.354641 1597 0.749660 0.661824 0.000000
-4.589602 -4.275018 -0.352701 1597 0.749660 0.661824 0.000000
-4.589514 -4.274947 -0.350762 1595 0.749660 0.661824 0.000000
-4.589169 -4.274620 -0.348805 1585 0.749660 0.661824 0.000000
-4.589622 -4.275041 -0.346911 1589 0.749660 0.661824 0.000000
-4.589805 -4.275208 -0.344989 1607 0.749660 0.661824 0.000000
-4.589821 -4.275231 -0.343059 1609 0.749660 0.661824 0.000000
-4.590058 -4.275443 -0.341146 1615 0.749660 0.661824 0.000000
-4.589818 -4.275225 -0.339199 1607 0.749660 0.661823 0.000000
-4.589786 -4.275197 -0.337259 1593 0.749660 0.661823 0.000000
-4.589911 -4.275307 -0.335338 1603 0.749660 0.661823 0.000000
-4.589879 -4.275279 -0.333408 1603 0.749660 0.661824 0.000000
-4.589685 -4.275098 -0.331460 1599 0.749660 0.661824 0.000000
-4.589645 -4.275064 -0.329530 1603 0.749660 0.661824 0.000000
-4.590314 -4.275680 -0.327644 1607 0.749660 0.661824 0.000000
-4.590594 -4.275950 -0.325731 1615 0.749660 0.661824 0.000000
-4.590184 -4.275560 -0.323765 1611 0.749660 0.661823 0.000000
-4.590040 -4.275431 -0.321826 1611 0.749660 0.661824 0.000000
-4.590111 -4.275497 -0.319905 1611 0.749660 0.661824 0.000000
-4.590230 -4.275615 -0.317974 1609 0.749660 0.661823 0.000000
-4.590467 -4.275826 -0.316062 1607 0.749660 0.661824 0.000000
-4.590587 -4.275945 -0.314141 1605 0.749660 0.661823 0.000000
-4.590338 -4.275706 -0.312193 1599 0.749660 0.661823 0.000000
-4.590034 -4.275425 -0.310246 1593 0.749660 0.661824 0.000000
-4.589881 -4.275290 -0.308297 1601 0.749660 0.661824 0.000000
-4.589896 -4.275299 -0.306367 1599 0.749660 0.661824 0.000000
-4.590446 -4.275808 -0.304472 1599 0.749660 0.661824 0.000000
-4.591522 -4.274031 -0.694195 1597 0.749660 0.661824 0.000000
-4.590979 -4.273535 -0.692160 1587 0.749660 0.661824 0.000000
-4.591137 -4.273684 -0.690238 1589 0.749660 0.661824 0.000000
-4.591718 -4.274218 -0.688373 1605 0.749660 0.661824 0.000000
-4.591445 -4.273961 -0.686385 1597 0.749660 0.661824 0.000000
-4.591013 -4.273566 -0.684369 1591 0.749660 0.661824 0.000000
-4.590684 -4.273252 -0.682372 1597 0.749660 0.661824 0.000000
-4.590883 -4.273446 -0.680450 1591 0.749660 0.661824 0.000000
-4.590937 -4.273486 -0.678510 1589 0.749660 0.661824 0.000000
-4.590976 -4.273527 -0.676570 1589 0.749660 0.661824 0.000000
-4.591238 -4.273771 -0.674657 1593 0.749660 0.661824 0.000000
-4.591229 -4.273761 -0.672707 1597 0.749660 0.661824 0.000000
-4.591269 -4.273803 -0.670767 1605 0.749660 0.661824 0.000000
-4.590947 -4.273495 -0.668770 1597 0.749660 0.661824 0.000000
-4.591035 -4.273588 -0.666839 1599 0.749660 0.661824 0.000000
-4.591559 -4.274065 -0.664964 1603 0.749660 0.661824 0.000000
-4.591702 -4.274201 -0.663042 1595 0.749660 0.661824 0.000000
-4.591429 -4.273944 -0.661055 1591 0.749660 0.661824 0.000000
-4.591045 -4.273587 -0.659048 1603 0.749660 0.661824 0.000000
-4.591188 -4.273724 -0.657127 1601 0.749660 0.661824 0.000000
-4.591331 -4.273860 -0.655196 1589 0.749660 0.661824 0.000000
-4.591529 -4.274040 -0.653274 1597 0.749660 0.661824 0.000000
-4.591672 -4.274177 -0.651352 1599 0.749660 0.661823 0.000000
-4.591767 -4.274262 -0.649421 1601 0.749660 0.661824 0.000000
-4.591542 -4.274056 -0.647443 1605 0.749660 0.661824 0.000000
-4.591364 -4.273888 -0.645465 1605 0.749660 0.661824 0.000000
-4.591237 -4.273771 -0.643506 1601 0.749660 0.661824 0.000000
-4.591442 -4.273958 -0.641584 1603 0.749660 0.661824 0.000000
-4.591202 -4.273739 -0.639607 1601 0.749660 0.661823 0.000000
-4.590809 -4.273375 -0.637610 1605 0.749660 0.661824 0.000000
-4.591064 -4.273613 -0.635698 1613 0.749660 0.661824 0.000000
-4.590998 -4.273546 -0.633738 1599 0.749660 0.661824 0.000000
-4.591293 -4.273829 -0.631835 1603 0.749660 0.661824 0.000000
-4.591859 -4.274350 -0.629970 1593 0.749660 0.661824 0.000000
-4.591522 -4.274030 -0.627973 1601 0.749660 0.661824 0.000000
-4.590963 -4.273521 -0.625958 1601 0.749660 0.661824 0.000000
-4.591104 -4.273644 -0.624027 1599 0.749660 0.661824 0.000000
-4.591079 -4.273622 -0.622077 1613 0.749660 0.661823 0.000000
-4.590639 -4.273207 -0.620081 1603 0.749660 0.661824 0.000000
-4.590613 -4.273184 -0.618132 1587 0.749660 0.661824 0.000000
-4.590860 -4.273416 -0.616219 1587 0.749660 0.661824 0.000000
-4.590884 -4.273446 -0.614279 1591 0.749660 0.661823 0.000000
-4.591400 -4.273915 -0.612404 1593 0.749660 0.661824 0.000000
-4.592120 -4.274598 -0.610547 1593 0.749660 0.661824 0.000000
-4.592150 -4.274620 -0.608607 1599 0.749660 0.661824 0.000000
-4.591910 -4.274401 -0.606639 1613 0.749660 0.661824 0.000000
-4.591724 -4.274227 -0.604661 1615 0.749660 0.661824 0.000000
-4.591219 -4.273748 -0.602656 1589 0.749660 0.661824 0.000000
-4.591139 -4.273683 -0.600706 1589 0.749660 0.661824 0.000000
-4.591376 -4.273893 -0.598784 1601 0.749660 0.661824 0.000000
-4.591193 -4.273733 -0.596826 1595 0.749660 0.661824 0.000000
-4.590951 -4.273501 -0.594848 1595 0.749660 0.661824 0.000000
-4.591142 -4.273675 -0.592926 1605 0.749660 0.661823 0.000000
-4.591108 -4.273647 -0.590986 1605 0.749660 0.661824 0.000000
-4.590924 -4.273473 -0.589018 1605 0.749660 0.661824 0.000000
-4.591163 -4.273698 -0.587106 1603 0.749660 0.661824 0.000000
-4.591178 -4.273721 -0.585165 1601 0.749660 0.661824 0.000000
-4.590874 -4.273439 -0.583178 1617 0.749660 0.661824 0.000000
-4.591119 -4.273656 -0.581266 1615 0.749660 0.661824 0.000000
-4.591989 -4.274470 -0.579438 1615 0.749660 0.661824 0.000000
-4.592179 -4.274644 -0.577516 1617 0.749660 0.661824 0.000000
-4.592034 -4.274515 -0.575557 1607 0.749660 0.661824 0.000000
-4.592002 -4.274487 -0.573607 1601 0.749660 0.661824 0.000000
-4.592128 -4.274597 -0.571686 1601 0.749660 0.661823 0.000000
-4.592046 -4.274517 -0.569727 1607 0.749660 0.661824 0.000000
-4.591486 -4.273994 -0.567722 1605 0.749660 0.661824 0.000000
-4.591445 -4.273960 -0.565773 1601 0.749660 0.661824 0.000000
-4.591524 -4.274033 -0.563842 1605 0.749660 0.661824 0.000000
-4.591157 -4.273702 -0.561855 1597 0.749660 0.661824 0.000000
-4.591179 -4.273717 -0.559915 1589 0.749660 0.661824 0.000000
-4.591576 -4.274080 -0.558021 1603 0.749660 0.661824 0.000000
-4.591807 -4.274300 -0.556109 1613 0.749660 0.661824 0.000000
-4.591822 -4.274309 -0.554169 1599 0.749660 0.661824 0.000000
-4.591941 -4.274426 -0.552238 1611 0.749660 0.661824 0.000000
-4.592115 -4.274588 -0.550316 1611 0.749660 0.661824 0.000000
-4.591866 -4.274349 -0.548348 1607 0.749660 0.661823 0.000000
-4.591347 -4.273872 -0.546343 1603 0.749660 0.661823 0.000000
-4.591625 -4.274128 -0.544440 1609 0.749660 0.661824 0.000000
-4.591911 -4.274391 -0.542528 1609 0.749660 0.661824 0.000000
-4.591280 -4.273812 -0.540523 1607 0.749660 0.661824 0.000000
-4.591134 -4.273669 -0.538565 1601 0.749660 0.661824 0.000000
-4.591468 -4.273983 -0.536662 1599 0.749660 0.661824 0.000000
-4.592018 -4.274492 -0.534786 1615 0.749660 0.661824 0.000000
-4.592185 -4.274647 -0.532865 1623 0.749660 0.661824 0.000000
-4.591665 -4.274170 -0.530860 1611 0.749660 0.661824 0.000000
-4.591672 -4.274173 -0.528920 1603 0.749660 0.661824 0.000000
-4.591743 -4.274240 -0.526989 1599 0.749660 0.661824 0.000000
-4.591534 -4.274046 -0.525031 1603 0.749660 0.661824 0.000000
-4.591284 -4.273808 -0.523063 1605 0.749660 0.661824 0.000000
-4.591180 -4.273710 -0.521104 1597 0.749660 0.661824 0.000000
-4.591514 -4.274024 -0.519211 1603 0.749660 0.661824 0.000000
-4.591730 -4.274230 -0.517289 1605 0.749660 0.661824 0.000000
-4.591687 -4.274182 -0.515349 1605 0.749660 0.661824 0.000000
-4.591320 -4.273851 -0.513372 1607 0.749660 0.661824 0.000000
-4.590895 -4.273448 -0.511386 1599 0.749660 0.661824 0.000000
-4.591069 -4.273609 -0.509465 1593 0.749660 0.661824 0.000000
-4.591603 -4.274107 -0.507580 1603 0.749660 0.661824 0.000000
-4.591826 -4.274319 -0.505668 1613 0.749660 0.661824 0.000000
-4.591561 -4.274068 -0.503700 1609 0.749660 0.661824 0.000000
-4.591034 -4.273585 -0.501705 1611 0.749660 0.661824 0.000000
-4.590984 -4.273530 -0.499765 1609 0.749660 0.661824 0.000000
-4.590935 -4.273489 -0.497816 1601 0.749660 0.661824 0.000000
-4.590455 -4.273043 -0.495830 1601 0.749660 0.661823 0.000000
-4.590190 -4.272793 -0.493863 1607 0.749660 0.661824 0.000000
-4.590356 -4.272948 -0.491941 1595 0.749660 0.661824 0.000000
-4.590836 -4.273401 -0.490056 1595 0.749660 0.661824 0.000000
-4.591321 -4.273847 -0.488172 1597 0.749660 0.661824 0.000000
-4.591327 -4.273850 -0.486232 1607 0.749660 0.661824 0.000000
-4.591702 -4.274195 -0.484328 1621 0.749660 0.661824 0.000000
-4.591485 -4.273995 -0.482370 1621 0.749660 0.661824 0.000000
-4.590893 -4.273448 -0.480376 1603 0.749660 0.661824 0.000000
-4.590949 -4.273503 -0.478445 1609 0.749660 0.661824 0.000000
-4.591371 -4.273899 -0.476551 1607 0.749660 0.661824 0.000000
-4.591258 -4.273794 -0.474602 1601 0.749660 0.661824 0.000000
-4.590672 -4.273239 -0.472608 1599 0.749660 0.661824 0.000000
-4.590353 -4.272945 -0.470640 1593 0.749660 0.661824 0.000000
-4.590623 -4.273195 -0.468728 1593 0.749660 0.661824 0.000000
-4.591045 -4.273591 -0.466834 1595 0.749660 0.661824 0.000000
-4.590981 -4.273538 -0.464884 1597 0.749660 0.661823 0.000000
-4.591043 -4.273584 -0.462954 1609 0.749660 0.661824 0.000000
-4.591457 -4.273974 -0.461060 1611 0.749660 0.661824 0.000000
-4.591344 -4.273870 -0.459111 1611 0.749660 0.661824 0.000000
-4.590641 -4.273221 -0.457107 1603 0.749660 0.661824 0.000000
-4.590855 -4.273415 -0.455195 1603 0.749660 0.661824 0.000000
-4.591117 -4.273658 -0.453283 1601 0.749660 0.661824 0.000000
-4.591004 -4.273554 -0.451334 1591 0.749660 0.661824 0.000000
-4.591155 -4.273696 -0.449412 1607 0.749660 0.661824 0.000000
-4.591195 -4.273738 -0.447482 1611 0.749660 0.661823 0.000000
-4.590922 -4.273481 -0.445525 1605 0.749660 0.661824 0.000000
-4.591073 -4.273623 -0.443603 1605 0.749660 0.661824 0.000000
-4.591390 -4.273911 -0.441690 1627 0.749660 0.661824 0.000000
-4.591269 -4.273800 -0.439751 1617 0.749660 0.661824 0.000000
-4.591045 -4.273595 -0.437793 1603 0.749660 0.661824 0.000000
-4.591099 -4.273635 -0.435863 1611 0.749660 0.661823 0.000000
-4.590652 -4.273228 -0.433887 1607 0.749660 0.661824 0.000000
-4.590156 -4.272769 -0.431901 1605 0.749660 0.661824 0.000000
-4.591057 -4.273608 -0.430053 1609 0.749660 0.661823 0.000000
-4.591638 -4.274142 -0.428167 1619 0.749660 0.661824 0.000000
-4.590878 -4.273437 -0.426165 1611 0.749660 0.661824 0.000000
-4.590326 -4.272921 -0.424180 1607 0.749660 0.661823 0.000000
-4.590629 -4.273210 -0.422277 1607 0.749660 0.661824 0.000000
-4.590884 -4.273447 -0.420364 1605 0.749660 0.661824 0.000000
-4.591138 -4.273685 -0.418452 1607 0.749660 0.661824 0.000000
-4.591023 -4.273566 -0.416503 1613 0.749660 0.661824 0.000000
-4.590416 -4.273006 -0.414519 1611 0.749660 0.661824 0.000000
-4.590296 -4.272896 -0.412570 1619 0.749660 0.661823 0.000000
-4.590279 -4.272881 -0.410640 1613 0.749660 0.661824 0.000000
-4.590789 -4.273358 -0.408745 1617 0.749660 0.661824 0.000000
-4.591419 -4.273944 -0.406869 1613 0.749660 0.661824 0.000000
-4.590867 -4.273428 -0.404884 1603 0.749660 0.661824 0.000000
-4.590425 -4.273013 -0.402918 1601 0.749660 0.661824 0.000000
-4.590353 -4.272953 -0.400979 1595 0.749660 0.661824 0.000000
-4.590655 -4.273229 -0.399066 1599 0.749660 0.661824 0.000000
-4.591173 -4.273713 -0.397181 1609 0.749660 0.661824 0.000000
-4.591363 -4.273887 -0.395259 1609 0.749660 0.661823 0.000000
-4.591124 -4.273669 -0.393301 1619 0.749660 0.661824 0.000000
-4.591482 -4.274001 -0.391398 1617 0.749660 0.661823 0.000000
-4.591832 -4.274327 -0.389495 1613 0.749660 0.661824 0.000000
-4.591280 -4.273811 -0.387520 1607 0.749660 0.661824 0.000000
-4.591415 -4.273942 -0.385599 1611 0.749660 0.661824 0.000000
-4.591501 -4.274021 -0.383668 1619 0.749660 0.661823 0.000000
-4.591373 -4.273904 -0.381729 1609 0.749660 0.661824 0.000000
-4.591515 -4.274026 -0.379807 1617 0.749660 0.661824 0.000000
-4.591435 -4.273961 -0.377868 1597 0.749660 0.661824 0.000000
-4.591402 -4.273933 -0.375928 1597 0.749660 0.661824 0.000000
-4.591489 -4.274012 -0.373998 1599 0.749660 0.661824 0.000000
-4.591040 -4.273591 -0.372032 1587 0.749660 0.661824 0.000000
-4.591015 -4.273568 -0.370102 1597 0.749660 0.661824 0.000000
-4.591476 -4.273995 -0.368198 1601 0.749660 0.661824 0.000000
-4.591667 -4.274169 -0.366286 1601 0.749660 0.661824 0.000000
-4.591579 -4.274097 -0.364346 1597 0.749660 0.661824 0.000000
-4.591658 -4.274170 -0.362416 1601 0.749660 0.661824 0.000000
-4.591744 -4.274250 -0.360495 1615 0.749660 0.661824 0.000000
-4.591391 -4.273917 -0.358528 1605 0.749660 0.661823 0.000000
-4.591255 -4.273793 -0.356589 1595 0.749660 0.661824 0.000000
-4.591334 -4.273866 -0.354659 1601 0.749660 0.661824 0.000000
-4.591252 -4.273787 -0.352729 1605 0.749660 0.661824 0.000000
-4.591060 -4.273606 -0.350781 1599 0.749660 0.661824 0.000000
-4.590820 -4.273389 -0.348833 1593 0.749660 0.661824 0.000000
-4.591162 -4.273708 -0.346920 1595 0.749660 0.661824 0.000000
-4.591608 -4.274123 -0.345026 1613 0.749660 0.661824 0.000000
-4.591478 -4.273992 -0.343077 1609 0.749660 0.661824 0.000000
-4.591181 -4.273717 -0.341130 1605 0.749660 0.661824 0.000000
-4.591085 -4.273639 -0.339190 1595 0.749660 0.661823 0.000000
-4.591594 -4.274103 -0.337296 1601 0.749660 0.661824 0.000000
-4.592097 -4.274576 -0.335401 1609 0.749660 0.661824 0.000000
-4.591897 -4.274389 -0.333453 1603 0.749660 0.661823 0.000000
-4.591655 -4.274157 -0.331505 1615 0.749660 0.661824 0.000000
-4.591831 -4.274333 -0.329583 1607 0.749660 0.661824 0.000000
-4.591742 -4.274247 -0.327644 1605 0.749660 0.661824 0.000000
-4.591277 -4.273813 -0.325678 1603 0.749660 0.661823 0.000000
-4.591036 -4.273582 -0.323731 1603 0.749660 0.661824 0.000000
-4.591107 -4.273648 -0.321810 1607 0.749660 0.661824 0.000000
-4.591123 -4.273671 -0.319880 1605 0.749660 0.661823 0.000000
-4.591240 -4.273775 -0.317959 1603 0.749660 0.661824 0.000000
-4.591527 -4.274037 -0.316046 1599 0.749660 0.661824 0.000000
-4.591654 -4.274161 -0.314125 1607 0.749660 0.661824 0.000000
-4.591614 -4.274127 -0.312185 1607 0.749660 0.661824 0.000000
-4.591788 -4.274288 -0.310263 1607 0.749660 0.661824 0.000000
-4.592066 -4.274545 -0.308351 1613 0.749660 0.661824 0.000000
-4.592025 -4.274510 -0.306421 1607 0.749660 0.661824 0.000000
-4.592048 -4.274526 -0.304491 1601 0.749660 0.661823 0.000000
-4.591976 -4.272376 -0.694101 1601 0.749660 0.661824 0.000000
-4.592238 -4.272619 -0.692198 1601 0.749660 0.661824 0.000000
-4.592292 -4.272659 -0.690248 1597 0.749660 0.661824 0.000000
-4.591860 -4.272264 -0.688242 1599 0.749660 0.661824 0.000000
-4.591629 -4.272053 -0.686254 1597 0.749660 0.661824 0.000000
-4.592473 -4.272834 -0.684436 1609 0.749660 0.661824 0.000000
-4.593424 -4.273725 -0.682627 1615 0.749660 0.661824 0.000000
-4.592886 -4.273221 -0.680592 1609 0.749660 0.661824 0.000000
-4.591982 -4.272375 -0.678510 1595 0.749660 0.661824 0.000000
-4.591918 -4.272322 -0.676561 1583 0.749660 0.661824 0.000000
-4.592012 -4.272407 -0.674620 1591 0.749660 0.661824 0.000000
-4.592531 -4.272892 -0.672745 1601 0.749660 0.661824 0.000000
-4.593112 -4.273426 -0.670880 1609 0.749660 0.661824 0.000000
-4.592776 -4.273119 -0.668893 1597 0.749660 0.661824 0.000000
-4.592446 -4.272805 -0.666896 1593 0.749660 0.661824 0.000000
-4.592333 -4.272701 -0.664927 1593 0.749660 0.661824 0.000000
-4.592109 -4.272495 -0.662949 1589 0.749660 0.661824 0.000000
-4.591613 -4.272036 -0.660933 1595 0.749660 0.661824 0.000000
-4.591180 -4.271627 -0.658917 1605 0.749660 0.661823 0.000000
-4.591266 -4.271706 -0.656987 1603 0.749660 0.661824 0.000000
-4.592167 -4.272545 -0.655168 1599 0.749660 0.661824 0.000000
-4.592621 -4.272966 -0.653284 1595 0.749660 0.661824 0.000000
-4.591815 -4.272223 -0.651221 1585 0.749660 0.661824 0.000000
-4.591054 -4.271517 -0.649168 1585 0.749660 0.661824 0.000000
-4.591620 -4.272039 -0.647303 1585 0.749660 0.661824 0.000000
-4.592457 -4.272814 -0.645475 1595 0.749660 0.661824 0.000000
-4.592649 -4.273002 -0.643553 1605 0.749660 0.661824 0.000000
-4.592535 -4.272883 -0.641594 1611 0.749660 0.661824 0.000000
-4.592727 -4.273072 -0.639673 1609 0.749660 0.661824 0.000000
-4.593237 -4.273550 -0.637798 1611 0.749660 0.661824 0.000000
-4.592851 -4.273178 -0.635801 1611 0.749660 0.661824 0.000000
-4.592196 -4.272581 -0.633767 1591 0.749660 0.661824 0.000000
-4.592114 -4.272501 -0.631808 1595 0.749660 0.661824 0.000000
-4.592257 -4.272638 -0.629877 1599 0.749660 0.661823 0.000000
-4.592295 -4.272666 -0.627936 1597 0.749660 0.661823 0.000000
-4.592591 -4.272948 -0.626033 1597 0.749660 0.661824 0.000000
-4.592413 -4.272780 -0.624065 1599 0.749660 0.661824 0.000000
-4.592277 -4.272657 -0.622106 1597 0.749660 0.661824 0.000000
-4.592371 -4.272742 -0.620165 1599 0.749660 0.661824 0.000000
-4.591971 -4.272372 -0.618169 1585 0.749660 0.661824 0.000000
-4.591585 -4.272000 -0.616173 1579 0.749660 0.661824 0.000000
-4.591824 -4.272225 -0.614260 1591 0.749660 0.661823 0.000000
-4.592223 -4.272603 -0.612377 1601 0.749660 0.661824 0.000000
-4.592364 -4.272725 -0.610445 1597 0.749660 0.661824 0.000000
-4.592707 -4.273045 -0.608552 1601 0.749660 0.661824 0.000000
-4.592793 -4.273124 -0.606611 1591 0.749660 0.661824 0.000000
-4.592401 -4.272759 -0.604615 1591 0.749660 0.661824 0.000000
-4.592417 -4.272783 -0.602675 1593 0.749660 0.661824 0.000000
-4.592663 -4.273014 -0.600762 1601 0.749660 0.661824 0.000000
-4.592318 -4.272687 -0.598775 1601 0.749660 0.661824 0.000000
-4.592070 -4.272463 -0.596798 1597 0.749660 0.661824 0.000000
-4.591885 -4.272289 -0.594839 1591 0.749660 0.661824 0.000000
-4.592228 -4.272609 -0.592936 1599 0.749660 0.661824 0.000000
-4.592361 -4.272725 -0.591005 1603 0.749660 0.661824 0.000000
-4.592600 -4.272951 -0.589093 1607 0.749660 0.661824 0.000000
-4.592894 -4.273219 -0.587190 1611 0.749660 0.661824 0.000000
-4.592806 -4.273148 -0.585240 1611 0.749660 0.661824 0.000000
-4.592885 -4.273220 -0.583300 1617 0.749660 0.661824 0.000000
-4.592643 -4.272988 -0.581332 1621 0.749660 0.661823 0.000000
-4.592235 -4.272612 -0.579336 1609 0.749660 0.661823 0.000000
-4.591938 -4.272336 -0.577358 1597 0.749660 0.661824 0.000000
-4.592545 -4.272903 -0.575493 1599 0.749660 0.661824 0.000000
-4.592991 -4.273318 -0.573599 1603 0.749660 0.661824 0.000000
-4.592909 -4.273239 -0.571649 1597 0.749660 0.661824 0.000000
-4.592668 -4.273006 -0.569682 1593 0.749660 0.661824 0.000000
-4.592252 -4.272624 -0.567685 1601 0.749660 0.661824 0.000000
-4.592698 -4.273039 -0.565801 1609 0.749660 0.661824 0.000000
-4.592929 -4.273257 -0.563889 1609 0.749660 0.661824 0.000000
-4.592257 -4.272634 -0.561865 1609 0.749660 0.661824 0.000000
-4.592279 -4.272649 -0.559925 1603 0.749660 0.661824 0.000000
-4.592342 -4.272709 -0.557984 1599 0.749660 0.661824 0.000000
-4.592206 -4.272587 -0.556035 1605 0.749660 0.661824 0.000000
-4.592859 -4.273191 -0.554169 1597 0.749660 0.661824 0.000000
-4.592658 -4.273004 -0.552201 1599 0.749660 0.661823 0.000000
-4.591818 -4.272222 -0.550159 1603 0.749660 0.661824 0.000000
-4.592001 -4.272390 -0.548247 1609 0.749660 0.661824 0.000000
-4.592550 -4.272899 -0.546362 1605 0.749660 0.661824 0.000000
-4.593197 -4.273511 -0.544506 1607 0.749660 0.661824 0.000000
-4.593060 -4.273374 -0.542547 1611 0.749660 0.661823 0.000000
-4.592421 -4.272790 -0.540533 1603 0.749660 0.661824 0.000000
-4.592228 -4.272609 -0.538565 1601 0.749660 0.661824 0.000000
-4.591922 -4.272314 -0.536588 1599 0.749660 0.661824 0.000000
-4.591778 -4.272184 -0.534639 1599 0.749660 0.661824 0.000000
-4.591681 -4.272093 -0.532680 1605 0.749660 0.661824 0.000000
-4.591369 -4.271804 -0.530713 1601 0.749660 0.661823 0.000000
-4.591494 -4.271914 -0.528782 1595 0.749660 0.661824 0.000000
-4.592245 -4.272622 -0.526934 1583 0.749660 0.661824 0.000000
-4.592572 -4.272929 -0.525031 1603 0.749660 0.661823 0.000000
-4.592051 -4.272438 -0.523026 1599 0.749660 0.661824 0.000000
-4.591842 -4.272244 -0.521068 1595 0.749660 0.661823 0.000000
-4.592392 -4.272754 -0.519193 1605 0.749660 0.661824 0.000000
-4.592503 -4.272866 -0.517262 1591 0.749660 0.661823 0.000000
-4.591870 -4.272273 -0.515258 1583 0.749660 0.661824 0.000000
-4.591725 -4.272130 -0.513299 1599 0.749660 0.661824 0.000000
-4.591932 -4.272330 -0.511387 1609 0.749660 0.661824 0.000000
-4.591835 -4.272238 -0.509438 1601 0.749660 0.661824 0.000000
-4.592328 -4.272690 -0.507543 1607 0.749660 0.661824 0.000000
-4.592703 -4.273049 -0.505650 1597 0.749660 0.661824 0.000000
-4.591911 -4.272305 -0.503627 1591 0.749660 0.661824 0.000000
-4.591175 -4.271617 -0.501604 1601 0.749660 0.661824 0.000000
-4.591654 -4.272071 -0.499719 1601 0.749660 0.661824 0.000000
-4.591867 -4.272263 -0.497807 1605 0.749660 0.661823 0.000000
-4.591555 -4.271976 -0.495840 1605 0.749660 0.661823 0.000000
-4.591554 -4.271972 -0.493900 1605 0.749660 0.661824 0.000000
-4.591290 -4.271736 -0.491933 1613 0.749660 0.661824 0.000000
-4.591240 -4.271681 -0.489993 1609 0.749660 0.661824 0.000000
-4.591559 -4.271982 -0.488090 1601 0.749660 0.661824 0.000000
-4.591670 -4.272080 -0.486159 1603 0.749660 0.661824 0.000000
-4.591676 -4.272083 -0.484219 1617 0.749660 0.661824 0.000000
-4.591619 -4.272036 -0.482279 1613 0.749660 0.661824 0.000000
-4.591931 -4.272331 -0.480376 1609 0.749660 0.661824 0.000000
-4.592090 -4.272480 -0.478455 1607 0.749660 0.661824 0.000000
-4.591721 -4.272135 -0.476478 1599 0.749660 0.661824 0.000000
-4.591504 -4.271935 -0.474520 1591 0.749660 0.661824 0.000000
-4.591503 -4.271932 -0.472580 1589 0.749660 0.661824 0.000000
-4.591765 -4.272176 -0.470678 1599 0.749660 0.661824 0.000000
-4.592083 -4.272463 -0.468765 1599 0.749660 0.661824 0.000000
-4.591811 -4.272221 -0.466807 1593 0.749660 0.661824 0.000000
-4.591817 -4.272223 -0.464867 1597 0.749660 0.661824 0.000000
-4.591969 -4.272366 -0.462945 1609 0.749660 0.661824 0.000000
-4.591855 -4.272262 -0.460997 1611 0.749660 0.661824 0.000000
-4.591582 -4.272005 -0.459039 1605 0.749660 0.661824 0.000000
-4.591149 -4.271596 -0.457063 1591 0.749660 0.661824 0.000000
-4.591150 -4.271607 -0.455123 1597 0.749660 0.661824 0.000000
-4.591404 -4.271844 -0.453210 1603 0.749660 0.661824 0.000000
-4.591083 -4.271536 -0.451244 1591 0.749660 0.661824 0.000000
-4.590915 -4.271389 -0.449295 1591 0.749660 0.661823 0.000000
-4.591273 -4.271721 -0.447392 1601 0.749660 0.661824 0.000000
-4.591647 -4.272066 -0.445488 1611 0.749660 0.661824 0.000000
-4.591797 -4.272208 -0.443567 1605 0.749660 0.661824 0.000000
-4.591732 -4.272141 -0.441627 1605 0.749660 0.661824 0.000000
-4.591668 -4.272088 -0.439688 1603 0.749660 0.661824 0.000000
-4.592034 -4.272427 -0.437784 1603 0.749660 0.661824 0.000000
-4.592024 -4.272417 -0.435854 1595 0.749660 0.661824 0.000000
-4.591592 -4.272008 -0.433878 1595 0.749660 0.661824 0.000000
-4.591311 -4.271745 -0.431911 1601 0.749660 0.661823 0.000000
-4.591886 -4.272287 -0.430035 1613 0.749660 0.661824 0.000000
-4.592619 -4.272968 -0.428169 1623 0.749660 0.661824 0.000000
-4.592450 -4.272806 -0.426210 1623 0.749660 0.661824 0.000000
-4.592274 -4.272652 -0.424262 1617 0.749660 0.661824 0.000000
-4.592208 -4.272585 -0.422322 1607 0.749660 0.661823 0.000000
-4.592247 -4.272626 -0.420392 1595 0.749660 0.661824 0.000000
-4.592397 -4.272755 -0.418471 1597 0.749660 0.661824 0.000000
-4.591901 -4.272296 -0.416495 1603 0.749660 0.661824 0.000000
-4.591669 -4.272085 -0.414537 1607 0.749660 0.661824 0.000000
-4.591812 -4.272222 -0.412616 1613 0.749660 0.661823 0.000000
-4.591803 -4.272212 -0.410676 1605 0.749660 0.661824 0.000000
-4.592480 -4.272835 -0.408809 1617 0.749660 0.661824 0.000000
-4.592775 -4.273118 -0.406897 1609 0.749660 0.661824 0.000000
-4.592494 -4.272855 -0.404939 1601 0.749660 0.661824 0.000000
-4.592213 -4.272592 -0.402982 1603 0.749660 0.661824 0.000000
-4.592412 -4.272771 -0.401060 1605 0.749660 0.661824 0.000000
-4.592658 -4.273003 -0.399148 1605 0.749660 0.661824 0.000000
-4.592369 -4.272734 -0.397190 1613 0.749660 0.661824 0.000000
-4.591915 -4.272320 -0.395214 1615 0.749660 0.661824 0.000000
-4.591905 -4.272311 -0.393284 1609 0.749660 0.661824 0.000000
-4.592095 -4.272485 -0.391363 1605 0.749660 0.661824 0.000000
-4.592078 -4.272469 -0.389433 1609 0.749660 0.661824 0.000000
-4.592540 -4.272896 -0.387538 1613 0.749660 0.661824 0.000000
-4.592668 -4.273020 -0.385617 1611 0.749660 0.661824 0.000000
-4.592011 -4.272409 -0.383623 1599 0.749660 0.661824 0.000000
-4.591826 -4.272234 -0.381675 1585 0.749660 0.661824 0.000000
-4.592232 -4.272604 -0.379781 1589 0.749660 0.661824 0.000000
-4.592367 -4.272735 -0.377860 1593 0.749660 0.661824 0.000000
-4.592301 -4.272668 -0.375920 1597 0.749660 0.661824 0.000000
-4.592157 -4.272539 -0.373972 1593 0.749660 0.661823 0.000000
-4.591917 -4.272321 -0.372024 1589 0.749660 0.661824 0.000000
-4.591844 -4.272247 -0.370084 1593 0.749660 0.661824 0.000000
-4.591922 -4.272320 -0.368154 1595 0.749660 0.661824 0.000000
-4.592217 -4.272603 -0.366251 1603 0.749660 0.661824 0.000000
-4.592407 -4.272777 -0.364329 1595 0.749660 0.661824 0.000000
-4.592646 -4.273002 -0.362417 1597 0.749660 0.661824 0.000000
-4.592405 -4.272770 -0.360459 1609 0.749660 0.661824 0.000000
-4.592540 -4.272901 -0.358538 1599 0.749660 0.661824 0.000000
-4.592994 -4.273321 -0.356643 1603 0.749660 0.661824 0.000000
-4.592481 -4.272836 -0.354668 1603 0.749660 0.661824 0.000000
-4.592241 -4.272618 -0.352720 1603 0.749660 0.661824 0.000000
-4.592208 -4.272590 -0.350791 1597 0.749660 0.661824 0.000000
-4.592127 -4.272511 -0.348851 1591 0.749660 0.661823 0.000000
-4.591990 -4.272388 -0.346902 1595 0.749660 0.661823 0.000000
-4.591958 -4.272359 -0.344973 1603 0.749660 0.661824 0.000000
-4.591988 -4.272381 -0.343042 1601 0.749660 0.661824 0.000000
-4.591947 -4.272346 -0.341113 1601 0.749660 0.661824 0.000000
-4.591866 -4.272267 -0.339174 1601 0.749660 0.661824 0.000000
-4.591776 -4.272182 -0.337234 1605 0.749660 0.661824 0.000000
-4.592119 -4.272501 -0.335321 1599 0.749660 0.661824 0.000000
-4.591926 -4.272321 -0.333383 1601 0.749660 0.661824 0.000000
-4.591942 -4.272344 -0.331453 1601 0.749660 0.661824 0.000000
-4.592548 -4.272911 -0.329557 1597 0.749660 0.661824 0.000000
-4.592897 -4.273223 -0.327654 1601 0.749660 0.661824 0.000000
-4.592642 -4.272993 -0.325706 1597 0.749660 0.661824 0.000000
-4.592025 -4.272413 -0.323732 1593 0.749660 0.661824 0.000000
-4.592096 -4.272480 -0.321801 1599 0.749660 0.661824 0.000000
-4.592487 -4.272851 -0.319897 1607 0.749660 0.661824 0.000000
-4.592286 -4.272664 -0.317959 1601 0.749660 0.661824 0.000000
-4.592037 -4.272426 -0.316011 1593 0.749660 0.661824 0.000000
-4.592260 -4.272639 -0.314089 1601 0.749660 0.661824 0.000000
-4.592657 -4.273002 -0.312186 1611 0.749660 0.661824 0.000000
-4.592298 -4.272677 -0.310229 1609 0.749660 0.661824 0.000000
-4.592201 -4.272585 -0.308300 1601 0.749660 0.661824 0.000000
-4.592487 -4.272848 -0.306387 1605 0.749660 0.661824 0.000000
-4.593037 -4.273357 -0.304492 1597 0.749660 0.661824 0.000000
-4.593230 -4.270297 -0.695995 1587 0.749660 0.661824 0.000000
-4.593708 -4.270737 -0.694121 1599 0.749660 0.661824 0.000000
-4.594337 -4.271322 -0.692265 1595 0.749660 0.661824 0.000000
-4.594113 -4.271117 -0.690287 1587 0.749660 0.661824 0.000000
-4.593897 -4.270917 -0.688299 1587 0.749660 0.661824 0.000000
-4.593999 -4.271009 -0.686368 1589 0.749660 0.661824 0.000000
-4.594691 -4.271645 -0.684521 1595 0.749660 0.661824 0.000000
-4.595155 -4.272085 -0.682637 1609 0.749660 0.661823 0.000000
-4.594251 -4.271240 -0.680555 1605 0.749660 0.661824 0.000000
-4.593755 -4.270781 -0.678540 1605 0.749660 0.661824 0.000000
-4.593794 -4.270823 -0.676599 1587 0.749660 0.661824 0.000000
-4.593999 -4.271008 -0.674678 1583 0.749660 0.661824 0.000000
-4.594581 -4.271543 -0.672812 1595 0.749660 0.661823 0.000000
-4.594405 -4.271389 -0.670844 1597 0.749660 0.661824 0.000000
-4.593868 -4.270885 -0.668809 1595 0.749660 0.661824 0.000000
-4.593962 -4.270970 -0.666878 1591 0.749660 0.661824 0.000000
-4.594217 -4.271207 -0.664965 1591 0.749660 0.661824 0.000000
-4.594583 -4.271546 -0.663072 1597 0.749660 0.661824 0.000000
-4.594136 -4.271138 -0.661056 1593 0.749660 0.661824 0.000000
-4.593270 -4.270324 -0.658994 1591 0.749660 0.661824 0.000000
-4.593318 -4.270371 -0.657053 1595 0.749660 0.661823 0.000000
-4.593836 -4.270856 -0.655179 1601 0.749660 0.661824 0.000000
-4.593979 -4.270993 -0.653247 1603 0.749660 0.661824 0.000000
-4.594074 -4.271078 -0.651316 1605 0.749660 0.661824 0.000000
-4.594000 -4.271005 -0.649357 1603 0.749660 0.661824 0.000000
-4.594303 -4.271293 -0.647454 1595 0.749660 0.661823 0.000000
-4.594820 -4.271764 -0.645579 1597 0.749660 0.661824 0.000000
-4.594547 -4.271507 -0.643592 1595 0.749660 0.661824 0.000000
-4.593876 -4.270897 -0.641558 1597 0.749660 0.661824 0.000000
-4.593603 -4.270641 -0.639570 1595 0.749660 0.661824 0.000000
-4.594065 -4.271068 -0.637686 1605 0.749660 0.661824 0.000000
-4.593991 -4.270995 -0.635737 1607 0.749660 0.661824 0.000000
-4.593495 -4.270536 -0.633721 1587 0.749660 0.661824 0.000000
-4.593846 -4.270862 -0.631818 1593 0.749660 0.661824 0.000000
-4.593780 -4.270795 -0.629869 1607 0.749660 0.661824 0.000000
-4.593436 -4.270482 -0.627872 1601 0.749660 0.661824 0.000000
-4.594050 -4.271055 -0.626016 1599 0.749660 0.661824 0.000000
-4.594561 -4.271534 -0.624141 1595 0.749660 0.661824 0.000000
-4.594648 -4.271613 -0.622200 1601 0.749660 0.661824 0.000000
-4.594631 -4.271597 -0.620260 1607 0.749660 0.661824 0.000000
-4.594334 -4.271322 -0.618273 1589 0.749660 0.661824 0.000000
-4.593893 -4.270906 -0.616267 1581 0.749660 0.661823 0.000000
-4.594083 -4.271080 -0.614345 1591 0.749660 0.661823 0.000000
-4.594370 -4.271357 -0.612443 1605 0.749660 0.661823 0.000000
-4.593873 -4.270884 -0.610437 1595 0.749660 0.661824 0.000000
-4.593793 -4.270818 -0.608478 1583 0.749660 0.661824 0.000000
-4.593823 -4.270839 -0.606538 1581 0.749660 0.661824 0.000000
-4.593637 -4.270665 -0.604569 1583 0.749660 0.661824 0.000000
-4.593765 -4.270790 -0.602648 1595 0.749660 0.661824 0.000000
-4.594442 -4.271412 -0.600782 1603 0.749660 0.661824 0.000000
-4.594577 -4.271543 -0.598860 1605 0.749660 0.661824 0.000000
-4.594017 -4.271020 -0.596846 1589 0.749660 0.661823 0.000000
-4.593880 -4.270897 -0.594887 1593 0.749660 0.661824 0.000000
-4.593742 -4.270760 -0.592918 1599 0.749660 0.661824 0.000000
-4.593399 -4.270447 -0.590931 1597 0.749660 0.661824 0.000000
-4.593630 -4.270666 -0.589019 1605 0.749660 0.661824 0.000000
-4.593875 -4.270884 -0.587107 1605 0.749660 0.661824 0.000000
-4.593891 -4.270906 -0.585166 1607 0.749660 0.661823 0.000000
-4.594184 -4.271175 -0.583264 1605 0.749660 0.661824 0.000000
-4.594312 -4.271299 -0.581332 1603 0.749660 0.661824 0.000000
-4.593958 -4.270966 -0.579346 1597 0.749660 0.661824 0.000000
-4.593711 -4.270742 -0.577378 1595 0.749660 0.661824 0.000000
-4.593901 -4.270916 -0.575456 1593 0.749660 0.661824 0.000000
-4.593923 -4.270931 -0.573516 1605 0.749660 0.661824 0.000000
-4.593779 -4.270802 -0.571557 1597 0.749660 0.661824 0.000000
-4.594065 -4.271064 -0.569654 1605 0.749660 0.661824 0.000000
-4.594032 -4.271036 -0.567705 1597 0.749660 0.661824 0.000000
-4.594054 -4.271051 -0.565764 1595 0.749660 0.661824 0.000000
-4.594501 -4.271466 -0.563880 1605 0.749660 0.661824 0.000000
-4.594141 -4.271141 -0.561894 1609 0.749660 0.661823 0.000000
-4.593948 -4.270960 -0.559925 1601 0.749660 0.661824 0.000000
-4.594345 -4.271324 -0.558032 1609 0.749660 0.661824 0.000000
-4.594193 -4.271188 -0.556073 1609 0.749660 0.661823 0.000000
-4.593889 -4.270907 -0.554096 1589 0.749660 0.661823 0.000000
-4.594015 -4.271017 -0.552175 1589 0.749660 0.661824 0.000000
-4.594134 -4.271135 -0.550243 1599 0.749660 0.661824 0.000000
-4.594107 -4.271099 -0.548304 1613 0.749660 0.661824 0.000000
-4.594594 -4.271558 -0.546419 1611 0.749660 0.661824 0.000000
-4.594823 -4.271763 -0.544507 1603 0.749660 0.661824 0.000000
-4.594353 -4.271338 -0.542511 1601 0.749660 0.661824 0.000000
-4.594104 -4.271099 -0.540543 1597 0.749660 0.661824 0.000000
-4.594278 -4.271260 -0.538622 1591 0.749660 0.661824 0.000000
-4.593974 -4.270979 -0.536645 1595 0.749660 0.661824 0.000000
-4.593550 -4.270590 -0.534658 1601 0.749660 0.661824 0.000000
-4.593404 -4.270447 -0.532700 1595 0.749660 0.661824 0.000000
-4.593475 -4.270514 -0.530769 1589 0.749660 0.661824 0.000000
-4.593690 -4.270720 -0.528847 1599 0.749660 0.661824 0.000000
-4.594240 -4.271230 -0.526972 1603 0.749660 0.661823 0.000000
-4.594246 -4.271232 -0.525032 1611 0.749660 0.661824 0.000000
-4.593455 -4.270501 -0.523009 1605 0.749660 0.661824 0.000000
-4.593622 -4.270657 -0.521087 1599 0.749660 0.661824 0.000000
-4.594539 -4.271508 -0.519249 1605 0.749660 0.661824 0.000000
-4.594706 -4.271663 -0.517327 1595 0.749660 0.661824 0.000000
-4.594018 -4.271028 -0.515314 1593 0.749660 0.661824 0.000000
-4.593712 -4.270731 -0.513336 1601 0.749660 0.661824 0.000000
-4.593879 -4.270886 -0.511415 1595 0.749660 0.661824 0.000000
-4.593406 -4.270447 -0.509429 1587 0.749660 0.661824 0.000000
-4.593358 -4.270406 -0.507490 1589 0.749660 0.661823 0.000000
-4.593732 -4.270751 -0.505586 1585 0.749660 0.661824 0.000000
-4.593531 -4.270565 -0.503628 1589 0.749660 0.661824 0.000000
-4.593322 -4.270371 -0.501670 1603 0.749660 0.661823 0.000000
-4.592954 -4.270026 -0.499693 1603 0.749660 0.661824 0.000000
-4.592897 -4.269979 -0.497744 1603 0.749660 0.661824 0.000000
-4.593591 -4.270628 -0.495877 1609 0.749660 0.661824 0.000000
-4.593862 -4.270879 -0.493975 1617 0.749660 0.661823 0.000000
-4.593340 -4.270387 -0.491979 1607 0.749660 0.661824 0.000000
-4.593548 -4.270587 -0.490067 1607 0.749660 0.661824 0.000000
-4.593978 -4.270989 -0.488173 1609 0.749660 0.661824 0.000000
-4.593498 -4.270543 -0.486188 1603 0.749660 0.661824 0.000000
-4.593184 -4.270241 -0.484211 1603 0.749660 0.661824 0.000000
-4.593656 -4.270689 -0.482326 1603 0.749660 0.661824 0.000000
-4.594149 -4.271141 -0.480442 1601 0.749660 0.661824 0.000000
-4.594299 -4.271283 -0.478520 1609 0.749660 0.661824 0.000000
-4.593931 -4.270938 -0.476544 1601 0.749660 0.661824 0.000000
-4.594082 -4.271081 -0.474622 1609 0.749660 0.661824 0.000000
-4.594352 -4.271331 -0.472709 1613 0.749660 0.661823 0.000000
-4.593440 -4.270479 -0.470678 1611 0.749660 0.661824 0.000000
-4.592905 -4.269989 -0.468693 1597 0.749660 0.661824 0.000000
-4.593271 -4.270328 -0.466789 1591 0.749660 0.661824 0.000000
-4.593749 -4.270767 -0.464905 1605 0.749660 0.661823 0.000000
-4.593956 -4.270967 -0.462983 1605 0.749660 0.661824 0.000000
-4.594017 -4.271014 -0.461052 1605 0.749660 0.661824 0.000000
-4.593842 -4.270860 -0.459104 1605 0.749660 0.661824 0.000000
-4.593041 -4.270109 -0.457081 1595 0.749660 0.661824 0.000000
-4.592865 -4.269955 -0.455133 1593 0.749660 0.661824 0.000000
-4.593191 -4.270248 -0.453230 1601 0.749660 0.661824 0.000000
-4.593341 -4.270391 -0.451308 1597 0.749660 0.661824 0.000000
-4.593443 -4.270483 -0.449377 1599 0.749660 0.661824 0.000000
-4.593434 -4.270473 -0.447448 1607 0.749660 0.661824 0.000000
-4.593961 -4.270964 -0.445562 1609 0.749660 0.661823 0.000000
-4.594432 -4.271411 -0.443668 1609 0.749660 0.661824 0.000000
-4.594311 -4.271301 -0.441719 1613 0.749660 0.661824 0.000000
-4.593503 -4.270544 -0.439707 1603 0.749660 0.661823 0.000000
-4.593333 -4.270382 -0.437758 1589 0.749660 0.661824 0.000000
-4.593541 -4.270582 -0.435846 1583 0.749660 0.661824 0.000000
-4.593101 -4.270166 -0.433870 1587 0.749660 0.661824 0.000000
-4.593140 -4.270208 -0.431940 1595 0.749660 0.661824 0.000000
-4.593720 -4.270743 -0.430054 1607 0.749660 0.661824 0.000000
-4.594024 -4.271031 -0.428151 1615 0.749660 0.661824 0.000000
-4.593798 -4.270813 -0.426194 1611 0.749660 0.661824 0.000000
-4.593631 -4.270665 -0.424245 1605 0.749660 0.661823 0.000000
-4.593939 -4.270946 -0.422332 1605 0.749660 0.661824 0.000000
-4.594034 -4.271030 -0.420411 1601 0.749660 0.661823 0.000000
-4.593747 -4.270776 -0.418444 1593 0.749660 0.661824 0.000000
