774
-1.593232 -1.592635 -0.428252 1387 0.724237 0.689551 0.000000
-1.592966 -1.592367 -0.427465 1387 0.724237 0.689551 0.000000
-1.593209 -1.592615 -0.426812 1391 0.724237 0.689551 0.000000
-1.593405 -1.592811 -0.426151 1391 0.724237 0.689551 0.000000
-1.593139 -1.592544 -0.425363 1387 0.724237 0.689551 0.000000
-1.593381 -1.592778 -0.424711 1377 0.724237 0.689551 0.000000
-1.593783 -1.593180 -0.424097 1377 0.724237 0.689551 0.000000
-1.594019 -1.593422 -0.423445 1381 0.724237 0.689551 0.000000
-1.593912 -1.593308 -0.422696 1381 0.724237 0.689551 0.000000
-1.593647 -1.593054 -0.421918 1377 0.724237 0.689551 0.000000
-1.593325 -1.592728 -0.421111 1371 0.724237 0.689551 0.000000
-1.593018 -1.592415 -0.420314 1371 0.724237 0.689551 0.000000
-1.592800 -1.592199 -0.419546 1375 0.724237 0.689551 0.000000
-1.592631 -1.592035 -0.418788 1375 0.724237 0.689551 0.000000
-1.592778 -1.592179 -0.418106 1373 0.724237 0.689551 0.000000
-1.593022 -1.592427 -0.417454 1377 0.724237 0.689551 0.000000
-1.592955 -1.592359 -0.416725 1383 0.724237 0.689551 0.000000
-1.592935 -1.592343 -0.416005 1379 0.724237 0.689551 0.000000
-1.593489 -1.592893 -0.415429 1383 0.724237 0.689551 0.000000
-1.593518 -1.592929 -0.414729 1387 0.724237 0.689551 0.000000
-1.593163 -1.592564 -0.413923 1375 0.724237 0.689551 0.000000
-1.593034 -1.592446 -0.413174 1377 0.724237 0.689551 0.000000
-1.592975 -1.592384 -0.412444 1391 0.724237 0.689551 0.000000
-1.592708 -1.592116 -0.411657 1395 0.724237 0.689551 0.000000
-1.592800 -1.592202 -0.410966 1389 0.724237 0.689551 0.000000
-1.592582 -1.591986 -0.410198 1391 0.724237 0.689551 0.000000
-1.592619 -1.592028 -0.409498 1391 0.724237 0.689551 0.000000
-1.593315 -1.592720 -0.408961 1393 0.724237 0.689551 0.000000
-1.593049 -1.592452 -0.408174 1395 0.724237 0.689551 0.000000
-1.592728 -1.592140 -0.407377 1391 0.724237 0.689551 0.000000
-1.593170 -1.592574 -0.406782 1391 0.724237 0.689551 0.000000
-1.593317 -1.592718 -0.406101 1399 0.724237 0.689551 0.000000
-1.592836 -1.592238 -0.405266 1399 0.724237 0.689551 0.000000
-1.592674 -1.592080 -0.404507 1391 0.724237 0.689551 0.000000
-1.592965 -1.592366 -0.403874 1379 0.724237 0.689551 0.000000
-1.592946 -1.592350 -0.403154 1375 0.724237 0.689551 0.000000
-1.592631 -1.592031 -0.402358 1375 0.724237 0.689551 0.000000
-1.592405 -1.591808 -0.401590 1377 0.724237 0.689551 0.000000
-1.592848 -1.592256 -0.400985 1385 0.724237 0.689551 0.000000
-1.593338 -1.592742 -0.400401 1385 0.724237 0.689551 0.000000
-1.592969 -1.592378 -0.399594 1389 0.724237 0.689551 0.000000
-1.592289 -1.591698 -0.398711 1389 0.724237 0.689551 0.000000
-1.592373 -1.591778 -0.398020 1381 0.724237 0.689551 0.000000
-1.592816 -1.592226 -0.397416 1379 0.724237 0.689551 0.000000
-1.593203 -1.592616 -0.396802 1393 0.724237 0.689551 0.000000
-1.593493 -1.592901 -0.396159 1397 0.724237 0.689551 0.000000
-1.593323 -1.592737 -0.395401 1397 0.724237 0.689551 0.000000
-1.593415 -1.592824 -0.394710 1395 0.724237 0.689551 0.000000
-1.593498 -1.592903 -0.394019 1391 0.724237 0.689551 0.000000
-1.593122 -1.592533 -0.393212 1381 0.724237 0.689551 0.000000
-1.593563 -1.592967 -0.392608 1381 0.724237 0.689551 0.000000
-1.593847 -1.593261 -0.391965 1391 0.724237 0.689551 0.000000
-1.593429 -1.592831 -0.391150 1389 0.724237 0.689551 0.000000
-1.593259 -1.592667 -0.390401 1385 0.724237 0.689551 0.000000
-1.592881 -1.592283 -0.389595 1377 0.724237 0.689551 0.000000
-1.592601 -1.592017 -0.388817 1375 0.724237 0.689551 0.000000
-1.592174 -1.591581 -0.388002 1377 0.724237 0.689551 0.000000
-1.592005 -1.591417 -0.387253 1373 0.724237 0.689551 0.000000
-1.592598 -1.592012 -0.386677 1375 0.724237 0.689551 0.000000
-1.593238 -1.592646 -0.386121 1385 0.724237 0.689551 0.000000
-1.593936 -1.593351 -0.385574 1395 0.724237 0.689551 0.000000
-1.593558 -1.592968 -0.384778 1387 0.724237 0.689551 0.000000
-1.592370 -1.591786 -0.383780 1367 0.724237 0.689551 0.000000
-1.591936 -1.591344 -0.382964 1361 0.724237 0.689551 0.000000
-1.592323 -1.591733 -0.382350 1379 0.724237 0.689551 0.000000
-1.592153 -1.591569 -0.381602 1387 0.724237 0.689551 0.000000
-1.592181 -1.591591 -0.380891 1385 0.724237 0.689551 0.000000
-1.593029 -1.592445 -0.380383 1381 0.724237 0.689551 0.000000
-1.593422 -1.592826 -0.379759 1375 0.724237 0.689551 0.000000
-1.593086 -1.592502 -0.378973 1371 0.724237 0.689551 0.000000
-1.593170 -1.592582 -0.378282 1377 0.724237 0.689551 0.000000
-1.593310 -1.592720 -0.377600 1381 0.724237 0.689551 0.000000
-1.592773 -1.592182 -0.376765 1379 0.724237 0.689551 0.000000
-1.592657 -1.592062 -0.376027 1371 0.724237 0.689551 0.000000
-1.592377 -1.591795 -0.375259 1365 0.724237 0.689551 0.000000
-1.592094 -1.591501 -0.374482 1369 0.724237 0.689551 0.000000
-1.592386 -1.591801 -0.373839 1371 0.724237 0.689551 0.000000
-1.592916 -1.592332 -0.373254 1385 0.724237 0.689551 0.000000
-1.593150 -1.592560 -0.372592 1391 0.724237 0.689551 0.000000
-1.593131 -1.592544 -0.371882 1391 0.724237 0.689551 0.000000
-1.593462 -1.592875 -0.371249 1391 0.724237 0.689551 0.000000
-1.593602 -1.593013 -0.370567 1397 0.724237 0.689551 0.000000
-1.593113 -1.592527 -0.369742 1393 0.724237 0.689551 0.000000
-1.592990 -1.592401 -0.369003 1395 0.724237 0.689551 0.000000
-1.592867 -1.592274 -0.368264 1383 0.724237 0.689551 0.000000
-1.592690 -1.592104 -0.367516 1371 0.724237 0.689551 0.000000
-1.592766 -1.592178 -0.366825 1361 0.724237 0.689551 0.000000
-1.592994 -1.592413 -0.366173 1365 0.724237 0.689551 0.000000
-1.592774 -1.592183 -0.365405 1371 0.724237 0.689551 0.000000
-1.592493 -1.591903 -0.364638 1373 0.724237 0.689551 0.000000
-1.592775 -1.592183 -0.363985 1371 0.724237 0.689551 0.000000
-1.593004 -1.592418 -0.363333 1369 0.724237 0.689551 0.000000
-1.592626 -1.592034 -0.362537 1367 0.724237 0.689551 0.000000
-1.592392 -1.591806 -0.361779 1371 0.724237 0.689551 0.000000
-1.592771 -1.592189 -0.361155 1371 0.724237 0.689551 0.000000
-1.593220 -1.592629 -0.360541 1377 0.724237 0.689551 0.000000
-1.593344 -1.592754 -0.359860 1383 0.724237 0.689551 0.000000
-1.593215 -1.592636 -0.359121 1383 0.724237 0.689551 0.000000
-1.592781 -1.592194 -0.358315 1377 0.724237 0.689551 0.000000
-1.592802 -1.592223 -0.357615 1381 0.724237 0.689551 0.000000
-1.593133 -1.592555 -0.356982 1383 0.724237 0.689551 0.000000
-1.593002 -1.592422 -0.356243 1377 0.724237 0.689551 0.000000
-1.592576 -1.591986 -0.355437 1363 0.724237 0.689551 0.000000
-1.592447 -1.591868 -0.354698 1367 0.724237 0.689551 0.000000
-1.592936 -1.592353 -0.354103 1369 0.724237 0.689551 0.000000
-1.593466 -1.592885 -0.353508 1381 0.724237 0.689551 0.000000
-1.593088 -1.592501 -0.352722 1381 0.724237 0.689551 0.000000
-1.592696 -1.592118 -0.351926 1377 0.724237 0.689551 0.000000
-1.592627 -1.592036 -0.351196 1377 0.724237 0.689551 0.000000
-1.592386 -1.591801 -0.350439 1367 0.724237 0.689551 0.000000
-1.592104 -1.591521 -0.349671 1369 0.724237 0.689551 0.000000
-1.592228 -1.591646 -0.348990 1371 0.724237 0.689551 0.000000
-1.592710 -1.592126 -0.348385 1377 0.724237 0.689551 0.000000
-1.592938 -1.592361 -0.347733 1379 0.724237 0.689551 0.000000
-1.592257 -1.591667 -0.346870 1375 0.724237 0.689551 0.000000
-1.591148 -1.590563 -0.345931 1367 0.724237 0.689551 0.000000
-1.591273 -1.590689 -0.345249 1377 0.724237 0.689551 0.000000
-1.592113 -1.591536 -0.344721 1391 0.724237 0.689551 0.000000
-1.592189 -1.591609 -0.344030 1383 0.724237 0.689551 0.000000
-1.592106 -1.591529 -0.343311 1369 0.724237 0.689551 0.000000
-1.591817 -1.591242 -0.342534 1359 0.724237 0.689551 0.000000
-1.591542 -1.590954 -0.341767 1359 0.724237 0.689551 0.000000
-1.591921 -1.591337 -0.341143 1367 0.724237 0.689551 0.000000
-1.591838 -1.591257 -0.340424 1367 0.724237 0.689551 0.000000
-1.591954 -1.591376 -0.339743 1373 0.724237 0.689551 0.000000
-1.592030 -1.591449 -0.339052 1383 0.724237 0.689551 0.000000
-1.591900 -1.591317 -0.338313 1377 0.724237 0.689551 0.000000
-1.592230 -1.591648 -0.337680 1375 0.724237 0.689551 0.000000
-1.592196 -1.591619 -0.336960 1373 0.724237 0.689551 0.000000
-1.592320 -1.591745 -0.336279 1375 0.724237 0.689551 0.000000
-1.592912 -1.592326 -0.335703 1383 0.724237 0.689551 0.000000
-1.592671 -1.592092 -0.334945 1379 0.724237 0.689551 0.000000
-1.592237 -1.591650 -0.334150 1373 0.724237 0.689551 0.000000
-1.593857 -1.592259 -0.434011 1393 0.724237 0.689551 0.000000
-1.594197 -1.592611 -0.433388 1397 0.724237 0.689551 0.000000
-1.593732 -1.592144 -0.432552 1393 0.724237 0.689551 0.000000
-1.593473 -1.591882 -0.431765 1389 0.724237 0.689551 0.000000
-1.594115 -1.592530 -0.431219 1397 0.724237 0.689551 0.000000
-1.594517 -1.592932 -0.430605 1399 0.724237 0.689551 0.000000
-1.593956 -1.592360 -0.429740 1395 0.724237 0.689551 0.000000
-1.593539 -1.591945 -0.428914 1383 0.724237 0.689551 0.000000
-1.593624 -1.592039 -0.428223 1391 0.724237 0.689551 0.000000
-1.593667 -1.592073 -0.427513 1391 0.724237 0.689551 0.000000
-1.593808 -1.592225 -0.426841 1391 0.724237 0.689551 0.000000
-1.593948 -1.592363 -0.426160 1387 0.724237 0.689551 0.000000
-1.594047 -1.592456 -0.425469 1391 0.724237 0.689551 0.000000
-1.594028 -1.592440 -0.424749 1385 0.724237 0.689551 0.000000
-1.594334 -1.592738 -0.424106 1385 0.724237 0.689551 0.000000
-1.594116 -1.592522 -0.423339 1385 0.724237 0.689551 0.000000
-1.593699 -1.592106 -0.422513 1377 0.724237 0.689551 0.000000
-1.594086 -1.592496 -0.421899 1383 0.724237 0.689551 0.000000
-1.594171 -1.592590 -0.421208 1379 0.724237 0.689551 0.000000
-1.593714 -1.592129 -0.420372 1379 0.724237 0.689551 0.000000
-1.593343 -1.591751 -0.419556 1379 0.724237 0.689551 0.000000
-1.593428 -1.591845 -0.418865 1379 0.724237 0.689551 0.000000
-1.593122 -1.591532 -0.418068 1379 0.724237 0.689551 0.000000
-1.593151 -1.591567 -0.417368 1379 0.724237 0.689551 0.000000
-1.593656 -1.592065 -0.416783 1385 0.724237 0.689551 0.000000
-1.594250 -1.592661 -0.416217 1395 0.724237 0.689551 0.000000
-1.594080 -1.592497 -0.415459 1387 0.724237 0.689551 0.000000
-1.593567 -1.591978 -0.414614 1377 0.724237 0.689551 0.000000
-1.593094 -1.591504 -0.413778 1363 0.724237 0.689551 0.000000
-1.593233 -1.591642 -0.413097 1365 0.724237 0.689551 0.000000
-1.593628 -1.592038 -0.412483 1381 0.724237 0.689551 0.000000
-1.593561 -1.591970 -0.411754 1391 0.724237 0.689551 0.000000
-1.593549 -1.591960 -0.411034 1381 0.724237 0.689551 0.000000
-1.593689 -1.592098 -0.410352 1383 0.724237 0.689551 0.000000
-1.594339 -1.592752 -0.409806 1389 0.724237 0.689551 0.000000
-1.594677 -1.593089 -0.409173 1397 0.724237 0.689551 0.000000
-1.594411 -1.592822 -0.408395 1393 0.724237 0.689551 0.000000
-1.594145 -1.592554 -0.407618 1399 0.724237 0.689551 0.000000
-1.593817 -1.592236 -0.406821 1401 0.724237 0.689551 0.000000
-1.593295 -1.591710 -0.405966 1403 0.724237 0.689551 0.000000
-1.592774 -1.591185 -0.405131 1393 0.724237 0.689551 0.000000
-1.593058 -1.591478 -0.404488 1387 0.724237 0.689551 0.000000
-1.593706 -1.592118 -0.403932 1379 0.724237 0.689551 0.000000
-1.593338 -1.591754 -0.403126 1373 0.724237 0.689551 0.000000
-1.593120 -1.591538 -0.402358 1377 0.724237 0.689551 0.000000
-1.593609 -1.592024 -0.401773 1389 0.724237 0.689551 0.000000
-1.593900 -1.592310 -0.401130 1395 0.724237 0.689551 0.000000
-1.593937 -1.592352 -0.400420 1393 0.724237 0.689551 0.000000
-1.593821 -1.592232 -0.399681 1393 0.724237 0.689551 0.000000
-1.593493 -1.591914 -0.398884 1383 0.724237 0.689551 0.000000
-1.593329 -1.591742 -0.398136 1373 0.724237 0.689551 0.000000
-1.593469 -1.591880 -0.397454 1375 0.724237 0.689551 0.000000
-1.593498 -1.591916 -0.396754 1387 0.724237 0.689551 0.000000
-1.593383 -1.591796 -0.396005 1381 0.724237 0.689551 0.000000
-1.593468 -1.591890 -0.395314 1383 0.724237 0.689551 0.000000
-1.593249 -1.591660 -0.394546 1385 0.724237 0.689551 0.000000
-1.593326 -1.591747 -0.393855 1383 0.724237 0.689551 0.000000
-1.593512 -1.591923 -0.393194 1379 0.724237 0.689551 0.000000
-1.593955 -1.592371 -0.392589 1385 0.724237 0.689551 0.000000
-1.594955 -1.593372 -0.392120 1393 0.724237 0.689551 0.000000
-1.594936 -1.593356 -0.391400 1393 0.724237 0.689551 0.000000
-1.594111 -1.592521 -0.390488 1379 0.724237 0.689551 0.000000
-1.593369 -1.591791 -0.389595 1369 0.724237 0.689551 0.000000
-1.592848 -1.591265 -0.388760 1375 0.724237 0.689551 0.000000
-1.592671 -1.591095 -0.388002 1375 0.724237 0.689551 0.000000
-1.593009 -1.591432 -0.387378 1381 0.724237 0.689551 0.000000
-1.593609 -1.592020 -0.386803 1385 0.724237 0.689551 0.000000
-1.593996 -1.592410 -0.386189 1391 0.724237 0.689551 0.000000
-1.593819 -1.592240 -0.385430 1385 0.724237 0.689551 0.000000
-1.593496 -1.591914 -0.384644 1379 0.724237 0.689551 0.000000
-1.592913 -1.591338 -0.383789 1371 0.724237 0.689551 0.000000
-1.592893 -1.591308 -0.383079 1367 0.724237 0.689551 0.000000
-1.592564 -1.590990 -0.382293 1379 0.724237 0.689551 0.000000
-1.592497 -1.590921 -0.381563 1387 0.724237 0.689551 0.000000
-1.592780 -1.591201 -0.380920 1387 0.724237 0.689551 0.000000
-1.592863 -1.591281 -0.380230 1381 0.724237 0.689551 0.000000
-1.593250 -1.591670 -0.379606 1371 0.724237 0.689551 0.000000
-1.593231 -1.591654 -0.378896 1369 0.724237 0.689551 0.000000
-1.593212 -1.591638 -0.378176 1371 0.724237 0.689551 0.000000
-1.593447 -1.591866 -0.377524 1373 0.724237 0.689551 0.000000
-1.593627 -1.592049 -0.376852 1371 0.724237 0.689551 0.000000
-1.594014 -1.592439 -0.376228 1377 0.724237 0.689551 0.000000
-1.593993 -1.592409 -0.375519 1379 0.724237 0.689551 0.000000
-1.593203 -1.591627 -0.374626 1373 0.724237 0.689551 0.000000
-1.592363 -1.590779 -0.373714 1371 0.724237 0.689551 0.000000
-1.592035 -1.590461 -0.372927 1369 0.724237 0.689551 0.000000
-1.592422 -1.590850 -0.372314 1369 0.724237 0.689551 0.000000
-1.593014 -1.591432 -0.371738 1379 0.724237 0.689551 0.000000
-1.593449 -1.591873 -0.371124 1393 0.724237 0.689551 0.000000
-1.593731 -1.592153 -0.370481 1389 0.724237 0.689551 0.000000
-1.593608 -1.592027 -0.369742 1385 0.724237 0.689551 0.000000
-1.593637 -1.592062 -0.369042 1387 0.724237 0.689551 0.000000
-1.593149 -1.591576 -0.368217 1379 0.724237 0.689551 0.000000
-1.592413 -1.590838 -0.367344 1359 0.724237 0.689551 0.000000
-1.592648 -1.591066 -0.366681 1355 0.724237 0.689551 0.000000
-1.593186 -1.591603 -0.366096 1361 0.724237 0.689551 0.000000
-1.593167 -1.591587 -0.365386 1369 0.724237 0.689551 0.000000
-1.593298 -1.591719 -0.364705 1373 0.724237 0.689551 0.000000
-1.593573 -1.591992 -0.364062 1373 0.724237 0.689551 0.000000
-1.594064 -1.592492 -0.363457 1377 0.724237 0.689551 0.000000
-1.594546 -1.592971 -0.362863 1381 0.724237 0.689551 0.000000
-1.594319 -1.592735 -0.362095 1383 0.724237 0.689551 0.000000
-1.593886 -1.592307 -0.361289 1375 0.724237 0.689551 0.000000
-1.593502 -1.591931 -0.360493 1379 0.724237 0.689551 0.000000
-1.593688 -1.592106 -0.359831 1385 0.724237 0.689551 0.000000
-1.594170 -1.592586 -0.359226 1393 0.724237 0.689551 0.000000
-1.594151 -1.592569 -0.358517 1391 0.724237 0.689551 0.000000
-1.593869 -1.592289 -0.357739 1387 0.724237 0.689551 0.000000
-1.593532 -1.591951 -0.356953 1381 0.724237 0.689551 0.000000
-1.593250 -1.591671 -0.356185 1379 0.724237 0.689551 0.000000
-1.593065 -1.591494 -0.355437 1379 0.724237 0.689551 0.000000
-1.593092 -1.591516 -0.354737 1379 0.724237 0.689551 0.000000
-1.593789 -1.592207 -0.354180 1383 0.724237 0.689551 0.000000
-1.594678 -1.593106 -0.353661 1393 0.724237 0.689551 0.000000
-1.594649 -1.593070 -0.352952 1393 0.724237 0.689551 0.000000
-1.594058 -1.592487 -0.352117 1383 0.724237 0.689551 0.000000
-1.593728 -1.592155 -0.351330 1379 0.724237 0.689551 0.000000
-1.593501 -1.591919 -0.350573 1377 0.724237 0.689551 0.000000
-1.593364 -1.591794 -0.349834 1375 0.724237 0.689551 0.000000
-1.593542 -1.591964 -0.349172 1373 0.724237 0.689551 0.000000
-1.593667 -1.592089 -0.348491 1373 0.724237 0.689551 0.000000
-1.593027 -1.591455 -0.347637 1373 0.724237 0.689551 0.000000
-1.591926 -1.590357 -0.346698 1369 0.724237 0.689551 0.000000
-1.591493 -1.589915 -0.345902 1369 0.724237 0.689551 0.000000
-1.592022 -1.590446 -0.345307 1377 0.724237 0.689551 0.000000
-1.592401 -1.590829 -0.344673 1381 0.724237 0.689551 0.000000
-1.592835 -1.591257 -0.344059 1381 0.724237 0.689551 0.000000
-1.592911 -1.591330 -0.343368 1379 0.724237 0.689551 0.000000
-1.592161 -1.590594 -0.342506 1371 0.724237 0.689551 0.000000
-1.591727 -1.590152 -0.341710 1363 0.724237 0.689551 0.000000
-1.592106 -1.590535 -0.341076 1363 0.724237 0.689551 0.000000
-1.592794 -1.591220 -0.340519 1367 0.724237 0.689551 0.000000
-1.593174 -1.591604 -0.339896 1379 0.724237 0.689551 0.000000
-1.593448 -1.591877 -0.339243 1385 0.724237 0.689551 0.000000
-1.593628 -1.592060 -0.338571 1385 0.724237 0.689551 0.000000
-1.592980 -1.591406 -0.337727 1379 0.724237 0.689551 0.000000
-1.592540 -1.590972 -0.336932 1377 0.724237 0.689551 0.000000
-1.593427 -1.591857 -0.336413 1387 0.724237 0.689551 0.000000
-1.593917 -1.592342 -0.335808 1397 0.724237 0.689551 0.000000
-1.593627 -1.592056 -0.335041 1395 0.724237 0.689551 0.000000
-1.593290 -1.591717 -0.334264 1385 0.724237 0.689551 0.000000
-1.593103 -1.591527 -0.333516 1377 0.724237 0.689551 0.000000
-1.594406 -1.591803 -0.434031 1393 0.724237 0.689551 0.000000
-1.594849 -1.592251 -0.433437 1393 0.724237 0.689551 0.000000
-1.594894 -1.592300 -0.432726 1395 0.724237 0.689551 0.000000
-1.594786 -1.592186 -0.431977 1399 0.724237 0.689551 0.000000
-1.594982 -1.592382 -0.431315 1407 0.724237 0.689551 0.000000
-1.594922 -1.592320 -0.430586 1399 0.724237 0.689551 0.000000
-1.594656 -1.592052 -0.429798 1393 0.724237 0.689551 0.000000
-1.594446 -1.591843 -0.429020 1389 0.724237 0.689551 0.000000
-1.594531 -1.591937 -0.428330 1387 0.724237 0.689551 0.000000
-1.594321 -1.591727 -0.427552 1383 0.724237 0.689551 0.000000
-1.594054 -1.591460 -0.426774 1381 0.724237 0.689551 0.000000
-1.594656 -1.592061 -0.426208 1385 0.724237 0.689551 0.000000
-1.594747 -1.592147 -0.425517 1387 0.724237 0.689551 0.000000
-1.594282 -1.591680 -0.424682 1389 0.724237 0.689551 0.000000
-1.593762 -1.591168 -0.423827 1387 0.724237 0.689551 0.000000
-1.593400 -1.590797 -0.423020 1377 0.724237 0.689551 0.000000
-1.593939 -1.591349 -0.422445 1375 0.724237 0.689551 0.000000
-1.594492 -1.591898 -0.421870 1377 0.724237 0.689551 0.000000
-1.594385 -1.591785 -0.421131 1381 0.724237 0.689551 0.000000
-1.593912 -1.591311 -0.420285 1381 0.724237 0.689551 0.000000
-1.593893 -1.591295 -0.419576 1377 0.724237 0.689551 0.000000
-1.594446 -1.591845 -0.419000 1381 0.724237 0.689551 0.000000
-1.594738 -1.592145 -0.418357 1387 0.724237 0.689551 0.000000
-1.594733 -1.592127 -0.417637 1389 0.724237 0.689551 0.000000
-1.594770 -1.592169 -0.416937 1395 0.724237 0.689551 0.000000
-1.594799 -1.592205 -0.416227 1397 0.724237 0.689551 0.000000
-1.594796 -1.592202 -0.415517 1387 0.724237 0.689551 0.000000
-1.594116 -1.591522 -0.414623 1375 0.724237 0.689551 0.000000
-1.593802 -1.591202 -0.413826 1357 0.724237 0.689551 0.000000
-1.594196 -1.591598 -0.413212 1369 0.724237 0.689551 0.000000
-1.594639 -1.592046 -0.412618 1375 0.724237 0.689551 0.000000
-1.594524 -1.591926 -0.411869 1381 0.724237 0.689551 0.000000
-1.594099 -1.591504 -0.411043 1371 0.724237 0.689551 0.000000
-1.594548 -1.591944 -0.410449 1377 0.724237 0.689551 0.000000
-1.595246 -1.592650 -0.409912 1393 0.724237 0.689551 0.000000
-1.594980 -1.592382 -0.409125 1397 0.724237 0.689551 0.000000
-1.594348 -1.591754 -0.408251 1395 0.724237 0.689551 0.000000
-1.594288 -1.591692 -0.407521 1393 0.724237 0.689551 0.000000
-1.593864 -1.591270 -0.406705 1395 0.724237 0.689551 0.000000
-1.593391 -1.590797 -0.405870 1383 0.724237 0.689551 0.000000
-1.593530 -1.590935 -0.405189 1375 0.724237 0.689551 0.000000
-1.593821 -1.591220 -0.404546 1375 0.724237 0.689551 0.000000
-1.594470 -1.591874 -0.404000 1373 0.724237 0.689551 0.000000
-1.594865 -1.592270 -0.403386 1377 0.724237 0.689551 0.000000
-1.595196 -1.592602 -0.402753 1397 0.724237 0.689551 0.000000
-1.595185 -1.592592 -0.402033 1405 0.724237 0.689551 0.000000
-1.594664 -1.592066 -0.401188 1399 0.724237 0.689551 0.000000
-1.594040 -1.591444 -0.400324 1385 0.724237 0.689551 0.000000
-1.593862 -1.591274 -0.399565 1387 0.724237 0.689551 0.000000
-1.593444 -1.590845 -0.398749 1379 0.724237 0.689551 0.000000
-1.593632 -1.591034 -0.398088 1375 0.724237 0.689551 0.000000
-1.593860 -1.591270 -0.397425 1379 0.724237 0.689551 0.000000
-1.593236 -1.590648 -0.396561 1381 0.724237 0.689551 0.000000
-1.593223 -1.590624 -0.395842 1379 0.724237 0.689551 0.000000
-1.593610 -1.591014 -0.395228 1383 0.724237 0.689551 0.000000
-1.593543 -1.590946 -0.394498 1389 0.724237 0.689551 0.000000
-1.593580 -1.590988 -0.393798 1385 0.724237 0.689551 0.000000
-1.594228 -1.591628 -0.393242 1385 0.724237 0.689551 0.000000
-1.594615 -1.592017 -0.392618 1387 0.724237 0.689551 0.000000
-1.594238 -1.591647 -0.391822 1391 0.724237 0.689551 0.000000
-1.593454 -1.590858 -0.390919 1381 0.724237 0.689551 0.000000
-1.593491 -1.590900 -0.390219 1365 0.724237 0.689551 0.000000
-1.594029 -1.591437 -0.389634 1371 0.724237 0.689551 0.000000
-1.594120 -1.591523 -0.388943 1385 0.724237 0.689551 0.000000
-1.593895 -1.591301 -0.388175 1381 0.724237 0.689551 0.000000
-1.594075 -1.591484 -0.387503 1387 0.724237 0.689551 0.000000
-1.594978 -1.592382 -0.387014 1393 0.724237 0.689551 0.000000
-1.594911 -1.592314 -0.386285 1393 0.724237 0.689551 0.000000
-1.593968 -1.591370 -0.385344 1385 0.724237 0.689551 0.000000
-1.593640 -1.591052 -0.384557 1375 0.724237 0.689551 0.000000
-1.593930 -1.591338 -0.383914 1373 0.724237 0.689551 0.000000
-1.594476 -1.591882 -0.383329 1375 0.724237 0.689551 0.000000
-1.594353 -1.591756 -0.382590 1383 0.724237 0.689551 0.000000
-1.593817 -1.591231 -0.381755 1387 0.724237 0.689551 0.000000
-1.593488 -1.590899 -0.380969 1381 0.724237 0.689551 0.000000
-1.592959 -1.590367 -0.380134 1379 0.724237 0.689551 0.000000
-1.592836 -1.590241 -0.379395 1375 0.724237 0.689551 0.000000
-1.593182 -1.590585 -0.378762 1375 0.724237 0.689551 0.000000
-1.593513 -1.590917 -0.378128 1365 0.724237 0.689551 0.000000
-1.594354 -1.591764 -0.377620 1369 0.724237 0.689551 0.000000
-1.594486 -1.591895 -0.376939 1373 0.724237 0.689551 0.000000
-1.594411 -1.591821 -0.376209 1379 0.724237 0.689551 0.000000
-1.594351 -1.591760 -0.375480 1381 0.724237 0.689551 0.000000
-1.593457 -1.590867 -0.374569 1375 0.724237 0.689551 0.000000
-1.593073 -1.590491 -0.373762 1373 0.724237 0.689551 0.000000
-1.593618 -1.591035 -0.373177 1377 0.724237 0.689551 0.000000
-1.593543 -1.590961 -0.372458 1379 0.724237 0.689551 0.000000
-1.593165 -1.590577 -0.371652 1369 0.724237 0.689551 0.000000
-1.593751 -1.591166 -0.371086 1379 0.724237 0.689551 0.000000
-1.593835 -1.591246 -0.370385 1385 0.724237 0.689551 0.000000
-1.593711 -1.591120 -0.369656 1377 0.724237 0.689551 0.000000
-1.594297 -1.591709 -0.369080 1379 0.724237 0.689551 0.000000
-1.594222 -1.591635 -0.368351 1379 0.724237 0.689551 0.000000
-1.593535 -1.590948 -0.367478 1365 0.724237 0.689551 0.000000
-1.593659 -1.591074 -0.366807 1367 0.724237 0.689551 0.000000
-1.594411 -1.591824 -0.366259 1377 0.724237 0.689551 0.000000
-1.594796 -1.592199 -0.365636 1383 0.724237 0.689551 0.000000
-1.594770 -1.592177 -0.364926 1379 0.724237 0.689551 0.000000
-1.594592 -1.592006 -0.364177 1385 0.724237 0.689551 0.000000
-1.594827 -1.592234 -0.363515 1381 0.724237 0.689551 0.000000
-1.594593 -1.592006 -0.362757 1377 0.724237 0.689551 0.000000
-1.594207 -1.591615 -0.361961 1377 0.724237 0.689551 0.000000
-1.593775 -1.591187 -0.361155 1375 0.724237 0.689551 0.000000
-1.593804 -1.591223 -0.360455 1375 0.724237 0.689551 0.000000
-1.594699 -1.592114 -0.359936 1385 0.724237 0.689551 0.000000
-1.595030 -1.592446 -0.359303 1391 0.724237 0.689551 0.000000
-1.595114 -1.592525 -0.358612 1387 0.724237 0.689551 0.000000
-1.594983 -1.592393 -0.357873 1391 0.724237 0.689551 0.000000
-1.594295 -1.591707 -0.357010 1379 0.724237 0.689551 0.000000
-1.594062 -1.591479 -0.356252 1379 0.724237 0.689551 0.000000
-1.593780 -1.591198 -0.355485 1373 0.724237 0.689551 0.000000
-1.594007 -1.591420 -0.354823 1373 0.724237 0.689551 0.000000
-1.594800 -1.592215 -0.354295 1389 0.724237 0.689551 0.000000
-1.595440 -1.592848 -0.353719 1403 0.724237 0.689551 0.000000
-1.595516 -1.592922 -0.353028 1403 0.724237 0.689551 0.000000
-1.594981 -1.592398 -0.352203 1393 0.724237 0.689551 0.000000
-1.594794 -1.592207 -0.351455 1393 0.724237 0.689551 0.000000
-1.595076 -1.592487 -0.350802 1391 0.724237 0.689551 0.000000
-1.595152 -1.592560 -0.350112 1385 0.724237 0.689551 0.000000
-1.594664 -1.592074 -0.349306 1375 0.724237 0.689551 0.000000
-1.594017 -1.591434 -0.348453 1367 0.724237 0.689551 0.000000
-1.593274 -1.590690 -0.347590 1371 0.724237 0.689551 0.000000
-1.593301 -1.590711 -0.346880 1369 0.724237 0.689551 0.000000
-1.594038 -1.591448 -0.346332 1373 0.724237 0.689551 0.000000
-1.593804 -1.591220 -0.345575 1375 0.724237 0.689551 0.000000
-1.593722 -1.591139 -0.344855 1377 0.724237 0.689551 0.000000
-1.594060 -1.591477 -0.344212 1379 0.724237 0.689551 0.000000
-1.593412 -1.590823 -0.343368 1379 0.724237 0.689551 0.000000
-1.592724 -1.590137 -0.342515 1373 0.724237 0.689551 0.000000
-1.592642 -1.590056 -0.341796 1367 0.724237 0.689551 0.000000
-1.593123 -1.590535 -0.341191 1367 0.724237 0.689551 0.000000
-1.593806 -1.591228 -0.340624 1369 0.724237 0.689551 0.000000
-1.594295 -1.591714 -0.340020 1375 0.724237 0.689551 0.000000
-1.594522 -1.591935 -0.339357 1387 0.724237 0.689551 0.000000
-1.594487 -1.591906 -0.338648 1387 0.724237 0.689551 0.000000
-1.594205 -1.591626 -0.337880 1377 0.724237 0.689551 0.000000
-1.594019 -1.591436 -0.337132 1379 0.724237 0.689551 0.000000
-1.594046 -1.591457 -0.336432 1389 0.724237 0.689551 0.000000
-1.594576 -1.591988 -0.335837 1397 0.724237 0.689551 0.000000
-1.594741 -1.592159 -0.335165 1391 0.724237 0.689551 0.000000
-1.594108 -1.591518 -0.334321 1381 0.724237 0.689551 0.000000
-1.594073 -1.591489 -0.333612 1375 0.724237 0.689551 0.000000
-1.595170 -1.591560 -0.434098 1395 0.724237 0.689551 0.000000
-1.595358 -1.591750 -0.433437 1393 0.724237 0.689551 0.000000
-1.595250 -1.591636 -0.432688 1389 0.724237 0.689551 0.000000
-1.595343 -1.591736 -0.431997 1389 0.724237 0.689551 0.000000
-1.595434 -1.591822 -0.431306 1395 0.724237 0.689551 0.000000
-1.595375 -1.591761 -0.430566 1391 0.724237 0.689551 0.000000
-1.595165 -1.591551 -0.429798 1391 0.724237 0.689551 0.000000
-1.595360 -1.591747 -0.429127 1391 0.724237 0.689551 0.000000
-1.595191 -1.591583 -0.428368 1385 0.724237 0.689551 0.000000
-1.594470 -1.590858 -0.427465 1377 0.724237 0.689551 0.000000
-1.594762 -1.591158 -0.426822 1377 0.724237 0.689551 0.000000
-1.595577 -1.591958 -0.426324 1385 0.724237 0.689551 0.000000
-1.595359 -1.591742 -0.425547 1387 0.724237 0.689551 0.000000
-1.594178 -1.590567 -0.424518 1377 0.724237 0.689551 0.000000
-1.593707 -1.590107 -0.423682 1373 0.724237 0.689551 0.000000
-1.594053 -1.590451 -0.423059 1375 0.724237 0.689551 0.000000
-1.594193 -1.590589 -0.422378 1381 0.724237 0.689551 0.000000
-1.594236 -1.590623 -0.421677 1383 0.724237 0.689551 0.000000
-1.594735 -1.591129 -0.421092 1387 0.724237 0.689551 0.000000
-1.595025 -1.591415 -0.420450 1385 0.724237 0.689551 0.000000
-1.594912 -1.591309 -0.419701 1381 0.724237 0.689551 0.000000
-1.595409 -1.591801 -0.419116 1383 0.724237 0.689551 0.000000
-1.595604 -1.591997 -0.418454 1389 0.724237 0.689551 0.000000
-1.595282 -1.591671 -0.417657 1381 0.724237 0.689551 0.000000
-1.595279 -1.591668 -0.416937 1383 0.724237 0.689551 0.000000
-1.595212 -1.591600 -0.416208 1381 0.724237 0.689551 0.000000
-1.595090 -1.591488 -0.415459 1383 0.724237 0.689551 0.000000
-1.595237 -1.591632 -0.414777 1381 0.724237 0.689551 0.000000
-1.595074 -1.591460 -0.414019 1371 0.724237 0.689551 0.000000
-1.594848 -1.591238 -0.413251 1373 0.724237 0.689551 0.000000
-1.594995 -1.591382 -0.412570 1375 0.724237 0.689551 0.000000
-1.595183 -1.591572 -0.411908 1379 0.724237 0.689551 0.000000
-1.594863 -1.591260 -0.411111 1373 0.724237 0.689551 0.000000
-1.594540 -1.590934 -0.410314 1373 0.724237 0.689551 0.000000
-1.594322 -1.590719 -0.409546 1379 0.724237 0.689551 0.000000
-1.594255 -1.590650 -0.408817 1389 0.724237 0.689551 0.000000
-1.594148 -1.590537 -0.408068 1387 0.724237 0.689551 0.000000
-1.593970 -1.590367 -0.407320 1387 0.724237 0.689551 0.000000
-1.594317 -1.590711 -0.406686 1383 0.724237 0.689551 0.000000
-1.593948 -1.590347 -0.405880 1379 0.724237 0.689551 0.000000
-1.593419 -1.589815 -0.405035 1375 0.724237 0.689551 0.000000
-1.594179 -1.590571 -0.404507 1381 0.724237 0.689551 0.000000
-1.594971 -1.591366 -0.404000 1383 0.724237 0.689551 0.000000
-1.595620 -1.592006 -0.403443 1399 0.724237 0.689551 0.000000
-1.595657 -1.592048 -0.402743 1407 0.724237 0.689551 0.000000
-1.594977 -1.591368 -0.401860 1399 0.724237 0.689551 0.000000
-1.594504 -1.590895 -0.401024 1389 0.724237 0.689551 0.000000
-1.594238 -1.590627 -0.400247 1379 0.724237 0.689551 0.000000
-1.594060 -1.590457 -0.399488 1383 0.724237 0.689551 0.000000
-1.594350 -1.590742 -0.398846 1385 0.724237 0.689551 0.000000
-1.594896 -1.591286 -0.398270 1393 0.724237 0.689551 0.000000
-1.594981 -1.591380 -0.397579 1399 0.724237 0.689551 0.000000
-1.594205 -1.590596 -0.396677 1387 0.724237 0.689551 0.000000
-1.593216 -1.589615 -0.395717 1381 0.724237 0.689551 0.000000
-1.593452 -1.589857 -0.395064 1381 0.724237 0.689551 0.000000
-1.594458 -1.590850 -0.394604 1387 0.724237 0.689551 0.000000
-1.594495 -1.590892 -0.393894 1391 0.724237 0.689551 0.000000
-1.594062 -1.590464 -0.393078 1385 0.724237 0.689551 0.000000
-1.593987 -1.590390 -0.392349 1379 0.724237 0.689551 0.000000
-1.594229 -1.590624 -0.391697 1383 0.724237 0.689551 0.000000
-1.594315 -1.590718 -0.391006 1381 0.724237 0.689551 0.000000
-1.594509 -1.590900 -0.390334 1373 0.724237 0.689551 0.000000
-1.594895 -1.591289 -0.389720 1385 0.724237 0.689551 0.000000
-1.594670 -1.591067 -0.388952 1385 0.724237 0.689551 0.000000
-1.594086 -1.590491 -0.388098 1381 0.724237 0.689551 0.000000
-1.593668 -1.590062 -0.387292 1379 0.724237 0.689551 0.000000
-1.594213 -1.590605 -0.386707 1383 0.724237 0.689551 0.000000
-1.594544 -1.590937 -0.386073 1383 0.724237 0.689551 0.000000
-1.593714 -1.590109 -0.385162 1375 0.724237 0.689551 0.000000
-1.593273 -1.589675 -0.384356 1365 0.724237 0.689551 0.000000
-1.593875 -1.590276 -0.383780 1359 0.724237 0.689551 0.000000
-1.595079 -1.591470 -0.383358 1367 0.724237 0.689551 0.000000
-1.595109 -1.591506 -0.382648 1385 0.724237 0.689551 0.000000
-1.594731 -1.591122 -0.381852 1387 0.724237 0.689551 0.000000
-1.594354 -1.590751 -0.381055 1377 0.724237 0.689551 0.000000
-1.594032 -1.590425 -0.380258 1379 0.724237 0.689551 0.000000
-1.594164 -1.590557 -0.379587 1385 0.724237 0.689551 0.000000
-1.594034 -1.590439 -0.378848 1385 0.724237 0.689551 0.000000
-1.593815 -1.590209 -0.378080 1375 0.724237 0.689551 0.000000
-1.594352 -1.590746 -0.377495 1375 0.724237 0.689551 0.000000
-1.595043 -1.591446 -0.376948 1383 0.724237 0.689551 0.000000
-1.594514 -1.590914 -0.376113 1383 0.724237 0.689551 0.000000
-1.594240 -1.590640 -0.375336 1379 0.724237 0.689551 0.000000
-1.594721 -1.591119 -0.374741 1381 0.724237 0.689551 0.000000
-1.594751 -1.591155 -0.374041 1379 0.724237 0.689551 0.000000
-1.594684 -1.591087 -0.373312 1377 0.724237 0.689551 0.000000
-1.594257 -1.590651 -0.372496 1373 0.724237 0.689551 0.000000
-1.593666 -1.590069 -0.371652 1365 0.724237 0.689551 0.000000
-1.594053 -1.590458 -0.371038 1371 0.724237 0.689551 0.000000
-1.594542 -1.590944 -0.370433 1375 0.724237 0.689551 0.000000
-1.594516 -1.590921 -0.369723 1377 0.724237 0.689551 0.000000
-1.594599 -1.591001 -0.369033 1383 0.724237 0.689551 0.000000
-1.594882 -1.591281 -0.368380 1379 0.724237 0.689551 0.000000
-1.594910 -1.591303 -0.367679 1371 0.724237 0.689551 0.000000
-1.595296 -1.591692 -0.367056 1379 0.724237 0.689551 0.000000
-1.595428 -1.591824 -0.366374 1391 0.724237 0.689551 0.000000
-1.594996 -1.591396 -0.365569 1385 0.724237 0.689551 0.000000
-1.595279 -1.591675 -0.364926 1383 0.724237 0.689551 0.000000
-1.595507 -1.591911 -0.364263 1391 0.724237 0.689551 0.000000
-1.595328 -1.591726 -0.363515 1383 0.724237 0.689551 0.000000
-1.595150 -1.591556 -0.362767 1377 0.724237 0.689551 0.000000
-1.594867 -1.591262 -0.361990 1375 0.724237 0.689551 0.000000
-1.594491 -1.590892 -0.361203 1377 0.724237 0.689551 0.000000
-1.594257 -1.590663 -0.360436 1381 0.724237 0.689551 0.000000
-1.594030 -1.590427 -0.359678 1383 0.724237 0.689551 0.000000
-1.594162 -1.590559 -0.358997 1379 0.724237 0.689551 0.000000
-1.594739 -1.591142 -0.358421 1383 0.724237 0.689551 0.000000
-1.594974 -1.591370 -0.357759 1387 0.724237 0.689551 0.000000
-1.594741 -1.591141 -0.357001 1387 0.724237 0.689551 0.000000
-1.594260 -1.590661 -0.356185 1373 0.724237 0.689551 0.000000
-1.593827 -1.590233 -0.355380 1361 0.724237 0.689551 0.000000
-1.594405 -1.590816 -0.354804 1371 0.724237 0.689551 0.000000
-1.595459 -1.591861 -0.354324 1395 0.724237 0.689551 0.000000
-1.595384 -1.591787 -0.353594 1401 0.724237 0.689551 0.000000
-1.594482 -1.590889 -0.352693 1387 0.724237 0.689551 0.000000
-1.594510 -1.590910 -0.351993 1383 0.724237 0.689551 0.000000
-1.595199 -1.591596 -0.351436 1393 0.724237 0.689551 0.000000
-1.595274 -1.591669 -0.350745 1387 0.724237 0.689551 0.000000
-1.595248 -1.591647 -0.350026 1383 0.724237 0.689551 0.000000
-1.594815 -1.591219 -0.349220 1371 0.724237 0.689551 0.000000
-1.594574 -1.590984 -0.348462 1367 0.724237 0.689551 0.000000
-1.594443 -1.590852 -0.347733 1377 0.724237 0.689551 0.000000
-1.594360 -1.590771 -0.347004 1375 0.724237 0.689551 0.000000
-1.594293 -1.590703 -0.346285 1369 0.724237 0.689551 0.000000
-1.593956 -1.590365 -0.345498 1365 0.724237 0.689551 0.000000
-1.594024 -1.590432 -0.344808 1367 0.724237 0.689551 0.000000
-1.594403 -1.590815 -0.344184 1373 0.724237 0.689551 0.000000
-1.594175 -1.590579 -0.343426 1373 0.724237 0.689551 0.000000
-1.594093 -1.590498 -0.342707 1373 0.724237 0.689551 0.000000
-1.594376 -1.590778 -0.342054 1371 0.724237 0.689551 0.000000
-1.594548 -1.590955 -0.341382 1375 0.724237 0.689551 0.000000
-1.594672 -1.591081 -0.340701 1371 0.724237 0.689551 0.000000
-1.594850 -1.591250 -0.340029 1373 0.724237 0.689551 0.000000
-1.594975 -1.591375 -0.339348 1379 0.724237 0.689551 0.000000
-1.594637 -1.591037 -0.338571 1381 0.724237 0.689551 0.000000
-1.595016 -1.591420 -0.337948 1381 0.724237 0.689551 0.000000
-1.595036 -1.591436 -0.337237 1379 0.724237 0.689551 0.000000
-1.594548 -1.590949 -0.336432 1381 0.724237 0.689551 0.000000
-1.594671 -1.591075 -0.335751 1387 0.724237 0.689551 0.000000
-1.594685 -1.591098 -0.335051 1381 0.724237 0.689551 0.000000
-1.594657 -1.591062 -0.334341 1379 0.724237 0.689551 0.000000
-1.594884 -1.591283 -0.333679 1379 0.724237 0.689551 0.000000
-1.595554 -1.590957 -0.434070 1399 0.724237 0.689551 0.000000
-1.595702 -1.591102 -0.433388 1393 0.724237 0.689551 0.000000
-1.595642 -1.591040 -0.432659 1389 0.724237 0.689551 0.000000
-1.595948 -1.591338 -0.432026 1389 0.724237 0.689551 0.000000
-1.596335 -1.591728 -0.431412 1389 0.724237 0.689551 0.000000
-1.596173 -1.591570 -0.430654 1389 0.724237 0.689551 0.000000
-1.595605 -1.591007 -0.429779 1391 0.724237 0.689551 0.000000
-1.595092 -1.590487 -0.428924 1387 0.724237 0.689551 0.000000
-1.594771 -1.590176 -0.428127 1381 0.724237 0.689551 0.000000
-1.594918 -1.590320 -0.427446 1379 0.724237 0.689551 0.000000
-1.595623 -1.591018 -0.426919 1385 0.724237 0.689551 0.000000
-1.596224 -1.591620 -0.426363 1387 0.724237 0.689551 0.000000
-1.595441 -1.590844 -0.425441 1379 0.724237 0.689551 0.000000
-1.593966 -1.589365 -0.424335 1369 0.724237 0.689551 0.000000
-1.593796 -1.589201 -0.423577 1367 0.724237 0.689551 0.000000
-1.594803 -1.590209 -0.423127 1371 0.724237 0.689551 0.000000
-1.595142 -1.590546 -0.422493 1385 0.724237 0.689551 0.000000
-1.594835 -1.590233 -0.421696 1391 0.724237 0.689551 0.000000
-1.595388 -1.590783 -0.421131 1397 0.724237 0.689551 0.000000
-1.596085 -1.591475 -0.420594 1397 0.724237 0.689551 0.000000
-1.595812 -1.591215 -0.419807 1379 0.724237 0.689551 0.000000
-1.595291 -1.590689 -0.418962 1375 0.724237 0.689551 0.000000
-1.595177 -1.590583 -0.418213 1379 0.724237 0.689551 0.000000
-1.595070 -1.590470 -0.417474 1377 0.724237 0.689551 0.000000
-1.595257 -1.590660 -0.416802 1377 0.724237 0.689551 0.000000
-1.595445 -1.590850 -0.416140 1383 0.724237 0.689551 0.000000
-1.595386 -1.590788 -0.415411 1385 0.724237 0.689551 0.000000
-1.595477 -1.590874 -0.414720 1379 0.724237 0.689551 0.000000
-1.595315 -1.590716 -0.413962 1377 0.724237 0.689551 0.000000
-1.595963 -1.591356 -0.413405 1381 0.724237 0.689551 0.000000
-1.596509 -1.591900 -0.412830 1395 0.724237 0.689551 0.000000
-1.595830 -1.591234 -0.411946 1387 0.724237 0.689551 0.000000
-1.595151 -1.590554 -0.411063 1375 0.724237 0.689551 0.000000
-1.594989 -1.590397 -0.410305 1373 0.724237 0.689551 0.000000
-1.595327 -1.590734 -0.409671 1383 0.724237 0.689551 0.000000
-1.595521 -1.590916 -0.409009 1389 0.724237 0.689551 0.000000
-1.595104 -1.590501 -0.408193 1383 0.724237 0.689551 0.000000
-1.594679 -1.590079 -0.407368 1379 0.724237 0.689551 0.000000
-1.594461 -1.589863 -0.406600 1375 0.724237 0.689551 0.000000
-1.594037 -1.589441 -0.405784 1375 0.724237 0.689551 0.000000
-1.593660 -1.589071 -0.404977 1379 0.724237 0.689551 0.000000
-1.593856 -1.589267 -0.404305 1373 0.724237 0.689551 0.000000
-1.594600 -1.590011 -0.403778 1381 0.724237 0.689551 0.000000
-1.594993 -1.590392 -0.403164 1393 0.724237 0.689551 0.000000
-1.594872 -1.590281 -0.402426 1387 0.724237 0.689551 0.000000
-1.594605 -1.590013 -0.401638 1383 0.724237 0.689551 0.000000
-1.594848 -1.590247 -0.400986 1387 0.724237 0.689551 0.000000
-1.594988 -1.590385 -0.400314 1387 0.724237 0.689551 0.000000
-1.594659 -1.590067 -0.399518 1383 0.724237 0.689551 0.000000
-1.595253 -1.590662 -0.398952 1391 0.724237 0.689551 0.000000
-1.595798 -1.591206 -0.398376 1401 0.724237 0.689551 0.000000
-1.595476 -1.590880 -0.397580 1403 0.724237 0.689551 0.000000
-1.594748 -1.590148 -0.396687 1397 0.724237 0.689551 0.000000
-1.594522 -1.589926 -0.395919 1385 0.724237 0.689551 0.000000
-1.594670 -1.590070 -0.395247 1389 0.724237 0.689551 0.000000
-1.595001 -1.590402 -0.394614 1385 0.724237 0.689551 0.000000
-1.595650 -1.591056 -0.394058 1389 0.724237 0.689551 0.000000
-1.595073 -1.590472 -0.393203 1385 0.724237 0.689551 0.000000
-1.594132 -1.589542 -0.392262 1377 0.724237 0.689551 0.000000
-1.594216 -1.589622 -0.391572 1375 0.724237 0.689551 0.000000
-1.594713 -1.590114 -0.390977 1377 0.724237 0.689551 0.000000
-1.595100 -1.590503 -0.390363 1381 0.724237 0.689551 0.000000
-1.595239 -1.590641 -0.389682 1375 0.724237 0.689551 0.000000
-1.594759 -1.590161 -0.388856 1363 0.724237 0.689551 0.000000
-1.594326 -1.589733 -0.388041 1359 0.724237 0.689551 0.000000
-1.594562 -1.589975 -0.387388 1367 0.724237 0.689551 0.000000
-1.594853 -1.590261 -0.386745 1373 0.724237 0.689551 0.000000
-1.594682 -1.590083 -0.385987 1371 0.724237 0.689551 0.000000
-1.594504 -1.589912 -0.385239 1373 0.724237 0.689551 0.000000
-1.594286 -1.589697 -0.384471 1367 0.724237 0.689551 0.000000
-1.594520 -1.589924 -0.383819 1359 0.724237 0.689551 0.000000
-1.595273 -1.590674 -0.383281 1371 0.724237 0.689551 0.000000
-1.595555 -1.590954 -0.382638 1379 0.724237 0.689551 0.000000
-1.595329 -1.590731 -0.381881 1377 0.724237 0.689551 0.000000
-1.594794 -1.590207 -0.381036 1373 0.724237 0.689551 0.000000
-1.594631 -1.590036 -0.380287 1377 0.724237 0.689551 0.000000
-1.594604 -1.590013 -0.379568 1377 0.724237 0.689551 0.000000
-1.594577 -1.589991 -0.378858 1377 0.724237 0.689551 0.000000
-1.594613 -1.590019 -0.378147 1379 0.724237 0.689551 0.000000
-1.594896 -1.590298 -0.377505 1375 0.724237 0.689551 0.000000
-1.595441 -1.590842 -0.376919 1381 0.724237 0.689551 0.000000
-1.595167 -1.590568 -0.376152 1385 0.724237 0.689551 0.000000
-1.595140 -1.590546 -0.375432 1381 0.724237 0.689551 0.000000
-1.595280 -1.590683 -0.374751 1379 0.724237 0.689551 0.000000
-1.594895 -1.590307 -0.373955 1375 0.724237 0.689551 0.000000
-1.594875 -1.590277 -0.373235 1367 0.724237 0.689551 0.000000
-1.594593 -1.589997 -0.372468 1367 0.724237 0.689551 0.000000
-1.594567 -1.589974 -0.371748 1369 0.724237 0.689551 0.000000
-1.594803 -1.590216 -0.371095 1369 0.724237 0.689551 0.000000
-1.595085 -1.590496 -0.370443 1373 0.724237 0.689551 0.000000
-1.595066 -1.590479 -0.369733 1375 0.724237 0.689551 0.000000
-1.595038 -1.590443 -0.369013 1379 0.724237 0.689551 0.000000
-1.595178 -1.590581 -0.368342 1371 0.724237 0.689551 0.000000
-1.595708 -1.591112 -0.367747 1379 0.724237 0.689551 0.000000
-1.595998 -1.591398 -0.367104 1381 0.724237 0.689551 0.000000
-1.595614 -1.591022 -0.366307 1389 0.724237 0.689551 0.000000
-1.595491 -1.590895 -0.365569 1383 0.724237 0.689551 0.000000
-1.595464 -1.590873 -0.364859 1389 0.724237 0.689551 0.000000
-1.595437 -1.590851 -0.364139 1387 0.724237 0.689551 0.000000
-1.595672 -1.591078 -0.363477 1383 0.724237 0.689551 0.000000
-1.595342 -1.590746 -0.362700 1375 0.724237 0.689551 0.000000
-1.595419 -1.590834 -0.362009 1381 0.724237 0.689551 0.000000
-1.595550 -1.590952 -0.361328 1391 0.724237 0.689551 0.000000
-1.595268 -1.590671 -0.360551 1389 0.724237 0.689551 0.000000
-1.594526 -1.589941 -0.359678 1385 0.724237 0.689551 0.000000
-1.594395 -1.589809 -0.358939 1375 0.724237 0.689551 0.000000
-1.594836 -1.590242 -0.358335 1383 0.724237 0.689551 0.000000
-1.595119 -1.590522 -0.357682 1381 0.724237 0.689551 0.000000
-1.595340 -1.590751 -0.357030 1379 0.724237 0.689551 0.000000
-1.594851 -1.590265 -0.356205 1371 0.724237 0.689551 0.000000
-1.594108 -1.589521 -0.355342 1357 0.724237 0.689551 0.000000
-1.593834 -1.589247 -0.354564 1365 0.724237 0.689551 0.000000
-1.594213 -1.589630 -0.353941 1381 0.724237 0.689551 0.000000
-1.594337 -1.589755 -0.353260 1391 0.724237 0.689551 0.000000
-1.594571 -1.589983 -0.352607 1385 0.724237 0.689551 0.000000
-1.595308 -1.590720 -0.352060 1381 0.724237 0.689551 0.000000
-1.595598 -1.591006 -0.351407 1385 0.724237 0.689551 0.000000
-1.595000 -1.590417 -0.350573 1375 0.724237 0.689551 0.000000
-1.594925 -1.590343 -0.349854 1367 0.724237 0.689551 0.000000
-1.595469 -1.590873 -0.349258 1367 0.724237 0.689551 0.000000
-1.595482 -1.590896 -0.348558 1367 0.724237 0.689551 0.000000
-1.595152 -1.590564 -0.347771 1369 0.724237 0.689551 0.000000
-1.594863 -1.590277 -0.347004 1373 0.724237 0.689551 0.000000
-1.594891 -1.590299 -0.346304 1369 0.724237 0.689551 0.000000
-1.594912 -1.590328 -0.345604 1371 0.724237 0.689551 0.000000
-1.594781 -1.590196 -0.344865 1373 0.724237 0.689551 0.000000
-1.594857 -1.590270 -0.344174 1377 0.724237 0.689551 0.000000
-1.594877 -1.590285 -0.343474 1373 0.724237 0.689551 0.000000
-1.594850 -1.590263 -0.342754 1373 0.724237 0.689551 0.000000
-1.595229 -1.590646 -0.342131 1375 0.724237 0.689551 0.000000
-1.595201 -1.590609 -0.341421 1377 0.724237 0.689551 0.000000
-1.595373 -1.590786 -0.340749 1371 0.724237 0.689551 0.000000
-1.595449 -1.590860 -0.340058 1371 0.724237 0.689551 0.000000
-1.595057 -1.590478 -0.339262 1381 0.724237 0.689551 0.000000
-1.595133 -1.590551 -0.338571 1385 0.724237 0.689551 0.000000
-1.595462 -1.590868 -0.337938 1381 0.724237 0.689551 0.000000
-1.595842 -1.591251 -0.337305 1379 0.724237 0.689551 0.000000
-1.595394 -1.590811 -0.336509 1387 0.724237 0.689551 0.000000
-1.594857 -1.590273 -0.335684 1391 0.724237 0.689551 0.000000
-1.595029 -1.590450 -0.335022 1389 0.724237 0.689551 0.000000
-1.594794 -1.590208 -0.334265 1377 0.724237 0.689551 0.000000
-1.594870 -1.590281 -0.333574 1373 0.724237 0.689551 0.000000
-1.595922 -1.590304 -0.434751 1379 0.724237 0.689551 0.000000
-1.595959 -1.590346 -0.434041 1383 0.724237 0.689551 0.000000
-1.595749 -1.590136 -0.433273 1389 0.724237 0.689551 0.000000
-1.595785 -1.590178 -0.432562 1391 0.724237 0.689551 0.000000
-1.596243 -1.590625 -0.431968 1385 0.724237 0.689551 0.000000
-1.596892 -1.591278 -0.431422 1391 0.724237 0.689551 0.000000
-1.596833 -1.591217 -0.430692 1399 0.724237 0.689551 0.000000
-1.596010 -1.590395 -0.429750 1395 0.724237 0.689551 0.000000
-1.595442 -1.589832 -0.428886 1385 0.724237 0.689551 0.000000
-1.595224 -1.589616 -0.428118 1379 0.724237 0.689551 0.000000
-1.595315 -1.589702 -0.427427 1377 0.724237 0.689551 0.000000
-1.595463 -1.589846 -0.426745 1387 0.724237 0.689551 0.000000
-1.595913 -1.590300 -0.426151 1387 0.724237 0.689551 0.000000
-1.595639 -1.590026 -0.425364 1377 0.724237 0.689551 0.000000
-1.594515 -1.588909 -0.424345 1371 0.724237 0.689551 0.000000
-1.594552 -1.588951 -0.423644 1373 0.724237 0.689551 0.000000
-1.595463 -1.589855 -0.423165 1385 0.724237 0.689551 0.000000
-1.595912 -1.590295 -0.422561 1401 0.724237 0.689551 0.000000
-1.595798 -1.590189 -0.421822 1399 0.724237 0.689551 0.000000
-1.596185 -1.590579 -0.421208 1395 0.724237 0.689551 0.000000
-1.596841 -1.591225 -0.420662 1387 0.724237 0.689551 0.000000
-1.596368 -1.590751 -0.419826 1373 0.724237 0.689551 0.000000
-1.595800 -1.590188 -0.418962 1371 0.724237 0.689551 0.000000
-1.595678 -1.590075 -0.418213 1379 0.724237 0.689551 0.000000
-1.595570 -1.589962 -0.417474 1379 0.724237 0.689551 0.000000
-1.595758 -1.590152 -0.416802 1385 0.724237 0.689551 0.000000
-1.596105 -1.590496 -0.416179 1383 0.724237 0.689551 0.000000
-1.596094 -1.590486 -0.415459 1389 0.724237 0.689551 0.000000
-1.595883 -1.590276 -0.414691 1383 0.724237 0.689551 0.000000
-1.596421 -1.590814 -0.414116 1379 0.724237 0.689551 0.000000
-1.596878 -1.591260 -0.413511 1391 0.724237 0.689551 0.000000
-1.596501 -1.590890 -0.412705 1391 0.724237 0.689551 0.000000
-1.595878 -1.590269 -0.411831 1385 0.724237 0.689551 0.000000
-1.595356 -1.589743 -0.410986 1377 0.724237 0.689551 0.000000
-1.595902 -1.590287 -0.410411 1383 0.724237 0.689551 0.000000
-1.596957 -1.591346 -0.409960 1389 0.724237 0.689551 0.000000
-1.596588 -1.590982 -0.409154 1393 0.724237 0.689551 0.000000
-1.595853 -1.590245 -0.408251 1387 0.724237 0.689551 0.000000
-1.595889 -1.590286 -0.407551 1381 0.724237 0.689551 0.000000
-1.595424 -1.589819 -0.406715 1373 0.724237 0.689551 0.000000
-1.594849 -1.589249 -0.405861 1377 0.724237 0.689551 0.000000
-1.594272 -1.588665 -0.404996 1379 0.724237 0.689551 0.000000
-1.594253 -1.588649 -0.404287 1381 0.724237 0.689551 0.000000
-1.595467 -1.589863 -0.403875 1385 0.724237 0.689551 0.000000
-1.596012 -1.590407 -0.403299 1387 0.724237 0.689551 0.000000
-1.595531 -1.589927 -0.402464 1383 0.724237 0.689551 0.000000
-1.595161 -1.589549 -0.401658 1381 0.724237 0.689551 0.000000
-1.595556 -1.589945 -0.401044 1385 0.724237 0.689551 0.000000
-1.595840 -1.590238 -0.400401 1387 0.724237 0.689551 0.000000
-1.595979 -1.590376 -0.399720 1389 0.724237 0.689551 0.000000
-1.596015 -1.590404 -0.399009 1393 0.724237 0.689551 0.000000
-1.595590 -1.589983 -0.398193 1393 0.724237 0.689551 0.000000
-1.595316 -1.589709 -0.397416 1387 0.724237 0.689551 0.000000
-1.595305 -1.589699 -0.396706 1387 0.724237 0.689551 0.000000
-1.595397 -1.589785 -0.396005 1383 0.724237 0.689551 0.000000
-1.595776 -1.590168 -0.395392 1389 0.724237 0.689551 0.000000
-1.596012 -1.590410 -0.394739 1387 0.724237 0.689551 0.000000
-1.596151 -1.590548 -0.394058 1387 0.724237 0.689551 0.000000
-1.595520 -1.589920 -0.393194 1379 0.724237 0.689551 0.000000
-1.594482 -1.588886 -0.392224 1365 0.724237 0.689551 0.000000
-1.594875 -1.589268 -0.391610 1371 0.724237 0.689551 0.000000
-1.595421 -1.589812 -0.391025 1379 0.724237 0.689551 0.000000
-1.595299 -1.589700 -0.390286 1379 0.724237 0.689551 0.000000
-1.595327 -1.589721 -0.389586 1373 0.724237 0.689551 0.000000
-1.595364 -1.589764 -0.388875 1367 0.724237 0.689551 0.000000
-1.594835 -1.589232 -0.388041 1363 0.724237 0.689551 0.000000
-1.595126 -1.589517 -0.387398 1367 0.724237 0.689551 0.000000
-1.595870 -1.590261 -0.386871 1373 0.724237 0.689551 0.000000
-1.595596 -1.589987 -0.386093 1369 0.724237 0.689551 0.000000
-1.595115 -1.589507 -0.385258 1369 0.724237 0.689551 0.000000
-1.594739 -1.589137 -0.384461 1369 0.724237 0.689551 0.000000
-1.594878 -1.589275 -0.383780 1367 0.724237 0.689551 0.000000
-1.595623 -1.590018 -0.383253 1379 0.724237 0.689551 0.000000
