749
-13.358120 -12.569334 -0.375031 1329 0.737693 0.675137 0.000000
-13.357871 -12.569105 -0.369383 1325 0.737693 0.675137 0.000000
-13.358810 -12.569983 -0.363774 1323 0.737693 0.675137 0.000000
-13.359729 -12.570857 -0.358166 1339 0.737693 0.675137 0.000000
-13.358686 -12.569873 -0.352505 1331 0.737693 0.675137 0.000000
-13.358555 -12.569750 -0.346866 1331 0.737693 0.675137 0.000000
-13.358619 -12.569819 -0.341236 1331 0.737693 0.675137 0.000000
-13.358264 -12.569481 -0.335589 1339 0.737693 0.675137 0.000000
-13.358333 -12.569555 -0.329958 1343 0.737693 0.675137 0.000000
-13.358625 -12.569819 -0.324325 1333 0.737693 0.675137 0.000000
-13.359487 -12.570635 -0.318717 1333 0.737693 0.675137 0.000000
-13.359501 -12.570653 -0.313077 1331 0.737693 0.675137 0.000000
-13.359513 -12.570669 -0.307446 1339 0.737693 0.675137 0.000000
-13.358888 -12.570078 -0.301792 1321 0.737693 0.675137 0.000000
-13.357878 -12.569133 -0.296141 1325 0.737693 0.675137 0.000000
-13.360962 -12.563931 -0.690671 1327 0.737693 0.675137 0.000000
-13.362022 -12.564931 -0.685081 1339 0.737693 0.675137 0.000000
-13.362387 -12.565277 -0.679458 1331 0.737693 0.675137 0.000000
-13.361514 -12.564466 -0.673776 1327 0.737693 0.675137 0.000000
-13.361030 -12.564000 -0.668110 1331 0.737693 0.675137 0.000000
-13.360955 -12.563934 -0.662471 1331 0.737693 0.675137 0.000000
-13.361314 -12.564275 -0.656847 1333 0.737693 0.675137 0.000000
-13.361351 -12.564312 -0.651207 1339 0.737693 0.675137 0.000000
-13.360581 -12.563594 -0.645534 1337 0.737693 0.675137 0.000000
-13.361043 -12.564029 -0.639919 1335 0.737693 0.675137 0.000000
-13.362087 -12.565003 -0.634329 1339 0.737693 0.675137 0.000000
-13.362061 -12.564989 -0.628689 1337 0.737693 0.675137 0.000000
-13.361403 -12.564373 -0.623015 1333 0.737693 0.675137 0.000000
-13.361639 -12.564592 -0.617393 1341 0.737693 0.675137 0.000000
-13.361780 -12.564722 -0.611752 1337 0.737693 0.675137 0.000000
-13.361810 -12.564753 -0.606121 1343 0.737693 0.675137 0.000000
-13.361943 -12.564878 -0.600490 1333 0.737693 0.675137 0.000000
-13.362005 -12.564946 -0.594849 1341 0.737693 0.675137 0.000000
-13.361979 -12.564919 -0.589209 1343 0.737693 0.675137 0.000000
-13.361902 -12.564840 -0.583570 1339 0.737693 0.675137 0.000000
-13.361653 -12.564611 -0.577922 1329 0.737693 0.675137 0.000000
-13.361778 -12.564730 -0.572291 1327 0.737693 0.675137 0.000000
-13.362264 -12.565197 -0.566666 1339 0.737693 0.675137 0.000000
-13.362020 -12.564960 -0.561018 1321 0.737693 0.675137 0.000000
-13.362034 -12.564977 -0.555388 1335 0.737693 0.675137 0.000000
-13.362695 -12.565596 -0.549771 1337 0.737693 0.675137 0.000000
-13.362653 -12.565557 -0.544132 1333 0.737693 0.675137 0.000000
-13.361539 -12.564515 -0.538452 1335 0.737693 0.675137 0.000000
-13.361280 -12.564280 -0.532804 1329 0.737693 0.675137 0.000000
-13.362252 -12.565183 -0.527205 1343 0.737693 0.675137 0.000000
-13.362155 -12.565100 -0.521566 1339 0.737693 0.675137 0.000000
-13.361209 -12.564204 -0.515895 1323 0.737693 0.675137 0.000000
-13.362005 -12.564956 -0.510287 1327 0.737693 0.675137 0.000000
-13.362484 -12.565417 -0.504662 1329 0.737693 0.675137 0.000000
-13.362385 -12.565321 -0.499023 1323 0.737693 0.675137 0.000000
-13.362646 -12.565573 -0.493401 1329 0.737693 0.675137 0.000000
-13.362540 -12.565470 -0.487761 1327 0.737693 0.675137 0.000000
-13.362272 -12.565213 -0.482114 1317 0.737693 0.675137 0.000000
-13.362055 -12.565022 -0.476466 1321 0.737693 0.675137 0.000000
-13.361787 -12.564766 -0.470818 1325 0.737693 0.675137 0.000000
-13.362041 -12.565012 -0.465195 1325 0.737693 0.675137 0.000000
-13.362471 -12.565409 -0.459571 1331 0.737693 0.675137 0.000000
-13.362244 -12.565198 -0.453933 1331 0.737693 0.675137 0.000000
-13.362025 -12.564994 -0.448285 1327 0.737693 0.675137 0.000000
-13.361799 -12.564783 -0.442647 1319 0.737693 0.675137 0.000000
-13.362046 -12.565022 -0.437015 1319 0.737693 0.675137 0.000000
-13.362145 -12.565108 -0.431384 1331 0.737693 0.675137 0.000000
-13.361335 -12.564346 -0.425721 1323 0.737693 0.675137 0.000000
-13.362276 -12.565237 -0.420112 1337 0.737693 0.675137 0.000000
-13.362417 -12.565369 -0.414481 1331 0.737693 0.675137 0.000000
-13.362081 -12.565058 -0.408844 1323 0.737693 0.675137 0.000000
-13.362430 -12.565392 -0.403210 1325 0.737693 0.675137 0.000000
-13.361826 -12.564819 -0.397566 1323 0.737693 0.675137 0.000000
-13.362072 -12.565058 -0.391933 1329 0.737693 0.675137 0.000000
-13.362797 -12.565741 -0.386316 1327 0.737693 0.675137 0.000000
-13.362819 -12.565764 -0.380686 1331 0.737693 0.675137 0.000000
-13.362319 -12.565286 -0.375031 1327 0.737693 0.675137 0.000000
-13.361917 -12.564911 -0.369384 1325 0.737693 0.675137 0.000000
-13.361835 -12.564840 -0.363755 1315 0.737693 0.675137 0.000000
-13.362017 -12.565016 -0.358123 1335 0.737693 0.675137 0.000000
-13.362309 -12.565279 -0.352490 1329 0.737693 0.675137 0.000000
-13.362859 -12.565810 -0.346875 1323 0.737693 0.675137 0.000000
-13.362887 -12.565826 -0.341235 1327 0.737693 0.675137 0.000000
-13.362527 -12.565496 -0.335598 1335 0.737693 0.675137 0.000000
-13.362227 -12.565215 -0.329950 1323 0.737693 0.675137 0.000000
-13.362455 -12.565429 -0.324328 1331 0.737693 0.675137 0.000000
-13.362735 -12.565694 -0.318695 1329 0.737693 0.675137 0.000000
-13.362164 -12.565160 -0.313051 1325 0.737693 0.675137 0.000000
-13.362018 -12.565025 -0.307412 1327 0.737693 0.675137 0.000000
-13.362983 -12.565935 -0.301803 1333 0.737693 0.675137 0.000000
-13.363101 -12.566048 -0.296171 1339 0.737693 0.675137 0.000000
-13.365731 -12.560577 -0.690715 1321 0.737693 0.675137 0.000000
-13.364921 -12.559815 -0.685032 1327 0.737693 0.675137 0.000000
-13.365862 -12.560707 -0.679443 1331 0.737693 0.675137 0.000000
-13.366283 -12.561098 -0.673819 1337 0.737693 0.675137 0.000000
-13.365731 -12.560591 -0.668154 1333 0.737693 0.675137 0.000000
-13.365992 -12.560829 -0.662522 1331 0.737693 0.675137 0.000000
-13.365708 -12.560560 -0.656874 1325 0.737693 0.675137 0.000000
-13.365844 -12.560699 -0.651243 1331 0.737693 0.675137 0.000000
-13.365351 -12.560226 -0.645577 1325 0.737693 0.675137 0.000000
-13.365006 -12.559909 -0.639920 1329 0.737693 0.675137 0.000000
-13.365522 -12.560402 -0.634305 1335 0.737693 0.675137 0.000000
-13.365553 -12.560432 -0.628665 1331 0.737693 0.675137 0.000000
-13.364997 -12.559910 -0.623000 1331 0.737693 0.675137 0.000000
-13.364860 -12.559783 -0.617361 1339 0.737693 0.675137 0.000000
-13.365264 -12.560160 -0.611737 1337 0.737693 0.675137 0.000000
-13.365773 -12.560633 -0.606122 1337 0.737693 0.675137 0.000000
-13.366011 -12.560866 -0.600490 1333 0.737693 0.675137 0.000000
-13.365664 -12.560534 -0.594843 1329 0.737693 0.675137 0.000000
-13.365677 -12.560551 -0.589203 1329 0.737693 0.675137 0.000000
-13.365921 -12.560777 -0.583580 1327 0.737693 0.675137 0.000000
-13.365993 -12.560852 -0.577940 1333 0.737693 0.675137 0.000000
-13.366167 -12.561023 -0.572308 1329 0.737693 0.675137 0.000000
-13.366345 -12.561183 -0.566676 1333 0.737693 0.675137 0.000000
-13.366367 -12.561207 -0.561046 1339 0.737693 0.675137 0.000000
-13.366174 -12.561022 -0.555397 1335 0.737693 0.675137 0.000000
-13.366130 -12.560981 -0.549758 1341 0.737693 0.675137 0.000000
-13.366247 -12.561094 -0.544126 1335 0.737693 0.675137 0.000000
-13.366038 -12.560910 -0.538478 1333 0.737693 0.675137 0.000000
-13.365244 -12.560160 -0.532805 1341 0.737693 0.675137 0.000000
-13.365257 -12.560178 -0.527175 1329 0.737693 0.675137 0.000000
-13.366229 -12.561080 -0.521576 1327 0.737693 0.675137 0.000000
-13.366276 -12.561136 -0.515935 1335 0.737693 0.675137 0.000000
-13.365649 -12.560545 -0.510281 1319 0.737693 0.675137 0.000000
-13.366030 -12.560904 -0.504657 1327 0.737693 0.675137 0.000000
-13.366668 -12.561505 -0.499041 1331 0.737693 0.675137 0.000000
-13.366025 -12.560901 -0.493377 1323 0.737693 0.675137 0.000000
-13.365600 -12.560507 -0.487731 1319 0.737693 0.675137 0.000000
-13.366076 -12.560955 -0.482106 1319 0.737693 0.675137 0.000000
-13.366128 -12.561003 -0.476476 1315 0.737693 0.675137 0.000000
-13.365808 -12.560703 -0.470829 1319 0.737693 0.675137 0.000000
-13.365964 -12.560847 -0.465197 1327 0.737693 0.675137 0.000000
-13.366378 -12.561245 -0.459573 1331 0.737693 0.675137 0.000000
-13.366416 -12.561282 -0.453943 1341 0.737693 0.675137 0.000000
-13.366093 -12.560982 -0.448295 1327 0.737693 0.675137 0.000000
-13.366241 -12.561119 -0.442664 1329 0.737693 0.675137 0.000000
-13.366864 -12.561707 -0.437048 1335 0.737693 0.675137 0.000000
-13.366541 -12.561407 -0.431401 1333 0.737693 0.675137 0.000000
-13.366313 -12.561182 -0.425753 1331 0.737693 0.675137 0.000000
-13.366033 -12.560928 -0.420115 1327 0.737693 0.675137 0.000000
-13.365638 -12.560559 -0.414469 1327 0.737693 0.675137 0.000000
-13.366314 -12.561191 -0.408852 1321 0.737693 0.675137 0.000000
-13.366560 -12.561430 -0.403220 1317 0.737693 0.675137 0.000000
-13.366165 -12.561061 -0.397573 1321 0.737693 0.675137 0.000000
-13.365660 -12.560590 -0.391928 1309 0.737693 0.675137 0.000000
-13.365904 -12.560816 -0.386296 1325 0.737693 0.675137 0.000000
-13.366427 -12.561300 -0.380681 1323 0.737693 0.675137 0.000000
-13.366602 -12.561470 -0.375049 1329 0.737693 0.675137 0.000000
-13.365880 -12.560790 -0.369395 1327 0.737693 0.675137 0.000000
-13.366068 -12.560972 -0.363764 1325 0.737693 0.675137 0.000000
-13.366835 -12.561701 -0.358146 1333 0.737693 0.675137 0.000000
-13.366816 -12.561679 -0.352516 1333 0.737693 0.675137 0.000000
-13.366566 -12.561449 -0.346868 1329 0.737693 0.675137 0.000000
-13.365995 -12.560916 -0.341224 1319 0.737693 0.675137 0.000000
-13.365753 -12.560678 -0.335586 1313 0.737693 0.675137 0.000000
-13.365663 -12.560601 -0.329947 1313 0.737693 0.675137 0.000000
-13.365355 -12.560313 -0.324299 1315 0.737693 0.675137 0.000000
-13.365745 -12.560679 -0.318675 1315 0.737693 0.675137 0.000000
-13.366238 -12.561141 -0.313051 1309 0.737693 0.675137 0.000000
-13.366835 -12.561708 -0.307435 1331 0.737693 0.675137 0.000000
-13.366426 -12.561327 -0.301789 1323 0.737693 0.675137 0.000000
-13.366102 -12.561028 -0.296152 1323 0.737693 0.675137 0.000000
-13.370251 -12.556835 -0.690741 1333 0.737693 0.675137 0.000000
-13.369864 -12.556472 -0.685085 1327 0.737693 0.675137 0.000000
-13.369694 -12.556317 -0.679436 1339 0.737693 0.675137 0.000000
-13.369525 -12.556165 -0.673788 1343 0.737693 0.675137 0.000000
-13.369192 -12.555844 -0.668131 1325 0.737693 0.675137 0.000000
-13.369278 -12.555932 -0.662490 1329 0.737693 0.675137 0.000000
-13.369116 -12.555772 -0.656841 1325 0.737693 0.675137 0.000000
-13.369305 -12.555953 -0.651219 1325 0.737693 0.675137 0.000000
-13.369440 -12.556092 -0.645578 1329 0.737693 0.675137 0.000000
-13.368998 -12.555672 -0.639922 1325 0.737693 0.675137 0.000000
-13.369248 -12.555902 -0.634299 1329 0.737693 0.675137 0.000000
-13.369487 -12.556137 -0.628667 1337 0.737693 0.675137 0.000000
-13.369629 -12.556269 -0.623035 1345 0.737693 0.675137 0.000000
-13.369864 -12.556487 -0.617403 1339 0.737693 0.675137 0.000000
-13.370638 -12.557220 -0.611806 1331 0.737693 0.675137 0.000000
-13.370500 -12.557092 -0.606157 1331 0.737693 0.675137 0.000000
-13.370097 -12.556717 -0.600501 1327 0.737693 0.675137 0.000000
-13.370070 -12.556689 -0.594861 1327 0.737693 0.675137 0.000000
-13.370204 -12.556814 -0.589229 1337 0.737693 0.675137 0.000000
-13.370971 -12.557542 -0.583622 1335 0.737693 0.675137 0.000000
-13.370510 -12.557108 -0.577966 1341 0.737693 0.675137 0.000000
-13.369516 -12.556175 -0.572285 1331 0.737693 0.675137 0.000000
-13.369745 -12.556389 -0.566653 1335 0.737693 0.675137 0.000000
-13.370454 -12.557057 -0.561046 1345 0.737693 0.675137 0.000000
-13.370253 -12.556867 -0.555398 1327 0.737693 0.675137 0.000000
-13.369682 -12.556333 -0.549743 1335 0.737693 0.675137 0.000000
-13.369647 -12.556297 -0.544103 1329 0.737693 0.675137 0.000000
-13.370397 -12.557014 -0.538496 1333 0.737693 0.675137 0.000000
-13.370728 -12.557322 -0.532873 1331 0.737693 0.675137 0.000000
-13.370152 -12.556782 -0.527208 1323 0.737693 0.675137 0.000000
-13.369516 -12.556184 -0.521544 1317 0.737693 0.675137 0.000000
-13.369523 -12.556195 -0.515914 1313 0.737693 0.675137 0.000000
-13.369793 -12.556453 -0.510281 1319 0.737693 0.675137 0.000000
-13.369695 -12.556356 -0.504642 1307 0.737693 0.675137 0.000000
-13.369906 -12.556557 -0.499020 1319 0.737693 0.675137 0.000000
-13.370551 -12.557163 -0.493404 1325 0.737693 0.675137 0.000000
-13.370341 -12.556965 -0.487756 1315 0.737693 0.675137 0.000000
-13.369746 -12.556412 -0.482101 1325 0.737693 0.675137 0.000000
-13.370112 -12.556759 -0.476477 1335 0.737693 0.675137 0.000000
-13.370811 -12.557407 -0.470861 1327 0.737693 0.675137 0.000000
-13.370753 -12.557355 -0.465221 1329 0.737693 0.675137 0.000000
-13.370577 -12.557197 -0.459583 1337 0.737693 0.675137 0.000000
-13.370143 -12.556796 -0.453937 1335 0.737693 0.675137 0.000000
-13.369970 -12.556629 -0.448288 1319 0.737693 0.675137 0.000000
-13.370176 -12.556824 -0.442666 1317 0.737693 0.675137 0.000000
-13.370111 -12.556766 -0.437026 1325 0.737693 0.675137 0.000000
-13.370045 -12.556706 -0.431387 1323 0.737693 0.675137 0.000000
-13.370346 -12.556990 -0.425764 1331 0.737693 0.675137 0.000000
-13.370550 -12.557183 -0.420132 1337 0.737693 0.675137 0.000000
-13.371123 -12.557720 -0.414516 1331 0.737693 0.675137 0.000000
-13.370840 -12.557453 -0.408869 1331 0.737693 0.675137 0.000000
-13.370494 -12.557134 -0.403222 1329 0.737693 0.675137 0.000000
-13.369940 -12.556613 -0.397567 1319 0.737693 0.675137 0.000000
-13.369067 -12.555801 -0.391915 1323 0.737693 0.675137 0.000000
-13.369791 -12.556470 -0.386298 1323 0.737693 0.675137 0.000000
-13.370508 -12.557146 -0.380681 1325 0.737693 0.675137 0.000000
-13.370384 -12.557029 -0.375042 1327 0.737693 0.675137 0.000000
-13.370456 -12.557105 -0.369412 1323 0.737693 0.675137 0.000000
-13.370748 -12.557381 -0.363779 1325 0.737693 0.675137 0.000000
-13.371305 -12.557905 -0.358163 1337 0.737693 0.675137 0.000000
-13.370957 -12.557573 -0.352516 1339 0.737693 0.675137 0.000000
-13.370173 -12.556844 -0.346864 1331 0.737693 0.675137 0.000000
-13.369721 -12.556417 -0.341218 1327 0.737693 0.675137 0.000000
-13.370008 -12.556688 -0.335585 1319 0.737693 0.675137 0.000000
-13.370452 -12.557110 -0.329961 1323 0.737693 0.675137 0.000000
-13.370521 -12.557171 -0.324330 1317 0.737693 0.675137 0.000000
-13.370528 -12.557183 -0.318700 1321 0.737693 0.675137 0.000000
-13.370596 -12.557244 -0.313069 1323 0.737693 0.675137 0.000000
-13.371090 -12.557717 -0.307444 1327 0.737693 0.675137 0.000000
-13.370839 -12.557475 -0.301796 1325 0.737693 0.675137 0.000000
-13.370317 -12.556993 -0.296151 1313 0.737693 0.675137 0.000000
-13.374115 -12.552176 -0.690726 1327 0.737693 0.675137 0.000000
-13.373409 -12.551523 -0.685052 1323 0.737693 0.675137 0.000000
-13.373086 -12.551209 -0.679395 1343 0.737693 0.675137 0.000000
-13.372909 -12.551050 -0.673746 1327 0.737693 0.675137 0.000000
-13.373592 -12.551688 -0.668140 1333 0.737693 0.675137 0.000000
-13.373687 -12.551782 -0.662509 1329 0.737693 0.675137 0.000000
-13.373827 -12.551912 -0.656877 1331 0.737693 0.675137 0.000000
-13.373920 -12.552006 -0.651236 1333 0.737693 0.675137 0.000000
-13.373416 -12.551536 -0.645581 1329 0.737693 0.675137 0.000000
-13.373030 -12.551172 -0.639915 1329 0.737693 0.675137 0.000000
-13.373585 -12.551696 -0.634309 1331 0.737693 0.675137 0.000000
-13.373886 -12.551980 -0.628676 1323 0.737693 0.675137 0.000000
-13.373764 -12.551864 -0.623037 1335 0.737693 0.675137 0.000000
-13.374161 -12.552236 -0.617413 1327 0.737693 0.675137 0.000000
-13.374079 -12.552164 -0.611774 1323 0.737693 0.675137 0.000000
-13.373941 -12.552036 -0.606125 1331 0.737693 0.675137 0.000000
-13.374129 -12.552217 -0.600493 1347 0.737693 0.675137 0.000000
-13.374103 -12.552190 -0.594853 1347 0.737693 0.675137 0.000000
-13.373964 -12.552061 -0.589215 1335 0.737693 0.675137 0.000000
-13.373714 -12.551833 -0.583567 1337 0.737693 0.675137 0.000000
-13.373791 -12.551899 -0.577926 1323 0.737693 0.675137 0.000000
-13.374180 -12.552265 -0.572312 1331 0.737693 0.675137 0.000000
-13.374145 -12.552231 -0.566672 1337 0.737693 0.675137 0.000000
-13.374110 -12.552197 -0.561032 1333 0.737693 0.675137 0.000000
-13.374389 -12.552462 -0.555400 1327 0.737693 0.675137 0.000000
-13.374624 -12.552682 -0.549777 1343 0.737693 0.675137 0.000000
-13.374581 -12.552642 -0.544138 1343 0.737693 0.675137 0.000000
-13.374164 -12.552254 -0.538481 1321 0.737693 0.675137 0.000000
-13.374009 -12.552113 -0.532843 1341 0.737693 0.675137 0.000000
-13.373967 -12.552073 -0.527203 1337 0.737693 0.675137 0.000000
-13.374669 -12.552736 -0.521586 1335 0.737693 0.675137 0.000000
-13.374457 -12.552538 -0.515948 1329 0.737693 0.675137 0.000000
-13.374416 -12.552499 -0.510308 1335 0.737693 0.675137 0.000000
-13.374413 -12.552503 -0.504668 1323 0.737693 0.675137 0.000000
-13.374355 -12.552452 -0.499029 1327 0.737693 0.675137 0.000000
-13.374577 -12.552659 -0.493396 1315 0.737693 0.675137 0.000000
-13.374357 -12.552453 -0.487758 1321 0.737693 0.675137 0.000000
-13.374361 -12.552450 -0.482118 1319 0.737693 0.675137 0.000000
-13.375007 -12.553057 -0.476502 1315 0.737693 0.675137 0.000000
-13.375422 -12.553455 -0.470878 1321 0.737693 0.675137 0.000000
-13.375145 -12.553192 -0.465240 1321 0.737693 0.675137 0.000000
-13.374440 -12.552539 -0.459577 1327 0.737693 0.675137 0.000000
-13.373910 -12.552036 -0.453922 1317 0.737693 0.675137 0.000000
-13.374002 -12.552130 -0.448291 1313 0.737693 0.675137 0.000000
-13.374201 -12.552320 -0.442659 1321 0.737693 0.675137 0.000000
-13.373975 -12.552108 -0.437021 1323 0.737693 0.675137 0.000000
-13.374130 -12.552251 -0.431389 1335 0.737693 0.675137 0.000000
-13.374544 -12.552635 -0.425765 1341 0.737693 0.675137 0.000000
-13.374254 -12.552374 -0.420118 1337 0.737693 0.675137 0.000000
-13.374346 -12.552454 -0.414487 1335 0.737693 0.675137 0.000000
-13.374816 -12.552896 -0.408862 1335 0.737693 0.675137 0.000000
-13.374525 -12.552622 -0.403225 1325 0.737693 0.675137 0.000000
-13.374187 -12.552310 -0.397578 1323 0.737693 0.675137 0.000000
-13.373995 -12.552138 -0.391939 1331 0.737693 0.675137 0.000000
-13.373662 -12.551818 -0.386292 1329 0.737693 0.675137 0.000000
-13.374061 -12.552204 -0.380668 1317 0.737693 0.675137 0.000000
-13.374458 -12.552575 -0.375045 1323 0.737693 0.675137 0.000000
-13.374327 -12.552453 -0.369406 1315 0.737693 0.675137 0.000000
-13.374404 -12.552521 -0.363775 1327 0.737693 0.675137 0.000000
-13.374642 -12.552754 -0.358142 1333 0.737693 0.675137 0.000000
-13.375094 -12.553169 -0.352518 1331 0.737693 0.675137 0.000000
-13.374740 -12.552845 -0.346871 1325 0.737693 0.675137 0.000000
-13.374866 -12.552963 -0.341240 1327 0.737693 0.675137 0.000000
-13.375415 -12.553481 -0.335625 1331 0.737693 0.675137 0.000000
-13.375331 -12.553396 -0.329985 1319 0.737693 0.675137 0.000000
-13.375664 -12.553718 -0.324362 1339 0.737693 0.675137 0.000000
-13.375415 -12.553489 -0.318714 1335 0.737693 0.675137 0.000000
-13.375374 -12.553450 -0.313084 1323 0.737693 0.675137 0.000000
-13.374697 -12.552806 -0.307431 1341 0.737693 0.675137 0.000000
-13.374488 -12.552622 -0.301793 1327 0.737693 0.675137 0.000000
-13.375141 -12.553234 -0.296176 1331 0.737693 0.675137 0.000000
-13.377681 -12.547525 -0.690711 1331 0.737693 0.675137 0.000000
-13.378047 -12.547873 -0.685088 1333 0.737693 0.675137 0.000000
-13.377868 -12.547713 -0.679439 1327 0.737693 0.675137 0.000000
-13.377491 -12.547358 -0.673783 1321 0.737693 0.675137 0.000000
-13.377313 -12.547197 -0.668134 1321 0.737693 0.675137 0.000000
-13.377516 -12.547378 -0.662502 1327 0.737693 0.675137 0.000000
-13.377978 -12.547813 -0.656888 1333 0.737693 0.675137 0.000000
-13.377853 -12.547696 -0.651239 1329 0.737693 0.675137 0.000000
-13.377780 -12.547631 -0.645599 1323 0.737693 0.675137 0.000000
-13.377755 -12.547618 -0.639959 1341 0.737693 0.675137 0.000000
-13.377632 -12.547502 -0.634310 1339 0.737693 0.675137 0.000000
-13.377989 -12.547830 -0.628687 1327 0.737693 0.675137 0.000000
-13.378218 -12.548056 -0.623064 1341 0.737693 0.675137 0.000000
-13.377985 -12.547840 -0.617407 1333 0.737693 0.675137 0.000000
-13.378491 -12.548311 -0.611792 1331 0.737693 0.675137 0.000000
-13.378250 -12.548088 -0.606144 1333 0.737693 0.675137 0.000000
-13.377745 -12.547619 -0.600478 1337 0.737693 0.675137 0.000000
-13.377772 -12.547634 -0.594848 1331 0.737693 0.675137 0.000000
-13.377420 -12.547310 -0.589191 1331 0.737693 0.675137 0.000000
-13.377017 -12.546934 -0.583535 1319 0.737693 0.675137 0.000000
-13.377670 -12.547547 -0.577928 1343 0.737693 0.675137 0.000000
-13.378379 -12.548217 -0.572322 1327 0.737693 0.675137 0.000000
-13.378728 -12.548537 -0.566698 1321 0.737693 0.675137 0.000000
-13.378317 -12.548156 -0.561042 1331 0.737693 0.675137 0.000000
-13.377796 -12.547673 -0.555377 1329 0.737693 0.675137 0.000000
-13.378448 -12.548285 -0.549771 1327 0.737693 0.675137 0.000000
-13.378030 -12.547896 -0.544114 1333 0.737693 0.675137 0.000000
-13.377676 -12.547560 -0.538467 1335 0.737693 0.675137 0.000000
-13.377672 -12.547565 -0.532827 1335 0.737693 0.675137 0.000000
-13.377630 -12.547524 -0.527188 1333 0.737693 0.675137 0.000000
-13.377963 -12.547832 -0.521564 1321 0.737693 0.675137 0.000000
-13.378024 -12.547888 -0.515934 1321 0.737693 0.675137 0.000000
-13.378613 -12.548450 -0.510318 1333 0.737693 0.675137 0.000000
-13.378826 -12.548651 -0.504686 1343 0.737693 0.675137 0.000000
-13.378456 -12.548301 -0.499039 1333 0.737693 0.675137 0.000000
-13.378295 -12.548154 -0.493391 1321 0.737693 0.675137 0.000000
-13.378404 -12.548259 -0.487759 1315 0.737693 0.675137 0.000000
-13.378664 -12.548497 -0.482137 1323 0.737693 0.675137 0.000000
-13.378925 -12.548749 -0.476504 1321 0.737693 0.675137 0.000000
-13.378876 -12.548703 -0.470865 1331 0.737693 0.675137 0.000000
-13.378705 -12.548550 -0.465226 1329 0.737693 0.675137 0.000000
-13.378326 -12.548192 -0.459579 1327 0.737693 0.675137 0.000000
-13.378221 -12.548089 -0.453930 1331 0.737693 0.675137 0.000000
-13.378952 -12.548778 -0.448323 1329 0.737693 0.675137 0.000000
-13.379270 -12.549074 -0.442700 1333 0.737693 0.675137 0.000000
-13.378716 -12.548566 -0.437045 1327 0.737693 0.675137 0.000000
-13.378656 -12.548499 -0.431406 1325 0.737693 0.675137 0.000000
-13.378422 -12.548282 -0.425758 1329 0.737693 0.675137 0.000000
-13.378779 -12.548623 -0.420134 1337 0.737693 0.675137 0.000000
-13.379456 -12.549254 -0.414518 1345 0.737693 0.675137 0.000000
-13.379494 -12.549292 -0.408887 1335 0.737693 0.675137 0.000000
-13.379356 -12.549176 -0.403248 1335 0.737693 0.675137 0.000000
-13.378538 -12.548408 -0.397586 1325 0.737693 0.675137 0.000000
-13.378575 -12.548444 -0.391955 1339 0.737693 0.675137 0.000000
-13.378598 -12.548468 -0.386315 1325 0.737693 0.675137 0.000000
-13.378314 -12.548199 -0.380678 1327 0.737693 0.675137 0.000000
-13.378448 -12.548324 -0.375046 1333 0.737693 0.675137 0.000000
-13.378581 -12.548449 -0.369415 1321 0.737693 0.675137 0.000000
-13.378713 -12.548573 -0.363783 1315 0.737693 0.675137 0.000000
-13.378847 -12.548698 -0.358152 1323 0.737693 0.675137 0.000000
-13.379077 -12.548924 -0.352520 1323 0.737693 0.675137 0.000000
-13.379106 -12.548941 -0.346889 1323 0.737693 0.675137 0.000000
-13.379127 -12.548965 -0.341249 1319 0.737693 0.675137 0.000000
-13.379454 -12.549281 -0.335626 1323 0.737693 0.675137 0.000000
-13.379212 -12.549058 -0.329988 1317 0.737693 0.675137 0.000000
-13.378744 -12.548618 -0.324342 1331 0.737693 0.675137 0.000000
-13.379196 -12.549033 -0.318718 1325 0.737693 0.675137 0.000000
-13.379203 -12.549045 -0.313078 1325 0.737693 0.675137 0.000000
-13.379105 -12.548962 -0.307438 1329 0.737693 0.675137 0.000000
-13.379014 -12.548870 -0.301809 1335 0.737693 0.675137 0.000000
-13.378331 -12.548235 -0.296155 1325 0.737693 0.675137 0.000000
-13.381873 -12.543485 -0.690721 1337 0.737693 0.675137 0.000000
-13.381431 -12.543078 -0.685055 1337 0.737693 0.675137 0.000000
-13.381477 -12.543122 -0.679424 1339 0.737693 0.675137 0.000000
-13.381515 -12.543158 -0.673784 1323 0.737693 0.675137 0.000000
-13.381558 -12.543200 -0.668143 1327 0.737693 0.675137 0.000000
-13.381701 -12.543331 -0.662512 1331 0.737693 0.675137 0.000000
-13.381850 -12.543468 -0.656880 1339 0.737693 0.675137 0.000000
-13.382047 -12.543655 -0.651248 1339 0.737693 0.675137 0.000000
-13.381598 -12.543243 -0.645592 1341 0.737693 0.675137 0.000000
-13.381794 -12.543418 -0.639960 1341 0.737693 0.675137 0.000000
-13.382679 -12.544252 -0.634362 1345 0.737693 0.675137 0.000000
-13.382333 -12.543935 -0.628705 1329 0.737693 0.675137 0.000000
-13.381993 -12.543609 -0.623048 1331 0.737693 0.675137 0.000000
-13.382079 -12.543696 -0.617417 1333 0.737693 0.675137 0.000000
-13.382637 -12.544220 -0.611802 1343 0.737693 0.675137 0.000000
-13.382026 -12.543641 -0.606137 1321 0.737693 0.675137 0.000000
-13.382318 -12.543918 -0.600514 1329 0.737693 0.675137 0.000000
-13.382652 -12.544240 -0.594891 1319 0.737693 0.675137 0.000000
-13.382202 -12.543814 -0.589225 1323 0.737693 0.675137 0.000000
-13.381152 -12.542836 -0.583545 1325 0.737693 0.675137 0.000000
-13.381333 -12.542999 -0.577913 1333 0.737693 0.675137 0.000000
-13.382314 -12.543921 -0.572314 1341 0.737693 0.675137 0.000000
-13.382278 -12.543888 -0.566674 1325 0.737693 0.675137 0.000000
-13.382078 -12.543710 -0.561036 1333 0.737693 0.675137 0.000000
-13.381986 -12.543618 -0.555396 1327 0.737693 0.675137 0.000000
-13.381841 -12.543484 -0.549748 1321 0.737693 0.675137 0.000000
-13.382174 -12.543806 -0.544124 1333 0.737693 0.675137 0.000000
-13.382236 -12.543861 -0.538494 1323 0.737693 0.675137 0.000000
-13.382776 -12.544373 -0.532869 1331 0.737693 0.675137 0.000000
-13.382893 -12.544484 -0.527237 1331 0.737693 0.675137 0.000000
-13.382420 -12.544040 -0.521582 1335 0.737693 0.675137 0.000000
-13.382481 -12.544094 -0.515951 1331 0.737693 0.675137 0.000000
-13.382478 -12.544098 -0.510311 1335 0.737693 0.675137 0.000000
-13.382650 -12.544254 -0.504679 1331 0.737693 0.675137 0.000000
-13.381904 -12.543555 -0.499016 1325 0.737693 0.675137 0.000000
-13.381047 -12.542756 -0.493354 1315 0.737693 0.675137 0.000000
-13.382171 -12.543806 -0.487753 1323 0.737693 0.675137 0.000000
-13.383079 -12.544659 -0.482144 1335 0.737693 0.675137 0.000000
-13.382703 -12.544316 -0.476498 1317 0.737693 0.675137 0.000000
-13.382275 -12.543907 -0.470852 1319 0.737693 0.675137 0.000000
-13.381897 -12.543551 -0.465195 1321 0.737693 0.675137 0.000000
-13.381879 -12.543543 -0.459565 1321 0.737693 0.675137 0.000000
-13.381821 -12.543490 -0.453925 1321 0.737693 0.675137 0.000000
-13.381595 -12.543281 -0.448277 1317 0.737693 0.675137 0.000000
-13.382014 -12.543671 -0.442663 1327 0.737693 0.675137 0.000000
-13.382805 -12.544417 -0.437046 1327 0.737693 0.675137 0.000000
-13.382895 -12.544496 -0.431415 1331 0.737693 0.675137 0.000000
-13.382031 -12.543691 -0.425753 1329 0.737693 0.675137 0.000000
-13.382125 -12.543784 -0.420122 1331 0.737693 0.675137 0.000000
-13.382689 -12.544315 -0.414496 1333 0.737693 0.675137 0.000000
-13.382670 -12.544293 -0.408867 1341 0.737693 0.675137 0.000000
-13.381861 -12.543531 -0.403204 1335 0.737693 0.675137 0.000000
-13.382049 -12.543714 -0.397572 1323 0.737693 0.675137 0.000000
-13.382725 -12.544344 -0.391956 1339 0.737693 0.675137 0.000000
-13.382212 -12.543867 -0.386310 1329 0.737693 0.675137 0.000000
-13.381915 -12.543601 -0.380663 1323 0.737693 0.675137 0.000000
-13.382271 -12.543927 -0.375039 1319 0.737693 0.675137 0.000000
-13.382350 -12.544009 -0.369408 1317 0.737693 0.675137 0.000000
-13.382537 -12.544177 -0.363777 1325 0.737693 0.675137 0.000000
-13.383094 -12.544701 -0.358161 1319 0.737693 0.675137 0.000000
-13.382795 -12.544419 -0.352514 1319 0.737693 0.675137 0.000000
-13.382281 -12.543943 -0.346869 1323 0.737693 0.675137 0.000000
-13.382416 -12.544068 -0.341237 1329 0.737693 0.675137 0.000000
-13.382742 -12.544385 -0.335614 1327 0.737693 0.675137 0.000000
-13.382553 -12.544204 -0.329966 1333 0.737693 0.675137 0.000000
-13.382095 -12.543773 -0.324320 1321 0.737693 0.675137 0.000000
-13.382949 -12.544581 -0.318712 1329 0.737693 0.675137 0.000000
-13.383338 -12.544947 -0.313088 1335 0.737693 0.675137 0.000000
-13.382720 -12.544362 -0.307433 1327 0.737693 0.675137 0.000000
-13.382773 -12.544424 -0.301803 1341 0.737693 0.675137 0.000000
-13.383003 -12.544638 -0.296171 1339 0.737693 0.675137 0.000000
-13.386336 -12.539685 -0.690748 1347 0.737693 0.675137 0.000000
-13.385789 -12.539169 -0.685083 1335 0.737693 0.675137 0.000000
-13.385779 -12.539168 -0.679443 1337 0.737693 0.675137 0.000000
-13.386150 -12.539507 -0.673819 1341 0.737693 0.675137 0.000000
-13.385814 -12.539195 -0.668162 1331 0.737693 0.675137 0.000000
-13.386067 -12.539441 -0.662530 1337 0.737693 0.675137 0.000000
-13.386360 -12.539718 -0.656907 1337 0.737693 0.675137 0.000000
-13.386350 -12.539702 -0.651267 1339 0.737693 0.675137 0.000000
-13.385530 -12.538934 -0.645585 1337 0.737693 0.675137 0.000000
-13.385560 -12.538963 -0.639954 1345 0.737693 0.675137 0.000000
-13.386182 -12.539552 -0.634338 1341 0.737693 0.675137 0.000000
-13.386371 -12.539734 -0.628706 1335 0.737693 0.675137 0.000000
-13.386408 -12.539770 -0.623076 1337 0.737693 0.675137 0.000000
-13.386381 -12.539742 -0.617436 1339 0.737693 0.675137 0.000000
-13.386034 -12.539411 -0.611779 1337 0.737693 0.675137 0.000000
-13.385850 -12.539246 -0.606131 1335 0.737693 0.675137 0.000000
-13.385869 -12.539268 -0.600490 1321 0.737693 0.675137 0.000000
-13.386156 -12.539539 -0.594867 1331 0.737693 0.675137 0.000000
-13.386240 -12.539613 -0.589236 1347 0.737693 0.675137 0.000000
-13.386366 -12.539732 -0.583595 1343 0.737693 0.675137 0.000000
-13.386379 -12.539749 -0.577965 1335 0.737693 0.675137 0.000000
-13.386295 -12.539663 -0.572316 1337 0.737693 0.675137 0.000000
-13.385894 -12.539289 -0.566669 1337 0.737693 0.675137 0.000000
-13.385844 -12.539256 -0.561029 1317 0.737693 0.675137 0.000000
-13.386137 -12.539519 -0.555397 1319 0.737693 0.675137 0.000000
-13.385655 -12.539082 -0.549741 1321 0.737693 0.675137 0.000000
-13.385252 -12.538692 -0.544085 1335 0.737693 0.675137 0.000000
-13.385585 -12.539013 -0.538461 1343 0.737693 0.675137 0.000000
-13.386391 -12.539772 -0.532864 1333 0.737693 0.675137 0.000000
-13.386508 -12.539885 -0.527222 1339 0.737693 0.675137 0.000000
-13.386139 -12.539535 -0.521576 1351 0.737693 0.675137 0.000000
-13.386094 -12.539494 -0.515936 1335 0.737693 0.675137 0.000000
-13.386156 -12.539549 -0.510305 1333 0.737693 0.675137 0.000000
-13.386266 -12.539655 -0.504664 1329 0.737693 0.675137 0.000000
-13.386581 -12.539951 -0.499041 1337 0.737693 0.675137 0.000000
-13.386052 -12.539461 -0.493386 1323 0.737693 0.675137 0.000000
-13.386049 -12.539453 -0.487756 1325 0.737693 0.675137 0.000000
-13.386311 -12.539705 -0.482123 1321 0.737693 0.675137 0.000000
-13.386149 -12.539558 -0.476485 1315 0.737693 0.675137 0.000000
-13.386146 -12.539549 -0.470844 1323 0.737693 0.675137 0.000000
-13.386734 -12.540097 -0.465229 1325 0.737693 0.675137 0.000000
-13.386875 -12.540242 -0.459597 1335 0.737693 0.675137 0.000000
-13.386658 -12.540038 -0.453949 1327 0.737693 0.675137 0.000000
-13.386383 -12.539776 -0.448312 1329 0.737693 0.675137 0.000000
-13.386636 -12.540022 -0.442679 1331 0.737693 0.675137 0.000000
-13.386147 -12.539564 -0.437034 1321 0.737693 0.675137 0.000000
-13.385759 -12.539201 -0.431377 1317 0.737693 0.675137 0.000000
-13.386181 -12.539591 -0.425763 1321 0.737693 0.675137 0.000000
-13.386753 -12.540127 -0.420138 1329 0.737693 0.675137 0.000000
-13.387424 -12.540767 -0.414521 1335 0.737693 0.675137 0.000000
-13.387716 -12.541043 -0.408898 1339 0.737693 0.675137 0.000000
-13.387177 -12.540535 -0.403243 1345 0.737693 0.675137 0.000000
-13.386991 -12.540355 -0.397605 1337 0.737693 0.675137 0.000000
-13.387028 -12.540391 -0.391974 1333 0.737693 0.675137 0.000000
-13.386308 -12.539724 -0.386311 1319 0.737693 0.675137 0.000000
-13.386065 -12.539501 -0.380673 1329 0.737693 0.675137 0.000000
-13.386310 -12.539727 -0.375041 1331 0.737693 0.675137 0.000000
-13.386283 -12.539701 -0.369411 1333 0.737693 0.675137 0.000000
-13.386623 -12.540028 -0.363787 1323 0.737693 0.675137 0.000000
-13.386868 -12.540254 -0.358155 1327 0.737693 0.675137 0.000000
-13.386404 -12.539828 -0.352509 1321 0.737693 0.675137 0.000000
-13.386098 -12.539542 -0.346862 1329 0.737693 0.675137 0.000000
-13.385598 -12.539063 -0.341216 1325 0.737693 0.675137 0.000000
-13.385988 -12.539429 -0.335593 1325 0.737693 0.675137 0.000000
-13.385848 -12.539300 -0.329954 1331 0.737693 0.675137 0.000000
-13.385639 -12.539117 -0.324316 1329 0.737693 0.675137 0.000000
-13.385827 -12.539285 -0.318684 1321 0.737693 0.675137 0.000000
-13.385889 -12.539352 -0.313053 1325 0.737693 0.675137 0.000000
-13.385736 -12.539212 -0.307414 1319 0.737693 0.675137 0.000000
-13.386230 -12.539673 -0.301789 1331 0.737693 0.675137 0.000000
-13.386771 -12.540184 -0.296174 1339 0.737693 0.675137 0.000000
-13.389450 -12.535070 -0.690716 1337 0.737693 0.675137 0.000000
-13.389384 -12.535012 -0.685076 1321 0.737693 0.675137 0.000000
-13.389006 -12.534657 -0.679410 1333 0.737693 0.675137 0.000000
-13.389682 -12.535288 -0.673803 1339 0.737693 0.675137 0.000000
-13.390263 -12.535830 -0.668197 1335 0.737693 0.675137 0.000000
-13.389820 -12.535422 -0.662531 1339 0.737693 0.675137 0.000000
-13.389373 -12.535011 -0.656876 1339 0.737693 0.675137 0.000000
-13.389674 -12.535294 -0.651253 1333 0.737693 0.675137 0.000000
-13.389181 -12.534822 -0.645587 1331 0.737693 0.675137 0.000000
-13.389212 -12.534865 -0.639947 1341 0.737693 0.675137 0.000000
-13.389728 -12.535345 -0.634332 1345 0.737693 0.675137 0.000000
-13.389709 -12.535323 -0.628692 1343 0.737693 0.675137 0.000000
-13.389730 -12.535347 -0.623051 1337 0.737693 0.675137 0.000000
-13.389224 -12.534877 -0.617396 1321 0.737693 0.675137 0.000000
-13.389309 -12.534950 -0.611755 1329 0.737693 0.675137 0.000000
-13.389812 -12.535431 -0.606140 1345 0.737693 0.675137 0.000000
-13.389784 -12.535403 -0.600500 1331 0.737693 0.675137 0.000000
-13.390189 -12.535780 -0.594876 1325 0.737693 0.675137 0.000000
-13.390155 -12.535748 -0.589237 1325 0.737693 0.675137 0.000000
-13.389641 -12.535272 -0.583581 1315 0.737693 0.675137 0.000000
-13.390197 -12.535794 -0.577966 1321 0.737693 0.675137 0.000000
-13.390371 -12.535964 -0.572334 1329 0.737693 0.675137 0.000000
-13.390390 -12.535974 -0.566694 1333 0.737693 0.675137 0.000000
-13.390356 -12.535940 -0.561054 1331 0.737693 0.675137 0.000000
-13.389885 -12.535509 -0.555398 1333 0.737693 0.675137 0.000000
-13.389953 -12.535570 -0.549767 1333 0.737693 0.675137 0.000000
-13.389757 -12.535383 -0.544119 1323 0.737693 0.675137 0.000000
-13.390571 -12.536149 -0.538511 1337 0.737693 0.675137 0.000000
-13.390679 -12.536255 -0.532880 1333 0.737693 0.675137 0.000000
-13.390311 -12.535919 -0.527234 1331 0.737693 0.675137 0.000000
-13.390859 -12.536422 -0.521618 1343 0.737693 0.675137 0.000000
-13.390865 -12.536433 -0.515978 1333 0.737693 0.675137 0.000000
-13.390119 -12.535734 -0.510315 1329 0.737693 0.675137 0.000000
-13.390228 -12.535841 -0.504674 1323 0.737693 0.675137 0.000000
-13.390226 -12.535847 -0.499044 1321 0.737693 0.675137 0.000000
-13.389481 -12.535148 -0.493381 1335 0.737693 0.675137 0.000000
-13.389748 -12.535391 -0.487748 1335 0.737693 0.675137 0.000000
-13.390601 -12.536201 -0.482140 1343 0.737693 0.675137 0.000000
-13.390814 -12.536388 -0.476518 1337 0.737693 0.675137 0.000000
-13.390061 -12.535697 -0.470855 1323 0.737693 0.675137 0.000000
-13.389579 -12.535246 -0.465199 1313 0.737693 0.675137 0.000000
-13.390152 -12.535782 -0.459583 1325 0.737693 0.675137 0.000000
-13.390356 -12.535976 -0.453951 1331 0.737693 0.675137 0.000000
-13.389978 -12.535621 -0.448305 1325 0.737693 0.675137 0.000000
-13.389751 -12.535409 -0.442667 1321 0.737693 0.675137 0.000000
-13.389583 -12.535256 -0.437018 1311 0.737693 0.675137 0.000000
-13.389570 -12.535240 -0.431388 1317 0.737693 0.675137 0.000000
-13.389983 -12.535625 -0.425764 1329 0.737693 0.675137 0.000000
-13.390660 -12.536269 -0.420148 1331 0.737693 0.675137 0.000000
-13.390904 -12.536495 -0.414515 1333 0.737693 0.675137 0.000000
-13.390846 -12.536443 -0.408876 1329 0.737693 0.675137 0.000000
-13.389646 -12.535320 -0.403207 1321 0.737693 0.675137 0.000000
-13.389627 -12.535300 -0.397577 1327 0.737693 0.675137 0.000000
-13.391253 -12.536822 -0.391981 1335 0.737693 0.675137 0.000000
-13.391492 -12.537056 -0.386359 1327 0.737693 0.675137 0.000000
-13.390835 -12.536441 -0.380705 1335 0.737693 0.675137 0.000000
-13.389856 -12.535520 -0.375044 1313 0.737693 0.675137 0.000000
-13.389400 -12.535101 -0.369398 1325 0.737693 0.675137 0.000000
-13.390274 -12.535915 -0.363780 1315 0.737693 0.675137 0.000000
-13.390881 -12.536490 -0.358164 1321 0.737693 0.675137 0.000000
-13.390006 -12.535665 -0.352502 1321 0.737693 0.675137 0.000000
-13.390339 -12.535987 -0.346879 1329 0.737693 0.675137 0.000000
-13.391001 -12.536605 -0.341263 1337 0.737693 0.675137 0.000000
-13.390756 -12.536367 -0.335615 1325 0.737693 0.675137 0.000000
-13.390450 -12.536095 -0.329977 1329 0.737693 0.675137 0.000000
-13.390041 -12.535714 -0.324331 1327 0.737693 0.675137 0.000000
-13.389680 -12.535370 -0.318694 1321 0.737693 0.675137 0.000000
-13.389963 -12.535640 -0.313061 1329 0.737693 0.675137 0.000000
-13.390727 -12.536353 -0.307444 1333 0.737693 0.675137 0.000000
-13.390797 -12.536413 -0.301813 1337 0.737693 0.675137 0.000000
-13.391178 -12.536774 -0.296190 1343 0.737693 0.675137 0.000000
-13.393207 -12.531068 -0.690717 1337 0.737693 0.675137 0.000000
-13.393410 -12.531249 -0.685085 1343 0.737693 0.675137 0.000000
-13.394150 -12.531943 -0.679488 1339 0.737693 0.675137 0.000000
-13.394237 -12.532031 -0.673847 1355 0.737693 0.675137 0.000000
-13.393746 -12.531572 -0.668182 1339 0.737693 0.675137 0.000000
-13.393511 -12.531355 -0.662534 1331 0.737693 0.675137 0.000000
-13.393869 -12.531695 -0.656910 1333 0.737693 0.675137 0.000000
-13.394554 -12.532334 -0.651304 1341 0.737693 0.675137 0.000000
-13.394159 -12.531965 -0.645647 1333 0.737693 0.675137 0.000000
-13.392654 -12.530550 -0.639931 1331 0.737693 0.675137 0.000000
-13.392731 -12.530630 -0.634300 1341 0.737693 0.675137 0.000000
-13.393408 -12.531262 -0.628694 1329 0.737693 0.675137 0.000000
-13.393117 -12.530988 -0.623036 1329 0.737693 0.675137 0.000000
-13.393298 -12.531163 -0.617405 1341 0.737693 0.675137 0.000000
-13.393864 -12.531693 -0.611799 1335 0.737693 0.675137 0.000000
-13.393309 -12.531172 -0.606134 1329 0.737693 0.675137 0.000000
-13.393380 -12.531247 -0.600493 1331 0.737693 0.675137 0.000000
-13.393991 -12.531816 -0.594887 1337 0.737693 0.675137 0.000000
-13.393798 -12.531643 -0.589239 1339 0.737693 0.675137 0.000000
-13.393498 -12.531362 -0.583592 1327 0.737693 0.675137 0.000000
-13.393200 -12.531081 -0.577935 1325 0.737693 0.675137 0.000000
-13.393487 -12.531352 -0.572312 1327 0.737693 0.675137 0.000000
-13.394251 -12.532065 -0.566704 1333 0.737693 0.675137 0.000000
-13.394216 -12.532031 -0.561065 1333 0.737693 0.675137 0.000000
-13.393591 -12.531453 -0.555400 1327 0.737693 0.675137 0.000000
-13.393651 -12.531508 -0.549770 1321 0.737693 0.675137 0.000000
-13.393768 -12.531621 -0.544128 1319 0.737693 0.675137 0.000000
-13.393783 -12.531638 -0.538498 1331 0.737693 0.675137 0.000000
-13.393364 -12.531250 -0.532842 1319 0.737693 0.675137 0.000000
-13.392944 -12.530849 -0.527186 1323 0.737693 0.675137 0.000000
-13.394237 -12.532056 -0.521603 1329 0.737693 0.675137 0.000000
-13.394890 -12.532668 -0.515987 1337 0.737693 0.675137 0.000000
-13.394616 -12.532420 -0.510340 1335 0.737693 0.675137 0.000000
-13.394461 -12.532279 -0.504701 1337 0.737693 0.675137 0.000000
-13.394250 -12.532081 -0.499053 1335 0.737693 0.675137 0.000000
-13.393986 -12.531840 -0.493405 1331 0.737693 0.675137 0.000000
-13.393829 -12.531684 -0.487766 1323 0.737693 0.675137 0.000000
-13.393236 -12.531133 -0.482102 1317 0.737693 0.675137 0.000000
-13.393553 -12.531427 -0.476479 1329 0.737693 0.675137 0.000000
-13.394135 -12.531983 -0.470863 1337 0.737693 0.675137 0.000000
-13.394242 -12.532076 -0.465232 1331 0.737693 0.675137 0.000000
-13.394177 -12.532018 -0.459592 1327 0.737693 0.675137 0.000000
-13.393958 -12.531813 -0.453954 1329 0.737693 0.675137 0.000000
-13.394163 -12.532008 -0.448322 1323 0.737693 0.675137 0.000000
-13.393883 -12.531754 -0.442675 1325 0.737693 0.675137 0.000000
-13.393711 -12.531586 -0.437036 1329 0.737693 0.675137 0.000000
-13.394075 -12.531933 -0.431413 1319 0.737693 0.675137 0.000000
-13.394592 -12.532412 -0.425788 1329 0.737693 0.675137 0.000000
-13.394574 -12.532403 -0.420158 1337 0.737693 0.675137 0.000000
-13.394188 -12.532042 -0.414501 1319 0.737693 0.675137 0.000000
-13.394864 -12.532673 -0.408895 1339 0.737693 0.675137 0.000000
-13.394575 -12.532412 -0.403247 1325 0.737693 0.675137 0.000000
-13.394076 -12.531934 -0.397592 1325 0.737693 0.675137 0.000000
-13.393578 -12.531469 -0.391946 1319 0.737693 0.675137 0.000000
-13.393496 -12.531398 -0.386307 1329 0.737693 0.675137 0.000000
-13.393838 -12.531727 -0.380684 1329 0.737693 0.675137 0.000000
-13.394408 -12.532249 -0.375068 1331 0.737693 0.675137 0.000000
-13.394536 -12.532382 -0.369427 1327 0.737693 0.675137 0.000000
-13.393972 -12.531855 -0.363782 1327 0.737693 0.675137 0.000000
-13.394162 -12.532036 -0.358150 1327 0.737693 0.675137 0.000000
-13.394079 -12.531951 -0.352511 1323 0.737693 0.675137 0.000000
-13.394525 -12.532373 -0.346886 1329 0.737693 0.675137 0.000000
-13.394650 -12.532492 -0.341255 1341 0.737693 0.675137 0.000000
-13.393656 -12.531559 -0.335604 1321 0.737693 0.675137 0.000000
-13.393678 -12.531583 -0.329964 1317 0.737693 0.675137 0.000000
-13.394219 -12.532095 -0.324349 1327 0.737693 0.675137 0.000000
-13.394233 -12.532112 -0.318708 1325 0.737693 0.675137 0.000000
-13.394141 -12.532022 -0.313069 1327 0.737693 0.675137 0.000000
-13.394371 -12.532235 -0.307447 1337 0.737693 0.675137 0.000000
-13.394064 -12.531947 -0.301800 1333 0.737693 0.675137 0.000000
-13.394294 -12.532161 -0.296177 1329 0.737693 0.675137 0.000000
-13.397460 -12.527369 -0.690745 1337 0.737693 0.675137 0.000000
-13.398415 -12.528259 -0.685146 1341 0.737693 0.675137 0.000000
-13.397813 -12.527700 -0.679481 1329 0.737693 0.675137 0.000000
-13.397108 -12.527047 -0.673808 1331 0.737693 0.675137 0.000000
-13.397361 -12.527279 -0.668175 1329 0.737693 0.675137 0.000000
-13.397670 -12.527569 -0.662552 1337 0.737693 0.675137 0.000000
-13.398082 -12.527952 -0.656928 1341 0.737693 0.675137 0.000000
-13.398433 -12.528288 -0.651305 1347 0.737693 0.675137 0.000000
-13.397983 -12.527875 -0.645649 1333 0.737693 0.675137 0.000000
-13.397380 -12.527302 -0.639974 1323 0.737693 0.675137 0.000000
-13.397467 -12.527390 -0.634343 1329 0.737693 0.675137 0.000000
-13.397820 -12.527716 -0.628720 1335 0.737693 0.675137 0.000000
-13.397748 -12.527651 -0.623080 1325 0.737693 0.675137 0.000000
-13.397234 -12.527175 -0.617415 1331 0.737693 0.675137 0.000000
-13.396831 -12.526798 -0.611759 1325 0.737693 0.675137 0.000000
-13.397509 -12.527431 -0.606152 1319 0.737693 0.675137 0.000000
-13.397753 -12.527656 -0.600520 1323 0.737693 0.675137 0.000000
-13.397551 -12.527476 -0.594872 1335 0.737693 0.675137 0.000000
-13.397253 -12.527196 -0.589224 1333 0.737693 0.675137 0.000000
-13.397385 -12.527321 -0.583593 1323 0.737693 0.675137 0.000000
-13.397671 -12.527593 -0.577960 1335 0.737693 0.675137 0.000000
-13.397956 -12.527863 -0.572337 1337 0.737693 0.675137 0.000000
-13.397656 -12.527581 -0.566690 1329 0.737693 0.675137 0.000000
-13.397351 -12.527295 -0.561033 1335 0.737693 0.675137 0.000000
-13.398428 -12.528307 -0.555442 1333 0.737693 0.675137 0.000000
-13.398122 -12.528021 -0.549795 1321 0.737693 0.675137 0.000000
-13.397440 -12.527385 -0.544131 1313 0.737693 0.675137 0.000000
-13.398253 -12.528150 -0.538524 1333 0.737693 0.675137 0.000000
-13.398529 -12.528400 -0.532891 1333 0.737693 0.675137 0.000000
-13.398007 -12.527918 -0.527236 1331 0.737693 0.675137 0.000000
-13.397845 -12.527770 -0.521597 1331 0.737693 0.675137 0.000000
-13.397857 -12.527773 -0.515957 1335 0.737693 0.675137 0.000000
-13.397863 -12.527785 -0.510317 1339 0.737693 0.675137 0.000000
-13.398028 -12.527934 -0.504685 1335 0.737693 0.675137 0.000000
-13.397713 -12.527641 -0.499038 1325 0.737693 0.675137 0.000000
-13.397391 -12.527343 -0.493391 1317 0.737693 0.675137 0.000000
-13.397070 -12.527043 -0.487744 1321 0.737693 0.675137 0.000000
-13.396852 -12.526853 -0.482105 1319 0.737693 0.675137 0.000000
-13.397648 -12.527591 -0.476488 1333 0.737693 0.675137 0.000000
-13.398396 -12.528292 -0.470881 1335 0.737693 0.675137 0.000000
-13.398602 -12.528486 -0.465249 1353 0.737693 0.675137 0.000000
-13.398487 -12.528377 -0.459610 1327 0.737693 0.675137 0.000000
-13.398268 -12.528172 -0.453972 1329 0.737693 0.675137 0.000000
-13.397876 -12.527817 -0.448315 1325 0.737693 0.675137 0.000000
-13.398185 -12.528107 -0.442692 1315 0.737693 0.675137 0.000000
-13.398180 -12.528096 -0.437052 1327 0.737693 0.675137 0.000000
-13.398329 -12.528234 -0.431420 1325 0.737693 0.675137 0.000000
-13.398200 -12.528126 -0.425781 1319 0.737693 0.675137 0.000000
-13.398190 -12.528111 -0.420151 1325 0.737693 0.675137 0.000000
-13.398337 -12.528248 -0.414520 1329 0.737693 0.675137 0.000000
-13.397952 -12.527885 -0.408873 1323 0.737693 0.675137 0.000000
-13.398293 -12.528214 -0.403240 1329 0.737693 0.675137 0.000000
-13.398331 -12.528249 -0.397609 1317 0.737693 0.675137 0.000000
-13.397929 -12.527874 -0.391963 1317 0.737693 0.675137 0.000000
-13.398548 -12.528447 -0.386347 1321 0.737693 0.675137 0.000000
-13.398259 -12.528187 -0.380700 1319 0.737693 0.675137 0.000000
-13.398129 -12.528064 -0.375061 1325 0.737693 0.675137 0.000000
-13.397999 -12.527943 -0.369422 1323 0.737693 0.675137 0.000000
-13.397594 -12.527567 -0.363776 1321 0.737693 0.675137 0.000000
-13.398209 -12.528134 -0.358160 1321 0.737693 0.675137 0.000000
-13.398542 -12.528457 -0.352536 1331 0.737693 0.675137 0.000000
-13.398028 -12.527980 -0.346881 1329 0.737693 0.675137 0.000000
-13.397897 -12.527857 -0.341242 1339 0.737693 0.675137 0.000000
-13.398661 -12.528571 -0.335635 1331 0.737693 0.675137 0.000000
-13.398834 -12.528727 -0.330003 1327 0.737693 0.675137 0.000000
-13.398592 -12.528503 -0.324355 1327 0.737693 0.675137 0.000000
-13.398598 -12.528515 -0.318725 1331 0.737693 0.675137 0.000000
-13.398139 -12.528082 -0.313079 1329 0.737693 0.675137 0.000000
-13.397618 -12.527599 -0.307434 1327 0.737693 0.675137 0.000000
-13.397616 -12.527605 -0.301794 1333 0.737693 0.675137 0.000000
-13.397956 -12.527919 -0.296171 1331 0.737693 0.675137 0.000000
-13.401837 -12.523642 -0.690772 1333 0.737693 0.675137 0.000000
-13.401620 -12.523438 -0.685114 1339 0.737693 0.675137 0.000000
-13.401282 -12.523126 -0.679457 1337 0.737693 0.675137 0.000000
-13.401112 -12.522972 -0.673808 1325 0.737693 0.675137 0.000000
-13.401635 -12.523457 -0.668193 1327 0.737693 0.675137 0.000000
-13.401776 -12.523588 -0.662562 1317 0.737693 0.675137 0.000000
-13.401599 -12.523428 -0.656913 1335 0.737693 0.675137 0.000000
-13.401859 -12.523665 -0.651291 1343 0.737693 0.675137 0.000000
-13.401999 -12.523798 -0.645649 1343 0.737693 0.675137 0.000000
-13.401119 -12.522979 -0.639978 1325 0.737693 0.675137 0.000000
-13.401205 -12.523067 -0.634337 1331 0.737693 0.675137 0.000000
-13.401832 -12.523646 -0.628731 1327 0.737693 0.675137 0.000000
-13.401862 -12.523676 -0.623090 1325 0.737693 0.675137 0.000000
-13.401029 -12.522896 -0.617408 1335 0.737693 0.675137 0.000000
-13.400954 -12.522831 -0.611768 1341 0.737693 0.675137 0.000000
-13.401359 -12.523208 -0.606144 1331 0.737693 0.675137 0.000000
-13.401429 -12.523283 -0.600514 1323 0.737693 0.675137 0.000000
-13.401992 -12.523800 -0.594898 1343 0.737693 0.675137 0.000000
-13.402174 -12.523975 -0.589266 1345 0.737693 0.675137 0.000000
-13.402196 -12.523999 -0.583636 1327 0.737693 0.675137 0.000000
-13.401840 -12.523662 -0.577979 1321 0.737693 0.675137 0.000000
-13.401486 -12.523336 -0.572322 1329 0.737693 0.675137 0.000000
-13.401452 -12.523303 -0.566683 1319 0.737693 0.675137 0.000000
-13.401299 -12.523162 -0.561044 1321 0.737693 0.675137 0.000000
