396
-20.752949 -19.341549 -0.645583 1157 0.742990 0.669302 0.000000
-20.753473 -19.342033 -0.636878 1147 0.742990 0.669302 0.000000
-20.754044 -19.342567 -0.628183 1163 0.742990 0.669302 0.000000
-20.754349 -19.342850 -0.619470 1153 0.742990 0.669302 0.000000
-20.753628 -19.342176 -0.610736 1147 0.742990 0.669302 0.000000
-20.752626 -19.341255 -0.601985 1171 0.742990 0.669302 0.000000
-20.753515 -19.342081 -0.593297 1167 0.742990 0.669302 0.000000
-20.754341 -19.342855 -0.584609 1169 0.742990 0.669302 0.000000
-20.755276 -19.343727 -0.575920 1177 0.742990 0.669302 0.000000
-20.754604 -19.343094 -0.567176 1159 0.742990 0.669302 0.000000
-20.754148 -19.342670 -0.558450 1179 0.742990 0.669302 0.000000
-20.754475 -19.342985 -0.549747 1171 0.742990 0.669302 0.000000
-20.754490 -19.343000 -0.541026 1187 0.742990 0.669302 0.000000
-20.754192 -19.342714 -0.532309 1177 0.742990 0.669302 0.000000
-20.753984 -19.342529 -0.523591 1153 0.742990 0.669302 0.000000
-20.753292 -19.341890 -0.514857 1137 0.742990 0.669302 0.000000
-20.752979 -19.341593 -0.506130 1153 0.742990 0.669302 0.000000
-20.753792 -19.342358 -0.497432 1161 0.742990 0.669302 0.000000
-20.754379 -19.342903 -0.488736 1173 0.742990 0.669302 0.000000
-20.754011 -19.342564 -0.480009 1177 0.742990 0.669302 0.000000
-20.752981 -19.341606 -0.471269 1159 0.742990 0.669302 0.000000
-20.752932 -19.341558 -0.462559 1163 0.742990 0.669302 0.000000
-20.753410 -19.342003 -0.453854 1171 0.742990 0.669302 0.000000
-20.753769 -19.342344 -0.445151 1161 0.742990 0.669302 0.000000
-20.754459 -19.342985 -0.436444 1161 0.742990 0.669302 0.000000
-20.754562 -19.343082 -0.427733 1163 0.742990 0.669302 0.000000
-20.754009 -19.342569 -0.419008 1147 0.742990 0.669302 0.000000
-20.754425 -19.342953 -0.410304 1149 0.742990 0.669302 0.000000
-20.754568 -19.343096 -0.401592 1139 0.742990 0.669302 0.000000
-20.754766 -19.343281 -0.392880 1145 0.742990 0.669302 0.000000
-20.755121 -19.343605 -0.384177 1153 0.742990 0.669302 0.000000
-20.755527 -19.343994 -0.375463 1177 0.742990 0.669302 0.000000
-20.755127 -19.343616 -0.366746 1171 0.742990 0.669302 0.000000
-20.754244 -19.342800 -0.358014 1155 0.742990 0.669302 0.000000
-20.753740 -19.342327 -0.349289 1163 0.742990 0.669302 0.000000
-20.754934 -19.343445 -0.340597 1167 0.742990 0.669302 0.000000
-20.756088 -19.344519 -0.331906 1181 0.742990 0.669302 0.000000
-20.754763 -19.343290 -0.323168 1161 0.742990 0.669302 0.000000
-20.754347 -19.342899 -0.314452 1139 0.742990 0.669302 0.000000
-20.754795 -19.343319 -0.305738 1129 0.742990 0.669302 0.000000
-20.754059 -19.342638 -0.297014 1135 0.742990 0.669302 0.000000
-20.753006 -19.341648 -0.288294 1141 0.742990 0.669302 0.000000
-20.753811 -19.342405 -0.279586 1133 0.742990 0.669302 0.000000
-20.754940 -19.343460 -0.270886 1141 0.742990 0.669302 0.000000
-20.759457 -19.335531 -0.645592 1161 0.742990 0.669302 0.000000
-20.759064 -19.335171 -0.636865 1139 0.742990 0.669302 0.000000
-20.759367 -19.335453 -0.628162 1159 0.742990 0.669302 0.000000
-20.759558 -19.335632 -0.619450 1163 0.742990 0.669302 0.000000
-20.759756 -19.335819 -0.610738 1165 0.742990 0.669302 0.000000
-20.760534 -19.336542 -0.602051 1179 0.742990 0.669302 0.000000
-20.760397 -19.336412 -0.593322 1159 0.742990 0.669302 0.000000
-20.760054 -19.336090 -0.584595 1169 0.742990 0.669302 0.000000
-20.760448 -19.336458 -0.575891 1177 0.742990 0.669302 0.000000
-20.760197 -19.336233 -0.567173 1171 0.742990 0.669302 0.000000
-20.759159 -19.335260 -0.558433 1171 0.742990 0.669302 0.000000
-20.759220 -19.335323 -0.549712 1159 0.742990 0.669302 0.000000
-20.760630 -19.336639 -0.541038 1179 0.742990 0.669302 0.000000
-20.760534 -19.336554 -0.532319 1163 0.742990 0.669302 0.000000
-20.759623 -19.335705 -0.523577 1157 0.742990 0.669302 0.000000
-20.759798 -19.335871 -0.514866 1153 0.742990 0.669302 0.000000
-20.760506 -19.336525 -0.506169 1173 0.742990 0.669302 0.000000
-20.760290 -19.336332 -0.497451 1159 0.742990 0.669302 0.000000
-20.760233 -19.336277 -0.488731 1173 0.742990 0.669302 0.000000
-20.759815 -19.335884 -0.480005 1165 0.742990 0.669302 0.000000
-20.758963 -19.335094 -0.471272 1157 0.742990 0.669302 0.000000
-20.759975 -19.336042 -0.462583 1157 0.742990 0.669302 0.000000
-20.760706 -19.336727 -0.453886 1177 0.742990 0.669302 0.000000
-20.761469 -19.337427 -0.445188 1175 0.742990 0.669302 0.000000
-20.761286 -19.337273 -0.436470 1157 0.742990 0.669302 0.000000
-20.761395 -19.337360 -0.427759 1167 0.742990 0.669302 0.000000
-20.762177 -19.338099 -0.419051 1179 0.742990 0.669302 0.000000
-20.761139 -19.337126 -0.410321 1165 0.742990 0.669302 0.000000
-20.760380 -19.336422 -0.401587 1159 0.742990 0.669302 0.000000
-20.760954 -19.336958 -0.392892 1175 0.742990 0.669302 0.000000
-20.760290 -19.336344 -0.384158 1161 0.742990 0.669302 0.000000
-20.759844 -19.335928 -0.375442 1177 0.742990 0.669302 0.000000
-20.760780 -19.336805 -0.366743 1167 0.742990 0.669302 0.000000
-20.760168 -19.336229 -0.358018 1165 0.742990 0.669302 0.000000
-20.759539 -19.335657 -0.349294 1153 0.742990 0.669302 0.000000
-20.759998 -19.336075 -0.340589 1163 0.742990 0.669302 0.000000
-20.760666 -19.336699 -0.331883 1151 0.742990 0.669302 0.000000
-20.761860 -19.337816 -0.323192 1163 0.742990 0.669302 0.000000
-20.762037 -19.337984 -0.314480 1161 0.742990 0.669302 0.000000
-20.760664 -19.336704 -0.305742 1151 0.742990 0.669302 0.000000
-20.760679 -19.336721 -0.297032 1159 0.742990 0.669302 0.000000
-20.761969 -19.337927 -0.288330 1167 0.742990 0.669302 0.000000
-20.762676 -19.338581 -0.279633 1147 0.742990 0.669302 0.000000
-20.762093 -19.338045 -0.270908 1139 0.742990 0.669302 0.000000
-20.763880 -19.327345 -0.645551 1141 0.742990 0.669302 0.000000
-20.764889 -19.328278 -0.636862 1151 0.742990 0.669302 0.000000
-20.766146 -19.329460 -0.628179 1153 0.742990 0.669302 0.000000
-20.766665 -19.329939 -0.619484 1173 0.742990 0.669302 0.000000
-20.765675 -19.329014 -0.610734 1163 0.742990 0.669302 0.000000
-20.765434 -19.328800 -0.602015 1161 0.742990 0.669302 0.000000
-20.765148 -19.328537 -0.593288 1145 0.742990 0.669302 0.000000
-20.765169 -19.328556 -0.584578 1149 0.742990 0.669302 0.000000
-20.766426 -19.329725 -0.575896 1167 0.742990 0.669302 0.000000
-20.767780 -19.330982 -0.567213 1167 0.742990 0.669302 0.000000
-20.767372 -19.330610 -0.558486 1153 0.742990 0.669302 0.000000
-20.766106 -19.329428 -0.549738 1149 0.742990 0.669302 0.000000
-20.766169 -19.329494 -0.541027 1181 0.742990 0.669302 0.000000
-20.766884 -19.330154 -0.532330 1163 0.742990 0.669302 0.000000
-20.766626 -19.329916 -0.523602 1149 0.742990 0.669302 0.000000
-20.766363 -19.329668 -0.514885 1163 0.742990 0.669302 0.000000
-20.766268 -19.329582 -0.506165 1175 0.742990 0.669302 0.000000
-20.766321 -19.329643 -0.497455 1171 0.742990 0.669302 0.000000
-20.766758 -19.330042 -0.488750 1167 0.742990 0.669302 0.000000
-20.766006 -19.329348 -0.480017 1171 0.742990 0.669302 0.000000
-20.765848 -19.329197 -0.471299 1155 0.742990 0.669302 0.000000
-20.766436 -19.329744 -0.462593 1145 0.742990 0.669302 0.000000
-20.765352 -19.328745 -0.453853 1155 0.742990 0.669302 0.000000
-20.765406 -19.328793 -0.445142 1155 0.742990 0.669302 0.000000
-20.767756 -19.330980 -0.436480 1145 0.742990 0.669302 0.000000
-20.768335 -19.331522 -0.427774 1175 0.742990 0.669302 0.000000
-20.768368 -19.331549 -0.419064 1189 0.742990 0.669302 0.000000
-20.767235 -19.330500 -0.410324 1159 0.742990 0.669302 0.000000
-20.766150 -19.329485 -0.401584 1151 0.742990 0.669302 0.000000
-20.766922 -19.330217 -0.392887 1177 0.742990 0.669302 0.000000
-20.768465 -19.331652 -0.384202 1155 0.742990 0.669302 0.000000
-20.767796 -19.331032 -0.375478 1157 0.742990 0.669302 0.000000
-20.766169 -19.329514 -0.366733 1161 0.742990 0.669302 0.000000
-20.766672 -19.329990 -0.358028 1161 0.742990 0.669302 0.000000
-20.766964 -19.330267 -0.349315 1161 0.742990 0.669302 0.000000
-20.767736 -19.330984 -0.340618 1153 0.742990 0.669302 0.000000
-20.767647 -19.330904 -0.331898 1143 0.742990 0.669302 0.000000
-20.766649 -19.329973 -0.323167 1159 0.742990 0.669302 0.000000
-20.767365 -19.330635 -0.314470 1173 0.742990 0.669302 0.000000
-20.768457 -19.331657 -0.305770 1165 0.742990 0.669302 0.000000
-20.768948 -19.332115 -0.297065 1153 0.742990 0.669302 0.000000
-20.767626 -19.330889 -0.288327 1157 0.742990 0.669302 0.000000
-20.767155 -19.330454 -0.279612 1165 0.742990 0.669302 0.000000
-20.767862 -19.331108 -0.270905 1177 0.742990 0.669302 0.000000
-20.772972 -19.323267 -0.645638 1163 0.742990 0.669302 0.000000
-20.771774 -19.322153 -0.636889 1139 0.742990 0.669302 0.000000
-20.771225 -19.321642 -0.628154 1121 0.742990 0.669302 0.000000
-20.771313 -19.321726 -0.619443 1137 0.742990 0.669302 0.000000
-20.772738 -19.323053 -0.610759 1149 0.742990 0.669302 0.000000
-20.773565 -19.323832 -0.602071 1173 0.742990 0.669302 0.000000
-20.771770 -19.322165 -0.593308 1155 0.742990 0.669302 0.000000
-20.772015 -19.322386 -0.584595 1155 0.742990 0.669302 0.000000
-20.773050 -19.323353 -0.575905 1175 0.742990 0.669302 0.000000
-20.772860 -19.323177 -0.567187 1177 0.742990 0.669302 0.000000
-20.772562 -19.322895 -0.558460 1169 0.742990 0.669302 0.000000
-20.771502 -19.321913 -0.549719 1171 0.742990 0.669302 0.000000
-20.771843 -19.322227 -0.541016 1159 0.742990 0.669302 0.000000
-20.772766 -19.323090 -0.532317 1171 0.742990 0.669302 0.000000
-20.772932 -19.323252 -0.523605 1167 0.742990 0.669302 0.000000
-20.773579 -19.323856 -0.514909 1179 0.742990 0.669302 0.000000
-20.773584 -19.323864 -0.506199 1175 0.742990 0.669302 0.000000
-20.772682 -19.323023 -0.497457 1147 0.742990 0.669302 0.000000
-20.771994 -19.322376 -0.488723 1161 0.742990 0.669302 0.000000
-20.772314 -19.322685 -0.480020 1155 0.742990 0.669302 0.000000
-20.772526 -19.322882 -0.471308 1159 0.742990 0.669302 0.000000
-20.773651 -19.323931 -0.462617 1161 0.742990 0.669302 0.000000
-20.773968 -19.324224 -0.453914 1177 0.742990 0.669302 0.000000
-20.773098 -19.323421 -0.445172 1171 0.742990 0.669302 0.000000
-20.773357 -19.323656 -0.436469 1149 0.742990 0.669302 0.000000
-20.773350 -19.323654 -0.427749 1149 0.742990 0.669302 0.000000
-20.772528 -19.322887 -0.419017 1129 0.742990 0.669302 0.000000
-20.773802 -19.324068 -0.410334 1145 0.742990 0.669302 0.000000
-20.773895 -19.324160 -0.401623 1145 0.742990 0.669302 0.000000
-20.773291 -19.323603 -0.392889 1155 0.742990 0.669302 0.000000
-20.772785 -19.323130 -0.384173 1135 0.742990 0.669302 0.000000
-20.771955 -19.322357 -0.375441 1157 0.742990 0.669302 0.000000
-20.772249 -19.322634 -0.366728 1153 0.742990 0.669302 0.000000
-20.771910 -19.322325 -0.358011 1145 0.742990 0.669302 0.000000
-20.772154 -19.322548 -0.349298 1155 0.742990 0.669302 0.000000
-20.772869 -19.323221 -0.340601 1155 0.742990 0.669302 0.000000
-20.772245 -19.322641 -0.331877 1145 0.742990 0.669302 0.000000
-20.772005 -19.322414 -0.323159 1127 0.742990 0.669302 0.000000
-20.772818 -19.323179 -0.314461 1145 0.742990 0.669302 0.000000
-20.773693 -19.323990 -0.305763 1155 0.742990 0.669302 0.000000
-20.774082 -19.324356 -0.297049 1133 0.742990 0.669302 0.000000
-20.773500 -19.323818 -0.288324 1135 0.742990 0.669302 0.000000
-20.773561 -19.323872 -0.279613 1165 0.742990 0.669302 0.000000
-20.773951 -19.324234 -0.270910 1157 0.742990 0.669302 0.000000
-20.778027 -19.315891 -0.645610 1141 0.742990 0.669302 0.000000
-20.778448 -19.316282 -0.636906 1129 0.742990 0.669302 0.000000
-20.779610 -19.317358 -0.628225 1167 0.742990 0.669302 0.000000
-20.779051 -19.316843 -0.619490 1161 0.742990 0.669302 0.000000
-20.778008 -19.315874 -0.610749 1153 0.742990 0.669302 0.000000
-20.778357 -19.316204 -0.602036 1161 0.742990 0.669302 0.000000
-20.778332 -19.316175 -0.593326 1147 0.742990 0.669302 0.000000
-20.777924 -19.315804 -0.584590 1153 0.742990 0.669302 0.000000
-20.778481 -19.316326 -0.575894 1163 0.742990 0.669302 0.000000
-20.779308 -19.317087 -0.567196 1169 0.742990 0.669302 0.000000
-20.779652 -19.317415 -0.558493 1147 0.742990 0.669302 0.000000
-20.779449 -19.317232 -0.549774 1159 0.742990 0.669302 0.000000
-20.778667 -19.316500 -0.541032 1153 0.742990 0.669302 0.000000
-20.778341 -19.316204 -0.532314 1155 0.742990 0.669302 0.000000
-20.778633 -19.316479 -0.523601 1161 0.742990 0.669302 0.000000
-20.778585 -19.316429 -0.514892 1167 0.742990 0.669302 0.000000
-20.778862 -19.316689 -0.506179 1181 0.742990 0.669302 0.000000
-20.779886 -19.317636 -0.497489 1173 0.742990 0.669302 0.000000
-20.780540 -19.318249 -0.488783 1155 0.742990 0.669302 0.000000
-20.778923 -19.316748 -0.480038 1135 0.742990 0.669302 0.000000
-20.777687 -19.315601 -0.471289 1161 0.742990 0.669302 0.000000
-20.778276 -19.316149 -0.462593 1177 0.742990 0.669302 0.000000
-20.778059 -19.315941 -0.453875 1133 0.742990 0.669302 0.000000
-20.779341 -19.317142 -0.445183 1153 0.742990 0.669302 0.000000
-20.779331 -19.317137 -0.436473 1173 0.742990 0.669302 0.000000
-20.778406 -19.316278 -0.427731 1165 0.742990 0.669302 0.000000
-20.778189 -19.316069 -0.419013 1157 0.742990 0.669302 0.000000
-20.776985 -19.314962 -0.410274 1131 0.742990 0.669302 0.000000
-20.778316 -19.316189 -0.401591 1139 0.742990 0.669302 0.000000
-20.778936 -19.316772 -0.392885 1139 0.742990 0.669302 0.000000
-20.778591 -19.316452 -0.384168 1121 0.742990 0.669302 0.000000
-20.779051 -19.316883 -0.375464 1149 0.742990 0.669302 0.000000
-20.778708 -19.316563 -0.366747 1145 0.742990 0.669302 0.000000
-20.778040 -19.315945 -0.358013 1147 0.742990 0.669302 0.000000
-20.778818 -19.316669 -0.349315 1151 0.742990 0.669302 0.000000
-20.779257 -19.317083 -0.340611 1151 0.742990 0.669302 0.000000
-20.777733 -19.315659 -0.331875 1137 0.742990 0.669302 0.000000
-20.777111 -19.315090 -0.323151 1119 0.742990 0.669302 0.000000
-20.777451 -19.315405 -0.314437 1141 0.742990 0.669302 0.000000
-20.777849 -19.315771 -0.305734 1149 0.742990 0.669302 0.000000
-20.778494 -19.316378 -0.297027 1149 0.742990 0.669302 0.000000
-20.779320 -19.317139 -0.288329 1131 0.742990 0.669302 0.000000
-20.780123 -19.317896 -0.279622 1165 0.742990 0.669302 0.000000
-20.779980 -19.317759 -0.270913 1159 0.742990 0.669302 0.000000
-20.784628 -19.310190 -0.645637 1153 0.742990 0.669302 0.000000
-20.783640 -19.309280 -0.636886 1147 0.742990 0.669302 0.000000
-20.783949 -19.309568 -0.628183 1153 0.742990 0.669302 0.000000
-20.784142 -19.309746 -0.619471 1155 0.742990 0.669302 0.000000
-20.783630 -19.309282 -0.610735 1153 0.742990 0.669302 0.000000
-20.784737 -19.310303 -0.602055 1169 0.742990 0.669302 0.000000
-20.784552 -19.310135 -0.593336 1161 0.742990 0.669302 0.000000
-20.783552 -19.309202 -0.584585 1155 0.742990 0.669302 0.000000
-20.784332 -19.309929 -0.575898 1151 0.742990 0.669302 0.000000
-20.785152 -19.310698 -0.567200 1133 0.742990 0.669302 0.000000
-20.785814 -19.311316 -0.558503 1141 0.742990 0.669302 0.000000
-20.785938 -19.311430 -0.549792 1157 0.742990 0.669302 0.000000
-20.785366 -19.310902 -0.541057 1157 0.742990 0.669302 0.000000
-20.784519 -19.310116 -0.532325 1153 0.742990 0.669302 0.000000
-20.784159 -19.309782 -0.523598 1149 0.742990 0.669302 0.000000
-20.783520 -19.309189 -0.514864 1157 0.742990 0.669302 0.000000
-20.783146 -19.308842 -0.506147 1145 0.742990 0.669302 0.000000
-20.783854 -19.309496 -0.497440 1177 0.742990 0.669302 0.000000
-20.784019 -19.309656 -0.488738 1151 0.742990 0.669302 0.000000
-20.784662 -19.310247 -0.480032 1139 0.742990 0.669302 0.000000
-20.784559 -19.310154 -0.471313 1167 0.742990 0.669302 0.000000
-20.783163 -19.308857 -0.462576 1151 0.742990 0.669302 0.000000
-20.783163 -19.308859 -0.453856 1151 0.742990 0.669302 0.000000
-20.784492 -19.310099 -0.445173 1155 0.742990 0.669302 0.000000
-20.785286 -19.310833 -0.436475 1163 0.742990 0.669302 0.000000
-20.785269 -19.310823 -0.427755 1179 0.742990 0.669302 0.000000
-20.784353 -19.309971 -0.419024 1155 0.742990 0.669302 0.000000
-20.784288 -19.309910 -0.410314 1149 0.742990 0.669302 0.000000
-20.785124 -19.310690 -0.401616 1163 0.742990 0.669302 0.000000
-20.783823 -19.309481 -0.392868 1155 0.742990 0.669302 0.000000
-20.784269 -19.309902 -0.384164 1151 0.742990 0.669302 0.000000
-20.785805 -19.311329 -0.375479 1151 0.742990 0.669302 0.000000
-20.785517 -19.311066 -0.366761 1147 0.742990 0.669302 0.000000
-20.785229 -19.310787 -0.358044 1153 0.742990 0.669302 0.000000
-20.785093 -19.310671 -0.349325 1147 0.742990 0.669302 0.000000
-20.785109 -19.310686 -0.340615 1143 0.742990 0.669302 0.000000
-20.784437 -19.310066 -0.331891 1157 0.742990 0.669302 0.000000
-20.784300 -19.309935 -0.323172 1151 0.742990 0.669302 0.000000
-20.785112 -19.310698 -0.314474 1161 0.742990 0.669302 0.000000
-20.785677 -19.311213 -0.305769 1153 0.742990 0.669302 0.000000
-20.785627 -19.311178 -0.297049 1143 0.742990 0.669302 0.000000
-20.785690 -19.311230 -0.288338 1149 0.742990 0.669302 0.000000
-20.786669 -19.312153 -0.279639 1159 0.742990 0.669302 0.000000
-20.785982 -19.311506 -0.270915 1163 0.742990 0.669302 0.000000
-20.790379 -19.303469 -0.645632 1145 0.742990 0.669302 0.000000
-20.789925 -19.303061 -0.636896 1151 0.742990 0.669302 0.000000
-20.790766 -19.303835 -0.628208 1143 0.742990 0.669302 0.000000
-20.790855 -19.303921 -0.619497 1153 0.742990 0.669302 0.000000
-20.789858 -19.303003 -0.610746 1133 0.742990 0.669302 0.000000
-20.788925 -19.302137 -0.602005 1135 0.742990 0.669302 0.000000
-20.789869 -19.303005 -0.593316 1131 0.742990 0.669302 0.000000
-20.790539 -19.303629 -0.584619 1149 0.742990 0.669302 0.000000
-20.790297 -19.303402 -0.575901 1139 0.742990 0.669302 0.000000
-20.790848 -19.303917 -0.567196 1135 0.742990 0.669302 0.000000
-20.790648 -19.303738 -0.558478 1139 0.742990 0.669302 0.000000
-20.790134 -19.303255 -0.549742 1139 0.742990 0.669302 0.000000
-20.790581 -19.303679 -0.541038 1139 0.742990 0.669302 0.000000
-20.791122 -19.304186 -0.532343 1167 0.742990 0.669302 0.000000
-20.790228 -19.303350 -0.523601 1147 0.742990 0.669302 0.000000
-20.790228 -19.303352 -0.514891 1149 0.742990 0.669302 0.000000
-20.790243 -19.303368 -0.506170 1173 0.742990 0.669302 0.000000
-20.790567 -19.303667 -0.497467 1153 0.742990 0.669302 0.000000
-20.789602 -19.302776 -0.488726 1145 0.742990 0.669302 0.000000
-20.789394 -19.302589 -0.480007 1131 0.742990 0.669302 0.000000
-20.789766 -19.302925 -0.471304 1129 0.742990 0.669302 0.000000
-20.789072 -19.302288 -0.462570 1143 0.742990 0.669302 0.000000
-20.790243 -19.303373 -0.453879 1147 0.742990 0.669302 0.000000
-20.790943 -19.304022 -0.445182 1157 0.742990 0.669302 0.000000
-20.790712 -19.303816 -0.436464 1129 0.742990 0.669302 0.000000
-20.790264 -19.303400 -0.427738 1147 0.742990 0.669302 0.000000
-20.790094 -19.303242 -0.419019 1129 0.742990 0.669302 0.000000
-20.789658 -19.302832 -0.410303 1135 0.742990 0.669302 0.000000
-20.788773 -19.302017 -0.401571 1137 0.742990 0.669302 0.000000
-20.789352 -19.302557 -0.392866 1141 0.742990 0.669302 0.000000
-20.790291 -19.303434 -0.384167 1155 0.742990 0.669302 0.000000
-20.790432 -19.303562 -0.375455 1159 0.742990 0.669302 0.000000
-20.791267 -19.304346 -0.366757 1141 0.742990 0.669302 0.000000
-20.791561 -19.304605 -0.358054 1133 0.742990 0.669302 0.000000
-20.790413 -19.303543 -0.349315 1153 0.742990 0.669302 0.000000
-20.790491 -19.303621 -0.340604 1125 0.742990 0.669302 0.000000
-20.791153 -19.304239 -0.331897 1125 0.742990 0.669302 0.000000
-20.790848 -19.303961 -0.323180 1161 0.742990 0.669302 0.000000
-20.790703 -19.303825 -0.314471 1159 0.742990 0.669302 0.000000
-20.791531 -19.304585 -0.305763 1149 0.742990 0.669302 0.000000
-20.791164 -19.304260 -0.297046 1153 0.742990 0.669302 0.000000
-20.790262 -19.303417 -0.288325 1147 0.742990 0.669302 0.000000
-20.790438 -19.303585 -0.279613 1137 0.742990 0.669302 0.000000
-20.791088 -19.304182 -0.270907 1155 0.742990 0.669302 0.000000
-20.796179 -19.296570 -0.645629 1141 0.742990 0.669302 0.000000
-20.797016 -19.297354 -0.636931 1135 0.742990 0.669302 0.000000
-20.797279 -19.297588 -0.628228 1141 0.742990 0.669302 0.000000
-20.796822 -19.297167 -0.619492 1135 0.742990 0.669302 0.000000
-20.797760 -19.298042 -0.610803 1141 0.742990 0.669302 0.000000
-20.798061 -19.298325 -0.602100 1131 0.742990 0.669302 0.000000
-20.796947 -19.297300 -0.593350 1133 0.742990 0.669302 0.000000
-20.796339 -19.296730 -0.584616 1141 0.742990 0.669302 0.000000
-20.796312 -19.296700 -0.575896 1121 0.742990 0.669302 0.000000
-20.796276 -19.296671 -0.567186 1107 0.742990 0.669302 0.000000
-20.795279 -19.295755 -0.558435 1111 0.742990 0.669302 0.000000
-20.795723 -19.296162 -0.549731 1131 0.742990 0.669302 0.000000
-20.797657 -19.297958 -0.541072 1143 0.742990 0.669302 0.000000
-20.796986 -19.297338 -0.532338 1139 0.742990 0.669302 0.000000
-20.795860 -19.296293 -0.523589 1129 0.742990 0.669302 0.000000
-20.797003 -19.297356 -0.514908 1141 0.742990 0.669302 0.000000
-20.797436 -19.297756 -0.506203 1143 0.742990 0.669302 0.000000
-20.797291 -19.297619 -0.497485 1141 0.742990 0.669302 0.000000
-20.796328 -19.296726 -0.488743 1151 0.742990 0.669302 0.000000
-20.794989 -19.295488 -0.479996 1135 0.742990 0.669302 0.000000
-20.794605 -19.295134 -0.471279 1145 0.742990 0.669302 0.000000
-20.795233 -19.295727 -0.462573 1159 0.742990 0.669302 0.000000
-20.796585 -19.296968 -0.453890 1151 0.742990 0.669302 0.000000
-20.797325 -19.297663 -0.445193 1141 0.742990 0.669302 0.000000
-20.797371 -19.297701 -0.436482 1153 0.742990 0.669302 0.000000
-20.796614 -19.297001 -0.427749 1149 0.742990 0.669302 0.000000
-20.796597 -19.296989 -0.419029 1131 0.742990 0.669302 0.000000
-20.797228 -19.297583 -0.410333 1155 0.742990 0.669302 0.000000
-20.798126 -19.298414 -0.401635 1151 0.742990 0.669302 0.000000
-20.797628 -19.297947 -0.392909 1159 0.742990 0.669302 0.000000
-20.796688 -19.297087 -0.384178 1149 0.742990 0.669302 0.000000
-20.797316 -19.297665 -0.375471 1149 0.742990 0.669302 0.000000
-20.797880 -19.298193 -0.366776 1133 0.742990 0.669302 0.000000
-20.797691 -19.298018 -0.358057 1155 0.742990 0.669302 0.000000
-20.796749 -19.297146 -0.349326 1145 0.742990 0.669302 0.000000
-20.797199 -19.297558 -0.340622 1153 0.742990 0.669302 0.000000
-20.798082 -19.298378 -0.331923 1129 0.742990 0.669302 0.000000
-20.797285 -19.297646 -0.323190 1121 0.742990 0.669302 0.000000
-20.796600 -19.297016 -0.314467 1139 0.742990 0.669302 0.000000
-20.797754 -19.298086 -0.305776 1145 0.742990 0.669302 0.000000
-20.798199 -19.298496 -0.297061 1147 0.742990 0.669302 0.000000
-20.797251 -19.297615 -0.288340 1149 0.742990 0.669302 0.000000
-20.797733 -19.298069 -0.279625 1137 0.742990 0.669302 0.000000
-20.797533 -19.297886 -0.270917 1137 0.742990 0.669302 0.000000
-20.802855 -19.290022 -0.645639 1151 0.742990 0.669302 0.000000
-20.803314 -19.290455 -0.636934 1127 0.742990 0.669302 0.000000
-20.802818 -19.289988 -0.628199 1129 0.742990 0.669302 0.000000
-20.803823 -19.290915 -0.619519 1119 0.742990 0.669302 0.000000
-20.803846 -19.290949 -0.610799 1133 0.742990 0.669302 0.000000
-20.802914 -19.290081 -0.602057 1137 0.742990 0.669302 0.000000
-20.801916 -19.289152 -0.593317 1137 0.742990 0.669302 0.000000
-20.801945 -19.289179 -0.584596 1121 0.742990 0.669302 0.000000
-20.802877 -19.290051 -0.575907 1133 0.742990 0.669302 0.000000
-20.801561 -19.288828 -0.567159 1117 0.742990 0.669302 0.000000
-20.802279 -19.289490 -0.558462 1123 0.742990 0.669302 0.000000
-20.804642 -19.291689 -0.549810 1127 0.742990 0.669302 0.000000
-20.804497 -19.291553 -0.541081 1143 0.742990 0.669302 0.000000
-20.802584 -19.289780 -0.532319 1131 0.742990 0.669302 0.000000
-20.802654 -19.289852 -0.523608 1129 0.742990 0.669302 0.000000
-20.802664 -19.289862 -0.514888 1125 0.742990 0.669302 0.000000
-20.802351 -19.289564 -0.506170 1123 0.742990 0.669302 0.000000
-20.802717 -19.289909 -0.497467 1135 0.742990 0.669302 0.000000
-20.803001 -19.290176 -0.488754 1137 0.742990 0.669302 0.000000
-20.803158 -19.290318 -0.480042 1111 0.742990 0.669302 0.000000
-20.803913 -19.291023 -0.471345 1115 0.742990 0.669302 0.000000
-20.804445 -19.291513 -0.462640 1125 0.742990 0.669302 0.000000
-20.803745 -19.290869 -0.453916 1111 0.742990 0.669302 0.000000
-20.803425 -19.290567 -0.445189 1147 0.742990 0.669302 0.000000
-20.803511 -19.290651 -0.436478 1139 0.742990 0.669302 0.000000
-20.803759 -19.290890 -0.427765 1163 0.742990 0.669302 0.000000
-20.803860 -19.290985 -0.419054 1165 0.742990 0.669302 0.000000
-20.804440 -19.291513 -0.410349 1153 0.742990 0.669302 0.000000
-20.804535 -19.291603 -0.401637 1153 0.742990 0.669302 0.000000
-20.804407 -19.291492 -0.392918 1155 0.742990 0.669302 0.000000
-20.804859 -19.291918 -0.384214 1159 0.742990 0.669302 0.000000
-20.805063 -19.292095 -0.375502 1153 0.742990 0.669302 0.000000
-20.804611 -19.291687 -0.366786 1151 0.742990 0.669302 0.000000
-20.804474 -19.291555 -0.358067 1161 0.742990 0.669302 0.000000
-20.804655 -19.291729 -0.349355 1161 0.742990 0.669302 0.000000
-20.804201 -19.291306 -0.340629 1125 0.742990 0.669302 0.000000
-20.803099 -19.290281 -0.331899 1115 0.742990 0.669302 0.000000
-20.803329 -19.290506 -0.323187 1115 0.742990 0.669302 0.000000
-20.804203 -19.291319 -0.314488 1137 0.742990 0.669302 0.000000
-20.803797 -19.290934 -0.305772 1135 0.742990 0.669302 0.000000
-20.803965 -19.291096 -0.297060 1149 0.742990 0.669302 0.000000
-20.805157 -19.292198 -0.288359 1149 0.742990 0.669302 0.000000
-20.805378 -19.292404 -0.279647 1133 0.742990 0.669302 0.000000
-20.804157 -19.291271 -0.270918 1133 0.742990 0.669302 0.000000
