470
-18.074800 -17.767447 -0.647847 1157 0.722007 0.691886 0.000000
-18.075043 -17.767696 -0.640065 1155 0.722007 0.691886 0.000000
-18.075226 -17.767878 -0.632283 1139 0.722007 0.691886 0.000000
-18.075369 -17.768017 -0.624501 1133 0.722007 0.691886 0.000000
-18.075666 -17.768309 -0.616728 1163 0.722007 0.691886 0.000000
-18.075693 -17.768335 -0.608938 1149 0.722007 0.691886 0.000000
-18.075975 -17.768614 -0.601155 1149 0.722007 0.691886 0.000000
-18.075537 -17.768187 -0.593359 1143 0.722007 0.691886 0.000000
-18.074835 -17.767496 -0.585545 1137 0.722007 0.691886 0.000000
-18.075218 -17.767876 -0.577771 1159 0.722007 0.691886 0.000000
-18.075867 -17.768513 -0.570005 1165 0.722007 0.691886 0.000000
-18.075108 -17.767765 -0.562192 1141 0.722007 0.691886 0.000000
-18.074699 -17.767374 -0.554386 1159 0.722007 0.691886 0.000000
-18.074663 -17.767336 -0.546606 1161 0.722007 0.691886 0.000000
-18.073952 -17.766638 -0.538793 1137 0.722007 0.691886 0.000000
-18.074375 -17.767061 -0.531018 1143 0.722007 0.691886 0.000000
-18.074385 -17.767061 -0.523238 1145 0.722007 0.691886 0.000000
-18.074762 -17.767433 -0.515454 1165 0.722007 0.691886 0.000000
-18.075706 -17.768373 -0.507695 1143 0.722007 0.691886 0.000000
-18.075819 -17.768482 -0.499914 1133 0.722007 0.691886 0.000000
-18.076242 -17.768894 -0.492140 1155 0.722007 0.691886 0.000000
-18.075249 -17.767923 -0.484329 1159 0.722007 0.691886 0.000000
-18.073946 -17.766642 -0.476501 1143 0.722007 0.691886 0.000000
-18.074619 -17.767313 -0.468734 1141 0.722007 0.691886 0.000000
-18.075035 -17.767717 -0.460960 1147 0.722007 0.691886 0.000000
-18.074667 -17.767359 -0.453164 1153 0.722007 0.691886 0.000000
-18.075033 -17.767710 -0.445390 1149 0.722007 0.691886 0.000000
-18.074392 -17.767086 -0.437586 1145 0.722007 0.691886 0.000000
-18.074270 -17.766977 -0.429797 1145 0.722007 0.691886 0.000000
-18.075624 -17.768297 -0.422044 1153 0.722007 0.691886 0.000000
-18.075653 -17.768339 -0.414263 1155 0.722007 0.691886 0.000000
-18.074553 -17.767250 -0.406444 1155 0.722007 0.691886 0.000000
-18.074844 -17.767538 -0.398671 1145 0.722007 0.691886 0.000000
-18.075346 -17.768040 -0.390896 1139 0.722007 0.691886 0.000000
-18.074129 -17.766840 -0.383087 1143 0.722007 0.691886 0.000000
-18.074837 -17.767530 -0.375310 1135 0.722007 0.691886 0.000000
-18.074762 -17.767458 -0.367531 1139 0.722007 0.691886 0.000000
-18.073586 -17.766308 -0.359722 1147 0.722007 0.691886 0.000000
-18.074451 -17.767153 -0.351953 1151 0.722007 0.691886 0.000000
-18.074625 -17.767330 -0.344171 1137 0.722007 0.691886 0.000000
-18.073706 -17.766432 -0.336370 1139 0.722007 0.691886 0.000000
-18.073576 -17.766302 -0.328581 1125 0.722007 0.691886 0.000000
-18.074217 -17.766935 -0.320805 1113 0.722007 0.691886 0.000000
-18.074444 -17.767157 -0.313032 1135 0.722007 0.691886 0.000000
-18.074612 -17.767326 -0.305251 1127 0.722007 0.691886 0.000000
-18.075035 -17.767750 -0.297466 1155 0.722007 0.691886 0.000000
-18.074642 -17.767359 -0.289680 1143 0.722007 0.691886 0.000000
-18.081213 -17.762907 -0.647890 1123 0.722007 0.691886 0.000000
-18.081404 -17.763096 -0.640098 1141 0.722007 0.691886 0.000000
-18.080503 -17.762201 -0.632287 1133 0.722007 0.691886 0.000000
-18.080383 -17.762094 -0.624488 1137 0.722007 0.691886 0.000000
-18.080410 -17.762119 -0.616707 1165 0.722007 0.691886 0.000000
-18.080179 -17.761892 -0.608909 1141 0.722007 0.691886 0.000000
-18.080315 -17.762022 -0.601128 1133 0.722007 0.691886 0.000000
-18.079914 -17.761639 -0.593321 1151 0.722007 0.691886 0.000000
-18.079832 -17.761560 -0.585532 1145 0.722007 0.691886 0.000000
-18.079393 -17.761133 -0.577736 1149 0.722007 0.691886 0.000000
-18.079933 -17.761652 -0.569961 1153 0.722007 0.691886 0.000000
-18.079849 -17.761576 -0.562171 1145 0.722007 0.691886 0.000000
-18.078556 -17.760313 -0.554343 1145 0.722007 0.691886 0.000000
-18.079826 -17.761562 -0.546601 1141 0.722007 0.691886 0.000000
-18.080566 -17.762293 -0.538834 1157 0.722007 0.691886 0.000000
-18.080219 -17.761940 -0.531037 1145 0.722007 0.691886 0.000000
-18.080130 -17.761856 -0.523248 1149 0.722007 0.691886 0.000000
-18.080353 -17.762072 -0.515465 1161 0.722007 0.691886 0.000000
-18.079664 -17.761408 -0.507662 1147 0.722007 0.691886 0.000000
-18.079107 -17.760853 -0.499857 1155 0.722007 0.691886 0.000000
-18.080051 -17.761780 -0.492098 1167 0.722007 0.691886 0.000000
-18.080202 -17.761936 -0.484316 1149 0.722007 0.691886 0.000000
-18.080151 -17.761885 -0.476526 1131 0.722007 0.691886 0.000000
-18.079998 -17.761734 -0.468738 1141 0.722007 0.691886 0.000000
-18.079630 -17.761379 -0.460941 1151 0.722007 0.691886 0.000000
-18.079517 -17.761274 -0.453152 1127 0.722007 0.691886 0.000000
-18.079350 -17.761112 -0.445363 1147 0.722007 0.691886 0.000000
-18.079453 -17.761202 -0.437582 1167 0.722007 0.691886 0.000000
-18.079704 -17.761457 -0.429799 1159 0.722007 0.691886 0.000000
-18.079739 -17.761490 -0.422019 1145 0.722007 0.691886 0.000000
-18.080357 -17.762104 -0.414243 1157 0.722007 0.691886 0.000000
-18.080343 -17.762083 -0.406463 1151 0.722007 0.691886 0.000000
-18.080582 -17.762325 -0.398680 1171 0.722007 0.691886 0.000000
-18.080406 -17.762156 -0.390892 1145 0.722007 0.691886 0.000000
-18.080860 -17.762606 -0.383117 1145 0.722007 0.691886 0.000000
-18.080318 -17.762064 -0.375322 1133 0.722007 0.691886 0.000000
-18.078985 -17.760756 -0.367505 1141 0.722007 0.691886 0.000000
-18.079742 -17.761513 -0.359737 1157 0.722007 0.691886 0.000000
-18.080235 -17.761993 -0.351963 1163 0.722007 0.691886 0.000000
-18.079584 -17.761349 -0.344169 1151 0.722007 0.691886 0.000000
-18.078407 -17.760197 -0.336360 1151 0.722007 0.691886 0.000000
-18.078840 -17.760630 -0.328585 1151 0.722007 0.691886 0.000000
-18.080841 -17.762594 -0.320836 1145 0.722007 0.691886 0.000000
-18.080704 -17.762459 -0.313047 1153 0.722007 0.691886 0.000000
-18.079044 -17.760824 -0.305233 1159 0.722007 0.691886 0.000000
-18.079847 -17.761620 -0.297465 1145 0.722007 0.691886 0.000000
-18.080067 -17.761833 -0.289683 1133 0.722007 0.691886 0.000000
-18.086693 -17.757427 -0.647892 1125 0.722007 0.691886 0.000000
-18.087364 -17.758085 -0.640126 1119 0.722007 0.691886 0.000000
-18.086605 -17.757349 -0.632313 1127 0.722007 0.691886 0.000000
-18.086174 -17.756926 -0.624507 1129 0.722007 0.691886 0.000000
-18.085524 -17.756281 -0.616693 1139 0.722007 0.691886 0.000000
-18.086756 -17.757500 -0.608951 1155 0.722007 0.691886 0.000000
-18.086782 -17.757526 -0.601160 1113 0.722007 0.691886 0.000000
-18.085136 -17.755905 -0.593316 1135 0.722007 0.691886 0.000000
-18.084332 -17.755116 -0.585504 1131 0.722007 0.691886 0.000000
-18.084764 -17.755548 -0.577729 1135 0.722007 0.691886 0.000000
-18.085779 -17.756544 -0.569979 1149 0.722007 0.691886 0.000000
-18.086378 -17.757132 -0.562203 1139 0.722007 0.691886 0.000000
-18.085762 -17.756525 -0.554399 1153 0.722007 0.691886 0.000000
-18.086035 -17.756800 -0.546626 1133 0.722007 0.691886 0.000000
-18.085791 -17.756557 -0.538828 1123 0.722007 0.691886 0.000000
-18.084503 -17.755287 -0.531001 1127 0.722007 0.691886 0.000000
-18.085035 -17.755816 -0.523235 1135 0.722007 0.691886 0.000000
-18.085514 -17.756285 -0.515461 1141 0.722007 0.691886 0.000000
-18.085936 -17.756710 -0.507686 1151 0.722007 0.691886 0.000000
-18.085730 -17.756500 -0.499888 1159 0.722007 0.691886 0.000000
-18.084793 -17.755590 -0.492077 1137 0.722007 0.691886 0.000000
-18.085737 -17.756516 -0.484318 1143 0.722007 0.691886 0.000000
-18.086313 -17.757082 -0.476552 1143 0.722007 0.691886 0.000000
-18.086472 -17.757231 -0.468770 1155 0.722007 0.691886 0.000000
-18.085787 -17.756569 -0.460967 1139 0.722007 0.691886 0.000000
-18.085836 -17.756613 -0.453176 1149 0.722007 0.691886 0.000000
-18.087603 -17.758347 -0.445439 1165 0.722007 0.691886 0.000000
-18.087280 -17.758041 -0.437642 1157 0.722007 0.691886 0.000000
-18.085760 -17.756550 -0.429816 1165 0.722007 0.691886 0.000000
-18.085537 -17.756329 -0.422028 1167 0.722007 0.691886 0.000000
-18.086102 -17.756884 -0.414253 1159 0.722007 0.691886 0.000000
-18.086079 -17.756857 -0.406473 1159 0.722007 0.691886 0.000000
-18.085430 -17.756226 -0.398669 1151 0.722007 0.691886 0.000000
-18.086103 -17.756884 -0.390902 1141 0.722007 0.691886 0.000000
-18.086767 -17.757536 -0.383125 1153 0.722007 0.691886 0.000000
-18.085854 -17.756643 -0.375324 1127 0.722007 0.691886 0.000000
-18.084784 -17.755594 -0.367514 1129 0.722007 0.691886 0.000000
-18.085175 -17.755980 -0.359740 1151 0.722007 0.691886 0.000000
-18.085398 -17.756208 -0.351958 1157 0.722007 0.691886 0.000000
-18.084490 -17.755310 -0.344156 1157 0.722007 0.691886 0.000000
-18.084774 -17.755590 -0.336373 1147 0.722007 0.691886 0.000000
-18.086403 -17.757193 -0.328618 1157 0.722007 0.691886 0.000000
-18.087004 -17.757778 -0.320852 1153 0.722007 0.691886 0.000000
-18.086447 -17.757238 -0.313057 1131 0.722007 0.691886 0.000000
-18.085308 -17.756119 -0.305247 1135 0.722007 0.691886 0.000000
-18.085373 -17.756191 -0.297467 1135 0.722007 0.691886 0.000000
-18.085649 -17.756466 -0.289684 1129 0.722007 0.691886 0.000000
-18.090818 -17.750629 -0.647848 1161 0.722007 0.691886 0.000000
-18.091105 -17.750912 -0.640065 1153 0.722007 0.691886 0.000000
-18.092342 -17.752123 -0.632323 1163 0.722007 0.691886 0.000000
-18.092323 -17.752111 -0.624533 1159 0.722007 0.691886 0.000000
-18.091471 -17.751270 -0.616711 1145 0.722007 0.691886 0.000000
-18.092339 -17.752132 -0.608952 1153 0.722007 0.691886 0.000000
-18.091984 -17.751785 -0.601155 1147 0.722007 0.691886 0.000000
-18.091604 -17.751410 -0.593359 1169 0.722007 0.691886 0.000000
-18.092106 -17.751896 -0.585584 1163 0.722007 0.691886 0.000000
-18.091652 -17.751455 -0.577778 1151 0.722007 0.691886 0.000000
-18.090994 -17.750816 -0.569974 1133 0.722007 0.691886 0.000000
-18.090906 -17.750734 -0.562185 1137 0.722007 0.691886 0.000000
-18.090612 -17.750439 -0.554387 1133 0.722007 0.691886 0.000000
-18.090740 -17.750563 -0.546606 1133 0.722007 0.691886 0.000000
-18.091162 -17.750988 -0.538832 1149 0.722007 0.691886 0.000000
-18.091019 -17.750845 -0.531043 1149 0.722007 0.691886 0.000000
-18.091129 -17.750956 -0.523252 1157 0.722007 0.691886 0.000000
-18.090887 -17.750715 -0.515464 1147 0.722007 0.691886 0.000000
-18.090212 -17.750050 -0.507660 1151 0.722007 0.691886 0.000000
-18.090946 -17.750772 -0.499893 1161 0.722007 0.691886 0.000000
-18.091532 -17.751348 -0.492117 1177 0.722007 0.691886 0.000000
-18.090532 -17.750370 -0.484306 1155 0.722007 0.691886 0.000000
-18.089907 -17.749760 -0.476502 1135 0.722007 0.691886 0.000000
-18.090788 -17.750631 -0.468744 1159 0.722007 0.691886 0.000000
-18.091578 -17.751402 -0.460976 1159 0.722007 0.691886 0.000000
-18.091675 -17.751499 -0.453195 1157 0.722007 0.691886 0.000000
-18.091927 -17.751741 -0.445412 1149 0.722007 0.691886 0.000000
-18.091658 -17.751480 -0.437615 1153 0.722007 0.691886 0.000000
-18.091070 -17.750916 -0.429820 1167 0.722007 0.691886 0.000000
-18.091843 -17.751671 -0.422052 1159 0.722007 0.691886 0.000000
-18.091831 -17.751665 -0.414262 1153 0.722007 0.691886 0.000000
-18.091295 -17.751129 -0.406467 1153 0.722007 0.691886 0.000000
-18.091860 -17.751684 -0.398692 1161 0.722007 0.691886 0.000000
-18.091990 -17.751822 -0.390910 1151 0.722007 0.691886 0.000000
-18.091284 -17.751131 -0.383107 1145 0.722007 0.691886 0.000000
-18.090332 -17.750193 -0.375306 1141 0.722007 0.691886 0.000000
-18.091297 -17.751137 -0.367536 1161 0.722007 0.691886 0.000000
-18.092365 -17.752193 -0.359776 1165 0.722007 0.691886 0.000000
-18.090723 -17.750586 -0.351961 1151 0.722007 0.691886 0.000000
-18.090065 -17.749935 -0.344157 1151 0.722007 0.691886 0.000000
-18.091391 -17.751244 -0.336405 1163 0.722007 0.691886 0.000000
-18.091579 -17.751419 -0.328623 1149 0.722007 0.691886 0.000000
-18.091429 -17.751284 -0.320834 1147 0.722007 0.691886 0.000000
-18.090771 -17.750633 -0.313040 1139 0.722007 0.691886 0.000000
-18.090734 -17.750593 -0.305250 1141 0.722007 0.691886 0.000000
-18.090948 -17.750816 -0.297468 1141 0.722007 0.691886 0.000000
-18.090080 -17.749962 -0.289676 1135 0.722007 0.691886 0.000000
-18.097027 -17.745653 -0.647874 1145 0.722007 0.691886 0.000000
-18.097162 -17.745798 -0.640092 1147 0.722007 0.691886 0.000000
-18.097672 -17.746294 -0.632317 1153 0.722007 0.691886 0.000000
-18.097284 -17.745909 -0.624521 1149 0.722007 0.691886 0.000000
-18.096684 -17.745331 -0.616706 1147 0.722007 0.691886 0.000000
-18.097082 -17.745722 -0.608932 1139 0.722007 0.691886 0.000000
-18.097683 -17.746307 -0.601166 1153 0.722007 0.691886 0.000000
-18.098131 -17.746752 -0.593392 1147 0.722007 0.691886 0.000000
-18.098042 -17.746666 -0.585603 1161 0.722007 0.691886 0.000000
-18.097136 -17.745770 -0.577781 1149 0.722007 0.691886 0.000000
-18.096369 -17.745026 -0.569968 1137 0.722007 0.691886 0.000000
-18.096231 -17.744890 -0.562179 1139 0.722007 0.691886 0.000000
-18.096716 -17.745365 -0.554405 1151 0.722007 0.691886 0.000000
-18.096891 -17.745543 -0.546623 1153 0.722007 0.691886 0.000000
-18.097368 -17.746012 -0.538848 1161 0.722007 0.691886 0.000000
-18.097906 -17.746532 -0.531083 1147 0.722007 0.691886 0.000000
-18.096348 -17.745008 -0.523247 1133 0.722007 0.691886 0.000000
-18.096409 -17.745075 -0.515467 1145 0.722007 0.691886 0.000000
-18.097048 -17.745693 -0.507690 1159 0.722007 0.691886 0.000000
-18.097105 -17.745758 -0.499910 1149 0.722007 0.691886 0.000000
-18.097784 -17.746424 -0.492143 1157 0.722007 0.691886 0.000000
-18.097631 -17.746273 -0.484354 1177 0.722007 0.691886 0.000000
-18.097115 -17.745766 -0.476549 1151 0.722007 0.691886 0.000000
-18.097002 -17.745663 -0.468760 1149 0.722007 0.691886 0.000000
-18.096735 -17.745403 -0.460972 1167 0.722007 0.691886 0.000000
-18.096636 -17.745298 -0.453183 1155 0.722007 0.691886 0.000000
-18.097666 -17.746323 -0.445423 1153 0.722007 0.691886 0.000000
-18.097086 -17.745749 -0.437618 1149 0.722007 0.691886 0.000000
-18.096395 -17.745071 -0.429815 1155 0.722007 0.691886 0.000000
-18.096905 -17.745565 -0.422040 1151 0.722007 0.691886 0.000000
-18.097569 -17.746233 -0.414273 1155 0.722007 0.691886 0.000000
-18.098022 -17.746668 -0.406499 1149 0.722007 0.691886 0.000000
-18.097639 -17.746298 -0.398702 1137 0.722007 0.691886 0.000000
-18.095795 -17.744495 -0.390879 1139 0.722007 0.691886 0.000000
-18.094427 -17.743143 -0.383062 1135 0.722007 0.691886 0.000000
-18.096483 -17.745173 -0.375322 1123 0.722007 0.691886 0.000000
-18.097506 -17.746178 -0.367553 1147 0.722007 0.691886 0.000000
-18.095867 -17.744560 -0.359738 1149 0.722007 0.691886 0.000000
-18.096197 -17.744892 -0.351965 1145 0.722007 0.691886 0.000000
-18.097738 -17.746397 -0.344210 1139 0.722007 0.691886 0.000000
-18.097813 -17.746475 -0.336419 1143 0.722007 0.691886 0.000000
-18.097157 -17.745838 -0.328625 1135 0.722007 0.691886 0.000000
-18.097067 -17.745752 -0.320836 1123 0.722007 0.691886 0.000000
-18.096983 -17.745663 -0.313056 1131 0.722007 0.691886 0.000000
-18.096006 -17.744705 -0.305255 1127 0.722007 0.691886 0.000000
-18.095917 -17.744621 -0.297466 1135 0.722007 0.691886 0.000000
-18.095137 -17.743866 -0.289663 1119 0.722007 0.691886 0.000000
-18.102810 -17.740061 -0.647885 1113 0.722007 0.691886 0.000000
-18.103155 -17.740408 -0.640102 1133 0.722007 0.691886 0.000000
-18.104019 -17.741255 -0.632343 1135 0.722007 0.691886 0.000000
-18.103540 -17.740780 -0.624538 1125 0.722007 0.691886 0.000000
-18.102377 -17.739639 -0.616709 1127 0.722007 0.691886 0.000000
-18.102600 -17.739868 -0.608936 1129 0.722007 0.691886 0.000000
-18.102734 -17.739998 -0.601145 1137 0.722007 0.691886 0.000000
-18.102659 -17.739929 -0.593355 1137 0.722007 0.691886 0.000000
-18.103783 -17.741028 -0.585604 1147 0.722007 0.691886 0.000000
-18.102558 -17.739824 -0.577776 1151 0.722007 0.691886 0.000000
-18.101631 -17.738920 -0.569965 1137 0.722007 0.691886 0.000000
-18.102123 -17.739403 -0.562190 1147 0.722007 0.691886 0.000000
-18.101301 -17.738600 -0.554377 1125 0.722007 0.691886 0.000000
-18.102308 -17.739594 -0.546618 1143 0.722007 0.691886 0.000000
-18.102530 -17.739807 -0.538845 1149 0.722007 0.691886 0.000000
-18.102066 -17.739357 -0.531040 1133 0.722007 0.691886 0.000000
-18.102505 -17.739780 -0.523265 1143 0.722007 0.691886 0.000000
-18.101887 -17.739176 -0.515461 1147 0.722007 0.691886 0.000000
-18.101524 -17.738825 -0.507664 1145 0.722007 0.691886 0.000000
-18.102110 -17.739397 -0.499898 1143 0.722007 0.691886 0.000000
-18.102634 -17.739906 -0.492123 1133 0.722007 0.691886 0.000000
-18.102318 -17.739605 -0.484326 1137 0.722007 0.691886 0.000000
-18.102430 -17.739719 -0.476545 1141 0.722007 0.691886 0.000000
-18.102945 -17.740219 -0.468770 1147 0.722007 0.691886 0.000000
-18.102734 -17.740019 -0.460981 1149 0.722007 0.691886 0.000000
-18.102528 -17.739809 -0.453193 1141 0.722007 0.691886 0.000000
-18.102623 -17.739908 -0.445402 1143 0.722007 0.691886 0.000000
-18.102875 -17.740162 -0.437630 1149 0.722007 0.691886 0.000000
-18.102646 -17.739937 -0.429832 1139 0.722007 0.691886 0.000000
-18.102011 -17.739315 -0.422037 1153 0.722007 0.691886 0.000000
-18.102419 -17.739716 -0.414253 1129 0.722007 0.691886 0.000000
-18.103703 -17.740978 -0.406501 1145 0.722007 0.691886 0.000000
-18.102596 -17.739885 -0.398691 1135 0.722007 0.691886 0.000000
-18.102110 -17.739416 -0.390896 1137 0.722007 0.691886 0.000000
-18.101873 -17.739182 -0.383108 1139 0.722007 0.691886 0.000000
-18.101698 -17.739014 -0.375319 1123 0.722007 0.691886 0.000000
-18.102360 -17.739662 -0.367543 1155 0.722007 0.691886 0.000000
-18.101339 -17.738668 -0.359742 1137 0.722007 0.691886 0.000000
-18.100687 -17.738022 -0.351938 1139 0.722007 0.691886 0.000000
-18.101019 -17.738358 -0.344165 1127 0.722007 0.691886 0.000000
-18.101564 -17.738882 -0.336390 1135 0.722007 0.691886 0.000000
-18.101532 -17.738859 -0.328600 1139 0.722007 0.691886 0.000000
-18.102180 -17.739496 -0.320833 1141 0.722007 0.691886 0.000000
-18.102144 -17.739458 -0.313044 1141 0.722007 0.691886 0.000000
-18.101898 -17.739216 -0.305256 1133 0.722007 0.691886 0.000000
-18.102795 -17.740105 -0.297487 1147 0.722007 0.691886 0.000000
-18.101770 -17.739094 -0.289687 1123 0.722007 0.691886 0.000000
-18.109589 -17.735647 -0.647926 1121 0.722007 0.691886 0.000000
-18.109941 -17.735983 -0.640153 1133 0.722007 0.691886 0.000000
-18.109665 -17.735718 -0.632355 1159 0.722007 0.691886 0.000000
-18.107920 -17.734011 -0.624502 1153 0.722007 0.691886 0.000000
-18.108311 -17.734396 -0.616728 1139 0.722007 0.691886 0.000000
-18.108866 -17.734943 -0.608962 1131 0.722007 0.691886 0.000000
-18.108946 -17.735014 -0.601171 1147 0.722007 0.691886 0.000000
-18.108866 -17.734938 -0.593382 1141 0.722007 0.691886 0.000000
-18.108475 -17.734560 -0.585585 1147 0.722007 0.691886 0.000000
-18.108967 -17.735044 -0.577810 1137 0.722007 0.691886 0.000000
-18.108410 -17.734503 -0.570006 1125 0.722007 0.691886 0.000000
-18.107706 -17.733814 -0.562192 1133 0.722007 0.691886 0.000000
-18.107197 -17.733311 -0.554397 1141 0.722007 0.691886 0.000000
-18.106949 -17.733068 -0.546599 1139 0.722007 0.691886 0.000000
-18.108173 -17.734268 -0.538847 1155 0.722007 0.691886 0.000000
-18.109015 -17.735098 -0.531089 1161 0.722007 0.691886 0.000000
-18.108353 -17.734438 -0.523275 1157 0.722007 0.691886 0.000000
-18.108046 -17.734146 -0.515488 1149 0.722007 0.691886 0.000000
-18.107777 -17.733887 -0.507690 1149 0.722007 0.691886 0.000000
-18.107895 -17.734003 -0.499909 1149 0.722007 0.691886 0.000000
-18.108156 -17.734266 -0.492126 1163 0.722007 0.691886 0.000000
-18.107273 -17.733398 -0.484314 1143 0.722007 0.691886 0.000000
-18.107695 -17.733809 -0.476540 1135 0.722007 0.691886 0.000000
-18.108212 -17.734324 -0.468765 1131 0.722007 0.691886 0.000000
-18.108526 -17.734631 -0.460992 1137 0.722007 0.691886 0.000000
-18.107994 -17.734110 -0.453187 1147 0.722007 0.691886 0.000000
-18.108042 -17.734156 -0.445406 1131 0.722007 0.691886 0.000000
-18.108349 -17.734455 -0.437623 1145 0.722007 0.691886 0.000000
-18.108080 -17.734196 -0.429835 1139 0.722007 0.691886 0.000000
-18.107285 -17.733416 -0.422033 1125 0.722007 0.691886 0.000000
-18.107893 -17.734022 -0.414257 1153 0.722007 0.691886 0.000000
-18.107988 -17.734106 -0.406476 1155 0.722007 0.691886 0.000000
-18.107870 -17.733995 -0.398687 1139 0.722007 0.691886 0.000000
-18.108891 -17.734999 -0.390927 1157 0.722007 0.691886 0.000000
-18.108194 -17.734316 -0.383123 1141 0.722007 0.691886 0.000000
-18.107443 -17.733572 -0.375320 1141 0.722007 0.691886 0.000000
-18.107517 -17.733650 -0.367539 1139 0.722007 0.691886 0.000000
-18.108490 -17.734602 -0.359770 1151 0.722007 0.691886 0.000000
-18.108299 -17.734421 -0.351981 1151 0.722007 0.691886 0.000000
-18.108063 -17.734186 -0.344193 1133 0.722007 0.691886 0.000000
-18.107515 -17.733652 -0.336398 1143 0.722007 0.691886 0.000000
-18.107481 -17.733627 -0.328619 1131 0.722007 0.691886 0.000000
-18.108183 -17.734310 -0.320842 1149 0.722007 0.691886 0.000000
-18.107780 -17.733915 -0.313055 1141 0.722007 0.691886 0.000000
-18.107847 -17.733986 -0.305265 1131 0.722007 0.691886 0.000000
-18.107958 -17.734098 -0.297483 1149 0.722007 0.691886 0.000000
-18.107969 -17.734110 -0.289703 1145 0.722007 0.691886 0.000000
-18.113653 -17.728365 -0.647874 1133 0.722007 0.691886 0.000000
-18.113735 -17.728451 -0.640093 1135 0.722007 0.691886 0.000000
-18.113876 -17.728586 -0.632311 1135 0.722007 0.691886 0.000000
-18.113642 -17.728369 -0.624513 1137 0.722007 0.691886 0.000000
-18.114302 -17.729004 -0.616747 1127 0.722007 0.691886 0.000000
-18.113911 -17.728630 -0.608941 1127 0.722007 0.691886 0.000000
-18.113735 -17.728460 -0.601152 1149 0.722007 0.691886 0.000000
-18.114656 -17.729351 -0.593393 1147 0.722007 0.691886 0.000000
-18.114054 -17.728773 -0.585579 1129 0.722007 0.691886 0.000000
-18.113762 -17.728481 -0.577781 1113 0.722007 0.691886 0.000000
-18.113096 -17.727835 -0.569977 1137 0.722007 0.691886 0.000000
-18.113729 -17.728462 -0.562211 1133 0.722007 0.691886 0.000000
-18.114702 -17.729412 -0.554452 1133 0.722007 0.691886 0.000000
-18.113619 -17.728352 -0.546632 1125 0.722007 0.691886 0.000000
-18.113264 -17.728006 -0.538835 1133 0.722007 0.691886 0.000000
-18.112646 -17.727400 -0.531031 1131 0.722007 0.691886 0.000000
-18.112665 -17.727421 -0.523240 1153 0.722007 0.691886 0.000000
-18.113205 -17.727942 -0.515475 1145 0.722007 0.691886 0.000000
-18.112843 -17.727591 -0.507678 1139 0.722007 0.691886 0.000000
-18.113211 -17.727955 -0.499905 1123 0.722007 0.691886 0.000000
-18.113371 -17.728121 -0.492113 1131 0.722007 0.691886 0.000000
-18.113846 -17.728575 -0.484348 1115 0.722007 0.691886 0.000000
-18.114471 -17.729195 -0.476572 1137 0.722007 0.691886 0.000000
-18.113892 -17.728634 -0.468777 1145 0.722007 0.691886 0.000000
-18.113422 -17.728167 -0.460972 1129 0.722007 0.691886 0.000000
-18.113052 -17.727808 -0.453175 1141 0.722007 0.691886 0.000000
-18.113304 -17.728064 -0.445402 1149 0.722007 0.691886 0.000000
-18.113440 -17.728193 -0.437621 1151 0.722007 0.691886 0.000000
-18.113436 -17.728193 -0.429831 1137 0.722007 0.691886 0.000000
-18.113842 -17.728590 -0.422057 1135 0.722007 0.691886 0.000000
-18.113626 -17.728376 -0.414269 1119 0.722007 0.691886 0.000000
-18.113708 -17.728460 -0.406478 1139 0.722007 0.691886 0.000000
-18.112865 -17.727629 -0.398676 1143 0.722007 0.691886 0.000000
-18.113049 -17.727812 -0.390894 1143 0.722007 0.691886 0.000000
-18.113037 -17.727806 -0.383113 1135 0.722007 0.691886 0.000000
-18.112015 -17.726809 -0.375303 1127 0.722007 0.691886 0.000000
-18.111994 -17.726782 -0.367523 1133 0.722007 0.691886 0.000000
-18.113325 -17.728085 -0.359760 1145 0.722007 0.691886 0.000000
-18.113514 -17.728273 -0.351978 1133 0.722007 0.691886 0.000000
-18.111811 -17.726616 -0.344164 1137 0.722007 0.691886 0.000000
-18.110678 -17.725500 -0.336355 1121 0.722007 0.691886 0.000000
-18.112633 -17.727417 -0.328606 1137 0.722007 0.691886 0.000000
-18.114376 -17.729128 -0.320859 1157 0.722007 0.691886 0.000000
-18.114813 -17.729553 -0.313075 1151 0.722007 0.691886 0.000000
-18.114777 -17.729513 -0.305295 1137 0.722007 0.691886 0.000000
-18.113787 -17.728558 -0.297494 1129 0.722007 0.691886 0.000000
-18.113811 -17.728569 -0.289704 1119 0.722007 0.691886 0.000000
-18.119804 -17.722912 -0.647893 1127 0.722007 0.691886 0.000000
-18.120054 -17.723152 -0.640110 1141 0.722007 0.691886 0.000000
-18.120291 -17.723381 -0.632338 1129 0.722007 0.691886 0.000000
-18.120644 -17.723734 -0.624554 1121 0.722007 0.691886 0.000000
-18.119520 -17.722639 -0.616725 1137 0.722007 0.691886 0.000000
-18.119242 -17.722359 -0.608927 1135 0.722007 0.691886 0.000000
-18.119938 -17.723049 -0.601171 1137 0.722007 0.691886 0.000000
-18.120501 -17.723591 -0.593395 1151 0.722007 0.691886 0.000000
-18.120621 -17.723707 -0.585614 1117 0.722007 0.691886 0.000000
-18.120493 -17.723593 -0.577825 1127 0.722007 0.691886 0.000000
-18.120512 -17.723612 -0.570034 1139 0.722007 0.691886 0.000000
-18.119637 -17.722754 -0.562223 1143 0.722007 0.691886 0.000000
-18.119398 -17.722517 -0.554425 1123 0.722007 0.691886 0.000000
-18.118990 -17.722128 -0.546628 1115 0.722007 0.691886 0.000000
-18.118799 -17.721933 -0.538830 1117 0.722007 0.691886 0.000000
-18.119230 -17.722363 -0.531056 1123 0.722007 0.691886 0.000000
-18.119131 -17.722273 -0.523266 1125 0.722007 0.691886 0.000000
-18.119820 -17.722942 -0.515500 1137 0.722007 0.691886 0.000000
-18.119932 -17.723055 -0.507718 1123 0.722007 0.691886 0.000000
-18.119787 -17.722910 -0.499930 1137 0.722007 0.691886 0.000000
-18.119837 -17.722958 -0.492139 1151 0.722007 0.691886 0.000000
-18.119108 -17.722246 -0.484336 1131 0.722007 0.691886 0.000000
-18.118429 -17.721592 -0.476532 1119 0.722007 0.691886 0.000000
-18.119637 -17.722761 -0.468780 1139 0.722007 0.691886 0.000000
-18.120682 -17.723785 -0.461020 1127 0.722007 0.691886 0.000000
-18.120041 -17.723160 -0.453216 1145 0.722007 0.691886 0.000000
-18.120611 -17.723722 -0.445440 1141 0.722007 0.691886 0.000000
-18.119976 -17.723101 -0.437636 1127 0.722007 0.691886 0.000000
-18.118605 -17.721762 -0.429819 1141 0.722007 0.691886 0.000000
-18.118904 -17.722055 -0.422046 1125 0.722007 0.691886 0.000000
-18.119156 -17.722311 -0.414264 1137 0.722007 0.691886 0.000000
-18.119921 -17.723059 -0.406496 1141 0.722007 0.691886 0.000000
-18.119963 -17.723099 -0.398705 1139 0.722007 0.691886 0.000000
-18.119572 -17.722721 -0.390919 1133 0.722007 0.691886 0.000000
-18.119556 -17.722702 -0.383129 1129 0.722007 0.691886 0.000000
-18.119793 -17.722929 -0.375347 1141 0.722007 0.691886 0.000000
-18.120403 -17.723537 -0.367580 1135 0.722007 0.691886 0.000000
-18.119528 -17.722675 -0.359769 1135 0.722007 0.691886 0.000000
-18.118568 -17.721745 -0.351968 1139 0.722007 0.691886 0.000000
-18.119326 -17.722488 -0.344200 1145 0.722007 0.691886 0.000000
-18.119555 -17.722710 -0.336418 1133 0.722007 0.691886 0.000000
-18.118578 -17.721752 -0.328617 1131 0.722007 0.691886 0.000000
-18.118807 -17.721973 -0.320835 1139 0.722007 0.691886 0.000000
-18.118935 -17.722099 -0.313053 1127 0.722007 0.691886 0.000000
-18.118107 -17.721291 -0.305251 1139 0.722007 0.691886 0.000000
-18.118437 -17.721624 -0.297478 1127 0.722007 0.691886 0.000000
-18.119495 -17.722660 -0.289707 1111 0.722007 0.691886 0.000000
-18.125273 -17.717005 -0.647887 1129 0.722007 0.691886 0.000000
-18.125828 -17.717554 -0.640122 1131 0.722007 0.691886 0.000000
-18.125660 -17.717377 -0.632323 1125 0.722007 0.691886 0.000000
-18.125431 -17.717165 -0.624535 1105 0.722007 0.691886 0.000000
-18.125145 -17.716875 -0.616728 1121 0.722007 0.691886 0.000000
-18.124969 -17.716707 -0.608939 1139 0.722007 0.691886 0.000000
-18.125565 -17.717300 -0.601173 1141 0.722007 0.691886 0.000000
-18.125809 -17.717537 -0.593391 1135 0.722007 0.691886 0.000000
-18.125937 -17.717659 -0.585610 1123 0.722007 0.691886 0.000000
-18.125637 -17.717375 -0.577812 1117 0.722007 0.691886 0.000000
-18.125353 -17.717087 -0.570015 1129 0.722007 0.691886 0.000000
-18.124943 -17.716698 -0.562208 1137 0.722007 0.691886 0.000000
-18.124294 -17.716053 -0.554404 1121 0.722007 0.691886 0.000000
-18.124352 -17.716118 -0.546624 1123 0.722007 0.691886 0.000000
-18.124472 -17.716236 -0.538832 1125 0.722007 0.691886 0.000000
-18.124847 -17.716606 -0.531059 1129 0.722007 0.691886 0.000000
-18.125443 -17.717188 -0.523293 1133 0.722007 0.691886 0.000000
-18.124926 -17.716679 -0.515488 1115 0.722007 0.691886 0.000000
-18.124983 -17.716745 -0.507707 1125 0.722007 0.691886 0.000000
-18.125351 -17.717096 -0.499923 1123 0.722007 0.691886 0.000000
-18.126093 -17.717827 -0.492156 1119 0.722007 0.691886 0.000000
-18.125830 -17.717571 -0.484368 1139 0.722007 0.691886 0.000000
-18.123793 -17.715582 -0.476527 1129 0.722007 0.691886 0.000000
-18.123848 -17.715633 -0.468747 1137 0.722007 0.691886 0.000000
-18.125307 -17.717068 -0.460993 1125 0.722007 0.691886 0.000000
-18.125721 -17.717470 -0.453218 1129 0.722007 0.691886 0.000000
-18.125818 -17.717569 -0.445437 1129 0.722007 0.691886 0.000000
-18.125555 -17.717300 -0.437640 1137 0.722007 0.691886 0.000000
-18.124962 -17.716730 -0.429845 1133 0.722007 0.691886 0.000000
-18.123854 -17.715649 -0.422025 1119 0.722007 0.691886 0.000000
-18.124205 -17.715988 -0.414252 1127 0.722007 0.691886 0.000000
-18.125343 -17.717100 -0.406491 1125 0.722007 0.691886 0.000000
-18.125473 -17.717239 -0.398709 1129 0.722007 0.691886 0.000000
-18.125040 -17.716814 -0.390913 1119 0.722007 0.691886 0.000000
-18.124445 -17.716230 -0.383119 1139 0.722007 0.691886 0.000000
-18.124378 -17.716164 -0.375329 1145 0.722007 0.691886 0.000000
-18.124561 -17.716347 -0.367547 1155 0.722007 0.691886 0.000000
-18.124899 -17.716673 -0.359774 1147 0.722007 0.691886 0.000000
-18.124458 -17.716244 -0.351978 1155 0.722007 0.691886 0.000000
-18.123646 -17.715450 -0.344176 1135 0.722007 0.691886 0.000000
-18.123819 -17.715626 -0.336394 1137 0.722007 0.691886 0.000000
-18.123793 -17.715593 -0.328614 1125 0.722007 0.691886 0.000000
-18.123959 -17.715763 -0.320832 1119 0.722007 0.691886 0.000000
-18.124344 -17.716143 -0.313048 1111 0.722007 0.691886 0.000000
-18.124517 -17.716318 -0.305266 1131 0.722007 0.691886 0.000000
-18.124846 -17.716637 -0.297493 1135 0.722007 0.691886 0.000000
-18.125431 -17.717209 -0.289717 1123 0.722007 0.691886 0.000000
