627
-15.406006 -14.789080 -0.657240 331 0.707407 0.706807 0.000000
-15.404149 -14.787302 -0.650598 299 0.707407 0.706807 0.000000
-15.403287 -14.786471 -0.643996 307 0.707407 0.706807 0.000000
-15.405908 -14.788989 -0.637541 311 0.707407 0.706807 0.000000
-15.405574 -14.788664 -0.630964 331 0.707407 0.706807 0.000000
-15.406879 -14.789915 -0.624451 319 0.707407 0.706807 0.000000
-15.406593 -14.789644 -0.617884 345 0.707407 0.706807 0.000000
-15.405141 -14.788255 -0.611257 327 0.707407 0.706807 0.000000
-15.405437 -14.788533 -0.604704 333 0.707407 0.706807 0.000000
-15.406155 -14.789228 -0.598167 329 0.707407 0.706807 0.000000
-15.405602 -14.788696 -0.591583 347 0.707407 0.706807 0.000000
-15.404305 -14.787450 -0.584975 363 0.707407 0.706807 0.000000
-15.405276 -14.788383 -0.578445 361 0.707407 0.706807 0.000000
-15.405931 -14.789013 -0.571909 337 0.707407 0.706807 0.000000
-15.405053 -14.788169 -0.565317 377 0.707407 0.706807 0.000000
-15.406494 -14.789559 -0.558803 355 0.707407 0.706807 0.000000
-15.405196 -14.788313 -0.552195 313 0.707407 0.706807 0.000000
-15.403680 -14.786859 -0.545580 335 0.707407 0.706807 0.000000
-15.405642 -14.788748 -0.539091 383 0.707407 0.706807 0.000000
-15.407556 -14.790586 -0.532593 341 0.707407 0.706807 0.000000
-15.405937 -14.789019 -0.525968 315 0.707407 0.706807 0.000000
-15.405045 -14.788176 -0.519376 375 0.707407 0.706807 0.000000
-15.405426 -14.788539 -0.512832 375 0.707407 0.706807 0.000000
-15.404268 -14.787422 -0.506233 353 0.707407 0.706807 0.000000
-15.406541 -14.789610 -0.499741 349 0.707407 0.706807 0.000000
-15.407607 -14.790636 -0.493211 361 0.707407 0.706807 0.000000
-15.405344 -14.788454 -0.486583 375 0.707407 0.706807 0.000000
-15.404607 -14.787753 -0.479999 387 0.707407 0.706807 0.000000
-15.406877 -14.789927 -0.473508 371 0.707407 0.706807 0.000000
-15.406499 -14.789577 -0.466931 383 0.707407 0.706807 0.000000
-15.406538 -14.789616 -0.460371 385 0.707407 0.706807 0.000000
-15.405591 -14.788702 -0.453779 359 0.707407 0.706807 0.000000
-15.405592 -14.788708 -0.447219 385 0.707407 0.706807 0.000000
-15.406680 -14.789752 -0.440689 347 0.707407 0.706807 0.000000
-15.405042 -14.788182 -0.434084 329 0.707407 0.706807 0.000000
-15.404668 -14.787811 -0.427518 353 0.707407 0.706807 0.000000
-15.404281 -14.787441 -0.420941 373 0.707407 0.706807 0.000000
-15.403638 -14.786832 -0.414367 383 0.707407 0.706807 0.000000
-15.405154 -14.788285 -0.407842 361 0.707407 0.706807 0.000000
-15.405293 -14.788421 -0.401291 359 0.707407 0.706807 0.000000
-15.406074 -14.789167 -0.394753 369 0.707407 0.706807 0.000000
-15.408259 -14.791270 -0.388243 375 0.707407 0.706807 0.000000
-15.406922 -14.789992 -0.381645 355 0.707407 0.706807 0.000000
-15.404638 -14.787792 -0.375037 351 0.707407 0.706807 0.000000
-15.404134 -14.787312 -0.368461 333 0.707407 0.706807 0.000000
-15.406009 -14.789116 -0.361943 329 0.707407 0.706807 0.000000
-15.406562 -14.789649 -0.355398 347 0.707407 0.706807 0.000000
-15.405480 -14.788609 -0.348818 323 0.707407 0.706807 0.000000
-15.405450 -14.788576 -0.342258 343 0.707407 0.706807 0.000000
-15.401619 -14.784904 -0.335614 329 0.707407 0.706807 0.000000
-15.400484 -14.783806 -0.329025 333 0.707407 0.706807 0.000000
-15.403246 -14.786468 -0.322528 327 0.707407 0.706807 0.000000
-15.403635 -14.786837 -0.315975 347 0.707407 0.706807 0.000000
-15.405176 -14.788323 -0.309450 333 0.707407 0.706807 0.000000
-15.404453 -14.787622 -0.302877 337 0.707407 0.706807 0.000000
-15.403995 -14.787180 -0.296311 333 0.707407 0.706807 0.000000
-15.406227 -14.789322 -0.289789 365 0.707407 0.706807 0.000000
-15.410450 -14.784127 -0.657234 329 0.707407 0.706807 0.000000
-15.412185 -14.785789 -0.650748 317 0.707407 0.706807 0.000000
-15.411750 -14.785366 -0.644162 313 0.707407 0.706807 0.000000
-15.410047 -14.783731 -0.637528 335 0.707407 0.706807 0.000000
-15.408859 -14.782601 -0.630919 315 0.707407 0.706807 0.000000
-15.408424 -14.782179 -0.624333 305 0.707407 0.706807 0.000000
-15.410571 -14.784237 -0.617852 319 0.707407 0.706807 0.000000
-15.412119 -14.785728 -0.611358 329 0.707407 0.706807 0.000000
-15.412253 -14.785860 -0.604796 347 0.707407 0.706807 0.000000
-15.411864 -14.785476 -0.598220 319 0.707407 0.706807 0.000000
-15.413521 -14.787071 -0.591714 339 0.707407 0.706807 0.000000
-15.413554 -14.787106 -0.585153 359 0.707407 0.706807 0.000000
-15.410358 -14.784041 -0.578463 355 0.707407 0.706807 0.000000
-15.409801 -14.783503 -0.571889 369 0.707407 0.706807 0.000000
-15.410562 -14.784235 -0.565351 353 0.707407 0.706807 0.000000
-15.409623 -14.783340 -0.558750 349 0.707407 0.706807 0.000000
-15.409904 -14.783607 -0.552197 323 0.707407 0.706807 0.000000
-15.411188 -14.784839 -0.545685 327 0.707407 0.706807 0.000000
-15.409307 -14.783028 -0.539052 351 0.707407 0.706807 0.000000
-15.408049 -14.781828 -0.532454 349 0.707407 0.706807 0.000000
-15.408648 -14.782398 -0.525908 335 0.707407 0.706807 0.000000
-15.409653 -14.783373 -0.519379 353 0.707407 0.706807 0.000000
-15.408509 -14.782268 -0.512779 363 0.707407 0.706807 0.000000
-15.409249 -14.782982 -0.506242 355 0.707407 0.706807 0.000000
-15.408775 -14.782528 -0.499667 341 0.707407 0.706807 0.000000
-15.409157 -14.782890 -0.493123 337 0.707407 0.706807 0.000000
-15.410364 -14.784060 -0.486601 337 0.707407 0.706807 0.000000
-15.410419 -14.784113 -0.480040 357 0.707407 0.706807 0.000000
-15.410366 -14.784060 -0.473471 387 0.707407 0.706807 0.000000
-15.409636 -14.783352 -0.466888 373 0.707407 0.706807 0.000000
-15.411534 -14.785175 -0.460389 357 0.707407 0.706807 0.000000
-15.410151 -14.783858 -0.453782 353 0.707407 0.706807 0.000000
-15.407034 -14.780859 -0.447132 329 0.707407 0.706807 0.000000
-15.407128 -14.780957 -0.440571 357 0.707407 0.706807 0.000000
-15.407914 -14.781710 -0.434033 343 0.707407 0.706807 0.000000
-15.408009 -14.781794 -0.427482 373 0.707407 0.706807 0.000000
-15.409044 -14.782794 -0.420952 363 0.707407 0.706807 0.000000
-15.408352 -14.782130 -0.414369 351 0.707407 0.706807 0.000000
-15.407966 -14.781762 -0.407802 355 0.707407 0.706807 0.000000
-15.409163 -14.782910 -0.401271 367 0.707407 0.706807 0.000000
-15.410570 -14.784259 -0.394747 361 0.707407 0.706807 0.000000
-15.412766 -14.786369 -0.388246 381 0.707407 0.706807 0.000000
-15.412011 -14.785643 -0.381663 361 0.707407 0.706807 0.000000
-15.408444 -14.782229 -0.375017 349 0.707407 0.706807 0.000000
-15.406477 -14.780333 -0.368405 325 0.707407 0.706807 0.000000
-15.408827 -14.782585 -0.361903 345 0.707407 0.706807 0.000000
-15.408167 -14.781962 -0.355329 355 0.707407 0.706807 0.000000
-15.410251 -14.783954 -0.348819 329 0.707407 0.706807 0.000000
-15.410214 -14.783929 -0.342259 335 0.707407 0.706807 0.000000
-15.409126 -14.782885 -0.335679 341 0.707407 0.706807 0.000000
-15.411422 -14.785091 -0.329167 313 0.707407 0.706807 0.000000
-15.408909 -14.782675 -0.322551 311 0.707407 0.706807 0.000000
-15.409036 -14.782800 -0.316000 333 0.707407 0.706807 0.000000
-15.408569 -14.782351 -0.309424 341 0.707407 0.706807 0.000000
-15.407001 -14.780852 -0.302839 351 0.707407 0.706807 0.000000
-15.408704 -14.782474 -0.296312 319 0.707407 0.706807 0.000000
-15.408557 -14.782345 -0.289754 307 0.707407 0.706807 0.000000
-15.414726 -14.779360 -0.657228 333 0.707407 0.706807 0.000000
-15.417138 -14.781678 -0.650765 307 0.707407 0.706807 0.000000
-15.415016 -14.779639 -0.644115 323 0.707407 0.706807 0.000000
-15.412045 -14.776789 -0.637433 321 0.707407 0.706807 0.000000
-15.412187 -14.776926 -0.630872 285 0.707407 0.706807 0.000000
-15.414692 -14.779334 -0.624408 303 0.707407 0.706807 0.000000
-15.414306 -14.778964 -0.617831 319 0.707407 0.706807 0.000000
-15.415393 -14.779995 -0.611311 357 0.707407 0.706807 0.000000
-15.415845 -14.780430 -0.604767 321 0.707407 0.706807 0.000000
-15.412814 -14.777530 -0.598085 343 0.707407 0.706807 0.000000
-15.414736 -14.779372 -0.591597 345 0.707407 0.706807 0.000000
-15.416080 -14.780656 -0.585084 311 0.707407 0.706807 0.000000
-15.415516 -14.780126 -0.578499 337 0.707407 0.706807 0.000000
-15.416868 -14.781416 -0.571986 337 0.707407 0.706807 0.000000
-15.418051 -14.782552 -0.565465 349 0.707407 0.706807 0.000000
-15.414949 -14.779579 -0.558784 325 0.707407 0.706807 0.000000
-15.413651 -14.778332 -0.552176 325 0.707407 0.706807 0.000000
-15.416887 -14.781442 -0.545735 309 0.707407 0.706807 0.000000
-15.416049 -14.780643 -0.539143 363 0.707407 0.706807 0.000000
-15.413428 -14.778125 -0.532488 365 0.707407 0.706807 0.000000
-15.416238 -14.780826 -0.526021 383 0.707407 0.706807 0.000000
-15.414451 -14.779105 -0.519398 361 0.707407 0.706807 0.000000
-15.410930 -14.775731 -0.512721 355 0.707407 0.706807 0.000000
-15.413465 -14.778165 -0.506237 357 0.707407 0.706807 0.000000
-15.414895 -14.779533 -0.499723 341 0.707407 0.706807 0.000000
-15.416165 -14.780754 -0.493201 319 0.707407 0.706807 0.000000
-15.415588 -14.780201 -0.486626 341 0.707407 0.706807 0.000000
-15.413693 -14.778378 -0.480004 313 0.707407 0.706807 0.000000
-15.413904 -14.778585 -0.473452 337 0.707407 0.706807 0.000000
-15.414689 -14.779338 -0.466914 341 0.707407 0.706807 0.000000
-15.416798 -14.781363 -0.460414 363 0.707407 0.706807 0.000000
-15.416581 -14.781162 -0.453846 363 0.707407 0.706807 0.000000
-15.414522 -14.779175 -0.447225 361 0.707407 0.706807 0.000000
-15.414935 -14.779578 -0.440671 359 0.707407 0.706807 0.000000
-15.414079 -14.778753 -0.434089 381 0.707407 0.706807 0.000000
-15.411384 -14.776171 -0.427455 361 0.707407 0.706807 0.000000
-15.412210 -14.776970 -0.420917 355 0.707407 0.706807 0.000000
-15.411409 -14.776203 -0.414334 329 0.707407 0.706807 0.000000
-15.413657 -14.778358 -0.407833 351 0.707407 0.706807 0.000000
-15.414335 -14.779008 -0.401296 383 0.707407 0.706807 0.000000
-15.411568 -14.776353 -0.394662 349 0.707407 0.706807 0.000000
-15.414188 -14.778871 -0.388167 327 0.707407 0.706807 0.000000
-15.415488 -14.780117 -0.381645 347 0.707407 0.706807 0.000000
-15.414090 -14.778773 -0.375048 363 0.707407 0.706807 0.000000
-15.412543 -14.777293 -0.368452 341 0.707407 0.706807 0.000000
-15.412723 -14.777462 -0.361900 347 0.707407 0.706807 0.000000
-15.414279 -14.778961 -0.355375 329 0.707407 0.706807 0.000000
-15.414622 -14.779292 -0.348822 301 0.707407 0.706807 0.000000
-15.413277 -14.777993 -0.342235 329 0.707407 0.706807 0.000000
-15.411817 -14.776599 -0.335638 345 0.707407 0.706807 0.000000
-15.413948 -14.778644 -0.329128 339 0.707407 0.706807 0.000000
-15.417293 -14.781856 -0.322636 315 0.707407 0.706807 0.000000
-15.414362 -14.779038 -0.316014 309 0.707407 0.706807 0.000000
-15.413586 -14.778292 -0.309441 289 0.707407 0.706807 0.000000
-15.416027 -14.780635 -0.302928 329 0.707407 0.706807 0.000000
-15.414877 -14.779537 -0.296348 311 0.707407 0.706807 0.000000
-15.411986 -14.776767 -0.289736 341 0.707407 0.706807 0.000000
-15.422544 -14.777639 -0.657371 315 0.707407 0.706807 0.000000
-15.421535 -14.776671 -0.650760 337 0.707407 0.706807 0.000000
-15.420782 -14.775946 -0.644167 349 0.707407 0.706807 0.000000
-15.418179 -14.773454 -0.637491 345 0.707407 0.706807 0.000000
-15.416882 -14.772222 -0.630883 315 0.707407 0.706807 0.000000
-15.418724 -14.773986 -0.624386 317 0.707407 0.706807 0.000000
-15.420965 -14.776134 -0.617914 333 0.707407 0.706807 0.000000
-15.419892 -14.775102 -0.611314 319 0.707407 0.706807 0.000000
-15.419443 -14.774667 -0.604729 329 0.707407 0.706807 0.000000
-15.421846 -14.776978 -0.598256 361 0.707407 0.706807 0.000000
-15.422981 -14.778060 -0.591735 377 0.707407 0.706807 0.000000
-15.420052 -14.775256 -0.585062 335 0.707407 0.706807 0.000000
-15.417486 -14.772797 -0.578407 343 0.707407 0.706807 0.000000
-15.418988 -14.774238 -0.571892 333 0.707407 0.706807 0.000000
-15.421065 -14.776223 -0.565412 383 0.707407 0.706807 0.000000
-15.421135 -14.776301 -0.558852 341 0.707407 0.706807 0.000000
-15.419464 -14.774692 -0.552227 339 0.707407 0.706807 0.000000
-15.417632 -14.772947 -0.545594 347 0.707407 0.706807 0.000000
-15.417646 -14.772951 -0.539034 341 0.707407 0.706807 0.000000
-15.419608 -14.774840 -0.532545 369 0.707407 0.706807 0.000000
-15.421155 -14.776320 -0.526031 369 0.707407 0.706807 0.000000
-15.419471 -14.774712 -0.519416 351 0.707407 0.706807 0.000000
-15.417317 -14.772648 -0.512776 341 0.707407 0.706807 0.000000
-15.417652 -14.772958 -0.506233 355 0.707407 0.706807 0.000000
-15.418439 -14.773726 -0.499696 327 0.707407 0.706807 0.000000
-15.418712 -14.773984 -0.493143 319 0.707407 0.706807 0.000000
-15.418819 -14.774080 -0.486582 357 0.707407 0.706807 0.000000
-15.418869 -14.774139 -0.480021 345 0.707407 0.706807 0.000000
-15.418505 -14.773789 -0.473454 331 0.707407 0.706807 0.000000
-15.418397 -14.773679 -0.466885 343 0.707407 0.706807 0.000000
-15.419557 -14.774796 -0.460364 371 0.707407 0.706807 0.000000
-15.419596 -14.774834 -0.453804 421 0.707407 0.706807 0.000000
-15.417380 -14.772705 -0.447174 339 0.707407 0.706807 0.000000
-15.419644 -14.774873 -0.440683 369 0.707407 0.706807 0.000000
-15.422747 -14.777858 -0.434203 347 0.707407 0.706807 0.000000
-15.418728 -14.774003 -0.427531 335 0.707407 0.706807 0.000000
-15.416925 -14.772270 -0.420928 367 0.707407 0.706807 0.000000
-15.418645 -14.773918 -0.414412 353 0.707407 0.706807 0.000000
-15.417573 -14.772900 -0.407822 351 0.707407 0.706807 0.000000
-15.416027 -14.771420 -0.401226 319 0.707407 0.706807 0.000000
-15.416330 -14.771705 -0.394673 359 0.707407 0.706807 0.000000
-15.416309 -14.771692 -0.388113 339 0.707407 0.706807 0.000000
-15.419824 -14.775061 -0.381640 343 0.707407 0.706807 0.000000
-15.421076 -14.776254 -0.375108 331 0.707407 0.706807 0.000000
-15.418674 -14.773956 -0.368490 331 0.707407 0.706807 0.000000
-15.417805 -14.773119 -0.361908 333 0.707407 0.706807 0.000000
-15.417618 -14.772943 -0.355350 343 0.707407 0.706807 0.000000
-15.417433 -14.772769 -0.348782 349 0.707407 0.706807 0.000000
-15.418988 -14.774255 -0.342257 341 0.707407 0.706807 0.000000
-15.418476 -14.773767 -0.335691 351 0.707407 0.706807 0.000000
-15.416129 -14.771515 -0.329083 313 0.707407 0.706807 0.000000
-15.418082 -14.773398 -0.322565 309 0.707407 0.706807 0.000000
-15.418635 -14.773931 -0.316009 303 0.707407 0.706807 0.000000
-15.416226 -14.771613 -0.309402 311 0.707407 0.706807 0.000000
-15.415403 -14.770827 -0.302830 333 0.707407 0.706807 0.000000
-15.415038 -14.770477 -0.296263 309 0.707407 0.706807 0.000000
-15.417428 -14.772776 -0.289750 349 0.707407 0.706807 0.000000
-15.424919 -14.770517 -0.657275 329 0.707407 0.706807 0.000000
-15.425595 -14.771165 -0.650739 313 0.707407 0.706807 0.000000
-15.425098 -14.770692 -0.644153 319 0.707407 0.706807 0.000000
-15.424929 -14.770529 -0.637585 287 0.707407 0.706807 0.000000
-15.424169 -14.769809 -0.630992 309 0.707407 0.706807 0.000000
-15.424621 -14.770244 -0.624437 333 0.707407 0.706807 0.000000
-15.425397 -14.770976 -0.617910 347 0.707407 0.706807 0.000000
-15.425999 -14.771562 -0.611364 311 0.707407 0.706807 0.000000
-15.427617 -14.773112 -0.604868 323 0.707407 0.706807 0.000000
-15.424795 -14.770412 -0.598195 335 0.707407 0.706807 0.000000
-15.422976 -14.768665 -0.591562 323 0.707407 0.706807 0.000000
-15.423047 -14.768731 -0.585001 353 0.707407 0.706807 0.000000
-15.424712 -14.770335 -0.578495 337 0.707407 0.706807 0.000000
-15.427636 -14.773131 -0.572047 329 0.707407 0.706807 0.000000
-15.426549 -14.772086 -0.565437 307 0.707407 0.706807 0.000000
-15.425717 -14.771295 -0.558845 331 0.707407 0.706807 0.000000
-15.424467 -14.770101 -0.552237 351 0.707407 0.706807 0.000000
-15.422688 -14.768400 -0.545614 393 0.707407 0.706807 0.000000
-15.424026 -14.769678 -0.539101 361 0.707407 0.706807 0.000000
-15.424726 -14.770347 -0.532564 327 0.707407 0.706807 0.000000
-15.426273 -14.771826 -0.526049 345 0.707407 0.706807 0.000000
-15.426227 -14.771780 -0.519489 349 0.707407 0.706807 0.000000
-15.425398 -14.770988 -0.512897 337 0.707407 0.706807 0.000000
-15.425981 -14.771546 -0.506352 353 0.707407 0.706807 0.000000
-15.425081 -14.770697 -0.499760 329 0.707407 0.706807 0.000000
-15.424506 -14.770144 -0.493175 339 0.707407 0.706807 0.000000
-15.424724 -14.770345 -0.486623 339 0.707407 0.706807 0.000000
-15.422347 -14.768068 -0.479985 335 0.707407 0.706807 0.000000
-15.421509 -14.767270 -0.473403 339 0.707407 0.706807 0.000000
-15.423080 -14.768783 -0.466888 365 0.707407 0.706807 0.000000
-15.423663 -14.769340 -0.460342 345 0.707407 0.706807 0.000000
-15.424612 -14.770242 -0.453813 369 0.707407 0.706807 0.000000
-15.423020 -14.768723 -0.447208 323 0.707407 0.706807 0.000000
-15.422430 -14.768158 -0.440634 329 0.707407 0.706807 0.000000
-15.423417 -14.769105 -0.434094 345 0.707407 0.706807 0.000000
-15.422517 -14.768242 -0.427512 341 0.707407 0.706807 0.000000
-15.422400 -14.768125 -0.420943 359 0.707407 0.706807 0.000000
-15.424494 -14.770138 -0.414443 327 0.707407 0.706807 0.000000
-15.423646 -14.769319 -0.407861 375 0.707407 0.706807 0.000000
-15.422031 -14.767781 -0.401256 311 0.707407 0.706807 0.000000
-15.422662 -14.768379 -0.394710 345 0.707407 0.706807 0.000000
-15.423324 -14.769014 -0.388174 351 0.707407 0.706807 0.000000
-15.422991 -14.768703 -0.381607 351 0.707407 0.706807 0.000000
-15.423178 -14.768878 -0.375045 373 0.707407 0.706807 0.000000
-15.424422 -14.770065 -0.368523 333 0.707407 0.706807 0.000000
-15.424556 -14.770195 -0.361962 353 0.707407 0.706807 0.000000
-15.423841 -14.769514 -0.355388 359 0.707407 0.706807 0.000000
-15.425288 -14.770908 -0.348854 335 0.707407 0.706807 0.000000
-15.425738 -14.771330 -0.342310 365 0.707407 0.706807 0.000000
-15.424326 -14.769987 -0.335713 323 0.707407 0.706807 0.000000
-15.423239 -14.768943 -0.329133 337 0.707407 0.706807 0.000000
-15.421468 -14.767250 -0.322540 347 0.707407 0.706807 0.000000
-15.422696 -14.768424 -0.316008 347 0.707407 0.706807 0.000000
-15.423770 -14.769455 -0.309468 355 0.707407 0.706807 0.000000
-15.421618 -14.767392 -0.302868 331 0.707407 0.706807 0.000000
-15.423173 -14.768877 -0.296333 321 0.707407 0.706807 0.000000
-15.424497 -14.770157 -0.289800 335 0.707407 0.706807 0.000000
-15.428304 -14.765083 -0.657237 319 0.707407 0.706807 0.000000
-15.428124 -14.764902 -0.650668 307 0.707407 0.706807 0.000000
-15.427753 -14.764544 -0.644082 307 0.707407 0.706807 0.000000
-15.429006 -14.765752 -0.637569 349 0.707407 0.706807 0.000000
-15.429402 -14.766128 -0.631026 335 0.707407 0.706807 0.000000
-15.429224 -14.765959 -0.624457 309 0.707407 0.706807 0.000000
-15.429420 -14.766154 -0.617895 329 0.707407 0.706807 0.000000
-15.428123 -14.764909 -0.611287 311 0.707407 0.706807 0.000000
-15.429531 -14.766258 -0.604774 315 0.707407 0.706807 0.000000
-15.430605 -14.767290 -0.598253 319 0.707407 0.706807 0.000000
-15.429113 -14.765855 -0.591627 323 0.707407 0.706807 0.000000
-15.429448 -14.766178 -0.585084 331 0.707407 0.706807 0.000000
-15.431470 -14.768119 -0.578595 315 0.707407 0.706807 0.000000
-15.430390 -14.767081 -0.571985 339 0.707407 0.706807 0.000000
-15.428674 -14.765433 -0.565361 339 0.707407 0.706807 0.000000
-15.431542 -14.768184 -0.558904 339 0.707407 0.706807 0.000000
-15.432779 -14.769365 -0.552382 359 0.707407 0.706807 0.000000
-15.428668 -14.765432 -0.545671 357 0.707407 0.706807 0.000000
-15.427309 -14.764133 -0.539063 341 0.707407 0.706807 0.000000
-15.429485 -14.766216 -0.532573 367 0.707407 0.706807 0.000000
-15.431135 -14.767794 -0.526067 367 0.707407 0.706807 0.000000
-15.428665 -14.765439 -0.519420 375 0.707407 0.706807 0.000000
-15.427405 -14.764225 -0.512822 357 0.707407 0.706807 0.000000
-15.429848 -14.766568 -0.506338 333 0.707407 0.706807 0.000000
-15.428792 -14.765563 -0.499738 359 0.707407 0.706807 0.000000
-15.427580 -14.764400 -0.493140 361 0.707407 0.706807 0.000000
-15.428530 -14.765316 -0.486610 293 0.707407 0.706807 0.000000
-15.428848 -14.765615 -0.480057 333 0.707407 0.706807 0.000000
-15.429160 -14.765918 -0.473504 361 0.707407 0.706807 0.000000
-15.428647 -14.765419 -0.466929 349 0.707407 0.706807 0.000000
-15.427156 -14.763998 -0.460323 369 0.707407 0.706807 0.000000
-15.425991 -14.762888 -0.453734 321 0.707407 0.706807 0.000000
-15.425877 -14.762772 -0.447165 339 0.707407 0.706807 0.000000
-15.426133 -14.763017 -0.440612 341 0.707407 0.706807 0.000000
-15.426966 -14.763823 -0.434074 355 0.707407 0.706807 0.000000
-15.428919 -14.765692 -0.427565 365 0.707407 0.706807 0.000000
-15.431546 -14.768202 -0.421080 317 0.707407 0.706807 0.000000
-15.432278 -14.768896 -0.414543 345 0.707407 0.706807 0.000000
-15.430086 -14.766800 -0.407914 339 0.707407 0.706807 0.000000
-15.428487 -14.765276 -0.401319 355 0.707407 0.706807 0.000000
-15.427251 -14.764093 -0.394720 397 0.707407 0.706807 0.000000
-15.427556 -14.764380 -0.388167 347 0.707407 0.706807 0.000000
-15.427635 -14.764464 -0.381616 355 0.707407 0.706807 0.000000
-15.428568 -14.765353 -0.375077 349 0.707407 0.706807 0.000000
-15.430971 -14.767664 -0.368575 345 0.707407 0.706807 0.000000
-15.430419 -14.767130 -0.362000 359 0.707407 0.706807 0.000000
-15.427382 -14.764223 -0.355368 383 0.707407 0.706807 0.000000
-15.425291 -14.762225 -0.348758 327 0.707407 0.706807 0.000000
-15.429654 -14.766404 -0.342296 363 0.707407 0.706807 0.000000
-15.430773 -14.767474 -0.335766 373 0.707407 0.706807 0.000000
-15.430013 -14.766741 -0.329183 357 0.707407 0.706807 0.000000
-15.429772 -14.766507 -0.322625 355 0.707407 0.706807 0.000000
-15.428879 -14.765664 -0.316043 315 0.707407 0.706807 0.000000
-15.427209 -14.764068 -0.309449 321 0.707407 0.706807 0.000000
-15.427652 -14.764482 -0.302904 311 0.707407 0.706807 0.000000
-15.431416 -14.768083 -0.296409 333 0.707407 0.706807 0.000000
-15.429210 -14.765975 -0.289809 307 0.707407 0.706807 0.000000
-15.435416 -14.763569 -0.657371 329 0.707407 0.706807 0.000000
-15.432765 -14.761024 -0.650686 329 0.707407 0.706807 0.000000
-15.432386 -14.760661 -0.644109 329 0.707407 0.706807 0.000000
-15.433257 -14.761498 -0.637581 333 0.707407 0.706807 0.000000
-15.434355 -14.762549 -0.631060 317 0.707407 0.706807 0.000000
-15.434448 -14.762633 -0.624499 311 0.707407 0.706807 0.000000
-15.434363 -14.762555 -0.617930 317 0.707407 0.706807 0.000000
-15.436712 -14.764807 -0.611458 329 0.707407 0.706807 0.000000
-15.434529 -14.762718 -0.604808 293 0.707407 0.706807 0.000000
-15.433240 -14.761477 -0.598200 347 0.707407 0.706807 0.000000
-15.432581 -14.760856 -0.591606 323 0.707407 0.706807 0.000000
-15.433554 -14.761790 -0.585077 321 0.707407 0.706807 0.000000
-15.436110 -14.764228 -0.578613 329 0.707407 0.706807 0.000000
-15.437192 -14.765267 -0.572092 331 0.707407 0.706807 0.000000
-15.434784 -14.762963 -0.565435 345 0.707407 0.706807 0.000000
-15.433796 -14.762015 -0.558834 361 0.707407 0.706807 0.000000
-15.435183 -14.763347 -0.552321 321 0.707407 0.706807 0.000000
-15.433402 -14.761646 -0.545697 335 0.707407 0.706807 0.000000
-15.434111 -14.762321 -0.539161 355 0.707407 0.706807 0.000000
-15.434959 -14.763140 -0.532622 347 0.707407 0.706807 0.000000
-15.433817 -14.762049 -0.526023 331 0.707407 0.706807 0.000000
-15.430857 -14.759220 -0.519361 335 0.707407 0.706807 0.000000
-15.432459 -14.760744 -0.512856 345 0.707407 0.706807 0.000000
-15.434894 -14.763081 -0.506372 349 0.707407 0.706807 0.000000
-15.430463 -14.758842 -0.499664 371 0.707407 0.706807 0.000000
-15.429841 -14.758239 -0.493080 333 0.707407 0.706807 0.000000
-15.433745 -14.761984 -0.486643 327 0.707407 0.706807 0.000000
-15.432688 -14.760964 -0.480053 339 0.707407 0.706807 0.000000
-15.432433 -14.760717 -0.473485 397 0.707407 0.706807 0.000000
-15.434113 -14.762334 -0.466969 351 0.707407 0.706807 0.000000
-15.432101 -14.760413 -0.460348 355 0.707407 0.706807 0.000000
-15.430991 -14.759349 -0.453758 363 0.707407 0.706807 0.000000
-15.431831 -14.760146 -0.447220 383 0.707407 0.706807 0.000000
-15.433410 -14.761665 -0.440705 347 0.707407 0.706807 0.000000
-15.434242 -14.762457 -0.434167 349 0.707407 0.706807 0.000000
-15.433123 -14.761385 -0.427577 339 0.707407 0.706807 0.000000
-15.432004 -14.760314 -0.420978 345 0.707407 0.706807 0.000000
-15.433739 -14.761975 -0.414471 361 0.707407 0.706807 0.000000
-15.435248 -14.763423 -0.407947 363 0.707407 0.706807 0.000000
-15.432962 -14.761235 -0.401328 343 0.707407 0.706807 0.000000
-15.433003 -14.761274 -0.394768 367 0.707407 0.706807 0.000000
-15.435041 -14.763227 -0.388258 349 0.707407 0.706807 0.000000
-15.434590 -14.762793 -0.381682 353 0.707407 0.706807 0.000000
-15.432625 -14.760910 -0.375081 359 0.707407 0.706807 0.000000
-15.432386 -14.760692 -0.368513 357 0.707407 0.706807 0.000000
-15.432511 -14.760815 -0.361951 365 0.707407 0.706807 0.000000
-15.431907 -14.760237 -0.355377 383 0.707407 0.706807 0.000000
-15.432466 -14.760760 -0.348832 339 0.707407 0.706807 0.000000
-15.432382 -14.760684 -0.342272 345 0.707407 0.706807 0.000000
-15.431186 -14.759549 -0.335683 327 0.707407 0.706807 0.000000
-15.432165 -14.760476 -0.329144 343 0.707407 0.706807 0.000000
-15.434127 -14.762365 -0.322625 343 0.707407 0.706807 0.000000
-15.434414 -14.762636 -0.316072 325 0.707407 0.706807 0.000000
-15.433955 -14.762196 -0.309507 321 0.707407 0.706807 0.000000
-15.431851 -14.760185 -0.302906 323 0.707407 0.706807 0.000000
-15.433616 -14.761871 -0.296379 317 0.707407 0.706807 0.000000
-15.434790 -14.763000 -0.289838 313 0.707407 0.706807 0.000000
-15.438273 -14.757617 -0.657308 297 0.707407 0.706807 0.000000
-15.437941 -14.757306 -0.650730 281 0.707407 0.706807 0.000000
-15.436922 -14.756332 -0.644120 307 0.707407 0.706807 0.000000
-15.437273 -14.756670 -0.637567 313 0.707407 0.706807 0.000000
-15.438525 -14.757864 -0.631055 307 0.707407 0.706807 0.000000
-15.439466 -14.758759 -0.624525 331 0.707407 0.706807 0.000000
-15.440603 -14.759855 -0.618015 323 0.707407 0.706807 0.000000
-15.438513 -14.757857 -0.611364 311 0.707407 0.706807 0.000000
-15.439445 -14.758745 -0.604835 305 0.707407 0.706807 0.000000
-15.440948 -14.760187 -0.598331 313 0.707407 0.706807 0.000000
-15.439129 -14.758440 -0.591698 329 0.707407 0.706807 0.000000
-15.437576 -14.756954 -0.585072 315 0.707407 0.706807 0.000000
-15.438588 -14.757935 -0.578543 335 0.707407 0.706807 0.000000
-15.440305 -14.759568 -0.572046 341 0.707407 0.706807 0.000000
-15.438892 -14.758226 -0.565429 353 0.707407 0.706807 0.000000
-15.436483 -14.755922 -0.558782 393 0.707407 0.706807 0.000000
-15.438776 -14.758115 -0.552300 351 0.707407 0.706807 0.000000
-15.439952 -14.759232 -0.545779 361 0.707407 0.706807 0.000000
-15.437597 -14.756987 -0.539131 363 0.707407 0.706807 0.000000
-15.437918 -14.757298 -0.532578 361 0.707407 0.706807 0.000000
-15.437513 -14.756901 -0.526002 337 0.707407 0.706807 0.000000
-15.436513 -14.755955 -0.519411 337 0.707407 0.706807 0.000000
-15.436216 -14.755662 -0.512834 343 0.707407 0.706807 0.000000
-15.436637 -14.756070 -0.506289 309 0.707407 0.706807 0.000000
-15.436850 -14.756280 -0.499737 313 0.707407 0.706807 0.000000
-15.437332 -14.756740 -0.493182 339 0.707407 0.706807 0.000000
-15.437868 -14.757245 -0.486637 343 0.707407 0.706807 0.000000
-15.436602 -14.756037 -0.480039 349 0.707407 0.706807 0.000000
-15.438034 -14.757407 -0.473525 377 0.707407 0.706807 0.000000
-15.439667 -14.758970 -0.467010 375 0.707407 0.706807 0.000000
-15.437648 -14.757044 -0.460389 345 0.707407 0.706807 0.000000
-15.437119 -14.756531 -0.453814 317 0.707407 0.706807 0.000000
-15.438488 -14.757848 -0.447290 323 0.707407 0.706807 0.000000
-15.438109 -14.757485 -0.440714 365 0.707407 0.706807 0.000000
-15.438475 -14.757835 -0.434170 365 0.707407 0.706807 0.000000
-15.438087 -14.757465 -0.427594 367 0.707407 0.706807 0.000000
-15.437817 -14.757205 -0.421026 401 0.707407 0.706807 0.000000
-15.436433 -14.755876 -0.414429 375 0.707407 0.706807 0.000000
-15.437467 -14.756873 -0.407889 365 0.707407 0.706807 0.000000
-15.440048 -14.759333 -0.401405 341 0.707407 0.706807 0.000000
-15.439234 -14.758554 -0.394822 349 0.707407 0.706807 0.000000
-15.436942 -14.756374 -0.388204 337 0.707407 0.706807 0.000000
-15.434860 -14.754382 -0.381583 357 0.707407 0.706807 0.000000
-15.436261 -14.755727 -0.375060 347 0.707407 0.706807 0.000000
-15.436610 -14.756049 -0.368506 319 0.707407 0.706807 0.000000
-15.436214 -14.755673 -0.361940 313 0.707407 0.706807 0.000000
-15.436769 -14.756207 -0.355395 323 0.707407 0.706807 0.000000
-15.436272 -14.755732 -0.348819 335 0.707407 0.706807 0.000000
-15.434011 -14.753578 -0.342210 351 0.707407 0.706807 0.000000
-15.433079 -14.752689 -0.335639 341 0.707407 0.706807 0.000000
-15.434752 -14.754285 -0.329113 361 0.707407 0.706807 0.000000
-15.434605 -14.754143 -0.322554 361 0.707407 0.706807 0.000000
-15.438537 -14.757897 -0.316077 345 0.707407 0.706807 0.000000
-15.439192 -14.758529 -0.309521 327 0.707407 0.706807 0.000000
-15.435182 -14.754693 -0.302888 327 0.707407 0.706807 0.000000
-15.435043 -14.754557 -0.296329 349 0.707407 0.706807 0.000000
-15.435261 -14.754771 -0.289767 339 0.707407 0.706807 0.000000
-15.445578 -14.755573 -0.657424 315 0.707407 0.706807 0.000000
-15.444664 -14.754711 -0.650822 281 0.707407 0.706807 0.000000
-15.446973 -14.756917 -0.644350 285 0.707407 0.706807 0.000000
-15.446009 -14.755988 -0.637749 295 0.707407 0.706807 0.000000
-15.444036 -14.754113 -0.631098 285 0.707407 0.706807 0.000000
-15.444971 -14.755003 -0.624579 301 0.707407 0.706807 0.000000
-15.444529 -14.754574 -0.617993 305 0.707407 0.706807 0.000000
-15.442120 -14.752284 -0.611335 303 0.707407 0.706807 0.000000
-15.441622 -14.751796 -0.604750 317 0.707407 0.706807 0.000000
-15.441755 -14.751925 -0.598188 297 0.707407 0.706807 0.000000
-15.441360 -14.751551 -0.591612 327 0.707407 0.706807 0.000000
-15.440693 -14.750921 -0.585018 329 0.707407 0.706807 0.000000
-15.442310 -14.752459 -0.578523 323 0.707407 0.706807 0.000000
-15.443391 -14.753496 -0.571992 357 0.707407 0.706807 0.000000
-15.441396 -14.751590 -0.565361 361 0.707407 0.706807 0.000000
-15.442678 -14.752822 -0.558839 333 0.707407 0.706807 0.000000
-15.442546 -14.752691 -0.552280 353 0.707407 0.706807 0.000000
-15.442719 -14.752853 -0.545718 323 0.707407 0.706807 0.000000
-15.443575 -14.753677 -0.539190 335 0.707407 0.706807 0.000000
-15.440902 -14.751114 -0.532535 345 0.707407 0.706807 0.000000
-15.440381 -14.750622 -0.525950 325 0.707407 0.706807 0.000000
-15.441022 -14.751238 -0.519413 345 0.707407 0.706807 0.000000
-15.440873 -14.751096 -0.512845 335 0.707407 0.706807 0.000000
-15.441994 -14.752165 -0.506314 337 0.707407 0.706807 0.000000
-15.443362 -14.753469 -0.499801 353 0.707407 0.706807 0.000000
-15.442430 -14.752581 -0.493210 355 0.707407 0.706807 0.000000
-15.440636 -14.750867 -0.486586 345 0.707407 0.706807 0.000000
-15.440310 -14.750562 -0.480019 357 0.707407 0.706807 0.000000
-15.441953 -14.752133 -0.473504 371 0.707407 0.706807 0.000000
-15.440950 -14.751172 -0.466913 365 0.707407 0.706807 0.000000
-15.441470 -14.751664 -0.460368 347 0.707407 0.706807 0.000000
-15.443051 -14.753184 -0.453853 347 0.707407 0.706807 0.000000
-15.443998 -14.754085 -0.447324 359 0.707407 0.706807 0.000000
-15.443308 -14.753423 -0.440740 375 0.707407 0.706807 0.000000
-15.442765 -14.752910 -0.434165 339 0.707407 0.706807 0.000000
-15.443652 -14.753760 -0.427626 357 0.707407 0.706807 0.000000
-15.443016 -14.753144 -0.421042 353 0.707407 0.706807 0.000000
-15.441415 -14.751619 -0.414447 379 0.707407 0.706807 0.000000
-15.440228 -14.750491 -0.407848 369 0.707407 0.706807 0.000000
-15.439157 -14.749458 -0.401258 365 0.707407 0.706807 0.000000
-15.440842 -14.751066 -0.394742 359 0.707407 0.706807 0.000000
-15.442390 -14.752560 -0.388227 371 0.707407 0.706807 0.000000
-15.441217 -14.751430 -0.381638 371 0.707407 0.706807 0.000000
-15.440030 -14.750301 -0.375049 369 0.707407 0.706807 0.000000
-15.439269 -14.749568 -0.368466 365 0.707407 0.706807 0.000000
-15.440669 -14.750912 -0.361943 309 0.707407 0.706807 0.000000
-15.441960 -14.752151 -0.355411 331 0.707407 0.706807 0.000000
-15.442885 -14.753032 -0.348872 345 0.707407 0.706807 0.000000
-15.444083 -14.754168 -0.342340 361 0.707407 0.706807 0.000000
-15.443043 -14.753176 -0.335760 309 0.707407 0.706807 0.000000
-15.442220 -14.752390 -0.329178 315 0.707407 0.706807 0.000000
-15.441077 -14.751300 -0.322598 361 0.707407 0.706807 0.000000
-15.442245 -14.752422 -0.316057 319 0.707407 0.706807 0.000000
-15.440941 -14.751170 -0.309469 347 0.707407 0.706807 0.000000
-15.441011 -14.751248 -0.302918 345 0.707407 0.706807 0.000000
-15.440554 -14.750807 -0.296343 341 0.707407 0.706807 0.000000
-15.439560 -14.749853 -0.289772 341 0.707407 0.706807 0.000000
-15.447340 -14.747718 -0.657305 295 0.707407 0.706807 0.000000
-15.448016 -14.748352 -0.650768 313 0.707407 0.706807 0.000000
-15.450953 -14.751162 -0.644320 297 0.707407 0.706807 0.000000
-15.448664 -14.748983 -0.637662 293 0.707407 0.706807 0.000000
-15.446853 -14.747243 -0.631019 313 0.707407 0.706807 0.000000
-15.449426 -14.749708 -0.624564 317 0.707407 0.706807 0.000000
-15.449770 -14.750039 -0.618011 317 0.707407 0.706807 0.000000
-15.447578 -14.747943 -0.611362 321 0.707407 0.706807 0.000000
-15.444967 -14.745444 -0.604696 307 0.707407 0.706807 0.000000
-15.445101 -14.745575 -0.598135 281 0.707407 0.706807 0.000000
-15.448613 -14.748928 -0.591711 311 0.707407 0.706807 0.000000
-15.447691 -14.748046 -0.585110 341 0.707407 0.706807 0.000000
-15.445546 -14.746002 -0.578460 335 0.707407 0.706807 0.000000
-15.447040 -14.747437 -0.571956 319 0.707407 0.706807 0.000000
-15.446854 -14.747249 -0.565387 329 0.707407 0.706807 0.000000
-15.446449 -14.746864 -0.558811 339 0.707407 0.706807 0.000000
-15.446838 -14.747234 -0.552257 329 0.707407 0.706807 0.000000
-15.447494 -14.747865 -0.545721 329 0.707407 0.706807 0.000000
-15.447137 -14.747520 -0.539144 319 0.707407 0.706807 0.000000
-15.446245 -14.746676 -0.532552 303 0.707407 0.706807 0.000000
-15.447156 -14.747547 -0.526024 333 0.707407 0.706807 0.000000
-15.449656 -14.749926 -0.519540 343 0.707407 0.706807 0.000000
-15.448291 -14.748622 -0.512932 339 0.707407 0.706807 0.000000
-15.445812 -14.746261 -0.506286 333 0.707407 0.706807 0.000000
-15.448091 -14.748441 -0.499804 347 0.707407 0.706807 0.000000
-15.449685 -14.749959 -0.493289 361 0.707407 0.706807 0.000000
-15.447673 -14.748037 -0.486668 349 0.707407 0.706807 0.000000
-15.446616 -14.747033 -0.480067 355 0.707407 0.706807 0.000000
-15.447091 -14.747487 -0.473523 359 0.707407 0.706807 0.000000
-15.446984 -14.747391 -0.466954 345 0.707407 0.706807 0.000000
-15.447513 -14.747888 -0.460409 347 0.707407 0.706807 0.000000
-15.447660 -14.748031 -0.453857 341 0.707407 0.706807 0.000000
-15.447871 -14.748224 -0.447295 381 0.707407 0.706807 0.000000
-15.447702 -14.748077 -0.440736 365 0.707407 0.706807 0.000000
-15.446795 -14.747208 -0.434145 369 0.707407 0.706807 0.000000
-15.446686 -14.747097 -0.427576 355 0.707407 0.706807 0.000000
-15.446352 -14.746785 -0.421009 369 0.707407 0.706807 0.000000
-15.445016 -14.745507 -0.414411 347 0.707407 0.706807 0.000000
-15.446113 -14.746558 -0.407881 371 0.707407 0.706807 0.000000
-15.447412 -14.747805 -0.401358 353 0.707407 0.706807 0.000000
-15.444010 -14.744554 -0.394710 347 0.707407 0.706807 0.000000
-15.443155 -14.743729 -0.388128 341 0.707407 0.706807 0.000000
-15.445395 -14.745877 -0.381627 333 0.707407 0.706807 0.000000
-15.448240 -14.748595 -0.375130 355 0.707407 0.706807 0.000000
-15.449747 -14.750028 -0.368605 365 0.707407 0.706807 0.000000
-15.446345 -14.746778 -0.361967 345 0.707407 0.706807 0.000000
-15.447271 -14.747661 -0.355428 329 0.707407 0.706807 0.000000
-15.448506 -14.748841 -0.348897 381 0.707407 0.706807 0.000000
-15.448579 -14.748919 -0.342336 349 0.707407 0.706807 0.000000
-15.447228 -14.747628 -0.335748 347 0.707407 0.706807 0.000000
-15.445184 -14.745682 -0.329137 373 0.707407 0.706807 0.000000
-15.446793 -14.747211 -0.322612 379 0.707407 0.706807 0.000000
-15.446552 -14.746979 -0.316054 351 0.707407 0.706807 0.000000
-15.445451 -14.745934 -0.309474 327 0.707407 0.706807 0.000000
-15.444201 -14.744741 -0.302886 333 0.707407 0.706807 0.000000
-15.445374 -14.745856 -0.296355 353 0.707407 0.706807 0.000000
-15.447078 -14.747491 -0.289819 355 0.707407 0.706807 0.000000
-15.453464 -14.743828 -0.657356 309 0.707407 0.706807 0.000000
-15.455304 -14.745578 -0.650868 331 0.707407 0.706807 0.000000
-15.452796 -14.743191 -0.644202 363 0.707407 0.706807 0.000000
-15.453047 -14.743431 -0.637649 307 0.707407 0.706807 0.000000
-15.453560 -14.743917 -0.631104 295 0.707407 0.706807 0.000000
-15.451843 -14.742283 -0.624470 305 0.707407 0.706807 0.000000
-15.453360 -14.743723 -0.617966 291 0.707407 0.706807 0.000000
-15.453399 -14.743761 -0.611405 285 0.707407 0.706807 0.000000
-15.450937 -14.741413 -0.604738 297 0.707407 0.706807 0.000000
-15.450698 -14.741193 -0.598171 297 0.707407 0.706807 0.000000
-15.451623 -14.742075 -0.591642 323 0.707407 0.706807 0.000000
-15.450589 -14.741088 -0.585041 329 0.707407 0.706807 0.000000
-15.449667 -14.740207 -0.578440 319 0.707407 0.706807 0.000000
-15.451586 -14.742035 -0.571952 369 0.707407 0.706807 0.000000
-15.452030 -14.742464 -0.565397 309 0.707407 0.706807 0.000000
-15.451526 -14.741983 -0.558822 351 0.707407 0.706807 0.000000
-15.452808 -14.743202 -0.552299 315 0.707407 0.706807 0.000000
-15.452616 -14.743022 -0.545731 335 0.707407 0.706807 0.000000
-15.453580 -14.743948 -0.539202 353 0.707407 0.706807 0.000000
-15.454911 -14.745220 -0.532689 359 0.707407 0.706807 0.000000
-15.453978 -14.744318 -0.526088 345 0.707407 0.706807 0.000000
-15.452247 -14.742671 -0.519474 293 0.707407 0.706807 0.000000
-15.450560 -14.741061 -0.512850 301 0.707407 0.706807 0.000000
-15.451564 -14.742021 -0.506320 337 0.707407 0.706807 0.000000
-15.451736 -14.742184 -0.499768 339 0.707407 0.706807 0.000000
-15.452218 -14.742644 -0.493224 341 0.707407 0.706807 0.000000
-15.454069 -14.744415 -0.486716 347 0.707407 0.706807 0.000000
-15.451055 -14.741540 -0.480054 353 0.707407 0.706807 0.000000
-15.449415 -14.739970 -0.473450 357 0.707407 0.706807 0.000000
-15.452275 -14.742702 -0.466973 357 0.707407 0.706807 0.000000
-15.452214 -14.742642 -0.460413 375 0.707407 0.706807 0.000000
-15.452581 -14.742994 -0.453859 347 0.707407 0.706807 0.000000
-15.453794 -14.744156 -0.447328 325 0.707407 0.706807 0.000000
-15.452566 -14.742980 -0.440739 349 0.707407 0.706807 0.000000
-15.450385 -14.740906 -0.434110 367 0.707407 0.706807 0.000000
-15.452166 -14.742604 -0.427603 355 0.707407 0.706807 0.000000
-15.453169 -14.743565 -0.421063 343 0.707407 0.706807 0.000000
-15.451095 -14.741580 -0.414452 391 0.707407 0.706807 0.000000
-15.449176 -14.739749 -0.407840 349 0.707407 0.706807 0.000000
-15.449900 -14.740438 -0.401293 319 0.707407 0.706807 0.000000
-15.452527 -14.742948 -0.394808 353 0.707407 0.706807 0.000000
-15.452188 -14.742630 -0.388231 341 0.707407 0.706807 0.000000
-15.451161 -14.741651 -0.381651 311 0.707407 0.706807 0.000000
-15.451885 -14.742338 -0.375104 337 0.707407 0.706807 0.000000
-15.452818 -14.743226 -0.368565 321 0.707407 0.706807 0.000000
-15.453317 -14.743699 -0.362020 333 0.707407 0.706807 0.000000
-15.451748 -14.742214 -0.355425 339 0.707407 0.706807 0.000000
-15.449076 -14.739665 -0.348800 349 0.707407 0.706807 0.000000
-15.451486 -14.741955 -0.342297 349 0.707407 0.706807 0.000000
-15.449707 -14.740268 -0.335694 331 0.707407 0.706807 0.000000
-15.448939 -14.739529 -0.329121 345 0.707407 0.706807 0.000000
-15.452180 -14.742628 -0.322630 365 0.707407 0.706807 0.000000
-15.451986 -14.742435 -0.316062 347 0.707407 0.706807 0.000000
-15.451530 -14.742006 -0.309496 345 0.707407 0.706807 0.000000
-15.450114 -14.740649 -0.302909 329 0.707407 0.706807 0.000000
-15.450661 -14.741176 -0.296364 325 0.707407 0.706807 0.000000
-15.452209 -14.742655 -0.289829 371 0.707407 0.706807 0.000000
