550
-16.605770 -16.404245 -0.666482 1371 0.697975 0.716122 0.000000
-16.605705 -16.404184 -0.659312 1377 0.697975 0.716122 0.000000
-16.606468 -16.404942 -0.652165 1389 0.697975 0.716122 0.000000
-16.606146 -16.404627 -0.644978 1367 0.697975 0.716122 0.000000
-16.605713 -16.404190 -0.637792 1377 0.697975 0.716122 0.000000
-16.605640 -16.404121 -0.630612 1379 0.697975 0.716122 0.000000
-16.606304 -16.404783 -0.623466 1375 0.697975 0.716122 0.000000
-16.606848 -16.405319 -0.616310 1383 0.697975 0.716122 0.000000
-16.606144 -16.404634 -0.609107 1369 0.697975 0.716122 0.000000
-16.605495 -16.403994 -0.601913 1385 0.697975 0.716122 0.000000
-16.605164 -16.403658 -0.594726 1377 0.697975 0.716122 0.000000
-16.606066 -16.404558 -0.587587 1379 0.697975 0.716122 0.000000
-16.606144 -16.404640 -0.580416 1377 0.697975 0.716122 0.000000
-16.606070 -16.404556 -0.573237 1381 0.697975 0.716122 0.000000
-16.606083 -16.404573 -0.566066 1377 0.697975 0.716122 0.000000
-16.605373 -16.403881 -0.558873 1371 0.697975 0.716122 0.000000
-16.604450 -16.402960 -0.551672 1371 0.697975 0.716122 0.000000
-16.604784 -16.403296 -0.544508 1359 0.697975 0.716122 0.000000
-16.605259 -16.403774 -0.537354 1365 0.697975 0.716122 0.000000
-16.605270 -16.403778 -0.530183 1373 0.697975 0.716122 0.000000
-16.605696 -16.404202 -0.523019 1379 0.697975 0.716122 0.000000
-16.605494 -16.404011 -0.515841 1383 0.697975 0.716122 0.000000
-16.605350 -16.403870 -0.508672 1369 0.697975 0.716122 0.000000
-16.605715 -16.404230 -0.501508 1367 0.697975 0.716122 0.000000
-16.605619 -16.404129 -0.494339 1365 0.697975 0.716122 0.000000
-16.605461 -16.403976 -0.487160 1361 0.697975 0.716122 0.000000
-16.605568 -16.404083 -0.479989 1367 0.697975 0.716122 0.000000
-16.605053 -16.403580 -0.472804 1369 0.697975 0.716122 0.000000
-16.604683 -16.403212 -0.465627 1365 0.697975 0.716122 0.000000
-16.604830 -16.403364 -0.458456 1369 0.697975 0.716122 0.000000
-16.605038 -16.403570 -0.451294 1373 0.697975 0.716122 0.000000
-16.605339 -16.403866 -0.444131 1379 0.697975 0.716122 0.000000
-16.605228 -16.403765 -0.436951 1383 0.697975 0.716122 0.000000
-16.604799 -16.403345 -0.429775 1381 0.697975 0.716122 0.000000
-16.605358 -16.403894 -0.422620 1373 0.697975 0.716122 0.000000
-16.605862 -16.404398 -0.415465 1383 0.697975 0.716122 0.000000
-16.605595 -16.404127 -0.408287 1389 0.697975 0.716122 0.000000
-16.605312 -16.403858 -0.401110 1367 0.697975 0.716122 0.000000
-16.605146 -16.403687 -0.393931 1373 0.697975 0.716122 0.000000
-16.605021 -16.403572 -0.386762 1389 0.697975 0.716122 0.000000
-16.605110 -16.403652 -0.379591 1393 0.697975 0.716122 0.000000
-16.605288 -16.403830 -0.372429 1383 0.697975 0.716122 0.000000
-16.605419 -16.403971 -0.365258 1379 0.697975 0.716122 0.000000
-16.605345 -16.403887 -0.358088 1375 0.697975 0.716122 0.000000
-16.605366 -16.403910 -0.350918 1381 0.697975 0.716122 0.000000
-16.605030 -16.403582 -0.343741 1375 0.697975 0.716122 0.000000
-16.605152 -16.403702 -0.336570 1371 0.697975 0.716122 0.000000
-16.605221 -16.403778 -0.329409 1383 0.697975 0.716122 0.000000
-16.604261 -16.402824 -0.322218 1379 0.697975 0.716122 0.000000
-16.604055 -16.402634 -0.315050 1373 0.697975 0.716122 0.000000
-16.604748 -16.403320 -0.307893 1369 0.697975 0.716122 0.000000
-16.604668 -16.403231 -0.300713 1385 0.697975 0.716122 0.000000
-16.604050 -16.402630 -0.293539 1383 0.697975 0.716122 0.000000
-16.603798 -16.402386 -0.286361 1379 0.697975 0.716122 0.000000
-16.604071 -16.402657 -0.279199 1383 0.697975 0.716122 0.000000
-16.610987 -16.398973 -0.666484 1379 0.697975 0.716122 0.000000
-16.611179 -16.399166 -0.659322 1379 0.697975 0.716122 0.000000
-16.611208 -16.399208 -0.652151 1357 0.697975 0.716122 0.000000
-16.610832 -16.398832 -0.644955 1361 0.697975 0.716122 0.000000
-16.610916 -16.398920 -0.637794 1367 0.697975 0.716122 0.000000
-16.611217 -16.399216 -0.630631 1365 0.697975 0.716122 0.000000
-16.611139 -16.399141 -0.623451 1367 0.697975 0.716122 0.000000
-16.611019 -16.399021 -0.616273 1369 0.697975 0.716122 0.000000
-16.610636 -16.398640 -0.609086 1361 0.697975 0.716122 0.000000
-16.610086 -16.398096 -0.601891 1361 0.697975 0.716122 0.000000
-16.610428 -16.398438 -0.594728 1369 0.697975 0.716122 0.000000
-16.610292 -16.398304 -0.587559 1371 0.697975 0.716122 0.000000
-16.610004 -16.398027 -0.580371 1371 0.697975 0.716122 0.000000
-16.610851 -16.398870 -0.573233 1365 0.697975 0.716122 0.000000
-16.611082 -16.399094 -0.566061 1365 0.697975 0.716122 0.000000
-16.610474 -16.398500 -0.558876 1365 0.697975 0.716122 0.000000
-16.610954 -16.398970 -0.551711 1369 0.697975 0.716122 0.000000
-16.611387 -16.399403 -0.544557 1375 0.697975 0.716122 0.000000
-16.610834 -16.398853 -0.537362 1367 0.697975 0.716122 0.000000
-16.610224 -16.398258 -0.530178 1363 0.697975 0.716122 0.000000
-16.610430 -16.398462 -0.523006 1361 0.697975 0.716122 0.000000
-16.610601 -16.398634 -0.515844 1357 0.697975 0.716122 0.000000
-16.610294 -16.398331 -0.508667 1371 0.697975 0.716122 0.000000
-16.610363 -16.398394 -0.501496 1361 0.697975 0.716122 0.000000
-16.610727 -16.398752 -0.494332 1367 0.697975 0.716122 0.000000
-16.610670 -16.398697 -0.487163 1371 0.697975 0.716122 0.000000
-16.610723 -16.398760 -0.479992 1365 0.697975 0.716122 0.000000
-16.610785 -16.398815 -0.472821 1363 0.697975 0.716122 0.000000
-16.611038 -16.399073 -0.465659 1355 0.697975 0.716122 0.000000
-16.610981 -16.399017 -0.458489 1357 0.697975 0.716122 0.000000
-16.610451 -16.398500 -0.451304 1363 0.697975 0.716122 0.000000
-16.610291 -16.398333 -0.444125 1367 0.697975 0.716122 0.000000
-16.609976 -16.398024 -0.436948 1365 0.697975 0.716122 0.000000
-16.610069 -16.398119 -0.429777 1369 0.697975 0.716122 0.000000
-16.610519 -16.398563 -0.422623 1363 0.697975 0.716122 0.000000
-16.610876 -16.398918 -0.415459 1375 0.697975 0.716122 0.000000
-16.610804 -16.398849 -0.408289 1375 0.697975 0.716122 0.000000
-16.610218 -16.398275 -0.401105 1367 0.697975 0.716122 0.000000
-16.609888 -16.397953 -0.393918 1371 0.697975 0.716122 0.000000
-16.610073 -16.398138 -0.386756 1387 0.697975 0.716122 0.000000
-16.609892 -16.397963 -0.379587 1385 0.697975 0.716122 0.000000
-16.610334 -16.398403 -0.372423 1377 0.697975 0.716122 0.000000
-16.610529 -16.398596 -0.365261 1371 0.697975 0.716122 0.000000
-16.610189 -16.398252 -0.358084 1367 0.697975 0.716122 0.000000
-16.609951 -16.398022 -0.350906 1363 0.697975 0.716122 0.000000
-16.609451 -16.397530 -0.343731 1373 0.697975 0.716122 0.000000
-16.610252 -16.398321 -0.336573 1369 0.697975 0.716122 0.000000
-16.610430 -16.398499 -0.329411 1359 0.697975 0.716122 0.000000
-16.609409 -16.397495 -0.322221 1351 0.697975 0.716122 0.000000
-16.609428 -16.397518 -0.315050 1365 0.697975 0.716122 0.000000
-16.609699 -16.397787 -0.307888 1373 0.697975 0.716122 0.000000
-16.609510 -16.397594 -0.300709 1367 0.697975 0.716122 0.000000
-16.609150 -16.397247 -0.293543 1367 0.697975 0.716122 0.000000
-16.609419 -16.397516 -0.286380 1377 0.697975 0.716122 0.000000
-16.609591 -16.397690 -0.279208 1371 0.697975 0.716122 0.000000
-16.615656 -16.392984 -0.666462 1373 0.697975 0.716122 0.000000
-16.615740 -16.393072 -0.659292 1371 0.697975 0.716122 0.000000
-16.615784 -16.393114 -0.652121 1361 0.697975 0.716122 0.000000
-16.615767 -16.393103 -0.644951 1375 0.697975 0.716122 0.000000
-16.615856 -16.393183 -0.637780 1371 0.697975 0.716122 0.000000
-16.615887 -16.393227 -0.630609 1379 0.697975 0.716122 0.000000
-16.616119 -16.393450 -0.623437 1385 0.697975 0.716122 0.000000
-16.615953 -16.393290 -0.616258 1373 0.697975 0.716122 0.000000
-16.615934 -16.393269 -0.609088 1365 0.697975 0.716122 0.000000
-16.616005 -16.393343 -0.601918 1363 0.697975 0.716122 0.000000
-16.616501 -16.393841 -0.594762 1367 0.697975 0.716122 0.000000
-16.615749 -16.393087 -0.587560 1369 0.697975 0.716122 0.000000
-16.615303 -16.392656 -0.580374 1379 0.697975 0.716122 0.000000
-16.616049 -16.393387 -0.573226 1373 0.697975 0.716122 0.000000
-16.616234 -16.393572 -0.566064 1365 0.697975 0.716122 0.000000
-16.616358 -16.393694 -0.558893 1385 0.697975 0.716122 0.000000
-16.616417 -16.393761 -0.551722 1367 0.697975 0.716122 0.000000
-16.615705 -16.393055 -0.544529 1365 0.697975 0.716122 0.000000
-16.615564 -16.392916 -0.537350 1367 0.697975 0.716122 0.000000
-16.615313 -16.392672 -0.530172 1371 0.697975 0.716122 0.000000
-16.615215 -16.392582 -0.522993 1371 0.697975 0.716122 0.000000
-16.616058 -16.393419 -0.515855 1379 0.697975 0.716122 0.000000
-16.615595 -16.392960 -0.508669 1373 0.697975 0.716122 0.000000
-16.615396 -16.392761 -0.501491 1361 0.697975 0.716122 0.000000
-16.616488 -16.393843 -0.494350 1363 0.697975 0.716122 0.000000
-16.616180 -16.393541 -0.487173 1371 0.697975 0.716122 0.000000
-16.615353 -16.392725 -0.479971 1369 0.697975 0.716122 0.000000
-16.615719 -16.393085 -0.472817 1363 0.697975 0.716122 0.000000
-16.615973 -16.393343 -0.465654 1363 0.697975 0.716122 0.000000
-16.615969 -16.393333 -0.458474 1361 0.697975 0.716122 0.000000
-16.615284 -16.392660 -0.451291 1353 0.697975 0.716122 0.000000
-16.615273 -16.392656 -0.444121 1359 0.697975 0.716122 0.000000
-16.615519 -16.392906 -0.436958 1367 0.697975 0.716122 0.000000
-16.615370 -16.392746 -0.429779 1361 0.697975 0.716122 0.000000
-16.615507 -16.392893 -0.422618 1369 0.697975 0.716122 0.000000
-16.614967 -16.392357 -0.415433 1367 0.697975 0.716122 0.000000
-16.614756 -16.392145 -0.408255 1373 0.697975 0.716122 0.000000
-16.615103 -16.392492 -0.401091 1381 0.697975 0.716122 0.000000
-16.615078 -16.392477 -0.393921 1375 0.697975 0.716122 0.000000
-16.615265 -16.392662 -0.386759 1371 0.697975 0.716122 0.000000
-16.615246 -16.392637 -0.379589 1375 0.697975 0.716122 0.000000
-16.615330 -16.392725 -0.372418 1365 0.697975 0.716122 0.000000
-16.615990 -16.393372 -0.365262 1369 0.697975 0.716122 0.000000
-16.615334 -16.392725 -0.358078 1361 0.697975 0.716122 0.000000
-16.614941 -16.392351 -0.350901 1371 0.697975 0.716122 0.000000
-16.615377 -16.392784 -0.343737 1381 0.697975 0.716122 0.000000
-16.615396 -16.392792 -0.336577 1363 0.697975 0.716122 0.000000
-16.615162 -16.392574 -0.329399 1359 0.697975 0.716122 0.000000
-16.614294 -16.391712 -0.322217 1369 0.697975 0.716122 0.000000
-16.614098 -16.391529 -0.315039 1355 0.697975 0.716122 0.000000
-16.614586 -16.392006 -0.307884 1363 0.697975 0.716122 0.000000
-16.614811 -16.392223 -0.300712 1375 0.697975 0.716122 0.000000
-16.614761 -16.392189 -0.293552 1389 0.697975 0.716122 0.000000
-16.615250 -16.392664 -0.286387 1381 0.697975 0.716122 0.000000
-16.615671 -16.393085 -0.279223 1375 0.697975 0.716122 0.000000
-16.620398 -16.387238 -0.666449 1371 0.697975 0.716122 0.000000
-16.620123 -16.386972 -0.659262 1379 0.697975 0.716122 0.000000
-16.621412 -16.388239 -0.652139 1381 0.697975 0.716122 0.000000
-16.621660 -16.388489 -0.644977 1371 0.697975 0.716122 0.000000
-16.621691 -16.388515 -0.637806 1357 0.697975 0.716122 0.000000
-16.621305 -16.388149 -0.630620 1363 0.697975 0.716122 0.000000
-16.620813 -16.387665 -0.623424 1371 0.697975 0.716122 0.000000
-16.621168 -16.388004 -0.616261 1369 0.697975 0.716122 0.000000
-16.621557 -16.388399 -0.609107 1379 0.697975 0.716122 0.000000
-16.621588 -16.388428 -0.601936 1373 0.697975 0.716122 0.000000
-16.621296 -16.388140 -0.594749 1375 0.697975 0.716122 0.000000
-16.621315 -16.388161 -0.587578 1363 0.697975 0.716122 0.000000
-16.621403 -16.388250 -0.580407 1349 0.697975 0.716122 0.000000
-16.621048 -16.387909 -0.573221 1357 0.697975 0.716122 0.000000
-16.620708 -16.387566 -0.566034 1355 0.697975 0.716122 0.000000
-16.621099 -16.387945 -0.558880 1353 0.697975 0.716122 0.000000
-16.620855 -16.387709 -0.551702 1355 0.697975 0.716122 0.000000
-16.620548 -16.387421 -0.544515 1361 0.697975 0.716122 0.000000
-16.620821 -16.387690 -0.537352 1367 0.697975 0.716122 0.000000
-16.620623 -16.387491 -0.530174 1369 0.697975 0.716122 0.000000
-16.620012 -16.386894 -0.522989 1365 0.697975 0.716122 0.000000
-16.620485 -16.387358 -0.515825 1361 0.697975 0.716122 0.000000
-16.621122 -16.387985 -0.508678 1363 0.697975 0.716122 0.000000
-16.621386 -16.388248 -0.501516 1379 0.697975 0.716122 0.000000
-16.621229 -16.388096 -0.494337 1375 0.697975 0.716122 0.000000
-16.621077 -16.387949 -0.487158 1357 0.697975 0.716122 0.000000
-16.621597 -16.388466 -0.480003 1375 0.697975 0.716122 0.000000
-16.621292 -16.388165 -0.472826 1365 0.697975 0.716122 0.000000
-16.621445 -16.388309 -0.465654 1361 0.697975 0.716122 0.000000
-16.621490 -16.388367 -0.458494 1375 0.697975 0.716122 0.000000
-16.620289 -16.387173 -0.451285 1359 0.697975 0.716122 0.000000
-16.620232 -16.387117 -0.444115 1367 0.697975 0.716122 0.000000
-16.620844 -16.387724 -0.436959 1357 0.697975 0.716122 0.000000
-16.621046 -16.387922 -0.429797 1365 0.697975 0.716122 0.000000
-16.620615 -16.387505 -0.422611 1385 0.697975 0.716122 0.000000
-16.620285 -16.387182 -0.415434 1373 0.697975 0.716122 0.000000
-16.620426 -16.387329 -0.408273 1371 0.697975 0.716122 0.000000
-16.620781 -16.387669 -0.401109 1375 0.697975 0.716122 0.000000
-16.620754 -16.387653 -0.393939 1373 0.697975 0.716122 0.000000
-16.620583 -16.387487 -0.386761 1367 0.697975 0.716122 0.000000
-16.621031 -16.387932 -0.379606 1371 0.697975 0.716122 0.000000
-16.620749 -16.387648 -0.372429 1371 0.697975 0.716122 0.000000
-16.619944 -16.386850 -0.365236 1375 0.697975 0.716122 0.000000
-16.620129 -16.387035 -0.358074 1361 0.697975 0.716122 0.000000
-16.620205 -16.387117 -0.350903 1353 0.697975 0.716122 0.000000
-16.620275 -16.387194 -0.343742 1371 0.697975 0.716122 0.000000
-16.619936 -16.386850 -0.336566 1359 0.697975 0.716122 0.000000
-16.619902 -16.386827 -0.329396 1363 0.697975 0.716122 0.000000
-16.619558 -16.386480 -0.322219 1357 0.697975 0.716122 0.000000
-16.619463 -16.386393 -0.315050 1367 0.697975 0.716122 0.000000
-16.620052 -16.386980 -0.307884 1373 0.697975 0.716122 0.000000
-16.620230 -16.387146 -0.300722 1371 0.697975 0.716122 0.000000
-16.620657 -16.387571 -0.293557 1371 0.697975 0.716122 0.000000
-16.619991 -16.386919 -0.286384 1375 0.697975 0.716122 0.000000
-16.619585 -16.386518 -0.279208 1369 0.697975 0.716122 0.000000
-16.626200 -16.383339 -0.666492 1385 0.697975 0.716122 0.000000
-16.626297 -16.383427 -0.659321 1373 0.697975 0.716122 0.000000
-16.626490 -16.383617 -0.652149 1363 0.697975 0.716122 0.000000
-16.626575 -16.383707 -0.644978 1363 0.697975 0.716122 0.000000
-16.625933 -16.383070 -0.637784 1365 0.697975 0.716122 0.000000
-16.625338 -16.382488 -0.630589 1365 0.697975 0.716122 0.000000
-16.625631 -16.382776 -0.623426 1369 0.697975 0.716122 0.000000
-16.626286 -16.383430 -0.616280 1373 0.697975 0.716122 0.000000
-16.626627 -16.383772 -0.609116 1373 0.697975 0.716122 0.000000
-16.626400 -16.383547 -0.601938 1375 0.697975 0.716122 0.000000
-16.625999 -16.383154 -0.594752 1377 0.697975 0.716122 0.000000
-16.625872 -16.383028 -0.587573 1373 0.697975 0.716122 0.000000
-16.625744 -16.382900 -0.580394 1373 0.697975 0.716122 0.000000
-16.626022 -16.383177 -0.573231 1381 0.697975 0.716122 0.000000
-16.627245 -16.384382 -0.566099 1381 0.697975 0.716122 0.000000
-16.626844 -16.383987 -0.558913 1359 0.697975 0.716122 0.000000
-16.625767 -16.382925 -0.551703 1361 0.697975 0.716122 0.000000
-16.625414 -16.382584 -0.544516 1367 0.697975 0.716122 0.000000
-16.626413 -16.383577 -0.537387 1367 0.697975 0.716122 0.000000
-16.626331 -16.383488 -0.530207 1379 0.697975 0.716122 0.000000
-16.625034 -16.382215 -0.522990 1375 0.697975 0.716122 0.000000
-16.625191 -16.382376 -0.515828 1359 0.697975 0.716122 0.000000
-16.625669 -16.382845 -0.508673 1369 0.697975 0.716122 0.000000
-16.626408 -16.383570 -0.501526 1383 0.697975 0.716122 0.000000
-16.626461 -16.383633 -0.494355 1363 0.697975 0.716122 0.000000
-16.625992 -16.383167 -0.487169 1373 0.697975 0.716122 0.000000
-16.626099 -16.383274 -0.479998 1365 0.697975 0.716122 0.000000
-16.625902 -16.383076 -0.472820 1365 0.697975 0.716122 0.000000
-16.626047 -16.383228 -0.465658 1353 0.697975 0.716122 0.000000
-16.626146 -16.383329 -0.458487 1359 0.697975 0.716122 0.000000
-16.625412 -16.382605 -0.451294 1353 0.697975 0.716122 0.000000
-16.625511 -16.382706 -0.444133 1363 0.697975 0.716122 0.000000
-16.625914 -16.383099 -0.436969 1357 0.697975 0.716122 0.000000
-16.626585 -16.383766 -0.429812 1363 0.697975 0.716122 0.000000
-16.626207 -16.383390 -0.422636 1367 0.697975 0.716122 0.000000
-16.625408 -16.382614 -0.415443 1363 0.697975 0.716122 0.000000
-16.625080 -16.382292 -0.408266 1359 0.697975 0.716122 0.000000
-16.625383 -16.382587 -0.401103 1353 0.697975 0.716122 0.000000
-16.625519 -16.382719 -0.393942 1363 0.697975 0.716122 0.000000
-16.625340 -16.382549 -0.386763 1363 0.697975 0.716122 0.000000
-16.625166 -16.382381 -0.379585 1367 0.697975 0.716122 0.000000
-16.625195 -16.382410 -0.372424 1371 0.697975 0.716122 0.000000
-16.625488 -16.382698 -0.365261 1371 0.697975 0.716122 0.000000
-16.624466 -16.381695 -0.358061 1357 0.697975 0.716122 0.000000
-16.624222 -16.381458 -0.350893 1357 0.697975 0.716122 0.000000
-16.624775 -16.382000 -0.343738 1349 0.697975 0.716122 0.000000
-16.625006 -16.382223 -0.336565 1351 0.697975 0.716122 0.000000
-16.625391 -16.382603 -0.329411 1359 0.697975 0.716122 0.000000
-16.625828 -16.383036 -0.322247 1367 0.697975 0.716122 0.000000
-16.626003 -16.383215 -0.315085 1379 0.697975 0.716122 0.000000
-16.624451 -16.381691 -0.307880 1371 0.697975 0.716122 0.000000
-16.623476 -16.380724 -0.300699 1361 0.697975 0.716122 0.000000
-16.624472 -16.381716 -0.293549 1373 0.697975 0.716122 0.000000
-16.625170 -16.382395 -0.286392 1371 0.697975 0.716122 0.000000
-16.624496 -16.381735 -0.279209 1355 0.697975 0.716122 0.000000
-16.630888 -16.378342 -0.666485 1373 0.697975 0.716122 0.000000
-16.630573 -16.378035 -0.659298 1367 0.697975 0.716122 0.000000
-16.630922 -16.378382 -0.652144 1375 0.697975 0.716122 0.000000
-16.631067 -16.378521 -0.644973 1373 0.697975 0.716122 0.000000
-16.630793 -16.378242 -0.637785 1363 0.697975 0.716122 0.000000
-16.631187 -16.378641 -0.630631 1361 0.697975 0.716122 0.000000
-16.631483 -16.378931 -0.623468 1373 0.697975 0.716122 0.000000
-16.631456 -16.378916 -0.616288 1373 0.697975 0.716122 0.000000
-16.632217 -16.379660 -0.609151 1385 0.697975 0.716122 0.000000
-16.631935 -16.379375 -0.601963 1387 0.697975 0.716122 0.000000
-16.631184 -16.378637 -0.594760 1381 0.697975 0.716122 0.000000
-16.630575 -16.378044 -0.587566 1377 0.697975 0.716122 0.000000
-16.630030 -16.377514 -0.580381 1379 0.697975 0.716122 0.000000
-16.630564 -16.378044 -0.573226 1367 0.697975 0.716122 0.000000
-16.631628 -16.379093 -0.566085 1367 0.697975 0.716122 0.000000
-16.630966 -16.378439 -0.558892 1353 0.697975 0.716122 0.000000
-16.631351 -16.378819 -0.551738 1363 0.697975 0.716122 0.000000
-16.631887 -16.379351 -0.544582 1363 0.697975 0.716122 0.000000
-16.630703 -16.378183 -0.537364 1359 0.697975 0.716122 0.000000
-16.630138 -16.377626 -0.530179 1359 0.697975 0.716122 0.000000
-16.630518 -16.378000 -0.523015 1349 0.697975 0.716122 0.000000
-16.630524 -16.378008 -0.515845 1345 0.697975 0.716122 0.000000
-16.631052 -16.378531 -0.508690 1363 0.697975 0.716122 0.000000
-16.631525 -16.378996 -0.501535 1363 0.697975 0.716122 0.000000
-16.631166 -16.378649 -0.494348 1363 0.697975 0.716122 0.000000
-16.630960 -16.378443 -0.487170 1371 0.697975 0.716122 0.000000
-16.631432 -16.378908 -0.480015 1367 0.697975 0.716122 0.000000
-16.631065 -16.378553 -0.472839 1371 0.697975 0.716122 0.000000
-16.630798 -16.378298 -0.465661 1373 0.697975 0.716122 0.000000
-16.630802 -16.378292 -0.458481 1369 0.697975 0.716122 0.000000
-16.630381 -16.377880 -0.451305 1377 0.697975 0.716122 0.000000
-16.630573 -16.378073 -0.444133 1367 0.697975 0.716122 0.000000
-16.630983 -16.378485 -0.436978 1357 0.697975 0.716122 0.000000
-16.630981 -16.378475 -0.429808 1367 0.697975 0.716122 0.000000
-16.630600 -16.378109 -0.422622 1379 0.697975 0.716122 0.000000
-16.630331 -16.377838 -0.415444 1365 0.697975 0.716122 0.000000
-16.630720 -16.378231 -0.408290 1375 0.697975 0.716122 0.000000
-16.630507 -16.378019 -0.401112 1359 0.697975 0.716122 0.000000
-16.629904 -16.377432 -0.393928 1349 0.697975 0.716122 0.000000
-16.630363 -16.377884 -0.386773 1373 0.697975 0.716122 0.000000
-16.630539 -16.378061 -0.379601 1367 0.697975 0.716122 0.000000
-16.630529 -16.378044 -0.372431 1373 0.697975 0.716122 0.000000
-16.630342 -16.377865 -0.365263 1367 0.697975 0.716122 0.000000
-16.631102 -16.378609 -0.358105 1359 0.697975 0.716122 0.000000
-16.630920 -16.378437 -0.350937 1365 0.697975 0.716122 0.000000
-16.629898 -16.377432 -0.343747 1361 0.697975 0.716122 0.000000
-16.630285 -16.377813 -0.336583 1355 0.697975 0.716122 0.000000
-16.630251 -16.377777 -0.329413 1361 0.697975 0.716122 0.000000
-16.629797 -16.377337 -0.322237 1359 0.697975 0.716122 0.000000
-16.629921 -16.377459 -0.315066 1359 0.697975 0.716122 0.000000
-16.630245 -16.377787 -0.307902 1363 0.697975 0.716122 0.000000
-16.630415 -16.377945 -0.300741 1365 0.697975 0.716122 0.000000
-16.629759 -16.377298 -0.293557 1377 0.697975 0.716122 0.000000
-16.629507 -16.377054 -0.286379 1379 0.697975 0.716122 0.000000
-16.629614 -16.377161 -0.279218 1365 0.697975 0.716122 0.000000
-16.636732 -16.373894 -0.666520 1377 0.697975 0.716122 0.000000
-16.636768 -16.373928 -0.659350 1365 0.697975 0.716122 0.000000
-16.637381 -16.374537 -0.652193 1371 0.697975 0.716122 0.000000
-16.637100 -16.374268 -0.645006 1373 0.697975 0.716122 0.000000
-16.637028 -16.374199 -0.637837 1375 0.697975 0.716122 0.000000
-16.636604 -16.373772 -0.630641 1375 0.697975 0.716122 0.000000
-16.635592 -16.372787 -0.623430 1371 0.697975 0.716122 0.000000
-16.636189 -16.373367 -0.616284 1373 0.697975 0.716122 0.000000
-16.636841 -16.374023 -0.609128 1379 0.697975 0.716122 0.000000
-16.636246 -16.373426 -0.601933 1379 0.697975 0.716122 0.000000
-16.636797 -16.373968 -0.594788 1379 0.697975 0.716122 0.000000
-16.636614 -16.373796 -0.587599 1365 0.697975 0.716122 0.000000
-16.636381 -16.373566 -0.580421 1361 0.697975 0.716122 0.000000
-16.637026 -16.374201 -0.573275 1367 0.697975 0.716122 0.000000
-16.636881 -16.374060 -0.566096 1367 0.697975 0.716122 0.000000
-16.636595 -16.373785 -0.558909 1361 0.697975 0.716122 0.000000
-16.636137 -16.373331 -0.551723 1357 0.697975 0.716122 0.000000
-16.636206 -16.373407 -0.544552 1355 0.697975 0.716122 0.000000
-16.636532 -16.373722 -0.537389 1369 0.697975 0.716122 0.000000
-16.635710 -16.372911 -0.530197 1351 0.697975 0.716122 0.000000
-16.635094 -16.372309 -0.523002 1355 0.697975 0.716122 0.000000
-16.635574 -16.372780 -0.515848 1351 0.697975 0.716122 0.000000
-16.635994 -16.373199 -0.508693 1365 0.697975 0.716122 0.000000
-16.635586 -16.372799 -0.501507 1367 0.697975 0.716122 0.000000
-16.636059 -16.373262 -0.494352 1365 0.697975 0.716122 0.000000
-16.635900 -16.373110 -0.487174 1361 0.697975 0.716122 0.000000
-16.635540 -16.372763 -0.479987 1359 0.697975 0.716122 0.000000
-16.636007 -16.373220 -0.472832 1357 0.697975 0.716122 0.000000
-16.635902 -16.373114 -0.465663 1351 0.697975 0.716122 0.000000
-16.635635 -16.372856 -0.458476 1353 0.697975 0.716122 0.000000
-16.635792 -16.373016 -0.451314 1345 0.697975 0.716122 0.000000
-16.636457 -16.373669 -0.444157 1367 0.697975 0.716122 0.000000
-16.636082 -16.373295 -0.436981 1365 0.697975 0.716122 0.000000
-16.635761 -16.372993 -0.429804 1363 0.697975 0.716122 0.000000
-16.635798 -16.373030 -0.422633 1373 0.697975 0.716122 0.000000
-16.635427 -16.372662 -0.415447 1377 0.697975 0.716122 0.000000
-16.635201 -16.372437 -0.408279 1361 0.697975 0.716122 0.000000
-16.635075 -16.372324 -0.401100 1359 0.697975 0.716122 0.000000
-16.635111 -16.372358 -0.393929 1357 0.697975 0.716122 0.000000
-16.635460 -16.372707 -0.386776 1357 0.697975 0.716122 0.000000
-16.635481 -16.372730 -0.379605 1361 0.697975 0.716122 0.000000
-16.635414 -16.372652 -0.372436 1369 0.697975 0.716122 0.000000
-16.636164 -16.373398 -0.365278 1365 0.697975 0.716122 0.000000
-16.636301 -16.373529 -0.358107 1369 0.697975 0.716122 0.000000
-16.635752 -16.372999 -0.350932 1379 0.697975 0.716122 0.000000
-16.634731 -16.371996 -0.343741 1369 0.697975 0.716122 0.000000
-16.634914 -16.372168 -0.336570 1375 0.697975 0.716122 0.000000
-16.635920 -16.373167 -0.329420 1371 0.697975 0.716122 0.000000
-16.635941 -16.373188 -0.322259 1351 0.697975 0.716122 0.000000
-16.636219 -16.373465 -0.315086 1367 0.697975 0.716122 0.000000
-16.635506 -16.372759 -0.307913 1367 0.697975 0.716122 0.000000
-16.634266 -16.371546 -0.300715 1363 0.697975 0.716122 0.000000
-16.634699 -16.371965 -0.293561 1353 0.697975 0.716122 0.000000
-16.635492 -16.372747 -0.286403 1363 0.697975 0.716122 0.000000
-16.635649 -16.372910 -0.279231 1359 0.697975 0.716122 0.000000
-16.641624 -16.368494 -0.666515 1369 0.697975 0.716122 0.000000
-16.641825 -16.368692 -0.659342 1365 0.697975 0.716122 0.000000
-16.642065 -16.368938 -0.652180 1363 0.697975 0.716122 0.000000
-16.641783 -16.368668 -0.644992 1363 0.697975 0.716122 0.000000
-16.641453 -16.368343 -0.637815 1359 0.697975 0.716122 0.000000
-16.640867 -16.367769 -0.630611 1355 0.697975 0.716122 0.000000
-16.641006 -16.367903 -0.623449 1373 0.697975 0.716122 0.000000
-16.641922 -16.368801 -0.616310 1369 0.697975 0.716122 0.000000
-16.642630 -16.369501 -0.609163 1373 0.697975 0.716122 0.000000
-16.642185 -16.369068 -0.601968 1375 0.697975 0.716122 0.000000
-16.641949 -16.368837 -0.594790 1377 0.697975 0.716122 0.000000
-16.641609 -16.368496 -0.587603 1377 0.697975 0.716122 0.000000
-16.641321 -16.368219 -0.580415 1365 0.697975 0.716122 0.000000
-16.641077 -16.367983 -0.573238 1371 0.697975 0.716122 0.000000
-16.640997 -16.367907 -0.566068 1371 0.697975 0.716122 0.000000
-16.641859 -16.368748 -0.558920 1355 0.697975 0.716122 0.000000
-16.642075 -16.368959 -0.551757 1363 0.697975 0.716122 0.000000
-16.641565 -16.368462 -0.544562 1373 0.697975 0.716122 0.000000
-16.641323 -16.368225 -0.537384 1365 0.697975 0.716122 0.000000
-16.641384 -16.368294 -0.530213 1361 0.697975 0.716122 0.000000
-16.641451 -16.368355 -0.523043 1367 0.697975 0.716122 0.000000
-16.641138 -16.368059 -0.515866 1371 0.697975 0.716122 0.000000
-16.641151 -16.368061 -0.508695 1375 0.697975 0.716122 0.000000
-16.641048 -16.367966 -0.501516 1373 0.697975 0.716122 0.000000
-16.640690 -16.367619 -0.494339 1363 0.697975 0.716122 0.000000
-16.640903 -16.367830 -0.487167 1383 0.697975 0.716122 0.000000
-16.641165 -16.368078 -0.480004 1379 0.697975 0.716122 0.000000
-16.641321 -16.368238 -0.472843 1377 0.697975 0.716122 0.000000
-16.641006 -16.367929 -0.465666 1371 0.697975 0.716122 0.000000
-16.640888 -16.367823 -0.458486 1365 0.697975 0.716122 0.000000
-16.641308 -16.368229 -0.451322 1361 0.697975 0.716122 0.000000
-16.641514 -16.368433 -0.444160 1353 0.697975 0.716122 0.000000
-16.641184 -16.368111 -0.436983 1359 0.697975 0.716122 0.000000
-16.641495 -16.368414 -0.429820 1371 0.697975 0.716122 0.000000
-16.641953 -16.368866 -0.422655 1361 0.697975 0.716122 0.000000
-16.641827 -16.368752 -0.415486 1361 0.697975 0.716122 0.000000
-16.640772 -16.367708 -0.408286 1363 0.697975 0.716122 0.000000
-16.640333 -16.367281 -0.401110 1359 0.697975 0.716122 0.000000
-16.640993 -16.367943 -0.393954 1377 0.697975 0.716122 0.000000
-16.640875 -16.367821 -0.386785 1375 0.697975 0.716122 0.000000
-16.641060 -16.368008 -0.379613 1379 0.697975 0.716122 0.000000
-16.641563 -16.368498 -0.372458 1377 0.697975 0.716122 0.000000
-16.641119 -16.368063 -0.365282 1367 0.697975 0.716122 0.000000
-16.641039 -16.367989 -0.358103 1359 0.697975 0.716122 0.000000
-16.640802 -16.367758 -0.350935 1357 0.697975 0.716122 0.000000
-16.640146 -16.367111 -0.343751 1367 0.697975 0.716122 0.000000
-16.639597 -16.366568 -0.336566 1347 0.697975 0.716122 0.000000
-16.639822 -16.366798 -0.329404 1371 0.697975 0.716122 0.000000
-16.640676 -16.367634 -0.322255 1369 0.697975 0.716122 0.000000
-16.640331 -16.367298 -0.315078 1367 0.697975 0.716122 0.000000
-16.639933 -16.366905 -0.307902 1359 0.697975 0.716122 0.000000
-16.641148 -16.368105 -0.300750 1369 0.697975 0.716122 0.000000
-16.640631 -16.367601 -0.293575 1363 0.697975 0.716122 0.000000
-16.640331 -16.367306 -0.286398 1365 0.697975 0.716122 0.000000
-16.640650 -16.367628 -0.279234 1361 0.697975 0.716122 0.000000
-16.647181 -16.363583 -0.666533 1367 0.697975 0.716122 0.000000
-16.647058 -16.363461 -0.659354 1363 0.697975 0.716122 0.000000
-16.646637 -16.363049 -0.652158 1355 0.697975 0.716122 0.000000
-16.647034 -16.363436 -0.645004 1379 0.697975 0.716122 0.000000
-16.646704 -16.363111 -0.637817 1371 0.697975 0.716122 0.000000
-16.646942 -16.363356 -0.630655 1377 0.697975 0.716122 0.000000
-16.647129 -16.363541 -0.623483 1373 0.697975 0.716122 0.000000
-16.646534 -16.362959 -0.616288 1367 0.697975 0.716122 0.000000
-16.646828 -16.363249 -0.609125 1361 0.697975 0.716122 0.000000
-16.647169 -16.363577 -0.601962 1373 0.697975 0.716122 0.000000
-16.646574 -16.362995 -0.594767 1371 0.697975 0.716122 0.000000
-16.646799 -16.363226 -0.587605 1373 0.697975 0.716122 0.000000
-16.646725 -16.363144 -0.580426 1359 0.697975 0.716122 0.000000
-16.646271 -16.362705 -0.573240 1361 0.697975 0.716122 0.000000
-16.645981 -16.362415 -0.566063 1353 0.697975 0.716122 0.000000
-16.646307 -16.362743 -0.558899 1361 0.697975 0.716122 0.000000
-16.647161 -16.363592 -0.551751 1365 0.697975 0.716122 0.000000
-16.647337 -16.363758 -0.544589 1363 0.697975 0.716122 0.000000
-16.646667 -16.363098 -0.537395 1349 0.697975 0.716122 0.000000
-16.646620 -16.363064 -0.530215 1353 0.697975 0.716122 0.000000
-16.646482 -16.362928 -0.523046 1357 0.697975 0.716122 0.000000
-16.646334 -16.362782 -0.515868 1369 0.697975 0.716122 0.000000
-16.646862 -16.363306 -0.508713 1373 0.697975 0.716122 0.000000
-16.646656 -16.363100 -0.501534 1369 0.697975 0.716122 0.000000
-16.646141 -16.362595 -0.494349 1369 0.697975 0.716122 0.000000
-16.645935 -16.362389 -0.487171 1357 0.697975 0.716122 0.000000
-16.646299 -16.362751 -0.480007 1375 0.697975 0.716122 0.000000
-16.646400 -16.362852 -0.472836 1369 0.697975 0.716122 0.000000
-16.646568 -16.363010 -0.465674 1383 0.697975 0.716122 0.000000
-16.646347 -16.362806 -0.458496 1365 0.697975 0.716122 0.000000
-16.646345 -16.362795 -0.451326 1357 0.697975 0.716122 0.000000
-16.646593 -16.363047 -0.444164 1371 0.697975 0.716122 0.000000
-16.645592 -16.362061 -0.436963 1369 0.697975 0.716122 0.000000
-16.645329 -16.361805 -0.429785 1361 0.697975 0.716122 0.000000
-16.645676 -16.362152 -0.422622 1367 0.697975 0.716122 0.000000
-16.646187 -16.362648 -0.415467 1371 0.697975 0.716122 0.000000
-16.646172 -16.362640 -0.408297 1363 0.697975 0.716122 0.000000
-16.646160 -16.362623 -0.401127 1361 0.697975 0.716122 0.000000
-16.646399 -16.362867 -0.393964 1367 0.697975 0.716122 0.000000
-16.645805 -16.362284 -0.386780 1357 0.697975 0.716122 0.000000
-16.646200 -16.362671 -0.379616 1361 0.697975 0.716122 0.000000
-16.646900 -16.363363 -0.372459 1369 0.697975 0.716122 0.000000
-16.646837 -16.363300 -0.365289 1369 0.697975 0.716122 0.000000
-16.646444 -16.362913 -0.358113 1367 0.697975 0.716122 0.000000
-16.645733 -16.362221 -0.350930 1355 0.697975 0.716122 0.000000
-16.645863 -16.362347 -0.343758 1365 0.697975 0.716122 0.000000
-16.645931 -16.362423 -0.336597 1349 0.697975 0.716122 0.000000
-16.646217 -16.362705 -0.329424 1363 0.697975 0.716122 0.000000
-16.646185 -16.362669 -0.322254 1369 0.697975 0.716122 0.000000
-16.645527 -16.362022 -0.315081 1369 0.697975 0.716122 0.000000
-16.645485 -16.361979 -0.307911 1369 0.697975 0.716122 0.000000
-16.645508 -16.362001 -0.300740 1365 0.697975 0.716122 0.000000
-16.645412 -16.361916 -0.293571 1373 0.697975 0.716122 0.000000
-16.645830 -16.362333 -0.286407 1373 0.697975 0.716122 0.000000
-16.646055 -16.362551 -0.279245 1367 0.697975 0.716122 0.000000
-16.653645 -16.358767 -0.666567 1373 0.697975 0.716122 0.000000
-16.654158 -16.359262 -0.659412 1375 0.697975 0.716122 0.000000
-16.653835 -16.358948 -0.652225 1371 0.697975 0.716122 0.000000
-16.653505 -16.358625 -0.645038 1365 0.697975 0.716122 0.000000
-16.652958 -16.358097 -0.637843 1373 0.697975 0.716122 0.000000
-16.652737 -16.357876 -0.630665 1369 0.697975 0.716122 0.000000
-16.652613 -16.357761 -0.623486 1369 0.697975 0.716122 0.000000
-16.652803 -16.357941 -0.616314 1363 0.697975 0.716122 0.000000
-16.653448 -16.358587 -0.609168 1359 0.697975 0.716122 0.000000
-16.653330 -16.358467 -0.601989 1367 0.697975 0.716122 0.000000
-16.652565 -16.357718 -0.594786 1359 0.697975 0.716122 0.000000
-16.652748 -16.357901 -0.587624 1369 0.697975 0.716122 0.000000
-16.652412 -16.357574 -0.580437 1377 0.697975 0.716122 0.000000
-16.651756 -16.356926 -0.573243 1379 0.697975 0.716122 0.000000
-16.652189 -16.357359 -0.566079 1369 0.697975 0.716122 0.000000
-16.651945 -16.357107 -0.558901 1353 0.697975 0.716122 0.000000
-16.652378 -16.357540 -0.551747 1369 0.697975 0.716122 0.000000
-16.652344 -16.357504 -0.544567 1361 0.697975 0.716122 0.000000
-16.652462 -16.357618 -0.537406 1359 0.697975 0.716122 0.000000
-16.652632 -16.357790 -0.530234 1355 0.697975 0.716122 0.000000
-16.652527 -16.357695 -0.523065 1375 0.697975 0.716122 0.000000
-16.652752 -16.357912 -0.515892 1377 0.697975 0.716122 0.000000
-16.652391 -16.357565 -0.508716 1371 0.697975 0.716122 0.000000
-16.652607 -16.357775 -0.501543 1379 0.697975 0.716122 0.000000
-16.653658 -16.358814 -0.494403 1379 0.697975 0.716122 0.000000
-16.653397 -16.358547 -0.487225 1373 0.697975 0.716122 0.000000
-16.652407 -16.357584 -0.480025 1379 0.697975 0.716122 0.000000
-16.651983 -16.357170 -0.472839 1377 0.697975 0.716122 0.000000
-16.651731 -16.356913 -0.465661 1365 0.697975 0.716122 0.000000
-16.651831 -16.357014 -0.458500 1365 0.697975 0.716122 0.000000
-16.651930 -16.357113 -0.451329 1363 0.697975 0.716122 0.000000
-16.651764 -16.356955 -0.444150 1371 0.697975 0.716122 0.000000
-16.651863 -16.357056 -0.436989 1359 0.697975 0.716122 0.000000
-16.652010 -16.357195 -0.429817 1363 0.697975 0.716122 0.000000
-16.652046 -16.357244 -0.422647 1365 0.697975 0.716122 0.000000
-16.652145 -16.357332 -0.415476 1371 0.697975 0.716122 0.000000
-16.652330 -16.357515 -0.408314 1363 0.697975 0.716122 0.000000
-16.652258 -16.357449 -0.401144 1365 0.697975 0.716122 0.000000
-16.651773 -16.356970 -0.393959 1371 0.697975 0.716122 0.000000
-16.652014 -16.357214 -0.386796 1363 0.697975 0.716122 0.000000
-16.651934 -16.357140 -0.379627 1359 0.697975 0.716122 0.000000
-16.651604 -16.356815 -0.372450 1357 0.697975 0.716122 0.000000
-16.651899 -16.357105 -0.365287 1369 0.697975 0.716122 0.000000
-16.652237 -16.357431 -0.358123 1371 0.697975 0.716122 0.000000
-16.652462 -16.357664 -0.350951 1379 0.697975 0.716122 0.000000
-16.652126 -16.357336 -0.343774 1369 0.697975 0.716122 0.000000
-16.651421 -16.356636 -0.336591 1363 0.697975 0.716122 0.000000
-16.651590 -16.356808 -0.329429 1369 0.697975 0.716122 0.000000
-16.652136 -16.357344 -0.322263 1375 0.697975 0.716122 0.000000
-16.652039 -16.357256 -0.315094 1365 0.697975 0.716122 0.000000
-16.651857 -16.357071 -0.307926 1369 0.697975 0.716122 0.000000
-16.651762 -16.356983 -0.300757 1363 0.697975 0.716122 0.000000
-16.651869 -16.357090 -0.293585 1381 0.697975 0.716122 0.000000
-16.651157 -16.356384 -0.286402 1377 0.697975 0.716122 0.000000
-16.651438 -16.356661 -0.279239 1377 0.697975 0.716122 0.000000
