245
-25.988316 -25.473244 -0.637469 1159 0.730622 0.682782 0.000000
-25.987793 -25.472723 -0.626274 1155 0.730622 0.682782 0.000000
-25.987827 -25.472767 -0.615104 1161 0.730622 0.682782 0.000000
-25.987692 -25.472626 -0.603925 1153 0.730622 0.682782 0.000000
-25.987307 -25.472248 -0.592728 1143 0.730622 0.682782 0.000000
-25.987495 -25.472435 -0.581556 1133 0.730622 0.682782 0.000000
-25.987991 -25.472927 -0.570391 1139 0.730622 0.682782 0.000000
-25.987070 -25.472025 -0.559190 1141 0.730622 0.682782 0.000000
-25.986879 -25.471836 -0.548011 1141 0.730622 0.682782 0.000000
-25.987513 -25.472460 -0.536845 1147 0.730622 0.682782 0.000000
-25.987469 -25.472424 -0.525665 1157 0.730622 0.682782 0.000000
-25.987078 -25.472027 -0.514488 1159 0.730622 0.682782 0.000000
-25.987556 -25.472509 -0.503314 1147 0.730622 0.682782 0.000000
-25.987926 -25.472870 -0.492150 1169 0.730622 0.682782 0.000000
-25.988518 -25.473448 -0.480984 1165 0.730622 0.682782 0.000000
-25.987682 -25.472628 -0.469792 1167 0.730622 0.682782 0.000000
-25.987307 -25.472269 -0.458605 1153 0.730622 0.682782 0.000000
-25.986931 -25.471903 -0.447418 1163 0.730622 0.682782 0.000000
-25.986874 -25.471840 -0.436239 1171 0.730622 0.682782 0.000000
-25.987196 -25.472162 -0.425075 1173 0.730622 0.682782 0.000000
-25.987503 -25.472458 -0.413902 1163 0.730622 0.682782 0.000000
-25.988165 -25.473106 -0.402735 1165 0.730622 0.682782 0.000000
-25.987625 -25.472588 -0.391550 1167 0.730622 0.682782 0.000000
-25.986622 -25.471600 -0.380360 1151 0.730622 0.682782 0.000000
-25.986019 -25.471014 -0.369175 1167 0.730622 0.682782 0.000000
-25.986940 -25.471918 -0.358006 1165 0.730622 0.682782 0.000000
-25.987650 -25.472605 -0.346839 1175 0.730622 0.682782 0.000000
-25.986938 -25.471914 -0.335656 1155 0.730622 0.682782 0.000000
-25.986330 -25.471313 -0.324471 1145 0.730622 0.682782 0.000000
-25.987181 -25.472158 -0.313313 1147 0.730622 0.682782 0.000000
-25.988457 -25.473412 -0.302150 1145 0.730622 0.682782 0.000000
-25.988104 -25.473063 -0.290973 1159 0.730622 0.682782 0.000000
-25.986446 -25.471434 -0.279779 1163 0.730622 0.682782 0.000000
-25.986622 -25.471607 -0.268597 1167 0.730622 0.682782 0.000000
-25.986996 -25.471975 -0.257433 1155 0.730622 0.682782 0.000000
-25.994574 -25.463194 -0.637432 1157 0.730622 0.682782 0.000000
-25.994829 -25.463446 -0.626259 1149 0.730622 0.682782 0.000000
-25.995596 -25.464207 -0.615101 1147 0.730622 0.682782 0.000000
-25.994673 -25.463301 -0.603900 1155 0.730622 0.682782 0.000000
-25.994406 -25.463037 -0.592712 1147 0.730622 0.682782 0.000000
-25.995737 -25.464338 -0.581569 1147 0.730622 0.682782 0.000000
-25.996386 -25.464973 -0.570403 1167 0.730622 0.682782 0.000000
-25.995777 -25.464384 -0.559208 1165 0.730622 0.682782 0.000000
-25.996267 -25.464861 -0.548043 1155 0.730622 0.682782 0.000000
-25.996746 -25.465342 -0.536879 1159 0.730622 0.682782 0.000000
-25.996033 -25.464638 -0.525685 1161 0.730622 0.682782 0.000000
-25.995472 -25.464087 -0.514490 1155 0.730622 0.682782 0.000000
-25.995268 -25.463888 -0.503312 1169 0.730622 0.682782 0.000000
-25.995226 -25.463854 -0.492132 1157 0.730622 0.682782 0.000000
-25.995602 -25.464220 -0.480968 1157 0.730622 0.682782 0.000000
-25.996233 -25.464842 -0.469802 1169 0.730622 0.682782 0.000000
-25.996391 -25.464985 -0.458630 1183 0.730622 0.682782 0.000000
-25.996119 -25.464731 -0.447442 1181 0.730622 0.682782 0.000000
-25.996275 -25.464876 -0.436271 1161 0.730622 0.682782 0.000000
-25.996534 -25.465132 -0.425098 1173 0.730622 0.682782 0.000000
-25.998047 -25.466610 -0.413943 1175 0.730622 0.682782 0.000000
-25.996876 -25.465469 -0.402744 1175 0.730622 0.682782 0.000000
-25.995501 -25.464132 -0.391547 1127 0.730622 0.682782 0.000000
-25.996210 -25.464819 -0.380380 1135 0.730622 0.682782 0.000000
-25.996555 -25.465160 -0.369216 1165 0.730622 0.682782 0.000000
-25.996639 -25.465242 -0.358035 1169 0.730622 0.682782 0.000000
-25.996571 -25.465170 -0.346856 1147 0.730622 0.682782 0.000000
-25.996180 -25.464790 -0.335679 1169 0.730622 0.682782 0.000000
-25.995453 -25.464088 -0.324496 1151 0.730622 0.682782 0.000000
-25.994650 -25.463295 -0.313303 1135 0.730622 0.682782 0.000000
-25.995090 -25.463730 -0.302139 1153 0.730622 0.682782 0.000000
-25.996197 -25.464815 -0.290978 1163 0.730622 0.682782 0.000000
-25.995422 -25.464060 -0.279785 1157 0.730622 0.682782 0.000000
-25.996008 -25.464632 -0.268619 1165 0.730622 0.682782 0.000000
-25.996284 -25.464899 -0.257446 1155 0.730622 0.682782 0.000000
-26.005579 -25.457199 -0.637502 1151 0.730622 0.682782 0.000000
-26.004522 -25.456165 -0.626291 1155 0.730622 0.682782 0.000000
-26.004242 -25.455891 -0.615114 1145 0.730622 0.682782 0.000000
-26.004368 -25.456007 -0.603932 1153 0.730622 0.682782 0.000000
-26.003456 -25.455124 -0.592731 1149 0.730622 0.682782 0.000000
-26.003590 -25.455250 -0.581559 1157 0.730622 0.682782 0.000000
-26.004404 -25.456051 -0.570401 1147 0.730622 0.682782 0.000000
-26.004368 -25.456020 -0.559221 1161 0.730622 0.682782 0.000000
-26.003922 -25.455578 -0.548035 1159 0.730622 0.682782 0.000000
-26.003677 -25.455347 -0.536847 1163 0.730622 0.682782 0.000000
-26.003904 -25.455564 -0.525675 1165 0.730622 0.682782 0.000000
-26.004122 -25.455784 -0.514503 1161 0.730622 0.682782 0.000000
-26.004240 -25.455898 -0.503331 1153 0.730622 0.682782 0.000000
-26.004290 -25.455952 -0.492150 1165 0.730622 0.682782 0.000000
-26.004154 -25.455811 -0.480972 1173 0.730622 0.682782 0.000000
-26.004251 -25.455917 -0.469800 1155 0.730622 0.682782 0.000000
-26.005405 -25.457043 -0.458639 1175 0.730622 0.682782 0.000000
-26.005554 -25.457182 -0.447467 1155 0.730622 0.682782 0.000000
-26.003775 -25.455452 -0.436264 1169 0.730622 0.682782 0.000000
-26.002878 -25.454567 -0.425072 1173 0.730622 0.682782 0.000000
-26.004017 -25.455679 -0.413911 1137 0.730622 0.682782 0.000000
-26.003593 -25.455269 -0.402725 1131 0.730622 0.682782 0.000000
-26.003674 -25.455353 -0.391554 1131 0.730622 0.682782 0.000000
-26.003405 -25.455086 -0.380376 1135 0.730622 0.682782 0.000000
-26.003750 -25.455427 -0.369203 1147 0.730622 0.682782 0.000000
-26.005199 -25.456839 -0.358049 1149 0.730622 0.682782 0.000000
-26.004845 -25.456501 -0.346862 1159 0.730622 0.682782 0.000000
-26.003096 -25.454782 -0.335668 1155 0.730622 0.682782 0.000000
-26.002695 -25.454395 -0.324482 1135 0.730622 0.682782 0.000000
-26.003250 -25.454939 -0.313316 1153 0.730622 0.682782 0.000000
-26.003061 -25.454754 -0.302138 1145 0.730622 0.682782 0.000000
-26.003540 -25.455233 -0.290963 1147 0.730622 0.682782 0.000000
-26.004448 -25.456116 -0.279804 1147 0.730622 0.682782 0.000000
-26.004297 -25.455975 -0.268625 1147 0.730622 0.682782 0.000000
-26.003254 -25.454952 -0.257435 1137 0.730622 0.682782 0.000000
-26.012562 -25.447849 -0.637477 1145 0.730622 0.682782 0.000000
-26.011877 -25.447180 -0.626283 1139 0.730622 0.682782 0.000000
-26.011755 -25.447052 -0.615104 1133 0.730622 0.682782 0.000000
-26.011744 -25.447042 -0.603924 1133 0.730622 0.682782 0.000000
-26.012499 -25.447783 -0.592757 1151 0.730622 0.682782 0.000000
-26.012783 -25.448072 -0.581594 1111 0.730622 0.682782 0.000000
-26.012346 -25.447636 -0.570397 1115 0.730622 0.682782 0.000000
-26.012264 -25.447556 -0.559218 1121 0.730622 0.682782 0.000000
-26.011757 -25.447063 -0.548033 1141 0.730622 0.682782 0.000000
-26.011713 -25.447025 -0.536853 1143 0.730622 0.682782 0.000000
-26.012718 -25.448015 -0.525703 1151 0.730622 0.682782 0.000000
-26.012224 -25.447519 -0.514507 1141 0.730622 0.682782 0.000000
-26.012018 -25.447321 -0.503329 1163 0.730622 0.682782 0.000000
-26.012800 -25.448093 -0.492171 1181 0.730622 0.682782 0.000000
-26.013168 -25.448458 -0.480997 1149 0.730622 0.682782 0.000000
-26.012863 -25.448158 -0.469810 1137 0.730622 0.682782 0.000000
-26.012445 -25.447742 -0.458624 1141 0.730622 0.682782 0.000000
-26.012598 -25.447897 -0.447452 1147 0.730622 0.682782 0.000000
-26.012539 -25.447847 -0.436272 1143 0.730622 0.682782 0.000000
-26.011175 -25.446505 -0.425075 1151 0.730622 0.682782 0.000000
-26.011112 -25.446453 -0.413895 1145 0.730622 0.682782 0.000000
-26.012512 -25.447807 -0.402742 1155 0.730622 0.682782 0.000000
-26.011717 -25.447037 -0.391559 1161 0.730622 0.682782 0.000000
-26.011450 -25.446772 -0.380371 1153 0.730622 0.682782 0.000000
-26.012524 -25.447830 -0.369211 1155 0.730622 0.682782 0.000000
-26.012344 -25.447653 -0.358032 1157 0.730622 0.682782 0.000000
-26.011950 -25.447268 -0.346856 1159 0.730622 0.682782 0.000000
-26.012762 -25.448069 -0.335688 1173 0.730622 0.682782 0.000000
-26.012306 -25.447620 -0.324512 1147 0.730622 0.682782 0.000000
-26.011652 -25.446978 -0.313328 1141 0.730622 0.682782 0.000000
-26.012556 -25.447868 -0.302159 1141 0.730622 0.682782 0.000000
-26.011459 -25.446802 -0.290969 1147 0.730622 0.682782 0.000000
-26.010756 -25.446104 -0.279786 1153 0.730622 0.682782 0.000000
-26.011759 -25.447094 -0.268626 1147 0.730622 0.682782 0.000000
-26.011183 -25.446529 -0.257441 1137 0.730622 0.682782 0.000000
-26.017151 -25.436789 -0.637402 1137 0.730622 0.682782 0.000000
-26.019957 -25.439535 -0.626295 1153 0.730622 0.682782 0.000000
-26.020884 -25.440445 -0.615136 1149 0.730622 0.682782 0.000000
-26.019770 -25.439352 -0.603936 1141 0.730622 0.682782 0.000000
-26.019012 -25.438610 -0.592733 1131 0.730622 0.682782 0.000000
-26.019613 -25.439196 -0.581577 1137 0.730622 0.682782 0.000000
-26.021055 -25.440613 -0.570423 1137 0.730622 0.682782 0.000000
-26.020926 -25.440479 -0.559244 1137 0.730622 0.682782 0.000000
-26.020565 -25.440136 -0.548057 1137 0.730622 0.682782 0.000000
-26.019327 -25.438925 -0.536859 1133 0.730622 0.682782 0.000000
-26.018091 -25.437717 -0.525650 1135 0.730622 0.682782 0.000000
-26.018311 -25.437925 -0.514478 1143 0.730622 0.682782 0.000000
-26.019999 -25.439579 -0.503342 1137 0.730622 0.682782 0.000000
-26.019165 -25.438761 -0.492139 1153 0.730622 0.682782 0.000000
-26.018385 -25.438000 -0.480956 1153 0.730622 0.682782 0.000000
-26.021011 -25.440573 -0.469821 1157 0.730622 0.682782 0.000000
-26.021683 -25.441227 -0.458655 1151 0.730622 0.682782 0.000000
-26.020647 -25.440212 -0.447464 1153 0.730622 0.682782 0.000000
-26.020472 -25.440052 -0.436285 1155 0.730622 0.682782 0.000000
-26.019785 -25.439383 -0.425092 1147 0.730622 0.682782 0.000000
-26.019260 -25.438866 -0.413907 1135 0.730622 0.682782 0.000000
-26.020809 -25.440386 -0.402762 1163 0.730622 0.682782 0.000000
-26.020370 -25.439955 -0.391575 1149 0.730622 0.682782 0.000000
-26.020102 -25.439688 -0.380398 1125 0.730622 0.682782 0.000000
-26.020447 -25.440029 -0.369224 1139 0.730622 0.682782 0.000000
-26.020941 -25.440508 -0.358049 1173 0.730622 0.682782 0.000000
-26.021286 -25.440849 -0.346886 1159 0.730622 0.682782 0.000000
-26.019995 -25.439596 -0.335688 1161 0.730622 0.682782 0.000000
-26.019299 -25.438906 -0.324504 1141 0.730622 0.682782 0.000000
-26.018785 -25.438408 -0.313319 1151 0.730622 0.682782 0.000000
-26.019070 -25.438686 -0.302146 1135 0.730622 0.682782 0.000000
-26.020554 -25.440140 -0.290991 1129 0.730622 0.682782 0.000000
-26.020666 -25.440250 -0.279810 1149 0.730622 0.682782 0.000000
-26.019529 -25.439137 -0.268631 1145 0.730622 0.682782 0.000000
-26.020689 -25.440279 -0.257459 1145 0.730622 0.682782 0.000000
-26.029585 -25.433390 -0.637522 1123 0.730622 0.682782 0.000000
-26.028477 -25.432301 -0.626312 1119 0.730622 0.682782 0.000000
-26.026882 -25.430754 -0.615097 1123 0.730622 0.682782 0.000000
-26.026501 -25.430380 -0.603911 1131 0.730622 0.682782 0.000000
-26.027100 -25.430960 -0.592745 1135 0.730622 0.682782 0.000000
-26.027590 -25.431438 -0.581580 1133 0.730622 0.682782 0.000000
-26.027567 -25.431416 -0.570400 1141 0.730622 0.682782 0.000000
-26.027746 -25.431595 -0.559228 1135 0.730622 0.682782 0.000000
-26.028246 -25.432079 -0.548063 1127 0.730622 0.682782 0.000000
-26.028416 -25.432247 -0.536891 1129 0.730622 0.682782 0.000000
-26.027494 -25.431356 -0.525689 1131 0.730622 0.682782 0.000000
-26.028339 -25.432180 -0.514531 1141 0.730622 0.682782 0.000000
-26.029814 -25.433617 -0.503387 1155 0.730622 0.682782 0.000000
-26.029400 -25.433214 -0.492201 1145 0.730622 0.682782 0.000000
-26.028303 -25.432148 -0.481001 1133 0.730622 0.682782 0.000000
-26.028618 -25.432453 -0.469827 1151 0.730622 0.682782 0.000000
-26.029613 -25.433432 -0.458668 1183 0.730622 0.682782 0.000000
-26.028463 -25.432308 -0.447468 1161 0.730622 0.682782 0.000000
-26.028355 -25.432205 -0.436289 1137 0.730622 0.682782 0.000000
-26.029081 -25.432905 -0.425122 1143 0.730622 0.682782 0.000000
-26.029026 -25.432858 -0.413942 1143 0.730622 0.682782 0.000000
-26.027485 -25.431355 -0.402747 1135 0.730622 0.682782 0.000000
-26.026844 -25.430725 -0.391562 1141 0.730622 0.682782 0.000000
-26.026987 -25.430870 -0.380381 1151 0.730622 0.682782 0.000000
-26.026697 -25.430586 -0.369203 1153 0.730622 0.682782 0.000000
-26.027351 -25.431229 -0.358037 1157 0.730622 0.682782 0.000000
-26.028273 -25.432131 -0.346878 1147 0.730622 0.682782 0.000000
-26.028671 -25.432518 -0.335704 1157 0.730622 0.682782 0.000000
-26.028582 -25.432428 -0.324524 1157 0.730622 0.682782 0.000000
-26.029387 -25.433222 -0.313356 1145 0.730622 0.682782 0.000000
-26.028784 -25.432625 -0.302172 1145 0.730622 0.682782 0.000000
-26.027493 -25.431370 -0.290984 1131 0.730622 0.682782 0.000000
-26.027039 -25.430920 -0.279808 1137 0.730622 0.682782 0.000000
-26.027258 -25.431147 -0.268636 1135 0.730622 0.682782 0.000000
-26.027994 -25.431868 -0.257458 1129 0.730622 0.682782 0.000000
-26.035568 -25.423697 -0.637484 1129 0.730622 0.682782 0.000000
-26.035549 -25.423679 -0.626304 1131 0.730622 0.682782 0.000000
-26.035631 -25.423761 -0.615133 1131 0.730622 0.682782 0.000000
-26.035357 -25.423491 -0.603945 1109 0.730622 0.682782 0.000000
-26.035662 -25.423788 -0.592772 1115 0.730622 0.682782 0.000000
-26.036671 -25.424780 -0.581622 1109 0.730622 0.682782 0.000000
-26.037075 -25.425167 -0.570448 1123 0.730622 0.682782 0.000000
-26.035891 -25.424017 -0.559239 1141 0.730622 0.682782 0.000000
-26.034281 -25.422441 -0.548034 1125 0.730622 0.682782 0.000000
-26.035091 -25.423225 -0.536866 1105 0.730622 0.682782 0.000000
-26.035667 -25.423803 -0.525700 1121 0.730622 0.682782 0.000000
-26.035000 -25.423149 -0.514516 1125 0.730622 0.682782 0.000000
-26.035910 -25.424030 -0.503357 1123 0.730622 0.682782 0.000000
-26.034393 -25.422562 -0.492152 1117 0.730622 0.682782 0.000000
-26.034241 -25.422405 -0.480963 1125 0.730622 0.682782 0.000000
-26.035385 -25.423525 -0.469812 1135 0.730622 0.682782 0.000000
-26.034653 -25.422815 -0.458618 1131 0.730622 0.682782 0.000000
-26.034239 -25.422403 -0.447442 1147 0.730622 0.682782 0.000000
-26.035545 -25.423683 -0.436289 1153 0.730622 0.682782 0.000000
-26.035107 -25.423262 -0.425103 1153 0.730622 0.682782 0.000000
-26.034784 -25.422953 -0.413916 1139 0.730622 0.682782 0.000000
-26.035458 -25.423607 -0.402749 1139 0.730622 0.682782 0.000000
-26.033876 -25.422056 -0.391554 1139 0.730622 0.682782 0.000000
-26.034758 -25.422913 -0.380386 1143 0.730622 0.682782 0.000000
-26.035460 -25.423607 -0.369228 1129 0.730622 0.682782 0.000000
-26.034555 -25.422718 -0.358037 1141 0.730622 0.682782 0.000000
-26.036572 -25.424696 -0.346887 1153 0.730622 0.682782 0.000000
-26.036533 -25.424654 -0.335708 1153 0.730622 0.682782 0.000000
-26.036671 -25.424793 -0.324536 1143 0.730622 0.682782 0.000000
-26.037060 -25.425171 -0.313362 1137 0.730622 0.682782 0.000000
-26.035242 -25.423395 -0.302169 1135 0.730622 0.682782 0.000000
-26.034161 -25.422342 -0.290979 1149 0.730622 0.682782 0.000000
-26.035275 -25.423435 -0.279818 1139 0.730622 0.682782 0.000000
-26.036898 -25.425020 -0.268652 1149 0.730622 0.682782 0.000000
-26.036180 -25.424311 -0.257469 1149 0.730622 0.682782 0.000000
