774
-2.314233 -2.312556 -0.311285 1509 0.740885 0.671632 0.000000
-2.313934 -2.312260 -0.310238 1499 0.740885 0.671632 0.000000
-2.313643 -2.311971 -0.309181 1503 0.740885 0.671632 0.000000
-2.313810 -2.312137 -0.308189 1507 0.740885 0.671632 0.000000
-2.314394 -2.312727 -0.307253 1515 0.740885 0.671632 0.000000
-2.314356 -2.312684 -0.306234 1517 0.740885 0.671632 0.000000
-2.313748 -2.312085 -0.305139 1513 0.740885 0.671632 0.000000
-2.313660 -2.311991 -0.304120 1501 0.740885 0.671632 0.000000
-2.313616 -2.311955 -0.303101 1503 0.740885 0.671632 0.000000
-2.313577 -2.311912 -0.302081 1509 0.740885 0.671632 0.000000
-2.313695 -2.312027 -0.301090 1509 0.740885 0.671632 0.000000
-2.313650 -2.311992 -0.300070 1513 0.740885 0.671632 0.000000
-2.313767 -2.312107 -0.299069 1523 0.740885 0.671632 0.000000
-2.313786 -2.312120 -0.298059 1507 0.740885 0.671632 0.000000
-2.314276 -2.311170 -0.368043 1513 0.740885 0.671632 0.000000
-2.314247 -2.311147 -0.367023 1511 0.740885 0.671632 0.000000
-2.314331 -2.311223 -0.366012 1519 0.740885 0.671632 0.000000
-2.314253 -2.311149 -0.364983 1521 0.740885 0.671632 0.000000
-2.314224 -2.311126 -0.363963 1507 0.740885 0.671632 0.000000
-2.314153 -2.311044 -0.362944 1503 0.740885 0.671632 0.000000
-2.314540 -2.311431 -0.361980 1513 0.740885 0.671632 0.000000
-2.315132 -2.312028 -0.361054 1523 0.740885 0.671632 0.000000
-2.314899 -2.311795 -0.360007 1523 0.740885 0.671632 0.000000
-2.314460 -2.311353 -0.358921 1517 0.740885 0.671632 0.000000
-2.314636 -2.311540 -0.357929 1519 0.740885 0.671632 0.000000
-2.314663 -2.311559 -0.356919 1513 0.740885 0.671632 0.000000
-2.314692 -2.311593 -0.355908 1505 0.740885 0.671632 0.000000
-2.314507 -2.311411 -0.354860 1517 0.740885 0.671632 0.000000
-2.314175 -2.311077 -0.353793 1515 0.740885 0.671632 0.000000
-2.314554 -2.311458 -0.352840 1511 0.740885 0.671632 0.000000
-2.314638 -2.311535 -0.351839 1511 0.740885 0.671632 0.000000
-2.314405 -2.311302 -0.350781 1509 0.740885 0.671632 0.000000
-2.314368 -2.311273 -0.349761 1505 0.740885 0.671632 0.000000
-2.314756 -2.311660 -0.348808 1505 0.740885 0.671632 0.000000
-2.314514 -2.311421 -0.347750 1515 0.740885 0.671632 0.000000
-2.313928 -2.310827 -0.346656 1513 0.740885 0.671632 0.000000
-2.314096 -2.311007 -0.345664 1509 0.740885 0.671632 0.000000
-2.314229 -2.311134 -0.344663 1503 0.740885 0.671632 0.000000
-2.314552 -2.311459 -0.343699 1501 0.740885 0.671632 0.000000
-2.314840 -2.311744 -0.342727 1505 0.740885 0.671632 0.000000
-2.314344 -2.311246 -0.341631 1511 0.740885 0.671632 0.000000
-2.313949 -2.310862 -0.340565 1513 0.740885 0.671632 0.000000
-2.313976 -2.310882 -0.339555 1515 0.740885 0.671632 0.000000
-2.314038 -2.310954 -0.338544 1517 0.740885 0.671632 0.000000
-2.314007 -2.310917 -0.337525 1513 0.740885 0.671632 0.000000
-2.314345 -2.311253 -0.336561 1505 0.740885 0.671632 0.000000
-2.314260 -2.311173 -0.335532 1505 0.740885 0.671632 0.000000
-2.314335 -2.311244 -0.334531 1501 0.740885 0.671632 0.000000
-2.314912 -2.311828 -0.333596 1505 0.740885 0.671632 0.000000
-2.314832 -2.311740 -0.332566 1509 0.740885 0.671632 0.000000
-2.314796 -2.311711 -0.331547 1515 0.740885 0.671632 0.000000
-2.314773 -2.311679 -0.330537 1517 0.740885 0.671632 0.000000
-2.314581 -2.311491 -0.329489 1515 0.740885 0.671632 0.000000
-2.314755 -2.311663 -0.328497 1505 0.740885 0.671632 0.000000
-2.314768 -2.311685 -0.327487 1505 0.740885 0.671632 0.000000
-2.314428 -2.311345 -0.326430 1505 0.740885 0.671632 0.000000
-2.314285 -2.311207 -0.325392 1509 0.740885 0.671632 0.000000
-2.314312 -2.311227 -0.324381 1511 0.740885 0.671632 0.000000
-2.314429 -2.311342 -0.323380 1513 0.740885 0.671632 0.000000
-2.314866 -2.311780 -0.322426 1519 0.740885 0.671632 0.000000
-2.315604 -2.312515 -0.321519 1523 0.740885 0.671632 0.000000
-2.315363 -2.312277 -0.320471 1513 0.740885 0.671632 0.000000
-2.314295 -2.311209 -0.319311 1509 0.740885 0.671632 0.000000
-2.314300 -2.311224 -0.318301 1507 0.740885 0.671632 0.000000
-2.314898 -2.311813 -0.317365 1513 0.740885 0.671632 0.000000
-2.315016 -2.311928 -0.316364 1515 0.740885 0.671632 0.000000
-2.315127 -2.312051 -0.315363 1517 0.740885 0.671632 0.000000
-2.314680 -2.311603 -0.314297 1519 0.740885 0.671632 0.000000
-2.314283 -2.311206 -0.313231 1519 0.740885 0.671632 0.000000
-2.314655 -2.311581 -0.312268 1521 0.740885 0.671632 0.000000
-2.314682 -2.311600 -0.311257 1511 0.740885 0.671632 0.000000
-2.314637 -2.311565 -0.310238 1505 0.740885 0.671632 0.000000
-2.314705 -2.311629 -0.309227 1505 0.740885 0.671632 0.000000
-2.314562 -2.311492 -0.308198 1509 0.740885 0.671632 0.000000
-2.314474 -2.311398 -0.307169 1513 0.740885 0.671632 0.000000
-2.314747 -2.311671 -0.306197 1515 0.740885 0.671632 0.000000
-2.314547 -2.311477 -0.305158 1521 0.740885 0.671632 0.000000
-2.314566 -2.311491 -0.304148 1513 0.740885 0.671632 0.000000
-2.314585 -2.311504 -0.303138 1511 0.740885 0.671632 0.000000
-2.314540 -2.311469 -0.302118 1517 0.740885 0.671632 0.000000
-2.314806 -2.311736 -0.301136 1521 0.740885 0.671632 0.000000
-2.314408 -2.311339 -0.300070 1513 0.740885 0.671632 0.000000
-2.314321 -2.311245 -0.299051 1517 0.740885 0.671632 0.000000
-2.314487 -2.311411 -0.298059 1511 0.740885 0.671632 0.000000
-2.314500 -2.311432 -0.297049 1511 0.740885 0.671632 0.000000
-2.315563 -2.311055 -0.369147 1515 0.740885 0.671632 0.000000
-2.315436 -2.310930 -0.368118 1517 0.740885 0.671632 0.000000
-2.315358 -2.310856 -0.367089 1519 0.740885 0.671632 0.000000
-2.315491 -2.310983 -0.366088 1521 0.740885 0.671632 0.000000
-2.315413 -2.310909 -0.365058 1519 0.740885 0.671632 0.000000
-2.315491 -2.310994 -0.364058 1515 0.740885 0.671632 0.000000
-2.316139 -2.311633 -0.363141 1515 0.740885 0.671632 0.000000
-2.316216 -2.311718 -0.362131 1509 0.740885 0.671632 0.000000
-2.315983 -2.311485 -0.361083 1513 0.740885 0.671632 0.000000
-2.315700 -2.311202 -0.360026 1525 0.740885 0.671632 0.000000
-2.315409 -2.310912 -0.358958 1515 0.740885 0.671632 0.000000
-2.315493 -2.310988 -0.357957 1509 0.740885 0.671632 0.000000
-2.315669 -2.311175 -0.356966 1511 0.740885 0.671632 0.000000
-2.315485 -2.310993 -0.355917 1503 0.740885 0.671632 0.000000
-2.314898 -2.310399 -0.354813 1509 0.740885 0.671632 0.000000
-2.314560 -2.310072 -0.353746 1515 0.740885 0.671632 0.000000
-2.314579 -2.310086 -0.352736 1511 0.740885 0.671632 0.000000
-2.314811 -2.310315 -0.351754 1505 0.740885 0.671632 0.000000
-2.314987 -2.310501 -0.350772 1511 0.740885 0.671632 0.000000
-2.315381 -2.310880 -0.349808 1515 0.740885 0.671632 0.000000
-2.315450 -2.310958 -0.348808 1513 0.740885 0.671632 0.000000
-2.315477 -2.310978 -0.347797 1515 0.740885 0.671632 0.000000
-2.315293 -2.310796 -0.346749 1517 0.740885 0.671632 0.000000
-2.315059 -2.310564 -0.345701 1517 0.740885 0.671632 0.000000
-2.314867 -2.310376 -0.344653 1517 0.740885 0.671632 0.000000
-2.314887 -2.310403 -0.343643 1505 0.740885 0.671632 0.000000
-2.315119 -2.310632 -0.342661 1507 0.740885 0.671632 0.000000
-2.314836 -2.310349 -0.341603 1513 0.740885 0.671632 0.000000
-2.314855 -2.310362 -0.340593 1517 0.740885 0.671632 0.000000
-2.314974 -2.310491 -0.339592 1517 0.740885 0.671632 0.000000
-2.315206 -2.310720 -0.338610 1517 0.740885 0.671632 0.000000
-2.315479 -2.310994 -0.337637 1517 0.740885 0.671632 0.000000
-2.315351 -2.310869 -0.336608 1521 0.740885 0.671632 0.000000
-2.315321 -2.310832 -0.335589 1517 0.740885 0.671632 0.000000
-2.315235 -2.310751 -0.334559 1503 0.740885 0.671632 0.000000
-2.315254 -2.310765 -0.333549 1501 0.740885 0.671632 0.000000
-2.315373 -2.310894 -0.332548 1513 0.740885 0.671632 0.000000
-2.315293 -2.310806 -0.331519 1519 0.740885 0.671632 0.000000
-2.315468 -2.310978 -0.330537 1521 0.740885 0.671632 0.000000
-2.315325 -2.310841 -0.329498 1519 0.740885 0.671632 0.000000
-2.315141 -2.310659 -0.328460 1513 0.740885 0.671632 0.000000
-2.315463 -2.310983 -0.327487 1513 0.740885 0.671632 0.000000
-2.315278 -2.310802 -0.326449 1515 0.740885 0.671632 0.000000
-2.314988 -2.310512 -0.325391 1519 0.740885 0.671632 0.000000
-2.315212 -2.310735 -0.324409 1525 0.740885 0.671632 0.000000
-2.315083 -2.310596 -0.323381 1519 0.740885 0.671632 0.000000
-2.314841 -2.310357 -0.322333 1517 0.740885 0.671632 0.000000
-2.314796 -2.310322 -0.321313 1519 0.740885 0.671632 0.000000
-2.314717 -2.310234 -0.320284 1509 0.740885 0.671632 0.000000
-2.315088 -2.310609 -0.319320 1507 0.740885 0.671632 0.000000
-2.315468 -2.310990 -0.318357 1517 0.740885 0.671632 0.000000
-2.315486 -2.311003 -0.317346 1517 0.740885 0.671632 0.000000
-2.315352 -2.310873 -0.316318 1517 0.740885 0.671632 0.000000
-2.315159 -2.310685 -0.315280 1515 0.740885 0.671632 0.000000
-2.315276 -2.310800 -0.314278 1517 0.740885 0.671632 0.000000
-2.315550 -2.311074 -0.313306 1517 0.740885 0.671632 0.000000
-2.315464 -2.310993 -0.312276 1517 0.740885 0.671632 0.000000
-2.315220 -2.310740 -0.311229 1509 0.740885 0.671632 0.000000
-2.315381 -2.310914 -0.310237 1511 0.740885 0.671632 0.000000
-2.315662 -2.311194 -0.309265 1515 0.740885 0.671632 0.000000
-2.315820 -2.311354 -0.308273 1513 0.740885 0.671632 0.000000
-2.315585 -2.311107 -0.307225 1515 0.740885 0.671632 0.000000
-2.315237 -2.310761 -0.306169 1511 0.740885 0.671632 0.000000
-2.315242 -2.310776 -0.305158 1513 0.740885 0.671632 0.000000
-2.315523 -2.311056 -0.304176 1519 0.740885 0.671632 0.000000
-2.315739 -2.311272 -0.303194 1525 0.740885 0.671632 0.000000
-2.315701 -2.311229 -0.302174 1529 0.740885 0.671632 0.000000
-2.315818 -2.311344 -0.301173 1533 0.740885 0.671632 0.000000
-2.315568 -2.311099 -0.300135 1519 0.740885 0.671632 0.000000
-2.315531 -2.311069 -0.299116 1523 0.740885 0.671632 0.000000
-2.315444 -2.310976 -0.298096 1521 0.740885 0.671632 0.000000
-2.315244 -2.310781 -0.297058 1517 0.740885 0.671632 0.000000
-2.316582 -2.310655 -0.369204 1515 0.740885 0.671632 0.000000
-2.316405 -2.310479 -0.368156 1521 0.740885 0.671632 0.000000
-2.316018 -2.310102 -0.367079 1513 0.740885 0.671632 0.000000
-2.315685 -2.309768 -0.366013 1515 0.740885 0.671632 0.000000
-2.315966 -2.310047 -0.365040 1515 0.740885 0.671632 0.000000
-2.316354 -2.310435 -0.364076 1515 0.740885 0.671632 0.000000
-2.316382 -2.310468 -0.363066 1503 0.740885 0.671632 0.000000
-2.316042 -2.310128 -0.361999 1497 0.740885 0.671632 0.000000
-2.315915 -2.310003 -0.360960 1503 0.740885 0.671632 0.000000
-2.316253 -2.310340 -0.359997 1509 0.740885 0.671632 0.000000
-2.316280 -2.310359 -0.358987 1511 0.740885 0.671632 0.000000
-2.315786 -2.309875 -0.357891 1505 0.740885 0.671632 0.000000
-2.315960 -2.310047 -0.356900 1505 0.740885 0.671632 0.000000
-2.316504 -2.310593 -0.355964 1505 0.740885 0.671632 0.000000
-2.316270 -2.310360 -0.354917 1511 0.740885 0.671632 0.000000
-2.316247 -2.310329 -0.353897 1513 0.740885 0.671632 0.000000
-2.316374 -2.310464 -0.352896 1517 0.740885 0.671632 0.000000
-2.316133 -2.310225 -0.351848 1513 0.740885 0.671632 0.000000
-2.316118 -2.310200 -0.350828 1513 0.740885 0.671632 0.000000
-2.316237 -2.310329 -0.349837 1509 0.740885 0.671632 0.000000
-2.316518 -2.310609 -0.348854 1521 0.740885 0.671632 0.000000
-2.316186 -2.310275 -0.347797 1521 0.740885 0.671632 0.000000
-2.316311 -2.310396 -0.346796 1515 0.740885 0.671632 0.000000
-2.316584 -2.310670 -0.345823 1519 0.740885 0.671632 0.000000
-2.315991 -2.310083 -0.344719 1523 0.740885 0.671632 0.000000
-2.315602 -2.309692 -0.343643 1513 0.740885 0.671632 0.000000
-2.315785 -2.309870 -0.342651 1503 0.740885 0.671632 0.000000
-2.315945 -2.310044 -0.341669 1503 0.740885 0.671632 0.000000
-2.315972 -2.310064 -0.340649 1511 0.740885 0.671632 0.000000
-2.315894 -2.309989 -0.339630 1511 0.740885 0.671632 0.000000
-2.315702 -2.309802 -0.338582 1515 0.740885 0.671632 0.000000
-2.316138 -2.310240 -0.337628 1517 0.740885 0.671632 0.000000
-2.316214 -2.310310 -0.336627 1519 0.740885 0.671632 0.000000
-2.316184 -2.310273 -0.335607 1525 0.740885 0.671632 0.000000
-2.316254 -2.310351 -0.334606 1511 0.740885 0.671632 0.000000
-2.316174 -2.310263 -0.333577 1507 0.740885 0.671632 0.000000
-2.316652 -2.310746 -0.332632 1517 0.740885 0.671632 0.000000
-2.316982 -2.311076 -0.331659 1517 0.740885 0.671632 0.000000
-2.316275 -2.310376 -0.330546 1517 0.740885 0.671632 0.000000
-2.315470 -2.309575 -0.329424 1515 0.740885 0.671632 0.000000
-2.315489 -2.309588 -0.328404 1507 0.740885 0.671632 0.000000
-2.315925 -2.310026 -0.327449 1505 0.740885 0.671632 0.000000
-2.315832 -2.309940 -0.326430 1515 0.740885 0.671632 0.000000
-2.316160 -2.310256 -0.325457 1515 0.740885 0.671632 0.000000
-2.316384 -2.310479 -0.324475 1515 0.740885 0.671632 0.000000
-2.315939 -2.310045 -0.323399 1515 0.740885 0.671632 0.000000
-2.315435 -2.309540 -0.322314 1513 0.740885 0.671632 0.000000
-2.315300 -2.309409 -0.321285 1509 0.740885 0.671632 0.000000
-2.315630 -2.309740 -0.320312 1509 0.740885 0.671632 0.000000
-2.315797 -2.309906 -0.319320 1507 0.740885 0.671632 0.000000
-2.315816 -2.309919 -0.318310 1515 0.740885 0.671632 0.000000
-2.315681 -2.309788 -0.317281 1507 0.740885 0.671632 0.000000
-2.315692 -2.309796 -0.316271 1509 0.740885 0.671632 0.000000
-2.315866 -2.309968 -0.315280 1515 0.740885 0.671632 0.000000
-2.316196 -2.310298 -0.314306 1515 0.740885 0.671632 0.000000
-2.316314 -2.310413 -0.313305 1515 0.740885 0.671632 0.000000
-2.316015 -2.310117 -0.312258 1511 0.740885 0.671632 0.000000
-2.316239 -2.310340 -0.311276 1507 0.740885 0.671632 0.000000
-2.316194 -2.310305 -0.310256 1509 0.740885 0.671632 0.000000
-2.315904 -2.310015 -0.309199 1519 0.740885 0.671632 0.000000
-2.315914 -2.310023 -0.308189 1519 0.740885 0.671632 0.000000
-2.316343 -2.310455 -0.307235 1519 0.740885 0.671632 0.000000
-2.316151 -2.310267 -0.306197 1515 0.740885 0.671632 0.000000
-2.315801 -2.309906 -0.305140 1523 0.740885 0.671632 0.000000
-2.315707 -2.309820 -0.304111 1521 0.740885 0.671632 0.000000
-2.315882 -2.309992 -0.303119 1511 0.740885 0.671632 0.000000
-2.315788 -2.309906 -0.302100 1515 0.740885 0.671632 0.000000
-2.315750 -2.309862 -0.301080 1525 0.740885 0.671632 0.000000
-2.316277 -2.310396 -0.300135 1517 0.740885 0.671632 0.000000
-2.316444 -2.310562 -0.299144 1517 0.740885 0.671632 0.000000
-2.316405 -2.310518 -0.298124 1517 0.740885 0.671632 0.000000
-2.316107 -2.310223 -0.297077 1507 0.740885 0.671632 0.000000
-2.317458 -2.309980 -0.369213 1517 0.740885 0.671632 0.000000
-2.317339 -2.309861 -0.368184 1519 0.740885 0.671632 0.000000
-2.316943 -2.309478 -0.367098 1511 0.740885 0.671632 0.000000
-2.316767 -2.309302 -0.366060 1505 0.740885 0.671632 0.000000
-2.316533 -2.309070 -0.365002 1505 0.740885 0.671632 0.000000
-2.316716 -2.309248 -0.364020 1505 0.740885 0.671632 0.000000
-2.316799 -2.309325 -0.363009 1503 0.740885 0.671632 0.000000
-2.316721 -2.309250 -0.361980 1497 0.740885 0.671632 0.000000
-2.316896 -2.309422 -0.360988 1507 0.740885 0.671632 0.000000
-2.317031 -2.309564 -0.359997 1515 0.740885 0.671632 0.000000
-2.316438 -2.308977 -0.358893 1515 0.740885 0.671632 0.000000
-2.316205 -2.308745 -0.357835 1513 0.740885 0.671632 0.000000
-2.316738 -2.309270 -0.356900 1511 0.740885 0.671632 0.000000
-2.316970 -2.309499 -0.355917 1513 0.740885 0.671632 0.000000
-2.316843 -2.309375 -0.354889 1511 0.740885 0.671632 0.000000
-2.316504 -2.309048 -0.353822 1505 0.740885 0.671632 0.000000
-2.316326 -2.308858 -0.352774 1511 0.740885 0.671632 0.000000
-2.316552 -2.309095 -0.351791 1511 0.740885 0.671632 0.000000
-2.316833 -2.309375 -0.350819 1515 0.740885 0.671632 0.000000
-2.316500 -2.309041 -0.349752 1517 0.740885 0.671632 0.000000
-2.316519 -2.309054 -0.348742 1517 0.740885 0.671632 0.000000
-2.316808 -2.309340 -0.347769 1521 0.740885 0.671632 0.000000
-2.316722 -2.309260 -0.346740 1513 0.740885 0.671632 0.000000
-2.317052 -2.309590 -0.345776 1511 0.740885 0.671632 0.000000
-2.316811 -2.309352 -0.344729 1517 0.740885 0.671632 0.000000
-2.316634 -2.309176 -0.343680 1509 0.740885 0.671632 0.000000
-2.316710 -2.309246 -0.342680 1507 0.740885 0.671632 0.000000
-2.316518 -2.309059 -0.341631 1503 0.740885 0.671632 0.000000
-2.316539 -2.309086 -0.340621 1501 0.740885 0.671632 0.000000
-2.316199 -2.308746 -0.339554 1505 0.740885 0.671632 0.000000
-2.316430 -2.308975 -0.338572 1511 0.740885 0.671632 0.000000
-2.316916 -2.309464 -0.337627 1515 0.740885 0.671632 0.000000
-2.316519 -2.309066 -0.336561 1515 0.740885 0.671632 0.000000
-2.316441 -2.308992 -0.335532 1521 0.740885 0.671632 0.000000
-2.316876 -2.309416 -0.334578 1513 0.740885 0.671632 0.000000
-2.317305 -2.309849 -0.333624 1511 0.740885 0.671632 0.000000
-2.317783 -2.310331 -0.332679 1517 0.740885 0.671632 0.000000
-2.317394 -2.309940 -0.331613 1513 0.740885 0.671632 0.000000
-2.316955 -2.309498 -0.330537 1513 0.740885 0.671632 0.000000
-2.316558 -2.309101 -0.329461 1511 0.740885 0.671632 0.000000
-2.316209 -2.308755 -0.328404 1501 0.740885 0.671632 0.000000
-2.316123 -2.308675 -0.327375 1505 0.740885 0.671632 0.000000
-2.316397 -2.308948 -0.326402 1507 0.740885 0.671632 0.000000
-2.316530 -2.309075 -0.325401 1507 0.740885 0.671632 0.000000
-2.316288 -2.308837 -0.324353 1511 0.740885 0.671632 0.000000
-2.316512 -2.309060 -0.323371 1523 0.740885 0.671632 0.000000
-2.316941 -2.309492 -0.322417 1519 0.740885 0.671632 0.000000
-2.316798 -2.309355 -0.321388 1509 0.740885 0.671632 0.000000
-2.316718 -2.309266 -0.320359 1509 0.740885 0.671632 0.000000
-2.316991 -2.309540 -0.319376 1513 0.740885 0.671632 0.000000
-2.316643 -2.309194 -0.318320 1511 0.740885 0.671632 0.000000
-2.316246 -2.308796 -0.317253 1513 0.740885 0.671632 0.000000
-2.316625 -2.309178 -0.316290 1515 0.740885 0.671632 0.000000
-2.316997 -2.309553 -0.315326 1515 0.740885 0.671632 0.000000
-2.317065 -2.309617 -0.314325 1521 0.740885 0.671632 0.000000
-2.317078 -2.309639 -0.313305 1515 0.740885 0.671632 0.000000
-2.316680 -2.309241 -0.312239 1515 0.740885 0.671632 0.000000
-2.316601 -2.309153 -0.311220 1513 0.740885 0.671632 0.000000
-2.316556 -2.309118 -0.310200 1515 0.740885 0.671632 0.000000
-2.316364 -2.308930 -0.309162 1517 0.740885 0.671632 0.000000
-2.316749 -2.309303 -0.308198 1519 0.740885 0.671632 0.000000
-2.317064 -2.309622 -0.307225 1523 0.740885 0.671632 0.000000
-2.316871 -2.309433 -0.306187 1523 0.740885 0.671632 0.000000
-2.316630 -2.309195 -0.305139 1527 0.740885 0.671632 0.000000
-2.316592 -2.309151 -0.304130 1519 0.740885 0.671632 0.000000
-2.316660 -2.309216 -0.303119 1517 0.740885 0.671632 0.000000
-2.316361 -2.308920 -0.302072 1513 0.740885 0.671632 0.000000
-2.316366 -2.308935 -0.301062 1511 0.740885 0.671632 0.000000
-2.316582 -2.309152 -0.300070 1511 0.740885 0.671632 0.000000
-2.317173 -2.309735 -0.299134 1515 0.740885 0.671632 0.000000
-2.316923 -2.309490 -0.298096 1517 0.740885 0.671632 0.000000
-2.318084 -2.309100 -0.370214 1529 0.740885 0.671632 0.000000
-2.318211 -2.309235 -0.369213 1515 0.740885 0.671632 0.000000
-2.318295 -2.309312 -0.368212 1513 0.740885 0.671632 0.000000
-2.317955 -2.308971 -0.367145 1511 0.740885 0.671632 0.000000
-2.317256 -2.308277 -0.366012 1505 0.740885 0.671632 0.000000
-2.317391 -2.308419 -0.365021 1509 0.740885 0.671632 0.000000
-2.317475 -2.308495 -0.364020 1507 0.740885 0.671632 0.000000
-2.317340 -2.308364 -0.362981 1507 0.740885 0.671632 0.000000
-2.317629 -2.308650 -0.362008 1509 0.740885 0.671632 0.000000
-2.317551 -2.308576 -0.360979 1511 0.740885 0.671632 0.000000
-2.317211 -2.308236 -0.359913 1515 0.740885 0.671632 0.000000
-2.317288 -2.308320 -0.358902 1515 0.740885 0.671632 0.000000
-2.317153 -2.308189 -0.357873 1513 0.740885 0.671632 0.000000
-2.317081 -2.308107 -0.356844 1511 0.740885 0.671632 0.000000
-2.317420 -2.308444 -0.355880 1509 0.740885 0.671632 0.000000
-2.317490 -2.308522 -0.354870 1509 0.740885 0.671632 0.000000
-2.317820 -2.308852 -0.353906 1505 0.740885 0.671632 0.000000
-2.317855 -2.308878 -0.352896 1511 0.740885 0.671632 0.000000
-2.318283 -2.309310 -0.351942 1511 0.740885 0.671632 0.000000
-2.318564 -2.309590 -0.350969 1511 0.740885 0.671632 0.000000
-2.318013 -2.309048 -0.349874 1509 0.740885 0.671632 0.000000
-2.317892 -2.308916 -0.348836 1513 0.740885 0.671632 0.000000
-2.317658 -2.308683 -0.347788 1519 0.740885 0.671632 0.000000
-2.317474 -2.308501 -0.346740 1519 0.740885 0.671632 0.000000
-2.317396 -2.308427 -0.345710 1515 0.740885 0.671632 0.000000
-2.317359 -2.308398 -0.344691 1509 0.740885 0.671632 0.000000
-2.317542 -2.308576 -0.343709 1507 0.740885 0.671632 0.000000
-2.317561 -2.308589 -0.342689 1511 0.740885 0.671632 0.000000
-2.317425 -2.308458 -0.341660 1505 0.740885 0.671632 0.000000
-2.317241 -2.308276 -0.340612 1503 0.740885 0.671632 0.000000
-2.317155 -2.308197 -0.339592 1503 0.740885 0.671632 0.000000
-2.317075 -2.308108 -0.338563 1509 0.740885 0.671632 0.000000
-2.317252 -2.308294 -0.337572 1505 0.740885 0.671632 0.000000
-2.317525 -2.308568 -0.336599 1513 0.740885 0.671632 0.000000
-2.317707 -2.308746 -0.335607 1521 0.740885 0.671632 0.000000
-2.317931 -2.308969 -0.334625 1515 0.740885 0.671632 0.000000
-2.317739 -2.308781 -0.333587 1511 0.740885 0.671632 0.000000
-2.317562 -2.308605 -0.332538 1513 0.740885 0.671632 0.000000
-2.317321 -2.308367 -0.331491 1513 0.740885 0.671632 0.000000
-2.317135 -2.308171 -0.330452 1521 0.740885 0.671632 0.000000
-2.317465 -2.308501 -0.329489 1519 0.740885 0.671632 0.000000
-2.317322 -2.308364 -0.328451 1515 0.740885 0.671632 0.000000
-2.316834 -2.307871 -0.327365 1515 0.740885 0.671632 0.000000
-2.317156 -2.308196 -0.326402 1509 0.740885 0.671632 0.000000
-2.317585 -2.308628 -0.325448 1509 0.740885 0.671632 0.000000
-2.317245 -2.308288 -0.324381 1515 0.740885 0.671632 0.000000
-2.317003 -2.308049 -0.323334 1515 0.740885 0.671632 0.000000
-2.317334 -2.308379 -0.322370 1517 0.740885 0.671632 0.000000
-2.317344 -2.308387 -0.321350 1513 0.740885 0.671632 0.000000
-2.317568 -2.308609 -0.320368 1519 0.740885 0.671632 0.000000
-2.317792 -2.308832 -0.319386 1519 0.740885 0.671632 0.000000
-2.317706 -2.308752 -0.318357 1517 0.740885 0.671632 0.000000
-2.317670 -2.308722 -0.317347 1523 0.740885 0.671632 0.000000
-2.317582 -2.308628 -0.316318 1513 0.740885 0.671632 0.000000
-2.317699 -2.308743 -0.315317 1515 0.740885 0.671632 0.000000
-2.317720 -2.308771 -0.314306 1525 0.740885 0.671632 0.000000
-2.317266 -2.308317 -0.313231 1519 0.740885 0.671632 0.000000
-2.317391 -2.308438 -0.312240 1517 0.740885 0.671632 0.000000
-2.317508 -2.308553 -0.311238 1521 0.740885 0.671632 0.000000
-2.317365 -2.308416 -0.310210 1513 0.740885 0.671632 0.000000
-2.317433 -2.308480 -0.309199 1513 0.740885 0.671632 0.000000
-2.317438 -2.308496 -0.308189 1515 0.740885 0.671632 0.000000
-2.317719 -2.308775 -0.307216 1519 0.740885 0.671632 0.000000
-2.317935 -2.308992 -0.306234 1523 0.740885 0.671632 0.000000
-2.317749 -2.308796 -0.305186 1525 0.740885 0.671632 0.000000
-2.317655 -2.308710 -0.304167 1523 0.740885 0.671632 0.000000
-2.317715 -2.308768 -0.303156 1517 0.740885 0.671632 0.000000
-2.317474 -2.308529 -0.302118 1511 0.740885 0.671632 0.000000
-2.317435 -2.308486 -0.301099 1515 0.740885 0.671632 0.000000
-2.317757 -2.308810 -0.300126 1519 0.740885 0.671632 0.000000
-2.317867 -2.308919 -0.299125 1513 0.740885 0.671632 0.000000
-2.317724 -2.308782 -0.298096 1517 0.740885 0.671632 0.000000
-2.317997 -2.309056 -0.297123 1527 0.740885 0.671632 0.000000
-2.318314 -2.307937 -0.370139 1509 0.740885 0.671632 0.000000
-2.318187 -2.307812 -0.369100 1505 0.740885 0.671632 0.000000
-2.318166 -2.307795 -0.368080 1509 0.740885 0.671632 0.000000
-2.318291 -2.307916 -0.367089 1507 0.740885 0.671632 0.000000
-2.318531 -2.308151 -0.366107 1511 0.740885 0.671632 0.000000
-2.318494 -2.308122 -0.365087 1519 0.740885 0.671632 0.000000
-2.318416 -2.308048 -0.364058 1519 0.740885 0.671632 0.000000
-2.318344 -2.307966 -0.363028 1515 0.740885 0.671632 0.000000
-2.318162 -2.307798 -0.361980 1519 0.740885 0.671632 0.000000
-2.318139 -2.307767 -0.360960 1521 0.740885 0.671632 0.000000
-2.318371 -2.307996 -0.359978 1517 0.740885 0.671632 0.000000
-2.318652 -2.308275 -0.359005 1515 0.740885 0.671632 0.000000
-2.318215 -2.307848 -0.357919 1521 0.740885 0.671632 0.000000
-2.317932 -2.307564 -0.356862 1515 0.740885 0.671632 0.000000
-2.318115 -2.307742 -0.355880 1511 0.740885 0.671632 0.000000
-2.318396 -2.308022 -0.354898 1509 0.740885 0.671632 0.000000
-2.318621 -2.308259 -0.353925 1517 0.740885 0.671632 0.000000
-2.318599 -2.308228 -0.352896 1519 0.740885 0.671632 0.000000
-2.318619 -2.308255 -0.351885 1513 0.740885 0.671632 0.000000
-2.318695 -2.308326 -0.350885 1507 0.740885 0.671632 0.000000
-2.318511 -2.308144 -0.349836 1513 0.740885 0.671632 0.000000
-2.318433 -2.308070 -0.348807 1517 0.740885 0.671632 0.000000
-2.318459 -2.308089 -0.347797 1521 0.740885 0.671632 0.000000
-2.318790 -2.308420 -0.346834 1521 0.740885 0.671632 0.000000
-2.318712 -2.308346 -0.345804 1519 0.740885 0.671632 0.000000
-2.318519 -2.308158 -0.344766 1511 0.740885 0.671632 0.000000
-2.318441 -2.308084 -0.343737 1515 0.740885 0.671632 0.000000
-2.318255 -2.307888 -0.342689 1509 0.740885 0.671632 0.000000
-2.318325 -2.307966 -0.341688 1513 0.740885 0.671632 0.000000
-2.318458 -2.308094 -0.340687 1519 0.740885 0.671632 0.000000
-2.318583 -2.308215 -0.339695 1517 0.740885 0.671632 0.000000
-2.318392 -2.308027 -0.338647 1515 0.740885 0.671632 0.000000
-2.317791 -2.307434 -0.337553 1507 0.740885 0.671632 0.000000
-2.317663 -2.307309 -0.336514 1511 0.740885 0.671632 0.000000
-2.318148 -2.307784 -0.335570 1519 0.740885 0.671632 0.000000
-2.318160 -2.307806 -0.334559 1507 0.740885 0.671632 0.000000
-2.317771 -2.307415 -0.333483 1505 0.740885 0.671632 0.000000
-2.317995 -2.307637 -0.332501 1507 0.740885 0.671632 0.000000
-2.318065 -2.307716 -0.331500 1511 0.740885 0.671632 0.000000
-2.318239 -2.307888 -0.330508 1515 0.740885 0.671632 0.000000
-2.318258 -2.307901 -0.329498 1515 0.740885 0.671632 0.000000
-2.317764 -2.307416 -0.328413 1511 0.740885 0.671632 0.000000
-2.317734 -2.307379 -0.327393 1513 0.740885 0.671632 0.000000
-2.318007 -2.307653 -0.326421 1513 0.740885 0.671632 0.000000
-2.318288 -2.307932 -0.325448 1509 0.740885 0.671632 0.000000
-2.318095 -2.307745 -0.324400 1509 0.740885 0.671632 0.000000
-2.317436 -2.307081 -0.323296 1507 0.740885 0.671632 0.000000
-2.317350 -2.307001 -0.322277 1519 0.740885 0.671632 0.000000
-2.318252 -2.307901 -0.321388 1523 0.740885 0.671632 0.000000
-2.318370 -2.308016 -0.320387 1523 0.740885 0.671632 0.000000
-2.318022 -2.307669 -0.319320 1517 0.740885 0.671632 0.000000
-2.318507 -2.308158 -0.318376 1525 0.740885 0.671632 0.000000
-2.318159 -2.307812 -0.317319 1519 0.740885 0.671632 0.000000
-2.317861 -2.307516 -0.316262 1507 0.740885 0.671632 0.000000
-2.318134 -2.307790 -0.315289 1517 0.740885 0.671632 0.000000
-2.318202 -2.307854 -0.314278 1523 0.740885 0.671632 0.000000
-2.318532 -2.308185 -0.313305 1521 0.740885 0.671632 0.000000
-2.318649 -2.308300 -0.312314 1519 0.740885 0.671632 0.000000
-2.318203 -2.307852 -0.311238 1521 0.740885 0.671632 0.000000
-2.317750 -2.307412 -0.310163 1509 0.740885 0.671632 0.000000
-2.317818 -2.307476 -0.309162 1513 0.740885 0.671632 0.000000
-2.318133 -2.307794 -0.308189 1515 0.740885 0.671632 0.000000
-2.318151 -2.307808 -0.307179 1511 0.740885 0.671632 0.000000
-2.318220 -2.307872 -0.306178 1523 0.740885 0.671632 0.000000
-2.318232 -2.307893 -0.305168 1531 0.740885 0.671632 0.000000
-2.317835 -2.307496 -0.304102 1521 0.740885 0.671632 0.000000
-2.317994 -2.307656 -0.303110 1513 0.740885 0.671632 0.000000
-2.318168 -2.307828 -0.302118 1517 0.740885 0.671632 0.000000
-2.318081 -2.307734 -0.301089 1515 0.740885 0.671632 0.000000
-2.318346 -2.308001 -0.300117 1519 0.740885 0.671632 0.000000
-2.318520 -2.308173 -0.299125 1525 0.740885 0.671632 0.000000
-2.318687 -2.308339 -0.298133 1523 0.740885 0.671632 0.000000
-2.318487 -2.308145 -0.297095 1525 0.740885 0.671632 0.000000
-2.319056 -2.307235 -0.371159 1507 0.740885 0.671632 0.000000
-2.318725 -2.306915 -0.370092 1505 0.740885 0.671632 0.000000
-2.318492 -2.306683 -0.369034 1507 0.740885 0.671632 0.000000
-2.318575 -2.306759 -0.368033 1509 0.740885 0.671632 0.000000
-2.319061 -2.307248 -0.367098 1517 0.740885 0.671632 0.000000
-2.319082 -2.307276 -0.366078 1513 0.740885 0.671632 0.000000
-2.318504 -2.306687 -0.364974 1513 0.740885 0.671632 0.000000
-2.318672 -2.306867 -0.363982 1513 0.740885 0.671632 0.000000
-2.319278 -2.307462 -0.363056 1515 0.740885 0.671632 0.000000
-2.319135 -2.307325 -0.362018 1521 0.740885 0.671632 0.000000
-2.319375 -2.307560 -0.361045 1513 0.740885 0.671632 0.000000
-2.319502 -2.307695 -0.360044 1513 0.740885 0.671632 0.000000
-2.319121 -2.307310 -0.358968 1517 0.740885 0.671632 0.000000
-2.319084 -2.307281 -0.357948 1519 0.740885 0.671632 0.000000
-2.318801 -2.306998 -0.356891 1517 0.740885 0.671632 0.000000
-2.318567 -2.306765 -0.355833 1509 0.740885 0.671632 0.000000
-2.318651 -2.306841 -0.354832 1513 0.740885 0.671632 0.000000
-2.318467 -2.306660 -0.353784 1509 0.740885 0.671632 0.000000
-2.318649 -2.306838 -0.352802 1507 0.740885 0.671632 0.000000
-2.319185 -2.307378 -0.351867 1509 0.740885 0.671632 0.000000
-2.319515 -2.307708 -0.350894 1513 0.740885 0.671632 0.000000
-2.319289 -2.307482 -0.349846 1517 0.740885 0.671632 0.000000
-2.319252 -2.307452 -0.348826 1517 0.740885 0.671632 0.000000
-2.319435 -2.307631 -0.347834 1519 0.740885 0.671632 0.000000
-2.319453 -2.307644 -0.346824 1519 0.740885 0.671632 0.000000
-2.319220 -2.307411 -0.345776 1513 0.740885 0.671632 0.000000
-2.318775 -2.306977 -0.344691 1509 0.740885 0.671632 0.000000
-2.318745 -2.306940 -0.343671 1505 0.740885 0.671632 0.000000
-2.318921 -2.307126 -0.342689 1503 0.740885 0.671632 0.000000
-2.318792 -2.306987 -0.341650 1511 0.740885 0.671632 0.000000
-2.318805 -2.307009 -0.340640 1525 0.740885 0.671632 0.000000
-2.318733 -2.306926 -0.339611 1521 0.740885 0.671632 0.000000
-2.318753 -2.306954 -0.338601 1511 0.740885 0.671632 0.000000
-2.318668 -2.306874 -0.337571 1515 0.740885 0.671632 0.000000
-2.318998 -2.307204 -0.336608 1519 0.740885 0.671632 0.000000
-2.318918 -2.307116 -0.335579 1513 0.740885 0.671632 0.000000
-2.318367 -2.306574 -0.334484 1515 0.740885 0.671632 0.000000
-2.318175 -2.306386 -0.333446 1511 0.740885 0.671632 0.000000
-2.318456 -2.306666 -0.332473 1515 0.740885 0.671632 0.000000
-2.318475 -2.306680 -0.331453 1511 0.740885 0.671632 0.000000
-2.318282 -2.306492 -0.330415 1507 0.740885 0.671632 0.000000
-2.318719 -2.306930 -0.329461 1509 0.740885 0.671632 0.000000
-2.318688 -2.306893 -0.328441 1505 0.740885 0.671632 0.000000
-2.318447 -2.306654 -0.327393 1513 0.740885 0.671632 0.000000
-2.318467 -2.306681 -0.326383 1509 0.740885 0.671632 0.000000
-2.318796 -2.306998 -0.325420 1511 0.740885 0.671632 0.000000
-2.319126 -2.307328 -0.324447 1507 0.740885 0.671632 0.000000
-2.318983 -2.307191 -0.323418 1519 0.740885 0.671632 0.000000
-2.318897 -2.307111 -0.322389 1521 0.740885 0.671632 0.000000
-2.318352 -2.306561 -0.321294 1511 0.740885 0.671632 0.000000
-2.318152 -2.306367 -0.320256 1507 0.740885 0.671632 0.000000
-2.318228 -2.306438 -0.319255 1511 0.740885 0.671632 0.000000
-2.318649 -2.306864 -0.318301 1515 0.740885 0.671632 0.000000
-2.319092 -2.307294 -0.317347 1507 0.740885 0.671632 0.000000
-2.318532 -2.306746 -0.316252 1503 0.740885 0.671632 0.000000
-2.318234 -2.306451 -0.315205 1511 0.740885 0.671632 0.000000
-2.318662 -2.306883 -0.314251 1515 0.740885 0.671632 0.000000
-2.318942 -2.307148 -0.313268 1519 0.740885 0.671632 0.000000
-2.318651 -2.306859 -0.312221 1511 0.740885 0.671632 0.000000
-2.318451 -2.306665 -0.311173 1507 0.740885 0.671632 0.000000
-2.318674 -2.306888 -0.310191 1517 0.740885 0.671632 0.000000
-2.318849 -2.307060 -0.309199 1517 0.740885 0.671632 0.000000
-2.319114 -2.307327 -0.308226 1517 0.740885 0.671632 0.000000
-2.319232 -2.307442 -0.307225 1519 0.740885 0.671632 0.000000
-2.318779 -2.307002 -0.306160 1515 0.740885 0.671632 0.000000
-2.318847 -2.307066 -0.305149 1525 0.740885 0.671632 0.000000
-2.318759 -2.306972 -0.304130 1521 0.740885 0.671632 0.000000
-2.318249 -2.306475 -0.303045 1513 0.740885 0.671632 0.000000
-2.318268 -2.306489 -0.302034 1519 0.740885 0.671632 0.000000
-2.318484 -2.306705 -0.301052 1523 0.740885 0.671632 0.000000
-2.318911 -2.307123 -0.300098 1517 0.740885 0.671632 0.000000
-2.318620 -2.306834 -0.299041 1519 0.740885 0.671632 0.000000
-2.318209 -2.306438 -0.297975 1509 0.740885 0.671632 0.000000
-2.319479 -2.306083 -0.371102 1515 0.740885 0.671632 0.000000
-2.318739 -2.305345 -0.369969 1505 0.740885 0.671632 0.000000
-2.318921 -2.305522 -0.368977 1505 0.740885 0.671632 0.000000
-2.319514 -2.306119 -0.368062 1515 0.740885 0.671632 0.000000
-2.319753 -2.306354 -0.367079 1525 0.740885 0.671632 0.000000
-2.319364 -2.305963 -0.366003 1517 0.740885 0.671632 0.000000
-2.319335 -2.305940 -0.364983 1513 0.740885 0.671632 0.000000
-2.319363 -2.305974 -0.363963 1513 0.740885 0.671632 0.000000
-2.319390 -2.305993 -0.362953 1505 0.740885 0.671632 0.000000
-2.319567 -2.306180 -0.361971 1513 0.740885 0.671632 0.000000
-2.319601 -2.306205 -0.360951 1515 0.740885 0.671632 0.000000
-2.319833 -2.306434 -0.359968 1519 0.740885 0.671632 0.000000
-2.319804 -2.306411 -0.358949 1525 0.740885 0.671632 0.000000
-2.319310 -2.305926 -0.357863 1515 0.740885 0.671632 0.000000
-2.319132 -2.305736 -0.356815 1511 0.740885 0.671632 0.000000
-2.319928 -2.306528 -0.355917 1515 0.740885 0.671632 0.000000
-2.320471 -2.307074 -0.354992 1519 0.740885 0.671632 0.000000
-2.319919 -2.306532 -0.353887 1519 0.740885 0.671632 0.000000
-2.319439 -2.306046 -0.352802 1511 0.740885 0.671632 0.000000
-2.319156 -2.305763 -0.351745 1503 0.740885 0.671632 0.000000
-2.319013 -2.305625 -0.350706 1507 0.740885 0.671632 0.000000
-2.319401 -2.306013 -0.349752 1509 0.740885 0.671632 0.000000
-2.319583 -2.306191 -0.348761 1509 0.740885 0.671632 0.000000
-2.319604 -2.306218 -0.347750 1515 0.740885 0.671632 0.000000
-2.319680 -2.306288 -0.346740 1521 0.740885 0.671632 0.000000
-2.319961 -2.306568 -0.345767 1513 0.740885 0.671632 0.000000
-2.319826 -2.306437 -0.344728 1501 0.740885 0.671632 0.000000
-2.319535 -2.306148 -0.343671 1505 0.740885 0.671632 0.000000
-2.319717 -2.306326 -0.342689 1513 0.740885 0.671632 0.000000
-2.319990 -2.306600 -0.341706 1517 0.740885 0.671632 0.000000
-2.319496 -2.306115 -0.340621 1521 0.740885 0.671632 0.000000
-2.319156 -2.305774 -0.339554 1511 0.740885 0.671632 0.000000
-2.319232 -2.305845 -0.338554 1503 0.740885 0.671632 0.000000
-2.319409 -2.306031 -0.337562 1515 0.740885 0.671632 0.000000
-2.319378 -2.305994 -0.336542 1515 0.740885 0.671632 0.000000
-2.319495 -2.306109 -0.335551 1505 0.740885 0.671632 0.000000
-2.319834 -2.306445 -0.334578 1511 0.740885 0.671632 0.000000
-2.320002 -2.306625 -0.333596 1513 0.740885 0.671632 0.000000
-2.319767 -2.306379 -0.332538 1511 0.740885 0.671632 0.000000
-2.319158 -2.305780 -0.331444 1507 0.740885 0.671632 0.000000
-2.319390 -2.306009 -0.330462 1513 0.740885 0.671632 0.000000
-2.319827 -2.306447 -0.329508 1525 0.740885 0.671632 0.000000
-2.319273 -2.305891 -0.328413 1519 0.740885 0.671632 0.000000
-2.318509 -2.305134 -0.327290 1507 0.740885 0.671632 0.000000
-2.318741 -2.305363 -0.326308 1509 0.740885 0.671632 0.000000
-2.319488 -2.306104 -0.325401 1507 0.740885 0.671632 0.000000
-2.319810 -2.306429 -0.324428 1507 0.740885 0.671632 0.000000
-2.319674 -2.306298 -0.323399 1515 0.740885 0.671632 0.000000
-2.319581 -2.306211 -0.322370 1513 0.740885 0.671632 0.000000
-2.319345 -2.305965 -0.321322 1515 0.740885 0.671632 0.000000
-2.319048 -2.305683 -0.320275 1515 0.740885 0.671632 0.000000
-2.319434 -2.306056 -0.319311 1509 0.740885 0.671632 0.000000
-2.319756 -2.306381 -0.318338 1505 0.740885 0.671632 0.000000
-2.319720 -2.306352 -0.317318 1501 0.740885 0.671632 0.000000
-2.319265 -2.305897 -0.316243 1507 0.740885 0.671632 0.000000
-2.319130 -2.305766 -0.315214 1513 0.740885 0.671632 0.000000
-2.319508 -2.306134 -0.314250 1515 0.740885 0.671632 0.000000
-2.319625 -2.306249 -0.313259 1517 0.740885 0.671632 0.000000
-2.319638 -2.306270 -0.312239 1517 0.740885 0.671632 0.000000
-2.319607 -2.306233 -0.311229 1517 0.740885 0.671632 0.000000
-2.319880 -2.306506 -0.310247 1517 0.740885 0.671632 0.000000
-2.320104 -2.306729 -0.309265 1519 0.740885 0.671632 0.000000
-2.320011 -2.306643 -0.308235 1523 0.740885 0.671632 0.000000
-2.319866 -2.306492 -0.307207 1521 0.740885 0.671632 0.000000
-2.319928 -2.306564 -0.306206 1519 0.740885 0.671632 0.000000
-2.319840 -2.306470 -0.305177 1521 0.740885 0.671632 0.000000
-2.319500 -2.306129 -0.304120 1519 0.740885 0.671632 0.000000
-2.319406 -2.306043 -0.303091 1511 0.740885 0.671632 0.000000
-2.319319 -2.305949 -0.302072 1517 0.740885 0.671632 0.000000
-2.319225 -2.305862 -0.301043 1519 0.740885 0.671632 0.000000
-2.319441 -2.306079 -0.300061 1519 0.740885 0.671632 0.000000
-2.319353 -2.305985 -0.299042 1521 0.740885 0.671632 0.000000
-2.319675 -2.306309 -0.298068 1521 0.740885 0.671632 0.000000
-2.320104 -2.306741 -0.297104 1521 0.740885 0.671632 0.000000
-2.320881 -2.305968 -0.372226 1521 0.740885 0.671632 0.000000
-2.320802 -2.305894 -0.371197 1513 0.740885 0.671632 0.000000
-2.320823 -2.305921 -0.370176 1513 0.740885 0.671632 0.000000
-2.320808 -2.305896 -0.369156 1517 0.740885 0.671632 0.000000
-2.320681 -2.305771 -0.368118 1519 0.740885 0.671632 0.000000
-2.320505 -2.305596 -0.367079 1517 0.740885 0.671632 0.000000
-2.320320 -2.305414 -0.366031 1515 0.740885 0.671632 0.000000
-2.319933 -2.305037 -0.364955 1505 0.740885 0.671632 0.000000
-2.319340 -2.304451 -0.363850 1497 0.740885 0.671632 0.000000
-2.319678 -2.304787 -0.362887 1495 0.740885 0.671632 0.000000
-2.320318 -2.305421 -0.361971 1509 0.740885 0.671632 0.000000
-2.320240 -2.305346 -0.360942 1511 0.740885 0.671632 0.000000
-2.320472 -2.305576 -0.359959 1515 0.740885 0.671632 0.000000
-2.320972 -2.306063 -0.359015 1525 0.740885 0.671632 0.000000
-2.320787 -2.305881 -0.357966 1519 0.740885 0.671632 0.000000
-2.320343 -2.305447 -0.356891 1505 0.740885 0.671632 0.000000
-2.320624 -2.305727 -0.355918 1503 0.740885 0.671632 0.000000
-2.320708 -2.305803 -0.354907 1509 0.740885 0.671632 0.000000
-2.320827 -2.305932 -0.353916 1511 0.740885 0.671632 0.000000
-2.321220 -2.306312 -0.352952 1511 0.740885 0.671632 0.000000
-2.321085 -2.306180 -0.351923 1509 0.740885 0.671632 0.000000
-2.320443 -2.305543 -0.350810 1507 0.740885 0.671632 0.000000
-2.320048 -2.305161 -0.349733 1505 0.740885 0.671632 0.000000
-2.320222 -2.305332 -0.348742 1505 0.740885 0.671632 0.000000
-2.320821 -2.305921 -0.347816 1517 0.740885 0.671632 0.000000
-2.320891 -2.306000 -0.346815 1517 0.740885 0.671632 0.000000
-2.320600 -2.305710 -0.345748 1513 0.740885 0.671632 0.000000
-2.320733 -2.305837 -0.344757 1509 0.740885 0.671632 0.000000
-2.320647 -2.305757 -0.343727 1509 0.740885 0.671632 0.000000
-2.320575 -2.305675 -0.342698 1511 0.740885 0.671632 0.000000
-2.320229 -2.305343 -0.341631 1515 0.740885 0.671632 0.000000
-2.319832 -2.304945 -0.340565 1513 0.740885 0.671632 0.000000
-2.320064 -2.305174 -0.339583 1509 0.740885 0.671632 0.000000
-2.320295 -2.305403 -0.338601 1507 0.740885 0.671632 0.000000
-2.320363 -2.305468 -0.337590 1513 0.740885 0.671632 0.000000
-2.320433 -2.305546 -0.336589 1509 0.740885 0.671632 0.000000
-2.320150 -2.305262 -0.335532 1501 0.740885 0.671632 0.000000
-2.320065 -2.305182 -0.334503 1497 0.740885 0.671632 0.000000
-2.320450 -2.305556 -0.333549 1505 0.740885 0.671632 0.000000
-2.320307 -2.305418 -0.332510 1513 0.740885 0.671632 0.000000
-2.320065 -2.305180 -0.331463 1503 0.740885 0.671632 0.000000
-2.320037 -2.305156 -0.330443 1509 0.740885 0.671632 0.000000
-2.320056 -2.305170 -0.329433 1519 0.740885 0.671632 0.000000
-2.319962 -2.305084 -0.328404 1511 0.740885 0.671632 0.000000
-2.319988 -2.305103 -0.327393 1503 0.740885 0.671632 0.000000
-2.320114 -2.305225 -0.326402 1507 0.740885 0.671632 0.000000
-2.320486 -2.305600 -0.325438 1505 0.740885 0.671632 0.000000
-2.320816 -2.305930 -0.324465 1507 0.740885 0.671632 0.000000
-2.320623 -2.305742 -0.323427 1509 0.740885 0.671632 0.000000
-2.320382 -2.305503 -0.322379 1507 0.740885 0.671632 0.000000
-2.320253 -2.305365 -0.321351 1513 0.740885 0.671632 0.000000
-2.320209 -2.305329 -0.320331 1513 0.740885 0.671632 0.000000
-2.320489 -2.305609 -0.319348 1513 0.740885 0.671632 0.000000
-2.320812 -2.305933 -0.318385 1509 0.740885 0.671632 0.000000
-2.320472 -2.305593 -0.317318 1499 0.740885 0.671632 0.000000
-2.320017 -2.305139 -0.316243 1505 0.740885 0.671632 0.000000
-2.319882 -2.305008 -0.315214 1507 0.740885 0.671632 0.000000
-2.320056 -2.305180 -0.314222 1509 0.740885 0.671632 0.000000
-2.320533 -2.305649 -0.313278 1513 0.740885 0.671632 0.000000
-2.320756 -2.305871 -0.312296 1509 0.740885 0.671632 0.000000
-2.320980 -2.306094 -0.311303 1515 0.740885 0.671632 0.000000
-2.321042 -2.306166 -0.310303 1523 0.740885 0.671632 0.000000
-2.321012 -2.306129 -0.309283 1519 0.740885 0.671632 0.000000
-2.320861 -2.305986 -0.308254 1525 0.740885 0.671632 0.000000
-2.320831 -2.305948 -0.307235 1525 0.740885 0.671632 0.000000
-2.321054 -2.306171 -0.306253 1523 0.740885 0.671632 0.000000
-2.321172 -2.306286 -0.305251 1519 0.740885 0.671632 0.000000
-2.320816 -2.305934 -0.304195 1523 0.740885 0.671632 0.000000
-2.320623 -2.305746 -0.303157 1515 0.740885 0.671632 0.000000
-2.320740 -2.305861 -0.302155 1515 0.740885 0.671632 0.000000
-2.320491 -2.305616 -0.301108 1521 0.740885 0.671632 0.000000
-2.320250 -2.305377 -0.300070 1517 0.740885 0.671632 0.000000
-2.320359 -2.305486 -0.299069 1517 0.740885 0.671632 0.000000
-2.321105 -2.306227 -0.298152 1523 0.740885 0.671632 0.000000
-2.321574 -2.306690 -0.297197 1531 0.740885 0.671632 0.000000
-2.321749 -2.305401 -0.372244 1525 0.740885 0.671632 0.000000
-2.321735 -2.305376 -0.371225 1519 0.740885 0.671632 0.000000
-2.321142 -2.304790 -0.370120 1519 0.740885 0.671632 0.000000
-2.321007 -2.304659 -0.369081 1517 0.740885 0.671632 0.000000
-2.320986 -2.304642 -0.368062 1511 0.740885 0.671632 0.000000
-2.320908 -2.304568 -0.367032 1515 0.740885 0.671632 0.000000
-2.321041 -2.304695 -0.366031 1513 0.740885 0.671632 0.000000
-2.321062 -2.304722 -0.365021 1505 0.740885 0.671632 0.000000
-2.320779 -2.304439 -0.363964 1503 0.740885 0.671632 0.000000
-2.320701 -2.304365 -0.362934 1513 0.740885 0.671632 0.000000
-2.320834 -2.304492 -0.361933 1515 0.740885 0.671632 0.000000
-2.320756 -2.304418 -0.360904 1517 0.740885 0.671632 0.000000
-2.320523 -2.304186 -0.359856 1515 0.740885 0.671632 0.000000
-2.320656 -2.304313 -0.358855 1511 0.740885 0.671632 0.000000
-2.320986 -2.304643 -0.357891 1513 0.740885 0.671632 0.000000
-2.320549 -2.304215 -0.356806 1507 0.740885 0.671632 0.000000
-2.320568 -2.304229 -0.355795 1501 0.740885 0.671632 0.000000
-2.321013 -2.304673 -0.354851 1509 0.740885 0.671632 0.000000
-2.321138 -2.304794 -0.353850 1511 0.740885 0.671632 0.000000
-2.321216 -2.304879 -0.352849 1509 0.740885 0.671632 0.000000
-2.320933 -2.304596 -0.351792 1503 0.740885 0.671632 0.000000
-2.320642 -2.304306 -0.350725 1509 0.740885 0.671632 0.000000
-2.320923 -2.304586 -0.349752 1507 0.740885 0.671632 0.000000
-2.321563 -2.305219 -0.348836 1511 0.740885 0.671632 0.000000
-2.321739 -2.305405 -0.347844 1519 0.740885 0.671632 0.000000
-2.321350 -2.305014 -0.346768 1521 0.740885 0.671632 0.000000
-2.321116 -2.304782 -0.345720 1513 0.740885 0.671632 0.000000
-2.320989 -2.304657 -0.344691 1505 0.740885 0.671632 0.000000
-2.321114 -2.304778 -0.343690 1515 0.740885 0.671632 0.000000
-2.321028 -2.304698 -0.342661 1515 0.740885 0.671632 0.000000
-2.320786 -2.304459 -0.341613 1517 0.740885 0.671632 0.000000
-2.321125 -2.304796 -0.340650 1521 0.740885 0.671632 0.000000
-2.321447 -2.305120 -0.339676 1521 0.740885 0.671632 0.000000
-2.321115 -2.304786 -0.338610 1523 0.740885 0.671632 0.000000
-2.320619 -2.304287 -0.337524 1511 0.740885 0.671632 0.000000
-2.320730 -2.304410 -0.336533 1509 0.740885 0.671632 0.000000
-2.320913 -2.304588 -0.335541 1509 0.740885 0.671632 0.000000
-2.320940 -2.304608 -0.334531 1511 0.740885 0.671632 0.000000
-2.321009 -2.304686 -0.333521 1513 0.740885 0.671632 0.000000
-2.320930 -2.304598 -0.332501 1509 0.740885 0.671632 0.000000
-2.320786 -2.304461 -0.331463 1507 0.740885 0.671632 0.000000
-2.320651 -2.304330 -0.330434 1511 0.740885 0.671632 0.000000
-2.320925 -2.304603 -0.329451 1517 0.740885 0.671632 0.000000
-2.320796 -2.304464 -0.328423 1507 0.740885 0.671632 0.000000
-2.320286 -2.303967 -0.327337 1503 0.740885 0.671632 0.000000
-2.320517 -2.304196 -0.326355 1511 0.740885 0.671632 0.000000
-2.320848 -2.304527 -0.325392 1513 0.740885 0.671632 0.000000
-2.320809 -2.304484 -0.324372 1511 0.740885 0.671632 0.000000
-2.320936 -2.304618 -0.323371 1511 0.740885 0.671632 0.000000
-2.321103 -2.304784 -0.322379 1513 0.740885 0.671632 0.000000
-2.321228 -2.304906 -0.321388 1519 0.740885 0.671632 0.000000
-2.321036 -2.304718 -0.320340 1523 0.740885 0.671632 0.000000
-2.320794 -2.304479 -0.319292 1525 0.740885 0.671632 0.000000
-2.320503 -2.304189 -0.318245 1517 0.740885 0.671632 0.000000
-2.320514 -2.304197 -0.317235 1513 0.740885 0.671632 0.000000
-2.320478 -2.304168 -0.316215 1507 0.740885 0.671632 0.000000
-2.321060 -2.304744 -0.315280 1509 0.740885 0.671632 0.000000
-2.321284 -2.304967 -0.314297 1511 0.740885 0.671632 0.000000
-2.321043 -2.304728 -0.313250 1507 0.740885 0.671632 0.000000
-2.321160 -2.304843 -0.312249 1509 0.740885 0.671632 0.000000
-2.321285 -2.304964 -0.311257 1515 0.740885 0.671632 0.000000
-2.321403 -2.305079 -0.310256 1521 0.740885 0.671632 0.000000
-2.321520 -2.305195 -0.309255 1515 0.740885 0.671632 0.000000
-2.321532 -2.305216 -0.308245 1519 0.740885 0.671632 0.000000
-2.321339 -2.305014 -0.307207 1525 0.740885 0.671632 0.000000
-2.321196 -2.304877 -0.306178 1523 0.740885 0.671632 0.000000
-2.321723 -2.305410 -0.305233 1521 0.740885 0.671632 0.000000
-2.321840 -2.305526 -0.304232 1521 0.740885 0.671632 0.000000
-2.321394 -2.305078 -0.303156 1515 0.740885 0.671632 0.000000
-2.321144 -2.304833 -0.302118 1513 0.740885 0.671632 0.000000
-2.321409 -2.305100 -0.301136 1517 0.740885 0.671632 0.000000
-2.321322 -2.305006 -0.300117 1521 0.740885 0.671632 0.000000
-2.321179 -2.304869 -0.299078 1521 0.740885 0.671632 0.000000
-2.321663 -2.305344 -0.298133 1519 0.740885 0.671632 0.000000
-2.321829 -2.305510 -0.297142 1523 0.740885 0.671632 0.000000
-2.321624 -2.303863 -0.372112 1509 0.740885 0.671632 0.000000
-2.321708 -2.303939 -0.371112 1515 0.740885 0.671632 0.000000
-2.321427 -2.303670 -0.370054 1515 0.740885 0.671632 0.000000
-2.321243 -2.303488 -0.369006 1513 0.740885 0.671632 0.000000
-2.321581 -2.303824 -0.368043 1511 0.740885 0.671632 0.000000
-2.321665 -2.303901 -0.367042 1513 0.740885 0.671632 0.000000
-2.321742 -2.303986 -0.366031 1517 0.740885 0.671632 0.000000
-2.321615 -2.303861 -0.364992 1515 0.740885 0.671632 0.000000
-2.321234 -2.303476 -0.363916 1513 0.740885 0.671632 0.000000
-2.321000 -2.303243 -0.362868 1511 0.740885 0.671632 0.000000
-2.320873 -2.303118 -0.361829 1511 0.740885 0.671632 0.000000
-2.321260 -2.303505 -0.360876 1505 0.740885 0.671632 0.000000
-2.321590 -2.303836 -0.359912 1509 0.740885 0.671632 0.000000
-2.321822 -2.304065 -0.358930 1505 0.740885 0.671632 0.000000
-2.321849 -2.304085 -0.357920 1505 0.740885 0.671632 0.000000
-2.321664 -2.303903 -0.356872 1507 0.740885 0.671632 0.000000
-2.321945 -2.304183 -0.355899 1513 0.740885 0.671632 0.000000
-2.322489 -2.304728 -0.354964 1519 0.740885 0.671632 0.000000
-2.322622 -2.304856 -0.353972 1513 0.740885 0.671632 0.000000
-2.322331 -2.304566 -0.352905 1507 0.740885 0.671632 0.000000
-2.322042 -2.304291 -0.351848 1513 0.740885 0.671632 0.000000
-2.321759 -2.304007 -0.350791 1513 0.740885 0.671632 0.000000
-2.321476 -2.303724 -0.349733 1511 0.740885 0.671632 0.000000
-2.321242 -2.303492 -0.348686 1501 0.740885 0.671632 0.000000
-2.321778 -2.304031 -0.347750 1503 0.740885 0.671632 0.000000
-2.322171 -2.304410 -0.346787 1515 0.740885 0.671632 0.000000
-2.321823 -2.304064 -0.345720 1519 0.740885 0.671632 0.000000
-2.321378 -2.303630 -0.344644 1515 0.740885 0.671632 0.000000
-2.321454 -2.303700 -0.343633 1517 0.740885 0.671632 0.000000
-2.321842 -2.304088 -0.342680 1517 0.740885 0.671632 0.000000
-2.321967 -2.304209 -0.341678 1521 0.740885 0.671632 0.000000
