761
-11.140162 -10.519344 -0.564953 793 0.720549 0.693404 0.000000
-11.141037 -10.520167 -0.560285 819 0.720549 0.693404 0.000000
-11.140142 -10.519329 -0.555533 821 0.720549 0.693404 0.000000
-11.138877 -10.518125 -0.550765 803 0.720549 0.693404 0.000000
-11.138894 -10.518147 -0.546055 785 0.720549 0.693404 0.000000
-11.139172 -10.518405 -0.541352 797 0.720549 0.693404 0.000000
-11.139977 -10.519172 -0.536684 811 0.720549 0.693404 0.000000
-11.139993 -10.519179 -0.531974 803 0.720549 0.693404 0.000000
-11.139256 -10.518481 -0.527221 787 0.720549 0.693404 0.000000
-11.138614 -10.517889 -0.522487 789 0.720549 0.693404 0.000000
-11.139637 -10.518847 -0.517827 805 0.720549 0.693404 0.000000
-11.140819 -10.519958 -0.513166 805 0.720549 0.693404 0.000000
-11.141726 -10.520820 -0.508497 819 0.720549 0.693404 0.000000
-11.141672 -10.520771 -0.503778 829 0.720549 0.693404 0.000000
-11.141461 -10.520568 -0.499059 833 0.720549 0.693404 0.000000
-11.140772 -10.519922 -0.494326 813 0.720549 0.693404 0.000000
-11.140348 -10.519520 -0.489590 827 0.720549 0.693404 0.000000
-11.140878 -10.520024 -0.484905 849 0.720549 0.693404 0.000000
-11.139975 -10.519165 -0.480163 813 0.720549 0.693404 0.000000
-11.140023 -10.519213 -0.475452 807 0.720549 0.693404 0.000000
-11.139640 -10.518855 -0.470726 811 0.720549 0.693404 0.000000
-11.138957 -10.518202 -0.465992 793 0.720549 0.693404 0.000000
-11.139376 -10.518603 -0.461298 801 0.720549 0.693404 0.000000
-11.139629 -10.518843 -0.456596 791 0.720549 0.693404 0.000000
-11.139028 -10.518282 -0.451861 793 0.720549 0.693404 0.000000
-11.138917 -10.518174 -0.447152 803 0.720549 0.693404 0.000000
-11.140027 -10.519215 -0.442482 797 0.720549 0.693404 0.000000
-11.140329 -10.519506 -0.437789 823 0.720549 0.693404 0.000000
-11.139528 -10.518744 -0.433046 809 0.720549 0.693404 0.000000
-11.139192 -10.518425 -0.428329 755 0.720549 0.693404 0.000000
-11.139604 -10.518819 -0.423635 765 0.720549 0.693404 0.000000
-11.140116 -10.519310 -0.418950 795 0.720549 0.693404 0.000000
-11.140102 -10.519293 -0.414240 805 0.720549 0.693404 0.000000
-11.139066 -10.518313 -0.409490 761 0.720549 0.693404 0.000000
-11.138785 -10.518053 -0.404773 785 0.720549 0.693404 0.000000
-11.139621 -10.518844 -0.400095 795 0.720549 0.693404 0.000000
-11.140031 -10.519224 -0.395401 775 0.720549 0.693404 0.000000
-11.139891 -10.519092 -0.390692 799 0.720549 0.693404 0.000000
-11.140459 -10.519628 -0.385996 785 0.720549 0.693404 0.000000
-11.141019 -10.520155 -0.381311 771 0.720549 0.693404 0.000000
-11.140621 -10.519786 -0.376584 785 0.720549 0.693404 0.000000
-11.139112 -10.518357 -0.371829 781 0.720549 0.693404 0.000000
-11.138390 -10.517672 -0.367095 775 0.720549 0.693404 0.000000
-11.140216 -10.519400 -0.362448 787 0.720549 0.693404 0.000000
-11.140133 -10.519326 -0.357739 761 0.720549 0.693404 0.000000
-11.139630 -10.518847 -0.353013 763 0.720549 0.693404 0.000000
-11.140183 -10.519368 -0.348328 777 0.720549 0.693404 0.000000
-11.140153 -10.519338 -0.343618 757 0.720549 0.693404 0.000000
-11.140650 -10.519816 -0.338923 771 0.720549 0.693404 0.000000
-11.140983 -10.520133 -0.334230 783 0.720549 0.693404 0.000000
-11.140686 -10.519846 -0.329513 789 0.720549 0.693404 0.000000
-11.140278 -10.519457 -0.324797 783 0.720549 0.693404 0.000000
-11.140720 -10.519876 -0.320092 769 0.720549 0.693404 0.000000
-11.140889 -10.520045 -0.315390 765 0.720549 0.693404 0.000000
-11.140432 -10.519604 -0.310675 771 0.720549 0.693404 0.000000
-11.139963 -10.519163 -0.305959 783 0.720549 0.693404 0.000000
-11.139548 -10.518767 -0.301233 769 0.720549 0.693404 0.000000
-11.143176 -10.515435 -0.687472 799 0.720549 0.693404 0.000000
-11.142896 -10.515174 -0.682744 791 0.720549 0.693404 0.000000
-11.143415 -10.515656 -0.678059 795 0.720549 0.693404 0.000000
-11.143566 -10.515800 -0.673358 805 0.720549 0.693404 0.000000
-11.142861 -10.515142 -0.668594 795 0.720549 0.693404 0.000000
-11.143169 -10.515427 -0.663901 797 0.720549 0.693404 0.000000
-11.144217 -10.516417 -0.659251 791 0.720549 0.693404 0.000000
-11.144251 -10.516451 -0.654541 813 0.720549 0.693404 0.000000
-11.142797 -10.515080 -0.649745 807 0.720549 0.693404 0.000000
-11.142995 -10.515261 -0.645043 781 0.720549 0.693404 0.000000
-11.143399 -10.515649 -0.640349 799 0.720549 0.693404 0.000000
-11.142212 -10.514521 -0.635570 769 0.720549 0.693404 0.000000
-11.142718 -10.515005 -0.630885 787 0.720549 0.693404 0.000000
-11.143554 -10.515798 -0.626217 789 0.720549 0.693404 0.000000
-11.143422 -10.515671 -0.621498 777 0.720549 0.693404 0.000000
-11.143070 -10.515340 -0.616771 793 0.720549 0.693404 0.000000
-11.142999 -10.515264 -0.612052 799 0.720549 0.693404 0.000000
-11.142546 -10.514836 -0.607316 785 0.720549 0.693404 0.000000
-11.142673 -10.514960 -0.602605 775 0.720549 0.693404 0.000000
-11.143125 -10.515387 -0.597920 799 0.720549 0.693404 0.000000
-11.143362 -10.515613 -0.593218 825 0.720549 0.693404 0.000000
-11.142900 -10.515179 -0.588482 785 0.720549 0.693404 0.000000
-11.142610 -10.514898 -0.583755 771 0.720549 0.693404 0.000000
-11.143217 -10.515478 -0.579079 799 0.720549 0.693404 0.000000
-11.143345 -10.515590 -0.574368 811 0.720549 0.693404 0.000000
-11.142828 -10.515110 -0.569632 815 0.720549 0.693404 0.000000
-11.142790 -10.515075 -0.564923 805 0.720549 0.693404 0.000000
-11.143123 -10.515391 -0.560229 805 0.720549 0.693404 0.000000
-11.143517 -10.515759 -0.555535 805 0.720549 0.693404 0.000000
-11.143684 -10.515915 -0.550834 825 0.720549 0.693404 0.000000
-11.143695 -10.515930 -0.546124 813 0.720549 0.693404 0.000000
-11.143555 -10.515798 -0.541405 819 0.720549 0.693404 0.000000
-11.143673 -10.515902 -0.536694 793 0.720549 0.693404 0.000000
-11.143950 -10.516161 -0.532001 797 0.720549 0.693404 0.000000
-11.143315 -10.515559 -0.527257 801 0.720549 0.693404 0.000000
-11.143428 -10.515672 -0.522555 795 0.720549 0.693404 0.000000
-11.143540 -10.515783 -0.517854 783 0.720549 0.693404 0.000000
-11.144082 -10.516284 -0.513159 797 0.720549 0.693404 0.000000
-11.143817 -10.516037 -0.508442 813 0.720549 0.693404 0.000000
-11.143025 -10.515295 -0.503699 801 0.720549 0.693404 0.000000
-11.143563 -10.515804 -0.499014 797 0.720549 0.693404 0.000000
-11.143674 -10.515902 -0.494303 809 0.720549 0.693404 0.000000
-11.144037 -10.516244 -0.489609 805 0.720549 0.693404 0.000000
-11.144519 -10.516696 -0.484924 807 0.720549 0.693404 0.000000
-11.143349 -10.515594 -0.480165 791 0.720549 0.693404 0.000000
-11.142281 -10.514589 -0.475405 773 0.720549 0.693404 0.000000
-11.143015 -10.515285 -0.470728 821 0.720549 0.693404 0.000000
-11.142906 -10.515178 -0.466009 799 0.720549 0.693404 0.000000
-11.142688 -10.514968 -0.461301 799 0.720549 0.693404 0.000000
-11.143265 -10.515523 -0.456605 793 0.720549 0.693404 0.000000
-11.143477 -10.515717 -0.451913 797 0.720549 0.693404 0.000000
-11.142977 -10.515251 -0.447178 801 0.720549 0.693404 0.000000
-11.143670 -10.515901 -0.442501 803 0.720549 0.693404 0.000000
-11.144135 -10.516339 -0.437807 791 0.720549 0.693404 0.000000
-11.143328 -10.515571 -0.433064 791 0.720549 0.693404 0.000000
-11.143580 -10.515811 -0.428372 777 0.720549 0.693404 0.000000
-11.143724 -10.515948 -0.423660 767 0.720549 0.693404 0.000000
-11.143766 -10.515989 -0.418960 803 0.720549 0.693404 0.000000
-11.143744 -10.515965 -0.414250 813 0.720549 0.693404 0.000000
-11.143353 -10.515602 -0.409524 789 0.720549 0.693404 0.000000
-11.142529 -10.514821 -0.404791 769 0.720549 0.693404 0.000000
-11.142720 -10.515010 -0.400089 785 0.720549 0.693404 0.000000
-11.143288 -10.515545 -0.395394 775 0.720549 0.693404 0.000000
-11.143266 -10.515521 -0.390694 777 0.720549 0.693404 0.000000
-11.143031 -10.515299 -0.385976 775 0.720549 0.693404 0.000000
-11.142947 -10.515224 -0.381267 795 0.720549 0.693404 0.000000
-11.143413 -10.515663 -0.376572 799 0.720549 0.693404 0.000000
-11.143226 -10.515478 -0.371854 771 0.720549 0.693404 0.000000
-11.143251 -10.515507 -0.367153 785 0.720549 0.693404 0.000000
-11.143756 -10.515977 -0.362459 791 0.720549 0.693404 0.000000
-11.143993 -10.516203 -0.357756 761 0.720549 0.693404 0.000000
-11.143964 -10.516173 -0.353046 757 0.720549 0.693404 0.000000
-11.142715 -10.514995 -0.348298 755 0.720549 0.693404 0.000000
-11.142623 -10.514915 -0.343589 757 0.720549 0.693404 0.000000
-11.143600 -10.515834 -0.338920 777 0.720549 0.693404 0.000000
-11.144420 -10.516613 -0.334232 769 0.720549 0.693404 0.000000
-11.144170 -10.516377 -0.329514 773 0.720549 0.693404 0.000000
-11.143708 -10.515944 -0.324798 769 0.720549 0.693404 0.000000
-11.143615 -10.515849 -0.320089 779 0.720549 0.693404 0.000000
-11.142665 -10.514954 -0.315358 761 0.720549 0.693404 0.000000
-11.143375 -10.515630 -0.310661 761 0.720549 0.693404 0.000000
-11.143550 -10.515792 -0.305959 749 0.720549 0.693404 0.000000
-11.142703 -10.514992 -0.301237 757 0.720549 0.693404 0.000000
-11.147092 -10.512563 -0.687518 815 0.720549 0.693404 0.000000
-11.146173 -10.511692 -0.682746 795 0.720549 0.693404 0.000000
-11.144995 -10.510584 -0.677957 783 0.720549 0.693404 0.000000
-11.146098 -10.511633 -0.673317 787 0.720549 0.693404 0.000000
-11.146941 -10.512417 -0.668649 781 0.720549 0.693404 0.000000
-11.146330 -10.511848 -0.663894 797 0.720549 0.693404 0.000000
-11.145741 -10.511286 -0.659150 767 0.720549 0.693404 0.000000
-11.146152 -10.511680 -0.654456 781 0.720549 0.693404 0.000000
-11.146452 -10.511956 -0.649763 805 0.720549 0.693404 0.000000
-11.146809 -10.512293 -0.645070 803 0.720549 0.693404 0.000000
-11.146574 -10.512071 -0.640342 791 0.720549 0.693404 0.000000
-11.145695 -10.511245 -0.635580 767 0.720549 0.693404 0.000000
-11.145469 -10.511028 -0.630862 779 0.720549 0.693404 0.000000
-11.146076 -10.511608 -0.626176 785 0.720549 0.693404 0.000000
-11.146322 -10.511843 -0.621484 779 0.720549 0.693404 0.000000
-11.146465 -10.511966 -0.616772 781 0.720549 0.693404 0.000000
-11.146066 -10.511597 -0.612046 791 0.720549 0.693404 0.000000
-11.144864 -10.510455 -0.607267 773 0.720549 0.693404 0.000000
-11.145260 -10.510838 -0.602573 781 0.720549 0.693404 0.000000
-11.146402 -10.511918 -0.597922 787 0.720549 0.693404 0.000000
-11.146852 -10.512343 -0.593238 789 0.720549 0.693404 0.000000
-11.146987 -10.512460 -0.588527 799 0.720549 0.693404 0.000000
-11.146996 -10.512475 -0.583816 791 0.720549 0.693404 0.000000
-11.146865 -10.512349 -0.579097 797 0.720549 0.693404 0.000000
-11.146835 -10.512320 -0.574388 803 0.720549 0.693404 0.000000
-11.147065 -10.512540 -0.569685 815 0.720549 0.693404 0.000000
-11.147193 -10.512650 -0.564984 809 0.720549 0.693404 0.000000
-11.146880 -10.512364 -0.560257 803 0.720549 0.693404 0.000000
-11.146410 -10.511925 -0.555521 805 0.720549 0.693404 0.000000
-11.145367 -10.510939 -0.550761 803 0.720549 0.693404 0.000000
-11.146075 -10.511600 -0.546084 805 0.720549 0.693404 0.000000
-11.147312 -10.512771 -0.541432 793 0.720549 0.693404 0.000000
-11.146574 -10.512074 -0.536679 785 0.720549 0.693404 0.000000
-11.146372 -10.511890 -0.531961 791 0.720549 0.693404 0.000000
-11.146861 -10.512348 -0.527276 791 0.720549 0.693404 0.000000
-11.146761 -10.512247 -0.522557 815 0.720549 0.693404 0.000000
-11.146558 -10.512064 -0.517839 813 0.720549 0.693404 0.000000
-11.146827 -10.512316 -0.513146 789 0.720549 0.693404 0.000000
-11.146946 -10.512420 -0.508435 809 0.720549 0.693404 0.000000
-11.146893 -10.512371 -0.503725 799 0.720549 0.693404 0.000000
-11.146408 -10.511918 -0.498990 785 0.720549 0.693404 0.000000
-11.146244 -10.511766 -0.494271 793 0.720549 0.693404 0.000000
-11.146624 -10.512121 -0.489578 799 0.720549 0.693404 0.000000
-11.147105 -10.512572 -0.484893 809 0.720549 0.693404 0.000000
-11.147202 -10.512672 -0.480192 787 0.720549 0.693404 0.000000
-11.147149 -10.512623 -0.475472 797 0.720549 0.693404 0.000000
-11.147362 -10.512816 -0.470770 803 0.720549 0.693404 0.000000
-11.147089 -10.512563 -0.466053 801 0.720549 0.693404 0.000000
-11.146288 -10.511801 -0.461310 803 0.720549 0.693404 0.000000
-11.146228 -10.511745 -0.456601 789 0.720549 0.693404 0.000000
-11.146639 -10.512139 -0.451907 787 0.720549 0.693404 0.000000
-11.146318 -10.511833 -0.447190 787 0.720549 0.693404 0.000000
-11.147318 -10.512772 -0.442510 797 0.720549 0.693404 0.000000
-11.147571 -10.513012 -0.437817 795 0.720549 0.693404 0.000000
-11.147234 -10.512692 -0.433091 781 0.720549 0.693404 0.000000
-11.146270 -10.511784 -0.428349 767 0.720549 0.693404 0.000000
-11.146090 -10.511619 -0.423631 779 0.720549 0.693404 0.000000
-11.147516 -10.512956 -0.418977 783 0.720549 0.693404 0.000000
-11.147760 -10.513189 -0.414275 783 0.720549 0.693404 0.000000
-11.147110 -10.512575 -0.409541 789 0.720549 0.693404 0.000000
-11.147568 -10.513007 -0.404857 791 0.720549 0.693404 0.000000
-11.148184 -10.513594 -0.400161 793 0.720549 0.693404 0.000000
-11.147375 -10.512825 -0.395428 789 0.720549 0.693404 0.000000
-11.146441 -10.511956 -0.390687 763 0.720549 0.693404 0.000000
-11.146789 -10.512271 -0.385994 775 0.720549 0.693404 0.000000
-11.147563 -10.513013 -0.381306 777 0.720549 0.693404 0.000000
-11.147492 -10.512938 -0.376597 757 0.720549 0.693404 0.000000
-11.147299 -10.512760 -0.371888 759 0.720549 0.693404 0.000000
-11.147427 -10.512884 -0.367177 775 0.720549 0.693404 0.000000
-11.147986 -10.513412 -0.362492 789 0.720549 0.693404 0.000000
-11.147696 -10.513132 -0.357774 773 0.720549 0.693404 0.000000
-11.146975 -10.512447 -0.353041 781 0.720549 0.693404 0.000000
-11.146630 -10.512122 -0.348324 779 0.720549 0.693404 0.000000
-11.147011 -10.512491 -0.343630 777 0.720549 0.693404 0.000000
-11.147035 -10.512506 -0.338920 773 0.720549 0.693404 0.000000
-11.146841 -10.512329 -0.334212 781 0.720549 0.693404 0.000000
-11.147063 -10.512544 -0.329510 771 0.720549 0.693404 0.000000
-11.146821 -10.512315 -0.324792 761 0.720549 0.693404 0.000000
-11.146626 -10.512123 -0.320083 779 0.720549 0.693404 0.000000
-11.146808 -10.512292 -0.315382 765 0.720549 0.693404 0.000000
-11.147345 -10.512801 -0.310687 771 0.720549 0.693404 0.000000
-11.146827 -10.512309 -0.305961 743 0.720549 0.693404 0.000000
-11.146303 -10.511825 -0.301246 739 0.720549 0.693404 0.000000
-11.149516 -10.508178 -0.687459 799 0.720549 0.693404 0.000000
-11.149502 -10.508162 -0.682749 771 0.720549 0.693404 0.000000
-11.150942 -10.509509 -0.678115 787 0.720549 0.693404 0.000000
-11.150873 -10.509448 -0.673396 803 0.720549 0.693404 0.000000
-11.149310 -10.507975 -0.668590 781 0.720549 0.693404 0.000000
-11.148556 -10.507265 -0.663837 769 0.720549 0.693404 0.000000
-11.148960 -10.507652 -0.659143 769 0.720549 0.693404 0.000000
-11.149536 -10.508193 -0.654468 777 0.720549 0.693404 0.000000
-11.149624 -10.508272 -0.649757 785 0.720549 0.693404 0.000000
-11.149980 -10.508608 -0.645063 777 0.720549 0.693404 0.000000
-11.150382 -10.508982 -0.640369 801 0.720549 0.693404 0.000000
-11.150525 -10.509119 -0.635668 785 0.720549 0.693404 0.000000
-11.149866 -10.508499 -0.630924 789 0.720549 0.693404 0.000000
-11.150262 -10.508880 -0.626230 779 0.720549 0.693404 0.000000
-11.150830 -10.509415 -0.621545 783 0.720549 0.693404 0.000000
-11.150274 -10.508891 -0.616800 787 0.720549 0.693404 0.000000
-11.150086 -10.508706 -0.612081 795 0.720549 0.693404 0.000000
-11.149742 -10.508382 -0.607345 783 0.720549 0.693404 0.000000
-11.149185 -10.507857 -0.602610 785 0.720549 0.693404 0.000000
-11.149636 -10.508284 -0.597915 793 0.720549 0.693404 0.000000
-11.150243 -10.508849 -0.593240 813 0.720549 0.693404 0.000000
-11.149733 -10.508377 -0.588504 789 0.720549 0.693404 0.000000
-11.149648 -10.508288 -0.583785 791 0.720549 0.693404 0.000000
-11.149768 -10.508407 -0.579084 797 0.720549 0.693404 0.000000
-11.150211 -10.508827 -0.574389 781 0.720549 0.693404 0.000000
-11.150716 -10.509296 -0.569705 799 0.720549 0.693404 0.000000
-11.150412 -10.509017 -0.564977 787 0.720549 0.693404 0.000000
-11.149421 -10.508076 -0.560217 799 0.720549 0.693404 0.000000
-11.149172 -10.507840 -0.555489 791 0.720549 0.693404 0.000000
-11.148758 -10.507459 -0.550763 773 0.720549 0.693404 0.000000
-11.148766 -10.507460 -0.546052 803 0.720549 0.693404 0.000000
-11.150537 -10.509130 -0.541426 809 0.720549 0.693404 0.000000
-11.150437 -10.509043 -0.536706 819 0.720549 0.693404 0.000000
-11.149166 -10.507846 -0.531938 811 0.720549 0.693404 0.000000
-11.149765 -10.508406 -0.527252 783 0.720549 0.693404 0.000000
-11.150474 -10.509068 -0.522576 803 0.720549 0.693404 0.000000
-11.150633 -10.509218 -0.517874 809 0.720549 0.693404 0.000000
-11.150745 -10.509330 -0.513173 799 0.720549 0.693404 0.000000
-11.150377 -10.508986 -0.508446 811 0.720549 0.693404 0.000000
-11.150810 -10.509384 -0.503752 817 0.720549 0.693404 0.000000
-11.150806 -10.509388 -0.499042 773 0.720549 0.693404 0.000000
-11.150171 -10.508786 -0.494308 795 0.720549 0.693404 0.000000
-11.149905 -10.508538 -0.489580 797 0.720549 0.693404 0.000000
-11.150064 -10.508688 -0.484879 783 0.720549 0.693404 0.000000
-11.149791 -10.508433 -0.480161 799 0.720549 0.693404 0.000000
-11.150382 -10.508988 -0.475475 819 0.720549 0.693404 0.000000
-11.150534 -10.509131 -0.470774 793 0.720549 0.693404 0.000000
-11.150472 -10.509076 -0.466054 787 0.720549 0.693404 0.000000
-11.150685 -10.509270 -0.461352 801 0.720549 0.693404 0.000000
-11.150405 -10.509009 -0.456635 779 0.720549 0.693404 0.000000
-11.151146 -10.509711 -0.451958 797 0.720549 0.693404 0.000000
-11.149701 -10.508347 -0.447191 805 0.720549 0.693404 0.000000
-11.149160 -10.507835 -0.442456 803 0.720549 0.693404 0.000000
-11.150098 -10.508723 -0.437787 791 0.720549 0.693404 0.000000
-11.150043 -10.508659 -0.433078 779 0.720549 0.693404 0.000000
-11.149709 -10.508355 -0.428351 783 0.720549 0.693404 0.000000
-11.150543 -10.509133 -0.423673 777 0.720549 0.693404 0.000000
-11.151961 -10.510477 -0.419019 789 0.720549 0.693404 0.000000
-11.150884 -10.509452 -0.414269 789 0.720549 0.693404 0.000000
-11.149801 -10.508434 -0.409519 763 0.720549 0.693404 0.000000
-11.149944 -10.508572 -0.404818 773 0.720549 0.693404 0.000000
-11.149979 -10.508606 -0.400117 781 0.720549 0.693404 0.000000
-11.150389 -10.508986 -0.395424 785 0.720549 0.693404 0.000000
-11.150256 -10.508860 -0.390705 797 0.720549 0.693404 0.000000
-11.149331 -10.507997 -0.385963 765 0.720549 0.693404 0.000000
-11.149781 -10.508422 -0.381279 775 0.720549 0.693404 0.000000
-11.151622 -10.510149 -0.376631 771 0.720549 0.693404 0.000000
-11.151758 -10.510281 -0.371920 779 0.720549 0.693404 0.000000
-11.151195 -10.509750 -0.367195 767 0.720549 0.693404 0.000000
-11.150951 -10.509521 -0.362477 777 0.720549 0.693404 0.000000
-11.150545 -10.509146 -0.357761 767 0.720549 0.693404 0.000000
-11.150948 -10.509520 -0.353067 773 0.720549 0.693404 0.000000
-11.150226 -10.508835 -0.348334 749 0.720549 0.693404 0.000000
-11.149441 -10.508100 -0.343601 747 0.720549 0.693404 0.000000
-11.150898 -10.509476 -0.338937 787 0.720549 0.693404 0.000000
-11.151402 -10.509945 -0.334242 777 0.720549 0.693404 0.000000
-11.150194 -10.508813 -0.329504 749 0.720549 0.693404 0.000000
-11.149204 -10.507871 -0.324773 773 0.720549 0.693404 0.000000
-11.149481 -10.508129 -0.320070 759 0.720549 0.693404 0.000000
-11.149759 -10.508402 -0.315367 759 0.720549 0.693404 0.000000
-11.150098 -10.508711 -0.310674 761 0.720549 0.693404 0.000000
-11.151171 -10.509734 -0.305994 757 0.720549 0.693404 0.000000
-11.151187 -10.509743 -0.301284 779 0.720549 0.693404 0.000000
-11.152647 -10.504305 -0.687443 781 0.720549 0.693404 0.000000
-11.152011 -10.503704 -0.682699 787 0.720549 0.693404 0.000000
-11.151880 -10.503592 -0.677970 775 0.720549 0.693404 0.000000
-11.152142 -10.503838 -0.673278 767 0.720549 0.693404 0.000000
-11.153087 -10.504719 -0.668619 783 0.720549 0.693404 0.000000
-11.153922 -10.505509 -0.663951 793 0.720549 0.693404 0.000000
-11.153964 -10.505550 -0.659240 783 0.720549 0.693404 0.000000
-11.154154 -10.505726 -0.654538 799 0.720549 0.693404 0.000000
-11.153132 -10.504759 -0.649768 785 0.720549 0.693404 0.000000
-11.152262 -10.503940 -0.645006 773 0.720549 0.693404 0.000000
-11.152877 -10.504526 -0.640330 773 0.720549 0.693404 0.000000
-11.153658 -10.505260 -0.635653 791 0.720549 0.693404 0.000000
-11.153533 -10.505140 -0.630934 801 0.720549 0.693404 0.000000
-11.152709 -10.504358 -0.626181 773 0.720549 0.693404 0.000000
-11.152680 -10.504342 -0.621462 789 0.720549 0.693404 0.000000
-11.152555 -10.504223 -0.616743 765 0.720549 0.693404 0.000000
-11.152950 -10.504591 -0.612049 757 0.720549 0.693404 0.000000
-11.154045 -10.505618 -0.607398 791 0.720549 0.693404 0.000000
-11.154558 -10.506109 -0.602713 789 0.720549 0.693404 0.000000
-11.154583 -10.506124 -0.598003 785 0.720549 0.693404 0.000000
-11.154437 -10.505999 -0.593284 811 0.720549 0.693404 0.000000
-11.154359 -10.505917 -0.588565 813 0.720549 0.693404 0.000000
-11.154007 -10.505585 -0.583838 803 0.720549 0.693404 0.000000
-11.153491 -10.505106 -0.579093 801 0.720549 0.693404 0.000000
-11.153563 -10.505173 -0.574392 793 0.720549 0.693404 0.000000
-11.152620 -10.504283 -0.569631 787 0.720549 0.693404 0.000000
-11.152425 -10.504091 -0.564913 793 0.720549 0.693404 0.000000
-11.153937 -10.505526 -0.560268 807 0.720549 0.693404 0.000000
-11.153900 -10.505489 -0.555558 789 0.720549 0.693404 0.000000
-11.154389 -10.505946 -0.550874 827 0.720549 0.693404 0.000000
-11.153981 -10.505557 -0.546138 793 0.720549 0.693404 0.000000
-11.152819 -10.504462 -0.541378 781 0.720549 0.693404 0.000000
-11.152672 -10.504323 -0.536660 783 0.720549 0.693404 0.000000
-11.153743 -10.505332 -0.531999 811 0.720549 0.693404 0.000000
-11.153485 -10.505091 -0.527272 803 0.720549 0.693404 0.000000
-11.152543 -10.504201 -0.522520 795 0.720549 0.693404 0.000000
-11.153553 -10.505160 -0.517861 791 0.720549 0.693404 0.000000
-11.153979 -10.505567 -0.513167 795 0.720549 0.693404 0.000000
-11.153406 -10.505016 -0.508432 793 0.720549 0.693404 0.000000
-11.153785 -10.505371 -0.503738 789 0.720549 0.693404 0.000000
-11.154362 -10.505926 -0.499053 801 0.720549 0.693404 0.000000
-11.153899 -10.505478 -0.494317 803 0.720549 0.693404 0.000000
-11.153633 -10.505231 -0.489599 801 0.720549 0.693404 0.000000
-11.154689 -10.506227 -0.484929 799 0.720549 0.693404 0.000000
-11.153780 -10.505378 -0.480188 793 0.720549 0.693404 0.000000
-11.152396 -10.504063 -0.475421 765 0.720549 0.693404 0.000000
-11.153186 -10.504817 -0.470743 779 0.720549 0.693404 0.000000
-11.153831 -10.505414 -0.466057 801 0.720549 0.693404 0.000000
-11.153817 -10.505411 -0.461347 803 0.720549 0.693404 0.000000
-11.152955 -10.504600 -0.456605 793 0.720549 0.693404 0.000000
-11.152635 -10.504292 -0.451878 791 0.720549 0.693404 0.000000
-11.152784 -10.504436 -0.447176 797 0.720549 0.693404 0.000000
-11.153997 -10.505572 -0.442515 793 0.720549 0.693404 0.000000
-11.154991 -10.506519 -0.437845 787 0.720549 0.693404 0.000000
-11.153498 -10.505102 -0.433079 763 0.720549 0.693404 0.000000
-11.152949 -10.504585 -0.428355 757 0.720549 0.693404 0.000000
-11.154107 -10.505678 -0.423683 781 0.720549 0.693404 0.000000
-11.154511 -10.506066 -0.418989 785 0.720549 0.693404 0.000000
-11.154024 -10.505600 -0.414264 793 0.720549 0.693404 0.000000
-11.153955 -10.505538 -0.409554 773 0.720549 0.693404 0.000000
-11.154145 -10.505713 -0.404853 785 0.720549 0.693404 0.000000
-11.153700 -10.505291 -0.400127 779 0.720549 0.693404 0.000000
-11.153781 -10.505378 -0.395426 767 0.720549 0.693404 0.000000
-11.154080 -10.505655 -0.390723 783 0.720549 0.693404 0.000000
-11.153687 -10.505279 -0.386006 787 0.720549 0.693404 0.000000
-11.153714 -10.505307 -0.381296 769 0.720549 0.693404 0.000000
-11.154857 -10.506388 -0.376625 771 0.720549 0.693404 0.000000
-11.154253 -10.505812 -0.371891 761 0.720549 0.693404 0.000000
-11.152359 -10.504030 -0.367129 753 0.720549 0.693404 0.000000
-11.152118 -10.503802 -0.362411 751 0.720549 0.693404 0.000000
-11.152505 -10.504176 -0.357717 757 0.720549 0.693404 0.000000
-11.153018 -10.504653 -0.353022 765 0.720549 0.693404 0.000000
-11.153672 -10.505271 -0.348336 751 0.720549 0.693404 0.000000
-11.154767 -10.506300 -0.343665 765 0.720549 0.693404 0.000000
-11.155052 -10.506564 -0.338962 771 0.720549 0.693404 0.000000
-11.154377 -10.505932 -0.334239 753 0.720549 0.693404 0.000000
-11.154347 -10.505901 -0.329529 767 0.720549 0.693404 0.000000
-11.155104 -10.506616 -0.324842 767 0.720549 0.693404 0.000000
-11.155493 -10.506991 -0.320148 765 0.720549 0.693404 0.000000
-11.154975 -10.506499 -0.315423 783 0.720549 0.693404 0.000000
-11.153867 -10.505448 -0.310683 761 0.720549 0.693404 0.000000
-11.153351 -10.504971 -0.305968 757 0.720549 0.693404 0.000000
-11.153093 -10.504728 -0.301250 771 0.720549 0.693404 0.000000
-11.156775 -10.501646 -0.687497 781 0.720549 0.693404 0.000000
-11.156872 -10.501731 -0.682796 775 0.720549 0.693404 0.000000
-11.156967 -10.501817 -0.678085 777 0.720549 0.693404 0.000000
-11.157331 -10.502158 -0.673392 783 0.720549 0.693404 0.000000
-11.156892 -10.501743 -0.668656 791 0.720549 0.693404 0.000000
-11.156240 -10.501129 -0.663902 769 0.720549 0.693404 0.000000
-11.156219 -10.501121 -0.659182 765 0.720549 0.693404 0.000000
-11.156898 -10.501757 -0.654506 787 0.720549 0.693404 0.000000
-11.156672 -10.501541 -0.649788 781 0.720549 0.693404 0.000000
-11.156861 -10.501716 -0.645086 801 0.720549 0.693404 0.000000
-11.157115 -10.501956 -0.640383 803 0.720549 0.693404 0.000000
-11.156660 -10.501528 -0.635647 781 0.720549 0.693404 0.000000
-11.156961 -10.501820 -0.630944 775 0.720549 0.693404 0.000000
-11.156569 -10.501443 -0.626208 783 0.720549 0.693404 0.000000
-11.156274 -10.501170 -0.621481 767 0.720549 0.693404 0.000000
-11.156943 -10.501801 -0.616804 779 0.720549 0.693404 0.000000
-11.156812 -10.501674 -0.612085 777 0.720549 0.693404 0.000000
-11.157316 -10.502144 -0.607400 807 0.720549 0.693404 0.000000
-11.157129 -10.501973 -0.602682 791 0.720549 0.693404 0.000000
-11.156251 -10.501148 -0.597920 767 0.720549 0.693404 0.000000
-11.156385 -10.501265 -0.593219 785 0.720549 0.693404 0.000000
-11.156450 -10.501338 -0.588508 791 0.720549 0.693404 0.000000
-11.156633 -10.501507 -0.583806 783 0.720549 0.693404 0.000000
-11.155910 -10.500822 -0.579053 777 0.720549 0.693404 0.000000
-11.156039 -10.500947 -0.574352 787 0.720549 0.693404 0.000000
-11.156756 -10.501616 -0.569675 777 0.720549 0.693404 0.000000
-11.157041 -10.501881 -0.564982 797 0.720549 0.693404 0.000000
-11.156783 -10.501639 -0.560254 793 0.720549 0.693404 0.000000
-11.156157 -10.501059 -0.555510 783 0.720549 0.693404 0.000000
-11.156865 -10.501720 -0.550833 801 0.720549 0.693404 0.000000
-11.158054 -10.502840 -0.546182 797 0.720549 0.693404 0.000000
-11.157797 -10.502597 -0.541454 791 0.720549 0.693404 0.000000
-11.158184 -10.502959 -0.536761 795 0.720549 0.693404 0.000000
-11.158769 -10.503520 -0.532085 789 0.720549 0.693404 0.000000
-11.157504 -10.502330 -0.527307 789 0.720549 0.693404 0.000000
-11.157561 -10.502383 -0.522606 799 0.720549 0.693404 0.000000
-11.157578 -10.502391 -0.517896 815 0.720549 0.693404 0.000000
-11.156243 -10.501143 -0.513118 787 0.720549 0.693404 0.000000
-11.155828 -10.500747 -0.508392 783 0.720549 0.693404 0.000000
-11.156899 -10.501756 -0.503732 803 0.720549 0.693404 0.000000
-11.157475 -10.502296 -0.499046 807 0.720549 0.693404 0.000000
-11.156257 -10.501143 -0.494278 793 0.720549 0.693404 0.000000
-11.155670 -10.500595 -0.489543 809 0.720549 0.693404 0.000000
-11.156206 -10.501103 -0.484858 821 0.720549 0.693404 0.000000
-11.156311 -10.501195 -0.480157 779 0.720549 0.693404 0.000000
-11.156901 -10.501749 -0.475471 773 0.720549 0.693404 0.000000
-11.157321 -10.502150 -0.470777 785 0.720549 0.693404 0.000000
-11.156881 -10.501735 -0.466051 793 0.720549 0.693404 0.000000
-11.156718 -10.501583 -0.461333 777 0.720549 0.693404 0.000000
-11.156870 -10.501726 -0.456631 775 0.720549 0.693404 0.000000
-11.157186 -10.502016 -0.451938 779 0.720549 0.693404 0.000000
-11.156583 -10.501455 -0.447204 769 0.720549 0.693404 0.000000
-11.156041 -10.500943 -0.442469 777 0.720549 0.693404 0.000000
-11.156240 -10.501139 -0.437767 779 0.720549 0.693404 0.000000
-11.157139 -10.501982 -0.433098 791 0.720549 0.693404 0.000000
-11.157172 -10.502016 -0.428388 765 0.720549 0.693404 0.000000
-11.156734 -10.501601 -0.423662 771 0.720549 0.693404 0.000000
-11.157584 -10.502392 -0.418984 773 0.720549 0.693404 0.000000
-11.157767 -10.502574 -0.414282 795 0.720549 0.693404 0.000000
-11.156848 -10.501703 -0.409540 791 0.720549 0.693404 0.000000
-11.157204 -10.502039 -0.404847 783 0.720549 0.693404 0.000000
-11.157929 -10.502728 -0.400160 771 0.720549 0.693404 0.000000
-11.158018 -10.502807 -0.395459 767 0.720549 0.693404 0.000000
-11.157303 -10.502128 -0.390725 789 0.720549 0.693404 0.000000
-11.157495 -10.502318 -0.386024 775 0.720549 0.693404 0.000000
-11.157841 -10.502633 -0.381320 773 0.720549 0.693404 0.000000
-11.157286 -10.502110 -0.376595 759 0.720549 0.693404 0.000000
-11.157469 -10.502293 -0.371893 743 0.720549 0.693404 0.000000
-11.157392 -10.502210 -0.367184 767 0.720549 0.693404 0.000000
-11.156937 -10.501782 -0.362458 753 0.720549 0.693404 0.000000
-11.157496 -10.502311 -0.357773 767 0.720549 0.693404 0.000000
-11.157357 -10.502177 -0.353064 767 0.720549 0.693404 0.000000
-11.157424 -10.502252 -0.348353 767 0.720549 0.693404 0.000000
-11.158298 -10.503076 -0.343675 767 0.720549 0.693404 0.000000
-11.158166 -10.502949 -0.338956 759 0.720549 0.693404 0.000000
-11.157224 -10.502060 -0.334225 737 0.720549 0.693404 0.000000
-11.156974 -10.501824 -0.329507 755 0.720549 0.693404 0.000000
-11.156992 -10.501846 -0.324807 735 0.720549 0.693404 0.000000
-11.156475 -10.501354 -0.320082 765 0.720549 0.693404 0.000000
-11.155902 -10.500817 -0.315357 765 0.720549 0.693404 0.000000
-11.156658 -10.501532 -0.310670 767 0.720549 0.693404 0.000000
-11.158113 -10.502893 -0.306006 777 0.720549 0.693404 0.000000
-11.157701 -10.502512 -0.301290 773 0.720549 0.693404 0.000000
-11.159712 -10.498092 -0.687492 775 0.720549 0.693404 0.000000
-11.159651 -10.498036 -0.682772 761 0.720549 0.693404 0.000000
-11.160439 -10.498775 -0.678104 763 0.720549 0.693404 0.000000
-11.160953 -10.499266 -0.673419 765 0.720549 0.693404 0.000000
-11.160781 -10.499107 -0.668701 773 0.720549 0.693404 0.000000
-11.160986 -10.499295 -0.663999 803 0.720549 0.693404 0.000000
-11.160540 -10.498874 -0.659253 789 0.720549 0.693404 0.000000
-11.159519 -10.497908 -0.654483 775 0.720549 0.693404 0.000000
-11.160395 -10.498744 -0.649814 779 0.720549 0.693404 0.000000
-11.161175 -10.499478 -0.645147 785 0.720549 0.693404 0.000000
-11.160358 -10.498704 -0.640394 783 0.720549 0.693404 0.000000
-11.159439 -10.497832 -0.635623 783 0.720549 0.693404 0.000000
-11.160007 -10.498367 -0.630947 775 0.720549 0.693404 0.000000
-11.161158 -10.499454 -0.626296 797 0.720549 0.693404 0.000000
-11.160751 -10.499079 -0.621560 781 0.720549 0.693404 0.000000
-11.159503 -10.497900 -0.616782 775 0.720549 0.693404 0.000000
-11.159913 -10.498281 -0.612088 771 0.720549 0.693404 0.000000
-11.161739 -10.500009 -0.607470 789 0.720549 0.693404 0.000000
-11.161992 -10.500235 -0.602768 777 0.720549 0.693404 0.000000
-11.161154 -10.499455 -0.598016 779 0.720549 0.693404 0.000000
-11.160699 -10.499028 -0.593280 795 0.720549 0.693404 0.000000
-11.160622 -10.498945 -0.588561 813 0.720549 0.693404 0.000000
-11.159946 -10.498312 -0.583817 781 0.720549 0.693404 0.000000
-11.158951 -10.497378 -0.579056 771 0.720549 0.693404 0.000000
-11.159393 -10.497797 -0.574362 775 0.720549 0.693404 0.000000
-11.160322 -10.498665 -0.569703 787 0.720549 0.693404 0.000000
-11.160072 -10.498430 -0.564975 785 0.720549 0.693404 0.000000
-11.159665 -10.498055 -0.560239 771 0.720549 0.693404 0.000000
-11.159950 -10.498320 -0.555546 781 0.720549 0.693404 0.000000
-11.160549 -10.498879 -0.550860 799 0.720549 0.693404 0.000000
-11.160724 -10.499042 -0.546159 791 0.720549 0.693404 0.000000
-11.159925 -10.498294 -0.541416 797 0.720549 0.693404 0.000000
-11.159728 -10.498103 -0.536688 795 0.720549 0.693404 0.000000
-11.160383 -10.498722 -0.532012 811 0.720549 0.693404 0.000000
-11.160228 -10.498576 -0.527293 783 0.720549 0.693404 0.000000
-11.161346 -10.499637 -0.522632 787 0.720549 0.693404 0.000000
-11.161254 -10.499543 -0.517913 779 0.720549 0.693404 0.000000
-11.160241 -10.498596 -0.513162 785 0.720549 0.693404 0.000000
-11.160519 -10.498855 -0.508460 795 0.720549 0.693404 0.000000
-11.160144 -10.498505 -0.503733 781 0.720549 0.693404 0.000000
-11.159879 -10.498257 -0.499016 783 0.720549 0.693404 0.000000
-11.159989 -10.498354 -0.494314 771 0.720549 0.693404 0.000000
-11.161060 -10.499364 -0.489644 789 0.720549 0.693404 0.000000
-11.161211 -10.499507 -0.484943 781 0.720549 0.693404 0.000000
-11.160151 -10.498507 -0.480183 763 0.720549 0.693404 0.000000
-11.160365 -10.498702 -0.475490 781 0.720549 0.693404 0.000000
-11.160675 -10.499001 -0.470787 801 0.720549 0.693404 0.000000
-11.161416 -10.499702 -0.466110 801 0.720549 0.693404 0.000000
-11.161300 -10.499588 -0.461391 799 0.720549 0.693404 0.000000
-11.160294 -10.498634 -0.456641 801 0.720549 0.693404 0.000000
-11.159698 -10.498078 -0.451916 787 0.720549 0.693404 0.000000
-11.159842 -10.498216 -0.447205 785 0.720549 0.693404 0.000000
-11.160898 -10.499212 -0.442545 789 0.720549 0.693404 0.000000
-11.160883 -10.499195 -0.437835 785 0.720549 0.693404 0.000000
-11.160452 -10.498787 -0.433109 795 0.720549 0.693404 0.000000
-11.160115 -10.498467 -0.428382 781 0.720549 0.693404 0.000000
-11.160267 -10.498611 -0.423680 761 0.720549 0.693404 0.000000
-11.160726 -10.499043 -0.418986 785 0.720549 0.693404 0.000000
-11.160710 -10.499026 -0.414276 779 0.720549 0.693404 0.000000
-11.160744 -10.499060 -0.409575 781 0.720549 0.693404 0.000000
-11.161038 -10.499346 -0.404872 785 0.720549 0.693404 0.000000
-11.161236 -10.499526 -0.400170 783 0.720549 0.693404 0.000000
-11.160687 -10.499009 -0.395445 781 0.720549 0.693404 0.000000
-11.159596 -10.497986 -0.390696 753 0.720549 0.693404 0.000000
-11.160109 -10.498463 -0.386011 771 0.720549 0.693404 0.000000
-11.160182 -10.498543 -0.381300 769 0.720549 0.693404 0.000000
-11.159367 -10.497768 -0.376567 761 0.720549 0.693404 0.000000
-11.159658 -10.498039 -0.371865 751 0.720549 0.693404 0.000000
-11.160218 -10.498568 -0.367179 745 0.720549 0.693404 0.000000
-11.160929 -10.499244 -0.362492 755 0.720549 0.693404 0.000000
-11.161495 -10.499763 -0.357797 749 0.720549 0.693404 0.000000
-11.161521 -10.499793 -0.353097 769 0.720549 0.693404 0.000000
-11.161593 -10.499859 -0.348386 789 0.720549 0.693404 0.000000
-11.160542 -10.498880 -0.343646 775 0.720549 0.693404 0.000000
-11.159609 -10.497996 -0.338914 757 0.720549 0.693404 0.000000
-11.159893 -10.498262 -0.334211 755 0.720549 0.693404 0.000000
-11.160657 -10.498982 -0.329524 761 0.720549 0.693404 0.000000
-11.161044 -10.499344 -0.324830 751 0.720549 0.693404 0.000000
-11.160630 -10.498961 -0.320114 739 0.720549 0.693404 0.000000
-11.159852 -10.498219 -0.315381 727 0.720549 0.693404 0.000000
-11.160233 -10.498588 -0.310688 727 0.720549 0.693404 0.000000
-11.161099 -10.499404 -0.305999 773 0.720549 0.693404 0.000000
-11.161006 -10.499310 -0.301290 769 0.720549 0.693404 0.000000
-11.164054 -10.496136 -0.687571 787 0.720549 0.693404 0.000000
-11.163041 -10.495174 -0.682801 761 0.720549 0.693404 0.000000
-11.162389 -10.494561 -0.678047 737 0.720549 0.693404 0.000000
-11.162588 -10.494756 -0.673345 769 0.720549 0.693404 0.000000
-11.162834 -10.494989 -0.668642 783 0.720549 0.693404 0.000000
-11.162458 -10.494625 -0.663906 779 0.720549 0.693404 0.000000
-11.162499 -10.494666 -0.659195 755 0.720549 0.693404 0.000000
-11.163594 -10.495694 -0.654545 777 0.720549 0.693404 0.000000
-11.163157 -10.495293 -0.649809 777 0.720549 0.693404 0.000000
-11.162340 -10.494518 -0.645046 767 0.720549 0.693404 0.000000
-11.163168 -10.495305 -0.640378 781 0.720549 0.693404 0.000000
-11.163632 -10.495728 -0.635694 781 0.720549 0.693404 0.000000
-11.163180 -10.495316 -0.630958 785 0.720549 0.693404 0.000000
-11.163369 -10.495490 -0.626256 769 0.720549 0.693404 0.000000
-11.164093 -10.496164 -0.621579 779 0.720549 0.693404 0.000000
-11.163593 -10.495700 -0.616834 773 0.720549 0.693404 0.000000
-11.163249 -10.495375 -0.612107 761 0.720549 0.693404 0.000000
-11.163266 -10.495396 -0.607397 763 0.720549 0.693404 0.000000
-11.163888 -10.495975 -0.602711 801 0.720549 0.693404 0.000000
-11.163859 -10.495945 -0.598001 793 0.720549 0.693404 0.000000
-11.163507 -10.495613 -0.593274 789 0.720549 0.693404 0.000000
-11.162943 -10.495083 -0.588529 767 0.720549 0.693404 0.000000
-11.162638 -10.494803 -0.583802 777 0.720549 0.693404 0.000000
-11.163725 -10.495826 -0.579142 793 0.720549 0.693404 0.000000
-11.163695 -10.495796 -0.574432 793 0.720549 0.693404 0.000000
-11.163768 -10.495862 -0.569721 805 0.720549 0.693404 0.000000
-11.163889 -10.495980 -0.565020 789 0.720549 0.693404 0.000000
-11.163330 -10.495442 -0.560275 775 0.720549 0.693404 0.000000
-11.163545 -10.495650 -0.555573 799 0.720549 0.693404 0.000000
-11.163829 -10.495914 -0.550880 795 0.720549 0.693404 0.000000
-11.163628 -10.495732 -0.546162 791 0.720549 0.693404 0.000000
-11.163008 -10.495144 -0.541418 795 0.720549 0.693404 0.000000
-11.163544 -10.495652 -0.536732 781 0.720549 0.693404 0.000000
-11.164042 -10.496118 -0.532048 797 0.720549 0.693404 0.000000
-11.163564 -10.495670 -0.527312 789 0.720549 0.693404 0.000000
-11.162827 -10.494973 -0.522569 753 0.720549 0.693404 0.000000
-11.162781 -10.494931 -0.517849 775 0.720549 0.693404 0.000000
-11.163420 -10.495536 -0.513173 787 0.720549 0.693404 0.000000
-11.163004 -10.495139 -0.508447 779 0.720549 0.693404 0.000000
-11.162370 -10.494539 -0.503703 767 0.720549 0.693404 0.000000
-11.162316 -10.494490 -0.498993 775 0.720549 0.693404 0.000000
-11.161626 -10.493845 -0.494249 767 0.720549 0.693404 0.000000
-11.163161 -10.495296 -0.489605 785 0.720549 0.693404 0.000000
-11.163753 -10.495851 -0.484919 777 0.720549 0.693404 0.000000
-11.162850 -10.494992 -0.480178 769 0.720549 0.693404 0.000000
-11.163804 -10.495893 -0.475508 781 0.720549 0.693404 0.000000
-11.164545 -10.496594 -0.470821 805 0.720549 0.693404 0.000000
-11.163854 -10.495935 -0.466088 791 0.720549 0.693404 0.000000
-11.163416 -10.495535 -0.461362 783 0.720549 0.693404 0.000000
-11.163252 -10.495369 -0.456643 771 0.720549 0.693404 0.000000
-11.163293 -10.495409 -0.451933 761 0.720549 0.693404 0.000000
-11.163665 -10.495758 -0.447239 775 0.720549 0.693404 0.000000
-11.163534 -10.495646 -0.442530 781 0.720549 0.693404 0.000000
-11.163424 -10.495538 -0.437811 783 0.720549 0.693404 0.000000
-11.163465 -10.495580 -0.433111 759 0.720549 0.693404 0.000000
-11.163774 -10.495863 -0.428408 767 0.720549 0.693404 0.000000
-11.164231 -10.496295 -0.423713 783 0.720549 0.693404 0.000000
-11.163903 -10.495983 -0.418996 769 0.720549 0.693404 0.000000
-11.163567 -10.495665 -0.414269 785 0.720549 0.693404 0.000000
-11.164080 -10.496155 -0.409584 781 0.720549 0.693404 0.000000
-11.164428 -10.496484 -0.404891 769 0.720549 0.693404 0.000000
-11.163942 -10.496017 -0.400165 799 0.720549 0.693404 0.000000
-11.163968 -10.496045 -0.395455 791 0.720549 0.693404 0.000000
-11.163418 -10.495527 -0.390730 787 0.720549 0.693404 0.000000
-11.163444 -10.495556 -0.386020 785 0.720549 0.693404 0.000000
-11.163745 -10.495834 -0.381317 761 0.720549 0.693404 0.000000
-11.164031 -10.496113 -0.376624 763 0.720549 0.693404 0.000000
-11.165235 -10.497243 -0.371952 767 0.720549 0.693404 0.000000
-11.164679 -10.496719 -0.367228 755 0.720549 0.693404 0.000000
-11.163154 -10.495278 -0.362472 745 0.720549 0.693404 0.000000
-11.163441 -10.495557 -0.357769 747 0.720549 0.693404 0.000000
-11.165281 -10.497285 -0.353122 769 0.720549 0.693404 0.000000
-11.164771 -10.496799 -0.348396 773 0.720549 0.693404 0.000000
-11.163303 -10.495415 -0.343640 761 0.720549 0.693404 0.000000
-11.163580 -10.495687 -0.338947 763 0.720549 0.693404 0.000000
-11.164194 -10.496260 -0.334251 757 0.720549 0.693404 0.000000
-11.163994 -10.496077 -0.329543 769 0.720549 0.693404 0.000000
-11.164380 -10.496438 -0.324839 745 0.720549 0.693404 0.000000
-11.164240 -10.496305 -0.320131 741 0.720549 0.693404 0.000000
-11.163613 -10.495710 -0.315406 727 0.720549 0.693404 0.000000
-11.164321 -10.496372 -0.310720 761 0.720549 0.693404 0.000000
-11.164010 -10.496087 -0.306002 759 0.720549 0.693404 0.000000
-11.163280 -10.495396 -0.301279 755 0.720549 0.693404 0.000000
-11.166626 -10.492014 -0.687530 751 0.720549 0.693404 0.000000
-11.166408 -10.491803 -0.682802 747 0.720549 0.693404 0.000000
-11.166291 -10.491690 -0.678083 761 0.720549 0.693404 0.000000
-11.166544 -10.491930 -0.673380 775 0.720549 0.693404 0.000000
-11.166373 -10.491772 -0.668662 769 0.720549 0.693404 0.000000
-11.166195 -10.491608 -0.663933 759 0.720549 0.693404 0.000000
-11.166290 -10.491693 -0.659232 777 0.720549 0.693404 0.000000
-11.166804 -10.492183 -0.654547 767 0.720549 0.693404 0.000000
-11.166789 -10.492166 -0.649827 783 0.720549 0.693404 0.000000
-11.166823 -10.492201 -0.645117 771 0.720549 0.693404 0.000000
-11.166753 -10.492125 -0.640397 747 0.720549 0.693404 0.000000
-11.166527 -10.491908 -0.635670 771 0.720549 0.693404 0.000000
-11.166340 -10.491737 -0.630951 769 0.720549 0.693404 0.000000
-11.166208 -10.491611 -0.626232 767 0.720549 0.693404 0.000000
-11.166242 -10.491646 -0.621522 755 0.720549 0.693404 0.000000
-11.165999 -10.491417 -0.616794 765 0.720549 0.693404 0.000000
-11.165874 -10.491297 -0.612075 769 0.720549 0.693404 0.000000
-11.166215 -10.491620 -0.607382 781 0.720549 0.693404 0.000000
-11.167145 -10.492501 -0.602713 779 0.720549 0.693404 0.000000
-11.167603 -10.492920 -0.598028 779 0.720549 0.693404 0.000000
-11.167408 -10.492743 -0.593300 763 0.720549 0.693404 0.000000
-11.167537 -10.492867 -0.588599 767 0.720549 0.693404 0.000000
-11.166862 -10.492235 -0.583855 777 0.720549 0.693404 0.000000
-11.166784 -10.492153 -0.579136 775 0.720549 0.693404 0.000000
-11.168028 -10.493329 -0.574484 779 0.720549 0.693404 0.000000
-11.167991 -10.493292 -0.569774 799 0.720549 0.693404 0.000000
-11.167529 -10.492859 -0.565038 781 0.720549 0.693404 0.000000
-11.167869 -10.493168 -0.560345 791 0.720549 0.693404 0.000000
-11.166227 -10.491632 -0.555550 781 0.720549 0.693404 0.000000
-11.166128 -10.491545 -0.550831 771 0.720549 0.693404 0.000000
-11.167425 -10.492751 -0.546189 789 0.720549 0.693404 0.000000
-11.167704 -10.493024 -0.541486 787 0.720549 0.693404 0.000000
-11.167446 -10.492783 -0.536758 779 0.720549 0.693404 0.000000
-11.166448 -10.491834 -0.532008 783 0.720549 0.693404 0.000000
-11.166402 -10.491792 -0.527288 787 0.720549 0.693404 0.000000
-11.166625 -10.492006 -0.522596 765 0.720549 0.693404 0.000000
-11.166846 -10.492207 -0.517894 775 0.720549 0.693404 0.000000
-11.167123 -10.492465 -0.513191 789 0.720549 0.693404 0.000000
-11.167228 -10.492570 -0.508490 783 0.720549 0.693404 0.000000
-11.166860 -10.492227 -0.503763 767 0.720549 0.693404 0.000000
-11.166909 -10.492273 -0.499053 767 0.720549 0.693404 0.000000
-11.167240 -10.492576 -0.494359 773 0.720549 0.693404 0.000000
-11.167023 -10.492379 -0.489631 785 0.720549 0.693404 0.000000
-11.166812 -10.492176 -0.484913 767 0.720549 0.693404 0.000000
-11.167073 -10.492423 -0.480221 767 0.720549 0.693404 0.000000
-11.166965 -10.492330 -0.475502 767 0.720549 0.693404 0.000000
-11.167069 -10.492421 -0.470801 779 0.720549 0.693404 0.000000
-11.166575 -10.491961 -0.466065 775 0.720549 0.693404 0.000000
-11.166153 -10.491560 -0.461339 767 0.720549 0.693404 0.000000
-11.166194 -10.491600 -0.456638 767 0.720549 0.693404 0.000000
-11.166934 -10.492288 -0.451951 767 0.720549 0.693404 0.000000
-11.167408 -10.492732 -0.447267 787 0.720549 0.693404 0.000000
-11.166963 -10.492325 -0.442531 787 0.720549 0.693404 0.000000
-11.167380 -10.492712 -0.437847 783 0.720549 0.693404 0.000000
-11.166887 -10.492253 -0.433111 761 0.720549 0.693404 0.000000
-11.166456 -10.491844 -0.428385 761 0.720549 0.693404 0.000000
-11.167017 -10.492373 -0.423700 767 0.720549 0.693404 0.000000
-11.167379 -10.492714 -0.419006 775 0.720549 0.693404 0.000000
-11.167578 -10.492896 -0.414304 783 0.720549 0.693404 0.000000
-11.167289 -10.492629 -0.409587 775 0.720549 0.693404 0.000000
-11.167377 -10.492707 -0.404876 779 0.720549 0.693404 0.000000
-11.166726 -10.492094 -0.400142 783 0.720549 0.693404 0.000000
-11.165847 -10.491269 -0.395410 753 0.720549 0.693404 0.000000
-11.166361 -10.491759 -0.390715 753 0.720549 0.693404 0.000000
-11.167139 -10.492479 -0.386038 769 0.720549 0.693404 0.000000
-11.167535 -10.492860 -0.381344 757 0.720549 0.693404 0.000000
-11.168048 -10.493337 -0.376649 761 0.720549 0.693404 0.000000
-11.167915 -10.493210 -0.371930 751 0.720549 0.693404 0.000000
-11.167620 -10.492937 -0.367213 759 0.720549 0.693404 0.000000
-11.167377 -10.492708 -0.362505 745 0.720549 0.693404 0.000000
-11.166971 -10.492332 -0.357779 739 0.720549 0.693404 0.000000
-11.166729 -10.492104 -0.353061 745 0.720549 0.693404 0.000000
-11.166488 -10.491875 -0.348353 731 0.720549 0.693404 0.000000
-11.166724 -10.492088 -0.343651 765 0.720549 0.693404 0.000000
-11.167064 -10.492412 -0.338947 741 0.720549 0.693404 0.000000
-11.167506 -10.492831 -0.334253 749 0.720549 0.693404 0.000000
-11.167045 -10.492397 -0.329537 753 0.720549 0.693404 0.000000
-11.167219 -10.492559 -0.324836 743 0.720549 0.693404 0.000000
-11.167189 -10.492529 -0.320126 745 0.720549 0.693404 0.000000
-11.167192 -10.492537 -0.315416 755 0.720549 0.693404 0.000000
-11.168222 -10.493503 -0.310736 757 0.720549 0.693404 0.000000
-11.166903 -10.492267 -0.305998 759 0.720549 0.693404 0.000000
-11.166017 -10.491421 -0.301266 743 0.720549 0.693404 0.000000
-11.170282 -10.488762 -0.687559 759 0.720549 0.693404 0.000000
-11.170487 -10.488950 -0.682857 767 0.720549 0.693404 0.000000
-11.170373 -10.488851 -0.678128 765 0.720549 0.693404 0.000000
-11.169673 -10.488185 -0.673374 749 0.720549 0.693404 0.000000
-11.169818 -10.488322 -0.668673 751 0.720549 0.693404 0.000000
-11.170220 -10.488709 -0.663979 757 0.720549 0.693404 0.000000
-11.170638 -10.489097 -0.659285 769 0.720549 0.693404 0.000000
-11.170783 -10.489234 -0.654583 771 0.720549 0.693404 0.000000
-11.171343 -10.489761 -0.649898 783 0.720549 0.693404 0.000000
-11.170581 -10.489045 -0.645145 769 0.720549 0.693404 0.000000
-11.170191 -10.488683 -0.640409 763 0.720549 0.693404 0.000000
-11.170593 -10.489056 -0.635715 769 0.720549 0.693404 0.000000
-11.170525 -10.488994 -0.630995 769 0.720549 0.693404 0.000000
-11.170557 -10.489015 -0.626285 755 0.720549 0.693404 0.000000
-11.170644 -10.489094 -0.621574 771 0.720549 0.693404 0.000000
-11.170930 -10.489372 -0.616881 761 0.720549 0.693404 0.000000
-11.171662 -10.490054 -0.612204 759 0.720549 0.693404 0.000000
-11.171044 -10.489479 -0.607460 777 0.720549 0.693404 0.000000
-11.170212 -10.488692 -0.602708 763 0.720549 0.693404 0.000000
-11.169601 -10.488124 -0.597963 763 0.720549 0.693404 0.000000
-11.169250 -10.487793 -0.593226 759 0.720549 0.693404 0.000000
-11.170343 -10.488821 -0.588576 769 0.720549 0.693404 0.000000
-11.171217 -10.489631 -0.583908 773 0.720549 0.693404 0.000000
-11.170921 -10.489358 -0.579180 765 0.720549 0.693404 0.000000
-11.170135 -10.488622 -0.574428 745 0.720549 0.693404 0.000000
-11.170366 -10.488843 -0.569725 765 0.720549 0.693404 0.000000
-11.170706 -10.489152 -0.565032 775 0.720549 0.693404 0.000000
-11.170715 -10.489167 -0.560322 781 0.720549 0.693404 0.000000
-11.170308 -10.488778 -0.555586 787 0.720549 0.693404 0.000000
-11.170797 -10.489248 -0.550901 769 0.720549 0.693404 0.000000
-11.170753 -10.489207 -0.546191 765 0.720549 0.693404 0.000000
-11.169866 -10.488360 -0.541430 771 0.720549 0.693404 0.000000
-11.170568 -10.489031 -0.536753 773 0.720549 0.693404 0.000000
-11.170522 -10.488989 -0.532043 775 0.720549 0.693404 0.000000
-11.170115 -10.488599 -0.527307 783 0.720549 0.693404 0.000000
-11.170329 -10.488807 -0.522615 793 0.720549 0.693404 0.000000
-11.171195 -10.489610 -0.517936 783 0.720549 0.693404 0.000000
-11.171417 -10.489824 -0.513234 781 0.720549 0.693404 0.000000
-11.171741 -10.490120 -0.508541 789 0.720549 0.693404 0.000000
-11.171412 -10.489821 -0.503814 783 0.720549 0.693404 0.000000
