245
-26.066919 -25.391537 -0.637503 879 0.730622 0.682782 0.000000
-26.067856 -25.392441 -0.626344 877 0.730622 0.682782 0.000000
-26.067362 -25.391973 -0.615158 843 0.730622 0.682782 0.000000
-26.065784 -25.390425 -0.603943 851 0.730622 0.682782 0.000000
-26.066959 -25.391584 -0.592791 871 0.730622 0.682782 0.000000
-26.065048 -25.389715 -0.581569 859 0.730622 0.682782 0.000000
-26.065432 -25.390089 -0.570396 861 0.730622 0.682782 0.000000
-26.067343 -25.391956 -0.559267 871 0.730622 0.682782 0.000000
-26.067997 -25.392582 -0.548101 873 0.730622 0.682782 0.000000
-26.069056 -25.393616 -0.536940 893 0.730622 0.682782 0.000000
-26.067711 -25.392315 -0.525733 877 0.730622 0.682782 0.000000
-26.066000 -25.390642 -0.514529 861 0.730622 0.682782 0.000000
-26.068773 -25.393351 -0.503402 889 0.730622 0.682782 0.000000
-26.068790 -25.393364 -0.492222 891 0.730622 0.682782 0.000000
-26.066858 -25.391479 -0.481010 889 0.730622 0.682782 0.000000
-26.067646 -25.392258 -0.469852 907 0.730622 0.682782 0.000000
-26.067131 -25.391745 -0.458657 879 0.730622 0.682782 0.000000
-26.066072 -25.390713 -0.447467 869 0.730622 0.682782 0.000000
-26.066641 -25.391270 -0.436301 873 0.730622 0.682782 0.000000
-26.067108 -25.391726 -0.425126 841 0.730622 0.682782 0.000000
-26.066936 -25.391567 -0.413948 815 0.730622 0.682782 0.000000
-26.067543 -25.392157 -0.402782 845 0.730622 0.682782 0.000000
-26.067387 -25.392012 -0.391603 865 0.730622 0.682782 0.000000
-26.066738 -25.391375 -0.380419 863 0.730622 0.682782 0.000000
-26.065460 -25.390131 -0.369220 867 0.730622 0.682782 0.000000
-26.066854 -25.391483 -0.358067 849 0.730622 0.682782 0.000000
-26.066254 -25.390900 -0.346882 855 0.730622 0.682782 0.000000
-26.065235 -25.389912 -0.335692 863 0.730622 0.682782 0.000000
-26.067247 -25.391878 -0.324543 867 0.730622 0.682782 0.000000
-26.067999 -25.392601 -0.313375 869 0.730622 0.682782 0.000000
-26.067392 -25.392012 -0.302191 851 0.730622 0.682782 0.000000
-26.067142 -25.391775 -0.291013 857 0.730622 0.682782 0.000000
-26.065952 -25.390617 -0.279824 857 0.730622 0.682782 0.000000
-26.065590 -25.390263 -0.268647 839 0.730622 0.682782 0.000000
-26.067169 -25.391794 -0.257492 829 0.730622 0.682782 0.000000
-26.072420 -25.381075 -0.637451 843 0.730622 0.682782 0.000000
-26.075239 -25.383806 -0.626344 863 0.730622 0.682782 0.000000
-26.074490 -25.383087 -0.615140 863 0.730622 0.682782 0.000000
-26.074532 -25.383120 -0.603960 841 0.730622 0.682782 0.000000
-26.075653 -25.384220 -0.592809 863 0.730622 0.682782 0.000000
-26.074051 -25.382664 -0.581594 857 0.730622 0.682782 0.000000
-26.072044 -25.380703 -0.570373 853 0.730622 0.682782 0.000000
-26.073322 -25.381945 -0.559230 859 0.730622 0.682782 0.000000
-26.076746 -25.385277 -0.548128 899 0.730622 0.682782 0.000000
-26.075920 -25.384481 -0.536925 869 0.730622 0.682782 0.000000
-26.073999 -25.382607 -0.525713 863 0.730622 0.682782 0.000000
-26.075262 -25.383833 -0.514561 855 0.730622 0.682782 0.000000
-26.074644 -25.383236 -0.503367 851 0.730622 0.682782 0.000000
-26.073088 -25.381720 -0.492161 859 0.730622 0.682782 0.000000
-26.074133 -25.382742 -0.481001 877 0.730622 0.682782 0.000000
-26.074764 -25.383364 -0.469835 863 0.730622 0.682782 0.000000
-26.074661 -25.383261 -0.458655 859 0.730622 0.682782 0.000000
-26.074713 -25.383305 -0.447485 841 0.730622 0.682782 0.000000
-26.074242 -25.382856 -0.436299 855 0.730622 0.682782 0.000000
-26.073128 -25.381763 -0.425099 865 0.730622 0.682782 0.000000
-26.073328 -25.381971 -0.413927 851 0.730622 0.682782 0.000000
-26.075262 -25.383841 -0.402788 881 0.730622 0.682782 0.000000
-26.074823 -25.383421 -0.391602 883 0.730622 0.682782 0.000000
-26.074966 -25.383554 -0.380431 877 0.730622 0.682782 0.000000
-26.074574 -25.383184 -0.369244 825 0.730622 0.682782 0.000000
-26.074139 -25.382753 -0.358068 849 0.730622 0.682782 0.000000
-26.074266 -25.382885 -0.346886 825 0.730622 0.682782 0.000000
-26.073967 -25.382595 -0.335709 821 0.730622 0.682782 0.000000
-26.073313 -25.381954 -0.324525 837 0.730622 0.682782 0.000000
-26.074438 -25.383057 -0.313364 823 0.730622 0.682782 0.000000
-26.076344 -25.384903 -0.302216 851 0.730622 0.682782 0.000000
-26.075571 -25.384150 -0.291023 843 0.730622 0.682782 0.000000
-26.073637 -25.382277 -0.279831 835 0.730622 0.682782 0.000000
-26.074286 -25.382912 -0.268664 881 0.730622 0.682782 0.000000
-26.075865 -25.384445 -0.257499 845 0.730622 0.682782 0.000000
-26.082317 -25.374578 -0.637498 835 0.730622 0.682782 0.000000
-26.082726 -25.374983 -0.626334 861 0.730622 0.682782 0.000000
-26.084854 -25.377047 -0.615204 861 0.730622 0.682782 0.000000
-26.084772 -25.376978 -0.604024 855 0.730622 0.682782 0.000000
-26.082767 -25.375021 -0.592793 847 0.730622 0.682782 0.000000
-26.080385 -25.372704 -0.581565 857 0.730622 0.682782 0.000000
-26.082127 -25.374399 -0.570428 851 0.730622 0.682782 0.000000
-26.084091 -25.376314 -0.559290 883 0.730622 0.682782 0.000000
-26.083340 -25.375576 -0.548096 867 0.730622 0.682782 0.000000
-26.082191 -25.374466 -0.536897 845 0.730622 0.682782 0.000000
-26.081898 -25.374182 -0.525710 863 0.730622 0.682782 0.000000
-26.083424 -25.375671 -0.514565 865 0.730622 0.682782 0.000000
-26.082550 -25.374821 -0.503373 855 0.730622 0.682782 0.000000
-26.081934 -25.374210 -0.492178 875 0.730622 0.682782 0.000000
-26.082821 -25.375086 -0.481020 877 0.730622 0.682782 0.000000
-26.081879 -25.374165 -0.469828 849 0.730622 0.682782 0.000000
-26.082403 -25.374668 -0.458663 849 0.730622 0.682782 0.000000
-26.082769 -25.375029 -0.447490 847 0.730622 0.682782 0.000000
-26.082666 -25.374928 -0.436310 861 0.730622 0.682782 0.000000
-26.084284 -25.376507 -0.425165 859 0.730622 0.682782 0.000000
-26.084373 -25.376595 -0.413983 859 0.730622 0.682782 0.000000
-26.082680 -25.374950 -0.402779 863 0.730622 0.682782 0.000000
-26.081455 -25.373751 -0.391581 835 0.730622 0.682782 0.000000
-26.082438 -25.374708 -0.380421 849 0.730622 0.682782 0.000000
-26.084148 -25.376379 -0.369275 871 0.730622 0.682782 0.000000
-26.085445 -25.377638 -0.358112 853 0.730622 0.682782 0.000000
-26.083574 -25.375816 -0.346910 841 0.730622 0.682782 0.000000
-26.083603 -25.375854 -0.335739 809 0.730622 0.682782 0.000000
-26.085358 -25.377548 -0.324582 821 0.730622 0.682782 0.000000
-26.084476 -25.376705 -0.313390 821 0.730622 0.682782 0.000000
-26.082096 -25.374390 -0.302192 813 0.730622 0.682782 0.000000
-26.083687 -25.375935 -0.291027 819 0.730622 0.682782 0.000000
-26.084597 -25.376818 -0.279868 827 0.730622 0.682782 0.000000
-26.082973 -25.375244 -0.268673 839 0.730622 0.682782 0.000000
-26.082037 -25.374327 -0.257482 855 0.730622 0.682782 0.000000
-26.089422 -25.364769 -0.637475 835 0.730622 0.682782 0.000000
-26.089657 -25.365005 -0.626303 857 0.730622 0.682782 0.000000
-26.089329 -25.364676 -0.615116 843 0.730622 0.682782 0.000000
-26.089720 -25.365070 -0.603942 851 0.730622 0.682782 0.000000
-26.092787 -25.368052 -0.592842 851 0.730622 0.682782 0.000000
-26.092665 -25.367924 -0.581653 833 0.730622 0.682782 0.000000
-26.090595 -25.365919 -0.570433 855 0.730622 0.682782 0.000000
-26.090101 -25.365442 -0.559247 813 0.730622 0.682782 0.000000
-26.089640 -25.364988 -0.548061 831 0.730622 0.682782 0.000000
-26.090706 -25.366026 -0.536901 833 0.730622 0.682782 0.000000
-26.092096 -25.367376 -0.525757 837 0.730622 0.682782 0.000000
-26.092100 -25.367378 -0.514577 831 0.730622 0.682782 0.000000
-26.093424 -25.368673 -0.503424 869 0.730622 0.682782 0.000000
-26.092899 -25.368155 -0.492239 835 0.730622 0.682782 0.000000
-26.091965 -25.367250 -0.481037 859 0.730622 0.682782 0.000000
-26.091761 -25.367052 -0.469859 873 0.730622 0.682782 0.000000
-26.089235 -25.364592 -0.458633 849 0.730622 0.682782 0.000000
-26.088139 -25.363525 -0.447443 849 0.730622 0.682782 0.000000
-26.089655 -25.365007 -0.436288 863 0.730622 0.682782 0.000000
-26.089231 -25.364599 -0.425112 861 0.730622 0.682782 0.000000
-26.088591 -25.363970 -0.413918 845 0.730622 0.682782 0.000000
-26.088728 -25.364111 -0.402746 839 0.730622 0.682782 0.000000
-26.088243 -25.363638 -0.391561 843 0.730622 0.682782 0.000000
-26.089752 -25.365101 -0.380416 847 0.730622 0.682782 0.000000
-26.091204 -25.366516 -0.369262 851 0.730622 0.682782 0.000000
-26.092062 -25.367353 -0.358094 831 0.730622 0.682782 0.000000
-26.092562 -25.367838 -0.346929 827 0.730622 0.682782 0.000000
-26.090658 -25.365990 -0.335726 833 0.730622 0.682782 0.000000
-26.088312 -25.363707 -0.324519 795 0.730622 0.682782 0.000000
-26.091379 -25.366686 -0.313379 805 0.730622 0.682782 0.000000
-26.093445 -25.368696 -0.302229 821 0.730622 0.682782 0.000000
-26.091209 -25.366529 -0.291030 815 0.730622 0.682782 0.000000
-26.092213 -25.367504 -0.279860 799 0.730622 0.682782 0.000000
-26.093433 -25.368685 -0.268699 825 0.730622 0.682782 0.000000
-26.092693 -25.367970 -0.257515 831 0.730622 0.682782 0.000000
-26.101082 -25.359674 -0.637568 855 0.730622 0.682782 0.000000
-26.101744 -25.360323 -0.626401 839 0.730622 0.682782 0.000000
-26.101120 -25.359707 -0.615207 831 0.730622 0.682782 0.000000
-26.101030 -25.359631 -0.604027 819 0.730622 0.682782 0.000000
-26.099962 -25.358591 -0.592817 811 0.730622 0.682782 0.000000
-26.098577 -25.357244 -0.581610 841 0.730622 0.682782 0.000000
-26.099182 -25.357826 -0.570444 837 0.730622 0.682782 0.000000
-26.098154 -25.356834 -0.559244 833 0.730622 0.682782 0.000000
-26.096607 -25.355324 -0.548038 801 0.730622 0.682782 0.000000
-26.098503 -25.357178 -0.536900 809 0.730622 0.682782 0.000000
-26.098095 -25.356783 -0.525713 827 0.730622 0.682782 0.000000
-26.098370 -25.357038 -0.514541 837 0.730622 0.682782 0.000000
-26.099266 -25.357924 -0.503382 827 0.730622 0.682782 0.000000
-26.099279 -25.357933 -0.492201 839 0.730622 0.682782 0.000000
-26.100531 -25.359156 -0.481049 829 0.730622 0.682782 0.000000
-26.100704 -25.359312 -0.469877 841 0.730622 0.682782 0.000000
-26.098818 -25.357477 -0.458665 825 0.730622 0.682782 0.000000
-26.100334 -25.358961 -0.447520 843 0.730622 0.682782 0.000000
-26.100800 -25.359404 -0.436346 865 0.730622 0.682782 0.000000
-26.100317 -25.358946 -0.425160 857 0.730622 0.682782 0.000000
-26.100060 -25.358688 -0.413982 853 0.730622 0.682782 0.000000
-26.097736 -25.356436 -0.402764 843 0.730622 0.682782 0.000000
-26.098608 -25.357286 -0.391605 825 0.730622 0.682782 0.000000
-26.099905 -25.358547 -0.380443 827 0.730622 0.682782 0.000000
-26.098833 -25.357500 -0.369253 823 0.730622 0.682782 0.000000
-26.099186 -25.357849 -0.358089 829 0.730622 0.682782 0.000000
-26.099421 -25.358072 -0.346907 821 0.730622 0.682782 0.000000
-26.098822 -25.357489 -0.335732 815 0.730622 0.682782 0.000000
-26.100824 -25.359446 -0.324573 799 0.730622 0.682782 0.000000
-26.100842 -25.359461 -0.313402 821 0.730622 0.682782 0.000000
-26.100346 -25.358976 -0.302217 835 0.730622 0.682782 0.000000
-26.100466 -25.359089 -0.291046 803 0.730622 0.682782 0.000000
-26.099422 -25.358082 -0.279855 793 0.730622 0.682782 0.000000
-26.099442 -25.358099 -0.268685 805 0.730622 0.682782 0.000000
-26.099291 -25.357958 -0.257506 817 0.730622 0.682782 0.000000
-26.107525 -25.350122 -0.637537 827 0.730622 0.682782 0.000000
-26.109344 -25.351898 -0.626399 803 0.730622 0.682782 0.000000
-26.109789 -25.352324 -0.615225 791 0.730622 0.682782 0.000000
-26.108149 -25.350735 -0.604010 783 0.730622 0.682782 0.000000
-26.108023 -25.350616 -0.592831 801 0.730622 0.682782 0.000000
-26.109360 -25.351908 -0.581678 839 0.730622 0.682782 0.000000
-26.108280 -25.350868 -0.570478 827 0.730622 0.682782 0.000000
-26.107367 -25.349972 -0.559276 823 0.730622 0.682782 0.000000
-26.106899 -25.349525 -0.548090 819 0.730622 0.682782 0.000000
-26.106764 -25.349398 -0.536911 835 0.730622 0.682782 0.000000
-26.106888 -25.349518 -0.525740 809 0.730622 0.682782 0.000000
-26.107738 -25.350334 -0.514572 803 0.730622 0.682782 0.000000
-26.106905 -25.349531 -0.503379 781 0.730622 0.682782 0.000000
-26.106180 -25.348829 -0.492196 821 0.730622 0.682782 0.000000
-26.106350 -25.348995 -0.481014 821 0.730622 0.682782 0.000000
-26.106714 -25.349356 -0.469850 843 0.730622 0.682782 0.000000
-26.107868 -25.350466 -0.458689 823 0.730622 0.682782 0.000000
-26.108236 -25.350828 -0.447525 835 0.730622 0.682782 0.000000
-26.106449 -25.349091 -0.436312 821 0.730622 0.682782 0.000000
-26.105955 -25.348610 -0.425126 809 0.730622 0.682782 0.000000
-26.106487 -25.349136 -0.413961 827 0.730622 0.682782 0.000000
-26.105003 -25.347691 -0.402765 823 0.730622 0.682782 0.000000
-26.106821 -25.349455 -0.391617 819 0.730622 0.682782 0.000000
-26.107700 -25.350311 -0.380449 795 0.730622 0.682782 0.000000
-26.107618 -25.350227 -0.369269 811 0.730622 0.682782 0.000000
-26.108383 -25.350973 -0.358112 831 0.730622 0.682782 0.000000
-26.106947 -25.349583 -0.346915 827 0.730622 0.682782 0.000000
-26.107815 -25.350418 -0.335747 799 0.730622 0.682782 0.000000
-26.106363 -25.349014 -0.324550 801 0.730622 0.682782 0.000000
-26.105181 -25.347862 -0.313361 765 0.730622 0.682782 0.000000
-26.107658 -25.350271 -0.302217 807 0.730622 0.682782 0.000000
-26.105577 -25.348248 -0.291017 773 0.730622 0.682782 0.000000
-26.105169 -25.347851 -0.279840 793 0.730622 0.682782 0.000000
-26.106871 -25.349504 -0.268684 793 0.730622 0.682782 0.000000
-26.105921 -25.348587 -0.257493 819 0.730622 0.682782 0.000000
-26.114700 -25.341888 -0.637525 819 0.730622 0.682782 0.000000
-26.117367 -25.344479 -0.626410 821 0.730622 0.682782 0.000000
-26.117510 -25.344612 -0.615238 811 0.730622 0.682782 0.000000
-26.116638 -25.343775 -0.604036 813 0.730622 0.682782 0.000000
-26.114611 -25.341812 -0.592815 811 0.730622 0.682782 0.000000
-26.114746 -25.341936 -0.581634 835 0.730622 0.682782 0.000000
-26.116611 -25.343750 -0.570496 845 0.730622 0.682782 0.000000
-26.114792 -25.341988 -0.559283 795 0.730622 0.682782 0.000000
-26.114176 -25.341391 -0.548088 795 0.730622 0.682782 0.000000
-26.113674 -25.340902 -0.536903 809 0.730622 0.682782 0.000000
-26.113176 -25.340420 -0.525717 811 0.730622 0.682782 0.000000
-26.112930 -25.340174 -0.514529 791 0.730622 0.682782 0.000000
-26.113255 -25.340498 -0.503366 809 0.730622 0.682782 0.000000
-26.115204 -25.342382 -0.492227 799 0.730622 0.682782 0.000000
-26.116037 -25.343201 -0.481059 817 0.730622 0.682782 0.000000
-26.115002 -25.342186 -0.469869 815 0.730622 0.682782 0.000000
-26.112690 -25.339941 -0.458650 797 0.730622 0.682782 0.000000
-26.113840 -25.341064 -0.447489 803 0.730622 0.682782 0.000000
-26.114199 -25.341419 -0.436325 829 0.730622 0.682782 0.000000
-26.113823 -25.341049 -0.425139 805 0.730622 0.682782 0.000000
-26.115286 -25.342461 -0.413985 829 0.730622 0.682782 0.000000
-26.115683 -25.342859 -0.402821 793 0.730622 0.682782 0.000000
-26.114624 -25.341827 -0.391620 799 0.730622 0.682782 0.000000
-26.114243 -25.341452 -0.380444 817 0.730622 0.682782 0.000000
-26.115221 -25.342403 -0.369274 831 0.730622 0.682782 0.000000
-26.116669 -25.343815 -0.358120 811 0.730622 0.682782 0.000000
-26.115967 -25.343134 -0.346937 809 0.730622 0.682782 0.000000
-26.114986 -25.342180 -0.335746 785 0.730622 0.682782 0.000000
-26.115072 -25.342266 -0.324575 781 0.730622 0.682782 0.000000
-26.114241 -25.341461 -0.313382 803 0.730622 0.682782 0.000000
-26.113586 -25.340818 -0.302198 817 0.730622 0.682782 0.000000
-26.114759 -25.341961 -0.291037 823 0.730622 0.682782 0.000000
-26.115980 -25.343143 -0.279875 777 0.730622 0.682782 0.000000
-26.117193 -25.344332 -0.268713 815 0.730622 0.682782 0.000000
-26.117409 -25.344536 -0.257541 789 0.730622 0.682782 0.000000
