312
-23.831152 -23.388729 -0.648840 883 0.704056 0.710145 0.000000
-23.830729 -23.388321 -0.638564 873 0.704056 0.710145 0.000000
-23.831440 -23.389013 -0.628327 893 0.704056 0.710145 0.000000
-23.830851 -23.388437 -0.618052 887 0.704056 0.710145 0.000000
-23.831711 -23.389282 -0.607824 863 0.704056 0.710145 0.000000
-23.833467 -23.391001 -0.597607 891 0.704056 0.710145 0.000000
-23.831873 -23.389446 -0.587312 859 0.704056 0.710145 0.000000
-23.830706 -23.388304 -0.577023 871 0.704056 0.710145 0.000000
-23.831194 -23.388783 -0.566778 859 0.704055 0.710145 0.000000
-23.830528 -23.388128 -0.556504 865 0.704055 0.710145 0.000000
-23.829926 -23.387527 -0.546230 873 0.704056 0.710145 0.000000
-23.830368 -23.387966 -0.535985 851 0.704056 0.710145 0.000000
-23.830227 -23.387823 -0.525726 873 0.704056 0.710145 0.000000
-23.830862 -23.388449 -0.515490 875 0.704056 0.710145 0.000000
-23.830877 -23.388464 -0.505229 873 0.704055 0.710145 0.000000
-23.830042 -23.387655 -0.494957 849 0.704056 0.710145 0.000000
-23.831976 -23.389549 -0.484738 857 0.704056 0.710145 0.000000
-23.832649 -23.390213 -0.474492 893 0.704056 0.710145 0.000000
-23.832394 -23.389957 -0.464234 895 0.704056 0.710145 0.000000
-23.831614 -23.389194 -0.453961 903 0.704055 0.710145 0.000000
-23.831558 -23.389135 -0.443702 875 0.704055 0.710145 0.000000
-23.833384 -23.390928 -0.433484 883 0.704056 0.710145 0.000000
-23.831226 -23.388817 -0.423184 855 0.704055 0.710145 0.000000
-23.830854 -23.388451 -0.412928 875 0.704056 0.710145 0.000000
-23.831730 -23.389305 -0.402679 863 0.704056 0.710145 0.000000
-23.830824 -23.388426 -0.392407 865 0.704056 0.710145 0.000000
-23.831537 -23.389120 -0.382170 857 0.704055 0.710145 0.000000
-23.831461 -23.389042 -0.371911 835 0.704056 0.710145 0.000000
-23.831598 -23.389185 -0.361659 837 0.704056 0.710145 0.000000
-23.832102 -23.389677 -0.351414 847 0.704056 0.710145 0.000000
-23.831861 -23.389448 -0.341146 841 0.704056 0.710145 0.000000
-23.832560 -23.390129 -0.330909 815 0.704056 0.710145 0.000000
-23.831064 -23.388659 -0.320623 823 0.704056 0.710145 0.000000
-23.831764 -23.389355 -0.310386 837 0.704056 0.710145 0.000000
-23.833975 -23.391523 -0.300155 861 0.704056 0.710145 0.000000
-23.832994 -23.390553 -0.289884 865 0.704056 0.710145 0.000000
-23.832321 -23.389904 -0.279620 861 0.704056 0.710145 0.000000
-23.832026 -23.389603 -0.269363 839 0.704055 0.710145 0.000000
-23.831865 -23.389456 -0.259104 849 0.704056 0.710145 0.000000
-23.838394 -23.381258 -0.648845 861 0.704056 0.710145 0.000000
-23.839579 -23.382431 -0.638614 889 0.704055 0.710145 0.000000
-23.841496 -23.384300 -0.628405 875 0.704056 0.710145 0.000000
-23.839655 -23.382498 -0.618102 859 0.704056 0.710145 0.000000
-23.839943 -23.382780 -0.607849 855 0.704056 0.710145 0.000000
-23.840536 -23.383373 -0.597603 861 0.704056 0.710145 0.000000
-23.840532 -23.383356 -0.587343 865 0.704056 0.710145 0.000000
-23.838882 -23.381742 -0.577049 871 0.704056 0.710145 0.000000
-23.836645 -23.379551 -0.566740 879 0.704055 0.710145 0.000000
-23.838350 -23.381227 -0.556523 861 0.704056 0.710145 0.000000
-23.838057 -23.380939 -0.546256 883 0.704056 0.710145 0.000000
-23.838490 -23.381357 -0.536012 873 0.704056 0.710145 0.000000
-23.838707 -23.381582 -0.525759 885 0.704056 0.710145 0.000000
-23.837454 -23.380352 -0.515471 907 0.704056 0.710145 0.000000
-23.838465 -23.381340 -0.505241 895 0.704056 0.710145 0.000000
-23.840145 -23.382982 -0.495015 877 0.704056 0.710145 0.000000
-23.839371 -23.382223 -0.484742 851 0.704056 0.710145 0.000000
-23.838057 -23.380943 -0.474464 853 0.704055 0.710145 0.000000
-23.837593 -23.380487 -0.464198 859 0.704056 0.710145 0.000000
-23.837431 -23.380323 -0.453940 857 0.704055 0.710145 0.000000
-23.838739 -23.381613 -0.443707 857 0.704056 0.710145 0.000000
-23.840763 -23.383600 -0.433487 841 0.704056 0.710145 0.000000
-23.840393 -23.383234 -0.423221 825 0.704055 0.710145 0.000000
-23.840532 -23.383379 -0.412969 847 0.704056 0.710145 0.000000
-23.840218 -23.383060 -0.402712 857 0.704056 0.710145 0.000000
-23.840248 -23.383101 -0.392451 847 0.704056 0.710145 0.000000
-23.841177 -23.384003 -0.382212 865 0.704056 0.710145 0.000000
-23.840580 -23.383421 -0.371948 863 0.704055 0.710145 0.000000
-23.839987 -23.382839 -0.361683 847 0.704056 0.710145 0.000000
-23.839376 -23.382248 -0.351409 869 0.704056 0.710145 0.000000
-23.838669 -23.381546 -0.341145 861 0.704056 0.710145 0.000000
-23.838848 -23.381723 -0.330893 845 0.704056 0.710145 0.000000
-23.838873 -23.381746 -0.320643 843 0.704056 0.710145 0.000000
-23.839258 -23.382122 -0.310389 829 0.704055 0.710145 0.000000
-23.841362 -23.384190 -0.300159 871 0.704056 0.710145 0.000000
-23.841805 -23.384628 -0.289914 851 0.704056 0.710145 0.000000
-23.840815 -23.383663 -0.279643 819 0.704055 0.710145 0.000000
-23.840351 -23.383205 -0.269377 833 0.704056 0.710145 0.000000
-23.842609 -23.385416 -0.259156 827 0.704055 0.710145 0.000000
-23.844269 -23.372450 -0.648803 865 0.704056 0.710145 0.000000
-23.845715 -23.373869 -0.638589 849 0.704056 0.710145 0.000000
-23.846998 -23.375137 -0.628367 841 0.704056 0.710145 0.000000
-23.846781 -23.374916 -0.618098 845 0.704056 0.710145 0.000000
-23.848005 -23.376122 -0.607876 855 0.704056 0.710145 0.000000
-23.849768 -23.377846 -0.597659 885 0.704055 0.710145 0.000000
-23.847494 -23.375624 -0.587341 871 0.704056 0.710145 0.000000
-23.845905 -23.374062 -0.577046 861 0.704055 0.710145 0.000000
-23.846500 -23.374641 -0.566800 869 0.704055 0.710145 0.000000
-23.845057 -23.373226 -0.556513 865 0.704056 0.710145 0.000000
-23.844183 -23.372370 -0.546232 857 0.704056 0.710145 0.000000
-23.843946 -23.372145 -0.535974 871 0.704055 0.710145 0.000000
-23.844370 -23.372557 -0.525729 873 0.704056 0.710145 0.000000
-23.846375 -23.374523 -0.515510 881 0.704056 0.710145 0.000000
-23.845177 -23.373356 -0.505231 891 0.704056 0.710145 0.000000
-23.846390 -23.374538 -0.494999 873 0.704056 0.710145 0.000000
-23.848530 -23.376637 -0.484789 885 0.704056 0.710145 0.000000
-23.846336 -23.374493 -0.474489 873 0.704056 0.710145 0.000000
-23.845547 -23.373722 -0.464217 867 0.704056 0.710145 0.000000
-23.845182 -23.373363 -0.453950 857 0.704056 0.710145 0.000000
-23.844721 -23.372908 -0.443684 859 0.704056 0.710145 0.000000
-23.844286 -23.372488 -0.433428 835 0.704056 0.710145 0.000000
-23.845329 -23.373501 -0.423188 841 0.704056 0.710145 0.000000
-23.846985 -23.375124 -0.412962 853 0.704056 0.710145 0.000000
-23.847126 -23.375269 -0.402710 845 0.704056 0.710145 0.000000
-23.846430 -23.374590 -0.392436 855 0.704055 0.710145 0.000000
-23.846268 -23.374426 -0.382178 845 0.704056 0.710145 0.000000
-23.847441 -23.375576 -0.371946 855 0.704055 0.710145 0.000000
-23.847885 -23.376015 -0.361692 857 0.704055 0.710145 0.000000
-23.848070 -23.376202 -0.351440 865 0.704056 0.710145 0.000000
-23.848209 -23.376329 -0.341188 847 0.704056 0.710145 0.000000
-23.846506 -23.374657 -0.330904 839 0.704055 0.710145 0.000000
-23.844072 -23.372274 -0.320617 849 0.704056 0.710145 0.000000
-23.845650 -23.373829 -0.310382 825 0.704056 0.710145 0.000000
-23.848171 -23.376301 -0.300158 829 0.704056 0.710145 0.000000
-23.847260 -23.375401 -0.289896 843 0.704056 0.710145 0.000000
-23.846113 -23.374275 -0.279627 839 0.704056 0.710145 0.000000
-23.846756 -23.374910 -0.269370 819 0.704056 0.710145 0.000000
-23.848381 -23.376509 -0.259135 841 0.704056 0.710145 0.000000
-23.853388 -23.367104 -0.648869 849 0.704056 0.710145 0.000000
-23.851864 -23.365608 -0.638563 851 0.704055 0.710145 0.000000
-23.851952 -23.365694 -0.628312 849 0.704056 0.710145 0.000000
-23.852671 -23.366394 -0.618075 837 0.704055 0.710145 0.000000
-23.853067 -23.366795 -0.607821 845 0.704056 0.710145 0.000000
-23.853987 -23.367689 -0.597592 859 0.704056 0.710145 0.000000
-23.853374 -23.367096 -0.587317 859 0.704056 0.710145 0.000000
-23.853245 -23.366961 -0.577058 877 0.704056 0.710145 0.000000
-23.853792 -23.367502 -0.566813 851 0.704056 0.710145 0.000000
-23.853144 -23.366863 -0.556539 867 0.704055 0.710145 0.000000
-23.852262 -23.365999 -0.546257 877 0.704056 0.710145 0.000000
-23.853123 -23.366844 -0.536029 865 0.704056 0.710145 0.000000
-23.854336 -23.368042 -0.525797 861 0.704056 0.710145 0.000000
-23.855442 -23.369122 -0.515566 875 0.704056 0.710145 0.000000
-23.854404 -23.368101 -0.505286 871 0.704056 0.710145 0.000000
-23.853006 -23.366735 -0.494999 871 0.704056 0.710145 0.000000
-23.852070 -23.365814 -0.484717 889 0.704055 0.710145 0.000000
-23.854160 -23.367868 -0.474507 867 0.704056 0.710145 0.000000
-23.854948 -23.368641 -0.464260 865 0.704056 0.710145 0.000000
-23.855204 -23.368881 -0.454007 865 0.704056 0.710145 0.000000
-23.855034 -23.368727 -0.443748 853 0.704056 0.710145 0.000000
-23.854870 -23.368565 -0.433490 865 0.704056 0.710145 0.000000
-23.854662 -23.368361 -0.423231 859 0.704056 0.710145 0.000000
-23.854340 -23.368050 -0.412964 863 0.704056 0.710145 0.000000
-23.854479 -23.368181 -0.402713 833 0.704055 0.710145 0.000000
-23.853844 -23.367552 -0.392448 821 0.704056 0.710145 0.000000
-23.854403 -23.368103 -0.382203 859 0.704056 0.710145 0.000000
-23.857307 -23.370953 -0.371995 837 0.704055 0.710145 0.000000
-23.857643 -23.371286 -0.361741 835 0.704056 0.710145 0.000000
-23.856104 -23.369780 -0.351456 849 0.704056 0.710145 0.000000
-23.854147 -23.367863 -0.341174 855 0.704056 0.710145 0.000000
-23.852592 -23.366343 -0.330899 823 0.704056 0.710145 0.000000
-23.854664 -23.368368 -0.320669 841 0.704056 0.710145 0.000000
-23.856659 -23.370327 -0.310439 825 0.704056 0.710145 0.000000
-23.855221 -23.368917 -0.300163 813 0.704056 0.710145 0.000000
-23.854612 -23.368311 -0.289899 825 0.704056 0.710145 0.000000
-23.854048 -23.367769 -0.279634 843 0.704055 0.710145 0.000000
-23.854155 -23.367874 -0.269382 845 0.704055 0.710145 0.000000
-23.856304 -23.369980 -0.259152 853 0.704055 0.710145 0.000000
-23.860054 -23.359356 -0.648858 865 0.704056 0.710145 0.000000
-23.860834 -23.360123 -0.638620 855 0.704056 0.710145 0.000000
-23.861385 -23.360664 -0.628375 855 0.704056 0.710145 0.000000
-23.858702 -23.358032 -0.618050 861 0.704055 0.710145 0.000000
-23.860304 -23.359596 -0.607834 855 0.704056 0.710145 0.000000
-23.863457 -23.362694 -0.597654 849 0.704056 0.710145 0.000000
-23.861828 -23.361094 -0.587359 867 0.704056 0.710145 0.000000
-23.860071 -23.359375 -0.577056 861 0.704056 0.710145 0.000000
-23.859838 -23.359152 -0.566788 843 0.704055 0.710145 0.000000
-23.859335 -23.358648 -0.556522 851 0.704056 0.710145 0.000000
-23.859251 -23.358578 -0.546263 877 0.704056 0.710145 0.000000
-23.860048 -23.359356 -0.536025 861 0.704056 0.710145 0.000000
-23.860899 -23.360182 -0.525787 877 0.704056 0.710145 0.000000
-23.860390 -23.359684 -0.515521 885 0.704056 0.710145 0.000000
-23.858370 -23.357704 -0.505220 847 0.704055 0.710145 0.000000
-23.858833 -23.358164 -0.494976 819 0.704055 0.710145 0.000000
-23.859564 -23.358883 -0.484729 847 0.704055 0.710145 0.000000
-23.859978 -23.359289 -0.474484 859 0.704056 0.710145 0.000000
-23.861032 -23.360323 -0.464244 871 0.704055 0.710145 0.000000
-23.861294 -23.360584 -0.453991 853 0.704056 0.710145 0.000000
-23.860561 -23.359861 -0.443728 827 0.704056 0.710145 0.000000
-23.860189 -23.359495 -0.433461 841 0.704056 0.710145 0.000000
-23.859550 -23.358875 -0.423197 859 0.704055 0.710145 0.000000
-23.858759 -23.358089 -0.412925 835 0.704055 0.710145 0.000000
-23.860369 -23.359671 -0.402699 845 0.704056 0.710145 0.000000
-23.860971 -23.360262 -0.392453 849 0.704055 0.710145 0.000000
-23.860802 -23.360092 -0.382194 845 0.704055 0.710145 0.000000
-23.861515 -23.360798 -0.371947 857 0.704056 0.710145 0.000000
-23.861700 -23.360981 -0.361695 829 0.704056 0.710145 0.000000
-23.859743 -23.359070 -0.351414 809 0.704056 0.710145 0.000000
-23.859449 -23.358782 -0.341146 813 0.704056 0.710145 0.000000
-23.862465 -23.361721 -0.330937 819 0.704056 0.710145 0.000000
-23.863890 -23.363121 -0.320703 823 0.704056 0.710145 0.000000
-23.860609 -23.359907 -0.310405 841 0.704056 0.710145 0.000000
-23.859325 -23.358652 -0.300127 823 0.704055 0.710145 0.000000
-23.859852 -23.359177 -0.289881 819 0.704056 0.710145 0.000000
-23.859869 -23.359190 -0.279621 789 0.704056 0.710145 0.000000
-23.861927 -23.361204 -0.269391 803 0.704056 0.710145 0.000000
-23.864693 -23.363911 -0.259174 811 0.704056 0.710145 0.000000
-23.869482 -23.353483 -0.648915 865 0.704055 0.710145 0.000000
-23.869101 -23.353111 -0.638648 845 0.704056 0.710145 0.000000
-23.868359 -23.352379 -0.628365 859 0.704055 0.710145 0.000000
-23.869080 -23.353081 -0.618128 843 0.704056 0.710145 0.000000
-23.869635 -23.353628 -0.607882 855 0.704056 0.710145 0.000000
-23.868406 -23.352421 -0.597594 849 0.704056 0.710145 0.000000
-23.867085 -23.351135 -0.587306 847 0.704055 0.710145 0.000000
-23.867680 -23.351717 -0.577060 851 0.704056 0.710145 0.000000
-23.867748 -23.351788 -0.566809 859 0.704056 0.710145 0.000000
-23.868345 -23.352371 -0.556563 839 0.704056 0.710145 0.000000
-23.868477 -23.352497 -0.546302 841 0.704056 0.710145 0.000000
-23.868429 -23.352457 -0.536052 829 0.704056 0.710145 0.000000
-23.869024 -23.353039 -0.525806 845 0.704056 0.710145 0.000000
-23.868881 -23.352890 -0.515547 863 0.704056 0.710145 0.000000
-23.867426 -23.351465 -0.505251 841 0.704055 0.710145 0.000000
-23.865646 -23.349726 -0.494958 819 0.704056 0.710145 0.000000
-23.866545 -23.350603 -0.484719 827 0.704055 0.710145 0.000000
-23.868486 -23.352507 -0.474510 853 0.704055 0.710145 0.000000
-23.869631 -23.353632 -0.464269 853 0.704056 0.710145 0.000000
-23.870684 -23.354650 -0.454039 875 0.704055 0.710145 0.000000
-23.868269 -23.352299 -0.443731 857 0.704056 0.710145 0.000000
-23.866590 -23.350658 -0.433447 851 0.704056 0.710145 0.000000
-23.869354 -23.353359 -0.423241 849 0.704056 0.710145 0.000000
-23.869654 -23.353653 -0.412987 831 0.704055 0.710145 0.000000
-23.867754 -23.351799 -0.402695 825 0.704056 0.710145 0.000000
-23.869221 -23.353224 -0.392471 821 0.704056 0.710145 0.000000
-23.871233 -23.355198 -0.382242 853 0.704056 0.710145 0.000000
-23.869801 -23.353794 -0.371965 863 0.704056 0.710145 0.000000
-23.870190 -23.354172 -0.361711 843 0.704056 0.710145 0.000000
-23.869127 -23.353134 -0.351441 847 0.704056 0.710145 0.000000
-23.868626 -23.352644 -0.341176 851 0.704055 0.710145 0.000000
-23.869743 -23.353745 -0.330935 831 0.704056 0.710145 0.000000
-23.870190 -23.354176 -0.320690 839 0.704056 0.710145 0.000000
-23.869478 -23.353483 -0.310427 833 0.704056 0.710145 0.000000
-23.868397 -23.352427 -0.300157 803 0.704056 0.710145 0.000000
-23.870029 -23.354029 -0.289921 797 0.704055 0.710145 0.000000
-23.871088 -23.355055 -0.279671 821 0.704056 0.710145 0.000000
-23.870260 -23.354250 -0.269408 817 0.704055 0.710145 0.000000
-23.871058 -23.355030 -0.259160 815 0.704056 0.710145 0.000000
-23.874752 -23.343510 -0.648861 855 0.704056 0.710145 0.000000
-23.875006 -23.343752 -0.638609 827 0.704056 0.710145 0.000000
-23.875866 -23.344595 -0.628370 839 0.704056 0.710145 0.000000
-23.875441 -23.344185 -0.618104 855 0.704055 0.710145 0.000000
-23.874836 -23.343599 -0.607829 819 0.704055 0.710145 0.000000
-23.874344 -23.343115 -0.597554 827 0.704055 0.710145 0.000000
-23.874319 -23.343096 -0.587304 811 0.704055 0.710145 0.000000
-23.875395 -23.344135 -0.577064 835 0.704055 0.710145 0.000000
-23.876778 -23.345488 -0.566840 815 0.704056 0.710145 0.000000
-23.877577 -23.346268 -0.556602 823 0.704056 0.710145 0.000000
-23.877499 -23.346205 -0.546343 835 0.704055 0.710145 0.000000
-23.875675 -23.344414 -0.536050 823 0.704056 0.710145 0.000000
-23.875219 -23.343977 -0.525774 829 0.704055 0.710145 0.000000
-23.877275 -23.345976 -0.515564 849 0.704056 0.710145 0.000000
-23.876764 -23.345478 -0.505299 847 0.704056 0.710145 0.000000
-23.875204 -23.343950 -0.495003 839 0.704056 0.710145 0.000000
-23.876038 -23.344774 -0.484765 853 0.704055 0.710145 0.000000
-23.876621 -23.345345 -0.474519 863 0.704056 0.710145 0.000000
-23.876410 -23.345142 -0.464261 823 0.704055 0.710145 0.000000
-23.876928 -23.345646 -0.454016 815 0.704056 0.710145 0.000000
-23.877090 -23.345797 -0.443764 823 0.704056 0.710145 0.000000
-23.877083 -23.345791 -0.433504 831 0.704056 0.710145 0.000000
-23.877174 -23.345881 -0.423253 821 0.704056 0.710145 0.000000
-23.876944 -23.345663 -0.412985 825 0.704055 0.710145 0.000000
-23.876472 -23.345198 -0.402719 823 0.704056 0.710145 0.000000
-23.876034 -23.344774 -0.392463 831 0.704056 0.710145 0.000000
-23.874910 -23.343670 -0.382184 823 0.704055 0.710145 0.000000
-23.875685 -23.344429 -0.371946 827 0.704055 0.710145 0.000000
-23.878794 -23.347475 -0.361736 815 0.704056 0.710145 0.000000
-23.878052 -23.346745 -0.351463 835 0.704056 0.710145 0.000000
-23.877186 -23.345894 -0.341201 809 0.704056 0.710145 0.000000
-23.877680 -23.346378 -0.330946 831 0.704055 0.710145 0.000000
-23.877859 -23.346556 -0.320694 811 0.704056 0.710145 0.000000
-23.876451 -23.345182 -0.310417 813 0.704056 0.710145 0.000000
-23.876791 -23.345510 -0.300164 811 0.704056 0.710145 0.000000
-23.877171 -23.345884 -0.289920 791 0.704056 0.710145 0.000000
-23.877556 -23.346264 -0.279666 815 0.704056 0.710145 0.000000
-23.878611 -23.347298 -0.269426 835 0.704055 0.710145 0.000000
-23.878618 -23.347305 -0.259165 817 0.704056 0.710145 0.000000
-23.883575 -23.337311 -0.648903 823 0.704056 0.710145 0.000000
-23.883562 -23.337301 -0.638642 823 0.704056 0.710145 0.000000
-23.884111 -23.337843 -0.628397 817 0.704055 0.710145 0.000000
-23.882904 -23.336653 -0.618108 813 0.704055 0.710145 0.000000
-23.880568 -23.334379 -0.607790 809 0.704055 0.710145 0.000000
-23.883120 -23.336863 -0.597596 787 0.704056 0.710145 0.000000
-23.885489 -23.339178 -0.587403 797 0.704056 0.710145 0.000000
-23.882750 -23.336512 -0.577069 795 0.704055 0.710145 0.000000
-23.882919 -23.336668 -0.566817 817 0.704055 0.710145 0.000000
-23.884468 -23.338186 -0.556602 837 0.704056 0.710145 0.000000
-23.883701 -23.337437 -0.546319 831 0.704056 0.710145 0.000000
-23.881731 -23.335508 -0.536018 807 0.704056 0.710145 0.000000
-23.882372 -23.336143 -0.525781 827 0.704056 0.710145 0.000000
-23.882698 -23.336458 -0.515528 851 0.704056 0.710145 0.000000
-23.883549 -23.337296 -0.505289 845 0.704056 0.710145 0.000000
-23.884230 -23.337961 -0.495043 843 0.704056 0.710145 0.000000
-23.884708 -23.338419 -0.484798 867 0.704056 0.710145 0.000000
-23.883036 -23.336786 -0.474504 843 0.704056 0.710145 0.000000
-23.883186 -23.336939 -0.464252 851 0.704056 0.710145 0.000000
-23.883617 -23.337355 -0.454008 823 0.704056 0.710145 0.000000
-23.883860 -23.337599 -0.443755 825 0.704056 0.710145 0.000000
-23.886889 -23.340551 -0.433556 841 0.704056 0.710145 0.000000
-23.886621 -23.340300 -0.423288 833 0.704056 0.710145 0.000000
-23.884987 -23.338697 -0.413004 845 0.704056 0.710145 0.000000
-23.885035 -23.338753 -0.402753 807 0.704056 0.710145 0.000000
-23.884741 -23.338465 -0.392485 815 0.704055 0.710145 0.000000
-23.883682 -23.337425 -0.382215 815 0.704056 0.710145 0.000000
-23.884501 -23.338221 -0.371967 813 0.704056 0.710145 0.000000
-23.885004 -23.338713 -0.361722 813 0.704055 0.710145 0.000000
-23.883991 -23.337729 -0.351452 839 0.704055 0.710145 0.000000
-23.884272 -23.338003 -0.341199 801 0.704056 0.710145 0.000000
-23.884045 -23.337774 -0.330941 799 0.704056 0.710145 0.000000
-23.885733 -23.339436 -0.320704 813 0.704056 0.710145 0.000000
-23.887222 -23.340881 -0.310470 817 0.704056 0.710145 0.000000
-23.885715 -23.339411 -0.300194 815 0.704056 0.710145 0.000000
-23.883484 -23.337236 -0.289905 805 0.704056 0.710145 0.000000
-23.882702 -23.336472 -0.279642 801 0.704056 0.710145 0.000000
-23.883392 -23.337147 -0.269395 821 0.704056 0.710145 0.000000
-23.884031 -23.337767 -0.259149 817 0.704055 0.710145 0.000000
