774
-0.885961 -0.883444 -0.345479 1467 0.746816 0.665031 0.000000
-0.886092 -0.883582 -0.345118 1471 0.746816 0.665031 0.000000
-0.886064 -0.883547 -0.344698 1465 0.746816 0.665031 0.000000
-0.885939 -0.883425 -0.344229 1459 0.746816 0.665031 0.000000
-0.886005 -0.883500 -0.343849 1457 0.746816 0.665031 0.000000
-0.886141 -0.883631 -0.343477 1457 0.746816 0.665031 0.000000
-0.886663 -0.884147 -0.343272 1461 0.746816 0.665031 0.000000
-0.887039 -0.884524 -0.343009 1467 0.746816 0.665031 0.000000
-0.887175 -0.884655 -0.342638 1473 0.746816 0.665030 0.000000
-0.886740 -0.884230 -0.342062 1475 0.746816 0.665031 0.000000
-0.886212 -0.883696 -0.341447 1481 0.746816 0.665031 0.000000
-0.886137 -0.883625 -0.340997 1481 0.746816 0.665031 0.000000
-0.886406 -0.883895 -0.340695 1479 0.746816 0.665031 0.000000
-0.886633 -0.884120 -0.340363 1479 0.746816 0.665031 0.000000
-0.886657 -0.884151 -0.339962 1481 0.746816 0.665031 0.000000
-0.886481 -0.883964 -0.339484 1475 0.746816 0.665031 0.000000
-0.886200 -0.883684 -0.338957 1469 0.746816 0.665031 0.000000
-0.886224 -0.883714 -0.338557 1465 0.746816 0.665031 0.000000
-0.885901 -0.883389 -0.338020 1469 0.746816 0.665031 0.000000
-0.885917 -0.883414 -0.337619 1467 0.746816 0.665031 0.000000
-0.886194 -0.883690 -0.337307 1467 0.746816 0.665031 0.000000
-0.886117 -0.883605 -0.336868 1471 0.746816 0.665030 0.000000
-0.886245 -0.883729 -0.336496 1475 0.746816 0.665031 0.000000
-0.886071 -0.883556 -0.336018 1479 0.746816 0.665031 0.000000
-0.885783 -0.883270 -0.335501 1481 0.746816 0.665030 0.000000
-0.885905 -0.883402 -0.335140 1477 0.746816 0.665031 0.000000
-0.885731 -0.883229 -0.334661 1469 0.746816 0.665031 0.000000
-0.885294 -0.882790 -0.334085 1463 0.746816 0.665031 0.000000
-0.885670 -0.883168 -0.333812 1463 0.746816 0.665031 0.000000
-0.886348 -0.883843 -0.333655 1469 0.746816 0.665031 0.000000
-0.886116 -0.883613 -0.333157 1469 0.746816 0.665030 0.000000
-0.885547 -0.883035 -0.332523 1471 0.746816 0.665031 0.000000
-0.885662 -0.883160 -0.332162 1469 0.746816 0.665030 0.000000
-0.885881 -0.883380 -0.331830 1477 0.746816 0.665031 0.000000
-0.885501 -0.882998 -0.331283 1477 0.746816 0.665030 0.000000
-0.885369 -0.882870 -0.330815 1475 0.746816 0.665030 0.000000
-0.885497 -0.882994 -0.330453 1473 0.746816 0.665030 0.000000
-0.885315 -0.882815 -0.329975 1475 0.746816 0.665031 0.000000
-0.885648 -0.883134 -0.329682 1479 0.746816 0.665031 0.000000
-0.885966 -0.883455 -0.329399 1483 0.746816 0.665031 0.000000
-0.885735 -0.883226 -0.328901 1483 0.746816 0.665031 0.000000
-0.885503 -0.882996 -0.328403 1481 0.746816 0.665031 0.000000
-0.885829 -0.883323 -0.328110 1479 0.746816 0.665031 0.000000
-0.886761 -0.884244 -0.328041 1477 0.746816 0.665031 0.000000
-0.887087 -0.884571 -0.327758 1479 0.746816 0.665031 0.000000
-0.886897 -0.884386 -0.327280 1479 0.746816 0.665031 0.000000
-0.886567 -0.884055 -0.326743 1479 0.746816 0.665031 0.000000
-0.886484 -0.883978 -0.326304 1483 0.746816 0.665031 0.000000
-0.886359 -0.883856 -0.325845 1481 0.746816 0.665031 0.000000
-0.886183 -0.883669 -0.325367 1477 0.746816 0.665031 0.000000
-0.886248 -0.883744 -0.324976 1481 0.746816 0.665031 0.000000
-0.886721 -0.884210 -0.324741 1481 0.746816 0.665030 0.000000
-0.886737 -0.884234 -0.324341 1483 0.746816 0.665031 0.000000
-0.886456 -0.883954 -0.323824 1481 0.746816 0.665030 0.000000
-0.886683 -0.884179 -0.323502 1485 0.746816 0.665031 0.000000
-0.886754 -0.884246 -0.323111 1485 0.746816 0.665031 0.000000
-0.886375 -0.883865 -0.322565 1485 0.746816 0.665030 0.000000
-0.886037 -0.883528 -0.322028 1479 0.746816 0.665031 0.000000
-0.885855 -0.883349 -0.321550 1475 0.746816 0.665031 0.000000
-0.885623 -0.883119 -0.321062 1473 0.746816 0.665031 0.000000
-0.885483 -0.882985 -0.320603 1471 0.746816 0.665031 0.000000
-0.886211 -0.883710 -0.320456 1475 0.746816 0.665031 0.000000
-0.886839 -0.884334 -0.320270 1483 0.746816 0.665031 0.000000
-0.886147 -0.883636 -0.319617 1481 0.746816 0.665031 0.000000
-0.885515 -0.883008 -0.318973 1475 0.746816 0.665031 0.000000
-0.885734 -0.883227 -0.318641 1481 0.746816 0.665030 0.000000
-0.885700 -0.883201 -0.318221 1483 0.746816 0.665031 0.000000
-0.885412 -0.882915 -0.317714 1479 0.746816 0.665031 0.000000
-0.885793 -0.883284 -0.317440 1481 0.746816 0.665031 0.000000
-0.886726 -0.884219 -0.317361 1491 0.746816 0.665031 0.000000
-0.887037 -0.884534 -0.317068 1495 0.746816 0.665030 0.000000
-0.886460 -0.883949 -0.316444 1489 0.746816 0.665031 0.000000
-0.886220 -0.883713 -0.315956 1491 0.746816 0.665031 0.000000
-0.886129 -0.883630 -0.315517 1487 0.746816 0.665031 0.000000
-0.885953 -0.883443 -0.315039 1489 0.746816 0.665031 0.000000
-0.885870 -0.883366 -0.314599 1493 0.746816 0.665031 0.000000
-0.886139 -0.883636 -0.314287 1497 0.746816 0.665030 0.000000
-0.886309 -0.883805 -0.313945 1501 0.746816 0.665031 0.000000
-0.885922 -0.883417 -0.313399 1495 0.746816 0.665031 0.000000
-0.886092 -0.883586 -0.313047 1493 0.746816 0.665031 0.000000
-0.886262 -0.883754 -0.312696 1493 0.746816 0.665031 0.000000
-0.886277 -0.883779 -0.312295 1493 0.746816 0.665030 0.000000
-0.886102 -0.883592 -0.311827 1487 0.746816 0.665030 0.000000
-0.885961 -0.883458 -0.311368 1489 0.746816 0.665031 0.000000
-0.885680 -0.883178 -0.310861 1495 0.746816 0.665031 0.000000
-0.885342 -0.882841 -0.310334 1491 0.746816 0.665031 0.000000
-0.885710 -0.883212 -0.310051 1489 0.746816 0.665031 0.000000
-0.886125 -0.883621 -0.309797 1485 0.746816 0.665031 0.000000
-0.886451 -0.883948 -0.309494 1495 0.746816 0.665031 0.000000
-0.886572 -0.884066 -0.309132 1499 0.746816 0.665031 0.000000
-0.886432 -0.883932 -0.308674 1493 0.746816 0.665031 0.000000
-0.886094 -0.883595 -0.308147 1489 0.746816 0.665031 0.000000
-0.885813 -0.883314 -0.307640 1485 0.746816 0.665030 0.000000
-0.885876 -0.883375 -0.307259 1483 0.746816 0.665030 0.000000
-0.886095 -0.883595 -0.306927 1483 0.746816 0.665031 0.000000
-0.886167 -0.883662 -0.306546 1481 0.746816 0.665030 0.000000
-0.886279 -0.883774 -0.306175 1481 0.746816 0.665031 0.000000
-0.886449 -0.883942 -0.305824 1487 0.746816 0.665031 0.000000
-0.886309 -0.883808 -0.305365 1491 0.746816 0.665031 0.000000
-0.886281 -0.883774 -0.304955 1499 0.746816 0.665031 0.000000
-0.886550 -0.884044 -0.304633 1503 0.746816 0.665031 0.000000
-0.886311 -0.883809 -0.304145 1503 0.746816 0.665031 0.000000
-0.885210 -0.882706 -0.303356 1497 0.746816 0.665031 0.000000
-0.884921 -0.882420 -0.302858 1489 0.746816 0.665031 0.000000
-0.885698 -0.883195 -0.302711 1487 0.746816 0.665031 0.000000
-0.886123 -0.883624 -0.302457 1485 0.746816 0.665030 0.000000
-0.886129 -0.883628 -0.302047 1493 0.746816 0.665031 0.000000
-0.886046 -0.883551 -0.301617 1503 0.746816 0.665031 0.000000
-0.885813 -0.883308 -0.301130 1501 0.746816 0.665031 0.000000
-0.886024 -0.883521 -0.300798 1503 0.746816 0.665030 0.000000
-0.886194 -0.883689 -0.300446 1505 0.746816 0.665031 0.000000
-0.886004 -0.883505 -0.299978 1503 0.746816 0.665031 0.000000
-0.885716 -0.883218 -0.299471 1491 0.746816 0.665031 0.000000
-0.885836 -0.883336 -0.299099 1495 0.746816 0.665031 0.000000
-0.886155 -0.883657 -0.298806 1497 0.746816 0.665031 0.000000
-0.886718 -0.884218 -0.298591 1503 0.746816 0.665031 0.000000
-0.887143 -0.884646 -0.298327 1509 0.746816 0.665031 0.000000
-0.887058 -0.884555 -0.297888 1513 0.746816 0.665031 0.000000
-0.886107 -0.883019 -0.399422 1439 0.746816 0.665031 0.000000
-0.885893 -0.882816 -0.398904 1443 0.746816 0.665031 0.000000
-0.885776 -0.882700 -0.398435 1447 0.746816 0.665030 0.000000
-0.885920 -0.882836 -0.398074 1453 0.746816 0.665031 0.000000
-0.886304 -0.883220 -0.397820 1455 0.746816 0.665030 0.000000
-0.886498 -0.883407 -0.397478 1451 0.746816 0.665031 0.000000
-0.886438 -0.883348 -0.397029 1447 0.746816 0.665031 0.000000
-0.886569 -0.883486 -0.396667 1443 0.746816 0.665031 0.000000
-0.886903 -0.883819 -0.396394 1441 0.746816 0.665031 0.000000
-0.886885 -0.883805 -0.395964 1435 0.746816 0.665031 0.000000
-0.886727 -0.883645 -0.395466 1433 0.746816 0.665031 0.000000
-0.886618 -0.883535 -0.394997 1437 0.746816 0.665031 0.000000
-0.886452 -0.883368 -0.394498 1443 0.746816 0.665031 0.000000
-0.886737 -0.883651 -0.394206 1445 0.746816 0.665030 0.000000
-0.886972 -0.883882 -0.393883 1449 0.746816 0.665031 0.000000
-0.886905 -0.883817 -0.393434 1447 0.746816 0.665030 0.000000
-0.886697 -0.883606 -0.392916 1441 0.746816 0.665031 0.000000
-0.886483 -0.883403 -0.392398 1437 0.746816 0.665031 0.000000
-0.886760 -0.883679 -0.392105 1445 0.746816 0.665031 0.000000
-0.887201 -0.884120 -0.391871 1447 0.746816 0.665030 0.000000
-0.887436 -0.884352 -0.391559 1447 0.746816 0.665031 0.000000
-0.886827 -0.883742 -0.390865 1443 0.746816 0.665030 0.000000
-0.886316 -0.883234 -0.390220 1443 0.746816 0.665031 0.000000
-0.886397 -0.883321 -0.389829 1445 0.746816 0.665031 0.000000
-0.886534 -0.883452 -0.389467 1445 0.746816 0.665031 0.000000
-0.886565 -0.883488 -0.389067 1449 0.746816 0.665031 0.000000
-0.886399 -0.883321 -0.388569 1447 0.746816 0.665030 0.000000
-0.886387 -0.883299 -0.388139 1443 0.746816 0.665030 0.000000
-0.886468 -0.883387 -0.387758 1449 0.746816 0.665031 0.000000
-0.886508 -0.883429 -0.387348 1455 0.746816 0.665031 0.000000
-0.886440 -0.883364 -0.386898 1461 0.746816 0.665031 0.000000
-0.886225 -0.883147 -0.386380 1457 0.746816 0.665031 0.000000
-0.886312 -0.883226 -0.386000 1453 0.746816 0.665031 0.000000
-0.886597 -0.883509 -0.385707 1451 0.746816 0.665031 0.000000
-0.886325 -0.883248 -0.385169 1449 0.746816 0.665031 0.000000
-0.885920 -0.882834 -0.384563 1443 0.746816 0.665031 0.000000
-0.886050 -0.882972 -0.384202 1443 0.746816 0.665031 0.000000
-0.886729 -0.883647 -0.384076 1453 0.746816 0.665031 0.000000
-0.887464 -0.884378 -0.383978 1461 0.746816 0.665030 0.000000
-0.887298 -0.884212 -0.383480 1461 0.746816 0.665031 0.000000
-0.886978 -0.883901 -0.382923 1463 0.746816 0.665031 0.000000
-0.886819 -0.883740 -0.382435 1461 0.746816 0.665031 0.000000
-0.886005 -0.882921 -0.381662 1457 0.746816 0.665031 0.000000
-0.885536 -0.882458 -0.381037 1455 0.746816 0.665031 0.000000
-0.886018 -0.882944 -0.380822 1455 0.746816 0.665030 0.000000
-0.886204 -0.883124 -0.380480 1453 0.746816 0.665031 0.000000
-0.885939 -0.882856 -0.379953 1453 0.746816 0.665030 0.000000
-0.885666 -0.882582 -0.379416 1449 0.746816 0.665031 0.000000
-0.885403 -0.882328 -0.378878 1447 0.746816 0.665031 0.000000
-0.885490 -0.882407 -0.378497 1449 0.746816 0.665031 0.000000
-0.886267 -0.883184 -0.378410 1461 0.746816 0.665031 0.000000
-0.886651 -0.883568 -0.378156 1467 0.746816 0.665031 0.000000
-0.886132 -0.883053 -0.377511 1459 0.746816 0.665031 0.000000
-0.885762 -0.882692 -0.376945 1451 0.746816 0.665031 0.000000
-0.885596 -0.882525 -0.376446 1455 0.746816 0.665031 0.000000
-0.885873 -0.882801 -0.376154 1461 0.746816 0.665031 0.000000
-0.886609 -0.883533 -0.376046 1465 0.746816 0.665031 0.000000
-0.886943 -0.883866 -0.375763 1467 0.746816 0.665031 0.000000
-0.886670 -0.883592 -0.375226 1463 0.746816 0.665031 0.000000
-0.886011 -0.882932 -0.374532 1459 0.746816 0.665031 0.000000
-0.886035 -0.882962 -0.374122 1461 0.746816 0.665030 0.000000
-0.886262 -0.883188 -0.373800 1461 0.746816 0.665031 0.000000
-0.886195 -0.883123 -0.373350 1453 0.746816 0.665031 0.000000
-0.885979 -0.882905 -0.372842 1449 0.746816 0.665031 0.000000
-0.886215 -0.883137 -0.372520 1451 0.746816 0.665031 0.000000
-0.886351 -0.883267 -0.372159 1453 0.746816 0.665031 0.000000
-0.886284 -0.883202 -0.371710 1461 0.746816 0.665031 0.000000
-0.886750 -0.883675 -0.371495 1463 0.746816 0.665031 0.000000
-0.887190 -0.884102 -0.371261 1467 0.746816 0.665031 0.000000
-0.887270 -0.884190 -0.370870 1473 0.746816 0.665031 0.000000
-0.886907 -0.883820 -0.370304 1471 0.746816 0.665031 0.000000
-0.886685 -0.883610 -0.369786 1471 0.746816 0.665031 0.000000
-0.886412 -0.883336 -0.369258 1469 0.746816 0.665030 0.000000
-0.886238 -0.883164 -0.368770 1467 0.746816 0.665031 0.000000
-0.886366 -0.883288 -0.368409 1467 0.746816 0.665031 0.000000
-0.886610 -0.883525 -0.368086 1469 0.746816 0.665031 0.000000
-0.886386 -0.883302 -0.367568 1465 0.746816 0.665031 0.000000
-0.886410 -0.883332 -0.367168 1463 0.746816 0.665030 0.000000
-0.886744 -0.883665 -0.366885 1461 0.746816 0.665031 0.000000
-0.887078 -0.883999 -0.366612 1461 0.746816 0.665031 0.000000
-0.887157 -0.884072 -0.366221 1463 0.746816 0.665030 0.000000
-0.887181 -0.884102 -0.365821 1469 0.746816 0.665031 0.000000
-0.887064 -0.883987 -0.365352 1473 0.746816 0.665031 0.000000
-0.886700 -0.883617 -0.364785 1467 0.746816 0.665031 0.000000
-0.886823 -0.883749 -0.364414 1465 0.746816 0.665031 0.000000
-0.886803 -0.883721 -0.363984 1465 0.746816 0.665031 0.000000
-0.886777 -0.883700 -0.363565 1465 0.746816 0.665031 0.000000
-0.886702 -0.883629 -0.363115 1471 0.746816 0.665031 0.000000
-0.886486 -0.883412 -0.362607 1475 0.746816 0.665031 0.000000
-0.886411 -0.883341 -0.362168 1475 0.746816 0.665031 0.000000
-0.886646 -0.883572 -0.361836 1473 0.746816 0.665031 0.000000
-0.886676 -0.883595 -0.361436 1467 0.746816 0.665031 0.000000
-0.886348 -0.883278 -0.360889 1463 0.746816 0.665031 0.000000
-0.885730 -0.882662 -0.360215 1459 0.746816 0.665031 0.000000
-0.885612 -0.882532 -0.359746 1457 0.746816 0.665031 0.000000
-0.886185 -0.883113 -0.359570 1451 0.746816 0.665031 0.000000
-0.886863 -0.883788 -0.359434 1457 0.746816 0.665030 0.000000
-0.886598 -0.883520 -0.358906 1459 0.746816 0.665031 0.000000
-0.885720 -0.882652 -0.358135 1459 0.746816 0.665031 0.000000
-0.885799 -0.882725 -0.357754 1461 0.746816 0.665031 0.000000
-0.886937 -0.883855 -0.357793 1473 0.746816 0.665031 0.000000
-0.887565 -0.884479 -0.357627 1475 0.746816 0.665031 0.000000
-0.887737 -0.884661 -0.357285 1479 0.746816 0.665031 0.000000
-0.887725 -0.884639 -0.356865 1483 0.746816 0.665030 0.000000
-0.887389 -0.884316 -0.356318 1479 0.746816 0.665031 0.000000
-0.887215 -0.884143 -0.355830 1471 0.746816 0.665031 0.000000
-0.886794 -0.883717 -0.355244 1467 0.746816 0.665030 0.000000
-0.886422 -0.883341 -0.354678 1465 0.746816 0.665030 0.000000
-0.886052 -0.882980 -0.354111 1455 0.746816 0.665031 0.000000
-0.885969 -0.882902 -0.353662 1453 0.746816 0.665030 0.000000
-0.885745 -0.882679 -0.353154 1459 0.746816 0.665031 0.000000
-0.886127 -0.883049 -0.352891 1461 0.746816 0.665031 0.000000
-0.886659 -0.883585 -0.352695 1467 0.746816 0.665031 0.000000
-0.886829 -0.883754 -0.352344 1467 0.746816 0.665031 0.000000
-0.887262 -0.884188 -0.352100 1463 0.746816 0.665031 0.000000
-0.887234 -0.884154 -0.351680 1461 0.746816 0.665031 0.000000
-0.886963 -0.883894 -0.351152 1463 0.746816 0.665031 0.000000
-0.886894 -0.883815 -0.350713 1467 0.746816 0.665031 0.000000
-0.887270 -0.884193 -0.350439 1471 0.746816 0.665031 0.000000
-0.887292 -0.884209 -0.350039 1469 0.746816 0.665030 0.000000
-0.887125 -0.884043 -0.349561 1471 0.746816 0.665031 0.000000
-0.886943 -0.883864 -0.349073 1469 0.746816 0.665030 0.000000
-0.887123 -0.884053 -0.348731 1469 0.746816 0.665030 0.000000
-0.886997 -0.883917 -0.348262 1467 0.746816 0.665031 0.000000
-0.886718 -0.883651 -0.347745 1459 0.746816 0.665031 0.000000
-0.886797 -0.883724 -0.347354 1455 0.746816 0.665031 0.000000
-0.886475 -0.883399 -0.346817 1457 0.746816 0.665031 0.000000
-0.886243 -0.883169 -0.346309 1463 0.746816 0.665031 0.000000
-0.886267 -0.883200 -0.345909 1467 0.746816 0.665031 0.000000
-0.886346 -0.883273 -0.345518 1467 0.746816 0.665031 0.000000
-0.886369 -0.883303 -0.345118 1465 0.746816 0.665031 0.000000
-0.886300 -0.883224 -0.344679 1457 0.746816 0.665031 0.000000
-0.886168 -0.883096 -0.344210 1457 0.746816 0.665031 0.000000
-0.886543 -0.883474 -0.343946 1463 0.746816 0.665030 0.000000
-0.886870 -0.883801 -0.343653 1463 0.746816 0.665031 0.000000
-0.886899 -0.883824 -0.343253 1465 0.746816 0.665031 0.000000
-0.887127 -0.884049 -0.342931 1467 0.746816 0.665031 0.000000
-0.886945 -0.883870 -0.342442 1471 0.746816 0.665031 0.000000
-0.886573 -0.883495 -0.341886 1475 0.746816 0.665030 0.000000
-0.886688 -0.883621 -0.341515 1483 0.746816 0.665031 0.000000
-0.886865 -0.883795 -0.341173 1487 0.746816 0.665031 0.000000
-0.887445 -0.884368 -0.340978 1487 0.746816 0.665030 0.000000
-0.887722 -0.884645 -0.340675 1489 0.746816 0.665031 0.000000
-0.887188 -0.884118 -0.340060 1485 0.746816 0.665031 0.000000
-0.886717 -0.883641 -0.339465 1485 0.746816 0.665030 0.000000
-0.886535 -0.883462 -0.338976 1479 0.746816 0.665031 0.000000
-0.886460 -0.883391 -0.338537 1469 0.746816 0.665031 0.000000
-0.886221 -0.883156 -0.338039 1465 0.746816 0.665031 0.000000
-0.886201 -0.883127 -0.337619 1465 0.746816 0.665031 0.000000
-0.886175 -0.883107 -0.337190 1467 0.746816 0.665031 0.000000
-0.886205 -0.883130 -0.336789 1467 0.746816 0.665031 0.000000
-0.886213 -0.883148 -0.336389 1469 0.746816 0.665031 0.000000
-0.886292 -0.883221 -0.335999 1469 0.746816 0.665030 0.000000
-0.886019 -0.882947 -0.335481 1471 0.746816 0.665031 0.000000
-0.885936 -0.882870 -0.335042 1473 0.746816 0.665031 0.000000
-0.886367 -0.883290 -0.334788 1473 0.746816 0.665031 0.000000
-0.886531 -0.883467 -0.334446 1467 0.746816 0.665031 0.000000
-0.886462 -0.883388 -0.334007 1467 0.746816 0.665031 0.000000
-0.886428 -0.883361 -0.333577 1471 0.746816 0.665031 0.000000
-0.886246 -0.883183 -0.333099 1471 0.746816 0.665031 0.000000
-0.886070 -0.882996 -0.332621 1469 0.746816 0.665031 0.000000
-0.885987 -0.882919 -0.332181 1471 0.746816 0.665031 0.000000
-0.886272 -0.883201 -0.331869 1473 0.746816 0.665031 0.000000
-0.886491 -0.883421 -0.331547 1475 0.746816 0.665031 0.000000
-0.886161 -0.883090 -0.331010 1475 0.746816 0.665031 0.000000
-0.886226 -0.883165 -0.330629 1477 0.746816 0.665030 0.000000
-0.886501 -0.883427 -0.330316 1483 0.746816 0.665031 0.000000
-0.886525 -0.883457 -0.329916 1487 0.746816 0.665031 0.000000
-0.886596 -0.883525 -0.329525 1485 0.746816 0.665031 0.000000
-0.886315 -0.883244 -0.329008 1481 0.746816 0.665030 0.000000
-0.886444 -0.883368 -0.328647 1483 0.746816 0.665031 0.000000
-0.886261 -0.883189 -0.328169 1479 0.746816 0.665031 0.000000
-0.885973 -0.882903 -0.327651 1473 0.746816 0.665031 0.000000
-0.886447 -0.883382 -0.327417 1473 0.746816 0.665030 0.000000
-0.886625 -0.883557 -0.327075 1473 0.746816 0.665031 0.000000
-0.886394 -0.883328 -0.326577 1475 0.746816 0.665031 0.000000
-0.886874 -0.883799 -0.326343 1481 0.746816 0.665031 0.000000
-0.887291 -0.884222 -0.326079 1483 0.746816 0.665031 0.000000
-0.886764 -0.883688 -0.325474 1477 0.746816 0.665031 0.000000
-0.886681 -0.883610 -0.325034 1479 0.746816 0.665030 0.000000
-0.887408 -0.884336 -0.324898 1485 0.746816 0.665030 0.000000
-0.887825 -0.884758 -0.324633 1489 0.746816 0.665031 0.000000
-0.887855 -0.884781 -0.324233 1491 0.746816 0.665031 0.000000
-0.887157 -0.884090 -0.323570 1489 0.746816 0.665031 0.000000
-0.887032 -0.883968 -0.323111 1487 0.746816 0.665030 0.000000
-0.887153 -0.884086 -0.322750 1487 0.746816 0.665031 0.000000
-0.886463 -0.883402 -0.322087 1481 0.746816 0.665031 0.000000
-0.886133 -0.883070 -0.321550 1475 0.746816 0.665031 0.000000
-0.886204 -0.883138 -0.321169 1473 0.746816 0.665031 0.000000
-0.886473 -0.883408 -0.320856 1475 0.746816 0.665031 0.000000
-0.887052 -0.883981 -0.320661 1477 0.746816 0.665031 0.000000
-0.887222 -0.884149 -0.320309 1481 0.746816 0.665031 0.000000
-0.886589 -0.883522 -0.319665 1479 0.746816 0.665031 0.000000
-0.886301 -0.883235 -0.319158 1483 0.746816 0.665031 0.000000
-0.886265 -0.883195 -0.318738 1489 0.746816 0.665031 0.000000
-0.886289 -0.883225 -0.318338 1491 0.746816 0.665031 0.000000
-0.886154 -0.883083 -0.317879 1485 0.746816 0.665031 0.000000
-0.885923 -0.882854 -0.317382 1481 0.746816 0.665031 0.000000
-0.886340 -0.883276 -0.317128 1487 0.746816 0.665031 0.000000
-0.887166 -0.884103 -0.317010 1497 0.746816 0.665030 0.000000
-0.887089 -0.884018 -0.316570 1499 0.746816 0.665031 0.000000
-0.886751 -0.883681 -0.316044 1497 0.746816 0.665031 0.000000
-0.886413 -0.883344 -0.315517 1491 0.746816 0.665031 0.000000
-0.886437 -0.883374 -0.315117 1493 0.746816 0.665031 0.000000
-0.886698 -0.883638 -0.314804 1497 0.746816 0.665031 0.000000
-0.886826 -0.883762 -0.314433 1501 0.746816 0.665031 0.000000
-0.886840 -0.883772 -0.314033 1503 0.746816 0.665031 0.000000
-0.886461 -0.883391 -0.313486 1493 0.746816 0.665031 0.000000
-0.886370 -0.883307 -0.313047 1489 0.746816 0.665031 0.000000
-0.886490 -0.883425 -0.312676 1487 0.746816 0.665031 0.000000
-0.886710 -0.883645 -0.312344 1487 0.746816 0.665031 0.000000
-0.886625 -0.883554 -0.311915 1489 0.746816 0.665031 0.000000
-0.886451 -0.883381 -0.311436 1491 0.746816 0.665031 0.000000
-0.886310 -0.883247 -0.310978 1489 0.746816 0.665031 0.000000
-0.886275 -0.883206 -0.310558 1489 0.746816 0.665031 0.000000
-0.886093 -0.883028 -0.310090 1489 0.746816 0.665031 0.000000
-0.886051 -0.882995 -0.309670 1487 0.746816 0.665030 0.000000
-0.886474 -0.883410 -0.309406 1493 0.746816 0.665030 0.000000
-0.886545 -0.883477 -0.309025 1495 0.746816 0.665031 0.000000
-0.886765 -0.883696 -0.308693 1495 0.746816 0.665031 0.000000
-0.886674 -0.883613 -0.308254 1493 0.746816 0.665030 0.000000
-0.886138 -0.883073 -0.307659 1489 0.746816 0.665031 0.000000
-0.886203 -0.883148 -0.307279 1489 0.746816 0.665031 0.000000
-0.886373 -0.883316 -0.306927 1487 0.746816 0.665030 0.000000
-0.886387 -0.883327 -0.306527 1481 0.746816 0.665031 0.000000
-0.887065 -0.884001 -0.306350 1485 0.746816 0.665031 0.000000
-0.887079 -0.884011 -0.305950 1489 0.746816 0.665030 0.000000
-0.886798 -0.883731 -0.305443 1495 0.746816 0.665031 0.000000
-0.887215 -0.884154 -0.305179 1501 0.746816 0.665031 0.000000
-0.887229 -0.884164 -0.304779 1505 0.746816 0.665031 0.000000
-0.886743 -0.883675 -0.304203 1505 0.746816 0.665031 0.000000
-0.886292 -0.883238 -0.303638 1499 0.746816 0.665030 0.000000
-0.886011 -0.882958 -0.303130 1491 0.746816 0.665031 0.000000
-0.886336 -0.883271 -0.302837 1493 0.746816 0.665031 0.000000
-0.886350 -0.883281 -0.302437 1491 0.746816 0.665031 0.000000
-0.886110 -0.883045 -0.301950 1491 0.746816 0.665030 0.000000
-0.886280 -0.883214 -0.301598 1495 0.746816 0.665031 0.000000
-0.886442 -0.883377 -0.301246 1503 0.746816 0.665031 0.000000
-0.886409 -0.883350 -0.300827 1503 0.746816 0.665031 0.000000
-0.886423 -0.883360 -0.300426 1505 0.746816 0.665031 0.000000
-0.886233 -0.883176 -0.299958 1503 0.746816 0.665031 0.000000
-0.885436 -0.882384 -0.299276 1491 0.746816 0.665030 0.000000
-0.885244 -0.882185 -0.298808 1491 0.746816 0.665031 0.000000
-0.885472 -0.882410 -0.298476 1493 0.746816 0.665030 0.000000
-0.885430 -0.882378 -0.298056 1491 0.746816 0.665031 0.000000
-0.885903 -0.882843 -0.297811 1493 0.746816 0.665031 0.000000
-0.886630 -0.883568 -0.297654 1501 0.746816 0.665031 0.000000
-0.887069 -0.883446 -0.399745 1441 0.746816 0.665031 0.000000
-0.887059 -0.883437 -0.399305 1445 0.746816 0.665031 0.000000
-0.886851 -0.883226 -0.398787 1445 0.746816 0.665031 0.000000
-0.886643 -0.883015 -0.398269 1449 0.746816 0.665030 0.000000
-0.887167 -0.883545 -0.398084 1453 0.746816 0.665031 0.000000
-0.887402 -0.883777 -0.397772 1451 0.746816 0.665031 0.000000
-0.887153 -0.883521 -0.397234 1449 0.746816 0.665031 0.000000
-0.887382 -0.883760 -0.396912 1455 0.746816 0.665030 0.000000
-0.887717 -0.884094 -0.396639 1455 0.746816 0.665031 0.000000
-0.887311 -0.883679 -0.396033 1443 0.746816 0.665031 0.000000
-0.886743 -0.883114 -0.395358 1437 0.746816 0.665031 0.000000
-0.886488 -0.882866 -0.394821 1439 0.746816 0.665031 0.000000
-0.886625 -0.882996 -0.394459 1435 0.746816 0.665031 0.000000
-0.887107 -0.883482 -0.394245 1439 0.746816 0.665031 0.000000
-0.887342 -0.883714 -0.393932 1443 0.746816 0.665031 0.000000
-0.886931 -0.883307 -0.393326 1443 0.746816 0.665031 0.000000
-0.886765 -0.883141 -0.392828 1439 0.746816 0.665031 0.000000
-0.886854 -0.883234 -0.392447 1443 0.746816 0.665031 0.000000
-0.886737 -0.883118 -0.391968 1441 0.746816 0.665031 0.000000
-0.887071 -0.883451 -0.391695 1443 0.746816 0.665031 0.000000
-0.887158 -0.883531 -0.391314 1445 0.746816 0.665031 0.000000
-0.886992 -0.883364 -0.390816 1449 0.746816 0.665031 0.000000
-0.887073 -0.883451 -0.390435 1455 0.746816 0.665030 0.000000
-0.886865 -0.883240 -0.389917 1451 0.746816 0.665030 0.000000
-0.886445 -0.882828 -0.389311 1447 0.746816 0.665030 0.000000
-0.886090 -0.882464 -0.388734 1447 0.746816 0.665031 0.000000
-0.886220 -0.882602 -0.388373 1449 0.746816 0.665030 0.000000
-0.885963 -0.882340 -0.387836 1449 0.746816 0.665031 0.000000
-0.885945 -0.882326 -0.387406 1453 0.746816 0.665031 0.000000
-0.886279 -0.882659 -0.387133 1459 0.746816 0.665031 0.000000
-0.886663 -0.883043 -0.386879 1461 0.746816 0.665031 0.000000
-0.887390 -0.883768 -0.386772 1457 0.746816 0.665031 0.000000
-0.886781 -0.883159 -0.386088 1453 0.746816 0.665031 0.000000
-0.886263 -0.882645 -0.385443 1445 0.746816 0.665031 0.000000
-0.886449 -0.882826 -0.385101 1445 0.746816 0.665031 0.000000
-0.886684 -0.883057 -0.384779 1451 0.746816 0.665031 0.000000
-0.886822 -0.883202 -0.384417 1449 0.746816 0.665031 0.000000
-0.887254 -0.883622 -0.384183 1449 0.746816 0.665031 0.000000
-0.887637 -0.884006 -0.383929 1457 0.746816 0.665031 0.000000
-0.887267 -0.883644 -0.383353 1463 0.746816 0.665031 0.000000
-0.886854 -0.883224 -0.382747 1465 0.746816 0.665030 0.000000
-0.886632 -0.883015 -0.382239 1457 0.746816 0.665031 0.000000
-0.886276 -0.882651 -0.381662 1451 0.746816 0.665031 0.000000
-0.886110 -0.882484 -0.381164 1453 0.746816 0.665031 0.000000
-0.886232 -0.882616 -0.380803 1453 0.746816 0.665030 0.000000
-0.886476 -0.882854 -0.380480 1453 0.746816 0.665031 0.000000
-0.886458 -0.882840 -0.380061 1455 0.746816 0.665031 0.000000
-0.886333 -0.882718 -0.379582 1459 0.746816 0.665030 0.000000
-0.886329 -0.882702 -0.379162 1453 0.746816 0.665031 0.000000
-0.886149 -0.882537 -0.378664 1457 0.746816 0.665030 0.000000
-0.886335 -0.882718 -0.378332 1463 0.746816 0.665031 0.000000
-0.886661 -0.883045 -0.378049 1465 0.746816 0.665031 0.000000
-0.886305 -0.882682 -0.377472 1459 0.746816 0.665031 0.000000
-0.885836 -0.882218 -0.376857 1451 0.746816 0.665031 0.000000
-0.886064 -0.882444 -0.376534 1453 0.746816 0.665031 0.000000
-0.886546 -0.882929 -0.376320 1463 0.746816 0.665031 0.000000
-0.886429 -0.882814 -0.375851 1463 0.746816 0.665031 0.000000
-0.886263 -0.882647 -0.375362 1465 0.746816 0.665031 0.000000
-0.886350 -0.882726 -0.374972 1459 0.746816 0.665030 0.000000
-0.886374 -0.882757 -0.374571 1453 0.746816 0.665031 0.000000
-0.886411 -0.882785 -0.374161 1453 0.746816 0.665031 0.000000
-0.886443 -0.882822 -0.373761 1453 0.746816 0.665031 0.000000
-0.886065 -0.882454 -0.373184 1447 0.746816 0.665030 0.000000
-0.885849 -0.882237 -0.372676 1447 0.746816 0.665031 0.000000
-0.886338 -0.882714 -0.372462 1447 0.746816 0.665031 0.000000
-0.886714 -0.883092 -0.372198 1459 0.746816 0.665031 0.000000
-0.886498 -0.882875 -0.371690 1465 0.746816 0.665031 0.000000
-0.886381 -0.882759 -0.371221 1461 0.746816 0.665030 0.000000
-0.886462 -0.882846 -0.370840 1461 0.746816 0.665031 0.000000
-0.886690 -0.883072 -0.370518 1465 0.746816 0.665031 0.000000
-0.886876 -0.883253 -0.370176 1463 0.746816 0.665031 0.000000
-0.887054 -0.883428 -0.369835 1465 0.746816 0.665031 0.000000
-0.887036 -0.883413 -0.369405 1469 0.746816 0.665031 0.000000
-0.886869 -0.883247 -0.368916 1473 0.746816 0.665030 0.000000
-0.886943 -0.883328 -0.368536 1473 0.746816 0.665030 0.000000
-0.886768 -0.883155 -0.368047 1471 0.746816 0.665031 0.000000
-0.886757 -0.883133 -0.367617 1469 0.746816 0.665030 0.000000
-0.886788 -0.883170 -0.367207 1471 0.746816 0.665031 0.000000
-0.886810 -0.883186 -0.366807 1469 0.746816 0.665030 0.000000
-0.887391 -0.883773 -0.366631 1465 0.746816 0.665031 0.000000
-0.887880 -0.884251 -0.366407 1459 0.746816 0.665031 0.000000
-0.887763 -0.884135 -0.365948 1465 0.746816 0.665031 0.000000
-0.887377 -0.883761 -0.365371 1467 0.746816 0.665031 0.000000
-0.886612 -0.882993 -0.364639 1465 0.746816 0.665030 0.000000
-0.886242 -0.882631 -0.364062 1463 0.746816 0.665031 0.000000
-0.886469 -0.882857 -0.363740 1457 0.746816 0.665031 0.000000
-0.886746 -0.883133 -0.363437 1455 0.746816 0.665031 0.000000
-0.886882 -0.883263 -0.363076 1465 0.746816 0.665031 0.000000
-0.886857 -0.883243 -0.362646 1471 0.746816 0.665031 0.000000
-0.886894 -0.883272 -0.362246 1473 0.746816 0.665031 0.000000
-0.886910 -0.883296 -0.361836 1467 0.746816 0.665031 0.000000
-0.886645 -0.883028 -0.361318 1467 0.746816 0.665031 0.000000
-0.886471 -0.882855 -0.360830 1463 0.746816 0.665031 0.000000
-0.886501 -0.882877 -0.360420 1467 0.746816 0.665030 0.000000
-0.886532 -0.882914 -0.360019 1463 0.746816 0.665031 0.000000
-0.886605 -0.882995 -0.359629 1463 0.746816 0.665031 0.000000
-0.886783 -0.883170 -0.359287 1465 0.746816 0.665031 0.000000
-0.886969 -0.883351 -0.358945 1465 0.746816 0.665031 0.000000
-0.886999 -0.883373 -0.358535 1465 0.746816 0.665031 0.000000
-0.886923 -0.883302 -0.358096 1469 0.746816 0.665030 0.000000
-0.887101 -0.883477 -0.357754 1477 0.746816 0.665031 0.000000
-0.887436 -0.883810 -0.357471 1475 0.746816 0.665031 0.000000
-0.887410 -0.883790 -0.357041 1477 0.746816 0.665030 0.000000
-0.887129 -0.883510 -0.356514 1479 0.746816 0.665030 0.000000
-0.887111 -0.883495 -0.356094 1473 0.746816 0.665031 0.000000
-0.887190 -0.883569 -0.355703 1469 0.746816 0.665031 0.000000
-0.886862 -0.883251 -0.355156 1467 0.746816 0.665031 0.000000
-0.886589 -0.882977 -0.354639 1473 0.746816 0.665031 0.000000
-0.886668 -0.883051 -0.354248 1467 0.746816 0.665031 0.000000
-0.886346 -0.882726 -0.353701 1461 0.746816 0.665031 0.000000
-0.886122 -0.882502 -0.353203 1461 0.746816 0.665031 0.000000
-0.886498 -0.882880 -0.352940 1463 0.746816 0.665031 0.000000
-0.886873 -0.883258 -0.352666 1465 0.746816 0.665030 0.000000
-0.887158 -0.883540 -0.352363 1465 0.746816 0.665031 0.000000
-0.886877 -0.883260 -0.351846 1461 0.746816 0.665031 0.000000
-0.886703 -0.883087 -0.351358 1457 0.746816 0.665031 0.000000
-0.886832 -0.883211 -0.350996 1459 0.746816 0.665030 0.000000
-0.887207 -0.883589 -0.350733 1469 0.746816 0.665031 0.000000
-0.887542 -0.883922 -0.350439 1477 0.746816 0.665031 0.000000
-0.887112 -0.883490 -0.349864 1471 0.746816 0.665031 0.000000
-0.886636 -0.883020 -0.349258 1467 0.746816 0.665031 0.000000
-0.886560 -0.882949 -0.348809 1465 0.746816 0.665031 0.000000
-0.886887 -0.883276 -0.348526 1463 0.746816 0.665031 0.000000
-0.887015 -0.883400 -0.348164 1463 0.746816 0.665031 0.000000
-0.887045 -0.883423 -0.347754 1461 0.746816 0.665031 0.000000
-0.886912 -0.883295 -0.347295 1463 0.746816 0.665031 0.000000
-0.886837 -0.883224 -0.346846 1469 0.746816 0.665031 0.000000
-0.886867 -0.883246 -0.346446 1473 0.746816 0.665031 0.000000
-0.886890 -0.883277 -0.346046 1475 0.746816 0.665031 0.000000
-0.886766 -0.883155 -0.345577 1473 0.746816 0.665031 0.000000
-0.886386 -0.882773 -0.345020 1463 0.746816 0.665031 0.000000
-0.886410 -0.882803 -0.344610 1455 0.746816 0.665030 0.000000
-0.886291 -0.882674 -0.344151 1453 0.746816 0.665031 0.000000
-0.886406 -0.882799 -0.343790 1459 0.746816 0.665031 0.000000
-0.886584 -0.882974 -0.343439 1465 0.746816 0.665030 0.000000
-0.886508 -0.882903 -0.342999 1471 0.746816 0.665031 0.000000
-0.886481 -0.882869 -0.342579 1469 0.746816 0.665031 0.000000
-0.886356 -0.882747 -0.342111 1467 0.746816 0.665031 0.000000
-0.886584 -0.882972 -0.341788 1471 0.746816 0.665031 0.000000
-0.887212 -0.883596 -0.341612 1473 0.746816 0.665031 0.000000
-0.887990 -0.884372 -0.341505 1485 0.746816 0.665031 0.000000
-0.888767 -0.885148 -0.341387 1491 0.746816 0.665030 0.000000
-0.888296 -0.884671 -0.340792 1491 0.746816 0.665030 0.000000
-0.887509 -0.883899 -0.340079 1483 0.746816 0.665031 0.000000
-0.887228 -0.883619 -0.339562 1479 0.746816 0.665031 0.000000
-0.887054 -0.883446 -0.339074 1477 0.746816 0.665031 0.000000
-0.886977 -0.883361 -0.338635 1473 0.746816 0.665031 0.000000
-0.886704 -0.883087 -0.338117 1475 0.746816 0.665031 0.000000
-0.886728 -0.883117 -0.337717 1477 0.746816 0.665031 0.000000
-0.886700 -0.883083 -0.337287 1475 0.746816 0.665030 0.000000
-0.886158 -0.882550 -0.336672 1465 0.746816 0.665031 0.000000
-0.886237 -0.882624 -0.336292 1463 0.746816 0.665031 0.000000
-0.886465 -0.882849 -0.335959 1461 0.746816 0.665031 0.000000
-0.886184 -0.882569 -0.335442 1461 0.746816 0.665031 0.000000
-0.886051 -0.882441 -0.334983 1463 0.746816 0.665031 0.000000
-0.886130 -0.882514 -0.334603 1469 0.746816 0.665031 0.000000
-0.886407 -0.882790 -0.334290 1471 0.746816 0.665031 0.000000
-0.886627 -0.883010 -0.333968 1475 0.746816 0.665031 0.000000
-0.886445 -0.882831 -0.333480 1471 0.746816 0.665031 0.000000
-0.886114 -0.882500 -0.332943 1469 0.746816 0.665031 0.000000
-0.886245 -0.882638 -0.332582 1471 0.746816 0.665031 0.000000
-0.886561 -0.882945 -0.332289 1473 0.746816 0.665031 0.000000
-0.886585 -0.882976 -0.331888 1475 0.746816 0.665031 0.000000
-0.886705 -0.883093 -0.331527 1477 0.746816 0.665031 0.000000
-0.887089 -0.883477 -0.331253 1481 0.746816 0.665031 0.000000
-0.887358 -0.883748 -0.330941 1487 0.746816 0.665031 0.000000
-0.886921 -0.883309 -0.330375 1483 0.746816 0.665031 0.000000
-0.886747 -0.883136 -0.329897 1481 0.746816 0.665031 0.000000
-0.886974 -0.883362 -0.329564 1481 0.746816 0.665031 0.000000
-0.886891 -0.883285 -0.329125 1481 0.746816 0.665031 0.000000
-0.886814 -0.883199 -0.328686 1481 0.746816 0.665031 0.000000
-0.886780 -0.883173 -0.328266 1477 0.746816 0.665031 0.000000
-0.886549 -0.882944 -0.327768 1473 0.746816 0.665031 0.000000
-0.886161 -0.882556 -0.327212 1469 0.746816 0.665030 0.000000
-0.886037 -0.882434 -0.326753 1467 0.746816 0.665031 0.000000
-0.886256 -0.882653 -0.326421 1469 0.746816 0.665031 0.000000
-0.886582 -0.882980 -0.326138 1477 0.746816 0.665031 0.000000
-0.887104 -0.883496 -0.325913 1481 0.746816 0.665031 0.000000
-0.887184 -0.883570 -0.325532 1481 0.746816 0.665030 0.000000
-0.887255 -0.883637 -0.325152 1481 0.746816 0.665031 0.000000
-0.887271 -0.883661 -0.324741 1483 0.746816 0.665031 0.000000
-0.887694 -0.884076 -0.324487 1491 0.746816 0.665031 0.000000
-0.888069 -0.884453 -0.324214 1493 0.746816 0.665031 0.000000
-0.887280 -0.883667 -0.323511 1487 0.746816 0.665031 0.000000
-0.886950 -0.883336 -0.322984 1483 0.746816 0.665031 0.000000
-0.886669 -0.883056 -0.322467 1481 0.746816 0.665030 0.000000
-0.886487 -0.882877 -0.321989 1479 0.746816 0.665031 0.000000
-0.886756 -0.883148 -0.321686 1477 0.746816 0.665031 0.000000
-0.887025 -0.883418 -0.321374 1477 0.746816 0.665031 0.000000
-0.887047 -0.883434 -0.320964 1481 0.746816 0.665031 0.000000
-0.887324 -0.883710 -0.320661 1485 0.746816 0.665031 0.000000
-0.887543 -0.883930 -0.320329 1487 0.746816 0.665031 0.000000
-0.887353 -0.883745 -0.319850 1487 0.746816 0.665031 0.000000
-0.886762 -0.883162 -0.319226 1483 0.746816 0.665031 0.000000
-0.886234 -0.882628 -0.318621 1483 0.746816 0.665031 0.000000
-0.886151 -0.882551 -0.318192 1485 0.746816 0.665031 0.000000
-0.886370 -0.882770 -0.317860 1485 0.746816 0.665031 0.000000
-0.886335 -0.882730 -0.317440 1485 0.746816 0.665031 0.000000
-0.886513 -0.882904 -0.317089 1487 0.746816 0.665030 0.000000
-0.887183 -0.883573 -0.316922 1495 0.746816 0.665031 0.000000
-0.887254 -0.883640 -0.316541 1497 0.746816 0.665030 0.000000
-0.886819 -0.883215 -0.315976 1495 0.746816 0.665031 0.000000
-0.886333 -0.882726 -0.315390 1487 0.746816 0.665030 0.000000
-0.886701 -0.883098 -0.315117 1489 0.746816 0.665031 0.000000
-0.887428 -0.883823 -0.314960 1497 0.746816 0.665031 0.000000
-0.887302 -0.883687 -0.314501 1499 0.746816 0.665031 0.000000
-0.886612 -0.883002 -0.313848 1497 0.746816 0.665031 0.000000
-0.886062 -0.882464 -0.313253 1489 0.746816 0.665031 0.000000
-0.885830 -0.882235 -0.312755 1487 0.746816 0.665031 0.000000
-0.886352 -0.882751 -0.312540 1485 0.746816 0.665031 0.000000
-0.886932 -0.883324 -0.312334 1487 0.746816 0.665031 0.000000
-0.886849 -0.883246 -0.311895 1491 0.746816 0.665031 0.000000
-0.886609 -0.883011 -0.311397 1491 0.746816 0.665031 0.000000
-0.886426 -0.882818 -0.310929 1485 0.746816 0.665031 0.000000
-0.886596 -0.882987 -0.310578 1489 0.746816 0.665031 0.000000
-0.886716 -0.883105 -0.310216 1493 0.746816 0.665031 0.000000
-0.886633 -0.883027 -0.309777 1487 0.746816 0.665031 0.000000
-0.886598 -0.882987 -0.309358 1489 0.746816 0.665030 0.000000
-0.886408 -0.882802 -0.308879 1491 0.746816 0.665031 0.000000
-0.886374 -0.882776 -0.308460 1491 0.746816 0.665031 0.000000
-0.886495 -0.882894 -0.308098 1491 0.746816 0.665031 0.000000
-0.886517 -0.882910 -0.307698 1489 0.746816 0.665031 0.000000
-0.886728 -0.883123 -0.307366 1491 0.746816 0.665030 0.000000
-0.886849 -0.883241 -0.306995 1491 0.746816 0.665031 0.000000
-0.886511 -0.882904 -0.306468 1483 0.746816 0.665031 0.000000
-0.886469 -0.882872 -0.306049 1477 0.746816 0.665031 0.000000
-0.887147 -0.883546 -0.305882 1485 0.746816 0.665031 0.000000
-0.887317 -0.883715 -0.305530 1493 0.746816 0.665030 0.000000
-0.886922 -0.883321 -0.304984 1495 0.746816 0.665031 0.000000
-0.887198 -0.883597 -0.304672 1499 0.746816 0.665031 0.000000
-0.887064 -0.883455 -0.304213 1497 0.746816 0.665031 0.000000
-0.886677 -0.883067 -0.303677 1497 0.746816 0.665031 0.000000
-0.886734 -0.883136 -0.303286 1497 0.746816 0.665031 0.000000
-0.886607 -0.883000 -0.302837 1493 0.746816 0.665031 0.000000
-0.886269 -0.882663 -0.302311 1493 0.746816 0.665031 0.000000
-0.886228 -0.882631 -0.301891 1491 0.746816 0.665031 0.000000
-0.886439 -0.882844 -0.301559 1493 0.746816 0.665030 0.000000
-0.886510 -0.882911 -0.301178 1499 0.746816 0.665030 0.000000
-0.886829 -0.883232 -0.300885 1501 0.746816 0.665031 0.000000
-0.886538 -0.882932 -0.300378 1503 0.746816 0.665031 0.000000
-0.886095 -0.882501 -0.299822 1497 0.746816 0.665031 0.000000
-0.885502 -0.881904 -0.299208 1487 0.746816 0.665031 0.000000
-0.884953 -0.881366 -0.298623 1485 0.746816 0.665031 0.000000
-0.885024 -0.881433 -0.298232 1489 0.746816 0.665031 0.000000
-0.885348 -0.881746 -0.297939 1485 0.746816 0.665031 0.000000
-0.885306 -0.881713 -0.297520 1485 0.746816 0.665031 0.000000
-0.887146 -0.882988 -0.400077 1439 0.746816 0.665031 0.000000
-0.887285 -0.883132 -0.399716 1441 0.746816 0.665031 0.000000
-0.887668 -0.883516 -0.399472 1445 0.746816 0.665031 0.000000
-0.887664 -0.883500 -0.399042 1445 0.746816 0.665030 0.000000
-0.887302 -0.883144 -0.398456 1445 0.746816 0.665031 0.000000
-0.887383 -0.883232 -0.398065 1445 0.746816 0.665031 0.000000
-0.888273 -0.884108 -0.398046 1449 0.746816 0.665031 0.000000
-0.888305 -0.884144 -0.397636 1455 0.746816 0.665030 0.000000
-0.887599 -0.883447 -0.396893 1453 0.746816 0.665031 0.000000
-0.887334 -0.883179 -0.396355 1449 0.746816 0.665031 0.000000
-0.886971 -0.882823 -0.395769 1441 0.746816 0.665031 0.000000
-0.886263 -0.882112 -0.395025 1431 0.746816 0.665031 0.000000
-0.886146 -0.881996 -0.394547 1429 0.746816 0.665031 0.000000
-0.886587 -0.882437 -0.394322 1429 0.746816 0.665031 0.000000
-0.887175 -0.883016 -0.394167 1435 0.746816 0.665031 0.000000
-0.887460 -0.883299 -0.393864 1447 0.746816 0.665031 0.000000
-0.887442 -0.883285 -0.393434 1447 0.746816 0.665031 0.000000
-0.887374 -0.883220 -0.392985 1443 0.746816 0.665031 0.000000
-0.887167 -0.883008 -0.392467 1441 0.746816 0.665030 0.000000
-0.886953 -0.882805 -0.391949 1441 0.746816 0.665031 0.000000
-0.887287 -0.883138 -0.391675 1443 0.746816 0.665031 0.000000
-0.887718 -0.883559 -0.391441 1449 0.746816 0.665031 0.000000
-0.888052 -0.883892 -0.391168 1459 0.746816 0.665030 0.000000
-0.887894 -0.883732 -0.390680 1465 0.746816 0.665031 0.000000
-0.887172 -0.883022 -0.389936 1461 0.746816 0.665031 0.000000
-0.886620 -0.882470 -0.389272 1447 0.746816 0.665031 0.000000
-0.886151 -0.882006 -0.388646 1445 0.746816 0.665031 0.000000
-0.886092 -0.881947 -0.388197 1449 0.746816 0.665031 0.000000
-0.886418 -0.882275 -0.387924 1453 0.746816 0.665031 0.000000
-0.886351 -0.882210 -0.387474 1457 0.746816 0.665031 0.000000
-0.886545 -0.882397 -0.387132 1457 0.746816 0.665031 0.000000
-0.887526 -0.883368 -0.387143 1457 0.746816 0.665031 0.000000
-0.888058 -0.883904 -0.386948 1457 0.746816 0.665031 0.000000
-0.887589 -0.883441 -0.386322 1453 0.746816 0.665031 0.000000
-0.887134 -0.882976 -0.385707 1449 0.746816 0.665031 0.000000
-0.887264 -0.883114 -0.385336 1455 0.746816 0.665031 0.000000
-0.887697 -0.883549 -0.385111 1461 0.746816 0.665031 0.000000
-0.887784 -0.883628 -0.384720 1457 0.746816 0.665031 0.000000
-0.887717 -0.883563 -0.384271 1451 0.746816 0.665031 0.000000
-0.887551 -0.883396 -0.383783 1453 0.746816 0.665031 0.000000
-0.887434 -0.883281 -0.383304 1457 0.746816 0.665031 0.000000
-0.887620 -0.883461 -0.382962 1459 0.746816 0.665031 0.000000
-0.887250 -0.883100 -0.382386 1453 0.746816 0.665031 0.000000
-0.886888 -0.882744 -0.381809 1449 0.746816 0.665031 0.000000
-0.886722 -0.882577 -0.381321 1453 0.746816 0.665031 0.000000
-0.886547 -0.882405 -0.380822 1457 0.746816 0.665030 0.000000
-0.886832 -0.882687 -0.380530 1455 0.746816 0.665031 0.000000
-0.887117 -0.882970 -0.380227 1461 0.746816 0.665031 0.000000
-0.886901 -0.882752 -0.379719 1467 0.746816 0.665031 0.000000
-0.886883 -0.882738 -0.379289 1469 0.746816 0.665031 0.000000
-0.887273 -0.883114 -0.379035 1467 0.746816 0.665031 0.000000
-0.887150 -0.883006 -0.378566 1467 0.746816 0.665031 0.000000
-0.886984 -0.882840 -0.378068 1463 0.746816 0.665030 0.000000
-0.886711 -0.882565 -0.377541 1455 0.746816 0.665030 0.000000
-0.886347 -0.882196 -0.376964 1457 0.746816 0.665031 0.000000
-0.886175 -0.882037 -0.376466 1455 0.746816 0.665031 0.000000
-0.886163 -0.882015 -0.376046 1453 0.746816 0.665031 0.000000
-0.886293 -0.882153 -0.375685 1453 0.746816 0.665031 0.000000
-0.886078 -0.881936 -0.375167 1455 0.746816 0.665031 0.000000
-0.885854 -0.881712 -0.374659 1451 0.746816 0.665031 0.000000
-0.886090 -0.881944 -0.374337 1445 0.746816 0.665031 0.000000
-0.886374 -0.882226 -0.374034 1447 0.746816 0.665031 0.000000
-0.886503 -0.882350 -0.373673 1447 0.746816 0.665031 0.000000
-0.886633 -0.882488 -0.373311 1445 0.746816 0.665031 0.000000
-0.886368 -0.882220 -0.372784 1443 0.746816 0.665031 0.000000
-0.886301 -0.882155 -0.372334 1447 0.746816 0.665031 0.000000
-0.886734 -0.882590 -0.372100 1455 0.746816 0.665031 0.000000
-0.886863 -0.882714 -0.371729 1465 0.746816 0.665031 0.000000
-0.886894 -0.882750 -0.371329 1465 0.746816 0.665031 0.000000
-0.886874 -0.882722 -0.370899 1463 0.746816 0.665031 0.000000
-0.886898 -0.882753 -0.370499 1463 0.746816 0.665030 0.000000
-0.886740 -0.882592 -0.370010 1457 0.746816 0.665030 0.000000
-0.887016 -0.882868 -0.369708 1459 0.746816 0.665031 0.000000
-0.887645 -0.883492 -0.369551 1469 0.746816 0.665031 0.000000
-0.887677 -0.883529 -0.369141 1471 0.746816 0.665031 0.000000
-0.887208 -0.883065 -0.368536 1469 0.746816 0.665031 0.000000
-0.886787 -0.882639 -0.367940 1465 0.746816 0.665030 0.000000
-0.886720 -0.882574 -0.367490 1465 0.746816 0.665031 0.000000
-0.887145 -0.883003 -0.367246 1465 0.746816 0.665031 0.000000
-0.887281 -0.883133 -0.366885 1465 0.746816 0.665031 0.000000
-0.887255 -0.883112 -0.366465 1461 0.746816 0.665031 0.000000
-0.887235 -0.883084 -0.366035 1457 0.746816 0.665031 0.000000
-0.887218 -0.883070 -0.365615 1463 0.746816 0.665031 0.000000
-0.887044 -0.882897 -0.365127 1467 0.746816 0.665031 0.000000
-0.886624 -0.882485 -0.364531 1469 0.746816 0.665030 0.000000
-0.886450 -0.882312 -0.364043 1465 0.746816 0.665030 0.000000
-0.886381 -0.882233 -0.363594 1461 0.746816 0.665031 0.000000
-0.886962 -0.882820 -0.363418 1461 0.746816 0.665031 0.000000
-0.887443 -0.883291 -0.363203 1471 0.746816 0.665030 0.000000
-0.887170 -0.883017 -0.362666 1473 0.746816 0.665030 0.000000
-0.886750 -0.882605 -0.362080 1471 0.746816 0.665031 0.000000
-0.886879 -0.882729 -0.361719 1465 0.746816 0.665031 0.000000
-0.887114 -0.882960 -0.361396 1465 0.746816 0.665031 0.000000
-0.887237 -0.883092 -0.361025 1463 0.746816 0.665031 0.000000
-0.887013 -0.882869 -0.360527 1459 0.746816 0.665031 0.000000
-0.886839 -0.882696 -0.360039 1461 0.746816 0.665031 0.000000
-0.886918 -0.882769 -0.359648 1467 0.746816 0.665031 0.000000
-0.887049 -0.882908 -0.359287 1471 0.746816 0.665030 0.000000
-0.887579 -0.883430 -0.359082 1473 0.746816 0.665031 0.000000
-0.887707 -0.883554 -0.358721 1473 0.746816 0.665031 0.000000
-0.887337 -0.883192 -0.358154 1475 0.746816 0.665031 0.000000
-0.887114 -0.882969 -0.357646 1475 0.746816 0.665031 0.000000
-0.886940 -0.882796 -0.357158 1467 0.746816 0.665031 0.000000
-0.887224 -0.883078 -0.356865 1469 0.746816 0.665031 0.000000
-0.887394 -0.883247 -0.356514 1475 0.746816 0.665030 0.000000
-0.887072 -0.882922 -0.355967 1473 0.746816 0.665030 0.000000
-0.887357 -0.883205 -0.355664 1469 0.746816 0.665030 0.000000
-0.887430 -0.883286 -0.355283 1465 0.746816 0.665031 0.000000
-0.887355 -0.883215 -0.354834 1473 0.746816 0.665030 0.000000
-0.887434 -0.883288 -0.354453 1471 0.746816 0.665030 0.000000
-0.887111 -0.882963 -0.353906 1467 0.746816 0.665031 0.000000
-0.887036 -0.882892 -0.353457 1467 0.746816 0.665031 0.000000
-0.887412 -0.883270 -0.353193 1471 0.746816 0.665031 0.000000
-0.887598 -0.883450 -0.352852 1473 0.746816 0.665031 0.000000
-0.887317 -0.883170 -0.352324 1465 0.746816 0.665031 0.000000
-0.886791 -0.882650 -0.351699 1457 0.746816 0.665031 0.000000
-0.886370 -0.882224 -0.351123 1455 0.746816 0.665031 0.000000
-0.886393 -0.882254 -0.350713 1457 0.746816 0.665030 0.000000
-0.887170 -0.883030 -0.350605 1465 0.746816 0.665031 0.000000
-0.887447 -0.883306 -0.350303 1475 0.746816 0.665031 0.000000
-0.887125 -0.882981 -0.349756 1473 0.746816 0.665031 0.000000
-0.887050 -0.882910 -0.349317 1471 0.746816 0.665031 0.000000
-0.886777 -0.882636 -0.348789 1463 0.746816 0.665030 0.000000
-0.886856 -0.882709 -0.348409 1459 0.746816 0.665031 0.000000
-0.887330 -0.883189 -0.348184 1465 0.746816 0.665031 0.000000
-0.887099 -0.882959 -0.347676 1461 0.746816 0.665031 0.000000
-0.886925 -0.882787 -0.347198 1467 0.746816 0.665031 0.000000
-0.887356 -0.883207 -0.346954 1475 0.746816 0.665030 0.000000
-0.887231 -0.883085 -0.346485 1475 0.746816 0.665030 0.000000
-0.886909 -0.882760 -0.345948 1471 0.746816 0.665031 0.000000
-0.886925 -0.882785 -0.345538 1467 0.746816 0.665031 0.000000
-0.886899 -0.882764 -0.345118 1459 0.746816 0.665031 0.000000
-0.886978 -0.882838 -0.344737 1457 0.746816 0.665031 0.000000
-0.886845 -0.882710 -0.344269 1459 0.746816 0.665031 0.000000
-0.886474 -0.882334 -0.343712 1459 0.746816 0.665031 0.000000
-0.886193 -0.882054 -0.343185 1463 0.746816 0.665031 0.000000
-0.886576 -0.882438 -0.342921 1469 0.746816 0.665031 0.000000
-0.887255 -0.883112 -0.342775 1473 0.746816 0.665031 0.000000
-0.887227 -0.883078 -0.342345 1473 0.746816 0.665031 0.000000
-0.887152 -0.883007 -0.341906 1479 0.746816 0.665031 0.000000
-0.887626 -0.883486 -0.341671 1479 0.746816 0.665030 0.000000
-0.888057 -0.883907 -0.341427 1479 0.746816 0.665031 0.000000
-0.888285 -0.884132 -0.341105 1483 0.746816 0.665031 0.000000
-0.888152 -0.884004 -0.340636 1485 0.746816 0.665031 0.000000
-0.887780 -0.883628 -0.340079 1479 0.746816 0.665031 0.000000
-0.887648 -0.883501 -0.339611 1471 0.746816 0.665030 0.000000
-0.887770 -0.883632 -0.339249 1471 0.746816 0.665031 0.000000
-0.887701 -0.883553 -0.338810 1477 0.746816 0.665030 0.000000
-0.887110 -0.882970 -0.338176 1481 0.746816 0.665031 0.000000
-0.887189 -0.883044 -0.337785 1479 0.746816 0.665031 0.000000
-0.887114 -0.882973 -0.337346 1475 0.746816 0.665031 0.000000
-0.886677 -0.882534 -0.336770 1467 0.746816 0.665031 0.000000
-0.886750 -0.882615 -0.336389 1465 0.746816 0.665031 0.000000
-0.886829 -0.882688 -0.335999 1457 0.746816 0.665031 0.000000
-0.886647 -0.882509 -0.335520 1455 0.746816 0.665031 0.000000
-0.886473 -0.882337 -0.335042 1453 0.746816 0.665031 0.000000
-0.886742 -0.882607 -0.334729 1463 0.746816 0.665031 0.000000
-0.887011 -0.882877 -0.334427 1469 0.746816 0.665031 0.000000
-0.887287 -0.883154 -0.334114 1471 0.746816 0.665031 0.000000
-0.887268 -0.883125 -0.333694 1471 0.746816 0.665031 0.000000
-0.886937 -0.882794 -0.333157 1469 0.746816 0.665030 0.000000
-0.887108 -0.882963 -0.332816 1469 0.746816 0.665031 0.000000
-0.887434 -0.883290 -0.332523 1473 0.746816 0.665031 0.000000
