774
-9.575701 -9.242299 -0.529154 1141 0.722667 0.691196 0.000000
-9.574176 -9.240834 -0.524988 1127 0.722667 0.691196 0.000000
-9.574337 -9.240988 -0.520896 1131 0.722667 0.691196 0.000000
-9.574765 -9.241400 -0.516832 1127 0.722667 0.691196 0.000000
-9.573507 -9.240192 -0.512674 1121 0.722667 0.691196 0.000000
-9.573668 -9.240347 -0.508592 1119 0.722667 0.691196 0.000000
-9.574254 -9.240913 -0.504527 1139 0.722667 0.691196 0.000000
-9.574315 -9.240971 -0.500436 1123 0.722667 0.691196 0.000000
-9.574578 -9.241220 -0.496364 1117 0.722667 0.691196 0.000000
-9.574473 -9.241117 -0.492264 1117 0.722667 0.691196 0.000000
-9.574628 -9.241278 -0.488173 1125 0.722667 0.691196 0.000000
-9.574311 -9.240974 -0.484066 1121 0.722667 0.691196 0.000000
-9.573733 -9.240404 -0.479951 1111 0.722667 0.691196 0.000000
-9.574100 -9.240765 -0.475878 1129 0.722667 0.691196 0.000000
-9.574144 -9.240809 -0.471787 1131 0.722667 0.691196 0.000000
-9.574250 -9.240905 -0.467706 1117 0.722667 0.691196 0.000000
-9.574821 -9.241459 -0.463640 1121 0.722667 0.691196 0.000000
-9.575282 -9.241909 -0.459566 1123 0.722667 0.691196 0.000000
-9.575129 -9.241754 -0.455467 1123 0.722667 0.691196 0.000000
-9.575063 -9.241694 -0.451378 1133 0.722667 0.691196 0.000000
-9.574739 -9.241385 -0.447271 1125 0.722667 0.691196 0.000000
-9.573620 -9.240307 -0.443131 1105 0.722667 0.691196 0.000000
-9.573397 -9.240092 -0.439023 1117 0.722667 0.691196 0.000000
-9.573763 -9.240439 -0.434950 1113 0.722667 0.691196 0.000000
-9.574107 -9.240782 -0.430876 1117 0.722667 0.691196 0.000000
-9.574472 -9.241128 -0.426803 1121 0.722667 0.691196 0.000000
-9.574979 -9.241617 -0.422738 1129 0.722667 0.691196 0.000000
-9.574646 -9.241301 -0.418631 1125 0.722667 0.691196 0.000000
-9.573842 -9.240520 -0.414509 1125 0.722667 0.691196 0.000000
-9.573832 -9.240505 -0.410419 1129 0.722667 0.691196 0.000000
-9.573539 -9.240234 -0.406311 1119 0.722667 0.691196 0.000000
-9.573738 -9.240419 -0.402229 1109 0.722667 0.691196 0.000000
-9.574183 -9.240858 -0.398165 1105 0.722667 0.691196 0.000000
-9.574063 -9.240742 -0.394066 1109 0.722667 0.691196 0.000000
-9.574461 -9.241127 -0.389992 1119 0.722667 0.691196 0.000000
-9.574544 -9.241203 -0.385901 1139 0.722667 0.691196 0.000000
-9.574306 -9.240976 -0.381803 1123 0.722667 0.691196 0.000000
-9.574498 -9.241157 -0.377721 1103 0.722667 0.691196 0.000000
-9.574000 -9.240678 -0.373616 1105 0.722667 0.691196 0.000000
-9.573291 -9.239987 -0.369503 1109 0.722667 0.691196 0.000000
-9.573790 -9.240469 -0.365428 1123 0.722667 0.691196 0.000000
-9.573818 -9.240501 -0.361338 1123 0.722667 0.691196 0.000000
-9.572827 -9.239552 -0.357217 1107 0.722667 0.691196 0.000000
-9.573490 -9.240184 -0.353150 1109 0.722667 0.691196 0.000000
-9.573778 -9.240466 -0.349078 1119 0.722667 0.691196 0.000000
-9.573375 -9.240079 -0.344971 1109 0.722667 0.691196 0.000000
-9.573340 -9.240046 -0.340882 1095 0.722667 0.691196 0.000000
-9.573463 -9.240168 -0.336800 1101 0.722667 0.691196 0.000000
-9.573225 -9.239927 -0.332703 1109 0.722667 0.691196 0.000000
-9.573135 -9.239849 -0.328613 1107 0.722667 0.691196 0.000000
-9.573360 -9.240068 -0.324531 1107 0.722667 0.691196 0.000000
-9.573687 -9.240383 -0.320448 1107 0.722667 0.691196 0.000000
-9.573754 -9.240447 -0.316367 1119 0.722667 0.691196 0.000000
-9.573296 -9.240000 -0.312261 1101 0.722667 0.691196 0.000000
-9.573521 -9.240219 -0.308179 1113 0.722667 0.691196 0.000000
-9.573690 -9.240393 -0.304097 1113 0.722667 0.691196 0.000000
-9.573443 -9.240146 -0.300000 1111 0.722667 0.691196 0.000000
-9.579391 -9.239981 -0.688932 1107 0.722667 0.691196 0.000000
-9.579497 -9.240076 -0.684841 1111 0.722667 0.691196 0.000000
-9.579001 -9.239612 -0.680705 1113 0.722667 0.691196 0.000000
-9.578415 -9.239036 -0.676571 1117 0.722667 0.691196 0.000000
-9.577722 -9.238371 -0.672427 1107 0.722667 0.691196 0.000000
-9.577657 -9.238313 -0.668328 1105 0.722667 0.691196 0.000000
-9.577221 -9.237885 -0.664202 1101 0.722667 0.691196 0.000000
-9.577469 -9.238123 -0.660119 1089 0.722667 0.691196 0.000000
-9.578559 -9.239181 -0.656099 1113 0.722667 0.691196 0.000000
-9.579223 -9.239824 -0.652043 1115 0.722667 0.691196 0.000000
-9.578897 -9.239500 -0.647926 1115 0.722667 0.691196 0.000000
-9.578713 -9.239331 -0.643817 1137 0.722667 0.691196 0.000000
-9.579440 -9.240027 -0.639770 1113 0.722667 0.691196 0.000000
-9.580466 -9.241020 -0.635740 1131 0.722667 0.691196 0.000000
-9.580078 -9.240644 -0.631614 1131 0.722667 0.691196 0.000000
-9.579526 -9.240123 -0.627489 1123 0.722667 0.691196 0.000000
-9.578872 -9.239490 -0.623345 1113 0.722667 0.691196 0.000000
-9.578217 -9.238855 -0.619211 1107 0.722667 0.691196 0.000000
-9.578197 -9.238835 -0.615111 1107 0.722667 0.691196 0.000000
-9.578171 -9.238808 -0.611012 1119 0.722667 0.691196 0.000000
-9.578301 -9.238937 -0.606930 1131 0.722667 0.691196 0.000000
-9.578485 -9.239109 -0.602848 1125 0.722667 0.691196 0.000000
-9.577667 -9.238328 -0.598696 1111 0.722667 0.691196 0.000000
-9.578010 -9.238656 -0.594623 1107 0.722667 0.691196 0.000000
-9.579341 -9.239939 -0.590610 1129 0.722667 0.691196 0.000000
-9.579103 -9.239713 -0.586502 1117 0.722667 0.691196 0.000000
-9.578700 -9.239326 -0.582386 1117 0.722667 0.691196 0.000000
-9.578359 -9.238988 -0.578269 1117 0.722667 0.691196 0.000000
-9.578529 -9.239162 -0.574187 1117 0.722667 0.691196 0.000000
-9.578289 -9.238921 -0.570080 1107 0.722667 0.691196 0.000000
-9.578145 -9.238785 -0.565971 1115 0.722667 0.691196 0.000000
-9.577584 -9.238242 -0.561846 1113 0.722667 0.691196 0.000000
-9.577448 -9.238112 -0.557747 1131 0.722667 0.691196 0.000000
-9.577775 -9.238427 -0.553674 1135 0.722667 0.691196 0.000000
-9.577412 -9.238086 -0.549557 1119 0.722667 0.691196 0.000000
-9.577698 -9.238355 -0.545485 1137 0.722667 0.691196 0.000000
-9.577963 -9.238620 -0.541402 1131 0.722667 0.691196 0.000000
-9.577974 -9.238624 -0.537312 1113 0.722667 0.691196 0.000000
-9.578308 -9.238945 -0.533238 1121 0.722667 0.691196 0.000000
-9.577890 -9.238544 -0.529122 1117 0.722667 0.691196 0.000000
-9.577840 -9.238500 -0.525023 1131 0.722667 0.691196 0.000000
-9.577538 -9.238208 -0.520915 1131 0.722667 0.691196 0.000000
-9.577127 -9.237814 -0.516799 1115 0.722667 0.691196 0.000000
-9.577548 -9.238218 -0.512735 1131 0.722667 0.691196 0.000000
-9.578025 -9.238683 -0.508661 1111 0.722667 0.691196 0.000000
-9.577551 -9.238223 -0.504545 1113 0.722667 0.691196 0.000000
-9.576777 -9.237468 -0.500412 1105 0.722667 0.691196 0.000000
-9.576828 -9.237518 -0.496322 1121 0.722667 0.691196 0.000000
-9.576669 -9.237370 -0.492223 1137 0.722667 0.691196 0.000000
-9.576620 -9.237324 -0.488133 1119 0.722667 0.691196 0.000000
-9.576993 -9.237677 -0.484060 1113 0.722667 0.691196 0.000000
-9.577931 -9.238585 -0.480011 1121 0.722667 0.691196 0.000000
-9.578352 -9.238991 -0.475947 1135 0.722667 0.691196 0.000000
-9.577870 -9.238525 -0.471831 1117 0.722667 0.691196 0.000000
-9.578024 -9.238672 -0.467740 1139 0.722667 0.691196 0.000000
-9.578390 -9.239034 -0.463666 1129 0.722667 0.691196 0.000000
-9.578490 -9.239122 -0.459585 1133 0.722667 0.691196 0.000000
-9.577475 -9.238155 -0.455444 1121 0.722667 0.691196 0.000000
-9.576685 -9.237386 -0.451312 1119 0.722667 0.691196 0.000000
-9.576831 -9.237526 -0.447230 1117 0.722667 0.691196 0.000000
-9.577135 -9.237823 -0.443157 1103 0.722667 0.691196 0.000000
-9.577290 -9.237970 -0.439076 1117 0.722667 0.691196 0.000000
-9.577271 -9.237949 -0.434976 1141 0.722667 0.691196 0.000000
-9.577888 -9.238556 -0.430920 1137 0.722667 0.691196 0.000000
-9.577931 -9.238585 -0.426830 1125 0.722667 0.691196 0.000000
-9.577128 -9.237819 -0.422707 1107 0.722667 0.691196 0.000000
-9.576905 -9.237604 -0.418599 1117 0.722667 0.691196 0.000000
-9.576674 -9.237385 -0.414501 1113 0.722667 0.691196 0.000000
-9.577081 -9.237777 -0.410427 1121 0.722667 0.691196 0.000000
-9.577210 -9.237906 -0.406346 1111 0.722667 0.691196 0.000000
-9.576877 -9.237575 -0.402239 1111 0.722667 0.691196 0.000000
-9.576701 -9.237413 -0.398150 1125 0.722667 0.691196 0.000000
-9.577421 -9.238103 -0.394084 1109 0.722667 0.691196 0.000000
-9.577135 -9.237823 -0.389986 1105 0.722667 0.691196 0.000000
-9.576378 -9.237093 -0.385863 1109 0.722667 0.691196 0.000000
-9.576360 -9.237073 -0.381773 1103 0.722667 0.691196 0.000000
-9.576538 -9.237254 -0.377692 1103 0.722667 0.691196 0.000000
-9.576880 -9.237581 -0.373618 1101 0.722667 0.691196 0.000000
-9.576751 -9.237459 -0.369519 1101 0.722667 0.691196 0.000000
-9.576089 -9.236819 -0.365405 1111 0.722667 0.691196 0.000000
-9.575591 -9.236341 -0.361300 1107 0.722667 0.691196 0.000000
-9.576035 -9.236765 -0.357226 1099 0.722667 0.691196 0.000000
-9.577061 -9.237758 -0.353176 1107 0.722667 0.691196 0.000000
-9.577230 -9.237931 -0.349094 1109 0.722667 0.691196 0.000000
-9.576364 -9.237085 -0.344972 1113 0.722667 0.691196 0.000000
-9.576220 -9.236949 -0.340884 1105 0.722667 0.691196 0.000000
-9.576610 -9.237329 -0.336810 1111 0.722667 0.691196 0.000000
-9.576733 -9.237452 -0.332719 1107 0.722667 0.691196 0.000000
-9.577388 -9.238074 -0.328652 1113 0.722667 0.691196 0.000000
-9.576875 -9.237584 -0.324547 1091 0.722667 0.691196 0.000000
-9.576526 -9.237241 -0.320450 1101 0.722667 0.691196 0.000000
-9.576751 -9.237459 -0.316368 1109 0.722667 0.691196 0.000000
-9.576018 -9.236763 -0.312255 1099 0.722667 0.691196 0.000000
-9.575819 -9.236568 -0.308167 1103 0.722667 0.691196 0.000000
-9.575941 -9.236690 -0.304075 1107 0.722667 0.691196 0.000000
-9.575633 -9.236393 -0.299978 1091 0.722667 0.691196 0.000000
-9.582934 -9.237572 -0.688977 1123 0.722667 0.691196 0.000000
-9.582664 -9.237307 -0.684860 1111 0.722667 0.691196 0.000000
-9.581970 -9.236642 -0.680716 1109 0.722667 0.691196 0.000000
-9.581693 -9.236369 -0.676599 1105 0.722667 0.691196 0.000000
-9.581942 -9.236621 -0.672516 1105 0.722667 0.691196 0.000000
-9.581829 -9.236510 -0.668407 1123 0.722667 0.691196 0.000000
-9.581024 -9.235728 -0.664265 1107 0.722667 0.691196 0.000000
-9.580849 -9.235567 -0.660157 1113 0.722667 0.691196 0.000000
-9.580728 -9.235449 -0.656048 1107 0.722667 0.691196 0.000000
-9.581024 -9.235739 -0.651975 1125 0.722667 0.691196 0.000000
-9.581804 -9.236479 -0.647927 1123 0.722667 0.691196 0.000000
-9.581833 -9.236510 -0.643827 1109 0.722667 0.691196 0.000000
-9.581500 -9.236194 -0.639710 1107 0.722667 0.691196 0.000000
-9.581490 -9.236179 -0.635620 1111 0.722667 0.691196 0.000000
-9.581361 -9.236057 -0.631511 1123 0.722667 0.691196 0.000000
-9.581702 -9.236383 -0.627438 1133 0.722667 0.691196 0.000000
-9.581629 -9.236319 -0.623338 1133 0.722667 0.691196 0.000000
-9.581445 -9.236136 -0.619230 1119 0.722667 0.691196 0.000000
-9.581420 -9.236124 -0.615130 1115 0.722667 0.691196 0.000000
-9.581393 -9.236097 -0.611040 1125 0.722667 0.691196 0.000000
-9.581366 -9.236071 -0.606940 1123 0.722667 0.691196 0.000000
-9.580028 -9.234773 -0.602763 1103 0.722667 0.691196 0.000000
-9.580370 -9.235100 -0.598690 1105 0.722667 0.691196 0.000000
-9.581285 -9.235990 -0.594651 1103 0.722667 0.691196 0.000000
-9.581197 -9.235912 -0.590552 1101 0.722667 0.691196 0.000000
-9.580903 -9.235627 -0.586434 1107 0.722667 0.691196 0.000000
-9.580406 -9.235149 -0.582319 1109 0.722667 0.691196 0.000000
-9.580897 -9.235612 -0.578244 1109 0.722667 0.691196 0.000000
-9.581546 -9.236244 -0.574188 1117 0.722667 0.691196 0.000000
-9.580924 -9.235650 -0.570064 1109 0.722667 0.691196 0.000000
-9.581525 -9.236230 -0.566008 1129 0.722667 0.691196 0.000000
-9.581961 -9.236648 -0.561934 1117 0.722667 0.691196 0.000000
-9.581079 -9.235802 -0.557792 1119 0.722667 0.691196 0.000000
-9.580997 -9.235717 -0.553693 1125 0.722667 0.691196 0.000000
-9.581222 -9.235935 -0.549610 1131 0.722667 0.691196 0.000000
-9.580966 -9.235682 -0.545503 1129 0.722667 0.691196 0.000000
-9.581144 -9.235863 -0.541421 1137 0.722667 0.691196 0.000000
-9.580569 -9.235307 -0.537296 1127 0.722667 0.691196 0.000000
-9.580895 -9.235622 -0.533223 1107 0.722667 0.691196 0.000000
-9.581749 -9.236447 -0.529175 1151 0.722667 0.691196 0.000000
-9.580606 -9.235336 -0.525016 1125 0.722667 0.691196 0.000000
-9.580289 -9.235031 -0.520909 1111 0.722667 0.691196 0.000000
-9.580670 -9.235405 -0.516835 1121 0.722667 0.691196 0.000000
-9.581092 -9.235810 -0.512761 1107 0.722667 0.691196 0.000000
-9.581459 -9.236172 -0.508697 1119 0.722667 0.691196 0.000000
-9.581887 -9.236584 -0.504623 1141 0.722667 0.691196 0.000000
-9.581106 -9.235821 -0.500490 1131 0.722667 0.691196 0.000000
-9.579949 -9.234710 -0.496341 1129 0.722667 0.691196 0.000000
-9.580261 -9.235013 -0.492258 1115 0.722667 0.691196 0.000000
-9.580948 -9.235677 -0.488201 1115 0.722667 0.691196 0.000000
-9.581149 -9.235875 -0.484120 1121 0.722667 0.691196 0.000000
-9.581311 -9.236030 -0.480038 1117 0.722667 0.691196 0.000000
-9.580523 -9.235260 -0.475905 1109 0.722667 0.691196 0.000000
-9.580144 -9.234905 -0.471799 1127 0.722667 0.691196 0.000000
-9.580517 -9.235259 -0.467725 1141 0.722667 0.691196 0.000000
-9.579932 -9.234696 -0.463611 1107 0.722667 0.691196 0.000000
-9.579969 -9.234735 -0.459520 1105 0.722667 0.691196 0.000000
-9.580131 -9.234889 -0.455428 1119 0.722667 0.691196 0.000000
-9.579697 -9.234476 -0.451322 1107 0.722667 0.691196 0.000000
-9.580054 -9.234817 -0.447249 1111 0.722667 0.691196 0.000000
-9.580099 -9.234860 -0.443159 1111 0.722667 0.691196 0.000000
-9.580135 -9.234899 -0.439068 1117 0.722667 0.691196 0.000000
-9.579700 -9.234485 -0.434962 1115 0.722667 0.691196 0.000000
-9.579219 -9.234019 -0.430847 1109 0.722667 0.691196 0.000000
-9.579521 -9.234302 -0.426774 1095 0.722667 0.691196 0.000000
-9.580131 -9.234901 -0.422708 1105 0.722667 0.691196 0.000000
-9.580748 -9.235495 -0.418642 1125 0.722667 0.691196 0.000000
-9.580894 -9.235635 -0.414560 1125 0.722667 0.691196 0.000000
-9.580616 -9.235363 -0.410463 1121 0.722667 0.691196 0.000000
-9.579805 -9.234589 -0.406330 1101 0.722667 0.691196 0.000000
-9.579526 -9.234316 -0.402233 1129 0.722667 0.691196 0.000000
-9.579350 -9.234141 -0.398134 1119 0.722667 0.691196 0.000000
-9.579488 -9.234275 -0.394053 1099 0.722667 0.691196 0.000000
-9.580303 -9.235068 -0.389995 1113 0.722667 0.691196 0.000000
-9.580913 -9.235655 -0.385929 1123 0.722667 0.691196 0.000000
-9.580046 -9.234821 -0.381808 1121 0.722667 0.691196 0.000000
-9.579658 -9.234447 -0.377701 1121 0.722667 0.691196 0.000000
-9.580212 -9.234974 -0.373636 1113 0.722667 0.691196 0.000000
-9.580123 -9.234897 -0.369537 1095 0.722667 0.691196 0.000000
-9.580152 -9.234928 -0.365456 1105 0.722667 0.691196 0.000000
-9.579708 -9.234494 -0.361350 1111 0.722667 0.691196 0.000000
-9.579257 -9.234055 -0.357244 1115 0.722667 0.691196 0.000000
-9.579804 -9.234590 -0.353169 1111 0.722667 0.691196 0.000000
-9.580248 -9.235013 -0.349095 1103 0.722667 0.691196 0.000000
-9.580050 -9.234834 -0.345007 1111 0.722667 0.691196 0.000000
-9.579340 -9.234141 -0.340893 1101 0.722667 0.691196 0.000000
-9.579463 -9.234263 -0.336802 1109 0.722667 0.691196 0.000000
-9.579955 -9.234740 -0.332737 1103 0.722667 0.691196 0.000000
-9.579811 -9.234604 -0.328638 1113 0.722667 0.691196 0.000000
-9.579838 -9.234622 -0.324548 1107 0.722667 0.691196 0.000000
-9.579844 -9.234634 -0.320468 1115 0.722667 0.691196 0.000000
-9.579385 -9.234188 -0.316362 1107 0.722667 0.691196 0.000000
-9.579398 -9.234207 -0.312272 1099 0.722667 0.691196 0.000000
-9.579097 -9.233916 -0.308175 1089 0.722667 0.691196 0.000000
-9.579165 -9.233979 -0.304094 1099 0.722667 0.691196 0.000000
-9.579491 -9.234295 -0.300011 1109 0.722667 0.691196 0.000000
-9.584765 -9.233356 -0.688900 1105 0.722667 0.691196 0.000000
-9.584803 -9.233395 -0.684800 1111 0.722667 0.691196 0.000000
-9.584272 -9.232878 -0.680665 1103 0.722667 0.691196 0.000000
-9.583838 -9.232464 -0.676539 1103 0.722667 0.691196 0.000000
-9.583725 -9.232352 -0.672440 1107 0.722667 0.691196 0.000000
-9.583972 -9.232591 -0.668357 1097 0.722667 0.691196 0.000000
-9.584071 -9.232679 -0.664266 1095 0.722667 0.691196 0.000000
-9.583888 -9.232512 -0.660158 1099 0.722667 0.691196 0.000000
-9.583555 -9.232194 -0.656041 1097 0.722667 0.691196 0.000000
-9.583921 -9.232542 -0.651967 1107 0.722667 0.691196 0.000000
-9.584947 -9.233535 -0.647937 1109 0.722667 0.691196 0.000000
-9.585248 -9.233816 -0.643864 1097 0.722667 0.691196 0.000000
-9.585176 -9.233751 -0.639765 1113 0.722667 0.691196 0.000000
-9.585314 -9.233887 -0.635674 1125 0.722667 0.691196 0.000000
-9.584973 -9.233562 -0.631557 1115 0.722667 0.691196 0.000000
-9.584586 -9.233188 -0.627430 1123 0.722667 0.691196 0.000000
-9.584348 -9.232962 -0.623322 1117 0.722667 0.691196 0.000000
-9.584329 -9.232941 -0.619223 1117 0.722667 0.691196 0.000000
-9.583776 -9.232405 -0.615098 1119 0.722667 0.691196 0.000000
-9.583703 -9.232340 -0.610998 1115 0.722667 0.691196 0.000000
-9.583879 -9.232506 -0.606917 1111 0.722667 0.691196 0.000000
-9.583758 -9.232388 -0.602808 1103 0.722667 0.691196 0.000000
-9.583982 -9.232607 -0.598725 1103 0.722667 0.691196 0.000000
-9.584435 -9.233038 -0.594661 1097 0.722667 0.691196 0.000000
-9.584982 -9.233573 -0.590596 1109 0.722667 0.691196 0.000000
-9.584532 -9.233132 -0.586480 1111 0.722667 0.691196 0.000000
-9.584553 -9.233158 -0.582380 1111 0.722667 0.691196 0.000000
-9.584839 -9.233427 -0.578307 1117 0.722667 0.691196 0.000000
-9.584272 -9.232892 -0.574182 1111 0.722667 0.691196 0.000000
-9.583923 -9.232549 -0.570065 1105 0.722667 0.691196 0.000000
-9.583827 -9.232465 -0.565966 1129 0.722667 0.691196 0.000000
-9.584270 -9.232889 -0.561892 1131 0.722667 0.691196 0.000000
-9.583757 -9.232399 -0.557777 1119 0.722667 0.691196 0.000000
-9.583776 -9.232409 -0.553686 1103 0.722667 0.691196 0.000000
-9.584472 -9.233079 -0.549630 1115 0.722667 0.691196 0.000000
-9.583959 -9.232588 -0.545504 1127 0.722667 0.691196 0.000000
-9.583759 -9.232394 -0.541396 1135 0.722667 0.691196 0.000000
-9.584503 -9.233116 -0.537349 1133 0.722667 0.691196 0.000000
-9.584255 -9.232869 -0.533241 1103 0.722667 0.691196 0.000000
-9.583625 -9.232268 -0.529117 1107 0.722667 0.691196 0.000000
-9.583324 -9.231978 -0.525010 1107 0.722667 0.691196 0.000000
-9.582645 -9.231325 -0.520876 1111 0.722667 0.691196 0.000000
-9.582336 -9.231028 -0.516769 1105 0.722667 0.691196 0.000000
-9.583291 -9.231949 -0.512730 1111 0.722667 0.691196 0.000000
-9.584137 -9.232768 -0.508682 1121 0.722667 0.691196 0.000000
-9.584298 -9.232923 -0.504590 1133 0.722667 0.691196 0.000000
-9.584139 -9.232773 -0.500491 1129 0.722667 0.691196 0.000000
-9.583727 -9.232364 -0.496375 1123 0.722667 0.691196 0.000000
-9.583519 -9.232163 -0.492277 1121 0.722667 0.691196 0.000000
-9.583509 -9.232163 -0.488187 1115 0.722667 0.691196 0.000000
-9.583828 -9.232472 -0.484104 1119 0.722667 0.691196 0.000000
-9.583776 -9.232413 -0.480015 1133 0.722667 0.691196 0.000000
-9.582982 -9.231651 -0.475882 1131 0.722667 0.691196 0.000000
-9.582924 -9.231598 -0.471792 1135 0.722667 0.691196 0.000000
-9.583344 -9.232004 -0.467718 1121 0.722667 0.691196 0.000000
-9.582972 -9.231641 -0.463612 1107 0.722667 0.691196 0.000000
-9.583064 -9.231738 -0.459521 1113 0.722667 0.691196 0.000000
-9.583908 -9.232543 -0.455473 1131 0.722667 0.691196 0.000000
-9.583851 -9.232490 -0.451373 1125 0.722667 0.691196 0.000000
-9.583839 -9.232476 -0.447283 1109 0.722667 0.691196 0.000000
-9.584503 -9.233121 -0.443227 1117 0.722667 0.691196 0.000000
-9.584227 -9.232862 -0.439119 1119 0.722667 0.691196 0.000000
-9.583219 -9.231887 -0.434989 1103 0.722667 0.691196 0.000000
-9.583058 -9.231725 -0.430890 1107 0.722667 0.691196 0.000000
-9.583668 -9.232324 -0.426824 1119 0.722667 0.691196 0.000000
-9.583868 -9.232510 -0.422742 1109 0.722667 0.691196 0.000000
-9.583378 -9.232038 -0.418627 1091 0.722667 0.691196 0.000000
-9.583148 -9.231818 -0.414529 1113 0.722667 0.691196 0.000000
-9.582870 -9.231545 -0.410431 1115 0.722667 0.691196 0.000000
-9.583008 -9.231680 -0.406340 1111 0.722667 0.691196 0.000000
-9.583092 -9.231771 -0.402259 1123 0.722667 0.691196 0.000000
-9.582924 -9.231602 -0.398161 1119 0.722667 0.691196 0.000000
-9.582364 -9.231072 -0.394046 1109 0.722667 0.691196 0.000000
-9.582775 -9.231458 -0.389972 1113 0.722667 0.691196 0.000000
-9.583481 -9.232148 -0.385915 1107 0.722667 0.691196 0.000000
-9.583352 -9.232024 -0.381816 1115 0.722667 0.691196 0.000000
-9.583387 -9.232048 -0.377736 1113 0.722667 0.691196 0.000000
-9.583040 -9.231719 -0.373629 1103 0.722667 0.691196 0.000000
-9.582331 -9.231042 -0.369516 1123 0.722667 0.691196 0.000000
-9.582617 -9.231311 -0.365433 1129 0.722667 0.691196 0.000000
-9.583124 -9.231800 -0.361368 1121 0.722667 0.691196 0.000000
-9.583294 -9.231974 -0.357276 1129 0.722667 0.691196 0.000000
-9.582640 -9.231341 -0.353172 1117 0.722667 0.691196 0.000000
-9.582448 -9.231153 -0.349074 1105 0.722667 0.691196 0.000000
-9.583097 -9.231784 -0.345008 1115 0.722667 0.691196 0.000000
-9.583174 -9.231854 -0.340917 1101 0.722667 0.691196 0.000000
-9.582927 -9.231621 -0.336819 1105 0.722667 0.691196 0.000000
-9.582947 -9.231633 -0.332739 1103 0.722667 0.691196 0.000000
-9.583328 -9.232006 -0.328655 1119 0.722667 0.691196 0.000000
-9.582666 -9.231367 -0.324551 1113 0.722667 0.691196 0.000000
-9.582051 -9.230780 -0.320437 1095 0.722667 0.691196 0.000000
-9.582582 -9.231288 -0.316372 1107 0.722667 0.691196 0.000000
-9.582916 -9.231609 -0.312289 1111 0.722667 0.691196 0.000000
-9.583140 -9.231828 -0.308206 1103 0.722667 0.691196 0.000000
-9.583208 -9.231891 -0.304126 1109 0.722667 0.691196 0.000000
-9.583377 -9.232052 -0.300044 1117 0.722667 0.691196 0.000000
-9.587538 -9.230264 -0.688893 1089 0.722667 0.691196 0.000000
-9.588484 -9.231165 -0.684864 1109 0.722667 0.691196 0.000000
-9.589046 -9.231712 -0.680798 1101 0.722667 0.691196 0.000000
-9.588346 -9.231041 -0.676655 1099 0.722667 0.691196 0.000000
-9.587447 -9.230169 -0.672493 1093 0.722667 0.691196 0.000000
-9.587798 -9.230516 -0.668420 1097 0.722667 0.691196 0.000000
-9.588469 -9.231153 -0.664373 1131 0.722667 0.691196 0.000000
-9.588246 -9.230941 -0.660255 1117 0.722667 0.691196 0.000000
-9.587232 -9.229973 -0.656095 1119 0.722667 0.691196 0.000000
-9.586686 -9.229443 -0.651960 1095 0.722667 0.691196 0.000000
-9.587241 -9.229984 -0.647904 1109 0.722667 0.691196 0.000000
-9.587387 -9.230124 -0.643813 1099 0.722667 0.691196 0.000000
-9.587525 -9.230260 -0.639732 1107 0.722667 0.691196 0.000000
-9.587656 -9.230388 -0.635640 1113 0.722667 0.691196 0.000000
-9.587957 -9.230669 -0.631567 1111 0.722667 0.691196 0.000000
-9.588315 -9.231010 -0.627494 1129 0.722667 0.691196 0.000000
-9.587176 -9.229927 -0.623325 1103 0.722667 0.691196 0.000000
-9.586364 -9.229138 -0.619172 1099 0.722667 0.691196 0.000000
-9.587239 -9.229982 -0.615134 1119 0.722667 0.691196 0.000000
-9.587999 -9.230718 -0.611086 1123 0.722667 0.691196 0.000000
-9.587871 -9.230594 -0.606978 1115 0.722667 0.691196 0.000000
-9.587317 -9.230057 -0.602853 1115 0.722667 0.691196 0.000000
-9.587290 -9.230030 -0.598753 1113 0.722667 0.691196 0.000000
-9.587783 -9.230507 -0.594688 1111 0.722667 0.691196 0.000000
-9.588070 -9.230790 -0.590615 1119 0.722667 0.691196 0.000000
-9.587509 -9.230247 -0.586491 1123 0.722667 0.691196 0.000000
-9.587373 -9.230117 -0.582382 1105 0.722667 0.691196 0.000000
-9.587394 -9.230143 -0.578291 1113 0.722667 0.691196 0.000000
-9.586936 -9.229696 -0.574166 1117 0.722667 0.691196 0.000000
-9.587058 -9.229817 -0.570084 1113 0.722667 0.691196 0.000000
-9.587078 -9.229830 -0.565984 1131 0.722667 0.691196 0.000000
-9.586730 -9.229500 -0.561877 1119 0.722667 0.691196 0.000000
-9.586736 -9.229513 -0.557777 1101 0.722667 0.691196 0.000000
-9.586543 -9.229324 -0.553679 1109 0.722667 0.691196 0.000000
-9.586768 -9.229544 -0.549597 1137 0.722667 0.691196 0.000000
-9.586827 -9.229600 -0.545506 1131 0.722667 0.691196 0.000000
-9.586691 -9.229470 -0.541407 1135 0.722667 0.691196 0.000000
-9.587119 -9.229881 -0.537333 1123 0.722667 0.691196 0.000000
-9.587446 -9.230197 -0.533260 1133 0.722667 0.691196 0.000000
-9.587403 -9.230158 -0.529160 1133 0.722667 0.691196 0.000000
-9.586521 -9.229299 -0.525028 1115 0.722667 0.691196 0.000000
-9.585946 -9.228756 -0.520904 1105 0.722667 0.691196 0.000000
-9.586626 -9.229413 -0.516847 1129 0.722667 0.691196 0.000000
-9.586222 -9.229012 -0.512731 1105 0.722667 0.691196 0.000000
-9.586171 -9.228966 -0.508631 1103 0.722667 0.691196 0.000000
-9.586600 -9.229377 -0.504567 1119 0.722667 0.691196 0.000000
-9.586748 -9.229532 -0.500486 1113 0.722667 0.691196 0.000000
-9.586761 -9.229537 -0.496385 1105 0.722667 0.691196 0.000000
-9.586122 -9.228930 -0.492261 1097 0.722667 0.691196 0.000000
-9.586385 -9.229180 -0.488189 1099 0.722667 0.691196 0.000000
-9.586915 -9.229690 -0.484124 1099 0.722667 0.691196 0.000000
-9.586748 -9.229535 -0.480025 1111 0.722667 0.691196 0.000000
-9.587059 -9.229836 -0.475942 1131 0.722667 0.691196 0.000000
-9.587008 -9.229776 -0.471852 1117 0.722667 0.691196 0.000000
-9.586432 -9.229221 -0.467728 1103 0.722667 0.691196 0.000000
-9.585840 -9.228653 -0.463613 1097 0.722667 0.691196 0.000000
-9.585413 -9.228246 -0.459497 1119 0.722667 0.691196 0.000000
-9.585827 -9.228645 -0.455433 1121 0.722667 0.691196 0.000000
-9.586138 -9.228948 -0.451350 1099 0.722667 0.691196 0.000000
-9.586072 -9.228889 -0.447261 1111 0.722667 0.691196 0.000000
-9.586219 -9.229030 -0.443179 1115 0.722667 0.691196 0.000000
-9.586106 -9.228919 -0.439080 1119 0.722667 0.691196 0.000000
-9.586512 -9.229312 -0.435006 1119 0.722667 0.691196 0.000000
-9.587081 -9.229866 -0.430941 1139 0.722667 0.691196 0.000000
-9.586175 -9.228988 -0.426809 1109 0.722667 0.691196 0.000000
-9.585419 -9.228258 -0.422686 1089 0.722667 0.691196 0.000000
-9.585196 -9.228044 -0.418588 1083 0.722667 0.691196 0.000000
-9.585758 -9.228592 -0.414523 1095 0.722667 0.691196 0.000000
-9.586578 -9.229378 -0.410465 1109 0.722667 0.691196 0.000000
-9.586035 -9.228861 -0.406350 1113 0.722667 0.691196 0.000000
-9.585121 -9.227976 -0.402229 1111 0.722667 0.691196 0.000000
-9.585149 -9.228008 -0.398138 1121 0.722667 0.691196 0.000000
-9.585499 -9.228341 -0.394065 1125 0.722667 0.691196 0.000000
-9.585426 -9.228277 -0.389965 1107 0.722667 0.691196 0.000000
-9.585565 -9.228412 -0.385884 1115 0.722667 0.691196 0.000000
-9.585750 -9.228584 -0.381802 1105 0.722667 0.691196 0.000000
-9.585888 -9.228720 -0.377721 1119 0.722667 0.691196 0.000000
-9.585541 -9.228390 -0.373614 1119 0.722667 0.691196 0.000000
-9.585567 -9.228408 -0.369524 1091 0.722667 0.691196 0.000000
-9.586593 -9.229400 -0.365474 1113 0.722667 0.691196 0.000000
-9.587250 -9.230038 -0.361408 1125 0.722667 0.691196 0.000000
-9.586376 -9.229198 -0.357286 1117 0.722667 0.691196 0.000000
-9.585823 -9.228662 -0.353181 1109 0.722667 0.691196 0.000000
-9.585945 -9.228784 -0.349100 1103 0.722667 0.691196 0.000000
-9.585345 -9.228196 -0.344985 1095 0.722667 0.691196 0.000000
-9.584888 -9.227763 -0.340879 1107 0.722667 0.691196 0.000000
-9.585214 -9.228079 -0.336806 1107 0.722667 0.691196 0.000000
-9.585557 -9.228407 -0.332733 1113 0.722667 0.691196 0.000000
-9.585358 -9.228211 -0.328635 1113 0.722667 0.691196 0.000000
-9.585057 -9.227935 -0.324537 1103 0.722667 0.691196 0.000000
-9.585015 -9.227895 -0.320448 1093 0.722667 0.691196 0.000000
-9.585301 -9.228165 -0.316365 1099 0.722667 0.691196 0.000000
-9.585417 -9.228280 -0.312284 1103 0.722667 0.691196 0.000000
-9.585375 -9.228241 -0.308194 1095 0.722667 0.691196 0.000000
-9.585599 -9.228458 -0.304112 1103 0.722667 0.691196 0.000000
-9.585188 -9.228065 -0.300006 1091 0.722667 0.691196 0.000000
-9.590645 -9.227457 -0.688912 1111 0.722667 0.691196 0.000000
-9.590580 -9.227398 -0.684803 1091 0.722667 0.691196 0.000000
-9.589994 -9.226837 -0.680668 1085 0.722667 0.691196 0.000000
-9.589820 -9.226675 -0.676560 1089 0.722667 0.691196 0.000000
-9.590233 -9.227060 -0.672486 1099 0.722667 0.691196 0.000000
-9.590324 -9.227157 -0.668395 1091 0.722667 0.691196 0.000000
-9.590791 -9.227600 -0.664330 1113 0.722667 0.691196 0.000000
-9.590718 -9.227535 -0.660231 1113 0.722667 0.691196 0.000000
-9.590645 -9.227470 -0.656132 1115 0.722667 0.691196 0.000000
-9.591002 -9.227812 -0.652058 1117 0.722667 0.691196 0.000000
-9.590567 -9.227384 -0.647932 1105 0.722667 0.691196 0.000000
-9.590274 -9.227112 -0.643815 1097 0.722667 0.691196 0.000000
-9.590522 -9.227350 -0.639732 1097 0.722667 0.691196 0.000000
-9.590393 -9.227226 -0.635633 1093 0.722667 0.691196 0.000000
-9.590641 -9.227465 -0.631551 1113 0.722667 0.691196 0.000000
-9.590364 -9.227192 -0.627434 1111 0.722667 0.691196 0.000000
-9.590596 -9.227417 -0.623351 1123 0.722667 0.691196 0.000000
-9.590311 -9.227152 -0.619244 1117 0.722667 0.691196 0.000000
-9.590127 -9.226971 -0.615135 1117 0.722667 0.691196 0.000000
-9.590948 -9.227757 -0.611088 1117 0.722667 0.691196 0.000000
-9.590867 -9.227684 -0.606988 1105 0.722667 0.691196 0.000000
-9.590313 -9.227147 -0.602863 1113 0.722667 0.691196 0.000000
-9.589706 -9.226567 -0.598729 1103 0.722667 0.691196 0.000000
-9.590199 -9.227043 -0.594664 1103 0.722667 0.691196 0.000000
-9.590492 -9.227319 -0.590591 1105 0.722667 0.691196 0.000000
-9.589886 -9.226738 -0.586457 1099 0.722667 0.691196 0.000000
-9.589004 -9.225892 -0.582305 1089 0.722667 0.691196 0.000000
-9.588922 -9.225807 -0.578206 1119 0.722667 0.691196 0.000000
-9.589045 -9.225929 -0.574125 1099 0.722667 0.691196 0.000000
-9.589480 -9.226347 -0.570050 1109 0.722667 0.691196 0.000000
-9.590192 -9.227030 -0.566004 1107 0.722667 0.691196 0.000000
-9.590088 -9.226939 -0.561905 1105 0.722667 0.691196 0.000000
-9.590751 -9.227570 -0.557848 1115 0.722667 0.691196 0.000000
-9.590332 -9.227169 -0.553732 1115 0.722667 0.691196 0.000000
-9.589403 -9.226272 -0.549581 1113 0.722667 0.691196 0.000000
-9.589565 -9.226439 -0.545499 1123 0.722667 0.691196 0.000000
-9.589374 -9.226252 -0.541391 1117 0.722667 0.691196 0.000000
-9.589802 -9.226663 -0.537327 1137 0.722667 0.691196 0.000000
-9.590190 -9.227029 -0.533253 1143 0.722667 0.691196 0.000000
-9.589881 -9.226730 -0.529146 1123 0.722667 0.691196 0.000000
-9.589258 -9.226137 -0.525021 1113 0.722667 0.691196 0.000000
-9.589476 -9.226349 -0.520939 1119 0.722667 0.691196 0.000000
-9.589479 -9.226348 -0.516839 1115 0.722667 0.691196 0.000000
-9.589746 -9.226612 -0.512767 1125 0.722667 0.691196 0.000000
-9.589545 -9.226418 -0.508658 1117 0.722667 0.691196 0.000000
-9.589386 -9.226269 -0.504560 1107 0.722667 0.691196 0.000000
-9.589759 -9.226622 -0.500486 1111 0.722667 0.691196 0.000000
-9.589442 -9.226317 -0.496379 1107 0.722667 0.691196 0.000000
-9.589078 -9.225963 -0.492272 1097 0.722667 0.691196 0.000000
-9.589396 -9.226271 -0.488189 1103 0.722667 0.691196 0.000000
-9.589816 -9.226676 -0.484125 1105 0.722667 0.691196 0.000000
-9.589446 -9.226328 -0.480009 1115 0.722667 0.691196 0.000000
-9.589183 -9.226068 -0.475911 1119 0.722667 0.691196 0.000000
-9.589336 -9.226216 -0.471820 1101 0.722667 0.691196 0.000000
-9.589798 -9.226666 -0.467755 1101 0.722667 0.691196 0.000000
-9.590171 -9.227020 -0.463681 1121 0.722667 0.691196 0.000000
-9.589839 -9.226703 -0.459574 1125 0.722667 0.691196 0.000000
-9.589945 -9.226799 -0.455483 1123 0.722667 0.691196 0.000000
-9.590467 -9.227302 -0.451418 1129 0.722667 0.691196 0.000000
-9.590182 -9.227036 -0.447311 1125 0.722667 0.691196 0.000000
-9.589387 -9.226274 -0.443188 1119 0.722667 0.691196 0.000000
-9.589219 -9.226106 -0.439090 1119 0.722667 0.691196 0.000000
-9.588628 -9.225537 -0.434975 1113 0.722667 0.691196 0.000000
-9.587926 -9.224865 -0.430852 1107 0.722667 0.691196 0.000000
-9.588494 -9.225406 -0.426786 1107 0.722667 0.691196 0.000000
-9.588956 -9.225857 -0.422712 1105 0.722667 0.691196 0.000000
-9.588984 -9.225888 -0.418632 1105 0.722667 0.691196 0.000000
-9.589443 -9.226326 -0.414557 1109 0.722667 0.691196 0.000000
-9.589432 -9.226313 -0.410467 1125 0.722667 0.691196 0.000000
-9.588943 -9.225840 -0.406352 1121 0.722667 0.691196 0.000000
-9.589656 -9.226537 -0.402295 1125 0.722667 0.691196 0.000000
-9.590107 -9.226967 -0.398220 1137 0.722667 0.691196 0.000000
-9.589671 -9.226540 -0.394114 1135 0.722667 0.691196 0.000000
-9.589387 -9.226275 -0.390017 1127 0.722667 0.691196 0.000000
-9.589046 -9.225939 -0.385910 1119 0.722667 0.691196 0.000000
-9.589122 -9.226023 -0.381819 1115 0.722667 0.691196 0.000000
-9.589471 -9.226357 -0.377746 1115 0.722667 0.691196 0.000000
-9.588966 -9.225872 -0.373641 1103 0.722667 0.691196 0.000000
-9.588790 -9.225697 -0.369542 1105 0.722667 0.691196 0.000000
-9.589131 -9.226024 -0.365469 1105 0.722667 0.691196 0.000000
-9.589099 -9.226006 -0.361379 1115 0.722667 0.691196 0.000000
-9.588915 -9.225823 -0.357281 1107 0.722667 0.691196 0.000000
-9.588464 -9.225384 -0.353175 1099 0.722667 0.691196 0.000000
-9.588172 -9.225112 -0.349078 1103 0.722667 0.691196 0.000000
-9.588450 -9.225376 -0.344995 1115 0.722667 0.691196 0.000000
-9.589162 -9.226059 -0.340928 1113 0.722667 0.691196 0.000000
-9.589395 -9.226283 -0.336846 1099 0.722667 0.691196 0.000000
-9.588833 -9.225740 -0.332741 1099 0.722667 0.691196 0.000000
-9.588689 -9.225604 -0.328652 1103 0.722667 0.691196 0.000000
-9.588224 -9.225165 -0.324546 1099 0.722667 0.691196 0.000000
-9.587608 -9.224564 -0.320432 1097 0.722667 0.691196 0.000000
-9.587888 -9.224841 -0.316360 1103 0.722667 0.691196 0.000000
-9.588277 -9.225207 -0.312286 1105 0.722667 0.691196 0.000000
-9.588603 -9.225522 -0.308203 1103 0.722667 0.691196 0.000000
-9.588405 -9.225341 -0.304104 1087 0.722667 0.691196 0.000000
-9.588252 -9.225185 -0.300016 1069 0.722667 0.691196 0.000000
-9.593986 -9.224935 -0.688939 1101 0.722667 0.691196 0.000000
-9.594501 -9.225430 -0.684884 1107 0.722667 0.691196 0.000000
-9.593650 -9.224609 -0.680722 1095 0.722667 0.691196 0.000000
-9.593591 -9.224543 -0.676623 1083 0.722667 0.691196 0.000000
-9.593736 -9.224685 -0.672531 1095 0.722667 0.691196 0.000000
-9.593083 -9.224065 -0.668397 1097 0.722667 0.691196 0.000000
-9.593018 -9.224007 -0.664288 1103 0.722667 0.691196 0.000000
-9.593170 -9.224139 -0.660206 1101 0.722667 0.691196 0.000000
-9.593781 -9.224740 -0.656151 1105 0.722667 0.691196 0.000000
-9.594090 -9.225029 -0.652068 1109 0.722667 0.691196 0.000000
-9.594016 -9.224963 -0.647968 1115 0.722667 0.691196 0.000000
-9.594046 -9.224996 -0.643878 1105 0.722667 0.691196 0.000000
-9.593665 -9.224626 -0.639751 1101 0.722667 0.691196 0.000000
-9.593222 -9.224192 -0.635625 1107 0.722667 0.691196 0.000000
-9.592881 -9.223869 -0.631509 1113 0.722667 0.691196 0.000000
-9.592918 -9.223907 -0.627418 1097 0.722667 0.691196 0.000000
-9.593527 -9.224493 -0.623362 1105 0.722667 0.691196 0.000000
-9.593281 -9.224259 -0.619254 1101 0.722667 0.691196 0.000000
-9.593050 -9.224040 -0.615137 1105 0.722667 0.691196 0.000000
-9.592976 -9.223961 -0.611037 1103 0.722667 0.691196 0.000000
-9.593208 -9.224186 -0.606955 1117 0.722667 0.691196 0.000000
-9.592813 -9.223804 -0.602839 1111 0.722667 0.691196 0.000000
-9.592526 -9.223526 -0.598731 1099 0.722667 0.691196 0.000000
-9.592759 -9.223750 -0.594649 1085 0.722667 0.691196 0.000000
-9.592310 -9.223326 -0.590523 1095 0.722667 0.691196 0.000000
-9.591380 -9.222427 -0.586372 1079 0.722667 0.691196 0.000000
-9.592091 -9.223109 -0.582325 1101 0.722667 0.691196 0.000000
-9.592741 -9.223742 -0.578269 1101 0.722667 0.691196 0.000000
-9.592760 -9.223753 -0.574178 1105 0.722667 0.691196 0.000000
-9.593300 -9.224281 -0.570113 1113 0.722667 0.691196 0.000000
-9.592951 -9.223938 -0.565996 1121 0.722667 0.691196 0.000000
-9.592656 -9.223653 -0.561889 1111 0.722667 0.691196 0.000000
-9.593667 -9.224633 -0.557849 1111 0.722667 0.691196 0.000000
-9.593428 -9.224394 -0.553742 1121 0.722667 0.691196 0.000000
-9.592742 -9.223748 -0.549608 1109 0.722667 0.691196 0.000000
-9.592551 -9.223559 -0.545510 1125 0.722667 0.691196 0.000000
-9.592618 -9.223623 -0.541419 1127 0.722667 0.691196 0.000000
-9.593368 -9.224338 -0.537362 1131 0.722667 0.691196 0.000000
-9.593264 -9.224247 -0.533263 1127 0.722667 0.691196 0.000000
-9.593119 -9.224112 -0.529164 1105 0.722667 0.691196 0.000000
-9.593172 -9.224161 -0.525073 1113 0.722667 0.691196 0.000000
-9.592760 -9.223767 -0.520957 1115 0.722667 0.691196 0.000000
-9.592717 -9.223714 -0.516867 1115 0.722667 0.691196 0.000000
-9.592723 -9.223726 -0.512767 1111 0.722667 0.691196 0.000000
-9.592940 -9.223939 -0.508695 1097 0.722667 0.691196 0.000000
-9.592732 -9.223738 -0.504587 1101 0.722667 0.691196 0.000000
-9.592047 -9.223080 -0.500463 1097 0.722667 0.691196 0.000000
-9.592107 -9.223136 -0.496373 1107 0.722667 0.691196 0.000000
-9.592158 -9.223187 -0.492282 1115 0.722667 0.691196 0.000000
-9.592838 -9.223845 -0.488225 1117 0.722667 0.691196 0.000000
-9.592999 -9.223997 -0.484144 1107 0.722667 0.691196 0.000000
-9.592793 -9.223797 -0.480036 1107 0.722667 0.691196 0.000000
-9.593526 -9.224498 -0.475979 1111 0.722667 0.691196 0.000000
-9.593413 -9.224388 -0.471880 1111 0.722667 0.691196 0.000000
-9.592626 -9.223632 -0.467757 1103 0.722667 0.691196 0.000000
-9.593040 -9.224031 -0.463683 1127 0.722667 0.691196 0.000000
-9.592926 -9.223920 -0.459584 1127 0.722667 0.691196 0.000000
-9.592703 -9.223707 -0.455486 1123 0.722667 0.691196 0.000000
-9.592434 -9.223454 -0.451378 1115 0.722667 0.691196 0.000000
-9.592164 -9.223189 -0.447281 1109 0.722667 0.691196 0.000000
-9.592310 -9.223330 -0.443190 1107 0.722667 0.691196 0.000000
-9.592880 -9.223885 -0.439124 1109 0.722667 0.691196 0.000000
-9.592500 -9.223516 -0.435017 1111 0.722667 0.691196 0.000000
-9.591806 -9.222851 -0.430894 1123 0.722667 0.691196 0.000000
-9.592047 -9.223082 -0.426822 1127 0.722667 0.691196 0.000000
-9.591981 -9.223023 -0.422722 1113 0.722667 0.691196 0.000000
-9.591382 -9.222448 -0.418608 1101 0.722667 0.691196 0.000000
-9.591261 -9.222332 -0.414509 1111 0.722667 0.691196 0.000000
-9.591563 -9.222613 -0.410436 1099 0.722667 0.691196 0.000000
-9.591647 -9.222704 -0.406345 1101 0.722667 0.691196 0.000000
-9.591580 -9.222631 -0.402255 1107 0.722667 0.691196 0.000000
-9.592299 -9.223320 -0.398199 1107 0.722667 0.691196 0.000000
-9.592697 -9.223706 -0.394125 1111 0.722667 0.691196 0.000000
-9.592309 -9.223331 -0.390018 1115 0.722667 0.691196 0.000000
-9.591498 -9.222558 -0.385896 1113 0.722667 0.691196 0.000000
-9.591581 -9.222632 -0.381805 1101 0.722667 0.691196 0.000000
-9.592237 -9.223271 -0.377749 1119 0.722667 0.691196 0.000000
-9.592163 -9.223191 -0.373649 1107 0.722667 0.691196 0.000000
-9.592074 -9.223115 -0.369560 1117 0.722667 0.691196 0.000000
-9.591578 -9.222636 -0.365455 1117 0.722667 0.691196 0.000000
-9.590970 -9.222055 -0.361340 1103 0.722667 0.691196 0.000000
-9.591305 -9.222377 -0.357267 1093 0.722667 0.691196 0.000000
-9.591804 -9.222859 -0.353192 1097 0.722667 0.691196 0.000000
-9.591729 -9.222780 -0.349103 1105 0.722667 0.691196 0.000000
-9.591435 -9.222496 -0.345005 1099 0.722667 0.691196 0.000000
-9.592187 -9.223225 -0.340938 1115 0.722667 0.691196 0.000000
-9.593109 -9.224106 -0.336879 1119 0.722667 0.691196 0.000000
-9.592228 -9.223261 -0.332758 1119 0.722667 0.691196 0.000000
-9.591613 -9.222673 -0.328653 1107 0.722667 0.691196 0.000000
-9.592050 -9.223092 -0.324579 1109 0.722667 0.691196 0.000000
-9.592062 -9.223110 -0.320489 1109 0.722667 0.691196 0.000000
-9.591705 -9.222761 -0.316392 1109 0.722667 0.691196 0.000000
-9.591091 -9.222174 -0.312278 1095 0.722667 0.691196 0.000000
-9.591362 -9.222430 -0.308205 1119 0.722667 0.691196 0.000000
-9.591429 -9.222493 -0.304114 1107 0.722667 0.691196 0.000000
-9.590758 -9.221848 -0.300011 1109 0.722667 0.691196 0.000000
-9.597130 -9.222081 -0.688959 1111 0.722667 0.691196 0.000000
-9.597489 -9.222437 -0.684886 1109 0.722667 0.691196 0.000000
-9.597422 -9.222363 -0.680786 1109 0.722667 0.691196 0.000000
-9.596942 -9.221913 -0.676651 1099 0.722667 0.691196 0.000000
-9.596710 -9.221692 -0.672543 1097 0.722667 0.691196 0.000000
-9.596808 -9.221782 -0.668452 1099 0.722667 0.691196 0.000000
-9.596687 -9.221663 -0.664343 1103 0.722667 0.691196 0.000000
-9.595728 -9.220740 -0.660182 1095 0.722667 0.691196 0.000000
-9.595497 -9.220521 -0.656074 1095 0.722667 0.691196 0.000000
-9.596749 -9.221725 -0.652052 1115 0.722667 0.691196 0.000000
-9.597209 -9.222163 -0.647987 1117 0.722667 0.691196 0.000000
-9.596083 -9.221078 -0.643818 1091 0.722667 0.691196 0.000000
-9.595752 -9.220762 -0.639701 1093 0.722667 0.691196 0.000000
-9.595459 -9.220491 -0.635584 1095 0.722667 0.691196 0.000000
-9.595173 -9.220212 -0.631476 1093 0.722667 0.691196 0.000000
-9.595106 -9.220140 -0.627377 1097 0.722667 0.691196 0.000000
-9.594875 -9.219919 -0.623259 1095 0.722667 0.691196 0.000000
-9.595901 -9.220912 -0.619229 1103 0.722667 0.691196 0.000000
-9.595984 -9.220988 -0.615138 1117 0.722667 0.691196 0.000000
-9.595957 -9.220962 -0.611048 1115 0.722667 0.691196 0.000000
-9.596245 -9.221245 -0.606965 1107 0.722667 0.691196 0.000000
-9.596108 -9.221115 -0.602867 1117 0.722667 0.691196 0.000000
-9.596192 -9.221191 -0.598776 1119 0.722667 0.691196 0.000000
-9.595741 -9.220765 -0.594650 1109 0.722667 0.691196 0.000000
-9.595243 -9.220274 -0.590525 1091 0.722667 0.691196 0.000000
-9.595201 -9.220247 -0.586435 1087 0.722667 0.691196 0.000000
-9.595379 -9.220414 -0.582343 1091 0.722667 0.691196 0.000000
-9.595407 -9.220431 -0.578253 1103 0.722667 0.691196 0.000000
-9.595789 -9.220805 -0.574179 1111 0.722667 0.691196 0.000000
-9.596547 -9.221540 -0.570132 1119 0.722667 0.691196 0.000000
-9.596677 -9.221654 -0.566040 1109 0.722667 0.691196 0.000000
-9.596840 -9.221822 -0.561959 1113 0.722667 0.691196 0.000000
-9.596490 -9.221478 -0.557842 1101 0.722667 0.691196 0.000000
-9.595609 -9.220633 -0.553700 1101 0.722667 0.691196 0.000000
-9.594884 -9.219943 -0.549567 1101 0.722667 0.691196 0.000000
-9.595374 -9.220405 -0.545502 1101 0.722667 0.691196 0.000000
-9.596329 -9.221327 -0.541463 1107 0.722667 0.691196 0.000000
-9.596239 -9.221235 -0.537364 1103 0.722667 0.691196 0.000000
-9.596410 -9.221409 -0.533282 1125 0.722667 0.691196 0.000000
-9.596368 -9.221370 -0.529182 1119 0.722667 0.691196 0.000000
-9.595690 -9.220717 -0.525059 1109 0.722667 0.691196 0.000000
-9.594963 -9.220013 -0.520926 1101 0.722667 0.691196 0.000000
-9.594277 -9.219355 -0.516792 1101 0.722667 0.691196 0.000000
-9.594645 -9.219715 -0.512718 1093 0.722667 0.691196 0.000000
-9.594971 -9.220031 -0.508645 1103 0.722667 0.691196 0.000000
-9.594654 -9.219726 -0.504538 1103 0.722667 0.691196 0.000000
-9.595137 -9.220182 -0.500473 1109 0.722667 0.691196 0.000000
-9.595346 -9.220387 -0.496391 1095 0.722667 0.691196 0.000000
-9.595406 -9.220445 -0.492301 1115 0.722667 0.691196 0.000000
-9.595669 -9.220695 -0.488218 1127 0.722667 0.691196 0.000000
-9.595714 -9.220740 -0.484128 1113 0.722667 0.691196 0.000000
-9.594769 -9.219829 -0.479996 1105 0.722667 0.691196 0.000000
-9.594922 -9.219976 -0.475905 1123 0.722667 0.691196 0.000000
-9.595233 -9.220280 -0.471832 1117 0.722667 0.691196 0.000000
-9.594602 -9.219665 -0.467708 1103 0.722667 0.691196 0.000000
-9.594175 -9.219258 -0.463602 1105 0.722667 0.691196 0.000000
-9.594479 -9.219555 -0.459519 1099 0.722667 0.691196 0.000000
-9.595049 -9.220109 -0.455463 1117 0.722667 0.691196 0.000000
-9.594944 -9.220004 -0.451364 1103 0.722667 0.691196 0.000000
-9.594454 -9.219533 -0.447249 1093 0.722667 0.691196 0.000000
-9.594340 -9.219421 -0.443150 1097 0.722667 0.691196 0.000000
-9.594802 -9.219872 -0.439085 1113 0.722667 0.691196 0.000000
-9.594954 -9.220006 -0.435004 1095 0.722667 0.691196 0.000000
-9.594835 -9.219903 -0.430905 1103 0.722667 0.691196 0.000000
-9.594345 -9.219431 -0.426789 1107 0.722667 0.691196 0.000000
-9.594382 -9.219470 -0.422699 1097 0.722667 0.691196 0.000000
-9.594104 -9.219197 -0.418601 1097 0.722667 0.691196 0.000000
-9.594085 -9.219177 -0.414511 1099 0.722667 0.691196 0.000000
-9.594913 -9.219982 -0.410453 1107 0.722667 0.691196 0.000000
-9.594526 -9.219607 -0.406347 1093 0.722667 0.691196 0.000000
-9.594726 -9.219792 -0.402265 1121 0.722667 0.691196 0.000000
-9.595014 -9.220076 -0.398192 1117 0.722667 0.691196 0.000000
-9.594257 -9.219346 -0.394069 1105 0.722667 0.691196 0.000000
-9.594601 -9.219674 -0.389996 1099 0.722667 0.691196 0.000000
-9.594904 -9.219971 -0.385913 1101 0.722667 0.691196 0.000000
-9.594193 -9.219278 -0.381800 1103 0.722667 0.691196 0.000000
-9.593689 -9.218794 -0.377694 1099 0.722667 0.691196 0.000000
-9.594564 -9.219638 -0.373636 1105 0.722667 0.691196 0.000000
-9.595063 -9.220121 -0.369561 1125 0.722667 0.691196 0.000000
-9.594347 -9.219437 -0.365448 1101 0.722667 0.691196 0.000000
-9.594382 -9.219461 -0.361357 1105 0.722667 0.691196 0.000000
-9.594921 -9.219989 -0.357292 1093 0.722667 0.691196 0.000000
-9.594948 -9.220007 -0.353202 1097 0.722667 0.691196 0.000000
-9.594389 -9.219478 -0.349097 1111 0.722667 0.691196 0.000000
-9.593987 -9.219091 -0.344991 1099 0.722667 0.691196 0.000000
-9.594438 -9.219522 -0.340916 1101 0.722667 0.691196 0.000000
-9.594607 -9.219682 -0.336835 1099 0.722667 0.691196 0.000000
-9.594581 -9.219655 -0.332745 1115 0.722667 0.691196 0.000000
-9.595119 -9.220183 -0.328670 1107 0.722667 0.691196 0.000000
-9.595352 -9.220408 -0.324587 1099 0.722667 0.691196 0.000000
-9.595788 -9.220827 -0.320513 1115 0.722667 0.691196 0.000000
-9.595541 -9.220579 -0.316415 1123 0.722667 0.691196 0.000000
-9.594291 -9.219379 -0.312287 1093 0.722667 0.691196 0.000000
-9.594508 -9.219592 -0.308215 1089 0.722667 0.691196 0.000000
-9.594992 -9.220063 -0.304140 1097 0.722667 0.691196 0.000000
-9.595113 -9.220170 -0.300049 1109 0.722667 0.691196 0.000000
-9.599896 -9.218997 -0.688952 1109 0.722667 0.691196 0.000000
-9.599721 -9.218835 -0.684843 1101 0.722667 0.691196 0.000000
-9.599984 -9.219085 -0.680761 1107 0.722667 0.691196 0.000000
-9.599753 -9.218865 -0.676653 1109 0.722667 0.691196 0.000000
-9.599641 -9.218755 -0.672544 1109 0.722667 0.691196 0.000000
-9.599889 -9.218992 -0.668461 1127 0.722667 0.691196 0.000000
-9.599556 -9.218676 -0.664344 1105 0.722667 0.691196 0.000000
-9.599702 -9.218817 -0.660253 1099 0.722667 0.691196 0.000000
-9.600004 -9.219098 -0.656180 1095 0.722667 0.691196 0.000000
-9.600205 -9.219298 -0.652098 1097 0.722667 0.691196 0.000000
-9.600077 -9.219173 -0.647989 1095 0.722667 0.691196 0.000000
-9.599799 -9.218903 -0.643872 1083 0.722667 0.691196 0.000000
-9.599309 -9.218430 -0.639746 1089 0.722667 0.691196 0.000000
-9.598538 -9.217701 -0.635603 1081 0.722667 0.691196 0.000000
-9.598519 -9.217681 -0.631503 1095 0.722667 0.691196 0.000000
-9.598876 -9.218021 -0.627430 1105 0.722667 0.691196 0.000000
-9.599587 -9.218704 -0.623383 1097 0.722667 0.691196 0.000000
-9.600039 -9.219135 -0.619319 1097 0.722667 0.691196 0.000000
-9.599330 -9.218457 -0.615175 1089 0.722667 0.691196 0.000000
-9.598873 -9.218024 -0.611049 1093 0.722667 0.691196 0.000000
-9.598696 -9.217850 -0.606941 1089 0.722667 0.691196 0.000000
-9.598199 -9.217371 -0.602816 1097 0.722667 0.691196 0.000000
-9.598273 -9.217441 -0.598725 1097 0.722667 0.691196 0.000000
-9.599088 -9.218220 -0.594677 1101 0.722667 0.691196 0.000000
-9.599266 -9.218401 -0.590595 1095 0.722667 0.691196 0.000000
-9.599340 -9.218470 -0.586504 1099 0.722667 0.691196 0.000000
-9.598889 -9.218030 -0.582389 1105 0.722667 0.691196 0.000000
-9.598221 -9.217399 -0.578255 1109 0.722667 0.691196 0.000000
-9.598028 -9.217211 -0.574147 1103 0.722667 0.691196 0.000000
-9.598152 -9.217332 -0.570055 1103 0.722667 0.691196 0.000000
-9.598385 -9.217557 -0.565983 1101 0.722667 0.691196 0.000000
-9.598553 -9.217716 -0.561891 1095 0.722667 0.691196 0.000000
-9.598676 -9.217838 -0.557810 1097 0.722667 0.691196 0.000000
-9.598845 -9.217999 -0.553728 1093 0.722667 0.691196 0.000000
-9.598285 -9.217456 -0.549604 1089 0.722667 0.691196 0.000000
-9.598243 -9.217416 -0.545504 1097 0.722667 0.691196 0.000000
-9.598946 -9.218093 -0.541447 1097 0.722667 0.691196 0.000000
-9.599264 -9.218401 -0.537374 1109 0.722667 0.691196 0.000000
-9.598335 -9.217504 -0.533233 1109 0.722667 0.691196 0.000000
-9.598135 -9.217308 -0.529125 1133 0.722667 0.691196 0.000000
-9.599036 -9.218185 -0.525076 1125 0.722667 0.691196 0.000000
-9.598302 -9.217475 -0.520953 1089 0.722667 0.691196 0.000000
-9.597836 -9.217023 -0.516827 1095 0.722667 0.691196 0.000000
-9.598791 -9.217944 -0.512788 1109 0.722667 0.691196 0.000000
-9.599172 -9.218303 -0.508714 1097 0.722667 0.691196 0.000000
