550
-16.853077 -16.156092 -0.666727 299 0.697975 0.716122 0.000000
-16.854071 -16.157043 -0.659588 313 0.697975 0.716122 0.000000
-16.854380 -16.157330 -0.652425 309 0.697975 0.716122 0.000000
-16.854042 -16.157015 -0.645238 291 0.697975 0.716122 0.000000
-16.854025 -16.156992 -0.638068 307 0.697975 0.716122 0.000000
-16.853479 -16.156477 -0.630863 273 0.697975 0.716122 0.000000
-16.853670 -16.156654 -0.623701 315 0.697975 0.716122 0.000000
-16.852650 -16.155678 -0.616490 309 0.697975 0.716122 0.000000
-16.851887 -16.154953 -0.609287 329 0.697975 0.716122 0.000000
-16.854132 -16.157106 -0.602196 337 0.697975 0.716122 0.000000
-16.853941 -16.156927 -0.595007 303 0.697975 0.716122 0.000000
-16.855450 -16.158371 -0.587893 335 0.697975 0.716122 0.000000
-16.854895 -16.157835 -0.580698 367 0.697975 0.716122 0.000000
-16.853960 -16.156942 -0.573487 363 0.697975 0.716122 0.000000
-16.854403 -16.157366 -0.566332 335 0.697975 0.716122 0.000000
-16.854631 -16.157591 -0.559160 343 0.697975 0.716122 0.000000
-16.855337 -16.158260 -0.552013 317 0.697975 0.716122 0.000000
-16.854200 -16.157173 -0.544804 361 0.697975 0.716122 0.000000
-16.853575 -16.156567 -0.537610 345 0.697975 0.716122 0.000000
-16.855120 -16.158056 -0.530485 339 0.697975 0.716122 0.000000
-16.854761 -16.157709 -0.523298 353 0.697975 0.716122 0.000000
-16.854191 -16.157160 -0.516103 375 0.697975 0.716122 0.000000
-16.855354 -16.158279 -0.508962 331 0.697975 0.716122 0.000000
-16.855789 -16.158697 -0.501807 331 0.697975 0.716122 0.000000
-16.854519 -16.157488 -0.494589 333 0.697975 0.716122 0.000000
-16.854212 -16.157185 -0.487412 349 0.697975 0.716122 0.000000
-16.855106 -16.158052 -0.480263 357 0.697975 0.716122 0.000000
-16.855259 -16.158197 -0.473092 405 0.697975 0.716122 0.000000
-16.856478 -16.159361 -0.465950 359 0.697975 0.716122 0.000000
-16.855000 -16.157951 -0.458744 337 0.697975 0.716122 0.000000
-16.854040 -16.157024 -0.451543 365 0.697975 0.716122 0.000000
-16.854729 -16.157682 -0.444386 343 0.697975 0.716122 0.000000
-16.854666 -16.157619 -0.437217 369 0.697975 0.716122 0.000000
-16.855284 -16.158220 -0.430061 367 0.697975 0.716122 0.000000
-16.852686 -16.155733 -0.422815 325 0.697975 0.716122 0.000000
-16.852512 -16.155567 -0.415647 339 0.697975 0.716122 0.000000
-16.854509 -16.157484 -0.408517 367 0.697975 0.716122 0.000000
-16.854008 -16.157007 -0.401332 379 0.697975 0.716122 0.000000
-16.852514 -16.155569 -0.394126 355 0.697975 0.716122 0.000000
-16.850809 -16.153931 -0.386912 357 0.697975 0.716122 0.000000
-16.852688 -16.155737 -0.379784 339 0.697975 0.716122 0.000000
-16.854195 -16.157181 -0.372650 337 0.697975 0.716122 0.000000
-16.853275 -16.156301 -0.365458 365 0.697975 0.716122 0.000000
-16.853832 -16.156836 -0.358303 343 0.697975 0.716122 0.000000
-16.854647 -16.157612 -0.351145 355 0.697975 0.716122 0.000000
-16.853874 -16.156881 -0.343962 333 0.697975 0.716122 0.000000
-16.852791 -16.155838 -0.336762 329 0.697975 0.716122 0.000000
-16.854868 -16.157835 -0.329632 327 0.697975 0.716122 0.000000
-16.856527 -16.159422 -0.322496 359 0.697975 0.716122 0.000000
-16.852163 -16.155239 -0.315238 339 0.697975 0.716122 0.000000
-16.852341 -16.155403 -0.308076 323 0.697975 0.716122 0.000000
-16.855423 -16.158358 -0.300956 311 0.697975 0.716122 0.000000
-16.854956 -16.157921 -0.293780 339 0.697975 0.716122 0.000000
-16.855125 -16.158079 -0.286609 317 0.697975 0.716122 0.000000
-16.853762 -16.156778 -0.279411 325 0.697975 0.716122 0.000000
-16.862743 -16.155090 -0.666907 327 0.697975 0.716122 0.000000
-16.862160 -16.154530 -0.659712 335 0.697975 0.716122 0.000000
-16.859449 -16.151936 -0.652428 337 0.697975 0.716122 0.000000
-16.858950 -16.151459 -0.645233 331 0.697975 0.716122 0.000000
-16.857882 -16.150431 -0.638023 359 0.697975 0.716122 0.000000
-16.857180 -16.149759 -0.630819 277 0.697975 0.716122 0.000000
-16.857317 -16.149891 -0.623648 301 0.697975 0.716122 0.000000
-16.858084 -16.150627 -0.616500 345 0.697975 0.716122 0.000000
-16.858698 -16.151222 -0.609354 331 0.697975 0.716122 0.000000
-16.859146 -16.151653 -0.602190 309 0.697975 0.716122 0.000000
-16.861813 -16.154205 -0.595114 319 0.697975 0.716122 0.000000
-16.860737 -16.153170 -0.587894 323 0.697975 0.716122 0.000000
-16.859070 -16.151575 -0.580660 343 0.697975 0.716122 0.000000
-16.858562 -16.151093 -0.573475 377 0.697975 0.716122 0.000000
-16.858692 -16.151205 -0.566303 341 0.697975 0.716122 0.000000
-16.859663 -16.152136 -0.559164 295 0.697975 0.716122 0.000000
-16.860624 -16.153061 -0.552015 333 0.697975 0.716122 0.000000
-16.861914 -16.154297 -0.544882 365 0.697975 0.716122 0.000000
-16.862299 -16.154663 -0.537718 355 0.697975 0.716122 0.000000
-16.860619 -16.153057 -0.530494 363 0.697975 0.716122 0.000000
-16.860935 -16.153364 -0.523331 337 0.697975 0.716122 0.000000
-16.862852 -16.155203 -0.516212 361 0.697975 0.716122 0.000000
-16.859957 -16.152430 -0.508950 341 0.697975 0.716122 0.000000
-16.858332 -16.150871 -0.501735 355 0.697975 0.716122 0.000000
-16.860817 -16.153246 -0.494631 395 0.697975 0.716122 0.000000
-16.861771 -16.154163 -0.487482 355 0.697975 0.716122 0.000000
-16.860664 -16.153103 -0.480282 339 0.697975 0.716122 0.000000
-16.860025 -16.152496 -0.473088 359 0.697975 0.716122 0.000000
-16.859119 -16.151630 -0.465887 351 0.697975 0.716122 0.000000
-16.858171 -16.150726 -0.458686 351 0.697975 0.716122 0.000000
-16.858534 -16.151072 -0.451532 333 0.697975 0.716122 0.000000
-16.859480 -16.151970 -0.444383 345 0.697975 0.716122 0.000000
-16.859627 -16.152122 -0.437211 369 0.697975 0.716122 0.000000
-16.859142 -16.151659 -0.430026 371 0.697975 0.716122 0.000000
-16.859449 -16.151945 -0.422863 349 0.697975 0.716122 0.000000
-16.859697 -16.152184 -0.415700 359 0.697975 0.716122 0.000000
-16.858685 -16.151213 -0.408500 361 0.697975 0.716122 0.000000
-16.858137 -16.150698 -0.401315 361 0.697975 0.716122 0.000000
-16.860283 -16.152750 -0.394194 365 0.697975 0.716122 0.000000
-16.860636 -16.153090 -0.387030 337 0.697975 0.716122 0.000000
-16.859608 -16.152107 -0.379830 329 0.697975 0.716122 0.000000
-16.858751 -16.151279 -0.372638 333 0.697975 0.716122 0.000000
-16.859247 -16.151764 -0.365483 343 0.697975 0.716122 0.000000
-16.858854 -16.151377 -0.358297 317 0.697975 0.716122 0.000000
-16.858612 -16.151154 -0.351129 311 0.697975 0.716122 0.000000
-16.861704 -16.154114 -0.344019 327 0.697975 0.716122 0.000000
-16.861469 -16.153883 -0.336841 309 0.697975 0.716122 0.000000
-16.859842 -16.152336 -0.329637 319 0.697975 0.716122 0.000000
-16.859598 -16.152100 -0.322459 321 0.697975 0.716122 0.000000
-16.857660 -16.150238 -0.315247 299 0.697975 0.716122 0.000000
-16.856514 -16.149145 -0.308058 315 0.697975 0.716122 0.000000
-16.860121 -16.152599 -0.300953 303 0.697975 0.716122 0.000000
-16.862350 -16.154739 -0.293822 335 0.697975 0.716122 0.000000
-16.860771 -16.153231 -0.286617 321 0.697975 0.716122 0.000000
-16.860153 -16.152628 -0.279442 325 0.697975 0.716122 0.000000
-16.866096 -16.148212 -0.666846 343 0.697975 0.716122 0.000000
-16.865232 -16.147390 -0.659634 307 0.697975 0.716122 0.000000
-16.865377 -16.147530 -0.652463 319 0.697975 0.716122 0.000000
-16.865950 -16.148077 -0.645317 325 0.697975 0.716122 0.000000
-16.865513 -16.147654 -0.638121 319 0.697975 0.716122 0.000000
-16.864750 -16.146931 -0.630918 335 0.697975 0.716122 0.000000
-16.865944 -16.148075 -0.623787 351 0.697975 0.716122 0.000000
-16.864447 -16.146637 -0.616551 325 0.697975 0.716122 0.000000
-16.863150 -16.145403 -0.609333 291 0.697975 0.716122 0.000000
-16.865765 -16.147902 -0.602248 309 0.697975 0.716122 0.000000
-16.867069 -16.149149 -0.595125 327 0.697975 0.716122 0.000000
-16.865723 -16.147861 -0.587898 315 0.697975 0.716122 0.000000
-16.865372 -16.147535 -0.580711 329 0.697975 0.716122 0.000000
-16.867615 -16.149672 -0.573609 383 0.697975 0.716122 0.000000
-16.866680 -16.148779 -0.566408 333 0.697975 0.716122 0.000000
-16.865753 -16.147892 -0.559197 319 0.697975 0.716122 0.000000
-16.867306 -16.149376 -0.552072 361 0.697975 0.716122 0.000000
-16.867319 -16.149391 -0.544901 341 0.697975 0.716122 0.000000
-16.864737 -16.146915 -0.537646 311 0.697975 0.716122 0.000000
-16.864695 -16.146887 -0.530466 357 0.697975 0.716122 0.000000
-16.866566 -16.148672 -0.523348 347 0.697975 0.716122 0.000000
-16.865303 -16.147469 -0.516140 343 0.697975 0.716122 0.000000
-16.864252 -16.146467 -0.508930 323 0.697975 0.716122 0.000000
-16.865261 -16.147430 -0.501790 355 0.697975 0.716122 0.000000
-16.865158 -16.147337 -0.494611 369 0.697975 0.716122 0.000000
-16.865482 -16.147636 -0.487448 357 0.697975 0.716122 0.000000
-16.865854 -16.148005 -0.480284 355 0.697975 0.716122 0.000000
-16.864002 -16.146231 -0.473061 365 0.697975 0.716122 0.000000
-16.862576 -16.144863 -0.465845 339 0.697975 0.716122 0.000000
-16.864737 -16.146931 -0.458734 355 0.697975 0.716122 0.000000
-16.866793 -16.148899 -0.451614 369 0.697975 0.716122 0.000000
-16.865570 -16.147728 -0.444416 361 0.697975 0.716122 0.000000
-16.865088 -16.147261 -0.437230 355 0.697975 0.716122 0.000000
-16.863125 -16.145384 -0.429999 351 0.697975 0.716122 0.000000
-16.862253 -16.144558 -0.422807 307 0.697975 0.716122 0.000000
-16.862997 -16.145260 -0.415660 371 0.697975 0.716122 0.000000
-16.864511 -16.146723 -0.408525 359 0.697975 0.716122 0.000000
-16.865923 -16.148075 -0.401381 365 0.697975 0.716122 0.000000
-16.865107 -16.147293 -0.394189 345 0.697975 0.716122 0.000000
-16.864187 -16.146416 -0.386997 365 0.697975 0.716122 0.000000
-16.866072 -16.148214 -0.379869 345 0.697975 0.716122 0.000000
-16.866211 -16.148348 -0.372698 319 0.697975 0.716122 0.000000
-16.864286 -16.146500 -0.365486 335 0.697975 0.716122 0.000000
-16.864098 -16.146322 -0.358308 335 0.697975 0.716122 0.000000
-16.864876 -16.147066 -0.351150 365 0.697975 0.716122 0.000000
-16.863939 -16.146172 -0.343959 335 0.697975 0.716122 0.000000
-16.863113 -16.145386 -0.336777 303 0.697975 0.716122 0.000000
-16.864254 -16.146471 -0.329626 337 0.697975 0.716122 0.000000
-16.863779 -16.146025 -0.322440 347 0.697975 0.716122 0.000000
-16.862749 -16.145042 -0.315250 335 0.697975 0.716122 0.000000
-16.862600 -16.144897 -0.308081 347 0.697975 0.716122 0.000000
-16.863569 -16.145826 -0.300931 309 0.697975 0.716122 0.000000
-16.867075 -16.149183 -0.293818 337 0.697975 0.716122 0.000000
-16.865919 -16.148069 -0.286629 313 0.697975 0.716122 0.000000
-16.862171 -16.144493 -0.279394 333 0.697975 0.716122 0.000000
-16.870819 -16.143063 -0.666850 323 0.697975 0.716122 0.000000
-16.869909 -16.142189 -0.659639 311 0.697975 0.716122 0.000000
-16.869478 -16.141769 -0.652443 317 0.697975 0.716122 0.000000
-16.870090 -16.142365 -0.645287 297 0.697975 0.716122 0.000000
-16.871239 -16.143456 -0.638155 283 0.697975 0.716122 0.000000
-16.871803 -16.143997 -0.631000 311 0.697975 0.716122 0.000000
-16.871367 -16.143585 -0.623804 321 0.697975 0.716122 0.000000
-16.870859 -16.143103 -0.616618 321 0.697975 0.716122 0.000000
-16.871485 -16.143694 -0.609462 313 0.697975 0.716122 0.000000
-16.870823 -16.143070 -0.602258 315 0.697975 0.716122 0.000000
-16.870270 -16.142534 -0.595064 301 0.697975 0.716122 0.000000
-16.870501 -16.142757 -0.587901 299 0.697975 0.716122 0.000000
-16.869255 -16.141569 -0.580683 327 0.697975 0.716122 0.000000
-16.869431 -16.141731 -0.573511 343 0.697975 0.716122 0.000000
-16.870090 -16.142363 -0.566365 351 0.697975 0.716122 0.000000
-16.870321 -16.142588 -0.559192 323 0.697975 0.716122 0.000000
-16.871492 -16.143713 -0.552061 327 0.697975 0.716122 0.000000
-16.871248 -16.143475 -0.544873 323 0.697975 0.716122 0.000000
-16.867723 -16.140099 -0.537587 333 0.697975 0.716122 0.000000
-16.868952 -16.141283 -0.530455 337 0.697975 0.716122 0.000000
-16.871508 -16.143717 -0.523360 371 0.697975 0.716122 0.000000
-16.868387 -16.140743 -0.516090 335 0.697975 0.716122 0.000000
-16.868555 -16.140902 -0.508918 337 0.697975 0.716122 0.000000
-16.870996 -16.143240 -0.501814 361 0.697975 0.716122 0.000000
-16.870899 -16.143139 -0.494645 375 0.697975 0.716122 0.000000
-16.870798 -16.143045 -0.487466 367 0.697975 0.716122 0.000000
-16.870739 -16.142990 -0.480286 345 0.697975 0.716122 0.000000
-16.869640 -16.141935 -0.473087 355 0.697975 0.716122 0.000000
-16.869358 -16.141680 -0.465909 339 0.697975 0.716122 0.000000
-16.868567 -16.140917 -0.458707 347 0.697975 0.716122 0.000000
-16.869518 -16.141821 -0.451567 343 0.697975 0.716122 0.000000
-16.870937 -16.143181 -0.444424 333 0.697975 0.716122 0.000000
-16.871403 -16.143623 -0.437269 321 0.697975 0.716122 0.000000
-16.871651 -16.143875 -0.430096 333 0.697975 0.716122 0.000000
-16.870697 -16.142954 -0.422905 349 0.697975 0.716122 0.000000
-16.869259 -16.141575 -0.415689 357 0.697975 0.716122 0.000000
-16.869661 -16.141968 -0.408535 365 0.697975 0.716122 0.000000
-16.871496 -16.143723 -0.401407 387 0.697975 0.716122 0.000000
-16.869999 -16.142286 -0.394191 333 0.697975 0.716122 0.000000
-16.868708 -16.141058 -0.386993 349 0.697975 0.716122 0.000000
-16.871178 -16.143421 -0.379880 381 0.697975 0.716122 0.000000
-16.870567 -16.142839 -0.372685 377 0.697975 0.716122 0.000000
-16.867907 -16.140287 -0.365461 365 0.697975 0.716122 0.000000
-16.867928 -16.140310 -0.358290 361 0.697975 0.716122 0.000000
-16.868959 -16.141293 -0.351140 357 0.697975 0.716122 0.000000
-16.869944 -16.142235 -0.343991 375 0.697975 0.716122 0.000000
-16.870487 -16.142757 -0.336825 363 0.697975 0.716122 0.000000
-16.870245 -16.142534 -0.329647 337 0.697975 0.716122 0.000000
-16.868998 -16.141344 -0.322459 343 0.697975 0.716122 0.000000
-16.868690 -16.141039 -0.315282 339 0.697975 0.716122 0.000000
-16.869608 -16.141926 -0.308123 315 0.697975 0.716122 0.000000
-16.869419 -16.141733 -0.300945 335 0.697975 0.716122 0.000000
-16.867474 -16.139881 -0.293743 331 0.697975 0.716122 0.000000
-16.867262 -16.139685 -0.286575 365 0.697975 0.716122 0.000000
-16.867172 -16.139589 -0.279396 337 0.697975 0.716122 0.000000
-16.874723 -16.137489 -0.666820 323 0.697975 0.716122 0.000000
-16.873602 -16.136415 -0.659600 307 0.697975 0.716122 0.000000
-16.874969 -16.137730 -0.652477 363 0.697975 0.716122 0.000000
-16.875059 -16.137810 -0.645306 333 0.697975 0.716122 0.000000
-16.873775 -16.136587 -0.638078 325 0.697975 0.716122 0.000000
-16.874815 -16.137577 -0.630938 313 0.697975 0.716122 0.000000
-16.876747 -16.139427 -0.623840 321 0.697975 0.716122 0.000000
-16.876095 -16.138809 -0.616636 335 0.697975 0.716122 0.000000
-16.875120 -16.137871 -0.609425 315 0.697975 0.716122 0.000000
-16.874722 -16.137491 -0.602238 309 0.697975 0.716122 0.000000
-16.874329 -16.137119 -0.595052 305 0.697975 0.716122 0.000000
-16.874569 -16.137348 -0.587879 333 0.697975 0.716122 0.000000
-16.876495 -16.139194 -0.580771 327 0.697975 0.716122 0.000000
-16.876719 -16.139410 -0.573609 327 0.697975 0.716122 0.000000
-16.876638 -16.139322 -0.566429 323 0.697975 0.716122 0.000000
-16.877661 -16.140312 -0.559289 313 0.697975 0.716122 0.000000
-16.875462 -16.138206 -0.552040 363 0.697975 0.716122 0.000000
-16.873413 -16.136242 -0.544799 333 0.697975 0.716122 0.000000
-16.872158 -16.135046 -0.537581 333 0.697975 0.716122 0.000000
-16.872646 -16.135509 -0.530426 349 0.697975 0.716122 0.000000
-16.874300 -16.137089 -0.523301 351 0.697975 0.716122 0.000000
-16.873302 -16.136145 -0.516100 337 0.697975 0.716122 0.000000
-16.873634 -16.136454 -0.508937 313 0.697975 0.716122 0.000000
-16.875328 -16.138077 -0.501810 325 0.697975 0.716122 0.000000
-16.876762 -16.139448 -0.494676 339 0.697975 0.716122 0.000000
-16.875175 -16.137934 -0.487461 331 0.697975 0.716122 0.000000
-16.873751 -16.136568 -0.480245 357 0.697975 0.716122 0.000000
-16.875708 -16.138439 -0.473126 353 0.697975 0.716122 0.000000
-16.875332 -16.138079 -0.465939 353 0.697975 0.716122 0.000000
-16.874220 -16.137026 -0.458740 349 0.697975 0.716122 0.000000
-16.872786 -16.135653 -0.451533 355 0.697975 0.716122 0.000000
-16.873367 -16.136208 -0.444367 357 0.697975 0.716122 0.000000
-16.874306 -16.137112 -0.437228 353 0.697975 0.716122 0.000000
-16.872656 -16.135532 -0.430014 359 0.697975 0.716122 0.000000
-16.870943 -16.133886 -0.422790 361 0.697975 0.716122 0.000000
-16.872839 -16.135706 -0.415672 379 0.697975 0.716122 0.000000
-16.874094 -16.136902 -0.408530 349 0.697975 0.716122 0.000000
-16.875025 -16.137800 -0.401381 351 0.697975 0.716122 0.000000
-16.875864 -16.138596 -0.394222 365 0.697975 0.716122 0.000000
-16.873302 -16.136152 -0.386997 389 0.697975 0.716122 0.000000
-16.874125 -16.136934 -0.379839 371 0.697975 0.716122 0.000000
-16.874481 -16.137274 -0.372675 315 0.697975 0.716122 0.000000
-16.871277 -16.134216 -0.365435 353 0.697975 0.716122 0.000000
-16.873730 -16.136568 -0.358312 393 0.697975 0.716122 0.000000
-16.877365 -16.140034 -0.351217 383 0.697975 0.716122 0.000000
-16.875000 -16.137779 -0.343999 371 0.697975 0.716122 0.000000
-16.873178 -16.136032 -0.336787 387 0.697975 0.716122 0.000000
-16.873032 -16.135899 -0.329618 349 0.697975 0.716122 0.000000
-16.874956 -16.137743 -0.322479 329 0.697975 0.716122 0.000000
-16.875559 -16.138319 -0.315323 329 0.697975 0.716122 0.000000
-16.874788 -16.137573 -0.308141 341 0.697975 0.716122 0.000000
-16.875166 -16.137947 -0.300967 347 0.697975 0.716122 0.000000
-16.874699 -16.137495 -0.293791 307 0.697975 0.716122 0.000000
-16.875933 -16.138672 -0.286639 319 0.697975 0.716122 0.000000
-16.875671 -16.138420 -0.279461 353 0.697975 0.716122 0.000000
-16.880486 -16.133911 -0.666871 303 0.697975 0.716122 0.000000
-16.880848 -16.134254 -0.659707 325 0.697975 0.716122 0.000000
-16.880457 -16.133883 -0.652511 321 0.697975 0.716122 0.000000
-16.882034 -16.135382 -0.645396 313 0.697975 0.716122 0.000000
-16.881697 -16.135069 -0.638209 331 0.697975 0.716122 0.000000
-16.883110 -16.136423 -0.631085 331 0.697975 0.716122 0.000000
-16.881981 -16.135340 -0.623866 327 0.697975 0.716122 0.000000
-16.879623 -16.133093 -0.616608 317 0.697975 0.716122 0.000000
-16.880514 -16.133932 -0.609459 325 0.697975 0.716122 0.000000
-16.879423 -16.132898 -0.602250 321 0.697975 0.716122 0.000000
-16.878706 -16.132214 -0.595046 329 0.697975 0.716122 0.000000
-16.879684 -16.133150 -0.587907 305 0.697975 0.716122 0.000000
-16.879021 -16.132511 -0.580703 343 0.697975 0.716122 0.000000
-16.879686 -16.133150 -0.573556 349 0.697975 0.716122 0.000000
-16.880657 -16.134081 -0.566417 375 0.697975 0.716122 0.000000
-16.879347 -16.132822 -0.559189 363 0.697975 0.716122 0.000000
-16.880211 -16.133652 -0.552051 369 0.697975 0.716122 0.000000
-16.881918 -16.135290 -0.544924 363 0.697975 0.716122 0.000000
-16.878712 -16.132217 -0.537655 343 0.697975 0.716122 0.000000
-16.877558 -16.131117 -0.530436 363 0.697975 0.716122 0.000000
-16.880846 -16.134266 -0.523364 369 0.697975 0.716122 0.000000
-16.879747 -16.133211 -0.516164 343 0.697975 0.716122 0.000000
-16.880175 -16.133625 -0.509000 331 0.697975 0.716122 0.000000
-16.882675 -16.136013 -0.501896 345 0.697975 0.716122 0.000000
-16.881092 -16.134491 -0.494681 353 0.697975 0.716122 0.000000
-16.880402 -16.133841 -0.487487 349 0.697975 0.716122 0.000000
-16.880569 -16.133999 -0.480316 367 0.697975 0.716122 0.000000
-16.878607 -16.132120 -0.473084 365 0.697975 0.716122 0.000000
-16.879715 -16.133181 -0.465944 385 0.697975 0.716122 0.000000
-16.879925 -16.133387 -0.458771 351 0.697975 0.716122 0.000000
-16.879759 -16.133226 -0.451593 345 0.697975 0.716122 0.000000
-16.880970 -16.134384 -0.444451 381 0.697975 0.716122 0.000000
-16.878628 -16.132149 -0.437223 359 0.697975 0.716122 0.000000
-16.878151 -16.131691 -0.430038 353 0.697975 0.716122 0.000000
-16.879244 -16.132738 -0.422887 361 0.697975 0.716122 0.000000
-16.878971 -16.132475 -0.415709 369 0.697975 0.716122 0.000000
-16.879007 -16.132509 -0.408539 363 0.697975 0.716122 0.000000
-16.878624 -16.132143 -0.401362 339 0.697975 0.716122 0.000000
-16.878654 -16.132174 -0.394192 319 0.697975 0.716122 0.000000
-16.879694 -16.133175 -0.387042 357 0.697975 0.716122 0.000000
-16.879946 -16.133404 -0.379869 363 0.697975 0.716122 0.000000
-16.878654 -16.132175 -0.372671 327 0.697975 0.716122 0.000000
-16.878895 -16.132406 -0.365509 301 0.697975 0.716122 0.000000
-16.879232 -16.132732 -0.358335 337 0.697975 0.716122 0.000000
-16.878260 -16.131796 -0.351145 375 0.697975 0.716122 0.000000
-16.879229 -16.132725 -0.343995 375 0.697975 0.716122 0.000000
-16.879297 -16.132801 -0.336824 359 0.697975 0.716122 0.000000
-16.877096 -16.130693 -0.329615 329 0.697975 0.716122 0.000000
-16.876270 -16.129906 -0.322423 319 0.697975 0.716122 0.000000
-16.877245 -16.130829 -0.315273 301 0.697975 0.716122 0.000000
-16.879694 -16.133175 -0.308150 323 0.697975 0.716122 0.000000
-16.878120 -16.131672 -0.300945 345 0.697975 0.716122 0.000000
-16.876709 -16.130320 -0.293748 351 0.697975 0.716122 0.000000
-16.878147 -16.131691 -0.286604 327 0.697975 0.716122 0.000000
-16.878946 -16.132467 -0.279446 323 0.697975 0.716122 0.000000
-16.884798 -16.128548 -0.666858 307 0.697975 0.716122 0.000000
-16.886469 -16.130156 -0.659742 339 0.697975 0.716122 0.000000
-16.885408 -16.129129 -0.652532 327 0.697975 0.716122 0.000000
-16.883854 -16.127657 -0.645286 293 0.697975 0.716122 0.000000
-16.884209 -16.127996 -0.638133 313 0.697975 0.716122 0.000000
-16.884563 -16.128323 -0.630969 323 0.697975 0.716122 0.000000
-16.885548 -16.129267 -0.623830 283 0.697975 0.716122 0.000000
-16.886269 -16.129963 -0.616673 315 0.697975 0.716122 0.000000
-16.883865 -16.127665 -0.609415 337 0.697975 0.716122 0.000000
-16.884157 -16.127939 -0.602252 331 0.697975 0.716122 0.000000
-16.885454 -16.129183 -0.595120 317 0.697975 0.716122 0.000000
-16.884893 -16.128653 -0.587925 327 0.697975 0.716122 0.000000
-16.885138 -16.128876 -0.580753 325 0.697975 0.716122 0.000000
-16.884998 -16.128750 -0.573574 325 0.697975 0.716122 0.000000
-16.884754 -16.128513 -0.566396 343 0.697975 0.716122 0.000000
-16.884604 -16.128378 -0.559217 349 0.697975 0.716122 0.000000
-16.882082 -16.125969 -0.551961 357 0.697975 0.716122 0.000000
-16.882687 -16.126541 -0.544805 335 0.697975 0.716122 0.000000
-16.884821 -16.128574 -0.537695 345 0.697975 0.716122 0.000000
-16.885256 -16.128994 -0.530540 351 0.697975 0.716122 0.000000
-16.886278 -16.129969 -0.523390 353 0.697975 0.716122 0.000000
-16.887186 -16.130835 -0.516241 339 0.697975 0.716122 0.000000
-16.885288 -16.129021 -0.509009 351 0.697975 0.716122 0.000000
-16.883747 -16.127560 -0.501794 355 0.697975 0.716122 0.000000
-16.884445 -16.128223 -0.494637 353 0.697975 0.716122 0.000000
-16.883446 -16.127266 -0.487436 371 0.697975 0.716122 0.000000
-16.883818 -16.127621 -0.480273 357 0.697975 0.716122 0.000000
-16.885881 -16.129595 -0.473163 381 0.697975 0.716122 0.000000
-16.885347 -16.129086 -0.465968 361 0.697975 0.716122 0.000000
-16.884069 -16.127871 -0.458760 355 0.697975 0.716122 0.000000
-16.884758 -16.128527 -0.451603 359 0.697975 0.716122 0.000000
-16.884430 -16.128220 -0.444426 363 0.697975 0.716122 0.000000
-16.884638 -16.128408 -0.437254 363 0.697975 0.716122 0.000000
-16.886484 -16.130178 -0.430126 387 0.697975 0.716122 0.000000
-16.885357 -16.129095 -0.422927 397 0.697975 0.716122 0.000000
-16.882959 -16.126802 -0.415699 375 0.697975 0.716122 0.000000
-16.883850 -16.127655 -0.408551 351 0.697975 0.716122 0.000000
-16.883614 -16.127438 -0.401373 347 0.697975 0.716122 0.000000
-16.882914 -16.126766 -0.394179 347 0.697975 0.716122 0.000000
-16.884800 -16.128567 -0.387051 349 0.697975 0.716122 0.000000
-16.884993 -16.128757 -0.379879 353 0.697975 0.716122 0.000000
-16.883646 -16.127470 -0.372682 375 0.697975 0.716122 0.000000
-16.883886 -16.127701 -0.365509 345 0.697975 0.716122 0.000000
-16.883486 -16.127319 -0.358333 347 0.697975 0.716122 0.000000
-16.882561 -16.126436 -0.351142 325 0.697975 0.716122 0.000000
-16.884018 -16.127827 -0.343998 367 0.697975 0.716122 0.000000
-16.883245 -16.127083 -0.336815 351 0.697975 0.716122 0.000000
-16.882414 -16.126301 -0.329622 305 0.697975 0.716122 0.000000
-16.883280 -16.127121 -0.322474 317 0.697975 0.716122 0.000000
-16.883614 -16.127441 -0.315301 335 0.697975 0.716122 0.000000
-16.884754 -16.128529 -0.308150 343 0.697975 0.716122 0.000000
-16.884760 -16.128536 -0.300979 375 0.697975 0.716122 0.000000
-16.884670 -16.128456 -0.293810 367 0.697975 0.716122 0.000000
-16.886271 -16.129976 -0.286665 329 0.697975 0.716122 0.000000
-16.885265 -16.129026 -0.279474 329 0.697975 0.716122 0.000000
-16.892054 -16.125612 -0.666949 315 0.697975 0.716122 0.000000
-16.890606 -16.124241 -0.659712 313 0.697975 0.716122 0.000000
-16.892136 -16.125706 -0.652597 261 0.697975 0.716122 0.000000
-16.891201 -16.124811 -0.645386 251 0.697975 0.716122 0.000000
-16.887131 -16.120916 -0.638055 297 0.697975 0.716122 0.000000
-16.889330 -16.123028 -0.630964 329 0.697975 0.716122 0.000000
-16.890213 -16.123859 -0.623815 315 0.697975 0.716122 0.000000
-16.889503 -16.123180 -0.616622 287 0.697975 0.716122 0.000000
-16.889954 -16.123613 -0.609457 297 0.697975 0.716122 0.000000
-16.890089 -16.123745 -0.602286 327 0.697975 0.716122 0.000000
-16.891806 -16.125389 -0.595169 317 0.697975 0.716122 0.000000
-16.890940 -16.124556 -0.587967 311 0.697975 0.716122 0.000000
-16.888147 -16.121895 -0.580694 317 0.697975 0.716122 0.000000
-16.888760 -16.122475 -0.573538 359 0.697975 0.716122 0.000000
-16.889566 -16.123257 -0.566390 343 0.697975 0.716122 0.000000
-16.889120 -16.122822 -0.559204 347 0.697975 0.716122 0.000000
-16.889820 -16.123487 -0.552047 331 0.697975 0.716122 0.000000
-16.888464 -16.122192 -0.544830 331 0.697975 0.716122 0.000000
-16.888525 -16.122261 -0.537659 325 0.697975 0.716122 0.000000
-16.889231 -16.122932 -0.530512 323 0.697975 0.716122 0.000000
-16.889290 -16.122988 -0.523332 339 0.697975 0.716122 0.000000
-16.889885 -16.123554 -0.516176 359 0.697975 0.716122 0.000000
-16.888779 -16.122507 -0.508976 363 0.697975 0.716122 0.000000
-16.889368 -16.123068 -0.501820 317 0.697975 0.716122 0.000000
-16.888939 -16.122662 -0.494634 331 0.697975 0.716122 0.000000
-16.888477 -16.122217 -0.487438 339 0.697975 0.716122 0.000000
-16.889160 -16.122869 -0.480292 337 0.697975 0.716122 0.000000
-16.889538 -16.123230 -0.473128 353 0.697975 0.716122 0.000000
-16.888105 -16.121857 -0.465911 353 0.697975 0.716122 0.000000
-16.888634 -16.122366 -0.458756 315 0.697975 0.716122 0.000000
-16.890533 -16.124178 -0.451628 317 0.697975 0.716122 0.000000
-16.888247 -16.122000 -0.444400 301 0.697975 0.716122 0.000000
-16.888035 -16.121788 -0.437221 333 0.697975 0.716122 0.000000
-16.888607 -16.122335 -0.430066 347 0.697975 0.716122 0.000000
-16.887905 -16.121666 -0.422872 381 0.697975 0.716122 0.000000
-16.887617 -16.121405 -0.415695 365 0.697975 0.716122 0.000000
-16.886076 -16.119926 -0.408479 365 0.697975 0.716122 0.000000
-16.886166 -16.120007 -0.401318 337 0.697975 0.716122 0.000000
-16.887789 -16.121561 -0.394183 349 0.697975 0.716122 0.000000
-16.888353 -16.122103 -0.387017 351 0.697975 0.716122 0.000000
-16.887684 -16.121471 -0.379833 319 0.697975 0.716122 0.000000
-16.887619 -16.121395 -0.372664 343 0.697975 0.716122 0.000000
-16.889652 -16.123344 -0.365534 373 0.697975 0.716122 0.000000
-16.889099 -16.122822 -0.358349 337 0.697975 0.716122 0.000000
-16.888073 -16.121840 -0.351159 355 0.697975 0.716122 0.000000
-16.888838 -16.122562 -0.344002 369 0.697975 0.716122 0.000000
-16.888004 -16.121767 -0.336809 319 0.697975 0.716122 0.000000
-16.888033 -16.121796 -0.329639 337 0.697975 0.716122 0.000000
-16.888155 -16.121916 -0.322468 319 0.697975 0.716122 0.000000
-16.888481 -16.122229 -0.315304 353 0.697975 0.716122 0.000000
-16.891050 -16.124678 -0.308180 335 0.697975 0.716122 0.000000
-16.890636 -16.124285 -0.301003 327 0.697975 0.716122 0.000000
-16.889219 -16.122938 -0.293807 337 0.697975 0.716122 0.000000
-16.889235 -16.122955 -0.286636 347 0.697975 0.716122 0.000000
-16.888718 -16.122450 -0.279451 323 0.697975 0.716122 0.000000
-16.898108 -16.120962 -0.666984 321 0.697975 0.716122 0.000000
-16.896883 -16.119791 -0.659765 321 0.697975 0.716122 0.000000
-16.895647 -16.118618 -0.652537 313 0.697975 0.716122 0.000000
-16.894415 -16.117441 -0.645308 299 0.697975 0.716122 0.000000
-16.893505 -16.116568 -0.638107 299 0.697975 0.716122 0.000000
-16.896496 -16.119432 -0.631038 315 0.697975 0.716122 0.000000
-16.898855 -16.121679 -0.623946 337 0.697975 0.716122 0.000000
-16.896297 -16.119238 -0.616680 311 0.697975 0.716122 0.000000
-16.895275 -16.118261 -0.609469 315 0.697975 0.716122 0.000000
-16.895405 -16.118387 -0.602298 327 0.697975 0.716122 0.000000
-16.895226 -16.118214 -0.595110 303 0.697975 0.716122 0.000000
-16.896093 -16.119049 -0.587971 367 0.697975 0.716122 0.000000
-16.895905 -16.118870 -0.580783 353 0.697975 0.716122 0.000000
-16.895819 -16.118790 -0.573603 331 0.697975 0.716122 0.000000
-16.897167 -16.120075 -0.566480 331 0.697975 0.716122 0.000000
-16.896706 -16.119631 -0.559285 341 0.697975 0.716122 0.000000
-16.893921 -16.116974 -0.552021 299 0.697975 0.716122 0.000000
-16.893087 -16.116179 -0.544819 355 0.697975 0.716122 0.000000
-16.894531 -16.117558 -0.537685 341 0.697975 0.716122 0.000000
-16.895020 -16.118019 -0.530530 353 0.697975 0.716122 0.000000
-16.894293 -16.117329 -0.523337 317 0.697975 0.716122 0.000000
-16.894043 -16.117086 -0.516149 349 0.697975 0.716122 0.000000
-16.896427 -16.119366 -0.509046 371 0.697975 0.716122 0.000000
-16.897015 -16.119926 -0.501890 343 0.697975 0.716122 0.000000
-16.894159 -16.117197 -0.494637 333 0.697975 0.716122 0.000000
-16.892153 -16.115297 -0.487406 323 0.697975 0.716122 0.000000
-16.893845 -16.116907 -0.480280 301 0.697975 0.716122 0.000000
-16.894854 -16.117868 -0.473130 325 0.697975 0.716122 0.000000
-16.893156 -16.116251 -0.465916 329 0.697975 0.716122 0.000000
-16.893202 -16.116293 -0.458746 321 0.697975 0.716122 0.000000
-16.895260 -16.118261 -0.451626 337 0.697975 0.716122 0.000000
-16.895475 -16.118458 -0.444454 367 0.697975 0.716122 0.000000
-16.896095 -16.119059 -0.437297 345 0.697975 0.716122 0.000000
-16.896559 -16.119503 -0.430133 323 0.697975 0.716122 0.000000
-16.892157 -16.115301 -0.422855 333 0.697975 0.716122 0.000000
-16.891619 -16.114779 -0.415670 351 0.697975 0.716122 0.000000
-16.892130 -16.115276 -0.408505 359 0.697975 0.716122 0.000000
-16.890682 -16.113892 -0.401298 347 0.697975 0.716122 0.000000
-16.893686 -16.116753 -0.394199 345 0.697975 0.716122 0.000000
-16.895464 -16.118448 -0.387072 343 0.697975 0.716122 0.000000
-16.893589 -16.116669 -0.379850 363 0.697975 0.716122 0.000000
-16.893463 -16.116541 -0.372681 347 0.697975 0.716122 0.000000
-16.894548 -16.117582 -0.365530 361 0.697975 0.716122 0.000000
-16.894630 -16.117657 -0.358360 321 0.697975 0.716122 0.000000
-16.895720 -16.118698 -0.351209 343 0.697975 0.716122 0.000000
-16.895638 -16.118622 -0.344040 331 0.697975 0.716122 0.000000
-16.895714 -16.118690 -0.336869 357 0.697975 0.716122 0.000000
-16.895517 -16.118505 -0.329690 345 0.697975 0.716122 0.000000
-16.894747 -16.117777 -0.322498 369 0.697975 0.716122 0.000000
-16.893383 -16.116474 -0.315300 351 0.697975 0.716122 0.000000
-16.893250 -16.116341 -0.308131 331 0.697975 0.716122 0.000000
-16.894312 -16.117363 -0.300981 365 0.697975 0.716122 0.000000
-16.895548 -16.118540 -0.293829 373 0.697975 0.716122 0.000000
-16.895613 -16.118601 -0.286658 345 0.697975 0.716122 0.000000
-16.894190 -16.117249 -0.279462 317 0.697975 0.716122 0.000000
-16.902943 -16.114943 -0.666972 303 0.697975 0.716122 0.000000
-16.904207 -16.116146 -0.659839 305 0.697975 0.716122 0.000000
-16.903234 -16.115221 -0.652628 329 0.697975 0.716122 0.000000
-16.901575 -16.113632 -0.645384 303 0.697975 0.716122 0.000000
-16.900822 -16.112917 -0.638181 293 0.697975 0.716122 0.000000
-16.901285 -16.113361 -0.631027 297 0.697975 0.716122 0.000000
-16.900467 -16.112579 -0.623814 343 0.697975 0.716122 0.000000
-16.899595 -16.111753 -0.616612 309 0.697975 0.716122 0.000000
-16.899094 -16.111277 -0.609417 287 0.697975 0.716122 0.000000
-16.899666 -16.111809 -0.602261 335 0.697975 0.716122 0.000000
-16.902603 -16.114614 -0.595193 345 0.697975 0.716122 0.000000
-16.902996 -16.114986 -0.588029 307 0.697975 0.716122 0.000000
-16.901316 -16.113396 -0.580795 339 0.697975 0.716122 0.000000
-16.900553 -16.112659 -0.573592 351 0.697975 0.716122 0.000000
-16.899672 -16.111824 -0.566380 327 0.697975 0.716122 0.000000
-16.900805 -16.112906 -0.559249 363 0.697975 0.716122 0.000000
-16.902039 -16.114082 -0.552117 333 0.697975 0.716122 0.000000
-16.900627 -16.112726 -0.544891 351 0.697975 0.716122 0.000000
-16.900370 -16.112492 -0.537713 367 0.697975 0.716122 0.000000
-16.901176 -16.113258 -0.530555 357 0.697975 0.716122 0.000000
-16.901081 -16.113171 -0.523386 339 0.697975 0.716122 0.000000
-16.899881 -16.112020 -0.516167 339 0.697975 0.716122 0.000000
-16.899778 -16.111925 -0.508998 365 0.697975 0.716122 0.000000
-16.900055 -16.112188 -0.501825 347 0.697975 0.716122 0.000000
-16.900106 -16.112236 -0.494655 359 0.697975 0.716122 0.000000
-16.901333 -16.113407 -0.487513 329 0.697975 0.716122 0.000000
-16.902233 -16.114265 -0.480364 355 0.697975 0.716122 0.000000
-16.900684 -16.112797 -0.473148 331 0.697975 0.716122 0.000000
-16.900059 -16.112190 -0.465954 371 0.697975 0.716122 0.000000
-16.900587 -16.112700 -0.458799 363 0.697975 0.716122 0.000000
-16.900530 -16.112644 -0.451629 347 0.697975 0.716122 0.000000
-16.899090 -16.111279 -0.444413 357 0.697975 0.716122 0.000000
-16.897596 -16.109840 -0.437197 335 0.697975 0.716122 0.000000
-16.896894 -16.109182 -0.430014 315 0.697975 0.716122 0.000000
-16.898478 -16.110691 -0.422878 333 0.697975 0.716122 0.000000
-16.898624 -16.110830 -0.415707 343 0.697975 0.716122 0.000000
-16.898130 -16.110357 -0.408531 351 0.697975 0.716122 0.000000
-16.897686 -16.109941 -0.401345 369 0.697975 0.716122 0.000000
-16.899473 -16.111643 -0.394218 377 0.697975 0.716122 0.000000
-16.901201 -16.113285 -0.387081 351 0.697975 0.716122 0.000000
-16.899380 -16.111551 -0.379869 347 0.697975 0.716122 0.000000
-16.900476 -16.112598 -0.372718 359 0.697975 0.716122 0.000000
-16.901724 -16.113789 -0.365576 369 0.697975 0.716122 0.000000
-16.901808 -16.113861 -0.358405 361 0.697975 0.716122 0.000000
-16.901245 -16.113333 -0.351220 365 0.697975 0.716122 0.000000
-16.901678 -16.113752 -0.344056 367 0.697975 0.716122 0.000000
-16.900230 -16.112368 -0.336850 335 0.697975 0.716122 0.000000
-16.898869 -16.111067 -0.329652 337 0.697975 0.716122 0.000000
-16.899580 -16.111744 -0.322495 359 0.697975 0.716122 0.000000
-16.899759 -16.111923 -0.315323 363 0.697975 0.716122 0.000000
-16.898506 -16.110725 -0.308135 337 0.697975 0.716122 0.000000
-16.897936 -16.110176 -0.300951 365 0.697975 0.716122 0.000000
-16.898849 -16.111048 -0.293792 387 0.697975 0.716122 0.000000
-16.899075 -16.111265 -0.286629 373 0.697975 0.716122 0.000000
-16.898972 -16.111170 -0.279460 365 0.697975 0.716122 0.000000
