266
-24.987852 -23.625874 -0.656508 1421 0.722600 0.691266 0.000000
-24.988153 -23.626167 -0.645955 1419 0.722600 0.691266 0.000000
-24.988073 -23.626089 -0.635385 1409 0.722600 0.691266 0.000000
-24.987843 -23.625879 -0.624817 1417 0.722600 0.691266 0.000000
-24.987713 -23.625750 -0.614248 1413 0.722600 0.691266 0.000000
-24.987530 -23.625578 -0.603680 1417 0.722600 0.691266 0.000000
-24.987093 -23.625162 -0.593104 1419 0.722600 0.691266 0.000000
-24.986900 -23.624981 -0.582535 1423 0.722600 0.691266 0.000000
-24.987030 -23.625111 -0.571984 1419 0.722600 0.691266 0.000000
-24.987478 -23.625534 -0.561429 1415 0.722600 0.691266 0.000000
-24.988239 -23.626247 -0.550882 1423 0.722600 0.691266 0.000000
-24.986923 -23.625011 -0.540284 1407 0.722600 0.691266 0.000000
-24.985136 -23.623320 -0.529690 1397 0.722600 0.691266 0.000000
-24.986046 -23.624180 -0.519142 1405 0.722600 0.691266 0.000000
-24.987001 -23.625084 -0.508602 1405 0.722600 0.691266 0.000000
-24.986538 -23.624651 -0.498027 1401 0.722600 0.691266 0.000000
-24.986317 -23.624445 -0.487468 1409 0.722600 0.691266 0.000000
-24.985847 -23.623993 -0.476893 1405 0.722600 0.691266 0.000000
-24.986265 -23.624392 -0.466338 1409 0.722600 0.691266 0.000000
-24.986963 -23.625055 -0.455792 1419 0.722600 0.691266 0.000000
-24.987320 -23.625391 -0.445238 1413 0.722600 0.691266 0.000000
-24.987209 -23.625290 -0.434669 1421 0.722600 0.691266 0.000000
-24.986986 -23.625086 -0.424101 1411 0.722600 0.691266 0.000000
-24.986872 -23.624968 -0.413541 1417 0.722600 0.691266 0.000000
-24.986111 -23.624254 -0.402968 1417 0.722600 0.691266 0.000000
-24.985933 -23.624086 -0.392400 1411 0.722600 0.691266 0.000000
-24.985752 -23.623915 -0.381841 1415 0.722600 0.691266 0.000000
-24.985996 -23.624147 -0.371279 1411 0.722600 0.691266 0.000000
-24.986820 -23.624926 -0.360731 1403 0.722600 0.691266 0.000000
-24.986948 -23.625053 -0.350169 1417 0.722600 0.691266 0.000000
-24.986715 -23.624828 -0.339611 1417 0.722600 0.691266 0.000000
-24.986525 -23.624649 -0.329043 1409 0.722600 0.691266 0.000000
-24.986700 -23.624815 -0.318491 1417 0.722600 0.691266 0.000000
-24.986542 -23.624674 -0.307922 1419 0.722600 0.691266 0.000000
-24.986403 -23.624537 -0.297363 1399 0.722600 0.691266 0.000000
-24.986355 -23.624500 -0.286803 1413 0.722600 0.691266 0.000000
-24.986425 -23.624556 -0.276242 1421 0.722600 0.691266 0.000000
-24.985903 -23.624071 -0.265677 1413 0.722600 0.691266 0.000000
-24.995636 -23.618799 -0.656527 1409 0.722600 0.691266 0.000000
-24.995144 -23.618326 -0.645951 1413 0.722600 0.691266 0.000000
-24.994642 -23.617859 -0.635376 1423 0.722600 0.691266 0.000000
-24.994585 -23.617802 -0.624806 1427 0.722600 0.691266 0.000000
-24.994822 -23.618031 -0.614254 1413 0.722600 0.691266 0.000000
-24.995647 -23.618809 -0.603706 1427 0.722600 0.691266 0.000000
-24.995310 -23.618486 -0.593138 1429 0.722600 0.691266 0.000000
-24.994591 -23.617817 -0.582555 1417 0.722600 0.691266 0.000000
-24.994566 -23.617785 -0.571995 1419 0.722600 0.691266 0.000000
-24.994581 -23.617809 -0.561425 1417 0.722600 0.691266 0.000000
-24.994120 -23.617374 -0.550859 1425 0.722600 0.691266 0.000000
-24.993649 -23.616920 -0.540283 1417 0.722600 0.691266 0.000000
-24.993561 -23.616837 -0.529713 1415 0.722600 0.691266 0.000000
-24.994148 -23.617397 -0.519168 1411 0.722600 0.691266 0.000000
-24.993950 -23.617210 -0.508599 1413 0.722600 0.691266 0.000000
-24.993624 -23.616911 -0.498032 1415 0.722600 0.691266 0.000000
-24.993805 -23.617069 -0.487470 1405 0.722600 0.691266 0.000000
-24.994177 -23.617432 -0.476916 1407 0.722600 0.691266 0.000000
-24.994064 -23.617329 -0.466357 1409 0.722600 0.691266 0.000000
-24.993532 -23.616825 -0.455782 1409 0.722600 0.691266 0.000000
-24.994373 -23.617615 -0.445234 1399 0.722600 0.691266 0.000000
-24.994371 -23.617613 -0.434674 1415 0.722600 0.691266 0.000000
-24.993135 -23.616453 -0.424095 1399 0.722600 0.691266 0.000000
-24.992632 -23.615973 -0.413519 1403 0.722600 0.691266 0.000000
-24.992996 -23.616318 -0.402966 1411 0.722600 0.691266 0.000000
-24.993298 -23.616610 -0.392413 1409 0.722600 0.691266 0.000000
-24.992592 -23.615940 -0.381839 1407 0.722600 0.691266 0.000000
-24.992559 -23.615913 -0.371279 1401 0.722600 0.691266 0.000000
-24.993446 -23.616741 -0.360731 1403 0.722600 0.691266 0.000000
-24.993259 -23.616566 -0.350162 1395 0.722600 0.691266 0.000000
-24.992802 -23.616133 -0.339596 1395 0.722600 0.691266 0.000000
-24.992546 -23.615904 -0.329038 1407 0.722600 0.691266 0.000000
-24.993101 -23.616423 -0.318483 1405 0.722600 0.691266 0.000000
-24.993338 -23.616653 -0.307920 1411 0.722600 0.691266 0.000000
-24.992601 -23.615959 -0.297357 1407 0.722600 0.691266 0.000000
-24.992098 -23.615479 -0.286791 1417 0.722600 0.691266 0.000000
-24.991724 -23.615128 -0.276225 1421 0.722600 0.691266 0.000000
-24.992002 -23.615389 -0.265662 1407 0.722600 0.691266 0.000000
-25.003571 -23.610703 -0.656540 1411 0.722600 0.691266 0.000000
-25.003714 -23.610846 -0.645979 1421 0.722600 0.691266 0.000000
-25.003490 -23.610626 -0.635410 1427 0.722600 0.691266 0.000000
-25.002411 -23.609619 -0.624820 1419 0.722600 0.691266 0.000000
-25.002338 -23.609547 -0.614251 1425 0.722600 0.691266 0.000000
-25.002686 -23.609879 -0.603697 1431 0.722600 0.691266 0.000000
-25.002867 -23.610048 -0.593135 1421 0.722600 0.691266 0.000000
-25.003002 -23.610168 -0.582574 1399 0.722600 0.691266 0.000000
-25.002758 -23.609947 -0.572006 1405 0.722600 0.691266 0.000000
-25.001930 -23.609167 -0.561423 1397 0.722600 0.691266 0.000000
-25.002359 -23.609575 -0.550869 1397 0.722600 0.691266 0.000000
-25.003132 -23.610300 -0.540322 1403 0.722600 0.691266 0.000000
-25.003086 -23.610264 -0.529762 1401 0.722600 0.691266 0.000000
-25.002831 -23.610018 -0.519194 1417 0.722600 0.691266 0.000000
-25.001568 -23.608824 -0.508605 1409 0.722600 0.691266 0.000000
-25.001314 -23.608582 -0.498038 1419 0.722600 0.691266 0.000000
-25.002121 -23.609344 -0.487490 1429 0.722600 0.691266 0.000000
-25.001955 -23.609200 -0.476921 1409 0.722600 0.691266 0.000000
-25.001524 -23.608788 -0.466355 1399 0.722600 0.691266 0.000000
-25.001743 -23.608992 -0.455793 1405 0.722600 0.691266 0.000000
-25.002102 -23.609329 -0.445239 1399 0.722600 0.691266 0.000000
-25.001776 -23.609030 -0.434672 1411 0.722600 0.691266 0.000000
-25.001703 -23.608957 -0.424112 1399 0.722600 0.691266 0.000000
-25.002386 -23.609608 -0.413556 1413 0.722600 0.691266 0.000000
-25.001890 -23.609135 -0.402990 1417 0.722600 0.691266 0.000000
-25.000378 -23.607712 -0.392404 1423 0.722600 0.691266 0.000000
-25.000305 -23.607641 -0.381844 1413 0.722600 0.691266 0.000000
-25.000885 -23.608183 -0.371289 1413 0.722600 0.691266 0.000000
-25.000692 -23.608004 -0.360730 1409 0.722600 0.691266 0.000000
-25.000557 -23.607882 -0.350161 1395 0.722600 0.691266 0.000000
-25.000999 -23.608301 -0.339607 1403 0.722600 0.691266 0.000000
-25.001881 -23.609137 -0.329058 1423 0.722600 0.691266 0.000000
-25.001944 -23.609200 -0.318497 1413 0.722600 0.691266 0.000000
-25.000957 -23.608267 -0.307926 1403 0.722600 0.691266 0.000000
-25.000654 -23.607971 -0.297359 1409 0.722600 0.691266 0.000000
-25.001089 -23.608387 -0.286805 1417 0.722600 0.691266 0.000000
-25.000723 -23.608040 -0.276238 1403 0.722600 0.691266 0.000000
-25.000153 -23.607504 -0.265673 1403 0.722600 0.691266 0.000000
-25.011185 -23.602865 -0.656544 1435 0.722600 0.691266 0.000000
-25.010860 -23.602552 -0.645977 1423 0.722600 0.691266 0.000000
-25.011154 -23.602840 -0.635413 1433 0.722600 0.691266 0.000000
-25.010279 -23.602009 -0.624831 1417 0.722600 0.691266 0.000000
-25.009144 -23.600943 -0.614242 1399 0.722600 0.691266 0.000000
-25.009604 -23.601377 -0.603687 1397 0.722600 0.691266 0.000000
-25.010275 -23.602005 -0.593141 1417 0.722600 0.691266 0.000000
-25.010458 -23.602175 -0.582579 1397 0.722600 0.691266 0.000000
-25.009996 -23.601742 -0.572003 1395 0.722600 0.691266 0.000000
-25.009863 -23.601622 -0.561434 1411 0.722600 0.691266 0.000000
-25.009718 -23.601480 -0.550875 1397 0.722600 0.691266 0.000000
-25.009090 -23.600899 -0.540291 1397 0.722600 0.691266 0.000000
-25.009699 -23.601465 -0.529745 1411 0.722600 0.691266 0.000000
-25.010454 -23.602186 -0.519197 1409 0.722600 0.691266 0.000000
-25.010302 -23.602037 -0.508628 1419 0.722600 0.691266 0.000000
-25.008976 -23.600794 -0.498041 1411 0.722600 0.691266 0.000000
-25.009457 -23.601244 -0.487486 1415 0.722600 0.691266 0.000000
-25.010504 -23.602240 -0.476946 1417 0.722600 0.691266 0.000000
-25.009924 -23.601683 -0.466371 1423 0.722600 0.691266 0.000000
-25.009018 -23.600828 -0.455799 1409 0.722600 0.691266 0.000000
-25.008917 -23.600731 -0.445230 1415 0.722600 0.691266 0.000000
-25.009121 -23.600935 -0.434678 1399 0.722600 0.691266 0.000000
-25.008892 -23.600712 -0.424110 1393 0.722600 0.691266 0.000000
-25.008551 -23.600399 -0.413543 1409 0.722600 0.691266 0.000000
-25.009190 -23.600990 -0.402986 1411 0.722600 0.691266 0.000000
-25.010332 -23.602072 -0.392445 1415 0.722600 0.691266 0.000000
-25.009737 -23.601519 -0.381871 1413 0.722600 0.691266 0.000000
-25.007793 -23.599688 -0.371289 1405 0.722600 0.691266 0.000000
-25.007711 -23.599609 -0.360719 1415 0.722600 0.691266 0.000000
-25.008062 -23.599941 -0.350166 1409 0.722600 0.691266 0.000000
-25.008139 -23.600016 -0.339605 1413 0.722600 0.691266 0.000000
-25.008694 -23.600536 -0.329049 1409 0.722600 0.691266 0.000000
-25.008604 -23.600452 -0.318490 1393 0.722600 0.691266 0.000000
-25.008350 -23.600212 -0.307932 1401 0.722600 0.691266 0.000000
-25.008263 -23.600126 -0.297363 1397 0.722600 0.691266 0.000000
-25.007833 -23.599731 -0.286806 1413 0.722600 0.691266 0.000000
-25.006960 -23.598902 -0.276234 1407 0.722600 0.691266 0.000000
-25.007957 -23.599844 -0.265685 1415 0.722600 0.691266 0.000000
-25.019335 -23.595829 -0.656571 1429 0.722600 0.691266 0.000000
-25.018465 -23.595013 -0.645989 1421 0.722600 0.691266 0.000000
-25.017328 -23.593933 -0.635389 1425 0.722600 0.691266 0.000000
-25.017479 -23.594082 -0.624827 1427 0.722600 0.691266 0.000000
-25.017677 -23.594263 -0.614275 1415 0.722600 0.691266 0.000000
-25.018175 -23.594742 -0.603720 1405 0.722600 0.691266 0.000000
-25.017944 -23.594519 -0.593152 1403 0.722600 0.691266 0.000000
-25.018444 -23.594997 -0.582597 1415 0.722600 0.691266 0.000000
-25.018665 -23.595211 -0.572035 1413 0.722600 0.691266 0.000000
-25.017473 -23.594088 -0.561446 1415 0.722600 0.691266 0.000000
-25.017330 -23.593946 -0.550877 1409 0.722600 0.691266 0.000000
-25.017822 -23.594418 -0.540332 1399 0.722600 0.691266 0.000000
-25.017200 -23.593830 -0.529758 1411 0.722600 0.691266 0.000000
-25.015669 -23.592382 -0.519162 1395 0.722600 0.691266 0.000000
-25.016685 -23.593336 -0.508612 1409 0.722600 0.691266 0.000000
-25.016420 -23.593088 -0.498044 1393 0.722600 0.691266 0.000000
-25.015787 -23.592501 -0.487470 1409 0.722600 0.691266 0.000000
-25.016632 -23.593296 -0.476932 1415 0.722600 0.691266 0.000000
-25.017117 -23.593748 -0.466377 1399 0.722600 0.691266 0.000000
-25.017282 -23.593906 -0.455815 1403 0.722600 0.691266 0.000000
-25.016260 -23.592943 -0.445234 1407 0.722600 0.691266 0.000000
-25.016201 -23.592886 -0.434675 1403 0.722600 0.691266 0.000000
-25.016085 -23.592777 -0.424106 1413 0.722600 0.691266 0.000000
-25.015802 -23.592512 -0.413548 1397 0.722600 0.691266 0.000000
-25.016367 -23.593056 -0.402992 1403 0.722600 0.691266 0.000000
-25.016565 -23.593239 -0.392430 1403 0.722600 0.691266 0.000000
-25.016548 -23.593225 -0.381870 1403 0.722600 0.691266 0.000000
-25.016254 -23.592951 -0.371303 1405 0.722600 0.691266 0.000000
-25.015965 -23.592669 -0.360745 1421 0.722600 0.691266 0.000000
-25.015402 -23.592138 -0.350170 1399 0.722600 0.691266 0.000000
-25.015844 -23.592560 -0.339616 1415 0.722600 0.691266 0.000000
-25.015663 -23.592386 -0.329057 1413 0.722600 0.691266 0.000000
-25.015259 -23.592009 -0.318491 1411 0.722600 0.691266 0.000000
-25.015211 -23.591972 -0.307931 1413 0.722600 0.691266 0.000000
-25.014906 -23.591675 -0.297364 1401 0.722600 0.691266 0.000000
-25.014969 -23.591740 -0.286803 1399 0.722600 0.691266 0.000000
-25.014938 -23.591713 -0.276243 1399 0.722600 0.691266 0.000000
-25.015310 -23.592064 -0.265689 1417 0.722600 0.691266 0.000000
-25.025873 -23.586983 -0.656554 1411 0.722600 0.691266 0.000000
-25.026175 -23.587263 -0.645991 1415 0.722600 0.691266 0.000000
-25.025684 -23.586803 -0.635416 1429 0.722600 0.691266 0.000000
-25.024651 -23.585835 -0.624825 1429 0.722600 0.691266 0.000000
-25.024731 -23.585911 -0.614264 1409 0.722600 0.691266 0.000000
-25.026093 -23.587198 -0.603731 1417 0.722600 0.691266 0.000000
-25.025862 -23.586973 -0.593163 1419 0.722600 0.691266 0.000000
-25.024925 -23.586090 -0.582581 1413 0.722600 0.691266 0.000000
-25.025146 -23.586309 -0.572019 1423 0.722600 0.691266 0.000000
-25.024748 -23.585922 -0.561453 1413 0.722600 0.691266 0.000000
-25.024708 -23.585892 -0.550883 1403 0.722600 0.691266 0.000000
-25.024517 -23.585712 -0.540314 1409 0.722600 0.691266 0.000000
-25.024260 -23.585470 -0.529746 1415 0.722600 0.691266 0.000000
-25.024214 -23.585430 -0.519186 1427 0.722600 0.691266 0.000000
-25.024387 -23.585594 -0.508625 1411 0.722600 0.691266 0.000000
-25.024712 -23.585894 -0.498071 1405 0.722600 0.691266 0.000000
-25.023378 -23.584642 -0.487484 1393 0.722600 0.691266 0.000000
-25.023815 -23.585058 -0.476929 1405 0.722600 0.691266 0.000000
-25.024670 -23.585859 -0.466381 1399 0.722600 0.691266 0.000000
-25.023809 -23.585056 -0.455799 1397 0.722600 0.691266 0.000000
-25.023914 -23.585150 -0.445248 1407 0.722600 0.691266 0.000000
-25.023531 -23.584793 -0.434671 1409 0.722600 0.691266 0.000000
-25.022572 -23.583879 -0.424100 1395 0.722600 0.691266 0.000000
-25.022484 -23.583809 -0.413530 1393 0.722600 0.691266 0.000000
-25.022949 -23.584248 -0.402986 1413 0.722600 0.691266 0.000000
-25.023149 -23.584433 -0.392423 1405 0.722600 0.691266 0.000000
-25.023830 -23.585070 -0.381877 1413 0.722600 0.691266 0.000000
-25.024075 -23.585302 -0.371314 1423 0.722600 0.691266 0.000000
-25.023613 -23.584869 -0.360748 1407 0.722600 0.691266 0.000000
-25.023430 -23.584696 -0.350180 1405 0.722600 0.691266 0.000000
-25.023880 -23.585123 -0.339625 1397 0.722600 0.691266 0.000000
-25.023960 -23.585197 -0.329064 1405 0.722600 0.691266 0.000000
-25.023397 -23.584667 -0.318499 1393 0.722600 0.691266 0.000000
-25.023611 -23.584879 -0.307947 1405 0.722600 0.691266 0.000000
-25.023418 -23.584698 -0.297379 1405 0.722600 0.691266 0.000000
-25.022751 -23.584059 -0.286815 1399 0.722600 0.691266 0.000000
-25.022013 -23.583364 -0.276241 1403 0.722600 0.691266 0.000000
-25.022110 -23.583467 -0.265680 1409 0.722600 0.691266 0.000000
-25.033037 -23.578732 -0.656552 1413 0.722600 0.691266 0.000000
-25.032595 -23.578323 -0.645976 1415 0.722600 0.691266 0.000000
-25.031303 -23.577106 -0.635378 1395 0.722600 0.691266 0.000000
-25.032452 -23.578184 -0.624837 1397 0.722600 0.691266 0.000000
-25.033756 -23.579411 -0.614304 1423 0.722600 0.691266 0.000000
-25.033733 -23.579393 -0.603744 1411 0.722600 0.691266 0.000000
-25.033026 -23.578720 -0.593160 1419 0.722600 0.691266 0.000000
-25.032772 -23.578491 -0.582593 1423 0.722600 0.691266 0.000000
-25.032700 -23.578421 -0.572023 1431 0.722600 0.691266 0.000000
-25.032238 -23.577984 -0.561457 1427 0.722600 0.691266 0.000000
-25.032469 -23.578209 -0.550895 1417 0.722600 0.691266 0.000000
-25.032103 -23.577864 -0.540328 1413 0.722600 0.691266 0.000000
-25.032394 -23.578136 -0.529765 1413 0.722600 0.691266 0.000000
-25.031973 -23.577747 -0.519199 1395 0.722600 0.691266 0.000000
-25.031727 -23.577509 -0.508631 1411 0.722600 0.691266 0.000000
-25.032528 -23.578268 -0.498083 1419 0.722600 0.691266 0.000000
-25.032740 -23.578463 -0.487521 1419 0.722600 0.691266 0.000000
-25.032745 -23.578468 -0.476960 1411 0.722600 0.691266 0.000000
-25.031351 -23.577156 -0.466373 1411 0.722600 0.691266 0.000000
-25.030548 -23.576408 -0.455790 1407 0.722600 0.691266 0.000000
-25.031715 -23.577497 -0.445249 1407 0.722600 0.691266 0.000000
-25.032663 -23.578402 -0.434710 1413 0.722600 0.691266 0.000000
-25.031322 -23.577131 -0.424122 1407 0.722600 0.691266 0.000000
-25.031204 -23.577023 -0.413563 1399 0.722600 0.691266 0.000000
-25.031410 -23.577215 -0.403001 1407 0.722600 0.691266 0.000000
-25.030853 -23.576691 -0.392436 1405 0.722600 0.691266 0.000000
-25.030718 -23.576569 -0.381867 1415 0.722600 0.691266 0.000000
-25.030972 -23.576811 -0.371314 1401 0.722600 0.691266 0.000000
-25.031216 -23.577032 -0.360752 1391 0.722600 0.691266 0.000000
-25.030701 -23.576553 -0.350186 1403 0.722600 0.691266 0.000000
-25.031734 -23.577528 -0.339637 1409 0.722600 0.691266 0.000000
-25.031450 -23.577257 -0.329069 1397 0.722600 0.691266 0.000000
-25.030878 -23.576721 -0.318504 1407 0.722600 0.691266 0.000000
-25.031481 -23.577295 -0.307948 1403 0.722600 0.691266 0.000000
-25.031227 -23.577053 -0.297390 1417 0.722600 0.691266 0.000000
-25.030869 -23.576715 -0.286823 1417 0.722600 0.691266 0.000000
-25.030931 -23.576778 -0.276263 1409 0.722600 0.691266 0.000000
-25.030874 -23.576719 -0.265703 1405 0.722600 0.691266 0.000000
