761
-14.132377 -13.190984 -0.638111 833 0.736548 0.676386 0.000000
-14.131453 -13.190120 -0.632129 833 0.736548 0.676386 0.000000
-14.129556 -13.188344 -0.626107 813 0.736548 0.676386 0.000000
-14.131088 -13.189775 -0.620223 827 0.736548 0.676386 0.000000
-14.132336 -13.190950 -0.614341 823 0.736548 0.676386 0.000000
-14.132314 -13.190927 -0.608391 825 0.736548 0.676386 0.000000
-14.132342 -13.190955 -0.602450 811 0.736548 0.676386 0.000000
-14.132356 -13.190971 -0.596510 799 0.736548 0.676386 0.000000
-14.133023 -13.191592 -0.590594 839 0.736548 0.676386 0.000000
-14.133154 -13.191716 -0.584662 853 0.736548 0.676386 0.000000
-14.132327 -13.190942 -0.578680 823 0.736548 0.676386 0.000000
-14.132551 -13.191155 -0.572748 833 0.736548 0.676386 0.000000
-14.132840 -13.191419 -0.566825 821 0.736548 0.676386 0.000000
-14.131892 -13.190536 -0.560844 825 0.736548 0.676386 0.000000
-14.132016 -13.190653 -0.554902 839 0.736548 0.676386 0.000000
-14.132718 -13.191314 -0.548996 845 0.736548 0.676386 0.000000
-14.131882 -13.190533 -0.543013 853 0.736548 0.676386 0.000000
-14.131782 -13.190434 -0.537074 833 0.736548 0.676386 0.000000
-14.132864 -13.191450 -0.531174 843 0.736548 0.676386 0.000000
-14.131536 -13.190211 -0.525186 819 0.736548 0.676386 0.000000
-14.131167 -13.189869 -0.519229 813 0.736548 0.676386 0.000000
-14.132669 -13.191275 -0.513345 831 0.736548 0.676386 0.000000
-14.132458 -13.191072 -0.507397 829 0.736548 0.676386 0.000000
-14.132835 -13.191433 -0.501463 827 0.736548 0.676386 0.000000
-14.133053 -13.191626 -0.495531 853 0.736548 0.676386 0.000000
-14.132303 -13.190928 -0.489568 823 0.736548 0.676386 0.000000
-14.132615 -13.191224 -0.483635 839 0.736548 0.676386 0.000000
-14.132136 -13.190782 -0.477679 835 0.736548 0.676386 0.000000
-14.131593 -13.190274 -0.471724 829 0.736548 0.676386 0.000000
-14.132129 -13.190775 -0.465799 817 0.736548 0.676386 0.000000
-14.133406 -13.191961 -0.459897 839 0.736548 0.676386 0.000000
-14.132960 -13.191558 -0.453951 853 0.736548 0.676386 0.000000
-14.132528 -13.191154 -0.447995 821 0.736548 0.676386 0.000000
-14.132359 -13.190998 -0.442046 803 0.736548 0.676386 0.000000
-14.132883 -13.191477 -0.436121 827 0.736548 0.676386 0.000000
-14.133728 -13.192277 -0.430213 811 0.736548 0.676386 0.000000
-14.133178 -13.191765 -0.424248 817 0.736548 0.676386 0.000000
-14.132040 -13.190703 -0.418279 821 0.736548 0.676386 0.000000
-14.131584 -13.190279 -0.412333 797 0.736548 0.676386 0.000000
-14.132379 -13.191014 -0.406415 831 0.736548 0.676386 0.000000
-14.132891 -13.191495 -0.400490 817 0.736548 0.676386 0.000000
-14.132229 -13.190880 -0.394526 811 0.736548 0.676386 0.000000
-14.131243 -13.189953 -0.388566 825 0.736548 0.676386 0.000000
-14.130415 -13.189191 -0.382603 809 0.736548 0.676386 0.000000
-14.130548 -13.189317 -0.376672 789 0.736548 0.676386 0.000000
-14.131436 -13.190140 -0.370753 797 0.736548 0.676386 0.000000
-14.132096 -13.190755 -0.364827 795 0.736548 0.676386 0.000000
-14.133574 -13.192140 -0.358933 827 0.736548 0.676386 0.000000
-14.132842 -13.191455 -0.352970 839 0.736548 0.676386 0.000000
-14.131468 -13.190177 -0.347002 825 0.736548 0.676386 0.000000
-14.131329 -13.190048 -0.341064 813 0.736548 0.676386 0.000000
-14.131301 -13.190019 -0.335124 819 0.736548 0.676386 0.000000
-14.131638 -13.190332 -0.329190 817 0.736548 0.676386 0.000000
-14.131869 -13.190552 -0.323258 805 0.736548 0.676386 0.000000
-14.132738 -13.191371 -0.317340 791 0.736548 0.676386 0.000000
-14.133763 -13.192330 -0.311420 801 0.736548 0.676386 0.000000
-14.132389 -13.191040 -0.305453 805 0.736548 0.676386 0.000000
-14.137939 -13.187930 -0.679790 859 0.736548 0.676386 0.000000
-14.136961 -13.187021 -0.673799 859 0.736548 0.676386 0.000000
-14.137377 -13.187413 -0.667875 845 0.736548 0.676386 0.000000
-14.136610 -13.186688 -0.661893 833 0.736548 0.676386 0.000000
-14.135689 -13.185839 -0.655911 819 0.736548 0.676386 0.000000
-14.134869 -13.185072 -0.649929 809 0.736548 0.676386 0.000000
-14.135007 -13.185201 -0.643987 801 0.736548 0.676386 0.000000
-14.137774 -13.187778 -0.638171 825 0.736548 0.676386 0.000000
-14.137960 -13.187959 -0.632239 819 0.736548 0.676386 0.000000
-14.136768 -13.186841 -0.626240 829 0.736548 0.676386 0.000000
-14.137010 -13.187066 -0.620308 849 0.736548 0.676386 0.000000
-14.137037 -13.187096 -0.614367 837 0.736548 0.676386 0.000000
-14.136423 -13.186531 -0.608393 825 0.736548 0.676386 0.000000
-14.136339 -13.186443 -0.602454 827 0.736548 0.676386 0.000000
-14.136527 -13.186626 -0.596512 821 0.736548 0.676386 0.000000
-14.136711 -13.186795 -0.590580 831 0.736548 0.676386 0.000000
-14.137207 -13.187263 -0.584655 849 0.736548 0.676386 0.000000
-14.136642 -13.186738 -0.578690 845 0.736548 0.676386 0.000000
-14.135962 -13.186095 -0.572726 849 0.736548 0.676386 0.000000
-14.137264 -13.187316 -0.566834 851 0.736548 0.676386 0.000000
-14.137824 -13.187836 -0.560919 837 0.736548 0.676386 0.000000
-14.136814 -13.186902 -0.554938 819 0.736548 0.676386 0.000000
-14.135598 -13.185765 -0.548949 827 0.736548 0.676386 0.000000
-14.135024 -13.185233 -0.542984 825 0.736548 0.676386 0.000000
-14.135675 -13.185840 -0.537068 827 0.736548 0.676386 0.000000
-14.136647 -13.186742 -0.531159 815 0.736548 0.676386 0.000000
-14.136499 -13.186604 -0.525220 829 0.736548 0.676386 0.000000
-14.136615 -13.186715 -0.519279 829 0.736548 0.676386 0.000000
-14.136722 -13.186820 -0.513338 845 0.736548 0.676386 0.000000
-14.136242 -13.186378 -0.507382 835 0.736548 0.676386 0.000000
-14.136031 -13.186176 -0.501434 827 0.736548 0.676386 0.000000
-14.135655 -13.185829 -0.495487 805 0.736548 0.676386 0.000000
-14.136143 -13.186278 -0.489563 821 0.736548 0.676386 0.000000
-14.136511 -13.186631 -0.483629 825 0.736548 0.676386 0.000000
-14.135445 -13.185627 -0.477659 831 0.736548 0.676386 0.000000
-14.135385 -13.185573 -0.471719 813 0.736548 0.676386 0.000000
-14.136982 -13.187067 -0.465824 819 0.736548 0.676386 0.000000
-14.137136 -13.187210 -0.459893 831 0.736548 0.676386 0.000000
-14.136918 -13.187016 -0.453945 841 0.736548 0.676386 0.000000
-14.136692 -13.186802 -0.447996 827 0.736548 0.676386 0.000000
-14.136797 -13.186893 -0.442055 823 0.736548 0.676386 0.000000
-14.136565 -13.186687 -0.436117 825 0.736548 0.676386 0.000000
-14.136551 -13.186670 -0.430177 819 0.736548 0.676386 0.000000
-14.136911 -13.187004 -0.424244 819 0.736548 0.676386 0.000000
-14.135714 -13.185893 -0.418275 815 0.736548 0.676386 0.000000
-14.135487 -13.185678 -0.412327 791 0.736548 0.676386 0.000000
-14.136377 -13.186518 -0.406408 789 0.736548 0.676386 0.000000
-14.136144 -13.186296 -0.400460 833 0.736548 0.676386 0.000000
-14.136434 -13.186574 -0.394538 829 0.736548 0.676386 0.000000
-14.135880 -13.186047 -0.388583 821 0.736548 0.676386 0.000000
-14.134681 -13.184936 -0.382614 823 0.736548 0.676386 0.000000
-14.135406 -13.185614 -0.376687 799 0.736548 0.676386 0.000000
-14.136186 -13.186336 -0.370769 823 0.736548 0.676386 0.000000
-14.136586 -13.186716 -0.364846 843 0.736548 0.676386 0.000000
-14.136923 -13.187031 -0.358912 831 0.736548 0.676386 0.000000
-14.137861 -13.187907 -0.352993 813 0.736548 0.676386 0.000000
-14.138045 -13.188075 -0.347061 799 0.736548 0.676386 0.000000
-14.136457 -13.186600 -0.341086 815 0.736548 0.676386 0.000000
-14.137064 -13.187170 -0.335160 811 0.736548 0.676386 0.000000
-14.137353 -13.187434 -0.329227 803 0.736548 0.676386 0.000000
-14.136239 -13.186392 -0.323268 819 0.736548 0.676386 0.000000
-14.136045 -13.186217 -0.317319 805 0.736548 0.676386 0.000000
-14.135630 -13.185824 -0.311373 777 0.736548 0.676386 0.000000
-14.136229 -13.186389 -0.305447 793 0.736548 0.676386 0.000000
-14.140889 -13.181974 -0.679726 813 0.736548 0.676386 0.000000
-14.140235 -13.181365 -0.673752 819 0.736548 0.676386 0.000000
-14.140388 -13.181508 -0.667810 827 0.736548 0.676386 0.000000
-14.140314 -13.181441 -0.661861 829 0.736548 0.676386 0.000000
-14.140888 -13.181973 -0.655945 839 0.736548 0.676386 0.000000
-14.140820 -13.181911 -0.650006 835 0.736548 0.676386 0.000000
-14.140318 -13.181451 -0.644040 809 0.736548 0.676386 0.000000
-14.140400 -13.181523 -0.638099 813 0.736548 0.676386 0.000000
-14.141292 -13.182361 -0.632191 815 0.736548 0.676386 0.000000
-14.141644 -13.182689 -0.626267 831 0.736548 0.676386 0.000000
-14.141028 -13.182111 -0.620293 831 0.736548 0.676386 0.000000
-14.142284 -13.183280 -0.614401 823 0.736548 0.676386 0.000000
-14.142154 -13.183169 -0.608462 837 0.736548 0.676386 0.000000
-14.139662 -13.180840 -0.602415 837 0.736548 0.676386 0.000000
-14.140061 -13.181218 -0.596481 827 0.736548 0.676386 0.000000
-14.141579 -13.182637 -0.590607 859 0.736548 0.676386 0.000000
-14.141020 -13.182103 -0.584642 817 0.736548 0.676386 0.000000
-14.140771 -13.181884 -0.578684 809 0.736548 0.676386 0.000000
-14.141218 -13.182302 -0.572760 827 0.736548 0.676386 0.000000
-14.141022 -13.182112 -0.566812 831 0.736548 0.676386 0.000000
-14.140553 -13.181676 -0.560856 841 0.736548 0.676386 0.000000
-14.140350 -13.181495 -0.554908 839 0.736548 0.676386 0.000000
-14.141113 -13.182204 -0.548990 863 0.736548 0.676386 0.000000
-14.141824 -13.182870 -0.543074 855 0.736548 0.676386 0.000000
-14.141193 -13.182281 -0.537109 833 0.736548 0.676386 0.000000
-14.140935 -13.182041 -0.531162 813 0.736548 0.676386 0.000000
-14.141105 -13.182197 -0.525230 833 0.736548 0.676386 0.000000
-14.140799 -13.181906 -0.519273 845 0.736548 0.676386 0.000000
-14.140583 -13.181712 -0.513325 829 0.736548 0.676386 0.000000
-14.141227 -13.182314 -0.507408 841 0.736548 0.676386 0.000000
-14.141174 -13.182265 -0.501469 819 0.736548 0.676386 0.000000
-14.140275 -13.181420 -0.495497 795 0.736548 0.676386 0.000000
-14.140114 -13.181271 -0.489548 843 0.736548 0.676386 0.000000
-14.140758 -13.181872 -0.483632 831 0.736548 0.676386 0.000000
-14.141008 -13.182119 -0.477700 801 0.736548 0.676386 0.000000
-14.139997 -13.181171 -0.471729 813 0.736548 0.676386 0.000000
-14.139994 -13.181162 -0.465789 805 0.736548 0.676386 0.000000
-14.140838 -13.181962 -0.459871 817 0.736548 0.676386 0.000000
-14.140778 -13.181908 -0.453931 817 0.736548 0.676386 0.000000
-14.140925 -13.182045 -0.448000 841 0.736548 0.676386 0.000000
-14.139637 -13.180837 -0.442012 827 0.736548 0.676386 0.000000
-14.140425 -13.181578 -0.436104 821 0.736548 0.676386 0.000000
-14.141489 -13.182569 -0.430194 825 0.736548 0.676386 0.000000
-14.140567 -13.181705 -0.424223 799 0.736548 0.676386 0.000000
-14.140704 -13.181834 -0.418291 795 0.736548 0.676386 0.000000
-14.140416 -13.181571 -0.412344 803 0.736548 0.676386 0.000000
-14.140562 -13.181708 -0.406412 813 0.736548 0.676386 0.000000
-14.139956 -13.181137 -0.400448 799 0.736548 0.676386 0.000000
-14.139342 -13.180573 -0.394493 797 0.736548 0.676386 0.000000
-14.139052 -13.180296 -0.388556 805 0.736548 0.676386 0.000000
-14.139080 -13.180325 -0.382616 807 0.736548 0.676386 0.000000
-14.139806 -13.181003 -0.376699 793 0.736548 0.676386 0.000000
-14.138874 -13.180133 -0.370727 783 0.736548 0.676386 0.000000
-14.139480 -13.180703 -0.364811 793 0.736548 0.676386 0.000000
-14.140316 -13.181483 -0.358893 787 0.736548 0.676386 0.000000
-14.139795 -13.180994 -0.352938 809 0.736548 0.676386 0.000000
-14.140884 -13.182017 -0.347028 805 0.736548 0.676386 0.000000
-14.141602 -13.182690 -0.341111 815 0.736548 0.676386 0.000000
-14.141035 -13.182163 -0.335156 795 0.736548 0.676386 0.000000
-14.139931 -13.181128 -0.329186 795 0.736548 0.676386 0.000000
-14.141066 -13.182188 -0.323275 807 0.736548 0.676386 0.000000
-14.142314 -13.183351 -0.317364 789 0.736548 0.676386 0.000000
-14.140780 -13.181920 -0.311398 791 0.736548 0.676386 0.000000
-14.139612 -13.180834 -0.305429 797 0.736548 0.676386 0.000000
-14.144403 -13.176703 -0.679685 827 0.736548 0.676386 0.000000
-14.143853 -13.176191 -0.673720 819 0.736548 0.676386 0.000000
-14.144537 -13.176824 -0.667813 815 0.736548 0.676386 0.000000
-14.144905 -13.177164 -0.661880 813 0.736548 0.676386 0.000000
-14.145043 -13.177295 -0.655948 827 0.736548 0.676386 0.000000
-14.145673 -13.177883 -0.650032 835 0.736548 0.676386 0.000000
-14.145163 -13.177415 -0.644067 803 0.736548 0.676386 0.000000
-14.144937 -13.177201 -0.638109 803 0.736548 0.676386 0.000000
-14.145350 -13.177579 -0.632185 827 0.736548 0.676386 0.000000
-14.145689 -13.177909 -0.626262 825 0.736548 0.676386 0.000000
-14.146206 -13.178383 -0.620337 835 0.736548 0.676386 0.000000
-14.145108 -13.177366 -0.614347 819 0.736548 0.676386 0.000000
-14.145233 -13.177485 -0.608405 817 0.736548 0.676386 0.000000
-14.146281 -13.178462 -0.602516 809 0.736548 0.676386 0.000000
-14.145303 -13.177541 -0.596525 821 0.736548 0.676386 0.000000
-14.144729 -13.177009 -0.590560 837 0.736548 0.676386 0.000000
-14.145286 -13.177526 -0.584644 811 0.736548 0.676386 0.000000
-14.145678 -13.177899 -0.578721 809 0.736548 0.676386 0.000000
-14.146188 -13.178367 -0.572796 827 0.736548 0.676386 0.000000
-14.146200 -13.178382 -0.566855 831 0.736548 0.676386 0.000000
-14.144714 -13.177004 -0.560849 825 0.736548 0.676386 0.000000
-14.143706 -13.176071 -0.554869 843 0.736548 0.676386 0.000000
-14.143188 -13.175583 -0.548913 833 0.736548 0.676386 0.000000
-14.143365 -13.175746 -0.542981 825 0.736548 0.676386 0.000000
-14.144334 -13.176646 -0.537072 837 0.736548 0.676386 0.000000
-14.145684 -13.177917 -0.531179 827 0.736548 0.676386 0.000000
-14.145957 -13.178167 -0.525247 831 0.736548 0.676386 0.000000
-14.143933 -13.176278 -0.519235 837 0.736548 0.676386 0.000000
-14.143193 -13.175588 -0.513272 811 0.736548 0.676386 0.000000
-14.144482 -13.176796 -0.507380 817 0.736548 0.676386 0.000000
-14.145069 -13.177339 -0.501454 811 0.736548 0.676386 0.000000
-14.144907 -13.177189 -0.495506 799 0.736548 0.676386 0.000000
-14.144278 -13.176600 -0.489552 845 0.736548 0.676386 0.000000
-14.144156 -13.176496 -0.483603 835 0.736548 0.676386 0.000000
-14.144855 -13.177140 -0.477686 841 0.736548 0.676386 0.000000
-14.146025 -13.178240 -0.471785 841 0.736548 0.676386 0.000000
-14.145219 -13.177485 -0.465822 805 0.736548 0.676386 0.000000
-14.144138 -13.176480 -0.459842 789 0.736548 0.676386 0.000000
-14.145100 -13.177375 -0.453933 813 0.736548 0.676386 0.000000
-14.144392 -13.176723 -0.447969 821 0.736548 0.676386 0.000000
-14.144974 -13.177260 -0.442054 805 0.736548 0.676386 0.000000
-14.145016 -13.177300 -0.436113 825 0.736548 0.676386 0.000000
-14.144307 -13.176635 -0.430150 813 0.736548 0.676386 0.000000
-14.144714 -13.177020 -0.424226 823 0.736548 0.676386 0.000000
-14.145130 -13.177412 -0.418302 811 0.736548 0.676386 0.000000
-14.146502 -13.178688 -0.412399 835 0.736548 0.676386 0.000000
-14.147125 -13.179271 -0.406473 837 0.736548 0.676386 0.000000
-14.146415 -13.178604 -0.400519 823 0.736548 0.676386 0.000000
-14.145906 -13.178137 -0.394564 807 0.736548 0.676386 0.000000
-14.145410 -13.177669 -0.388609 803 0.736548 0.676386 0.000000
-14.144313 -13.176653 -0.382639 797 0.736548 0.676386 0.000000
-14.144769 -13.177075 -0.376714 779 0.736548 0.676386 0.000000
-14.145533 -13.177799 -0.370797 779 0.736548 0.676386 0.000000
-14.144602 -13.176929 -0.364836 791 0.736548 0.676386 0.000000
-14.145161 -13.177448 -0.358910 803 0.736548 0.676386 0.000000
-14.146201 -13.178419 -0.352990 815 0.736548 0.676386 0.000000
-14.145849 -13.178091 -0.347043 797 0.736548 0.676386 0.000000
-14.146406 -13.178609 -0.341118 783 0.736548 0.676386 0.000000
-14.146481 -13.178675 -0.335187 803 0.736548 0.676386 0.000000
-14.145209 -13.177494 -0.329219 789 0.736548 0.676386 0.000000
-14.144533 -13.176867 -0.323265 789 0.736548 0.676386 0.000000
-14.145083 -13.177379 -0.317340 797 0.736548 0.676386 0.000000
-14.145301 -13.177585 -0.311408 793 0.736548 0.676386 0.000000
-14.144949 -13.177258 -0.305461 809 0.736548 0.676386 0.000000
-14.149685 -13.173071 -0.679738 817 0.736548 0.676386 0.000000
-14.150203 -13.173557 -0.673823 831 0.736548 0.676386 0.000000
-14.149495 -13.172905 -0.667839 797 0.736548 0.676386 0.000000
-14.148943 -13.172391 -0.661874 803 0.736548 0.676386 0.000000
-14.148979 -13.172427 -0.655934 799 0.736548 0.676386 0.000000
-14.150787 -13.174103 -0.650067 801 0.736548 0.676386 0.000000
-14.151574 -13.174832 -0.644159 829 0.736548 0.676386 0.000000
-14.149940 -13.173320 -0.638144 819 0.736548 0.676386 0.000000
-14.149866 -13.173254 -0.632195 813 0.736548 0.676386 0.000000
-14.149742 -13.173135 -0.626246 809 0.736548 0.676386 0.000000
-14.149176 -13.172609 -0.620281 799 0.736548 0.676386 0.000000
-14.149314 -13.172741 -0.614349 803 0.736548 0.676386 0.000000
-14.148493 -13.171971 -0.608367 819 0.736548 0.676386 0.000000
-14.148189 -13.171695 -0.602420 827 0.736548 0.676386 0.000000
-14.149119 -13.172564 -0.596511 835 0.736548 0.676386 0.000000
-14.148877 -13.172338 -0.590563 805 0.736548 0.676386 0.000000
-14.149009 -13.172462 -0.584622 797 0.736548 0.676386 0.000000
-14.150420 -13.173770 -0.578738 819 0.736548 0.676386 0.000000
-14.150654 -13.173989 -0.572806 827 0.736548 0.676386 0.000000
-14.149817 -13.173208 -0.566834 807 0.736548 0.676386 0.000000
-14.148492 -13.171983 -0.560836 803 0.736548 0.676386 0.000000
-14.148235 -13.171743 -0.554888 815 0.736548 0.676386 0.000000
-14.149861 -13.173249 -0.549003 811 0.736548 0.676386 0.000000
-14.151854 -13.175113 -0.543134 837 0.736548 0.676386 0.000000
-14.151658 -13.174923 -0.537186 813 0.736548 0.676386 0.000000
-14.150206 -13.173583 -0.531199 831 0.736548 0.676386 0.000000
-14.150113 -13.173491 -0.525250 827 0.736548 0.676386 0.000000
-14.151139 -13.174449 -0.519340 849 0.736548 0.676386 0.000000
-14.151523 -13.174802 -0.513416 839 0.736548 0.676386 0.000000
-14.150878 -13.174212 -0.507452 833 0.736548 0.676386 0.000000
-14.149978 -13.173368 -0.501481 825 0.736548 0.676386 0.000000
-14.149705 -13.173116 -0.495533 829 0.736548 0.676386 0.000000
-14.149392 -13.172820 -0.489576 833 0.736548 0.676386 0.000000
-14.148685 -13.172168 -0.483612 807 0.736548 0.676386 0.000000
-14.148790 -13.172272 -0.477681 821 0.736548 0.676386 0.000000
-14.148896 -13.172363 -0.471740 813 0.736548 0.676386 0.000000
-14.148513 -13.172010 -0.465793 773 0.736548 0.676386 0.000000
-14.149530 -13.172963 -0.459884 811 0.736548 0.676386 0.000000
-14.150588 -13.173947 -0.453974 831 0.736548 0.676386 0.000000
-14.150630 -13.173987 -0.448033 835 0.736548 0.676386 0.000000
-14.150403 -13.173773 -0.442085 807 0.736548 0.676386 0.000000
-14.149433 -13.172872 -0.436124 841 0.736548 0.676386 0.000000
-14.148519 -13.172014 -0.430153 807 0.736548 0.676386 0.000000
-14.148658 -13.172146 -0.424221 797 0.736548 0.676386 0.000000
-14.147783 -13.171333 -0.418249 803 0.736548 0.676386 0.000000
-14.147818 -13.171368 -0.412319 813 0.736548 0.676386 0.000000
-14.149785 -13.173199 -0.406430 803 0.736548 0.676386 0.000000
-14.150034 -13.173430 -0.400498 813 0.736548 0.676386 0.000000
-14.149476 -13.172912 -0.394543 799 0.736548 0.676386 0.000000
-14.150146 -13.173546 -0.388626 809 0.736548 0.676386 0.000000
-14.150490 -13.173866 -0.382693 819 0.736548 0.676386 0.000000
-14.151111 -13.174436 -0.376767 813 0.736548 0.676386 0.000000
-14.151091 -13.174427 -0.370827 799 0.736548 0.676386 0.000000
-14.150151 -13.173551 -0.364866 783 0.736548 0.676386 0.000000
-14.149102 -13.172572 -0.358905 789 0.736548 0.676386 0.000000
-14.147785 -13.171353 -0.352928 795 0.736548 0.676386 0.000000
-14.147750 -13.171318 -0.346998 797 0.736548 0.676386 0.000000
-14.148520 -13.172034 -0.341070 777 0.736548 0.676386 0.000000
-14.149024 -13.172508 -0.335145 799 0.736548 0.676386 0.000000
-14.150325 -13.173715 -0.329233 799 0.736548 0.676386 0.000000
-14.149972 -13.173387 -0.323286 785 0.736548 0.676386 0.000000
-14.148590 -13.172102 -0.317319 779 0.736548 0.676386 0.000000
-14.149251 -13.172716 -0.311403 803 0.736548 0.676386 0.000000
-14.149850 -13.173281 -0.305477 807 0.736548 0.676386 0.000000
-14.153563 -13.168144 -0.679723 819 0.736548 0.676386 0.000000
-14.154367 -13.168885 -0.673816 819 0.736548 0.676386 0.000000
-14.153380 -13.167972 -0.667825 801 0.736548 0.676386 0.000000
-14.152893 -13.167508 -0.661859 801 0.736548 0.676386 0.000000
-14.153839 -13.168390 -0.655960 797 0.736548 0.676386 0.000000
-14.154943 -13.169426 -0.650070 815 0.736548 0.676386 0.000000
-14.154655 -13.169162 -0.644112 803 0.736548 0.676386 0.000000
-14.154199 -13.168737 -0.638147 803 0.736548 0.676386 0.000000
-14.153711 -13.168275 -0.632181 795 0.736548 0.676386 0.000000
-14.152987 -13.167609 -0.626208 789 0.736548 0.676386 0.000000
-14.154352 -13.168880 -0.620325 805 0.736548 0.676386 0.000000
-14.155181 -13.169654 -0.614417 817 0.736548 0.676386 0.000000
-14.153980 -13.168529 -0.608428 787 0.736548 0.676386 0.000000
-14.152345 -13.167017 -0.602413 817 0.736548 0.676386 0.000000
-14.151993 -13.166688 -0.596456 791 0.736548 0.676386 0.000000
-14.152607 -13.167265 -0.590540 785 0.736548 0.676386 0.000000
-14.153646 -13.168222 -0.584640 795 0.736548 0.676386 0.000000
-14.153342 -13.167945 -0.578683 815 0.736548 0.676386 0.000000
-14.152349 -13.167025 -0.572702 819 0.736548 0.676386 0.000000
-14.153215 -13.167830 -0.566794 827 0.736548 0.676386 0.000000
-14.153937 -13.168493 -0.560887 851 0.736548 0.676386 0.000000
-14.153467 -13.168057 -0.554921 815 0.736548 0.676386 0.000000
-14.152728 -13.167381 -0.548958 815 0.736548 0.676386 0.000000
-14.152635 -13.167287 -0.543009 823 0.736548 0.676386 0.000000
-14.153400 -13.167997 -0.537102 817 0.736548 0.676386 0.000000
-14.153942 -13.168504 -0.531176 835 0.736548 0.676386 0.000000
-14.153358 -13.167965 -0.525212 817 0.736548 0.676386 0.000000
-14.153847 -13.168427 -0.519287 815 0.736548 0.676386 0.000000
-14.154230 -13.168780 -0.513363 813 0.736548 0.676386 0.000000
-14.154178 -13.168732 -0.507424 831 0.736548 0.676386 0.000000
-14.153802 -13.168385 -0.501467 817 0.736548 0.676386 0.000000
-14.154076 -13.168635 -0.495534 809 0.736548 0.676386 0.000000
-14.154134 -13.168690 -0.489594 825 0.736548 0.676386 0.000000
-14.153647 -13.168241 -0.483638 815 0.736548 0.676386 0.000000
-14.153429 -13.168033 -0.477690 811 0.736548 0.676386 0.000000
-14.153266 -13.167882 -0.471751 801 0.736548 0.676386 0.000000
-14.153580 -13.168180 -0.465818 817 0.736548 0.676386 0.000000
-14.152713 -13.167374 -0.459846 821 0.736548 0.676386 0.000000
-14.152653 -13.167318 -0.453907 835 0.736548 0.676386 0.000000
-14.153345 -13.167959 -0.447990 811 0.736548 0.676386 0.000000
-14.153603 -13.168210 -0.442057 789 0.736548 0.676386 0.000000
-14.154066 -13.168640 -0.436133 795 0.736548 0.676386 0.000000
-14.153838 -13.168427 -0.430185 797 0.736548 0.676386 0.000000
-14.153400 -13.168015 -0.424239 793 0.736548 0.676386 0.000000
-14.154717 -13.169247 -0.418336 809 0.736548 0.676386 0.000000
-14.154815 -13.169332 -0.412395 805 0.736548 0.676386 0.000000
-14.153181 -13.167820 -0.406410 813 0.736548 0.676386 0.000000
-14.152742 -13.167410 -0.400454 799 0.736548 0.676386 0.000000
-14.153569 -13.168182 -0.394547 795 0.736548 0.676386 0.000000
-14.154459 -13.169007 -0.388628 807 0.736548 0.676386 0.000000
-14.154654 -13.169195 -0.382696 825 0.736548 0.676386 0.000000
-14.154576 -13.169113 -0.376747 815 0.736548 0.676386 0.000000
-14.153956 -13.168544 -0.370792 809 0.736548 0.676386 0.000000
-14.154141 -13.168713 -0.364860 821 0.736548 0.676386 0.000000
-14.154653 -13.169193 -0.358935 805 0.736548 0.676386 0.000000
-14.153872 -13.168470 -0.352983 797 0.736548 0.676386 0.000000
-14.154430 -13.168990 -0.347057 797 0.736548 0.676386 0.000000
-14.153697 -13.168303 -0.341094 801 0.736548 0.676386 0.000000
-14.153021 -13.167677 -0.335140 789 0.736548 0.676386 0.000000
-14.154805 -13.169335 -0.329243 801 0.736548 0.676386 0.000000
-14.154280 -13.168856 -0.323298 791 0.736548 0.676386 0.000000
-14.153128 -13.167782 -0.317329 785 0.736548 0.676386 0.000000
-14.153731 -13.168337 -0.311403 793 0.736548 0.676386 0.000000
-14.153847 -13.168449 -0.305472 797 0.736548 0.676386 0.000000
-14.159435 -13.165371 -0.679809 801 0.736548 0.676386 0.000000
-14.159211 -13.165171 -0.673851 797 0.736548 0.676386 0.000000
-14.159246 -13.165206 -0.667911 809 0.736548 0.676386 0.000000
-14.159669 -13.165590 -0.661986 801 0.736548 0.676386 0.000000
-14.159760 -13.165682 -0.656045 805 0.736548 0.676386 0.000000
-14.159312 -13.165264 -0.650079 805 0.736548 0.676386 0.000000
-14.158968 -13.164944 -0.644123 835 0.736548 0.676386 0.000000
-14.158632 -13.164628 -0.638166 809 0.736548 0.676386 0.000000
-14.158992 -13.164962 -0.632232 793 0.736548 0.676386 0.000000
-14.159233 -13.165187 -0.626300 799 0.736548 0.676386 0.000000
-14.159307 -13.165267 -0.620359 807 0.736548 0.676386 0.000000
-14.158853 -13.164844 -0.614403 827 0.736548 0.676386 0.000000
-14.158404 -13.164425 -0.608437 797 0.736548 0.676386 0.000000
-14.158107 -13.164141 -0.602480 789 0.736548 0.676386 0.000000
-14.159044 -13.165017 -0.596581 809 0.736548 0.676386 0.000000
-14.159122 -13.165097 -0.590640 809 0.736548 0.676386 0.000000
-14.158872 -13.164865 -0.584692 803 0.736548 0.676386 0.000000
-14.158360 -13.164382 -0.578727 815 0.736548 0.676386 0.000000
-14.156608 -13.162763 -0.572713 807 0.736548 0.676386 0.000000
-14.156571 -13.162728 -0.566773 797 0.736548 0.676386 0.000000
-14.156478 -13.162633 -0.560824 801 0.736548 0.676386 0.000000
-14.157355 -13.163459 -0.554915 793 0.736548 0.676386 0.000000
-14.159781 -13.165709 -0.549073 813 0.736548 0.676386 0.000000
-14.159096 -13.165075 -0.543099 819 0.736548 0.676386 0.000000
-14.157817 -13.163888 -0.537111 813 0.736548 0.676386 0.000000
-14.158034 -13.164095 -0.531179 795 0.736548 0.676386 0.000000
-14.157666 -13.163754 -0.525222 803 0.736548 0.676386 0.000000
-14.158542 -13.164565 -0.519314 837 0.736548 0.676386 0.000000
-14.158653 -13.164663 -0.513382 831 0.736548 0.676386 0.000000
-14.157264 -13.163373 -0.507385 805 0.736548 0.676386 0.000000
-14.157585 -13.163676 -0.501462 799 0.736548 0.676386 0.000000
-14.158873 -13.164870 -0.495560 805 0.736548 0.676386 0.000000
-14.158876 -13.164880 -0.489620 821 0.736548 0.676386 0.000000
-14.157960 -13.164021 -0.483648 827 0.736548 0.676386 0.000000
-14.158543 -13.164573 -0.477733 813 0.736548 0.676386 0.000000
-14.158271 -13.164322 -0.471775 809 0.736548 0.676386 0.000000
-14.156237 -13.162425 -0.465774 833 0.736548 0.676386 0.000000
-14.155538 -13.161780 -0.459810 791 0.736548 0.676386 0.000000
-14.157670 -13.163756 -0.453940 805 0.736548 0.676386 0.000000
-14.159645 -13.165593 -0.448061 803 0.736548 0.676386 0.000000
-14.158777 -13.164786 -0.442090 825 0.736548 0.676386 0.000000
-14.157689 -13.163777 -0.436120 817 0.736548 0.676386 0.000000
-14.157947 -13.164017 -0.430187 803 0.736548 0.676386 0.000000
-14.158567 -13.164598 -0.424271 805 0.736548 0.676386 0.000000
-14.158983 -13.164990 -0.418337 795 0.736548 0.676386 0.000000
-14.158964 -13.164968 -0.412397 807 0.736548 0.676386 0.000000
-14.159269 -13.165258 -0.406464 809 0.736548 0.676386 0.000000
-14.159248 -13.165235 -0.400524 803 0.736548 0.676386 0.000000
-14.158317 -13.164365 -0.394563 801 0.736548 0.676386 0.000000
-14.157228 -13.163355 -0.388593 803 0.736548 0.676386 0.000000
-14.157684 -13.163778 -0.382668 809 0.736548 0.676386 0.000000
-14.158408 -13.164456 -0.376751 815 0.736548 0.676386 0.000000
-14.157898 -13.163988 -0.370796 811 0.736548 0.676386 0.000000
-14.158194 -13.164259 -0.364863 811 0.736548 0.676386 0.000000
-14.158912 -13.164931 -0.358946 801 0.736548 0.676386 0.000000
-14.158509 -13.164551 -0.352990 787 0.736548 0.676386 0.000000
-14.157619 -13.163727 -0.347038 801 0.736548 0.676386 0.000000
-14.156887 -13.163042 -0.341075 789 0.736548 0.676386 0.000000
-14.157066 -13.163218 -0.335143 781 0.736548 0.676386 0.000000
-14.158423 -13.164482 -0.329240 789 0.736548 0.676386 0.000000
-14.158869 -13.164897 -0.323306 783 0.736548 0.676386 0.000000
-14.158351 -13.164410 -0.317361 771 0.736548 0.676386 0.000000
-14.158150 -13.164228 -0.311412 805 0.736548 0.676386 0.000000
-14.158477 -13.164537 -0.305479 781 0.736548 0.676386 0.000000
-14.162557 -13.160515 -0.679778 795 0.736548 0.676386 0.000000
-14.161048 -13.159117 -0.673762 793 0.736548 0.676386 0.000000
-14.161939 -13.159954 -0.667864 807 0.736548 0.676386 0.000000
-14.162892 -13.160830 -0.661955 795 0.736548 0.676386 0.000000
-14.162659 -13.160623 -0.656007 793 0.736548 0.676386 0.000000
-14.163176 -13.161095 -0.650082 805 0.736548 0.676386 0.000000
-14.163322 -13.161233 -0.644150 799 0.736548 0.676386 0.000000
-14.161798 -13.159822 -0.638134 805 0.736548 0.676386 0.000000
-14.161288 -13.159354 -0.632169 785 0.736548 0.676386 0.000000
-14.161972 -13.159986 -0.626252 795 0.736548 0.676386 0.000000
-14.161358 -13.159410 -0.620288 799 0.736548 0.676386 0.000000
-14.161701 -13.159731 -0.614365 779 0.736548 0.676386 0.000000
-14.162379 -13.160358 -0.608448 781 0.736548 0.676386 0.000000
-14.161757 -13.159788 -0.602474 783 0.736548 0.676386 0.000000
-14.162323 -13.160314 -0.596558 807 0.736548 0.676386 0.000000
-14.163143 -13.161081 -0.590650 817 0.736548 0.676386 0.000000
-14.162418 -13.160401 -0.584677 817 0.736548 0.676386 0.000000
-14.162603 -13.160570 -0.578745 811 0.736548 0.676386 0.000000
-14.163422 -13.161337 -0.572827 813 0.736548 0.676386 0.000000
-14.162096 -13.160111 -0.566840 789 0.736548 0.676386 0.000000
-14.161682 -13.159719 -0.560883 803 0.736548 0.676386 0.000000
-14.161700 -13.159741 -0.554943 811 0.736548 0.676386 0.000000
-14.162305 -13.160298 -0.549017 807 0.736548 0.676386 0.000000
-14.163069 -13.161007 -0.543110 825 0.736548 0.676386 0.000000
-14.162162 -13.160170 -0.537128 803 0.736548 0.676386 0.000000
-14.162119 -13.160129 -0.531189 805 0.736548 0.676386 0.000000
-14.162668 -13.160641 -0.525263 815 0.736548 0.676386 0.000000
-14.163100 -13.161044 -0.519339 815 0.736548 0.676386 0.000000
-14.163215 -13.161157 -0.513408 813 0.736548 0.676386 0.000000
-14.163701 -13.161605 -0.507483 805 0.736548 0.676386 0.000000
-14.164187 -13.162053 -0.501559 821 0.736548 0.676386 0.000000
-14.162363 -13.160362 -0.495556 819 0.736548 0.676386 0.000000
-14.161623 -13.159673 -0.489582 797 0.736548 0.676386 0.000000
-14.161509 -13.159574 -0.483643 801 0.736548 0.676386 0.000000
-14.161400 -13.159467 -0.477694 809 0.736548 0.676386 0.000000
-14.162894 -13.160867 -0.471810 813 0.736548 0.676386 0.000000
-14.163101 -13.161052 -0.465868 817 0.736548 0.676386 0.000000
-14.162505 -13.160502 -0.459913 807 0.736548 0.676386 0.000000
-14.161749 -13.159798 -0.453950 821 0.736548 0.676386 0.000000
-14.162268 -13.160285 -0.448025 807 0.736548 0.676386 0.000000
-14.163443 -13.161377 -0.442124 805 0.736548 0.676386 0.000000
-14.162845 -13.160826 -0.436159 807 0.736548 0.676386 0.000000
-14.162715 -13.160702 -0.430221 781 0.736548 0.676386 0.000000
-14.163516 -13.161442 -0.424303 803 0.736548 0.676386 0.000000
-14.162048 -13.160076 -0.418316 807 0.736548 0.676386 0.000000
-14.160531 -13.158671 -0.412341 781 0.736548 0.676386 0.000000
-14.161801 -13.159853 -0.406429 779 0.736548 0.676386 0.000000
-14.163224 -13.161181 -0.400535 789 0.736548 0.676386 0.000000
-14.164064 -13.161953 -0.394617 789 0.736548 0.676386 0.000000
-14.164307 -13.162179 -0.388685 805 0.736548 0.676386 0.000000
-14.162619 -13.160625 -0.382700 803 0.736548 0.676386 0.000000
-14.161632 -13.159696 -0.376729 787 0.736548 0.676386 0.000000
-14.161928 -13.159980 -0.370796 791 0.736548 0.676386 0.000000
-14.161733 -13.159791 -0.364858 771 0.736548 0.676386 0.000000
-14.161065 -13.159184 -0.358904 757 0.736548 0.676386 0.000000
-14.161407 -13.159491 -0.352971 757 0.736548 0.676386 0.000000
-14.161435 -13.159519 -0.347031 789 0.736548 0.676386 0.000000
-14.161235 -13.159339 -0.341092 781 0.736548 0.676386 0.000000
-14.161309 -13.159405 -0.335151 767 0.736548 0.676386 0.000000
-14.160570 -13.158727 -0.329198 759 0.736548 0.676386 0.000000
-14.161119 -13.159240 -0.323273 739 0.736548 0.676386 0.000000
-14.161470 -13.159553 -0.317340 739 0.736548 0.676386 0.000000
-14.161696 -13.159766 -0.311407 765 0.736548 0.676386 0.000000
-14.163156 -13.161125 -0.305503 781 0.736548 0.676386 0.000000
-14.165456 -13.155788 -0.679738 803 0.736548 0.676386 0.000000
-14.165174 -13.155530 -0.673780 805 0.736548 0.676386 0.000000
-14.165953 -13.156252 -0.667873 797 0.736548 0.676386 0.000000
-14.166272 -13.156541 -0.661950 803 0.736548 0.676386 0.000000
-14.166095 -13.156379 -0.655991 789 0.736548 0.676386 0.000000
-14.165053 -13.155420 -0.650001 791 0.736548 0.676386 0.000000
-14.165151 -13.155505 -0.644070 781 0.736548 0.676386 0.000000
-14.165828 -13.156133 -0.638153 771 0.736548 0.676386 0.000000
-14.166015 -13.156314 -0.632221 773 0.736548 0.676386 0.000000
-14.166532 -13.156787 -0.626296 771 0.736548 0.676386 0.000000
-14.167154 -13.157371 -0.620380 771 0.736548 0.676386 0.000000
-14.165787 -13.156099 -0.614383 791 0.736548 0.676386 0.000000
-14.164628 -13.155034 -0.608384 795 0.736548 0.676386 0.000000
-14.165733 -13.156054 -0.602493 799 0.736548 0.676386 0.000000
-14.166671 -13.156931 -0.596584 783 0.736548 0.676386 0.000000
-14.166745 -13.156997 -0.590643 807 0.736548 0.676386 0.000000
-14.166336 -13.156610 -0.584687 819 0.736548 0.676386 0.000000
-14.166729 -13.156984 -0.578763 815 0.736548 0.676386 0.000000
-14.166748 -13.157005 -0.572823 807 0.736548 0.676386 0.000000
-14.166389 -13.156671 -0.566866 801 0.736548 0.676386 0.000000
-14.165980 -13.156285 -0.560900 815 0.736548 0.676386 0.000000
-14.165778 -13.156104 -0.554952 811 0.736548 0.676386 0.000000
-14.165854 -13.156171 -0.549021 793 0.736548 0.676386 0.000000
-14.166071 -13.156377 -0.543079 803 0.736548 0.676386 0.000000
-14.165277 -13.155642 -0.537116 811 0.736548 0.676386 0.000000
-14.165026 -13.155408 -0.531158 805 0.736548 0.676386 0.000000
-14.164712 -13.155112 -0.525211 801 0.736548 0.676386 0.000000
-14.164557 -13.154968 -0.519262 783 0.736548 0.676386 0.000000
-14.165741 -13.156067 -0.513361 803 0.736548 0.676386 0.000000
-14.165318 -13.155682 -0.507405 821 0.736548 0.676386 0.000000
-14.165430 -13.155778 -0.501474 807 0.736548 0.676386 0.000000
-14.164730 -13.155132 -0.495510 797 0.736548 0.676386 0.000000
-14.164727 -13.155135 -0.489570 801 0.736548 0.676386 0.000000
-14.165317 -13.155681 -0.483644 817 0.736548 0.676386 0.000000
-14.165793 -13.156121 -0.477720 813 0.736548 0.676386 0.000000
-14.167508 -13.157723 -0.471833 815 0.736548 0.676386 0.000000
-14.167291 -13.157516 -0.465885 813 0.736548 0.676386 0.000000
-14.166156 -13.156469 -0.459916 815 0.736548 0.676386 0.000000
-14.166475 -13.156758 -0.453983 829 0.736548 0.676386 0.000000
-14.167699 -13.157902 -0.448081 819 0.736548 0.676386 0.000000
-14.166286 -13.156593 -0.442094 801 0.736548 0.676386 0.000000
-14.164610 -13.155035 -0.436110 785 0.736548 0.676386 0.000000
-14.165729 -13.156069 -0.430199 783 0.736548 0.676386 0.000000
-14.166351 -13.156652 -0.424273 793 0.736548 0.676386 0.000000
-14.164360 -13.154802 -0.418282 783 0.736548 0.676386 0.000000
-14.164237 -13.154683 -0.412343 763 0.736548 0.676386 0.000000
-14.166624 -13.156902 -0.406470 797 0.736548 0.676386 0.000000
-14.167576 -13.157789 -0.400551 807 0.736548 0.676386 0.000000
-14.168245 -13.158410 -0.394635 801 0.736548 0.676386 0.000000
-14.166888 -13.157147 -0.388657 793 0.736548 0.676386 0.000000
-14.165040 -13.155437 -0.382664 781 0.736548 0.676386 0.000000
-14.165280 -13.155663 -0.376732 779 0.736548 0.676386 0.000000
-14.165522 -13.155888 -0.370799 789 0.736548 0.676386 0.000000
-14.165549 -13.155917 -0.364859 767 0.736548 0.676386 0.000000
-14.166322 -13.156633 -0.358942 773 0.736548 0.676386 0.000000
-14.165707 -13.156055 -0.352987 765 0.736548 0.676386 0.000000
-14.164865 -13.155284 -0.347025 747 0.736548 0.676386 0.000000
-14.166286 -13.156597 -0.341122 753 0.736548 0.676386 0.000000
-14.166352 -13.156657 -0.335191 781 0.736548 0.676386 0.000000
-14.165730 -13.156088 -0.329237 783 0.736548 0.676386 0.000000
-14.166011 -13.156345 -0.323304 755 0.736548 0.676386 0.000000
-14.165547 -13.155914 -0.317348 757 0.736548 0.676386 0.000000
-14.165347 -13.155734 -0.311410 743 0.736548 0.676386 0.000000
-14.165729 -13.156086 -0.305476 769 0.736548 0.676386 0.000000
-14.171587 -13.153583 -0.679849 795 0.736548 0.676386 0.000000
-14.171156 -13.153178 -0.673883 787 0.736548 0.676386 0.000000
-14.170177 -13.152270 -0.667892 787 0.736548 0.676386 0.000000
-14.169564 -13.151708 -0.661918 767 0.736548 0.676386 0.000000
-14.169284 -13.151450 -0.655960 753 0.736548 0.676386 0.000000
-14.170126 -13.152222 -0.650052 789 0.736548 0.676386 0.000000
-14.170106 -13.152212 -0.644112 787 0.736548 0.676386 0.000000
-14.169601 -13.151737 -0.638147 787 0.736548 0.676386 0.000000
-14.170921 -13.152969 -0.632264 777 0.736548 0.676386 0.000000
-14.172024 -13.153991 -0.626364 797 0.736548 0.676386 0.000000
-14.172275 -13.154223 -0.620431 795 0.736548 0.676386 0.000000
-14.172618 -13.154545 -0.614498 811 0.736548 0.676386 0.000000
-14.171838 -13.153822 -0.608525 805 0.736548 0.676386 0.000000
-14.170259 -13.152353 -0.602520 799 0.736548 0.676386 0.000000
-14.169638 -13.151785 -0.596545 791 0.736548 0.676386 0.000000
-14.170361 -13.152448 -0.590639 783 0.736548 0.676386 0.000000
-14.171346 -13.153362 -0.584729 799 0.736548 0.676386 0.000000
-14.171579 -13.153582 -0.578797 795 0.736548 0.676386 0.000000
-14.170254 -13.152356 -0.572809 787 0.736548 0.676386 0.000000
-14.171136 -13.153173 -0.566901 789 0.736548 0.676386 0.000000
-14.171797 -13.153789 -0.560974 809 0.736548 0.676386 0.000000
-14.170526 -13.152607 -0.554986 811 0.736548 0.676386 0.000000
-14.169088 -13.151278 -0.548989 797 0.736548 0.676386 0.000000
-14.169797 -13.151931 -0.543073 803 0.736548 0.676386 0.000000
-14.170933 -13.152991 -0.537182 793 0.736548 0.676386 0.000000
-14.169608 -13.151767 -0.531184 815 0.736548 0.676386 0.000000
-14.169445 -13.151615 -0.525245 783 0.736548 0.676386 0.000000
-14.170588 -13.152668 -0.519345 795 0.736548 0.676386 0.000000
-14.170101 -13.152220 -0.513379 809 0.736548 0.676386 0.000000
-14.170381 -13.152476 -0.507446 803 0.736548 0.676386 0.000000
-14.170598 -13.152683 -0.501514 789 0.736548 0.676386 0.000000
-14.169574 -13.151737 -0.495544 797 0.736548 0.676386 0.000000
-14.170012 -13.152136 -0.489609 801 0.736548 0.676386 0.000000
-14.171567 -13.153583 -0.483725 803 0.736548 0.676386 0.000000
-14.170536 -13.152632 -0.477754 819 0.736548 0.676386 0.000000
-14.169036 -13.151241 -0.471758 797 0.736548 0.676386 0.000000
-14.170100 -13.152231 -0.465858 801 0.736548 0.676386 0.000000
-14.170681 -13.152768 -0.459932 799 0.736548 0.676386 0.000000
-14.169869 -13.152020 -0.453970 801 0.736548 0.676386 0.000000
-14.169438 -13.151616 -0.448014 795 0.736548 0.676386 0.000000
-14.169536 -13.151700 -0.442073 783 0.736548 0.676386 0.000000
-14.168345 -13.150596 -0.436104 795 0.736548 0.676386 0.000000
-14.168112 -13.150389 -0.430156 757 0.736548 0.676386 0.000000
-14.168574 -13.150819 -0.424231 781 0.736548 0.676386 0.000000
-14.167975 -13.150253 -0.418277 765 0.736548 0.676386 0.000000
-14.168597 -13.150836 -0.412351 771 0.736548 0.676386 0.000000
-14.170463 -13.152573 -0.406463 785 0.736548 0.676386 0.000000
-14.171351 -13.153396 -0.400545 779 0.736548 0.676386 0.000000
-14.170732 -13.152827 -0.394590 761 0.736548 0.676386 0.000000
-14.170283 -13.152410 -0.388644 769 0.736548 0.676386 0.000000
-14.169027 -13.151239 -0.382666 749 0.736548 0.676386 0.000000
-14.169167 -13.151370 -0.376734 777 0.736548 0.676386 0.000000
-14.169993 -13.152144 -0.370817 785 0.736548 0.676386 0.000000
-14.170186 -13.152318 -0.364885 779 0.736548 0.676386 0.000000
-14.170856 -13.152939 -0.358958 767 0.736548 0.676386 0.000000
-14.170605 -13.152706 -0.353011 755 0.736548 0.676386 0.000000
-14.168915 -13.151136 -0.347036 757 0.736548 0.676386 0.000000
-14.169148 -13.151356 -0.341104 771 0.736548 0.676386 0.000000
-14.170079 -13.152225 -0.335185 769 0.736548 0.676386 0.000000
-14.169989 -13.152145 -0.329246 753 0.736548 0.676386 0.000000
-14.169255 -13.151461 -0.323292 765 0.736548 0.676386 0.000000
-14.170019 -13.152170 -0.317365 767 0.736548 0.676386 0.000000
-14.170197 -13.152332 -0.311433 747 0.736548 0.676386 0.000000
-14.169512 -13.151698 -0.305480 761 0.736548 0.676386 0.000000
-14.173411 -13.147211 -0.679742 777 0.736548 0.676386 0.000000
-14.174041 -13.147799 -0.673826 791 0.736548 0.676386 0.000000
-14.173275 -13.147088 -0.667853 781 0.736548 0.676386 0.000000
-14.172511 -13.146379 -0.661870 787 0.736548 0.676386 0.000000
-14.174906 -13.148603 -0.656037 799 0.736548 0.676386 0.000000
-14.176066 -13.149684 -0.650146 797 0.736548 0.676386 0.000000
-14.174233 -13.147986 -0.644123 777 0.736548 0.676386 0.000000
-14.173778 -13.147563 -0.638157 797 0.736548 0.676386 0.000000
-14.174130 -13.147890 -0.632224 789 0.736548 0.676386 0.000000
-14.174593 -13.148319 -0.626310 775 0.736548 0.676386 0.000000
-14.174572 -13.148296 -0.620360 771 0.736548 0.676386 0.000000
-14.174331 -13.148069 -0.614412 791 0.736548 0.676386 0.000000
-14.174255 -13.148003 -0.608462 769 0.736548 0.676386 0.000000
-14.174710 -13.148427 -0.602538 787 0.736548 0.676386 0.000000
-14.176122 -13.149734 -0.596655 797 0.736548 0.676386 0.000000
-14.175398 -13.149068 -0.590681 797 0.736548 0.676386 0.000000
-14.172678 -13.146544 -0.584626 783 0.736548 0.676386 0.000000
-14.172975 -13.146813 -0.578694 803 0.736548 0.676386 0.000000
-14.173154 -13.146990 -0.572762 789 0.736548 0.676386 0.000000
-14.173442 -13.147253 -0.566829 769 0.736548 0.676386 0.000000
-14.175978 -13.149605 -0.560985 803 0.736548 0.676386 0.000000
-14.175452 -13.149124 -0.555030 799 0.736548 0.676386 0.000000
-14.174768 -13.148492 -0.549056 783 0.736548 0.676386 0.000000
-14.175207 -13.148901 -0.543132 807 0.736548 0.676386 0.000000
-14.173510 -13.147326 -0.537127 773 0.736548 0.676386 0.000000
-14.172388 -13.146276 -0.531148 777 0.736548 0.676386 0.000000
-14.173586 -13.147388 -0.525247 793 0.736548 0.676386 0.000000
-14.174010 -13.147785 -0.519322 769 0.736548 0.676386 0.000000
-14.172629 -13.146502 -0.513335 791 0.736548 0.676386 0.000000
-14.172949 -13.146805 -0.507402 807 0.736548 0.676386 0.000000
-14.174567 -13.148303 -0.501517 807 0.736548 0.676386 0.000000
-14.175632 -13.149294 -0.495617 795 0.736548 0.676386 0.000000
-14.174994 -13.148698 -0.489653 781 0.736548 0.676386 0.000000
-14.173012 -13.146867 -0.483641 799 0.736548 0.676386 0.000000
-14.172895 -13.146754 -0.477702 813 0.736548 0.676386 0.000000
-14.173591 -13.147409 -0.471785 803 0.736548 0.676386 0.000000
-14.173531 -13.147355 -0.465836 795 0.736548 0.676386 0.000000
-14.173471 -13.147301 -0.459896 783 0.736548 0.676386 0.000000
-14.173465 -13.147288 -0.453956 785 0.736548 0.676386 0.000000
-14.173723 -13.147529 -0.448023 769 0.736548 0.676386 0.000000
-14.174027 -13.147818 -0.442090 797 0.736548 0.676386 0.000000
-14.173810 -13.147610 -0.436142 801 0.736548 0.676386 0.000000
-14.173902 -13.147703 -0.430211 781 0.736548 0.676386 0.000000
-14.174158 -13.147941 -0.424279 785 0.736548 0.676386 0.000000
-14.175111 -13.148815 -0.418360 779 0.736548 0.676386 0.000000
-14.174973 -13.148698 -0.412421 793 0.736548 0.676386 0.000000
-14.173671 -13.147491 -0.406443 775 0.736548 0.676386 0.000000
-14.174244 -13.148023 -0.400517 767 0.736548 0.676386 0.000000
-14.174445 -13.148203 -0.394585 769 0.736548 0.676386 0.000000
-14.173712 -13.147532 -0.388632 767 0.736548 0.676386 0.000000
-14.174715 -13.148458 -0.382713 775 0.736548 0.676386 0.000000
-14.174417 -13.148188 -0.376765 743 0.736548 0.676386 0.000000
-14.174065 -13.147860 -0.370818 787 0.736548 0.676386 0.000000
-14.173933 -13.147735 -0.364879 763 0.736548 0.676386 0.000000
-14.173479 -13.147311 -0.358924 783 0.736548 0.676386 0.000000
-14.174360 -13.148129 -0.353005 803 0.736548 0.676386 0.000000
-14.174917 -13.148646 -0.347080 781 0.736548 0.676386 0.000000
-14.173862 -13.147676 -0.341120 789 0.736548 0.676386 0.000000
-14.173027 -13.146896 -0.335157 781 0.736548 0.676386 0.000000
-14.173416 -13.147255 -0.329233 761 0.736548 0.676386 0.000000
-14.173810 -13.147629 -0.323300 739 0.736548 0.676386 0.000000
-14.173339 -13.147191 -0.317354 769 0.736548 0.676386 0.000000
-14.172503 -13.146410 -0.311401 745 0.736548 0.676386 0.000000
-14.174279 -13.148063 -0.305495 781 0.736548 0.676386 0.000000
-14.178978 -13.144320 -0.679820 755 0.736548 0.676386 0.000000
-14.177684 -13.143120 -0.673812 753 0.736548 0.676386 0.000000
-14.177561 -13.143015 -0.667862 773 0.736548 0.676386 0.000000
-14.177921 -13.143350 -0.661939 775 0.736548 0.676386 0.000000
-14.178061 -13.143479 -0.655998 765 0.736548 0.676386 0.000000
-14.177248 -13.142717 -0.650025 759 0.736548 0.676386 0.000000
-14.177394 -13.142855 -0.644083 791 0.736548 0.676386 0.000000
-14.177745 -13.143182 -0.638160 769 0.736548 0.676386 0.000000
-14.178423 -13.143809 -0.632244 771 0.736548 0.676386 0.000000
-14.178925 -13.144283 -0.626319 761 0.736548 0.676386 0.000000
-14.178802 -13.144165 -0.620370 779 0.736548 0.676386 0.000000
-14.178782 -13.144142 -0.614430 789 0.736548 0.676386 0.000000
-14.179070 -13.144419 -0.608497 789 0.736548 0.676386 0.000000
-14.178940 -13.144295 -0.602548 783 0.736548 0.676386 0.000000
-14.178532 -13.143922 -0.596592 777 0.736548 0.676386 0.000000
-14.177966 -13.143397 -0.590627 759 0.736548 0.676386 0.000000
-14.177344 -13.142813 -0.584653 763 0.736548 0.676386 0.000000
-14.177302 -13.142785 -0.578713 783 0.736548 0.676386 0.000000
-14.177914 -13.143349 -0.572797 775 0.736548 0.676386 0.000000
-14.177664 -13.143116 -0.566839 777 0.736548 0.676386 0.000000
-14.177147 -13.142641 -0.560884 771 0.736548 0.676386 0.000000
-14.178075 -13.143497 -0.554975 779 0.736548 0.676386 0.000000
-14.177605 -13.143061 -0.549019 779 0.736548 0.676386 0.000000
-14.177346 -13.142821 -0.543062 791 0.736548 0.676386 0.000000
-14.178056 -13.143487 -0.537145 773 0.736548 0.676386 0.000000
-14.178176 -13.143590 -0.531213 785 0.736548 0.676386 0.000000
-14.177485 -13.142951 -0.525250 767 0.736548 0.676386 0.000000
-14.176681 -13.142209 -0.519277 783 0.736548 0.676386 0.000000
-14.176859 -13.142370 -0.513345 797 0.736548 0.676386 0.000000
-14.177986 -13.143425 -0.507435 801 0.736548 0.676386 0.000000
-14.178410 -13.143823 -0.501511 769 0.736548 0.676386 0.000000
-14.179173 -13.144518 -0.495593 781 0.736548 0.676386 0.000000
-14.179865 -13.145171 -0.489677 781 0.736548 0.676386 0.000000
-14.180131 -13.145416 -0.483744 797 0.736548 0.676386 0.000000
-14.180244 -13.145514 -0.477813 793 0.736548 0.676386 0.000000
-14.180018 -13.145313 -0.471865 801 0.736548 0.676386 0.000000
-14.178725 -13.144114 -0.465877 785 0.736548 0.676386 0.000000
-14.178079 -13.143511 -0.459913 789 0.736548 0.676386 0.000000
-14.178447 -13.143851 -0.453989 789 0.736548 0.676386 0.000000
-14.177581 -13.143046 -0.448017 761 0.736548 0.676386 0.000000
-14.177245 -13.142744 -0.442070 791 0.736548 0.676386 0.000000
-14.178252 -13.143676 -0.436160 785 0.736548 0.676386 0.000000
-14.177973 -13.143419 -0.430213 763 0.736548 0.676386 0.000000
-14.178332 -13.143752 -0.424279 765 0.736548 0.676386 0.000000
-14.179285 -13.144639 -0.418370 771 0.736548 0.676386 0.000000
-14.179265 -13.144617 -0.412430 785 0.736548 0.676386 0.000000
-14.177962 -13.143411 -0.406452 777 0.736548 0.676386 0.000000
-14.175948 -13.141542 -0.400461 763 0.736548 0.676386 0.000000
-14.175929 -13.141532 -0.394521 753 0.736548 0.676386 0.000000
-14.177997 -13.143444 -0.388642 757 0.736548 0.676386 0.000000
-14.178082 -13.143531 -0.382701 761 0.736548 0.676386 0.000000
-14.177579 -13.143056 -0.376745 757 0.736548 0.676386 0.000000
-14.177495 -13.142982 -0.370806 765 0.736548 0.676386 0.000000
-14.177198 -13.142713 -0.364859 749 0.736548 0.676386 0.000000
-14.177329 -13.142836 -0.358927 761 0.736548 0.676386 0.000000
-14.177466 -13.142953 -0.352986 757 0.736548 0.676386 0.000000
-14.177700 -13.143173 -0.347054 745 0.736548 0.676386 0.000000
-14.179009 -13.144384 -0.341151 745 0.736548 0.676386 0.000000
-14.180311 -13.145605 -0.335239 755 0.736548 0.676386 0.000000
-14.179792 -13.145117 -0.329283 753 0.736548 0.676386 0.000000
-14.179006 -13.144387 -0.323331 771 0.736548 0.676386 0.000000
-14.178859 -13.144250 -0.317392 765 0.736548 0.676386 0.000000
-14.177691 -13.143177 -0.311423 759 0.736548 0.676386 0.000000
-14.177220 -13.142742 -0.305477 773 0.736548 0.676386 0.000000
