774
-3.077060 -2.955244 -0.413902 1139 0.710489 0.703708 0.000000
-3.076677 -2.954877 -0.412535 1133 0.710489 0.703708 0.000000
-3.075878 -2.954104 -0.411103 1125 0.710489 0.703708 0.000000
-3.076017 -2.954235 -0.409802 1125 0.710489 0.703708 0.000000
-3.076736 -2.954936 -0.408575 1137 0.710489 0.703708 0.000000
-3.076568 -2.954765 -0.407226 1137 0.710489 0.703708 0.000000
-3.076285 -2.954496 -0.405869 1135 0.710489 0.703708 0.000000
-3.076102 -2.954327 -0.404531 1137 0.710489 0.703708 0.000000
-3.076250 -2.954463 -0.403229 1139 0.710489 0.703708 0.000000
-3.077137 -2.955307 -0.402021 1125 0.710489 0.703708 0.000000
-3.077378 -2.955550 -0.400728 1119 0.710489 0.703708 0.000000
-3.077518 -2.955680 -0.399427 1129 0.710489 0.703708 0.000000
-3.076972 -2.955149 -0.398032 1119 0.710489 0.703708 0.000000
-3.076059 -2.954279 -0.396591 1103 0.710489 0.703708 0.000000
-3.076037 -2.954260 -0.395271 1113 0.710489 0.703708 0.000000
-3.076708 -2.954893 -0.394035 1121 0.710489 0.703708 0.000000
-3.076687 -2.954874 -0.392715 1131 0.710489 0.703708 0.000000
-3.076773 -2.954959 -0.391404 1121 0.710489 0.703708 0.000000
-3.076960 -2.955142 -0.390102 1127 0.710489 0.703708 0.000000
-3.076314 -2.954513 -0.388698 1121 0.710489 0.703708 0.000000
-3.076232 -2.954442 -0.387369 1109 0.710489 0.703708 0.000000
-3.076950 -2.955129 -0.386142 1119 0.710489 0.703708 0.000000
-3.076720 -2.954906 -0.384794 1125 0.710489 0.703708 0.000000
-3.075175 -2.953419 -0.383279 1115 0.710489 0.703708 0.000000
-3.075630 -2.953858 -0.382015 1109 0.710489 0.703708 0.000000
-3.076717 -2.954898 -0.380824 1123 0.710489 0.703708 0.000000
-3.076635 -2.954827 -0.379495 1121 0.710489 0.703708 0.000000
-3.076298 -2.954499 -0.378138 1115 0.710489 0.703708 0.000000
-3.076693 -2.954885 -0.376864 1115 0.710489 0.703708 0.000000
-3.077617 -2.955762 -0.375656 1111 0.710489 0.703708 0.000000
-3.077227 -2.955389 -0.374289 1097 0.710489 0.703708 0.000000
-3.076574 -2.954767 -0.372895 1101 0.710489 0.703708 0.000000
-3.076391 -2.954583 -0.371547 1113 0.710489 0.703708 0.000000
-3.076047 -2.954263 -0.370190 1103 0.710489 0.703708 0.000000
-3.075609 -2.953837 -0.368814 1081 0.710489 0.703708 0.000000
-3.076159 -2.954367 -0.367569 1083 0.710489 0.703708 0.000000
-3.076660 -2.954844 -0.366305 1087 0.710489 0.703708 0.000000
-3.075531 -2.953765 -0.364855 1085 0.710489 0.703708 0.000000
-3.074824 -2.953084 -0.363452 1101 0.710489 0.703708 0.000000
-3.075318 -2.953554 -0.362187 1099 0.710489 0.703708 0.000000
-3.076183 -2.954393 -0.360969 1095 0.710489 0.703708 0.000000
-3.076846 -2.955020 -0.359733 1107 0.710489 0.703708 0.000000
-3.076870 -2.955040 -0.358412 1123 0.710489 0.703708 0.000000
-3.077004 -2.955177 -0.357111 1117 0.710489 0.703708 0.000000
-3.076820 -2.954993 -0.355773 1117 0.710489 0.703708 0.000000
-3.076683 -2.954862 -0.354434 1101 0.710489 0.703708 0.000000
-3.076923 -2.955091 -0.353142 1103 0.710489 0.703708 0.000000
-3.076633 -2.954817 -0.351794 1091 0.710489 0.703708 0.000000
-3.076919 -2.955084 -0.350502 1091 0.710489 0.703708 0.000000
-3.076883 -2.955052 -0.349182 1101 0.710489 0.703708 0.000000
-3.076484 -2.954672 -0.347816 1095 0.710489 0.703708 0.000000
-3.076247 -2.954443 -0.346478 1095 0.710489 0.703708 0.000000
-3.076480 -2.954665 -0.345186 1083 0.710489 0.703708 0.000000
-3.076713 -2.954887 -0.343894 1079 0.710489 0.703708 0.000000
-3.076314 -2.954508 -0.342527 1067 0.710489 0.703708 0.000000
-3.076178 -2.954377 -0.341198 1083 0.710489 0.703708 0.000000
-3.076463 -2.954644 -0.339906 1093 0.710489 0.703708 0.000000
-3.076112 -2.954318 -0.338549 1081 0.710489 0.703708 0.000000
-3.075667 -2.953885 -0.337183 1063 0.710489 0.703708 0.000000
-3.076739 -2.954913 -0.335983 1085 0.710489 0.703708 0.000000
-3.076910 -2.955083 -0.334681 1099 0.710489 0.703708 0.000000
-3.077204 -2.955357 -0.333399 1111 0.710489 0.703708 0.000000
-3.077328 -2.955475 -0.332087 1119 0.710489 0.703708 0.000000
-3.075922 -2.954134 -0.330621 1099 0.710489 0.703708 0.000000
-3.074939 -2.953191 -0.329210 1061 0.710489 0.703708 0.000000
-3.075017 -2.953256 -0.327899 1073 0.710489 0.703708 0.000000
-3.075658 -2.953878 -0.326643 1087 0.710489 0.703708 0.000000
-3.075944 -2.954145 -0.325360 1097 0.710489 0.703708 0.000000
-3.075854 -2.954067 -0.324031 1089 0.710489 0.703708 0.000000
-3.076187 -2.954388 -0.322748 1087 0.710489 0.703708 0.000000
-3.076473 -2.954656 -0.321465 1095 0.710489 0.703708 0.000000
-3.076806 -2.954976 -0.320182 1103 0.710489 0.703708 0.000000
-3.077139 -2.955297 -0.318899 1097 0.710489 0.703708 0.000000
-3.076840 -2.955002 -0.317542 1105 0.710489 0.703708 0.000000
-3.076650 -2.954825 -0.316213 1097 0.710489 0.703708 0.000000
-3.076498 -2.954681 -0.314875 1091 0.710489 0.703708 0.000000
-3.076253 -2.954445 -0.313537 1079 0.710489 0.703708 0.000000
-3.076378 -2.954563 -0.312236 1093 0.710489 0.703708 0.000000
-3.076495 -2.954674 -0.310925 1105 0.710489 0.703708 0.000000
-3.076881 -2.955040 -0.309651 1109 0.710489 0.703708 0.000000
-3.076998 -2.955151 -0.308340 1103 0.710489 0.703708 0.000000
-3.076901 -2.955067 -0.307021 1103 0.710489 0.703708 0.000000
-3.077395 -2.955538 -0.305746 1111 0.710489 0.703708 0.000000
-3.077358 -2.953762 -0.442929 1123 0.710489 0.703708 0.000000
-3.077344 -2.953748 -0.441609 1119 0.710489 0.703708 0.000000
-3.077654 -2.954049 -0.440326 1137 0.710489 0.703708 0.000000
-3.077756 -2.954148 -0.439015 1139 0.710489 0.703708 0.000000
-3.077742 -2.954134 -0.437695 1127 0.710489 0.703708 0.000000
-3.077212 -2.953616 -0.436290 1115 0.710489 0.703708 0.000000
-3.076614 -2.953054 -0.434886 1127 0.710489 0.703708 0.000000
-3.076508 -2.952949 -0.433546 1125 0.710489 0.703708 0.000000
-3.076856 -2.953282 -0.432273 1123 0.710489 0.703708 0.000000
-3.077489 -2.953884 -0.431037 1133 0.710489 0.703708 0.000000
-3.077783 -2.954173 -0.429754 1141 0.710489 0.703708 0.000000
-3.077978 -2.954362 -0.428462 1139 0.710489 0.703708 0.000000
-3.077764 -2.954152 -0.427104 1123 0.710489 0.703708 0.000000
-3.077072 -2.953484 -0.425691 1121 0.710489 0.703708 0.000000
-3.077059 -2.953471 -0.424361 1131 0.710489 0.703708 0.000000
-3.077353 -2.953759 -0.423088 1145 0.710489 0.703708 0.000000
-3.076669 -2.953098 -0.421665 1129 0.710489 0.703708 0.000000
-3.076809 -2.953228 -0.420363 1125 0.710489 0.703708 0.000000
-3.077266 -2.953666 -0.419109 1115 0.710489 0.703708 0.000000
-3.076567 -2.953006 -0.417686 1107 0.710489 0.703708 0.000000
-3.076554 -2.952992 -0.416366 1125 0.710489 0.703708 0.000000
-3.076855 -2.953273 -0.415083 1131 0.710489 0.703708 0.000000
-3.077319 -2.953718 -0.413818 1133 0.710489 0.703708 0.000000
-3.077405 -2.953803 -0.412508 1117 0.710489 0.703708 0.000000
-3.077022 -2.953437 -0.411141 1103 0.710489 0.703708 0.000000
-3.077270 -2.953672 -0.409849 1117 0.710489 0.703708 0.000000
-3.077626 -2.954012 -0.408575 1123 0.710489 0.703708 0.000000
-3.078243 -2.954601 -0.407329 1129 0.710489 0.703708 0.000000
-3.078276 -2.954640 -0.406019 1113 0.710489 0.703708 0.000000
-3.077685 -2.954071 -0.404615 1113 0.710489 0.703708 0.000000
-3.077556 -2.953946 -0.403276 1123 0.710489 0.703708 0.000000
-3.077542 -2.953933 -0.401956 1115 0.710489 0.703708 0.000000
-3.077629 -2.954018 -0.400645 1109 0.710489 0.703708 0.000000
-3.077930 -2.954299 -0.399362 1117 0.710489 0.703708 0.000000
-3.077809 -2.954180 -0.398023 1121 0.710489 0.703708 0.000000
-3.076995 -2.953408 -0.396601 1109 0.710489 0.703708 0.000000
-3.077074 -2.953487 -0.395290 1107 0.710489 0.703708 0.000000
-3.077953 -2.954324 -0.394082 1107 0.710489 0.703708 0.000000
-3.078040 -2.954410 -0.392771 1111 0.710489 0.703708 0.000000
-3.077757 -2.954141 -0.391414 1107 0.710489 0.703708 0.000000
-3.077742 -2.954114 -0.390094 1111 0.710489 0.703708 0.000000
-3.077829 -2.954199 -0.388783 1109 0.710489 0.703708 0.000000
-3.077492 -2.953885 -0.387416 1103 0.710489 0.703708 0.000000
-3.077109 -2.953505 -0.386050 1089 0.710489 0.703708 0.000000
-3.077288 -2.953682 -0.384748 1119 0.710489 0.703708 0.000000
-3.076905 -2.953315 -0.383382 1125 0.710489 0.703708 0.000000
-3.076984 -2.953394 -0.382071 1109 0.710489 0.703708 0.000000
-3.077801 -2.954179 -0.380853 1109 0.710489 0.703708 0.000000
-3.077410 -2.953806 -0.379487 1113 0.710489 0.703708 0.000000
-3.076973 -2.953380 -0.378111 1109 0.710489 0.703708 0.000000
-3.077529 -2.953917 -0.376866 1113 0.710489 0.703708 0.000000
-3.078239 -2.954597 -0.375629 1107 0.710489 0.703708 0.000000
-3.078063 -2.954420 -0.374280 1091 0.710489 0.703708 0.000000
-3.077826 -2.954190 -0.372933 1103 0.710489 0.703708 0.000000
-3.077744 -2.954119 -0.371603 1109 0.710489 0.703708 0.000000
-3.077353 -2.953746 -0.370237 1095 0.710489 0.703708 0.000000
-3.077116 -2.953516 -0.368889 1091 0.710489 0.703708 0.000000
-3.076518 -2.952940 -0.367505 1081 0.710489 0.703708 0.000000
-3.076072 -2.952507 -0.366129 1073 0.710489 0.703708 0.000000
-3.076205 -2.952631 -0.364828 1089 0.710489 0.703708 0.000000
-3.076700 -2.953117 -0.363573 1111 0.710489 0.703708 0.000000
-3.078095 -2.954458 -0.362410 1117 0.710489 0.703708 0.000000
-3.078858 -2.955184 -0.361183 1113 0.710489 0.703708 0.000000
-3.077890 -2.954255 -0.359752 1103 0.710489 0.703708 0.000000
-3.077653 -2.954025 -0.358404 1113 0.710489 0.703708 0.000000
-3.078410 -2.954759 -0.357167 1121 0.710489 0.703708 0.000000
-3.078751 -2.955086 -0.355883 1133 0.710489 0.703708 0.000000
-3.078258 -2.954600 -0.354508 1117 0.710489 0.703708 0.000000
-3.078222 -2.954568 -0.353189 1119 0.710489 0.703708 0.000000
-3.077932 -2.954293 -0.351841 1099 0.710489 0.703708 0.000000
-3.076901 -2.953297 -0.350401 1075 0.710489 0.703708 0.000000
-3.076611 -2.953023 -0.349054 1073 0.710489 0.703708 0.000000
-3.076890 -2.953298 -0.347771 1083 0.710489 0.703708 0.000000
-3.076923 -2.953324 -0.346451 1093 0.710489 0.703708 0.000000
-3.077047 -2.953441 -0.345149 1081 0.710489 0.703708 0.000000
-3.077280 -2.953663 -0.343857 1079 0.710489 0.703708 0.000000
-3.077513 -2.953886 -0.342565 1073 0.710489 0.703708 0.000000
-3.077800 -2.954168 -0.341272 1083 0.710489 0.703708 0.000000
-3.077508 -2.953879 -0.339925 1083 0.710489 0.703708 0.000000
-3.076479 -2.952897 -0.338495 1079 0.710489 0.703708 0.000000
-3.075857 -2.952302 -0.337111 1075 0.710489 0.703708 0.000000
-3.076412 -2.952824 -0.335855 1095 0.710489 0.703708 0.000000
-3.076800 -2.953205 -0.334581 1095 0.710489 0.703708 0.000000
-3.077294 -2.953676 -0.333317 1101 0.710489 0.703708 0.000000
-3.078104 -2.954454 -0.332079 1111 0.710489 0.703708 0.000000
-3.077598 -2.953970 -0.330714 1095 0.710489 0.703708 0.000000
-3.076091 -2.952516 -0.329228 1073 0.710489 0.703708 0.000000
-3.075954 -2.952385 -0.327899 1077 0.710489 0.703708 0.000000
-3.076548 -2.952954 -0.326644 1089 0.710489 0.703708 0.000000
-3.076727 -2.953131 -0.325352 1075 0.710489 0.703708 0.000000
-3.076898 -2.953287 -0.324050 1075 0.710489 0.703708 0.000000
-3.077501 -2.953877 -0.322795 1085 0.710489 0.703708 0.000000
-3.078196 -2.954545 -0.321548 1095 0.710489 0.703708 0.000000
-3.078582 -2.954911 -0.320274 1099 0.710489 0.703708 0.000000
-3.078290 -2.954622 -0.318917 1087 0.710489 0.703708 0.000000
-3.078301 -2.954643 -0.317607 1099 0.710489 0.703708 0.000000
-3.078009 -2.954354 -0.316260 1097 0.710489 0.703708 0.000000
-3.077179 -2.953555 -0.314858 1083 0.710489 0.703708 0.000000
-3.076828 -2.953228 -0.313511 1079 0.710489 0.703708 0.000000
-3.077576 -2.953941 -0.312264 1099 0.710489 0.703708 0.000000
-3.078171 -2.954510 -0.311008 1119 0.710489 0.703708 0.000000
-3.078134 -2.954478 -0.309688 1117 0.710489 0.703708 0.000000
-3.077943 -2.954287 -0.308350 1097 0.710489 0.703708 0.000000
-3.077845 -2.954203 -0.307021 1101 0.710489 0.703708 0.000000
-3.077754 -2.954111 -0.305702 1093 0.710489 0.703708 0.000000
-3.078577 -2.953131 -0.442976 1127 0.710489 0.703708 0.000000
-3.078301 -2.952869 -0.441619 1119 0.710489 0.703708 0.000000
-3.078873 -2.953419 -0.440373 1135 0.710489 0.703708 0.000000
-3.078497 -2.953058 -0.438997 1123 0.710489 0.703708 0.000000
-3.077436 -2.952037 -0.437527 1121 0.710489 0.703708 0.000000
-3.076900 -2.951526 -0.436122 1115 0.710489 0.703708 0.000000
-3.077047 -2.951663 -0.434821 1121 0.710489 0.703708 0.000000
-3.077564 -2.952154 -0.433576 1131 0.710489 0.703708 0.000000
-3.078028 -2.952599 -0.432311 1121 0.710489 0.703708 0.000000
-3.078330 -2.952893 -0.431028 1119 0.710489 0.703708 0.000000
-3.078686 -2.953234 -0.429755 1129 0.710489 0.703708 0.000000
-3.078942 -2.953476 -0.428473 1129 0.710489 0.703708 0.000000
-3.079089 -2.953612 -0.427161 1129 0.710489 0.703708 0.000000
-3.079076 -2.953599 -0.425841 1129 0.710489 0.703708 0.000000
-3.079539 -2.954044 -0.424577 1135 0.710489 0.703708 0.000000
-3.079633 -2.954136 -0.423266 1141 0.710489 0.703708 0.000000
-3.078928 -2.953468 -0.421853 1127 0.710489 0.703708 0.000000
-3.078975 -2.953507 -0.420532 1133 0.710489 0.703708 0.000000
-3.078646 -2.953186 -0.419165 1131 0.710489 0.703708 0.000000
-3.077893 -2.952466 -0.417742 1109 0.710489 0.703708 0.000000
-3.077987 -2.952558 -0.416431 1115 0.710489 0.703708 0.000000
-3.077758 -2.952335 -0.415084 1129 0.710489 0.703708 0.000000
-3.077483 -2.952073 -0.413726 1145 0.710489 0.703708 0.000000
-3.077885 -2.952466 -0.412462 1129 0.710489 0.703708 0.000000
-3.078610 -2.953159 -0.411235 1131 0.710489 0.703708 0.000000
-3.078912 -2.953440 -0.409952 1133 0.710489 0.703708 0.000000
-3.078052 -2.952615 -0.408511 1121 0.710489 0.703708 0.000000
-3.077715 -2.952302 -0.407144 1099 0.710489 0.703708 0.000000
-3.078910 -2.953447 -0.405982 1113 0.710489 0.703708 0.000000
-3.078789 -2.953329 -0.404643 1103 0.710489 0.703708 0.000000
-3.078567 -2.953112 -0.403296 1111 0.710489 0.703708 0.000000
-3.078807 -2.953341 -0.402003 1111 0.710489 0.703708 0.000000
-3.078693 -2.953229 -0.400664 1109 0.710489 0.703708 0.000000
-3.078511 -2.953059 -0.399326 1105 0.710489 0.703708 0.000000
-3.078442 -2.952987 -0.397997 1131 0.710489 0.703708 0.000000
-3.077890 -2.952463 -0.396602 1139 0.710489 0.703708 0.000000
-3.077730 -2.952299 -0.395263 1117 0.710489 0.703708 0.000000
-3.078386 -2.952934 -0.394027 1105 0.710489 0.703708 0.000000
-3.078372 -2.952921 -0.392697 1113 0.710489 0.703708 0.000000
-3.077766 -2.952338 -0.391303 1123 0.710489 0.703708 0.000000
-3.077914 -2.952475 -0.390001 1111 0.710489 0.703708 0.000000
-3.077777 -2.952344 -0.388663 1107 0.710489 0.703708 0.000000
-3.077649 -2.952234 -0.387324 1099 0.710489 0.703708 0.000000
-3.078581 -2.953116 -0.386125 1113 0.710489 0.703708 0.000000
-3.079037 -2.953554 -0.384861 1153 0.710489 0.703708 0.000000
-3.078646 -2.953182 -0.383484 1149 0.710489 0.703708 0.000000
-3.078987 -2.953508 -0.382211 1125 0.710489 0.703708 0.000000
-3.079436 -2.953941 -0.380947 1105 0.710489 0.703708 0.000000
-3.078837 -2.953364 -0.379552 1093 0.710489 0.703708 0.000000
-3.078138 -2.952690 -0.378149 1095 0.710489 0.703708 0.000000
-3.077686 -2.952265 -0.376773 1087 0.710489 0.703708 0.000000
-3.077718 -2.952290 -0.375453 1093 0.710489 0.703708 0.000000
-3.077850 -2.952414 -0.374152 1091 0.710489 0.703708 0.000000
-3.078198 -2.952748 -0.372878 1097 0.710489 0.703708 0.000000
-3.078647 -2.953180 -0.371604 1103 0.710489 0.703708 0.000000
-3.078525 -2.953062 -0.370275 1113 0.710489 0.703708 0.000000
-3.078288 -2.952832 -0.368927 1115 0.710489 0.703708 0.000000
-3.077682 -2.952250 -0.367533 1103 0.710489 0.703708 0.000000
-3.076653 -2.951268 -0.366093 1089 0.710489 0.703708 0.000000
-3.077209 -2.951805 -0.364838 1097 0.710489 0.703708 0.000000
-3.078080 -2.952636 -0.363629 1107 0.710489 0.703708 0.000000
-3.078051 -2.952610 -0.362300 1095 0.710489 0.703708 0.000000
-3.078291 -2.952838 -0.361007 1097 0.710489 0.703708 0.000000
-3.078793 -2.953316 -0.359752 1103 0.710489 0.703708 0.000000
-3.078818 -2.953335 -0.358432 1107 0.710489 0.703708 0.000000
-3.079105 -2.953617 -0.357149 1111 0.710489 0.703708 0.000000
-3.078760 -2.953282 -0.355783 1117 0.710489 0.703708 0.000000
-3.078200 -2.952753 -0.354408 1119 0.710489 0.703708 0.000000
-3.078286 -2.952824 -0.353097 1113 0.710489 0.703708 0.000000
-3.077942 -2.952503 -0.351740 1099 0.710489 0.703708 0.000000
-3.077751 -2.952313 -0.350402 1091 0.710489 0.703708 0.000000
-3.077191 -2.951783 -0.349017 1087 0.710489 0.703708 0.000000
-3.077384 -2.951959 -0.347726 1093 0.710489 0.703708 0.000000
-3.077664 -2.952235 -0.346433 1103 0.710489 0.703708 0.000000
-3.078528 -2.953059 -0.345215 1107 0.710489 0.703708 0.000000
-3.079499 -2.953988 -0.343995 1103 0.710489 0.703708 0.000000
-3.078947 -2.953465 -0.342621 1089 0.710489 0.703708 0.000000
-3.078702 -2.953229 -0.341273 1099 0.710489 0.703708 0.000000
-3.078150 -2.952691 -0.339898 1097 0.710489 0.703708 0.000000
-3.077327 -2.951899 -0.338486 1093 0.710489 0.703708 0.000000
-3.077191 -2.951768 -0.337157 1087 0.710489 0.703708 0.000000
-3.077423 -2.951990 -0.335865 1095 0.710489 0.703708 0.000000
-3.077494 -2.952062 -0.334554 1097 0.710489 0.703708 0.000000
-3.077720 -2.952278 -0.333262 1093 0.710489 0.703708 0.000000
-3.078368 -2.952907 -0.332016 1097 0.710489 0.703708 0.000000
-3.078293 -2.952828 -0.330687 1093 0.710489 0.703708 0.000000
-3.078148 -2.952690 -0.329358 1077 0.710489 0.703708 0.000000
-3.078173 -2.952709 -0.328038 1077 0.710489 0.703708 0.000000
-3.078075 -2.952625 -0.326708 1075 0.710489 0.703708 0.000000
-3.078045 -2.952585 -0.325389 1071 0.710489 0.703708 0.000000
-3.078332 -2.952867 -0.324106 1081 0.710489 0.703708 0.000000
-3.078503 -2.953023 -0.322804 1103 0.710489 0.703708 0.000000
-3.078682 -2.953200 -0.321503 1121 0.710489 0.703708 0.000000
-3.078229 -2.952761 -0.320147 1103 0.710489 0.703708 0.000000
-3.077716 -2.952270 -0.318772 1091 0.710489 0.703708 0.000000
-3.077987 -2.952539 -0.317479 1087 0.710489 0.703708 0.000000
-3.078535 -2.953055 -0.316224 1099 0.710489 0.703708 0.000000
-3.078190 -2.952721 -0.314867 1105 0.710489 0.703708 0.000000
-3.077669 -2.952224 -0.313502 1101 0.710489 0.703708 0.000000
-3.077801 -2.952348 -0.312201 1093 0.710489 0.703708 0.000000
-3.077912 -2.952466 -0.310890 1107 0.710489 0.703708 0.000000
-3.077659 -2.952224 -0.309552 1101 0.710489 0.703708 0.000000
-3.077529 -2.952085 -0.308223 1079 0.710489 0.703708 0.000000
-3.077640 -2.952204 -0.306912 1085 0.710489 0.703708 0.000000
-3.077710 -2.952262 -0.305611 1085 0.710489 0.703708 0.000000
-3.080574 -2.953239 -0.441807 1129 0.710489 0.703708 0.000000
-3.080399 -2.953075 -0.440458 1123 0.710489 0.703708 0.000000
-3.080192 -2.952872 -0.439110 1111 0.710489 0.703708 0.000000
-3.080232 -2.952904 -0.437790 1119 0.710489 0.703708 0.000000
-3.079595 -2.952295 -0.436376 1117 0.710489 0.703708 0.000000
-3.078420 -2.951176 -0.434887 1117 0.710489 0.703708 0.000000
-3.079037 -2.951765 -0.433651 1133 0.710489 0.703708 0.000000
-3.079931 -2.952615 -0.432453 1129 0.710489 0.703708 0.000000
-3.079287 -2.952000 -0.431039 1117 0.710489 0.703708 0.000000
-3.079012 -2.951738 -0.429681 1117 0.710489 0.703708 0.000000
-3.079844 -2.952537 -0.428473 1133 0.710489 0.703708 0.000000
-3.080301 -2.952975 -0.427209 1133 0.710489 0.703708 0.000000
-3.080187 -2.952864 -0.425870 1125 0.710489 0.703708 0.000000
-3.079603 -2.952300 -0.424465 1105 0.710489 0.703708 0.000000
-3.079220 -2.951934 -0.423089 1113 0.710489 0.703708 0.000000
-3.079246 -2.951967 -0.421779 1111 0.710489 0.703708 0.000000
-3.079346 -2.952050 -0.420468 1119 0.710489 0.703708 0.000000
-3.079495 -2.952201 -0.419166 1119 0.710489 0.703708 0.000000
-3.079582 -2.952287 -0.417856 1119 0.710489 0.703708 0.000000
-3.079460 -2.952169 -0.416517 1131 0.710489 0.703708 0.000000
-3.078930 -2.951651 -0.415122 1125 0.710489 0.703708 0.000000
-3.079117 -2.951834 -0.413820 1129 0.710489 0.703708 0.000000
-3.079211 -2.951926 -0.412509 1119 0.710489 0.703708 0.000000
-3.079359 -2.952063 -0.411207 1127 0.710489 0.703708 0.000000
-3.079499 -2.952193 -0.409906 1121 0.710489 0.703708 0.000000
-3.079163 -2.951880 -0.408539 1109 0.710489 0.703708 0.000000
-3.078625 -2.951355 -0.407144 1089 0.710489 0.703708 0.000000
-3.079397 -2.952102 -0.405927 1097 0.710489 0.703708 0.000000
-3.079483 -2.952187 -0.404616 1095 0.710489 0.703708 0.000000
-3.079570 -2.952272 -0.403305 1107 0.710489 0.703708 0.000000
-3.079871 -2.952553 -0.402022 1105 0.710489 0.703708 0.000000
-3.079588 -2.952284 -0.400665 1107 0.710489 0.703708 0.000000
-3.079205 -2.951917 -0.399299 1107 0.710489 0.703708 0.000000
-3.079184 -2.951898 -0.397969 1121 0.710489 0.703708 0.000000
-3.079324 -2.952028 -0.396667 1129 0.710489 0.703708 0.000000
-3.079411 -2.952113 -0.395357 1115 0.710489 0.703708 0.000000
-3.079812 -2.952492 -0.394093 1115 0.710489 0.703708 0.000000
-3.079953 -2.952637 -0.392781 1125 0.710489 0.703708 0.000000
-3.078977 -2.951701 -0.391341 1115 0.710489 0.703708 0.000000
-3.078231 -2.950973 -0.389928 1101 0.710489 0.703708 0.000000
-3.078418 -2.951157 -0.388636 1099 0.710489 0.703708 0.000000
-3.078451 -2.951196 -0.387316 1099 0.710489 0.703708 0.000000
-3.079061 -2.951779 -0.386070 1131 0.710489 0.703708 0.000000
-3.079463 -2.952157 -0.384796 1149 0.710489 0.703708 0.000000
-3.079495 -2.952183 -0.383486 1127 0.710489 0.703708 0.000000
-3.079729 -2.952420 -0.382193 1119 0.710489 0.703708 0.000000
-3.080083 -2.952745 -0.380910 1109 0.710489 0.703708 0.000000
-3.080170 -2.952831 -0.379599 1113 0.710489 0.703708 0.000000
-3.079980 -2.952654 -0.378261 1115 0.710489 0.703708 0.000000
-3.079542 -2.952228 -0.376885 1097 0.710489 0.703708 0.000000
-3.079313 -2.952005 -0.375537 1093 0.710489 0.703708 0.000000
-3.078914 -2.951626 -0.374171 1091 0.710489 0.703708 0.000000
-3.078793 -2.951508 -0.372842 1103 0.710489 0.703708 0.000000
-3.079819 -2.952496 -0.371642 1117 0.710489 0.703708 0.000000
-3.080737 -2.953380 -0.370434 1129 0.710489 0.703708 0.000000
-3.080661 -2.953301 -0.369104 1125 0.710489 0.703708 0.000000
-3.079162 -2.951867 -0.367608 1111 0.710489 0.703708 0.000000
-3.077286 -2.950074 -0.366066 1093 0.710489 0.703708 0.000000
-3.077271 -2.950047 -0.364746 1083 0.710489 0.703708 0.000000
-3.078459 -2.951186 -0.363565 1079 0.710489 0.703708 0.000000
-3.079377 -2.952070 -0.362356 1081 0.710489 0.703708 0.000000
-3.079778 -2.952448 -0.361082 1091 0.710489 0.703708 0.000000
-3.079535 -2.952227 -0.359735 1085 0.710489 0.703708 0.000000
-3.079874 -2.952540 -0.358451 1087 0.710489 0.703708 0.000000
-3.080108 -2.952776 -0.357159 1085 0.710489 0.703708 0.000000
-3.078877 -2.951584 -0.355701 1093 0.710489 0.703708 0.000000
-3.078001 -2.950746 -0.354279 1107 0.710489 0.703708 0.000000
-3.079243 -2.951944 -0.353107 1123 0.710489 0.703708 0.000000
-3.079576 -2.952265 -0.351824 1101 0.710489 0.703708 0.000000
-3.079701 -2.952382 -0.350513 1093 0.710489 0.703708 0.000000
-3.079525 -2.952205 -0.349175 1087 0.710489 0.703708 0.000000
-3.079019 -2.951721 -0.347799 1089 0.710489 0.703708 0.000000
-3.079406 -2.952101 -0.346526 1101 0.710489 0.703708 0.000000
-3.080069 -2.952728 -0.345279 1109 0.710489 0.703708 0.000000
-3.079871 -2.952546 -0.343941 1101 0.710489 0.703708 0.000000
-3.078949 -2.951655 -0.342520 1093 0.710489 0.703708 0.000000
-3.077973 -2.950719 -0.341099 1089 0.710489 0.703708 0.000000
-3.077675 -2.950438 -0.339752 1089 0.710489 0.703708 0.000000
-3.078377 -2.951112 -0.338505 1093 0.710489 0.703708 0.000000
-3.079356 -2.952047 -0.337296 1097 0.710489 0.703708 0.000000
-3.079320 -2.952014 -0.335976 1113 0.710489 0.703708 0.000000
-3.078814 -2.951530 -0.334601 1099 0.710489 0.703708 0.000000
-3.078515 -2.951235 -0.333254 1089 0.710489 0.703708 0.000000
-3.078802 -2.951517 -0.331961 1079 0.710489 0.703708 0.000000
-3.079141 -2.951829 -0.330678 1087 0.710489 0.703708 0.000000
-3.079259 -2.951955 -0.329377 1087 0.710489 0.703708 0.000000
-3.079645 -2.952321 -0.328103 1093 0.710489 0.703708 0.000000
-3.079509 -2.952190 -0.326764 1087 0.710489 0.703708 0.000000
-3.079633 -2.952307 -0.325463 1083 0.710489 0.703708 0.000000
-3.079597 -2.952274 -0.324143 1093 0.710489 0.703708 0.000000
-3.079930 -2.952595 -0.322860 1109 0.710489 0.703708 0.000000
-3.080424 -2.953066 -0.321595 1107 0.710489 0.703708 0.000000
-3.079386 -2.952064 -0.320165 1109 0.710489 0.703708 0.000000
-3.078611 -2.951325 -0.318772 1093 0.710489 0.703708 0.000000
-3.079366 -2.952044 -0.317535 1089 0.710489 0.703708 0.000000
-3.079707 -2.952371 -0.316252 1101 0.710489 0.703708 0.000000
-3.079293 -2.951979 -0.314896 1097 0.710489 0.703708 0.000000
-3.079257 -2.951946 -0.313566 1085 0.710489 0.703708 0.000000
-3.079066 -2.951756 -0.312238 1083 0.710489 0.703708 0.000000
-3.079076 -2.951776 -0.310918 1089 0.710489 0.703708 0.000000
-3.078677 -2.951382 -0.309562 1097 0.710489 0.703708 0.000000
-3.078271 -2.950996 -0.308205 1079 0.710489 0.703708 0.000000
-3.078388 -2.951108 -0.306904 1073 0.710489 0.703708 0.000000
-3.078136 -2.950865 -0.305557 1081 0.710489 0.703708 0.000000
-3.080880 -2.951766 -0.441733 1123 0.710489 0.703708 0.000000
-3.081128 -2.952002 -0.440440 1111 0.710489 0.703708 0.000000
-3.080960 -2.951845 -0.439092 1115 0.710489 0.703708 0.000000
-3.080430 -2.951327 -0.437697 1115 0.710489 0.703708 0.000000
-3.080632 -2.951523 -0.436395 1097 0.710489 0.703708 0.000000
-3.080888 -2.951765 -0.435113 1101 0.710489 0.703708 0.000000
-3.081082 -2.951955 -0.433811 1129 0.710489 0.703708 0.000000
-3.080968 -2.951843 -0.432472 1121 0.710489 0.703708 0.000000
-3.080170 -2.951084 -0.431039 1115 0.710489 0.703708 0.000000
-3.080209 -2.951116 -0.429719 1119 0.710489 0.703708 0.000000
-3.081043 -2.951915 -0.428511 1123 0.710489 0.703708 0.000000
-3.081237 -2.952105 -0.427219 1113 0.710489 0.703708 0.000000
-3.080915 -2.951790 -0.425852 1099 0.710489 0.703708 0.000000
-3.080640 -2.951528 -0.424485 1107 0.710489 0.703708 0.000000
-3.080465 -2.951365 -0.423146 1109 0.710489 0.703708 0.000000
-3.080451 -2.951351 -0.421816 1103 0.710489 0.703708 0.000000
-3.080915 -2.951796 -0.420562 1125 0.710489 0.703708 0.000000
-3.080639 -2.951520 -0.419195 1139 0.710489 0.703708 0.000000
-3.080094 -2.951003 -0.417800 1141 0.710489 0.703708 0.000000
-3.079658 -2.950591 -0.416424 1135 0.710489 0.703708 0.000000
-3.079175 -2.950126 -0.415038 1111 0.710489 0.703708 0.000000
-3.079422 -2.950362 -0.413746 1109 0.710489 0.703708 0.000000
-3.079678 -2.950603 -0.412464 1103 0.710489 0.703708 0.000000
-3.079549 -2.950479 -0.411125 1103 0.710489 0.703708 0.000000
-3.078857 -2.949811 -0.409711 1107 0.710489 0.703708 0.000000
-3.078313 -2.949294 -0.408316 1097 0.710489 0.703708 0.000000
-3.079092 -2.950033 -0.407099 1087 0.710489 0.703708 0.000000
-3.080756 -2.951630 -0.405993 1089 0.710489 0.703708 0.000000
-3.081420 -2.952271 -0.404757 1105 0.710489 0.703708 0.000000
-3.080876 -2.951755 -0.403362 1107 0.710489 0.703708 0.000000
-3.080808 -2.951682 -0.402033 1109 0.710489 0.703708 0.000000
-3.081002 -2.951871 -0.400731 1107 0.710489 0.703708 0.000000
-3.080665 -2.951544 -0.399374 1101 0.710489 0.703708 0.000000
-3.079705 -2.950621 -0.397923 1105 0.710489 0.703708 0.000000
-3.080052 -2.950954 -0.396650 1117 0.710489 0.703708 0.000000
-3.080401 -2.951288 -0.395376 1111 0.710489 0.703708 0.000000
-3.079218 -2.950163 -0.393907 1097 0.710489 0.703708 0.000000
-3.078941 -2.949887 -0.392550 1103 0.710489 0.703708 0.000000
-3.079344 -2.950280 -0.391276 1117 0.710489 0.703708 0.000000
-3.079168 -2.950102 -0.389938 1111 0.710489 0.703708 0.000000
-3.079255 -2.950188 -0.388627 1089 0.710489 0.703708 0.000000
-3.079395 -2.950318 -0.387326 1091 0.710489 0.703708 0.000000
-3.079520 -2.950450 -0.386024 1127 0.710489 0.703708 0.000000
-3.079507 -2.950436 -0.384695 1121 0.710489 0.703708 0.000000
-3.080009 -2.950914 -0.383440 1113 0.710489 0.703708 0.000000
-3.080088 -2.950992 -0.382129 1103 0.710489 0.703708 0.000000
-3.079966 -2.950874 -0.380790 1095 0.710489 0.703708 0.000000
-3.080737 -2.951607 -0.379563 1095 0.710489 0.703708 0.000000
-3.080763 -2.951640 -0.378253 1097 0.710489 0.703708 0.000000
-3.080379 -2.951259 -0.376886 1095 0.710489 0.703708 0.000000
-3.080135 -2.951037 -0.375538 1089 0.710489 0.703708 0.000000
-3.079751 -2.950657 -0.374162 1085 0.710489 0.703708 0.000000
-3.079507 -2.950435 -0.372824 1093 0.710489 0.703708 0.000000
-3.080017 -2.950919 -0.371559 1113 0.710489 0.703708 0.000000
-3.081149 -2.951998 -0.370379 1127 0.710489 0.703708 0.000000
-3.081120 -2.951972 -0.369049 1109 0.710489 0.703708 0.000000
-3.080891 -2.951749 -0.367701 1105 0.710489 0.703708 0.000000
-3.080870 -2.951729 -0.366381 1095 0.710489 0.703708 0.000000
-3.079679 -2.950598 -0.364922 1069 0.710489 0.703708 0.000000
-3.079604 -2.950518 -0.363593 1079 0.710489 0.703708 0.000000
-3.079890 -2.950786 -0.362310 1069 0.710489 0.703708 0.000000
-3.080238 -2.951120 -0.361027 1067 0.710489 0.703708 0.000000
-3.080364 -2.951251 -0.359726 1081 0.710489 0.703708 0.000000
-3.080027 -2.950924 -0.358369 1081 0.710489 0.703708 0.000000
-3.079789 -2.950694 -0.357021 1081 0.710489 0.703708 0.000000
-3.079753 -2.950662 -0.355702 1101 0.710489 0.703708 0.000000
-3.079785 -2.950687 -0.354381 1109 0.710489 0.703708 0.000000
-3.080125 -2.951015 -0.353108 1107 0.710489 0.703708 0.000000
-3.080358 -2.951237 -0.351806 1097 0.710489 0.703708 0.000000
-3.080537 -2.951414 -0.350514 1085 0.710489 0.703708 0.000000
-3.080723 -2.951583 -0.349212 1081 0.710489 0.703708 0.000000
-3.080164 -2.951053 -0.347838 1079 0.710489 0.703708 0.000000
-3.080604 -2.951479 -0.346563 1097 0.710489 0.703708 0.000000
-3.081429 -2.952256 -0.345335 1111 0.710489 0.703708 0.000000
-3.080445 -2.951314 -0.343905 1095 0.710489 0.703708 0.000000
-3.079677 -2.950581 -0.342502 1077 0.710489 0.703708 0.000000
-3.079540 -2.950450 -0.341173 1087 0.710489 0.703708 0.000000
-3.079458 -2.950378 -0.339844 1079 0.710489 0.703708 0.000000
-3.080161 -2.951052 -0.338607 1085 0.710489 0.703708 0.000000
-3.080716 -2.951575 -0.337342 1107 0.710489 0.703708 0.000000
-3.080841 -2.951693 -0.336041 1113 0.710489 0.703708 0.000000
-3.081073 -2.951915 -0.334749 1095 0.710489 0.703708 0.000000
-3.079936 -2.950829 -0.333309 1063 0.710489 0.703708 0.000000
-3.079476 -2.950383 -0.331944 1071 0.710489 0.703708 0.000000
-3.080655 -2.951516 -0.330752 1093 0.710489 0.703708 0.000000
-3.080996 -2.951843 -0.329469 1095 0.710489 0.703708 0.000000
-3.080166 -2.951044 -0.328067 1099 0.710489 0.703708 0.000000
-3.079437 -2.950357 -0.326674 1091 0.710489 0.703708 0.000000
-3.079831 -2.950730 -0.325390 1083 0.710489 0.703708 0.000000
-3.080326 -2.951201 -0.324125 1077 0.710489 0.703708 0.000000
-3.080612 -2.951469 -0.322843 1091 0.710489 0.703708 0.000000
-3.081260 -2.952097 -0.321587 1111 0.710489 0.703708 0.000000
-3.081377 -2.952208 -0.320285 1119 0.710489 0.703708 0.000000
-3.080925 -2.951769 -0.318920 1111 0.710489 0.703708 0.000000
-3.080835 -2.951691 -0.317590 1095 0.710489 0.703708 0.000000
-3.080852 -2.951704 -0.316280 1103 0.710489 0.703708 0.000000
-3.080291 -2.951160 -0.314906 1093 0.710489 0.703708 0.000000
-3.080086 -2.950970 -0.313568 1091 0.710489 0.703708 0.000000
-3.080157 -2.951043 -0.312257 1095 0.710489 0.703708 0.000000
-3.080335 -2.951205 -0.310955 1093 0.710489 0.703708 0.000000
-3.080183 -2.951062 -0.309626 1089 0.710489 0.703708 0.000000
-3.080308 -2.951179 -0.308325 1097 0.710489 0.703708 0.000000
-3.079794 -2.950688 -0.306950 1089 0.710489 0.703708 0.000000
-3.079127 -2.950054 -0.305576 1079 0.710489 0.703708 0.000000
-3.080231 -2.949377 -0.441508 1105 0.710489 0.703708 0.000000
-3.080170 -2.949311 -0.440179 1117 0.710489 0.703708 0.000000
-3.080688 -2.949816 -0.438934 1125 0.710489 0.703708 0.000000
-3.080944 -2.950057 -0.437641 1121 0.710489 0.703708 0.000000
-3.080984 -2.950089 -0.436321 1099 0.710489 0.703708 0.000000
-3.081347 -2.950436 -0.435047 1089 0.710489 0.703708 0.000000
-3.081119 -2.950227 -0.433699 1091 0.710489 0.703708 0.000000
-3.081113 -2.950220 -0.432369 1085 0.710489 0.703708 0.000000
-3.081522 -2.950606 -0.431106 1091 0.710489 0.703708 0.000000
-3.081777 -2.950847 -0.429813 1109 0.710489 0.703708 0.000000
-3.081710 -2.950789 -0.428484 1125 0.710489 0.703708 0.000000
-3.080757 -2.949872 -0.427033 1109 0.710489 0.703708 0.000000
-3.079804 -2.948956 -0.425582 1099 0.710489 0.703708 0.000000
-3.080421 -2.949544 -0.424336 1105 0.710489 0.703708 0.000000
-3.081302 -2.950396 -0.423137 1117 0.710489 0.703708 0.000000
-3.081080 -2.950179 -0.421780 1115 0.710489 0.703708 0.000000
-3.080897 -2.950009 -0.420441 1123 0.710489 0.703708 0.000000
-3.080421 -2.949551 -0.419056 1129 0.710489 0.703708 0.000000
-3.080400 -2.949531 -0.417726 1121 0.710489 0.703708 0.000000
-3.080709 -2.949818 -0.416443 1111 0.710489 0.703708 0.000000
-3.080796 -2.949903 -0.415132 1113 0.710489 0.703708 0.000000
-3.080882 -2.949988 -0.413821 1109 0.710489 0.703708 0.000000
-3.081038 -2.950132 -0.412520 1099 0.710489 0.703708 0.000000
-3.081494 -2.950570 -0.411255 1121 0.710489 0.703708 0.000000
-3.081150 -2.950250 -0.409899 1121 0.710489 0.703708 0.000000
-3.080928 -2.950033 -0.408541 1109 0.710489 0.703708 0.000000
-3.080968 -2.950066 -0.407230 1111 0.710489 0.703708 0.000000
-3.080215 -2.949346 -0.405807 1097 0.710489 0.703708 0.000000
-3.080302 -2.949431 -0.404497 1115 0.710489 0.703708 0.000000
-3.080497 -2.949621 -0.403205 1115 0.710489 0.703708 0.000000
-3.081114 -2.950209 -0.401959 1113 0.710489 0.703708 0.000000
-3.081777 -2.950837 -0.400723 1117 0.710489 0.703708 0.000000
-3.080501 -2.949620 -0.399235 1087 0.710489 0.703708 0.000000
-3.080379 -2.949502 -0.397906 1087 0.710489 0.703708 0.000000
-3.080620 -2.949731 -0.396613 1111 0.710489 0.703708 0.000000
-3.080337 -2.949462 -0.395256 1113 0.710489 0.703708 0.000000
-3.080685 -2.949796 -0.393983 1107 0.710489 0.703708 0.000000
-3.081295 -2.950378 -0.392737 1115 0.710489 0.703708 0.000000
-3.081220 -2.950313 -0.391407 1115 0.710489 0.703708 0.000000
-3.080944 -2.950037 -0.390050 1099 0.710489 0.703708 0.000000
-3.080869 -2.949972 -0.388721 1089 0.710489 0.703708 0.000000
-3.081218 -2.950306 -0.387437 1103 0.710489 0.703708 0.000000
-3.081780 -2.950835 -0.386192 1117 0.710489 0.703708 0.000000
-3.081859 -2.950913 -0.384881 1107 0.710489 0.703708 0.000000
-3.081523 -2.950600 -0.383515 1101 0.710489 0.703708 0.000000
-3.081455 -2.950527 -0.382185 1095 0.710489 0.703708 0.000000
-3.081587 -2.950651 -0.380884 1101 0.710489 0.703708 0.000000
-3.081666 -2.950730 -0.379573 1105 0.710489 0.703708 0.000000
-3.081336 -2.950408 -0.378216 1091 0.710489 0.703708 0.000000
-3.081046 -2.950134 -0.376859 1099 0.710489 0.703708 0.000000
-3.081186 -2.950264 -0.375558 1103 0.710489 0.703708 0.000000
-3.081943 -2.950998 -0.374320 1091 0.710489 0.703708 0.000000
-3.082136 -2.951174 -0.373029 1097 0.710489 0.703708 0.000000
-3.082162 -2.951207 -0.371708 1097 0.710489 0.703708 0.000000
-3.082033 -2.951082 -0.370379 1107 0.710489 0.703708 0.000000
-3.081796 -2.950853 -0.369032 1105 0.710489 0.703708 0.000000
-3.081828 -2.950878 -0.367711 1107 0.710489 0.703708 0.000000
-3.081537 -2.950604 -0.366354 1085 0.710489 0.703708 0.000000
-3.081039 -2.950126 -0.364979 1067 0.710489 0.703708 0.000000
-3.080594 -2.949693 -0.363613 1077 0.710489 0.703708 0.000000
-3.080612 -2.949720 -0.362293 1081 0.710489 0.703708 0.000000
-3.080852 -2.949949 -0.361000 1083 0.710489 0.703708 0.000000
-3.080245 -2.949366 -0.359616 1095 0.710489 0.703708 0.000000
-3.079586 -2.948738 -0.358222 1099 0.710489 0.703708 0.000000
-3.079826 -2.948967 -0.356930 1095 0.710489 0.703708 0.000000
-3.079790 -2.948934 -0.355600 1091 0.710489 0.703708 0.000000
-3.079452 -2.948606 -0.354243 1089 0.710489 0.703708 0.000000
-3.080693 -2.949790 -0.353072 1101 0.710489 0.703708 0.000000
-3.081772 -2.950824 -0.351871 1121 0.710489 0.703708 0.000000
-3.081944 -2.950995 -0.350570 1115 0.710489 0.703708 0.000000
-3.081552 -2.950608 -0.349203 1109 0.710489 0.703708 0.000000
-3.080839 -2.949934 -0.347810 1101 0.710489 0.703708 0.000000
-3.081172 -2.950255 -0.346527 1111 0.710489 0.703708 0.000000
-3.081935 -2.950981 -0.345300 1129 0.710489 0.703708 0.000000
-3.082229 -2.951255 -0.344007 1107 0.710489 0.703708 0.000000
-3.081769 -2.950824 -0.342641 1087 0.710489 0.703708 0.000000
-3.081424 -2.950489 -0.341285 1081 0.710489 0.703708 0.000000
-3.080979 -2.950057 -0.339919 1077 0.710489 0.703708 0.000000
-3.080620 -2.949724 -0.338562 1077 0.710489 0.703708 0.000000
-3.081445 -2.950501 -0.337334 1101 0.710489 0.703708 0.000000
-3.081985 -2.951025 -0.336069 1107 0.710489 0.703708 0.000000
-3.081371 -2.950436 -0.334685 1095 0.710489 0.703708 0.000000
-3.080919 -2.949997 -0.333319 1077 0.710489 0.703708 0.000000
-3.081259 -2.950324 -0.332036 1091 0.710489 0.703708 0.000000
-3.081692 -2.950743 -0.330772 1105 0.710489 0.703708 0.000000
-3.081247 -2.950311 -0.329406 1103 0.710489 0.703708 0.000000
-3.080311 -2.949421 -0.327985 1097 0.710489 0.703708 0.000000
-3.080382 -2.949493 -0.326674 1097 0.710489 0.703708 0.000000
-3.080660 -2.949755 -0.325391 1075 0.710489 0.703708 0.000000
-3.080577 -2.949669 -0.324062 1059 0.710489 0.703708 0.000000
-3.080440 -2.949538 -0.322733 1077 0.710489 0.703708 0.000000
-3.080981 -2.950062 -0.321468 1093 0.710489 0.703708 0.000000
-3.081367 -2.950428 -0.320195 1103 0.710489 0.703708 0.000000
-3.081062 -2.950140 -0.318847 1095 0.710489 0.703708 0.000000
-3.081455 -2.950512 -0.317564 1095 0.710489 0.703708 0.000000
-3.081519 -2.950578 -0.316253 1087 0.710489 0.703708 0.000000
-3.080959 -2.950034 -0.314878 1081 0.710489 0.703708 0.000000
-3.080922 -2.950002 -0.313559 1091 0.710489 0.703708 0.000000
-3.081248 -2.950316 -0.312276 1087 0.710489 0.703708 0.000000
-3.081472 -2.950532 -0.310983 1085 0.710489 0.703708 0.000000
-3.081073 -2.950138 -0.309627 1071 0.710489 0.703708 0.000000
-3.081037 -2.950105 -0.308308 1075 0.710489 0.703708 0.000000
-3.080684 -2.949765 -0.306951 1099 0.710489 0.703708 0.000000
-3.080217 -2.949327 -0.305595 1097 0.710489 0.703708 0.000000
-3.082189 -2.949546 -0.441668 1109 0.710489 0.703708 0.000000
-3.082175 -2.949533 -0.440348 1121 0.710489 0.703708 0.000000
-3.082647 -2.949984 -0.439084 1147 0.710489 0.703708 0.000000
-3.082210 -2.949572 -0.437698 1143 0.710489 0.703708 0.000000
-3.080941 -2.948347 -0.436200 1105 0.710489 0.703708 0.000000
-3.081143 -2.948543 -0.434908 1087 0.710489 0.703708 0.000000
-3.082238 -2.949590 -0.433738 1091 0.710489 0.703708 0.000000
-3.082655 -2.949982 -0.432464 1111 0.710489 0.703708 0.000000
-3.082526 -2.949872 -0.431125 1117 0.710489 0.703708 0.000000
-3.082520 -2.949865 -0.429805 1119 0.710489 0.703708 0.000000
-3.082098 -2.949452 -0.428419 1119 0.710489 0.703708 0.000000
-3.080654 -2.948078 -0.426902 1107 0.710489 0.703708 0.000000
-3.080009 -2.947463 -0.425488 1099 0.710489 0.703708 0.000000
-3.081104 -2.948510 -0.424318 1121 0.710489 0.703708 0.000000
-3.082043 -2.949399 -0.423119 1119 0.710489 0.703708 0.000000
-3.082246 -2.949595 -0.421827 1111 0.710489 0.703708 0.000000
-3.082278 -2.949621 -0.420507 1111 0.710489 0.703708 0.000000
-3.081788 -2.949163 -0.419122 1125 0.710489 0.703708 0.000000
-3.081458 -2.948842 -0.417755 1133 0.710489 0.703708 0.000000
-3.081768 -2.949143 -0.416472 1109 0.710489 0.703708 0.000000
-3.082070 -2.949424 -0.415189 1103 0.710489 0.703708 0.000000
-3.081578 -2.948953 -0.413803 1089 0.710489 0.703708 0.000000
-3.081665 -2.949038 -0.412493 1081 0.710489 0.703708 0.000000
-3.082391 -2.949731 -0.411266 1105 0.710489 0.703708 0.000000
-3.082430 -2.949763 -0.409955 1103 0.710489 0.703708 0.000000
-3.082255 -2.949600 -0.408607 1109 0.710489 0.703708 0.000000
-3.080925 -2.948323 -0.407109 1093 0.710489 0.703708 0.000000
-3.081220 -2.948611 -0.405827 1111 0.710489 0.703708 0.000000
-3.082730 -2.950051 -0.404702 1119 0.710489 0.703708 0.000000
-3.083032 -2.950346 -0.403419 1113 0.710489 0.703708 0.000000
-3.082856 -2.950168 -0.402071 1115 0.710489 0.703708 0.000000
-3.082312 -2.949651 -0.400686 1099 0.710489 0.703708 0.000000
-3.081559 -2.948931 -0.399263 1091 0.710489 0.703708 0.000000
-3.081229 -2.948610 -0.397906 1101 0.710489 0.703708 0.000000
-3.081155 -2.948545 -0.396577 1107 0.710489 0.703708 0.000000
-3.081711 -2.949081 -0.395322 1107 0.710489 0.703708 0.000000
-3.082013 -2.949362 -0.394039 1111 0.710489 0.703708 0.000000
-3.081730 -2.949094 -0.392681 1101 0.710489 0.703708 0.000000
-3.082131 -2.949473 -0.391408 1103 0.710489 0.703708 0.000000
-3.081949 -2.949303 -0.390069 1105 0.710489 0.703708 0.000000
-3.081558 -2.948930 -0.388703 1105 0.710489 0.703708 0.000000
-3.081490 -2.948857 -0.387374 1101 0.710489 0.703708 0.000000
-3.082315 -2.949649 -0.386156 1097 0.710489 0.703708 0.000000
-3.083133 -2.950434 -0.384928 1107 0.710489 0.703708 0.000000
-3.083012 -2.950316 -0.383599 1105 0.710489 0.703708 0.000000
-3.083036 -2.950336 -0.382279 1099 0.710489 0.703708 0.000000
-3.083122 -2.950420 -0.380968 1109 0.710489 0.703708 0.000000
-3.082516 -2.949838 -0.379574 1107 0.710489 0.703708 0.000000
-3.081810 -2.949171 -0.378170 1115 0.710489 0.703708 0.000000
-3.081951 -2.949301 -0.376869 1113 0.710489 0.703708 0.000000
-3.082761 -2.950080 -0.375641 1123 0.710489 0.703708 0.000000
-3.082901 -2.950211 -0.374340 1109 0.710489 0.703708 0.000000
-3.082563 -2.949883 -0.372973 1087 0.710489 0.703708 0.000000
-3.082373 -2.949706 -0.371635 1093 0.710489 0.703708 0.000000
-3.081613 -2.948980 -0.370222 1103 0.710489 0.703708 0.000000
-3.081068 -2.948449 -0.368837 1103 0.710489 0.703708 0.000000
-3.081886 -2.949234 -0.367619 1095 0.710489 0.703708 0.000000
-3.082696 -2.950013 -0.366392 1081 0.710489 0.703708 0.000000
-3.082366 -2.949692 -0.365035 1079 0.710489 0.703708 0.000000
-3.082284 -2.949620 -0.363706 1097 0.710489 0.703708 0.000000
-3.082047 -2.949391 -0.362358 1097 0.710489 0.703708 0.000000
-3.081649 -2.949012 -0.360992 1087 0.710489 0.703708 0.000000
-3.081573 -2.948932 -0.359662 1091 0.710489 0.703708 0.000000
-3.081074 -2.948455 -0.358287 1089 0.710489 0.703708 0.000000
-3.081045 -2.948428 -0.356967 1095 0.710489 0.703708 0.000000
-3.081009 -2.948395 -0.355647 1093 0.710489 0.703708 0.000000
-3.081196 -2.948579 -0.354346 1101 0.710489 0.703708 0.000000
-3.081912 -2.949252 -0.353109 1107 0.710489 0.703708 0.000000
-3.082144 -2.949474 -0.351817 1119 0.710489 0.703708 0.000000
-3.081954 -2.949298 -0.350478 1111 0.710489 0.703708 0.000000
-3.081556 -2.948918 -0.349112 1101 0.710489 0.703708 0.000000
-3.080950 -2.948336 -0.347728 1109 0.710489 0.703708 0.000000
-3.081760 -2.949115 -0.346500 1107 0.710489 0.703708 0.000000
-3.083001 -2.950299 -0.345318 1107 0.710489 0.703708 0.000000
-3.082447 -2.949761 -0.343944 1093 0.710489 0.703708 0.000000
-3.082196 -2.949533 -0.342596 1083 0.710489 0.703708 0.000000
-3.082221 -2.949552 -0.341276 1081 0.710489 0.703708 0.000000
-3.082615 -2.949924 -0.340002 1091 0.710489 0.703708 0.000000
-3.082317 -2.949643 -0.338655 1083 0.710489 0.703708 0.000000
-3.081911 -2.949257 -0.337288 1077 0.710489 0.703708 0.000000
-3.082620 -2.949938 -0.336052 1095 0.710489 0.703708 0.000000
-3.082060 -2.949394 -0.334667 1103 0.710489 0.703708 0.000000
-3.081246 -2.948608 -0.333265 1087 0.710489 0.703708 0.000000
-3.081840 -2.949177 -0.332009 1101 0.710489 0.703708 0.000000
-3.081958 -2.949302 -0.330708 1099 0.710489 0.703708 0.000000
-3.081613 -2.948968 -0.329351 1081 0.710489 0.703708 0.000000
-3.081954 -2.949296 -0.328068 1091 0.710489 0.703708 0.000000
-3.081332 -2.948700 -0.326684 1099 0.710489 0.703708 0.000000
-3.080302 -2.947704 -0.325264 1077 0.710489 0.703708 0.000000
-3.080743 -2.948130 -0.323989 1085 0.710489 0.703708 0.000000
-3.080860 -2.948241 -0.322688 1079 0.710489 0.703708 0.000000
-3.081139 -2.948516 -0.321396 1083 0.710489 0.703708 0.000000
-3.081795 -2.949137 -0.320149 1089 0.710489 0.703708 0.000000
-3.082550 -2.949856 -0.318912 1105 0.710489 0.703708 0.000000
-3.082568 -2.949883 -0.317592 1103 0.710489 0.703708 0.000000
-3.081638 -2.948986 -0.316181 1079 0.710489 0.703708 0.000000
-3.080956 -2.948339 -0.314797 1073 0.710489 0.703708 0.000000
-3.080933 -2.948305 -0.313477 1085 0.710489 0.703708 0.000000
-3.081258 -2.948619 -0.312194 1085 0.710489 0.703708 0.000000
-3.081645 -2.948985 -0.310920 1081 0.710489 0.703708 0.000000
-3.081708 -2.949051 -0.309610 1075 0.710489 0.703708 0.000000
-3.081826 -2.949162 -0.308299 1073 0.710489 0.703708 0.000000
-3.081589 -2.948932 -0.306961 1099 0.710489 0.703708 0.000000
-3.081336 -2.948690 -0.305623 1107 0.710489 0.703708 0.000000
-3.083421 -2.948992 -0.441725 1123 0.710489 0.703708 0.000000
-3.083354 -2.948933 -0.440386 1107 0.710489 0.703708 0.000000
-3.083295 -2.948881 -0.439057 1117 0.710489 0.703708 0.000000
-3.082395 -2.948009 -0.437605 1119 0.710489 0.703708 0.000000
-3.081697 -2.947349 -0.436182 1085 0.710489 0.703708 0.000000
-3.081745 -2.947388 -0.434871 1081 0.710489 0.703708 0.000000
-3.082678 -2.948284 -0.433672 1107 0.710489 0.703708 0.000000
-3.083565 -2.949128 -0.432474 1133 0.710489 0.703708 0.000000
-3.083705 -2.949273 -0.431172 1133 0.710489 0.703708 0.000000
-3.083806 -2.949357 -0.429862 1133 0.710489 0.703708 0.000000
-3.083324 -2.948906 -0.428476 1129 0.710489 0.703708 0.000000
-3.082356 -2.947976 -0.427015 1115 0.710489 0.703708 0.000000
-3.082403 -2.948015 -0.425705 1115 0.710489 0.703708 0.000000
-3.083014 -2.948611 -0.424459 1133 0.710489 0.703708 0.000000
-3.083222 -2.948800 -0.423167 1121 0.710489 0.703708 0.000000
-3.083678 -2.949238 -0.421903 1117 0.710489 0.703708 0.000000
-3.083726 -2.949277 -0.420592 1119 0.710489 0.703708 0.000000
-3.082912 -2.948505 -0.419160 1121 0.710489 0.703708 0.000000
-3.082437 -2.948046 -0.417774 1113 0.710489 0.703708 0.000000
-3.081892 -2.947530 -0.416379 1095 0.710489 0.703708 0.000000
-3.082087 -2.947719 -0.415077 1105 0.710489 0.703708 0.000000
-3.082812 -2.948413 -0.413851 1095 0.710489 0.703708 0.000000
-3.082536 -2.948137 -0.412493 1077 0.710489 0.703708 0.000000
-3.082361 -2.947973 -0.411155 1087 0.710489 0.703708 0.000000
-3.083186 -2.948766 -0.409937 1095 0.710489 0.703708 0.000000
-3.083173 -2.948752 -0.408617 1113 0.710489 0.703708 0.000000
-3.082412 -2.948026 -0.407194 1103 0.710489 0.703708 0.000000
-3.082607 -2.948215 -0.405892 1097 0.710489 0.703708 0.000000
-3.083124 -2.948706 -0.404637 1099 0.710489 0.703708 0.000000
-3.083834 -2.949386 -0.403411 1109 0.710489 0.703708 0.000000
-3.083350 -2.948921 -0.402025 1101 0.710489 0.703708 0.000000
-3.081598 -2.947246 -0.400482 1085 0.710489 0.703708 0.000000
-3.081530 -2.947173 -0.399152 1079 0.710489 0.703708 0.000000
-3.082617 -2.948214 -0.397972 1105 0.710489 0.703708 0.000000
-3.083226 -2.948796 -0.396726 1109 0.710489 0.703708 0.000000
-3.083743 -2.949286 -0.395471 1099 0.710489 0.703708 0.000000
-3.083668 -2.949221 -0.394142 1099 0.710489 0.703708 0.000000
-3.083748 -2.949300 -0.392831 1101 0.710489 0.703708 0.000000
-3.083888 -2.949430 -0.391520 1113 0.710489 0.703708 0.000000
-3.083497 -2.949057 -0.390154 1127 0.710489 0.703708 0.000000
-3.082790 -2.948376 -0.388750 1117 0.710489 0.703708 0.000000
-3.082246 -2.947859 -0.387355 1095 0.710489 0.703708 0.000000
-3.082916 -2.948493 -0.386119 1095 0.710489 0.703708 0.000000
-3.083835 -2.949377 -0.384910 1119 0.710489 0.703708 0.000000
-3.083921 -2.949462 -0.383599 1125 0.710489 0.703708 0.000000
-3.083846 -2.949383 -0.382270 1105 0.710489 0.703708 0.000000
-3.083879 -2.949423 -0.380960 1097 0.710489 0.703708 0.000000
-3.083064 -2.948637 -0.379537 1101 0.710489 0.703708 0.000000
-3.082096 -2.947707 -0.378097 1103 0.710489 0.703708 0.000000
-3.082182 -2.947792 -0.376786 1105 0.710489 0.703708 0.000000
-3.083154 -2.948721 -0.375587 1119 0.710489 0.703708 0.000000
-3.083179 -2.948755 -0.374266 1103 0.710489 0.703708 0.000000
-3.083004 -2.948577 -0.372928 1085 0.710489 0.703708 0.000000
-3.083082 -2.948656 -0.371617 1105 0.710489 0.703708 0.000000
-3.082853 -2.948433 -0.370269 1117 0.710489 0.703708 0.000000
-3.082562 -2.948158 -0.368912 1099 0.710489 0.703708 0.000000
-3.083595 -2.949139 -0.367722 1101 0.710489 0.703708 0.000000
-3.084352 -2.949872 -0.366485 1113 0.710489 0.703708 0.000000
-3.083276 -2.948838 -0.365045 1103 0.710489 0.703708 0.000000
-3.082985 -2.948563 -0.363688 1101 0.710489 0.703708 0.000000
-3.083226 -2.948792 -0.362395 1105 0.710489 0.703708 0.000000
-3.083419 -2.948968 -0.361104 1109 0.710489 0.703708 0.000000
-3.082913 -2.948483 -0.359718 1109 0.710489 0.703708 0.000000
-3.082037 -2.947645 -0.358307 1105 0.710489 0.703708 0.000000
-3.081855 -2.947476 -0.356968 1087 0.710489 0.703708 0.000000
