627
-16.157171 -15.448745 -0.666599 1363 0.712294 0.701882 0.000000
-16.157162 -15.448730 -0.659729 1373 0.712294 0.701882 0.000000
-16.157787 -15.449328 -0.652883 1369 0.712294 0.701882 0.000000
-16.158558 -15.450068 -0.646035 1377 0.712294 0.701882 0.000000
-16.159176 -15.450662 -0.639189 1361 0.712294 0.701882 0.000000
-16.158787 -15.450289 -0.632303 1361 0.712294 0.701882 0.000000
-16.158134 -15.449667 -0.625409 1365 0.712294 0.701882 0.000000
-16.158014 -15.449549 -0.618530 1371 0.712294 0.701882 0.000000
-16.157555 -15.449121 -0.611644 1365 0.712294 0.701882 0.000000
-16.157904 -15.449457 -0.604791 1367 0.712294 0.701882 0.000000
-16.158306 -15.449839 -0.597937 1373 0.712294 0.701882 0.000000
-16.157959 -15.449512 -0.591050 1361 0.712294 0.701882 0.000000
-16.158037 -15.449579 -0.584179 1361 0.712294 0.701882 0.000000
-16.158220 -15.449757 -0.577317 1359 0.712294 0.701882 0.000000
-16.157814 -15.449371 -0.570431 1359 0.712294 0.701882 0.000000
-16.157776 -15.449346 -0.563561 1363 0.712294 0.701882 0.000000
-16.157797 -15.449354 -0.556701 1349 0.712294 0.701882 0.000000
-16.157606 -15.449181 -0.549822 1349 0.712294 0.701882 0.000000
-16.158194 -15.449748 -0.542966 1367 0.712294 0.701882 0.000000
-16.158424 -15.449965 -0.536104 1363 0.712294 0.701882 0.000000
-16.158430 -15.449975 -0.529244 1357 0.712294 0.701882 0.000000
-16.158606 -15.450146 -0.522372 1361 0.712294 0.701882 0.000000
-16.158407 -15.449952 -0.515504 1353 0.712294 0.701882 0.000000
-16.158834 -15.450366 -0.508640 1367 0.712294 0.701882 0.000000
-16.158840 -15.450363 -0.501779 1381 0.712294 0.701882 0.000000
-16.158689 -15.450222 -0.494901 1361 0.712294 0.701882 0.000000
-16.158421 -15.449971 -0.488023 1353 0.712294 0.701882 0.000000
-16.158792 -15.450327 -0.481169 1351 0.712294 0.701882 0.000000
-16.158689 -15.450236 -0.474300 1363 0.712294 0.701882 0.000000
-16.158792 -15.450337 -0.467429 1357 0.712294 0.701882 0.000000
-16.158840 -15.450380 -0.460558 1347 0.712294 0.701882 0.000000
-16.158577 -15.450122 -0.453691 1343 0.712294 0.701882 0.000000
-16.158514 -15.450063 -0.446821 1343 0.712294 0.701882 0.000000
-16.158085 -15.449659 -0.439935 1345 0.712294 0.701882 0.000000
-16.158178 -15.449753 -0.433074 1357 0.712294 0.701882 0.000000
-16.158329 -15.449890 -0.426202 1365 0.712294 0.701882 0.000000
-16.158892 -15.450439 -0.419357 1365 0.712294 0.701882 0.000000
-16.158932 -15.450477 -0.412486 1369 0.712294 0.701882 0.000000
-16.158440 -15.450007 -0.405611 1355 0.712294 0.701882 0.000000
-16.158899 -15.450447 -0.398746 1359 0.712294 0.701882 0.000000
-16.160048 -15.451544 -0.391905 1361 0.712294 0.701882 0.000000
-16.159494 -15.451026 -0.385030 1351 0.712294 0.701882 0.000000
-16.158579 -15.450142 -0.378139 1347 0.712294 0.701882 0.000000
-16.159405 -15.450939 -0.371291 1365 0.712294 0.701882 0.000000
-16.159420 -15.450956 -0.364420 1367 0.712294 0.701882 0.000000
-16.158564 -15.450130 -0.357538 1357 0.712294 0.701882 0.000000
-16.159485 -15.451017 -0.350689 1365 0.712294 0.701882 0.000000
-16.159452 -15.450983 -0.343820 1363 0.712294 0.701882 0.000000
-16.158936 -15.450496 -0.336944 1363 0.712294 0.701882 0.000000
-16.159491 -15.451024 -0.330089 1369 0.712294 0.701882 0.000000
-16.159513 -15.451048 -0.323218 1363 0.712294 0.701882 0.000000
-16.159531 -15.451065 -0.316348 1371 0.712294 0.701882 0.000000
-16.159536 -15.451077 -0.309488 1361 0.712294 0.701882 0.000000
-16.159290 -15.450846 -0.302610 1361 0.712294 0.701882 0.000000
-16.159456 -15.451010 -0.295748 1355 0.712294 0.701882 0.000000
-16.159266 -15.450823 -0.288880 1363 0.712294 0.701882 0.000000
-16.159012 -15.450583 -0.282012 1357 0.712294 0.701882 0.000000
-16.162601 -15.444118 -0.666616 1363 0.712294 0.701882 0.000000
-16.162699 -15.444214 -0.659755 1369 0.712294 0.701882 0.000000
-16.162785 -15.444302 -0.652884 1371 0.712294 0.701882 0.000000
-16.163141 -15.444631 -0.646031 1359 0.712294 0.701882 0.000000
-16.162657 -15.444169 -0.639135 1351 0.712294 0.701882 0.000000
-16.161736 -15.443291 -0.632234 1353 0.712294 0.701882 0.000000
-16.162178 -15.443718 -0.625379 1371 0.712294 0.701882 0.000000
-16.163012 -15.444522 -0.618541 1375 0.712294 0.701882 0.000000
-16.162933 -15.444450 -0.611662 1355 0.712294 0.701882 0.000000
-16.162867 -15.444376 -0.604792 1353 0.712294 0.701882 0.000000
-16.162725 -15.444256 -0.597913 1349 0.712294 0.701882 0.000000
-16.162653 -15.444177 -0.591044 1349 0.712294 0.701882 0.000000
-16.163145 -15.444654 -0.584189 1363 0.712294 0.701882 0.000000
-16.163017 -15.444530 -0.577320 1367 0.712294 0.701882 0.000000
-16.163033 -15.444549 -0.570450 1349 0.712294 0.701882 0.000000
-16.163048 -15.444566 -0.563580 1363 0.712294 0.701882 0.000000
-16.162437 -15.443989 -0.556685 1357 0.712294 0.701882 0.000000
-16.162666 -15.444204 -0.549823 1357 0.712294 0.701882 0.000000
-16.163095 -15.444618 -0.542969 1367 0.712294 0.701882 0.000000
-16.163530 -15.445038 -0.536114 1355 0.712294 0.701882 0.000000
-16.163332 -15.444845 -0.529246 1351 0.712294 0.701882 0.000000
-16.162191 -15.443749 -0.522337 1349 0.712294 0.701882 0.000000
-16.161825 -15.443410 -0.515450 1355 0.712294 0.701882 0.000000
-16.163046 -15.444578 -0.508628 1365 0.712294 0.701882 0.000000
-16.163059 -15.444581 -0.501758 1369 0.712294 0.701882 0.000000
-16.163115 -15.444644 -0.494887 1355 0.712294 0.701882 0.000000
-16.164169 -15.445653 -0.488057 1359 0.712294 0.701882 0.000000
-16.163956 -15.445446 -0.481179 1351 0.712294 0.701882 0.000000
-16.163694 -15.445201 -0.474301 1351 0.712294 0.701882 0.000000
-16.163431 -15.444942 -0.467424 1361 0.712294 0.701882 0.000000
-16.163052 -15.444591 -0.460547 1357 0.712294 0.701882 0.000000
-16.163685 -15.445196 -0.453691 1367 0.712294 0.701882 0.000000
-16.163622 -15.445137 -0.446821 1357 0.712294 0.701882 0.000000
-16.163673 -15.445186 -0.439961 1351 0.712294 0.701882 0.000000
-16.164349 -15.445836 -0.433104 1351 0.712294 0.701882 0.000000
-16.164127 -15.445624 -0.426236 1349 0.712294 0.701882 0.000000
-16.163475 -15.445003 -0.419352 1339 0.712294 0.701882 0.000000
-16.164045 -15.445542 -0.412496 1357 0.712294 0.701882 0.000000
-16.164188 -15.445688 -0.405625 1355 0.712294 0.701882 0.000000
-16.164118 -15.445623 -0.398755 1361 0.712294 0.701882 0.000000
-16.163832 -15.445348 -0.391888 1361 0.712294 0.701882 0.000000
-16.163443 -15.444975 -0.385011 1345 0.712294 0.701882 0.000000
-16.163847 -15.445370 -0.378147 1349 0.712294 0.701882 0.000000
-16.163830 -15.445348 -0.371277 1363 0.712294 0.701882 0.000000
-16.163752 -15.445277 -0.364408 1355 0.712294 0.701882 0.000000
-16.163885 -15.445401 -0.357547 1359 0.712294 0.701882 0.000000
-16.163845 -15.445375 -0.350677 1359 0.712294 0.701882 0.000000
-16.164352 -15.445851 -0.343822 1347 0.712294 0.701882 0.000000
-16.164480 -15.445972 -0.336960 1351 0.712294 0.701882 0.000000
-16.164288 -15.445798 -0.330082 1367 0.712294 0.701882 0.000000
-16.164415 -15.445917 -0.323221 1371 0.712294 0.701882 0.000000
-16.164637 -15.446139 -0.316358 1359 0.712294 0.701882 0.000000
-16.164343 -15.445857 -0.309481 1351 0.712294 0.701882 0.000000
-16.163881 -15.445414 -0.302605 1341 0.712294 0.701882 0.000000
-16.163946 -15.445483 -0.295744 1345 0.712294 0.701882 0.000000
-16.164167 -15.445691 -0.288882 1361 0.712294 0.701882 0.000000
-16.164333 -15.445856 -0.282020 1371 0.712294 0.701882 0.000000
-16.166868 -15.438373 -0.666595 1357 0.712294 0.701882 0.000000
-16.167067 -15.438563 -0.659733 1363 0.712294 0.701882 0.000000
-16.167589 -15.439067 -0.652887 1359 0.712294 0.701882 0.000000
-16.167358 -15.438848 -0.645999 1355 0.712294 0.701882 0.000000
-16.166924 -15.438424 -0.639113 1349 0.712294 0.701882 0.000000
-16.167587 -15.439068 -0.632267 1361 0.712294 0.701882 0.000000
-16.167095 -15.438600 -0.625381 1355 0.712294 0.701882 0.000000
-16.167500 -15.438981 -0.618527 1363 0.712294 0.701882 0.000000
-16.168158 -15.439619 -0.611681 1353 0.712294 0.701882 0.000000
-16.167871 -15.439342 -0.604804 1347 0.712294 0.701882 0.000000
-16.167427 -15.438912 -0.597908 1349 0.712294 0.701882 0.000000
-16.167023 -15.438540 -0.591031 1359 0.712294 0.701882 0.000000
-16.167633 -15.439113 -0.584175 1369 0.712294 0.701882 0.000000
-16.167864 -15.439342 -0.577323 1365 0.712294 0.701882 0.000000
-16.167830 -15.439308 -0.570443 1353 0.712294 0.701882 0.000000
-16.168383 -15.439836 -0.563598 1367 0.712294 0.701882 0.000000
-16.167759 -15.439247 -0.556703 1365 0.712294 0.701882 0.000000
-16.167416 -15.438911 -0.549827 1355 0.712294 0.701882 0.000000
-16.167955 -15.439428 -0.542971 1341 0.712294 0.701882 0.000000
-16.167971 -15.439445 -0.536101 1349 0.712294 0.701882 0.000000
-16.167137 -15.438651 -0.529209 1345 0.712294 0.701882 0.000000
-16.167574 -15.439072 -0.522354 1357 0.712294 0.701882 0.000000
-16.168003 -15.439486 -0.515500 1359 0.712294 0.701882 0.000000
-16.167961 -15.439446 -0.508630 1369 0.712294 0.701882 0.000000
-16.167849 -15.439348 -0.501751 1357 0.712294 0.701882 0.000000
-16.167864 -15.439353 -0.494891 1343 0.712294 0.701882 0.000000
-16.167856 -15.439351 -0.488021 1349 0.712294 0.701882 0.000000
-16.168127 -15.439612 -0.481158 1349 0.712294 0.701882 0.000000
-16.168228 -15.439712 -0.474287 1349 0.712294 0.701882 0.000000
-16.168022 -15.439512 -0.467419 1355 0.712294 0.701882 0.000000
-16.168118 -15.439606 -0.460548 1347 0.712294 0.701882 0.000000
-16.168808 -15.440269 -0.453701 1353 0.712294 0.701882 0.000000
-16.169006 -15.440459 -0.446839 1359 0.712294 0.701882 0.000000
-16.168781 -15.440247 -0.439961 1361 0.712294 0.701882 0.000000
-16.168146 -15.439638 -0.433077 1347 0.712294 0.701882 0.000000
-16.167923 -15.439424 -0.426209 1363 0.712294 0.701882 0.000000
-16.168543 -15.440018 -0.419353 1347 0.712294 0.701882 0.000000
-16.169216 -15.440668 -0.412506 1365 0.712294 0.701882 0.000000
-16.168995 -15.440455 -0.405628 1363 0.712294 0.701882 0.000000
-16.168606 -15.440083 -0.398751 1359 0.712294 0.701882 0.000000
-16.168425 -15.439916 -0.391883 1351 0.712294 0.701882 0.000000
-16.168573 -15.440054 -0.385011 1359 0.712294 0.701882 0.000000
-16.168541 -15.440033 -0.378152 1347 0.712294 0.701882 0.000000
-16.168205 -15.439705 -0.371275 1345 0.712294 0.701882 0.000000
-16.167856 -15.439377 -0.364398 1343 0.712294 0.701882 0.000000
-16.167889 -15.439408 -0.357527 1347 0.712294 0.701882 0.000000
-16.168119 -15.439637 -0.350665 1347 0.712294 0.701882 0.000000
-16.168736 -15.440215 -0.343819 1341 0.712294 0.701882 0.000000
-16.169441 -15.440891 -0.336962 1355 0.712294 0.701882 0.000000
-16.169134 -15.440609 -0.330085 1349 0.712294 0.701882 0.000000
-16.168894 -15.440370 -0.323217 1351 0.712294 0.701882 0.000000
-16.168705 -15.440196 -0.316349 1345 0.712294 0.701882 0.000000
-16.168608 -15.440111 -0.309479 1347 0.712294 0.701882 0.000000
-16.168568 -15.440072 -0.302609 1349 0.712294 0.701882 0.000000
-16.168797 -15.440286 -0.295747 1357 0.712294 0.701882 0.000000
-16.168917 -15.440400 -0.288876 1351 0.712294 0.701882 0.000000
-16.168821 -15.440315 -0.282017 1363 0.712294 0.701882 0.000000
-16.171480 -15.433331 -0.666598 1363 0.712294 0.701882 0.000000
-16.171947 -15.433778 -0.659743 1365 0.712294 0.701882 0.000000
-16.172670 -15.434479 -0.652896 1369 0.712294 0.701882 0.000000
-16.172392 -15.434208 -0.646019 1363 0.712294 0.701882 0.000000
-16.171797 -15.433643 -0.639124 1361 0.712294 0.701882 0.000000
-16.171511 -15.433367 -0.632247 1359 0.712294 0.701882 0.000000
-16.172237 -15.434062 -0.625400 1371 0.712294 0.701882 0.000000
-16.172476 -15.434297 -0.618537 1357 0.712294 0.701882 0.000000
-16.172350 -15.434174 -0.611658 1349 0.712294 0.701882 0.000000
-16.172323 -15.434145 -0.604788 1351 0.712294 0.701882 0.000000
-16.173094 -15.434886 -0.597951 1375 0.712294 0.701882 0.000000
-16.172848 -15.434654 -0.591073 1367 0.712294 0.701882 0.000000
-16.172293 -15.434122 -0.584178 1357 0.712294 0.701882 0.000000
-16.172373 -15.434203 -0.577317 1355 0.712294 0.701882 0.000000
-16.172871 -15.434675 -0.570462 1351 0.712294 0.701882 0.000000
-16.173155 -15.434947 -0.563599 1357 0.712294 0.701882 0.000000
-16.172638 -15.434460 -0.556714 1357 0.712294 0.701882 0.000000
-16.172552 -15.434381 -0.549845 1359 0.712294 0.701882 0.000000
-16.172623 -15.434443 -0.542974 1353 0.712294 0.701882 0.000000
-16.172314 -15.434149 -0.536097 1353 0.712294 0.701882 0.000000
-16.172535 -15.434370 -0.529234 1361 0.712294 0.701882 0.000000
-16.173027 -15.434834 -0.522380 1359 0.712294 0.701882 0.000000
-16.172876 -15.434692 -0.515501 1361 0.712294 0.701882 0.000000
-16.172565 -15.434398 -0.508624 1355 0.712294 0.701882 0.000000
-16.172779 -15.434613 -0.501761 1353 0.712294 0.701882 0.000000
-16.172731 -15.434566 -0.494892 1347 0.712294 0.701882 0.000000
-16.172626 -15.434462 -0.488022 1331 0.712294 0.701882 0.000000
-16.173317 -15.435126 -0.481176 1345 0.712294 0.701882 0.000000
-16.173475 -15.435270 -0.474314 1351 0.712294 0.701882 0.000000
-16.173483 -15.435281 -0.467444 1353 0.712294 0.701882 0.000000
-16.173475 -15.435279 -0.460574 1347 0.712294 0.701882 0.000000
-16.173094 -15.434915 -0.453697 1339 0.712294 0.701882 0.000000
-16.173515 -15.435321 -0.446833 1341 0.712294 0.701882 0.000000
-16.174091 -15.435868 -0.439987 1347 0.712294 0.701882 0.000000
-16.174187 -15.435963 -0.433116 1349 0.712294 0.701882 0.000000
-16.173536 -15.435340 -0.426232 1367 0.712294 0.701882 0.000000
-16.173052 -15.434879 -0.419347 1361 0.712294 0.701882 0.000000
-16.173092 -15.434916 -0.412486 1363 0.712294 0.701882 0.000000
-16.173235 -15.435061 -0.405615 1359 0.712294 0.701882 0.000000
-16.174217 -15.436000 -0.398775 1361 0.712294 0.701882 0.000000
-16.174044 -15.435838 -0.391907 1355 0.712294 0.701882 0.000000
-16.173655 -15.435465 -0.385030 1349 0.712294 0.701882 0.000000
-16.173304 -15.435139 -0.378153 1347 0.712294 0.701882 0.000000
-16.172977 -15.434815 -0.371276 1341 0.712294 0.701882 0.000000
-16.173256 -15.435097 -0.364413 1339 0.712294 0.701882 0.000000
-16.174088 -15.435886 -0.357565 1347 0.712294 0.701882 0.000000
-16.174103 -15.435904 -0.350695 1341 0.712294 0.701882 0.000000
-16.174025 -15.435833 -0.343826 1359 0.712294 0.701882 0.000000
-16.173840 -15.435651 -0.336957 1353 0.712294 0.701882 0.000000
-16.173807 -15.435616 -0.330087 1347 0.712294 0.701882 0.000000
-16.173611 -15.435437 -0.323219 1347 0.712294 0.701882 0.000000
-16.173578 -15.435403 -0.316349 1353 0.712294 0.701882 0.000000
-16.173855 -15.435670 -0.309486 1353 0.712294 0.701882 0.000000
-16.174187 -15.435995 -0.302623 1357 0.712294 0.701882 0.000000
-16.174463 -15.436260 -0.295760 1371 0.712294 0.701882 0.000000
-16.174212 -15.436023 -0.288892 1359 0.712294 0.701882 0.000000
-16.173473 -15.435319 -0.282009 1351 0.712294 0.701882 0.000000
-16.177492 -15.429262 -0.666639 1365 0.712294 0.701882 0.000000
-16.177269 -15.429049 -0.659761 1361 0.712294 0.701882 0.000000
-16.177412 -15.429194 -0.652900 1353 0.712294 0.701882 0.000000
-16.177658 -15.429422 -0.646037 1361 0.712294 0.701882 0.000000
-16.177753 -15.429516 -0.639166 1361 0.712294 0.701882 0.000000
-16.178267 -15.429999 -0.632321 1367 0.712294 0.701882 0.000000
-16.178131 -15.429884 -0.625442 1371 0.712294 0.701882 0.000000
-16.177910 -15.429671 -0.618564 1369 0.712294 0.701882 0.000000
-16.177664 -15.429440 -0.611676 1375 0.712294 0.701882 0.000000
-16.177647 -15.429418 -0.604806 1373 0.712294 0.701882 0.000000
-16.177568 -15.429347 -0.597937 1351 0.712294 0.701882 0.000000
-16.177280 -15.429070 -0.591060 1351 0.712294 0.701882 0.000000
-16.177986 -15.429745 -0.584213 1359 0.712294 0.701882 0.000000
-16.177639 -15.429418 -0.577326 1361 0.712294 0.701882 0.000000
-16.177238 -15.429038 -0.570439 1357 0.712294 0.701882 0.000000
-16.177675 -15.429459 -0.563595 1359 0.712294 0.701882 0.000000
-16.177168 -15.428978 -0.556700 1353 0.712294 0.701882 0.000000
-16.177502 -15.429290 -0.549846 1353 0.712294 0.701882 0.000000
-16.177309 -15.429114 -0.542968 1343 0.712294 0.701882 0.000000
-16.177319 -15.429127 -0.536098 1347 0.712294 0.701882 0.000000
-16.178022 -15.429788 -0.529251 1349 0.712294 0.701882 0.000000
-16.178284 -15.430042 -0.522388 1355 0.712294 0.701882 0.000000
-16.178087 -15.429862 -0.515520 1363 0.712294 0.701882 0.000000
-16.178198 -15.429970 -0.508649 1365 0.712294 0.701882 0.000000
-16.177950 -15.429725 -0.501771 1353 0.712294 0.701882 0.000000
-16.178101 -15.429876 -0.494909 1359 0.712294 0.701882 0.000000
-16.178106 -15.429887 -0.488039 1359 0.712294 0.701882 0.000000
-16.178011 -15.429790 -0.481170 1369 0.712294 0.701882 0.000000
-16.178217 -15.429985 -0.474308 1349 0.712294 0.701882 0.000000
-16.178377 -15.430144 -0.467446 1349 0.712294 0.701882 0.000000
-16.178209 -15.429989 -0.460567 1349 0.712294 0.701882 0.000000
-16.178312 -15.430090 -0.453706 1343 0.712294 0.701882 0.000000
-16.178049 -15.429832 -0.446829 1345 0.712294 0.701882 0.000000
-16.177715 -15.429517 -0.439952 1347 0.712294 0.701882 0.000000
-16.177492 -15.429304 -0.433074 1351 0.712294 0.701882 0.000000
-16.177803 -15.429610 -0.426221 1361 0.712294 0.701882 0.000000
-16.178366 -15.430146 -0.419365 1355 0.712294 0.701882 0.000000
-16.178040 -15.429837 -0.412488 1349 0.712294 0.701882 0.000000
-16.178555 -15.430319 -0.405633 1355 0.712294 0.701882 0.000000
-16.178698 -15.430465 -0.398771 1355 0.712294 0.701882 0.000000
-16.177937 -15.429743 -0.391878 1359 0.712294 0.701882 0.000000
-16.178761 -15.430526 -0.385030 1369 0.712294 0.701882 0.000000
-16.178999 -15.430761 -0.378168 1359 0.712294 0.701882 0.000000
-16.178608 -15.430388 -0.371291 1361 0.712294 0.701882 0.000000
-16.178211 -15.430011 -0.364415 1363 0.712294 0.701882 0.000000
-16.178455 -15.430238 -0.357553 1373 0.712294 0.701882 0.000000
-16.178583 -15.430370 -0.350691 1369 0.712294 0.701882 0.000000
-16.178442 -15.430235 -0.343822 1355 0.712294 0.701882 0.000000
-16.178576 -15.430360 -0.336951 1349 0.712294 0.701882 0.000000
-16.178440 -15.430231 -0.330082 1343 0.712294 0.701882 0.000000
-16.179304 -15.431060 -0.323234 1365 0.712294 0.701882 0.000000
-16.178534 -15.430315 -0.316351 1349 0.712294 0.701882 0.000000
-16.178017 -15.429829 -0.309476 1363 0.712294 0.701882 0.000000
-16.179255 -15.431010 -0.302634 1347 0.712294 0.701882 0.000000
-16.179365 -15.431117 -0.295762 1353 0.712294 0.701882 0.000000
-16.178579 -15.430374 -0.288890 1347 0.712294 0.701882 0.000000
-16.178278 -15.430084 -0.282012 1351 0.712294 0.701882 0.000000
-16.183474 -15.424784 -0.666683 1363 0.712294 0.701882 0.000000
-16.183197 -15.424526 -0.659796 1371 0.712294 0.701882 0.000000
-16.182451 -15.423815 -0.652893 1351 0.712294 0.701882 0.000000
-16.182531 -15.423897 -0.646032 1367 0.712294 0.701882 0.000000
-16.182673 -15.424027 -0.639160 1359 0.712294 0.701882 0.000000
-16.182718 -15.424071 -0.632290 1365 0.712294 0.701882 0.000000
-16.182425 -15.423802 -0.625412 1361 0.712294 0.701882 0.000000
-16.183304 -15.424629 -0.618574 1369 0.712294 0.701882 0.000000
-16.183390 -15.424717 -0.611703 1363 0.712294 0.701882 0.000000
-16.183098 -15.424449 -0.604825 1361 0.712294 0.701882 0.000000
-16.182756 -15.424113 -0.597938 1349 0.712294 0.701882 0.000000
-16.182526 -15.423895 -0.591060 1369 0.712294 0.701882 0.000000
-16.182106 -15.423497 -0.584174 1359 0.712294 0.701882 0.000000
-16.182352 -15.423738 -0.577322 1363 0.712294 0.701882 0.000000
-16.182747 -15.424114 -0.570458 1355 0.712294 0.701882 0.000000
-16.182491 -15.423875 -0.563580 1347 0.712294 0.701882 0.000000
-16.181881 -15.423285 -0.556696 1343 0.712294 0.701882 0.000000
-16.182165 -15.423557 -0.549833 1347 0.712294 0.701882 0.000000
-16.182444 -15.423824 -0.542970 1357 0.712294 0.701882 0.000000
-16.182135 -15.423543 -0.536093 1351 0.712294 0.701882 0.000000
-16.182411 -15.423796 -0.529230 1349 0.712294 0.701882 0.000000
-16.182959 -15.424318 -0.522385 1353 0.712294 0.701882 0.000000
-16.183067 -15.424423 -0.515513 1363 0.712294 0.701882 0.000000
-16.182863 -15.424239 -0.508645 1363 0.712294 0.701882 0.000000
-16.183186 -15.424543 -0.501782 1359 0.712294 0.701882 0.000000
-16.183407 -15.424751 -0.494920 1357 0.712294 0.701882 0.000000
-16.183615 -15.424962 -0.488057 1351 0.712294 0.701882 0.000000
-16.183828 -15.425165 -0.481195 1351 0.712294 0.701882 0.000000
-16.183573 -15.424912 -0.474318 1349 0.712294 0.701882 0.000000
-16.183512 -15.424868 -0.467448 1365 0.712294 0.701882 0.000000
-16.183977 -15.425312 -0.460593 1363 0.712294 0.701882 0.000000
-16.183819 -15.425164 -0.453715 1359 0.712294 0.701882 0.000000
-16.182644 -15.424045 -0.446816 1343 0.712294 0.701882 0.000000
-16.182381 -15.423786 -0.439938 1345 0.712294 0.701882 0.000000
-16.183475 -15.424839 -0.433107 1353 0.712294 0.701882 0.000000
-16.183998 -15.425329 -0.426252 1361 0.712294 0.701882 0.000000
-16.183762 -15.425117 -0.419374 1351 0.712294 0.701882 0.000000
-16.183760 -15.425108 -0.412504 1357 0.712294 0.701882 0.000000
-16.183790 -15.425138 -0.405634 1355 0.712294 0.701882 0.000000
-16.183619 -15.424977 -0.398765 1351 0.712294 0.701882 0.000000
-16.183657 -15.425014 -0.391895 1357 0.712294 0.701882 0.000000
-16.183744 -15.425102 -0.385034 1353 0.712294 0.701882 0.000000
-16.183447 -15.424818 -0.378156 1355 0.712294 0.701882 0.000000
-16.183115 -15.424503 -0.371279 1365 0.712294 0.701882 0.000000
-16.183193 -15.424585 -0.364418 1359 0.712294 0.701882 0.000000
-16.183535 -15.424903 -0.357555 1363 0.712294 0.701882 0.000000
-16.183296 -15.424678 -0.350687 1347 0.712294 0.701882 0.000000
-16.183369 -15.424753 -0.343816 1355 0.712294 0.701882 0.000000
-16.184145 -15.425487 -0.336969 1351 0.712294 0.701882 0.000000
-16.184526 -15.425862 -0.330105 1347 0.712294 0.701882 0.000000
-16.183542 -15.424920 -0.323224 1345 0.712294 0.701882 0.000000
-16.183613 -15.424981 -0.316353 1359 0.712294 0.701882 0.000000
-16.183523 -15.424903 -0.309484 1357 0.712294 0.701882 0.000000
-16.183699 -15.425076 -0.302622 1357 0.712294 0.701882 0.000000
-16.184021 -15.425379 -0.295759 1351 0.712294 0.701882 0.000000
-16.184196 -15.425550 -0.288897 1347 0.712294 0.701882 0.000000
-16.183935 -15.425305 -0.282029 1345 0.712294 0.701882 0.000000
-16.187656 -15.419332 -0.666660 1365 0.712294 0.701882 0.000000
-16.187433 -15.419118 -0.659782 1367 0.712294 0.701882 0.000000
-16.186689 -15.418407 -0.652879 1371 0.712294 0.701882 0.000000
-16.186825 -15.418546 -0.646018 1357 0.712294 0.701882 0.000000
-16.187126 -15.418833 -0.639155 1353 0.712294 0.701882 0.000000
-16.186686 -15.418407 -0.632269 1363 0.712294 0.701882 0.000000
-16.186663 -15.418394 -0.625399 1359 0.712294 0.701882 0.000000
-16.187439 -15.419126 -0.618551 1357 0.712294 0.701882 0.000000
-16.188217 -15.419872 -0.611714 1365 0.712294 0.701882 0.000000
-16.187868 -15.419546 -0.604827 1361 0.712294 0.701882 0.000000
-16.186836 -15.418567 -0.597916 1361 0.712294 0.701882 0.000000
-16.187391 -15.419095 -0.591071 1361 0.712294 0.701882 0.000000
-16.187414 -15.419118 -0.584201 1363 0.712294 0.701882 0.000000
-16.186749 -15.418484 -0.577307 1365 0.712294 0.701882 0.000000
-16.186714 -15.418449 -0.570437 1349 0.712294 0.701882 0.000000
-16.186737 -15.418474 -0.563567 1349 0.712294 0.701882 0.000000
-16.187174 -15.418894 -0.556712 1347 0.712294 0.701882 0.000000
-16.187880 -15.419570 -0.549865 1363 0.712294 0.701882 0.000000
-16.188061 -15.419734 -0.543004 1367 0.712294 0.701882 0.000000
-16.187918 -15.419598 -0.536135 1347 0.712294 0.701882 0.000000
-16.187498 -15.419199 -0.529249 1341 0.712294 0.701882 0.000000
-16.188093 -15.419774 -0.522393 1363 0.712294 0.701882 0.000000
-16.188583 -15.420238 -0.515548 1361 0.712294 0.701882 0.000000
-16.187529 -15.419240 -0.508638 1359 0.712294 0.701882 0.000000
-16.186846 -15.418592 -0.501754 1359 0.712294 0.701882 0.000000
-16.186798 -15.418547 -0.494884 1357 0.712294 0.701882 0.000000
-16.186790 -15.418545 -0.488014 1357 0.712294 0.701882 0.000000
-16.187012 -15.418753 -0.481152 1345 0.712294 0.701882 0.000000
-16.187534 -15.419257 -0.474297 1357 0.712294 0.701882 0.000000
-16.187748 -15.419459 -0.467435 1355 0.712294 0.701882 0.000000
-16.188168 -15.419852 -0.460581 1349 0.712294 0.701882 0.000000
-16.188478 -15.420159 -0.453717 1361 0.712294 0.701882 0.000000
-16.188105 -15.419800 -0.446841 1343 0.712294 0.701882 0.000000
-16.188040 -15.419741 -0.439971 1351 0.712294 0.701882 0.000000
-16.188196 -15.419885 -0.433110 1367 0.712294 0.701882 0.000000
-16.187969 -15.419680 -0.426231 1359 0.712294 0.701882 0.000000
-16.188387 -15.420074 -0.419377 1357 0.712294 0.701882 0.000000
-16.188530 -15.420206 -0.412506 1361 0.712294 0.701882 0.000000
-16.187975 -15.419686 -0.405631 1355 0.712294 0.701882 0.000000
-16.188063 -15.419774 -0.398760 1361 0.712294 0.701882 0.000000
-16.187895 -15.419607 -0.391891 1349 0.712294 0.701882 0.000000
-16.188402 -15.420097 -0.385036 1349 0.712294 0.701882 0.000000
-16.188480 -15.420178 -0.378165 1357 0.712294 0.701882 0.000000
-16.187883 -15.419600 -0.371291 1355 0.712294 0.701882 0.000000
-16.187845 -15.419575 -0.364421 1343 0.712294 0.701882 0.000000
-16.188408 -15.420110 -0.357566 1355 0.712294 0.701882 0.000000
-16.189121 -15.420792 -0.350709 1359 0.712294 0.701882 0.000000
-16.189152 -15.420821 -0.343848 1347 0.712294 0.701882 0.000000
-16.188858 -15.420538 -0.336971 1361 0.712294 0.701882 0.000000
-16.188826 -15.420504 -0.330101 1361 0.712294 0.701882 0.000000
-16.188730 -15.420419 -0.323232 1357 0.712294 0.701882 0.000000
-16.188486 -15.420187 -0.316364 1361 0.712294 0.701882 0.000000
-16.187977 -15.419707 -0.309489 1363 0.712294 0.701882 0.000000
-16.188143 -15.419872 -0.302617 1351 0.712294 0.701882 0.000000
-16.188848 -15.420534 -0.295770 1355 0.712294 0.701882 0.000000
-16.188911 -15.420603 -0.288899 1361 0.712294 0.701882 0.000000
-16.188650 -15.420359 -0.282031 1353 0.712294 0.701882 0.000000
-16.191139 -15.413776 -0.666621 1365 0.712294 0.701882 0.000000
-16.191759 -15.414371 -0.659775 1367 0.712294 0.701882 0.000000
-16.191805 -15.414412 -0.652905 1365 0.712294 0.701882 0.000000
-16.191837 -15.414443 -0.646044 1363 0.712294 0.701882 0.000000
-16.191883 -15.414484 -0.639174 1369 0.712294 0.701882 0.000000
-16.192287 -15.414866 -0.632320 1367 0.712294 0.701882 0.000000
-16.192898 -15.415453 -0.625464 1355 0.712294 0.701882 0.000000
-16.192499 -15.415073 -0.618577 1363 0.712294 0.701882 0.000000
-16.191896 -15.414503 -0.611683 1357 0.712294 0.701882 0.000000
-16.192198 -15.414790 -0.604830 1373 0.712294 0.701882 0.000000
-16.191952 -15.414558 -0.597952 1359 0.712294 0.701882 0.000000
-16.190969 -15.413630 -0.591041 1347 0.712294 0.701882 0.000000
-16.191055 -15.413705 -0.584180 1349 0.712294 0.701882 0.000000
-16.192560 -15.415140 -0.577356 1355 0.712294 0.701882 0.000000
-16.192585 -15.415164 -0.570485 1361 0.712294 0.701882 0.000000
-16.192440 -15.415029 -0.563617 1357 0.712294 0.701882 0.000000
-16.192305 -15.414898 -0.556738 1361 0.712294 0.701882 0.000000
-16.191521 -15.414155 -0.549845 1357 0.712294 0.701882 0.000000
-16.192438 -15.415030 -0.543006 1361 0.712294 0.701882 0.000000
-16.192717 -15.415297 -0.536143 1353 0.712294 0.701882 0.000000
-16.191780 -15.414406 -0.529242 1353 0.712294 0.701882 0.000000
-16.192472 -15.415070 -0.522395 1365 0.712294 0.701882 0.000000
-16.192802 -15.415380 -0.515542 1353 0.712294 0.701882 0.000000
-16.192011 -15.414632 -0.508649 1359 0.712294 0.701882 0.000000
-16.191278 -15.413933 -0.501756 1355 0.712294 0.701882 0.000000
-16.191597 -15.414245 -0.494893 1353 0.712294 0.701882 0.000000
-16.192499 -15.415104 -0.488054 1359 0.712294 0.701882 0.000000
-16.192497 -15.415096 -0.481184 1369 0.712294 0.701882 0.000000
-16.191914 -15.414553 -0.474299 1365 0.712294 0.701882 0.000000
-16.192181 -15.414799 -0.467437 1357 0.712294 0.701882 0.000000
-16.192595 -15.415200 -0.460583 1359 0.712294 0.701882 0.000000
-16.192070 -15.414693 -0.453697 1351 0.712294 0.701882 0.000000
-16.192276 -15.414890 -0.446835 1357 0.712294 0.701882 0.000000
-16.192480 -15.415086 -0.439973 1353 0.712294 0.701882 0.000000
-16.192101 -15.414733 -0.433097 1349 0.712294 0.701882 0.000000
-16.192133 -15.414763 -0.426226 1357 0.712294 0.701882 0.000000
-16.192917 -15.415516 -0.419379 1357 0.712294 0.701882 0.000000
-16.192488 -15.415098 -0.412502 1359 0.712294 0.701882 0.000000
-16.192520 -15.415142 -0.405632 1355 0.712294 0.701882 0.000000
-16.192503 -15.415121 -0.398762 1361 0.712294 0.701882 0.000000
-16.191528 -15.414199 -0.391871 1345 0.712294 0.701882 0.000000
-16.192249 -15.414887 -0.385024 1341 0.712294 0.701882 0.000000
-16.192343 -15.414968 -0.378153 1349 0.712294 0.701882 0.000000
-16.192152 -15.414795 -0.371285 1347 0.712294 0.701882 0.000000
-16.192444 -15.415073 -0.364422 1339 0.712294 0.701882 0.000000
-16.192476 -15.415105 -0.357561 1335 0.712294 0.701882 0.000000
-16.192818 -15.415435 -0.350698 1351 0.712294 0.701882 0.000000
-16.192944 -15.415555 -0.343836 1351 0.712294 0.701882 0.000000
-16.193022 -15.415623 -0.336966 1361 0.712294 0.701882 0.000000
-16.193413 -15.416005 -0.330112 1353 0.712294 0.701882 0.000000
-16.193600 -15.416175 -0.323240 1353 0.712294 0.701882 0.000000
-16.193348 -15.415936 -0.316372 1347 0.712294 0.701882 0.000000
-16.193258 -15.415859 -0.309503 1351 0.712294 0.701882 0.000000
-16.193108 -15.415717 -0.302634 1359 0.712294 0.701882 0.000000
-16.192862 -15.415485 -0.295756 1349 0.712294 0.701882 0.000000
-16.192759 -15.415395 -0.288887 1359 0.712294 0.701882 0.000000
-16.192608 -15.415252 -0.282018 1349 0.712294 0.701882 0.000000
-16.196695 -15.409636 -0.666666 1367 0.712294 0.701882 0.000000
-16.195992 -15.408971 -0.659762 1359 0.712294 0.701882 0.000000
-16.196140 -15.409109 -0.652901 1377 0.712294 0.701882 0.000000
-16.196980 -15.409904 -0.646062 1373 0.712294 0.701882 0.000000
-16.197168 -15.410089 -0.639190 1361 0.712294 0.701882 0.000000
-16.197311 -15.410220 -0.632329 1361 0.712294 0.701882 0.000000
-16.196598 -15.409549 -0.625436 1353 0.712294 0.701882 0.000000
-16.195890 -15.408882 -0.618532 1339 0.712294 0.701882 0.000000
-16.196344 -15.409316 -0.611678 1361 0.712294 0.701882 0.000000
-16.196581 -15.409537 -0.604815 1365 0.712294 0.701882 0.000000
-16.196295 -15.409260 -0.597938 1361 0.712294 0.701882 0.000000
-16.196636 -15.409591 -0.591084 1367 0.712294 0.701882 0.000000
-16.196556 -15.409518 -0.584205 1349 0.712294 0.701882 0.000000
-16.196943 -15.409886 -0.577351 1341 0.712294 0.701882 0.000000
-16.197498 -15.410417 -0.570496 1359 0.712294 0.701882 0.000000
-16.196783 -15.409730 -0.563602 1345 0.712294 0.701882 0.000000
-16.196848 -15.409800 -0.556741 1337 0.712294 0.701882 0.000000
-16.197449 -15.410365 -0.549886 1347 0.712294 0.701882 0.000000
-16.197464 -15.410383 -0.543015 1361 0.712294 0.701882 0.000000
-16.197529 -15.410453 -0.536155 1353 0.712294 0.701882 0.000000
-16.197805 -15.410719 -0.529292 1367 0.712294 0.701882 0.000000
-16.197655 -15.410576 -0.522413 1361 0.712294 0.701882 0.000000
-16.197344 -15.410281 -0.515536 1355 0.712294 0.701882 0.000000
-16.196884 -15.409839 -0.508650 1353 0.712294 0.701882 0.000000
-16.197201 -15.410151 -0.501797 1365 0.712294 0.701882 0.000000
-16.197842 -15.410761 -0.494941 1375 0.712294 0.701882 0.000000
-16.198008 -15.410913 -0.488079 1361 0.712294 0.701882 0.000000
-16.197475 -15.410413 -0.481194 1361 0.712294 0.701882 0.000000
-16.197153 -15.410105 -0.474317 1365 0.712294 0.701882 0.000000
-16.197475 -15.410408 -0.467453 1369 0.712294 0.701882 0.000000
-16.197357 -15.410305 -0.460584 1355 0.712294 0.701882 0.000000
-16.197041 -15.410004 -0.453707 1343 0.712294 0.701882 0.000000
-16.197039 -15.409994 -0.446837 1335 0.712294 0.701882 0.000000
-16.197180 -15.410140 -0.439975 1351 0.712294 0.701882 0.000000
-16.197868 -15.410789 -0.433119 1371 0.712294 0.701882 0.000000
-16.197433 -15.410378 -0.426243 1351 0.712294 0.701882 0.000000
-16.197210 -15.410167 -0.419375 1351 0.712294 0.701882 0.000000
-16.197781 -15.410707 -0.412519 1349 0.712294 0.701882 0.000000
-16.198240 -15.411146 -0.405655 1351 0.712294 0.701882 0.000000
-16.197956 -15.410884 -0.398787 1343 0.712294 0.701882 0.000000
-16.197670 -15.410607 -0.391910 1343 0.712294 0.701882 0.000000
-16.198067 -15.410995 -0.385056 1339 0.712294 0.701882 0.000000
-16.197525 -15.410476 -0.378171 1335 0.712294 0.701882 0.000000
-16.197390 -15.410346 -0.371302 1351 0.712294 0.701882 0.000000
-16.197414 -15.410371 -0.364431 1351 0.712294 0.701882 0.000000
-16.197550 -15.410510 -0.357570 1347 0.712294 0.701882 0.000000
-16.198477 -15.411389 -0.350721 1363 0.712294 0.701882 0.000000
-16.198231 -15.411158 -0.343843 1361 0.712294 0.701882 0.000000
-16.197842 -15.410786 -0.336967 1361 0.712294 0.701882 0.000000
-16.198017 -15.410956 -0.330105 1365 0.712294 0.701882 0.000000
-16.197714 -15.410666 -0.323238 1343 0.712294 0.701882 0.000000
-16.197420 -15.410383 -0.316360 1349 0.712294 0.701882 0.000000
-16.198069 -15.411001 -0.309504 1365 0.712294 0.701882 0.000000
-16.198662 -15.411575 -0.302648 1347 0.712294 0.701882 0.000000
-16.198147 -15.411088 -0.295773 1343 0.712294 0.701882 0.000000
-16.197527 -15.410491 -0.288898 1343 0.712294 0.701882 0.000000
-16.197584 -15.410553 -0.282028 1349 0.712294 0.701882 0.000000
-16.201693 -15.404595 -0.666667 1355 0.712294 0.701882 0.000000
-16.201097 -15.404031 -0.659772 1363 0.712294 0.701882 0.000000
-16.201880 -15.404769 -0.652935 1369 0.712294 0.701882 0.000000
-16.202499 -15.405361 -0.646089 1363 0.712294 0.701882 0.000000
-16.202269 -15.405144 -0.639211 1353 0.712294 0.701882 0.000000
-16.201880 -15.404771 -0.632324 1359 0.712294 0.701882 0.000000
-16.201862 -15.404762 -0.625444 1359 0.712294 0.701882 0.000000
-16.201942 -15.404844 -0.618583 1351 0.712294 0.701882 0.000000
-16.202139 -15.405020 -0.611711 1347 0.712294 0.701882 0.000000
-16.202377 -15.405256 -0.604859 1349 0.712294 0.701882 0.000000
-16.202242 -15.405127 -0.597980 1355 0.712294 0.701882 0.000000
-16.202433 -15.405310 -0.591118 1359 0.712294 0.701882 0.000000
-16.202297 -15.405180 -0.584239 1371 0.712294 0.701882 0.000000
-16.201527 -15.404449 -0.577346 1361 0.712294 0.701882 0.000000
-16.202122 -15.405024 -0.570490 1351 0.712294 0.701882 0.000000
-16.202940 -15.405802 -0.563653 1377 0.712294 0.701882 0.000000
-16.202272 -15.405168 -0.556759 1361 0.712294 0.701882 0.000000
-16.202120 -15.405025 -0.549880 1355 0.712294 0.701882 0.000000
-16.202198 -15.405092 -0.543019 1355 0.712294 0.701882 0.000000
-16.201994 -15.404906 -0.536141 1363 0.712294 0.701882 0.000000
-16.202168 -15.405064 -0.529279 1357 0.712294 0.701882 0.000000
-16.202555 -15.405432 -0.522415 1363 0.712294 0.701882 0.000000
-16.202349 -15.405246 -0.515537 1359 0.712294 0.701882 0.000000
-16.202459 -15.405353 -0.508676 1361 0.712294 0.701882 0.000000
-16.202568 -15.405460 -0.501814 1355 0.712294 0.701882 0.000000
-16.202410 -15.405312 -0.494936 1369 0.712294 0.701882 0.000000
-16.202948 -15.405814 -0.488081 1353 0.712294 0.701882 0.000000
-16.203217 -15.406074 -0.481218 1359 0.712294 0.701882 0.000000
-16.202209 -15.405113 -0.474327 1359 0.712294 0.701882 0.000000
-16.201887 -15.404819 -0.467440 1361 0.712294 0.701882 0.000000
-16.202312 -15.405218 -0.460586 1353 0.712294 0.701882 0.000000
-16.202511 -15.405409 -0.453724 1363 0.712294 0.701882 0.000000
-16.202084 -15.405005 -0.446848 1351 0.712294 0.701882 0.000000
-16.202177 -15.405099 -0.439977 1357 0.712294 0.701882 0.000000
-16.201700 -15.404643 -0.433101 1357 0.712294 0.701882 0.000000
-16.201849 -15.404780 -0.426230 1355 0.712294 0.701882 0.000000
-16.201889 -15.404819 -0.419369 1343 0.712294 0.701882 0.000000
-16.202034 -15.404964 -0.412497 1353 0.712294 0.701882 0.000000
-16.202602 -15.405505 -0.405652 1351 0.712294 0.701882 0.000000
-16.202532 -15.405439 -0.398782 1363 0.712294 0.701882 0.000000
-16.201818 -15.404768 -0.391889 1351 0.712294 0.701882 0.000000
-16.202223 -15.405149 -0.385035 1359 0.712294 0.701882 0.000000
-16.202410 -15.405332 -0.378173 1347 0.712294 0.701882 0.000000
-16.202021 -15.404959 -0.371297 1335 0.712294 0.701882 0.000000
-16.202314 -15.405239 -0.364434 1345 0.712294 0.701882 0.000000
-16.203188 -15.406075 -0.357585 1355 0.712294 0.701882 0.000000
-16.202791 -15.405696 -0.350709 1351 0.712294 0.701882 0.000000
-16.202654 -15.405565 -0.343840 1347 0.712294 0.701882 0.000000
-16.203581 -15.406446 -0.336991 1365 0.712294 0.701882 0.000000
-16.203653 -15.406522 -0.330120 1355 0.712294 0.701882 0.000000
-16.203400 -15.406283 -0.323252 1353 0.712294 0.701882 0.000000
-16.202946 -15.405846 -0.316376 1353 0.712294 0.701882 0.000000
-16.202961 -15.405865 -0.309506 1351 0.712294 0.701882 0.000000
-16.202446 -15.405377 -0.302631 1357 0.712294 0.701882 0.000000
-16.202461 -15.405395 -0.295761 1357 0.712294 0.701882 0.000000
-16.203373 -15.406260 -0.288912 1359 0.712294 0.701882 0.000000
-16.203903 -15.406771 -0.282057 1371 0.712294 0.701882 0.000000
-16.207321 -15.400154 -0.666702 1365 0.712294 0.701882 0.000000
-16.207211 -15.400043 -0.659823 1367 0.712294 0.701882 0.000000
-16.206663 -15.399530 -0.652928 1347 0.712294 0.701882 0.000000
-16.206757 -15.399611 -0.646067 1351 0.712294 0.701882 0.000000
-16.207216 -15.400050 -0.639213 1341 0.712294 0.701882 0.000000
-16.207455 -15.400286 -0.632350 1355 0.712294 0.701882 0.000000
-16.207073 -15.399919 -0.625464 1355 0.712294 0.701882 0.000000
-16.206682 -15.399546 -0.618577 1369 0.712294 0.701882 0.000000
-16.207182 -15.400030 -0.611722 1363 0.712294 0.701882 0.000000
-16.207371 -15.400200 -0.604860 1365 0.712294 0.701882 0.000000
-16.206554 -15.399432 -0.597958 1359 0.712294 0.701882 0.000000
-16.206690 -15.399558 -0.591096 1369 0.712294 0.701882 0.000000
-16.206919 -15.399774 -0.584234 1355 0.712294 0.701882 0.000000
-16.206785 -15.399657 -0.577355 1349 0.712294 0.701882 0.000000
-16.206911 -15.399777 -0.570494 1347 0.712294 0.701882 0.000000
-16.207298 -15.400146 -0.563630 1351 0.712294 0.701882 0.000000
-16.206884 -15.399754 -0.556754 1359 0.712294 0.701882 0.000000
-16.207233 -15.400077 -0.549890 1353 0.712294 0.701882 0.000000
-16.207565 -15.400402 -0.543037 1353 0.712294 0.701882 0.000000
-16.207844 -15.400669 -0.536174 1369 0.712294 0.701882 0.000000
-16.208065 -15.400877 -0.529312 1359 0.712294 0.701882 0.000000
-16.207392 -15.400237 -0.522418 1355 0.712294 0.701882 0.000000
-16.206654 -15.399531 -0.515525 1349 0.712294 0.701882 0.000000
-16.206234 -15.399149 -0.508639 1359 0.712294 0.701882 0.000000
-16.206936 -15.399810 -0.501792 1367 0.712294 0.701882 0.000000
-16.207350 -15.400211 -0.494938 1365 0.712294 0.701882 0.000000
-16.207310 -15.400170 -0.488068 1355 0.712294 0.701882 0.000000
-16.207315 -15.400168 -0.481198 1357 0.712294 0.701882 0.000000
-16.207951 -15.400774 -0.474352 1361 0.712294 0.701882 0.000000
-16.207895 -15.400721 -0.467482 1361 0.712294 0.701882 0.000000
-16.207142 -15.400017 -0.460589 1363 0.712294 0.701882 0.000000
-16.207466 -15.400322 -0.453726 1369 0.712294 0.701882 0.000000
-16.207451 -15.400314 -0.446856 1359 0.712294 0.701882 0.000000
-16.207125 -15.400006 -0.439979 1359 0.712294 0.701882 0.000000
-16.207331 -15.400202 -0.433116 1347 0.712294 0.701882 0.000000
-16.207266 -15.400143 -0.426247 1349 0.712294 0.701882 0.000000
-16.207359 -15.400223 -0.419386 1357 0.712294 0.701882 0.000000
-16.207821 -15.400662 -0.412531 1365 0.712294 0.701882 0.000000
-16.207495 -15.400353 -0.405654 1351 0.712294 0.701882 0.000000
-16.207312 -15.400187 -0.398776 1349 0.712294 0.701882 0.000000
-16.208145 -15.400977 -0.391928 1353 0.712294 0.701882 0.000000
-16.207914 -15.400759 -0.385060 1349 0.712294 0.701882 0.000000
-16.207623 -15.400488 -0.378182 1343 0.712294 0.701882 0.000000
-16.208340 -15.401163 -0.371335 1349 0.712294 0.701882 0.000000
-16.208157 -15.400995 -0.364457 1353 0.712294 0.701882 0.000000
-16.207706 -15.400573 -0.357581 1361 0.712294 0.701882 0.000000
-16.207357 -15.400246 -0.350704 1353 0.712294 0.701882 0.000000
-16.207493 -15.400372 -0.343843 1351 0.712294 0.701882 0.000000
-16.208038 -15.400894 -0.336987 1357 0.712294 0.701882 0.000000
-16.208387 -15.401217 -0.330124 1349 0.712294 0.701882 0.000000
-16.208458 -15.401292 -0.323253 1351 0.712294 0.701882 0.000000
-16.208157 -15.401002 -0.316386 1365 0.712294 0.701882 0.000000
-16.207592 -15.400464 -0.309501 1355 0.712294 0.701882 0.000000
-16.207228 -15.400126 -0.302634 1349 0.712294 0.701882 0.000000
-16.207829 -15.400691 -0.295778 1355 0.712294 0.701882 0.000000
-16.209167 -15.401966 -0.288936 1347 0.712294 0.701882 0.000000
-16.208431 -15.401276 -0.282052 1341 0.712294 0.701882 0.000000
