320
-21.992079 -20.936121 -0.636509 1403 0.746707 0.665153 0.000000
-21.991419 -20.935499 -0.627165 1399 0.746707 0.665153 0.000000
-21.990496 -20.934618 -0.617804 1401 0.746707 0.665153 0.000000
-21.990469 -20.934595 -0.608483 1391 0.746707 0.665153 0.000000
-21.991558 -20.935631 -0.599183 1393 0.746707 0.665153 0.000000
-21.991415 -20.935503 -0.589854 1395 0.746707 0.665153 0.000000
-21.991608 -20.935686 -0.580522 1401 0.746707 0.665153 0.000000
-21.991779 -20.935852 -0.571200 1407 0.746707 0.665153 0.000000
-21.989843 -20.934010 -0.561828 1409 0.746707 0.665153 0.000000
-21.989229 -20.933426 -0.552484 1405 0.746707 0.665153 0.000000
-21.990938 -20.935049 -0.543198 1411 0.746707 0.665153 0.000000
-21.991537 -20.935623 -0.533882 1409 0.746707 0.665153 0.000000
-21.990599 -20.934727 -0.524540 1413 0.746707 0.665153 0.000000
-21.991335 -20.935436 -0.515223 1409 0.746707 0.665153 0.000000
-21.991505 -20.935587 -0.505901 1415 0.746707 0.665153 0.000000
-21.990780 -20.934902 -0.496558 1411 0.746707 0.665153 0.000000
-21.990515 -20.934652 -0.487230 1415 0.746707 0.665153 0.000000
-21.990242 -20.934395 -0.477892 1403 0.746707 0.665153 0.000000
-21.991730 -20.935814 -0.468598 1399 0.746707 0.665153 0.000000
-21.991892 -20.935961 -0.459277 1399 0.746707 0.665153 0.000000
-21.990868 -20.934994 -0.449926 1409 0.746707 0.665153 0.000000
-21.990967 -20.935089 -0.440605 1409 0.746707 0.665153 0.000000
-21.991701 -20.935785 -0.431298 1411 0.746707 0.665153 0.000000
-21.991579 -20.935673 -0.421969 1411 0.746707 0.665153 0.000000
-21.990776 -20.934912 -0.412626 1407 0.746707 0.665153 0.000000
-21.989918 -20.934092 -0.403284 1399 0.746707 0.665153 0.000000
-21.989794 -20.933969 -0.393955 1395 0.746707 0.665153 0.000000
-21.990149 -20.934309 -0.384641 1389 0.746707 0.665153 0.000000
-21.990059 -20.934237 -0.375312 1393 0.746707 0.665153 0.000000
-21.990618 -20.934767 -0.365996 1387 0.746707 0.665153 0.000000
-21.990225 -20.934387 -0.356660 1411 0.746707 0.665153 0.000000
-21.989035 -20.933262 -0.347321 1403 0.746707 0.665153 0.000000
-21.989635 -20.933836 -0.338005 1401 0.746707 0.665153 0.000000
-21.990614 -20.934771 -0.328695 1395 0.746707 0.665153 0.000000
-21.991323 -20.935444 -0.319379 1397 0.746707 0.665153 0.000000
-21.990805 -20.934952 -0.310043 1397 0.746707 0.665153 0.000000
-21.990137 -20.934309 -0.300709 1399 0.746707 0.665153 0.000000
-21.989929 -20.934118 -0.291381 1405 0.746707 0.665153 0.000000
-21.990217 -20.934393 -0.282068 1407 0.746707 0.665153 0.000000
-21.990854 -20.934998 -0.272742 1397 0.746707 0.665153 0.000000
-21.998713 -20.929138 -0.636513 1405 0.746707 0.665153 0.000000
-21.998377 -20.928818 -0.627176 1401 0.746707 0.665153 0.000000
-21.998253 -20.928694 -0.617847 1393 0.746707 0.665153 0.000000
-21.998703 -20.929136 -0.608522 1389 0.746707 0.665153 0.000000
-21.998201 -20.928654 -0.599187 1391 0.746707 0.665153 0.000000
-21.997705 -20.928179 -0.589841 1387 0.746707 0.665153 0.000000
-21.998138 -20.928593 -0.580527 1397 0.746707 0.665153 0.000000
-21.997904 -20.928370 -0.571189 1395 0.746707 0.665153 0.000000
-21.997648 -20.928125 -0.561861 1395 0.746707 0.665153 0.000000
-21.997410 -20.927908 -0.552523 1373 0.746707 0.665153 0.000000
-21.996567 -20.927101 -0.543181 1377 0.746707 0.665153 0.000000
-21.996691 -20.927227 -0.533850 1377 0.746707 0.665153 0.000000
-21.998087 -20.928549 -0.524556 1385 0.746707 0.665153 0.000000
-21.997618 -20.928108 -0.515220 1387 0.746707 0.665153 0.000000
-21.997789 -20.928270 -0.505899 1389 0.746707 0.665153 0.000000
-21.997580 -20.928066 -0.496570 1395 0.746707 0.665153 0.000000
-21.996729 -20.927267 -0.487218 1399 0.746707 0.665153 0.000000
-21.997263 -20.927776 -0.477913 1387 0.746707 0.665153 0.000000
-21.997208 -20.927717 -0.468583 1393 0.746707 0.665153 0.000000
-21.996893 -20.927416 -0.459246 1391 0.746707 0.665153 0.000000
-21.998047 -20.928514 -0.449945 1391 0.746707 0.665153 0.000000
-21.998463 -20.928915 -0.440631 1393 0.746707 0.665153 0.000000
-21.996449 -20.926996 -0.431259 1407 0.746707 0.665153 0.000000
-21.996479 -20.927034 -0.421939 1401 0.746707 0.665153 0.000000
-21.997726 -20.928225 -0.412637 1397 0.746707 0.665153 0.000000
-21.997459 -20.927958 -0.403299 1403 0.746707 0.665153 0.000000
-21.997015 -20.927549 -0.393973 1393 0.746707 0.665153 0.000000
-21.997053 -20.927582 -0.384643 1393 0.746707 0.665153 0.000000
-21.997238 -20.927757 -0.375321 1383 0.746707 0.665153 0.000000
-21.997116 -20.927635 -0.365992 1383 0.746707 0.665153 0.000000
-21.996979 -20.927513 -0.356673 1385 0.746707 0.665153 0.000000
-21.996634 -20.927185 -0.347336 1393 0.746707 0.665153 0.000000
-21.995974 -20.926552 -0.338002 1399 0.746707 0.665153 0.000000
-21.995874 -20.926458 -0.328672 1389 0.746707 0.665153 0.000000
-21.996689 -20.927246 -0.319364 1405 0.746707 0.665153 0.000000
-21.997232 -20.927763 -0.310049 1389 0.746707 0.665153 0.000000
-21.996675 -20.927223 -0.300714 1387 0.746707 0.665153 0.000000
-21.995571 -20.926182 -0.291374 1383 0.746707 0.665153 0.000000
-21.996542 -20.927109 -0.282065 1385 0.746707 0.665153 0.000000
-21.996702 -20.927252 -0.272743 1377 0.746707 0.665153 0.000000
-22.005371 -20.921919 -0.636518 1401 0.746707 0.665153 0.000000
-22.005249 -20.921795 -0.627179 1389 0.746707 0.665153 0.000000
-22.003527 -20.920164 -0.617805 1399 0.746707 0.665153 0.000000
-22.003038 -20.919695 -0.608459 1405 0.746707 0.665153 0.000000
-22.003336 -20.919975 -0.599146 1399 0.746707 0.665153 0.000000
-22.003937 -20.920551 -0.589830 1391 0.746707 0.665153 0.000000
-22.003641 -20.920275 -0.580493 1385 0.746707 0.665153 0.000000
-22.004087 -20.920702 -0.571178 1393 0.746707 0.665153 0.000000
-22.004108 -20.920719 -0.561858 1411 0.746707 0.665153 0.000000
-22.003067 -20.919727 -0.552498 1381 0.746707 0.665153 0.000000
-22.003248 -20.919899 -0.543176 1391 0.746707 0.665153 0.000000
-22.004423 -20.921017 -0.533884 1393 0.746707 0.665153 0.000000
-22.005014 -20.921585 -0.524569 1393 0.746707 0.665153 0.000000
-22.004227 -20.920835 -0.515226 1385 0.746707 0.665153 0.000000
-22.003490 -20.920137 -0.505883 1395 0.746707 0.665153 0.000000
-22.003075 -20.919741 -0.496546 1393 0.746707 0.665153 0.000000
-22.003710 -20.920345 -0.487230 1391 0.746707 0.665153 0.000000
-22.003605 -20.920248 -0.477901 1385 0.746707 0.665153 0.000000
-22.003342 -20.919998 -0.468573 1387 0.746707 0.665153 0.000000
-22.004707 -20.921295 -0.459270 1395 0.746707 0.665153 0.000000
-22.005194 -20.921753 -0.449955 1389 0.746707 0.665153 0.000000
-22.004749 -20.921345 -0.440619 1393 0.746707 0.665153 0.000000
-22.003794 -20.920435 -0.431278 1399 0.746707 0.665153 0.000000
-22.003244 -20.919903 -0.421943 1387 0.746707 0.665153 0.000000
-22.003401 -20.920055 -0.412621 1373 0.746707 0.665153 0.000000
-22.003969 -20.920605 -0.403306 1387 0.746707 0.665153 0.000000
-22.003513 -20.920176 -0.393970 1391 0.746707 0.665153 0.000000
-22.002861 -20.919548 -0.384636 1379 0.746707 0.665153 0.000000
-22.003063 -20.919737 -0.375313 1385 0.746707 0.665153 0.000000
-22.004248 -20.920860 -0.366002 1393 0.746707 0.665153 0.000000
-22.004229 -20.920849 -0.356682 1383 0.746707 0.665153 0.000000
-22.002762 -20.919460 -0.347336 1389 0.746707 0.665153 0.000000
-22.003433 -20.920092 -0.338019 1387 0.746707 0.665153 0.000000
-22.003611 -20.920263 -0.328697 1387 0.746707 0.665153 0.000000
-22.001928 -20.918663 -0.319343 1389 0.746707 0.665153 0.000000
-22.002045 -20.918785 -0.310021 1399 0.746707 0.665153 0.000000
-22.002581 -20.919294 -0.300706 1397 0.746707 0.665153 0.000000
-22.003401 -20.920073 -0.291388 1397 0.746707 0.665153 0.000000
-22.003990 -20.920630 -0.282073 1403 0.746707 0.665153 0.000000
-22.003742 -20.920389 -0.272745 1399 0.746707 0.665153 0.000000
-22.011057 -20.914249 -0.636490 1391 0.746707 0.665153 0.000000
-22.011616 -20.914789 -0.627184 1371 0.746707 0.665153 0.000000
-22.011169 -20.914368 -0.617838 1381 0.746707 0.665153 0.000000
-22.010075 -20.913330 -0.608478 1387 0.746707 0.665153 0.000000
-22.011171 -20.914371 -0.599188 1385 0.746707 0.665153 0.000000
-22.011080 -20.914288 -0.589858 1367 0.746707 0.665153 0.000000
-22.011005 -20.914215 -0.580529 1383 0.746707 0.665153 0.000000
-22.010504 -20.913734 -0.571183 1385 0.746707 0.665153 0.000000
-22.010460 -20.913702 -0.561853 1391 0.746707 0.665153 0.000000
-22.010855 -20.914072 -0.552540 1395 0.746707 0.665153 0.000000
-22.010290 -20.913542 -0.543195 1389 0.746707 0.665153 0.000000
-22.011789 -20.914959 -0.533910 1393 0.746707 0.665153 0.000000
-22.011431 -20.914618 -0.524573 1387 0.746707 0.665153 0.000000
-22.010010 -20.913269 -0.515207 1389 0.746707 0.665153 0.000000
-22.010855 -20.914080 -0.505898 1385 0.746707 0.665153 0.000000
-22.010550 -20.913784 -0.496571 1369 0.746707 0.665153 0.000000
-22.009811 -20.913086 -0.487228 1383 0.746707 0.665153 0.000000
-22.009806 -20.913084 -0.477898 1379 0.746707 0.665153 0.000000
-22.009962 -20.913223 -0.468576 1381 0.746707 0.665153 0.000000
-22.011187 -20.914392 -0.459274 1385 0.746707 0.665153 0.000000
-22.012085 -20.915247 -0.449966 1391 0.746707 0.665153 0.000000
-22.011063 -20.914284 -0.440625 1393 0.746707 0.665153 0.000000
-22.009941 -20.913214 -0.431275 1385 0.746707 0.665153 0.000000
-22.010035 -20.913301 -0.421954 1393 0.746707 0.665153 0.000000
-22.008905 -20.912228 -0.412604 1387 0.746707 0.665153 0.000000
-22.008690 -20.912027 -0.403276 1391 0.746707 0.665153 0.000000
-22.010420 -20.913670 -0.393980 1401 0.746707 0.665153 0.000000
-22.009657 -20.912954 -0.384637 1381 0.746707 0.665153 0.000000
-22.010210 -20.913475 -0.375321 1391 0.746707 0.665153 0.000000
-22.010023 -20.913301 -0.365993 1389 0.746707 0.665153 0.000000
-22.008989 -20.912317 -0.356652 1387 0.746707 0.665153 0.000000
-22.009754 -20.913050 -0.347345 1389 0.746707 0.665153 0.000000
-22.008780 -20.912123 -0.338004 1381 0.746707 0.665153 0.000000
-22.008110 -20.911480 -0.328670 1383 0.746707 0.665153 0.000000
-22.008930 -20.912260 -0.319352 1393 0.746707 0.665153 0.000000
-22.008039 -20.911415 -0.310020 1387 0.746707 0.665153 0.000000
-22.008005 -20.911388 -0.300690 1383 0.746707 0.665153 0.000000
-22.009182 -20.912506 -0.291389 1391 0.746707 0.665153 0.000000
-22.009987 -20.913273 -0.282071 1399 0.746707 0.665153 0.000000
-22.009357 -20.912676 -0.272737 1395 0.746707 0.665153 0.000000
-22.018261 -20.907816 -0.636518 1403 0.746707 0.665153 0.000000
-22.018194 -20.907749 -0.627179 1395 0.746707 0.665153 0.000000
-22.017857 -20.907429 -0.617841 1395 0.746707 0.665153 0.000000
-22.017141 -20.906750 -0.608498 1397 0.746707 0.665153 0.000000
-22.017115 -20.906731 -0.599168 1403 0.746707 0.665153 0.000000
-22.017826 -20.907408 -0.589861 1405 0.746707 0.665153 0.000000
-22.018114 -20.907679 -0.580538 1399 0.746707 0.665153 0.000000
-22.017660 -20.907251 -0.571202 1391 0.746707 0.665153 0.000000
-22.017088 -20.906713 -0.561857 1387 0.746707 0.665153 0.000000
-22.016586 -20.906233 -0.552522 1383 0.746707 0.665153 0.000000
-22.016283 -20.905951 -0.543184 1391 0.746707 0.665153 0.000000
-22.015978 -20.905655 -0.533847 1385 0.746707 0.665153 0.000000
-22.017208 -20.906830 -0.524555 1405 0.746707 0.665153 0.000000
-22.018648 -20.908197 -0.515262 1393 0.746707 0.665153 0.000000
-22.017599 -20.907198 -0.505911 1379 0.746707 0.665153 0.000000
-22.016869 -20.906507 -0.496568 1373 0.746707 0.665153 0.000000
-22.017870 -20.907459 -0.487258 1367 0.746707 0.665153 0.000000
-22.018087 -20.907660 -0.477936 1369 0.746707 0.665153 0.000000
-22.018450 -20.908005 -0.468622 1395 0.746707 0.665153 0.000000
-22.018501 -20.908062 -0.459292 1393 0.746707 0.665153 0.000000
-22.017866 -20.907461 -0.449957 1383 0.746707 0.665153 0.000000
-22.017536 -20.907146 -0.440620 1393 0.746707 0.665153 0.000000
-22.017849 -20.907438 -0.431297 1387 0.746707 0.665153 0.000000
-22.017357 -20.906977 -0.421972 1387 0.746707 0.665153 0.000000
-22.016396 -20.906063 -0.412620 1397 0.746707 0.665153 0.000000
-22.016218 -20.905893 -0.403292 1393 0.746707 0.665153 0.000000
-22.015240 -20.904966 -0.393951 1389 0.746707 0.665153 0.000000
-22.015545 -20.905254 -0.384628 1385 0.746707 0.665153 0.000000
-22.017326 -20.906946 -0.375341 1381 0.746707 0.665153 0.000000
-22.017670 -20.907278 -0.366017 1379 0.746707 0.665153 0.000000
-22.017326 -20.906952 -0.356690 1383 0.746707 0.665153 0.000000
-22.016611 -20.906271 -0.347347 1395 0.746707 0.665153 0.000000
-22.016109 -20.905790 -0.338021 1389 0.746707 0.665153 0.000000
-22.016977 -20.906622 -0.328703 1391 0.746707 0.665153 0.000000
-22.017046 -20.906691 -0.319382 1393 0.746707 0.665153 0.000000
-22.017111 -20.906746 -0.310061 1397 0.746707 0.665153 0.000000
-22.016430 -20.906105 -0.300727 1397 0.746707 0.665153 0.000000
-22.015024 -20.904770 -0.291380 1395 0.746707 0.665153 0.000000
-22.015829 -20.905535 -0.282063 1401 0.746707 0.665153 0.000000
-22.016411 -20.906096 -0.272747 1401 0.746707 0.665153 0.000000
-22.022823 -20.898352 -0.636454 1411 0.746707 0.665153 0.000000
-22.024021 -20.899487 -0.627153 1411 0.746707 0.665153 0.000000
-22.025585 -20.900969 -0.617878 1415 0.746707 0.665153 0.000000
-22.024933 -20.900354 -0.608524 1401 0.746707 0.665153 0.000000
-22.024963 -20.900377 -0.599203 1391 0.746707 0.665153 0.000000
-22.025095 -20.900513 -0.589872 1395 0.746707 0.665153 0.000000
-22.024323 -20.899775 -0.580529 1401 0.746707 0.665153 0.000000
-22.023695 -20.899181 -0.571184 1379 0.746707 0.665153 0.000000
-22.023199 -20.898705 -0.561839 1387 0.746707 0.665153 0.000000
-22.023483 -20.898973 -0.552526 1385 0.746707 0.665153 0.000000
-22.022909 -20.898436 -0.543181 1397 0.746707 0.665153 0.000000
-22.023239 -20.898754 -0.533868 1383 0.746707 0.665153 0.000000
-22.023891 -20.899372 -0.524551 1363 0.746707 0.665153 0.000000
-22.023840 -20.899321 -0.515222 1373 0.746707 0.665153 0.000000
-22.023523 -20.899025 -0.505894 1369 0.746707 0.665153 0.000000
-22.024286 -20.899746 -0.496577 1379 0.746707 0.665153 0.000000
-22.025137 -20.900551 -0.487269 1381 0.746707 0.665153 0.000000
-22.024025 -20.899500 -0.477919 1393 0.746707 0.665153 0.000000
-22.023653 -20.899149 -0.468592 1377 0.746707 0.665153 0.000000
-22.023911 -20.899397 -0.459270 1381 0.746707 0.665153 0.000000
-22.023432 -20.898935 -0.449934 1377 0.746707 0.665153 0.000000
-22.024059 -20.899534 -0.440618 1373 0.746707 0.665153 0.000000
-22.024208 -20.899683 -0.431296 1395 0.746707 0.665153 0.000000
-22.023771 -20.899265 -0.421960 1381 0.746707 0.665153 0.000000
-22.023172 -20.898695 -0.412625 1393 0.746707 0.665153 0.000000
-22.023636 -20.899132 -0.403311 1389 0.746707 0.665153 0.000000
-22.024305 -20.899778 -0.393994 1393 0.746707 0.665153 0.000000
-22.023020 -20.898550 -0.384646 1379 0.746707 0.665153 0.000000
-22.023035 -20.898575 -0.375326 1385 0.746707 0.665153 0.000000
-22.023125 -20.898649 -0.365995 1385 0.746707 0.665153 0.000000
-22.022783 -20.898338 -0.356668 1369 0.746707 0.665153 0.000000
-22.022541 -20.898104 -0.347340 1383 0.746707 0.665153 0.000000
-22.022680 -20.898232 -0.338018 1389 0.746707 0.665153 0.000000
-22.023018 -20.898558 -0.328695 1393 0.746707 0.665153 0.000000
-22.022446 -20.898020 -0.319360 1377 0.746707 0.665153 0.000000
-22.022942 -20.898485 -0.310045 1383 0.746707 0.665153 0.000000
-22.023643 -20.899153 -0.300728 1389 0.746707 0.665153 0.000000
-22.022964 -20.898506 -0.291395 1391 0.746707 0.665153 0.000000
-22.022030 -20.897625 -0.282063 1379 0.746707 0.665153 0.000000
-22.023087 -20.898634 -0.272753 1389 0.746707 0.665153 0.000000
-22.031918 -20.893433 -0.636526 1413 0.746707 0.665153 0.000000
-22.030996 -20.892561 -0.627165 1399 0.746707 0.665153 0.000000
-22.031610 -20.893148 -0.617859 1397 0.746707 0.665153 0.000000
-22.031908 -20.893429 -0.608536 1391 0.746707 0.665153 0.000000
-22.031773 -20.893305 -0.599207 1397 0.746707 0.665153 0.000000
-22.031158 -20.892723 -0.589862 1397 0.746707 0.665153 0.000000
-22.030333 -20.891941 -0.580510 1387 0.746707 0.665153 0.000000
-22.030050 -20.891665 -0.571172 1391 0.746707 0.665153 0.000000
-22.031021 -20.892591 -0.561873 1385 0.746707 0.665153 0.000000
-22.030869 -20.892443 -0.552544 1395 0.746707 0.665153 0.000000
-22.031096 -20.892666 -0.543222 1395 0.746707 0.665153 0.000000
-22.032238 -20.893745 -0.533921 1385 0.746707 0.665153 0.000000
-22.031507 -20.893053 -0.524577 1389 0.746707 0.665153 0.000000
-22.031029 -20.892605 -0.515242 1397 0.746707 0.665153 0.000000
-22.030512 -20.892111 -0.505896 1399 0.746707 0.665153 0.000000
-22.030146 -20.891766 -0.496569 1395 0.746707 0.665153 0.000000
-22.030203 -20.891815 -0.487239 1393 0.746707 0.665153 0.000000
-22.030407 -20.892019 -0.477916 1389 0.746707 0.665153 0.000000
-22.031157 -20.892727 -0.468609 1377 0.746707 0.665153 0.000000
-22.031414 -20.892975 -0.459287 1377 0.746707 0.665153 0.000000
-22.030724 -20.892315 -0.449943 1377 0.746707 0.665153 0.000000
-22.029596 -20.891254 -0.440603 1371 0.746707 0.665153 0.000000
-22.028784 -20.890486 -0.431261 1389 0.746707 0.665153 0.000000
-22.030214 -20.891832 -0.421957 1391 0.746707 0.665153 0.000000
-22.030457 -20.892069 -0.412635 1397 0.746707 0.665153 0.000000
-22.029337 -20.891012 -0.403295 1379 0.746707 0.665153 0.000000
-22.030275 -20.891899 -0.393986 1385 0.746707 0.665153 0.000000
-22.030575 -20.892181 -0.384663 1377 0.746707 0.665153 0.000000
-22.031300 -20.892868 -0.375356 1381 0.746707 0.665153 0.000000
-22.031374 -20.892944 -0.366025 1383 0.746707 0.665153 0.000000
-22.031244 -20.892817 -0.356696 1381 0.746707 0.665153 0.000000
-22.030409 -20.892027 -0.347363 1393 0.746707 0.665153 0.000000
-22.029753 -20.891409 -0.338029 1387 0.746707 0.665153 0.000000
-22.029510 -20.891176 -0.328701 1383 0.746707 0.665153 0.000000
-22.029577 -20.891245 -0.319371 1393 0.746707 0.665153 0.000000
-22.030184 -20.891813 -0.310055 1393 0.746707 0.665153 0.000000
-22.028757 -20.890471 -0.300718 1393 0.746707 0.665153 0.000000
-22.029411 -20.891088 -0.291401 1395 0.746707 0.665153 0.000000
-22.031385 -20.892954 -0.282103 1393 0.746707 0.665153 0.000000
-22.029753 -20.891405 -0.272758 1393 0.746707 0.665153 0.000000
-22.037861 -20.885777 -0.636507 1389 0.746707 0.665153 0.000000
-22.038002 -20.885916 -0.627185 1387 0.746707 0.665153 0.000000
-22.037807 -20.885736 -0.617847 1391 0.746707 0.665153 0.000000
-22.037266 -20.885221 -0.608501 1389 0.746707 0.665153 0.000000
-22.036819 -20.884800 -0.599165 1395 0.746707 0.665153 0.000000
-22.037165 -20.885118 -0.589842 1383 0.746707 0.665153 0.000000
-22.038673 -20.886555 -0.580558 1385 0.746707 0.665153 0.000000
-22.037046 -20.885014 -0.571193 1387 0.746707 0.665153 0.000000
-22.035690 -20.883726 -0.561825 1367 0.746707 0.665153 0.000000
-22.037500 -20.885445 -0.552548 1387 0.746707 0.665153 0.000000
-22.037268 -20.885221 -0.543210 1383 0.746707 0.665153 0.000000
-22.035683 -20.883724 -0.533845 1381 0.746707 0.665153 0.000000
-22.036436 -20.884439 -0.524537 1375 0.746707 0.665153 0.000000
-22.037455 -20.885403 -0.515238 1383 0.746707 0.665153 0.000000
-22.036613 -20.884609 -0.505895 1389 0.746707 0.665153 0.000000
-22.036880 -20.884865 -0.496572 1377 0.746707 0.665153 0.000000
-22.037106 -20.885075 -0.487250 1385 0.746707 0.665153 0.000000
-22.036682 -20.884668 -0.477914 1395 0.746707 0.665153 0.000000
-22.036839 -20.884823 -0.468592 1393 0.746707 0.665153 0.000000
-22.036884 -20.884874 -0.459272 1387 0.746707 0.665153 0.000000
-22.036081 -20.884111 -0.449929 1385 0.746707 0.665153 0.000000
-22.036234 -20.884249 -0.440607 1387 0.746707 0.665153 0.000000
-22.036493 -20.884497 -0.431285 1399 0.746707 0.665153 0.000000
-22.035627 -20.883686 -0.421942 1383 0.746707 0.665153 0.000000
-22.035189 -20.883270 -0.412606 1379 0.746707 0.665153 0.000000
-22.034641 -20.882751 -0.403271 1379 0.746707 0.665153 0.000000
-22.035942 -20.883984 -0.393969 1373 0.746707 0.665153 0.000000
-22.036358 -20.884371 -0.384655 1383 0.746707 0.665153 0.000000
-22.036341 -20.884357 -0.375325 1389 0.746707 0.665153 0.000000
-22.037056 -20.885040 -0.366018 1391 0.746707 0.665153 0.000000
-22.036926 -20.884911 -0.356689 1393 0.746707 0.665153 0.000000
-22.035143 -20.883230 -0.347335 1385 0.746707 0.665153 0.000000
-22.035275 -20.883348 -0.338014 1387 0.746707 0.665153 0.000000
-22.036514 -20.884531 -0.328702 1387 0.746707 0.665153 0.000000
-22.036116 -20.884146 -0.319375 1387 0.746707 0.665153 0.000000
-22.035162 -20.883251 -0.310034 1375 0.746707 0.665153 0.000000
-22.035603 -20.883671 -0.300720 1389 0.746707 0.665153 0.000000
-22.036089 -20.884130 -0.291405 1403 0.746707 0.665153 0.000000
-22.035629 -20.883696 -0.282069 1397 0.746707 0.665153 0.000000
-22.035639 -20.883705 -0.272749 1407 0.746707 0.665153 0.000000
