266
-25.067959 -23.538595 -0.656529 1149 0.722600 0.691266 0.000000
-25.068331 -23.538946 -0.645975 1151 0.722600 0.691266 0.000000
-25.067619 -23.538282 -0.635391 1149 0.722600 0.691266 0.000000
-25.068615 -23.539211 -0.624852 1163 0.722600 0.691266 0.000000
-25.068527 -23.539127 -0.614293 1195 0.722600 0.691266 0.000000
-25.067184 -23.537868 -0.603695 1173 0.722600 0.691266 0.000000
-25.066883 -23.537590 -0.593127 1173 0.722600 0.691266 0.000000
-25.066969 -23.537672 -0.582566 1155 0.722600 0.691266 0.000000
-25.067678 -23.538342 -0.572019 1147 0.722600 0.691266 0.000000
-25.067278 -23.537956 -0.561443 1145 0.722600 0.691266 0.000000
-25.066229 -23.536974 -0.550862 1147 0.722600 0.691266 0.000000
-25.066769 -23.537485 -0.540307 1165 0.722600 0.691266 0.000000
-25.067316 -23.538000 -0.529762 1171 0.722600 0.691266 0.000000
-25.067385 -23.538069 -0.519201 1179 0.722600 0.691266 0.000000
-25.067606 -23.538269 -0.508639 1173 0.722600 0.691266 0.000000
-25.065695 -23.536480 -0.498036 1163 0.722600 0.691266 0.000000
-25.065908 -23.536676 -0.487484 1167 0.722600 0.691266 0.000000
-25.066328 -23.537077 -0.476930 1177 0.722600 0.691266 0.000000
-25.065691 -23.536476 -0.466355 1179 0.722600 0.691266 0.000000
-25.065962 -23.536732 -0.455803 1185 0.722600 0.691266 0.000000
-25.065149 -23.535965 -0.445220 1189 0.722600 0.691266 0.000000
-25.065731 -23.536518 -0.434674 1157 0.722600 0.691266 0.000000
-25.065935 -23.536711 -0.424112 1157 0.722600 0.691266 0.000000
-25.065228 -23.536039 -0.413539 1155 0.722600 0.691266 0.000000
-25.065632 -23.536428 -0.402984 1167 0.722600 0.691266 0.000000
-25.066311 -23.537062 -0.392438 1179 0.722600 0.691266 0.000000
-25.066345 -23.537104 -0.381877 1171 0.722600 0.691266 0.000000
-25.066906 -23.537630 -0.371332 1177 0.722600 0.691266 0.000000
-25.067736 -23.538399 -0.360774 1169 0.722600 0.691266 0.000000
-25.066694 -23.537422 -0.350203 1169 0.722600 0.691266 0.000000
-25.065166 -23.535988 -0.339617 1161 0.722600 0.691266 0.000000
-25.065353 -23.536165 -0.329065 1153 0.722600 0.691266 0.000000
-25.065268 -23.536079 -0.318506 1161 0.722600 0.691266 0.000000
-25.064381 -23.535255 -0.307934 1159 0.722600 0.691266 0.000000
-25.064981 -23.535812 -0.297378 1165 0.722600 0.691266 0.000000
-25.065630 -23.536438 -0.286832 1163 0.722600 0.691266 0.000000
-25.065264 -23.536091 -0.276265 1163 0.722600 0.691266 0.000000
-25.065763 -23.536556 -0.265710 1157 0.722600 0.691266 0.000000
-25.074408 -23.530243 -0.656520 1167 0.722600 0.691266 0.000000
-25.075356 -23.531134 -0.645981 1155 0.722600 0.691266 0.000000
-25.075605 -23.531370 -0.635419 1137 0.722600 0.691266 0.000000
-25.074898 -23.530701 -0.624835 1165 0.722600 0.691266 0.000000
-25.074707 -23.530535 -0.614266 1155 0.722600 0.691266 0.000000
-25.074635 -23.530462 -0.603707 1151 0.722600 0.691266 0.000000
-25.074766 -23.530581 -0.593145 1157 0.722600 0.691266 0.000000
-25.074783 -23.530607 -0.582585 1145 0.722600 0.691266 0.000000
-25.073584 -23.529478 -0.571996 1163 0.722600 0.691266 0.000000
-25.072269 -23.528242 -0.561398 1175 0.722600 0.691266 0.000000
-25.073362 -23.529274 -0.550857 1145 0.722600 0.691266 0.000000
-25.074709 -23.530533 -0.540325 1149 0.722600 0.691266 0.000000
-25.074619 -23.530451 -0.529765 1169 0.722600 0.691266 0.000000
-25.074570 -23.530411 -0.519205 1183 0.722600 0.691266 0.000000
-25.074905 -23.530716 -0.508642 1165 0.722600 0.691266 0.000000
-25.074697 -23.530525 -0.498084 1175 0.722600 0.691266 0.000000
-25.073578 -23.529470 -0.487494 1163 0.722600 0.691266 0.000000
-25.071871 -23.527870 -0.476900 1163 0.722600 0.691266 0.000000
-25.071815 -23.527824 -0.466340 1157 0.722600 0.691266 0.000000
-25.073408 -23.529324 -0.455805 1179 0.722600 0.691266 0.000000
-25.073410 -23.529324 -0.445245 1181 0.722600 0.691266 0.000000
-25.073019 -23.528957 -0.434678 1157 0.722600 0.691266 0.000000
-25.073914 -23.529791 -0.424129 1157 0.722600 0.691266 0.000000
-25.073261 -23.529177 -0.413565 1133 0.722600 0.691266 0.000000
-25.072922 -23.528866 -0.402998 1155 0.722600 0.691266 0.000000
-25.073236 -23.529158 -0.392435 1179 0.722600 0.691266 0.000000
-25.071882 -23.527891 -0.381857 1173 0.722600 0.691266 0.000000
-25.071215 -23.527264 -0.371293 1151 0.722600 0.691266 0.000000
-25.071991 -23.527988 -0.360736 1153 0.722600 0.691266 0.000000
-25.072235 -23.528225 -0.350183 1153 0.722600 0.691266 0.000000
-25.073645 -23.529547 -0.339640 1159 0.722600 0.691266 0.000000
-25.074358 -23.530210 -0.329093 1161 0.722600 0.691266 0.000000
-25.072668 -23.528635 -0.318509 1161 0.722600 0.691266 0.000000
-25.072210 -23.528204 -0.307943 1139 0.722600 0.691266 0.000000
-25.072649 -23.528606 -0.297388 1141 0.722600 0.691266 0.000000
-25.072872 -23.528826 -0.286836 1165 0.722600 0.691266 0.000000
-25.071230 -23.527288 -0.276251 1147 0.722600 0.691266 0.000000
-25.070389 -23.526497 -0.265689 1129 0.722600 0.691266 0.000000
-25.081314 -23.522041 -0.656509 1163 0.722600 0.691266 0.000000
-25.081503 -23.522219 -0.645947 1165 0.722600 0.691266 0.000000
-25.082296 -23.522957 -0.635409 1145 0.722600 0.691266 0.000000
-25.081957 -23.522646 -0.624832 1137 0.722600 0.691266 0.000000
-25.081129 -23.521866 -0.614250 1157 0.722600 0.691266 0.000000
-25.081903 -23.522591 -0.603712 1155 0.722600 0.691266 0.000000
-25.081285 -23.522017 -0.593128 1181 0.722600 0.691266 0.000000
-25.080307 -23.521090 -0.582547 1185 0.722600 0.691266 0.000000
-25.080696 -23.521467 -0.571993 1185 0.722600 0.691266 0.000000
-25.081156 -23.521885 -0.561438 1179 0.722600 0.691266 0.000000
-25.081011 -23.521757 -0.550869 1141 0.722600 0.691266 0.000000
-25.081875 -23.522566 -0.540331 1151 0.722600 0.691266 0.000000
-25.080980 -23.521730 -0.529749 1163 0.722600 0.691266 0.000000
-25.079868 -23.520685 -0.519159 1169 0.722600 0.691266 0.000000
-25.079937 -23.520754 -0.508608 1177 0.722600 0.691266 0.000000
-25.079670 -23.520500 -0.498040 1157 0.722600 0.691266 0.000000
-25.080681 -23.521452 -0.487501 1167 0.722600 0.691266 0.000000
-25.081053 -23.521803 -0.476937 1147 0.722600 0.691266 0.000000
-25.080206 -23.521006 -0.466365 1145 0.722600 0.691266 0.000000
-25.080093 -23.520905 -0.455805 1167 0.722600 0.691266 0.000000
-25.080103 -23.520910 -0.445245 1177 0.722600 0.691266 0.000000
-25.079451 -23.520296 -0.434671 1191 0.722600 0.691266 0.000000
-25.079544 -23.520384 -0.424110 1177 0.722600 0.691266 0.000000
-25.079367 -23.520216 -0.413541 1163 0.722600 0.691266 0.000000
-25.080420 -23.521204 -0.403001 1157 0.722600 0.691266 0.000000
-25.080936 -23.521694 -0.392446 1157 0.722600 0.691266 0.000000
-25.080126 -23.520927 -0.381874 1157 0.722600 0.691266 0.000000
-25.080950 -23.521706 -0.371326 1155 0.722600 0.691266 0.000000
-25.080227 -23.521036 -0.360762 1157 0.722600 0.691266 0.000000
-25.079353 -23.520205 -0.350190 1155 0.722600 0.691266 0.000000
-25.079369 -23.520229 -0.339630 1165 0.722600 0.691266 0.000000
-25.079826 -23.520649 -0.329075 1171 0.722600 0.691266 0.000000
-25.079630 -23.520477 -0.318507 1169 0.722600 0.691266 0.000000
-25.079376 -23.520235 -0.307949 1149 0.722600 0.691266 0.000000
-25.079659 -23.520500 -0.297386 1171 0.722600 0.691266 0.000000
-25.078651 -23.519550 -0.286815 1167 0.722600 0.691266 0.000000
-25.078444 -23.519358 -0.276257 1153 0.722600 0.691266 0.000000
-25.078506 -23.519421 -0.265696 1147 0.722600 0.691266 0.000000
-25.091082 -23.516506 -0.656581 1153 0.722600 0.691266 0.000000
-25.089685 -23.515207 -0.645974 1157 0.722600 0.691266 0.000000
-25.089504 -23.515034 -0.635405 1171 0.722600 0.691266 0.000000
-25.090818 -23.516270 -0.624883 1171 0.722600 0.691266 0.000000
-25.091009 -23.516447 -0.614320 1159 0.722600 0.691266 0.000000
-25.089287 -23.514833 -0.603716 1165 0.722600 0.691266 0.000000
-25.089531 -23.515057 -0.593154 1165 0.722600 0.691266 0.000000
-25.088808 -23.514385 -0.582580 1163 0.722600 0.691266 0.000000
-25.088675 -23.514252 -0.572011 1151 0.722600 0.691266 0.000000
-25.089489 -23.515022 -0.561463 1161 0.722600 0.691266 0.000000
-25.087053 -23.512732 -0.550846 1157 0.722600 0.691266 0.000000
-25.088243 -23.513855 -0.540315 1171 0.722600 0.691266 0.000000
-25.089809 -23.515318 -0.529790 1157 0.722600 0.691266 0.000000
-25.088423 -23.514025 -0.519192 1171 0.722600 0.691266 0.000000
-25.088280 -23.513882 -0.508633 1189 0.722600 0.691266 0.000000
-25.088968 -23.514538 -0.498077 1183 0.722600 0.691266 0.000000
-25.088705 -23.514288 -0.487519 1155 0.722600 0.691266 0.000000
-25.089195 -23.514746 -0.476964 1135 0.722600 0.691266 0.000000
-25.089083 -23.514643 -0.466395 1165 0.722600 0.691266 0.000000
-25.088163 -23.513790 -0.455823 1167 0.722600 0.691266 0.000000
-25.087793 -23.513439 -0.445257 1179 0.722600 0.691266 0.000000
-25.088377 -23.513985 -0.434701 1181 0.722600 0.691266 0.000000
-25.088049 -23.513672 -0.424134 1155 0.722600 0.691266 0.000000
-25.087074 -23.512760 -0.413553 1161 0.722600 0.691266 0.000000
-25.088057 -23.513689 -0.403013 1151 0.722600 0.691266 0.000000
-25.088594 -23.514185 -0.392458 1151 0.722600 0.691266 0.000000
-25.088081 -23.513708 -0.381892 1147 0.722600 0.691266 0.000000
-25.086889 -23.512596 -0.371313 1165 0.722600 0.691266 0.000000
-25.086540 -23.512264 -0.360746 1165 0.722600 0.691266 0.000000
-25.087418 -23.513086 -0.350198 1161 0.722600 0.691266 0.000000
-25.087496 -23.513161 -0.339637 1161 0.722600 0.691266 0.000000
-25.087456 -23.513128 -0.329077 1171 0.722600 0.691266 0.000000
-25.086800 -23.512510 -0.318513 1141 0.722600 0.691266 0.000000
-25.086813 -23.512522 -0.307952 1137 0.722600 0.691266 0.000000
-25.087088 -23.512781 -0.297400 1139 0.722600 0.691266 0.000000
-25.085873 -23.511641 -0.286821 1147 0.722600 0.691266 0.000000
-25.085827 -23.511602 -0.276261 1157 0.722600 0.691266 0.000000
-25.086847 -23.512562 -0.265711 1161 0.722600 0.691266 0.000000
-25.097347 -23.507149 -0.656548 1145 0.722600 0.691266 0.000000
-25.097713 -23.507494 -0.645994 1157 0.722600 0.691266 0.000000
-25.096746 -23.506575 -0.635403 1151 0.722600 0.691266 0.000000
-25.095976 -23.505854 -0.624820 1157 0.722600 0.691266 0.000000
-25.096815 -23.506643 -0.614282 1153 0.722600 0.691266 0.000000
-25.097424 -23.507223 -0.603736 1155 0.722600 0.691266 0.000000
-25.097345 -23.507147 -0.593167 1163 0.722600 0.691266 0.000000
-25.096945 -23.506773 -0.582590 1159 0.722600 0.691266 0.000000
-25.096384 -23.506247 -0.572015 1161 0.722600 0.691266 0.000000
-25.096764 -23.506601 -0.561461 1169 0.722600 0.691266 0.000000
-25.096724 -23.506569 -0.550902 1189 0.722600 0.691266 0.000000
-25.096546 -23.506401 -0.540333 1159 0.722600 0.691266 0.000000
-25.095856 -23.505756 -0.529759 1157 0.722600 0.691266 0.000000
-25.095173 -23.505106 -0.519185 1161 0.722600 0.691266 0.000000
-25.096678 -23.506517 -0.508651 1165 0.722600 0.691266 0.000000
-25.096796 -23.506628 -0.498090 1169 0.722600 0.691266 0.000000
-25.096478 -23.506330 -0.487522 1165 0.722600 0.691266 0.000000
-25.095985 -23.505875 -0.476947 1151 0.722600 0.691266 0.000000
-25.096365 -23.506229 -0.466393 1173 0.722600 0.691266 0.000000
-25.097212 -23.507025 -0.455855 1165 0.722600 0.691266 0.000000
-25.095875 -23.505770 -0.445267 1157 0.722600 0.691266 0.000000
-25.095175 -23.505117 -0.434693 1147 0.722600 0.691266 0.000000
-25.095221 -23.505156 -0.424133 1151 0.722600 0.691266 0.000000
-25.095322 -23.505249 -0.413571 1153 0.722600 0.691266 0.000000
-25.094593 -23.504574 -0.402998 1153 0.722600 0.691266 0.000000
-25.093506 -23.503559 -0.392428 1145 0.722600 0.691266 0.000000
-25.094074 -23.504095 -0.381872 1147 0.722600 0.691266 0.000000
-25.094282 -23.504286 -0.371310 1153 0.722600 0.691266 0.000000
-25.094517 -23.504499 -0.360758 1129 0.722600 0.691266 0.000000
-25.094915 -23.504883 -0.350204 1131 0.722600 0.691266 0.000000
-25.094135 -23.504141 -0.339631 1139 0.722600 0.691266 0.000000
-25.094849 -23.504816 -0.329084 1135 0.722600 0.691266 0.000000
-25.096426 -23.506287 -0.318539 1161 0.722600 0.691266 0.000000
-25.096004 -23.505898 -0.307973 1143 0.722600 0.691266 0.000000
-25.096676 -23.506525 -0.297426 1159 0.722600 0.691266 0.000000
-25.096254 -23.506138 -0.286860 1165 0.722600 0.691266 0.000000
-25.095154 -23.505098 -0.276290 1145 0.722600 0.691266 0.000000
-25.095098 -23.505054 -0.265730 1149 0.722600 0.691266 0.000000
-25.105471 -23.499769 -0.656567 1135 0.722600 0.691266 0.000000
-25.105396 -23.499710 -0.646007 1125 0.722600 0.691266 0.000000
-25.104692 -23.499054 -0.635424 1123 0.722600 0.691266 0.000000
-25.104406 -23.498787 -0.624856 1149 0.722600 0.691266 0.000000
-25.104118 -23.498516 -0.614279 1141 0.722600 0.691266 0.000000
-25.103769 -23.498184 -0.603712 1133 0.722600 0.691266 0.000000
-25.104324 -23.498709 -0.593156 1135 0.722600 0.691266 0.000000
-25.106012 -23.500278 -0.582640 1137 0.722600 0.691266 0.000000
-25.104910 -23.499252 -0.572050 1129 0.722600 0.691266 0.000000
-25.103647 -23.498072 -0.561452 1123 0.722600 0.691266 0.000000
-25.103893 -23.498310 -0.550899 1149 0.722600 0.691266 0.000000
-25.103527 -23.497963 -0.540332 1147 0.722600 0.691266 0.000000
-25.102804 -23.497280 -0.529749 1149 0.722600 0.691266 0.000000
-25.103128 -23.497591 -0.519196 1151 0.722600 0.691266 0.000000
-25.103086 -23.497545 -0.508636 1147 0.722600 0.691266 0.000000
-25.103144 -23.497602 -0.498075 1141 0.722600 0.691266 0.000000
-25.103888 -23.498302 -0.487528 1159 0.722600 0.691266 0.000000
-25.104481 -23.498857 -0.476972 1143 0.722600 0.691266 0.000000
-25.104527 -23.498905 -0.466411 1159 0.722600 0.691266 0.000000
-25.103455 -23.497892 -0.455831 1159 0.722600 0.691266 0.000000
-25.102703 -23.497196 -0.445258 1151 0.722600 0.691266 0.000000
-25.102686 -23.497183 -0.434698 1149 0.722600 0.691266 0.000000
-25.102781 -23.497272 -0.424137 1161 0.722600 0.691266 0.000000
-25.102509 -23.497015 -0.413569 1161 0.722600 0.691266 0.000000
-25.102285 -23.496798 -0.403011 1163 0.722600 0.691266 0.000000
-25.103172 -23.497637 -0.392462 1139 0.722600 0.691266 0.000000
-25.103531 -23.497976 -0.381909 1159 0.722600 0.691266 0.000000
-25.102333 -23.496847 -0.371330 1159 0.722600 0.691266 0.000000
-25.102419 -23.496931 -0.360768 1147 0.722600 0.691266 0.000000
-25.104153 -23.498552 -0.350232 1145 0.722600 0.691266 0.000000
-25.103804 -23.498219 -0.339665 1133 0.722600 0.691266 0.000000
-25.102541 -23.497040 -0.329087 1131 0.722600 0.691266 0.000000
-25.102400 -23.496912 -0.318528 1135 0.722600 0.691266 0.000000
-25.102583 -23.497086 -0.307976 1161 0.722600 0.691266 0.000000
-25.102808 -23.497292 -0.297413 1171 0.722600 0.691266 0.000000
-25.101913 -23.496458 -0.286841 1175 0.722600 0.691266 0.000000
-25.101807 -23.496361 -0.276282 1147 0.722600 0.691266 0.000000
-25.102036 -23.496571 -0.265730 1127 0.722600 0.691266 0.000000
-25.111870 -23.491108 -0.656550 1139 0.722600 0.691266 0.000000
-25.111702 -23.490950 -0.645982 1137 0.722600 0.691266 0.000000
-25.112543 -23.491737 -0.635443 1127 0.722600 0.691266 0.000000
-25.112518 -23.491705 -0.624874 1147 0.722600 0.691266 0.000000
-25.112383 -23.491583 -0.614305 1141 0.722600 0.691266 0.000000
-25.112682 -23.491863 -0.603751 1131 0.722600 0.691266 0.000000
-25.113020 -23.492186 -0.593198 1133 0.722600 0.691266 0.000000
-25.111885 -23.491119 -0.582608 1127 0.722600 0.691266 0.000000
-25.111643 -23.490898 -0.572040 1143 0.722600 0.691266 0.000000
-25.111664 -23.490915 -0.561480 1135 0.722600 0.691266 0.000000
-25.111252 -23.490534 -0.550904 1131 0.722600 0.691266 0.000000
-25.110315 -23.489655 -0.540322 1159 0.722600 0.691266 0.000000
-25.110474 -23.489805 -0.529760 1139 0.722600 0.691266 0.000000
-25.111509 -23.490767 -0.519220 1143 0.722600 0.691266 0.000000
-25.111565 -23.490822 -0.508660 1133 0.722600 0.691266 0.000000
-25.111841 -23.491083 -0.498107 1149 0.722600 0.691266 0.000000
-25.110445 -23.489782 -0.487520 1131 0.722600 0.691266 0.000000
-25.110348 -23.489679 -0.476950 1127 0.722600 0.691266 0.000000
-25.112162 -23.491377 -0.466423 1149 0.722600 0.691266 0.000000
-25.112431 -23.491634 -0.455870 1151 0.722600 0.691266 0.000000
-25.111195 -23.490473 -0.445282 1133 0.722600 0.691266 0.000000
-25.110546 -23.489874 -0.434707 1129 0.722600 0.691266 0.000000
-25.110750 -23.490065 -0.424155 1137 0.722600 0.691266 0.000000
-25.110527 -23.489859 -0.413587 1143 0.722600 0.691266 0.000000
-25.110344 -23.489687 -0.403029 1163 0.722600 0.691266 0.000000
-25.111126 -23.490417 -0.392481 1161 0.722600 0.691266 0.000000
-25.111435 -23.490704 -0.381918 1141 0.722600 0.691266 0.000000
-25.109644 -23.489033 -0.371334 1151 0.722600 0.691266 0.000000
-25.108723 -23.488165 -0.360763 1147 0.722600 0.691266 0.000000
-25.109175 -23.488592 -0.350208 1131 0.722600 0.691266 0.000000
-25.110470 -23.489799 -0.339666 1139 0.722600 0.691266 0.000000
-25.110708 -23.490030 -0.329103 1143 0.722600 0.691266 0.000000
-25.110186 -23.489532 -0.318538 1147 0.722600 0.691266 0.000000
-25.109520 -23.488920 -0.307974 1141 0.722600 0.691266 0.000000
-25.108877 -23.488314 -0.297400 1131 0.722600 0.691266 0.000000
-25.109272 -23.488684 -0.286846 1129 0.722600 0.691266 0.000000
-25.109127 -23.488554 -0.276287 1117 0.722600 0.691266 0.000000
-25.109993 -23.489363 -0.265739 1133 0.722600 0.691266 0.000000
