192
-27.759871 -26.553591 -0.662574 1431 0.742323 0.670042 0.000000
-27.760115 -26.553814 -0.650781 1413 0.742323 0.670042 0.000000
-27.760361 -26.554052 -0.638988 1431 0.742323 0.670042 0.000000
-27.760378 -26.554077 -0.627188 1441 0.742323 0.670042 0.000000
-27.760572 -26.554262 -0.615396 1447 0.742323 0.670042 0.000000
-27.760647 -26.554333 -0.603595 1467 0.742323 0.670042 0.000000
-27.760361 -26.554062 -0.591787 1459 0.742323 0.670042 0.000000
-27.759851 -26.553581 -0.579972 1471 0.742323 0.670042 0.000000
-27.760403 -26.554106 -0.568186 1459 0.742323 0.670042 0.000000
-27.760893 -26.554567 -0.556401 1461 0.742323 0.670042 0.000000
-27.759474 -26.553217 -0.544574 1457 0.742323 0.670042 0.000000
-27.759285 -26.553038 -0.532766 1453 0.742323 0.670042 0.000000
-27.759760 -26.553501 -0.520981 1453 0.742323 0.670042 0.000000
-27.760603 -26.554304 -0.509193 1445 0.742323 0.670042 0.000000
-27.761406 -26.555073 -0.497405 1459 0.742323 0.670042 0.000000
-27.759926 -26.553659 -0.485589 1475 0.742323 0.670042 0.000000
-27.759024 -26.552794 -0.473767 1475 0.742323 0.670042 0.000000
-27.760025 -26.553762 -0.461987 1465 0.742323 0.670042 0.000000
-27.760807 -26.554514 -0.450200 1475 0.742323 0.670042 0.000000
-27.761215 -26.554897 -0.438406 1471 0.742323 0.670042 0.000000
-27.760460 -26.554176 -0.426602 1479 0.742323 0.670042 0.000000
-27.759594 -26.553354 -0.414790 1465 0.742323 0.670042 0.000000
-27.759998 -26.553747 -0.402996 1471 0.742323 0.670042 0.000000
-27.759243 -26.553015 -0.391183 1481 0.742323 0.670042 0.000000
-27.759226 -26.552999 -0.379393 1487 0.742323 0.670042 0.000000
-27.759464 -26.553230 -0.367590 1473 0.742323 0.670042 0.000000
-27.759378 -26.553160 -0.355791 1483 0.742323 0.670042 0.000000
-27.759403 -26.553179 -0.344000 1503 0.742323 0.670042 0.000000
-27.759096 -26.552889 -0.332193 1525 0.742323 0.670042 0.000000
-27.759285 -26.553068 -0.320401 1565 0.742323 0.670042 0.000000
-27.758232 -26.552067 -0.308591 1545 0.742323 0.670042 0.000000
-27.757029 -26.550917 -0.296782 1543 0.742323 0.670042 0.000000
-27.768547 -26.545969 -0.662601 1423 0.742323 0.670042 0.000000
-27.768524 -26.545948 -0.650801 1415 0.742323 0.670042 0.000000
-27.768932 -26.546345 -0.639007 1431 0.742323 0.670042 0.000000
-27.767700 -26.545172 -0.627178 1431 0.742323 0.670042 0.000000
-27.767982 -26.545439 -0.615385 1427 0.742323 0.670042 0.000000
-27.768118 -26.545574 -0.603584 1435 0.742323 0.670042 0.000000
-27.767038 -26.544538 -0.591764 1425 0.742323 0.670042 0.000000
-27.768219 -26.545668 -0.579992 1441 0.742323 0.670042 0.000000
-27.770363 -26.547726 -0.568232 1425 0.742323 0.670042 0.000000
-27.769056 -26.546463 -0.556404 1421 0.742323 0.670042 0.000000
-27.767529 -26.545012 -0.544578 1405 0.742323 0.670042 0.000000
-27.767916 -26.545376 -0.532784 1405 0.742323 0.670042 0.000000
-27.769184 -26.546604 -0.521012 1411 0.742323 0.670042 0.000000
-27.769344 -26.546759 -0.509210 1419 0.742323 0.670042 0.000000
-27.768873 -26.546310 -0.497404 1415 0.742323 0.670042 0.000000
-27.769032 -26.546450 -0.485612 1423 0.742323 0.670042 0.000000
-27.768450 -26.545897 -0.473798 1409 0.742323 0.670042 0.000000
-27.768553 -26.546005 -0.462006 1419 0.742323 0.670042 0.000000
-27.769703 -26.547110 -0.450225 1411 0.742323 0.670042 0.000000
-27.769272 -26.546692 -0.438419 1417 0.742323 0.670042 0.000000
-27.768675 -26.546127 -0.426604 1405 0.742323 0.670042 0.000000
-27.768831 -26.546267 -0.414812 1433 0.742323 0.670042 0.000000
-27.767895 -26.545385 -0.403001 1435 0.742323 0.670042 0.000000
-27.768990 -26.546432 -0.391220 1431 0.742323 0.670042 0.000000
-27.769501 -26.546911 -0.379425 1427 0.742323 0.670042 0.000000
-27.767937 -26.545429 -0.367610 1423 0.742323 0.670042 0.000000
-27.768433 -26.545897 -0.355815 1417 0.742323 0.670042 0.000000
-27.769457 -26.546885 -0.344025 1415 0.742323 0.670042 0.000000
-27.769590 -26.547005 -0.332233 1419 0.742323 0.670042 0.000000
-27.770247 -26.547646 -0.320437 1425 0.742323 0.670042 0.000000
-27.770206 -26.547598 -0.308637 1443 0.742323 0.670042 0.000000
-27.770382 -26.547764 -0.296845 1437 0.742323 0.670042 0.000000
-27.774761 -26.535667 -0.662554 1415 0.742323 0.670042 0.000000
-27.774431 -26.535360 -0.650746 1433 0.742323 0.670042 0.000000
-27.775518 -26.536400 -0.638976 1415 0.742323 0.670042 0.000000
-27.776228 -26.537079 -0.627189 1421 0.742323 0.670042 0.000000
-27.776157 -26.537008 -0.615389 1423 0.742323 0.670042 0.000000
-27.777033 -26.537849 -0.603611 1431 0.742323 0.670042 0.000000
-27.778435 -26.539185 -0.591837 1417 0.742323 0.670042 0.000000
-27.777876 -26.538651 -0.580022 1421 0.742323 0.670042 0.000000
-27.777145 -26.537964 -0.568209 1421 0.742323 0.670042 0.000000
-27.777042 -26.537867 -0.556409 1417 0.742323 0.670042 0.000000
-27.777651 -26.538439 -0.544623 1403 0.742323 0.670042 0.000000
-27.777821 -26.538603 -0.532822 1401 0.742323 0.670042 0.000000
-27.776714 -26.537558 -0.521002 1407 0.742323 0.670042 0.000000
-27.776415 -26.537262 -0.509194 1413 0.742323 0.670042 0.000000
-27.776463 -26.537312 -0.497404 1409 0.742323 0.670042 0.000000
-27.776566 -26.537420 -0.485602 1405 0.742323 0.670042 0.000000
-27.777363 -26.538170 -0.473814 1427 0.742323 0.670042 0.000000
-27.777460 -26.538275 -0.462023 1431 0.742323 0.670042 0.000000
-27.776182 -26.537052 -0.450195 1417 0.742323 0.670042 0.000000
-27.776808 -26.537649 -0.438409 1415 0.742323 0.670042 0.000000
-27.776579 -26.537436 -0.426611 1399 0.742323 0.670042 0.000000
-27.776627 -26.537474 -0.414810 1413 0.742323 0.670042 0.000000
-27.777391 -26.538212 -0.403022 1419 0.742323 0.670042 0.000000
-27.778275 -26.539061 -0.391234 1409 0.742323 0.670042 0.000000
-27.778624 -26.539394 -0.379440 1417 0.742323 0.670042 0.000000
-27.778912 -26.539667 -0.367647 1427 0.742323 0.670042 0.000000
-27.778294 -26.539085 -0.355843 1421 0.742323 0.670042 0.000000
-27.777308 -26.538139 -0.344032 1417 0.742323 0.670042 0.000000
-27.777594 -26.538422 -0.332239 1415 0.742323 0.670042 0.000000
-27.777767 -26.538591 -0.320437 1409 0.742323 0.670042 0.000000
-27.777893 -26.538704 -0.308635 1403 0.742323 0.670042 0.000000
-27.777422 -26.538254 -0.296840 1411 0.742323 0.670042 0.000000
-27.784510 -26.528753 -0.662603 1405 0.742323 0.670042 0.000000
-27.784016 -26.528284 -0.650787 1417 0.742323 0.670042 0.000000
-27.782465 -26.526800 -0.638951 1423 0.742323 0.670042 0.000000
-27.782278 -26.526619 -0.627153 1419 0.742323 0.670042 0.000000
-27.785372 -26.529579 -0.615423 1425 0.742323 0.670042 0.000000
-27.786081 -26.530260 -0.603636 1419 0.742323 0.670042 0.000000
-27.784412 -26.528666 -0.591802 1415 0.742323 0.670042 0.000000
-27.784019 -26.528292 -0.579985 1403 0.742323 0.670042 0.000000
-27.783030 -26.527355 -0.568174 1403 0.742323 0.670042 0.000000
-27.783407 -26.527714 -0.556380 1413 0.742323 0.670042 0.000000
-27.785118 -26.529354 -0.544614 1413 0.742323 0.670042 0.000000
-27.784983 -26.529217 -0.532815 1407 0.742323 0.670042 0.000000
-27.784023 -26.528305 -0.520994 1421 0.742323 0.670042 0.000000
-27.784565 -26.528824 -0.509208 1433 0.742323 0.670042 0.000000
-27.785101 -26.529337 -0.497413 1421 0.742323 0.670042 0.000000
-27.784616 -26.528875 -0.485607 1423 0.742323 0.670042 0.000000
-27.784412 -26.528681 -0.473799 1411 0.742323 0.670042 0.000000
-27.784082 -26.528372 -0.462002 1409 0.742323 0.670042 0.000000
-27.784925 -26.529173 -0.450214 1409 0.742323 0.670042 0.000000
-27.785494 -26.529713 -0.438428 1405 0.742323 0.670042 0.000000
-27.784149 -26.528435 -0.426600 1413 0.742323 0.670042 0.000000
-27.783661 -26.527971 -0.414805 1417 0.742323 0.670042 0.000000
-27.784117 -26.528408 -0.403010 1421 0.742323 0.670042 0.000000
-27.783567 -26.527880 -0.391205 1417 0.742323 0.670042 0.000000
-27.783600 -26.527918 -0.379404 1415 0.742323 0.670042 0.000000
-27.785261 -26.529503 -0.367628 1407 0.742323 0.670042 0.000000
-27.786615 -26.530800 -0.355845 1417 0.742323 0.670042 0.000000
-27.786428 -26.530619 -0.344047 1409 0.742323 0.670042 0.000000
-27.785177 -26.529430 -0.332228 1403 0.742323 0.670042 0.000000
-27.784933 -26.529192 -0.320430 1407 0.742323 0.670042 0.000000
-27.785887 -26.530113 -0.308641 1403 0.742323 0.670042 0.000000
-27.785322 -26.529573 -0.296836 1397 0.742323 0.670042 0.000000
-27.792179 -26.519535 -0.662593 1415 0.742323 0.670042 0.000000
-27.791903 -26.519270 -0.650785 1415 0.742323 0.670042 0.000000
-27.792252 -26.519604 -0.638992 1423 0.742323 0.670042 0.000000
-27.792028 -26.519382 -0.627183 1411 0.742323 0.670042 0.000000
-27.791519 -26.518902 -0.615378 1411 0.742323 0.670042 0.000000
-27.792982 -26.520300 -0.603604 1423 0.742323 0.670042 0.000000
-27.792953 -26.520275 -0.591804 1411 0.742323 0.670042 0.000000
-27.792118 -26.519476 -0.579991 1401 0.742323 0.670042 0.000000
-27.792515 -26.519865 -0.568197 1405 0.742323 0.670042 0.000000
-27.793011 -26.520330 -0.556412 1399 0.742323 0.670042 0.000000
-27.793123 -26.520449 -0.544611 1405 0.742323 0.670042 0.000000
-27.793287 -26.520609 -0.532819 1413 0.742323 0.670042 0.000000
-27.794201 -26.521481 -0.521030 1419 0.742323 0.670042 0.000000
-27.793886 -26.521172 -0.509223 1399 0.742323 0.670042 0.000000
-27.793777 -26.521082 -0.497424 1417 0.742323 0.670042 0.000000
-27.794844 -26.522089 -0.485643 1407 0.742323 0.670042 0.000000
-27.793467 -26.520771 -0.473826 1399 0.742323 0.670042 0.000000
-27.791765 -26.519152 -0.461992 1407 0.742323 0.670042 0.000000
-27.792065 -26.519447 -0.450199 1415 0.742323 0.670042 0.000000
-27.792318 -26.519691 -0.438406 1421 0.742323 0.670042 0.000000
-27.793585 -26.520889 -0.426624 1423 0.742323 0.670042 0.000000
-27.793617 -26.520927 -0.414833 1417 0.742323 0.670042 0.000000
-27.792597 -26.519953 -0.403013 1413 0.742323 0.670042 0.000000
-27.792526 -26.519896 -0.391213 1411 0.742323 0.670042 0.000000
-27.793510 -26.520824 -0.379433 1415 0.742323 0.670042 0.000000
-27.793007 -26.520350 -0.367628 1409 0.742323 0.670042 0.000000
-27.792551 -26.519924 -0.355822 1421 0.742323 0.670042 0.000000
-27.793684 -26.521002 -0.344041 1419 0.742323 0.670042 0.000000
-27.793655 -26.520977 -0.332241 1417 0.742323 0.670042 0.000000
-27.792711 -26.520077 -0.320430 1413 0.742323 0.670042 0.000000
-27.792406 -26.519789 -0.308632 1407 0.742323 0.670042 0.000000
-27.792900 -26.520256 -0.296837 1413 0.742323 0.670042 0.000000
-27.800600 -26.511021 -0.662596 1423 0.742323 0.670042 0.000000
-27.800215 -26.510654 -0.650789 1419 0.742323 0.670042 0.000000
-27.801569 -26.511950 -0.639026 1423 0.742323 0.670042 0.000000
-27.802387 -26.512732 -0.627238 1427 0.742323 0.670042 0.000000
-27.800949 -26.511364 -0.615412 1425 0.742323 0.670042 0.000000
-27.800501 -26.510935 -0.603595 1415 0.742323 0.670042 0.000000
-27.802540 -26.512878 -0.591836 1427 0.742323 0.670042 0.000000
-27.802393 -26.512745 -0.580037 1423 0.742323 0.670042 0.000000
-27.801888 -26.512253 -0.568222 1419 0.742323 0.670042 0.000000
-27.800898 -26.511316 -0.556411 1427 0.742323 0.670042 0.000000
-27.800583 -26.511021 -0.544603 1411 0.742323 0.670042 0.000000
-27.800852 -26.511278 -0.532811 1417 0.742323 0.670042 0.000000
-27.800333 -26.510792 -0.520995 1411 0.742323 0.670042 0.000000
-27.800184 -26.510643 -0.509196 1411 0.742323 0.670042 0.000000
-27.800190 -26.510647 -0.497396 1401 0.742323 0.670042 0.000000
-27.800768 -26.511206 -0.485610 1405 0.742323 0.670042 0.000000
-27.800508 -26.510956 -0.473802 1415 0.742323 0.670042 0.000000
-27.799810 -26.510294 -0.461999 1411 0.742323 0.670042 0.000000
-27.800014 -26.510485 -0.450196 1417 0.742323 0.670042 0.000000
-27.800858 -26.511286 -0.438418 1413 0.742323 0.670042 0.000000
-27.801109 -26.511530 -0.426625 1419 0.742323 0.670042 0.000000
-27.800924 -26.511364 -0.414817 1407 0.742323 0.670042 0.000000
-27.800648 -26.511099 -0.403019 1403 0.742323 0.670042 0.000000
-27.802168 -26.512543 -0.391245 1421 0.742323 0.670042 0.000000
-27.801878 -26.512266 -0.379437 1413 0.742323 0.670042 0.000000
-27.800949 -26.511393 -0.367626 1419 0.742323 0.670042 0.000000
-27.801863 -26.512266 -0.355837 1405 0.742323 0.670042 0.000000
-27.801634 -26.512039 -0.344039 1415 0.742323 0.670042 0.000000
-27.801542 -26.511963 -0.332239 1397 0.742323 0.670042 0.000000
-27.801718 -26.512131 -0.320447 1407 0.742323 0.670042 0.000000
-27.801243 -26.511681 -0.308641 1407 0.742323 0.670042 0.000000
-27.802118 -26.512508 -0.296853 1419 0.742323 0.670042 0.000000
