774
-6.017149 -5.695039 -0.509869 1495 0.721451 0.692466 0.000000
-6.017679 -5.695550 -0.507353 1503 0.721451 0.692466 0.000000
-6.017261 -5.695148 -0.504767 1507 0.721451 0.692466 0.000000
-6.016637 -5.694555 -0.502163 1499 0.721451 0.692466 0.000000
-6.016896 -5.694811 -0.499631 1511 0.721451 0.692466 0.000000
-6.017218 -5.695118 -0.497107 1507 0.721451 0.692466 0.000000
-6.017110 -5.695016 -0.494538 1499 0.721451 0.692466 0.000000
-6.017274 -5.695169 -0.492007 1499 0.721451 0.692466 0.000000
-6.017699 -5.695571 -0.489483 1509 0.721451 0.692466 0.000000
-6.017964 -5.695819 -0.486950 1517 0.721451 0.692466 0.000000
-6.017594 -5.695469 -0.484374 1511 0.721451 0.692466 0.000000
-6.017431 -5.695310 -0.481805 1515 0.721451 0.692466 0.000000
-6.017325 -5.695221 -0.479246 1501 0.721450 0.692466 0.000000
-6.017218 -5.695120 -0.476677 1507 0.721450 0.692466 0.000000
-6.016840 -5.694764 -0.474100 1501 0.721451 0.692466 0.000000
-6.016947 -5.694860 -0.471559 1509 0.721451 0.692466 0.000000
-6.017372 -5.695261 -0.469035 1517 0.721450 0.692466 0.000000
-6.017734 -5.695599 -0.466512 1519 0.721450 0.692466 0.000000
-6.017731 -5.695607 -0.463962 1517 0.721451 0.692466 0.000000
-6.017940 -5.695796 -0.461420 1509 0.721450 0.692466 0.000000
-6.018144 -5.695995 -0.458888 1515 0.721451 0.692466 0.000000
-6.017503 -5.695390 -0.456284 1503 0.721451 0.692466 0.000000
-6.017443 -5.695326 -0.453734 1507 0.721451 0.692466 0.000000
-6.017543 -5.695429 -0.451183 1521 0.721451 0.692466 0.000000
-6.017323 -5.695212 -0.448615 1517 0.721451 0.692466 0.000000
-6.017035 -5.694952 -0.446048 1501 0.721451 0.692466 0.000000
-6.016831 -5.694747 -0.443480 1503 0.721451 0.692466 0.000000
-6.016175 -5.694129 -0.440876 1497 0.721451 0.692466 0.000000
-6.016109 -5.694074 -0.438326 1503 0.721450 0.692466 0.000000
-6.016740 -5.694666 -0.435820 1525 0.721451 0.692466 0.000000
-6.016465 -5.694405 -0.433253 1505 0.721451 0.692466 0.000000
-6.016390 -5.694342 -0.430694 1501 0.721451 0.692466 0.000000
-6.016855 -5.694775 -0.428179 1511 0.721450 0.692466 0.000000
-6.017383 -5.695272 -0.425664 1505 0.721451 0.692466 0.000000
-6.017682 -5.695560 -0.423131 1505 0.721451 0.692466 0.000000
-6.017607 -5.695498 -0.420572 1503 0.721451 0.692466 0.000000
-6.017332 -5.695236 -0.418004 1513 0.721451 0.692466 0.000000
-6.016945 -5.694860 -0.415428 1497 0.721450 0.692466 0.000000
-6.017190 -5.695103 -0.412896 1507 0.721451 0.692466 0.000000
-6.017653 -5.695536 -0.410371 1495 0.721451 0.692466 0.000000
-6.017849 -5.695728 -0.407839 1505 0.721451 0.692466 0.000000
-6.017249 -5.695155 -0.405245 1497 0.721450 0.692466 0.000000
-6.016911 -5.694829 -0.402678 1501 0.721450 0.692466 0.000000
-6.016788 -5.694715 -0.400119 1497 0.721451 0.692466 0.000000
-6.016824 -5.694754 -0.397569 1505 0.721451 0.692466 0.000000
-6.017066 -5.694984 -0.395036 1515 0.721451 0.692466 0.000000
-6.016617 -5.694557 -0.392461 1497 0.721451 0.692466 0.000000
-6.016764 -5.694698 -0.389919 1521 0.721450 0.692466 0.000000
-6.017006 -5.694928 -0.387387 1513 0.721451 0.692466 0.000000
-6.016867 -5.694801 -0.384828 1507 0.721450 0.692466 0.000000
-6.016323 -5.694285 -0.382243 1497 0.721451 0.692466 0.000000
-6.015444 -5.693450 -0.379641 1491 0.721451 0.692466 0.000000
-6.016171 -5.694132 -0.377134 1497 0.721451 0.692466 0.000000
-6.016510 -5.694465 -0.374601 1497 0.721451 0.692466 0.000000
-6.016545 -5.694490 -0.372061 1505 0.721451 0.692466 0.000000
-6.017098 -5.695020 -0.369546 1517 0.721450 0.692466 0.000000
-6.016593 -5.694535 -0.366960 1487 0.721451 0.692466 0.000000
-6.016732 -5.694669 -0.364419 1497 0.721451 0.692466 0.000000
-6.016855 -5.694791 -0.361878 1509 0.721451 0.692466 0.000000
-6.016406 -5.694365 -0.359312 1499 0.721451 0.692466 0.000000
-6.016322 -5.694282 -0.356753 1507 0.721451 0.692466 0.000000
-6.016406 -5.694358 -0.354212 1497 0.721451 0.692466 0.000000
-6.016848 -5.694786 -0.351687 1489 0.721450 0.692466 0.000000
-6.017034 -5.694958 -0.349146 1499 0.721451 0.692466 0.000000
-6.017109 -5.695028 -0.346605 1497 0.721451 0.692466 0.000000
-6.017447 -5.695347 -0.344072 1509 0.721451 0.692466 0.000000
-6.017308 -5.695221 -0.341523 1503 0.721451 0.692466 0.000000
-6.016582 -5.694533 -0.338930 1499 0.721450 0.692466 0.000000
-6.016013 -5.693998 -0.336355 1503 0.721451 0.692466 0.000000
-6.015556 -5.693565 -0.333779 1501 0.721451 0.692466 0.000000
-6.015369 -5.693387 -0.331221 1491 0.721451 0.692466 0.000000
-6.016129 -5.694108 -0.328714 1501 0.721451 0.692466 0.000000
-6.016515 -5.694478 -0.326190 1503 0.721451 0.692466 0.000000
-6.016057 -5.694045 -0.323614 1499 0.721451 0.692466 0.000000
-6.016282 -5.694248 -0.321082 1505 0.721451 0.692466 0.000000
-6.016668 -5.694618 -0.318548 1505 0.721450 0.692466 0.000000
-6.016530 -5.694492 -0.316000 1491 0.721451 0.692466 0.000000
-6.016549 -5.694505 -0.313449 1499 0.721451 0.692466 0.000000
-6.016188 -5.694160 -0.310883 1487 0.721451 0.692466 0.000000
-6.016095 -5.694071 -0.308334 1489 0.721451 0.692466 0.000000
-6.021293 -5.695400 -0.694271 1503 0.721451 0.692466 0.000000
-6.020494 -5.694642 -0.691619 1485 0.721451 0.692466 0.000000
-6.020330 -5.694482 -0.689040 1489 0.721451 0.692466 0.000000
-6.020477 -5.694623 -0.686499 1503 0.721451 0.692466 0.000000
-6.020467 -5.694624 -0.683929 1495 0.721451 0.692466 0.000000
-6.020517 -5.694662 -0.681378 1493 0.721450 0.692466 0.000000
-6.020776 -5.694904 -0.678846 1497 0.721450 0.692466 0.000000
-6.020811 -5.694942 -0.676285 1495 0.721451 0.692466 0.000000
-6.021221 -5.695332 -0.673772 1503 0.721451 0.692466 0.000000
-6.021106 -5.695224 -0.671193 1509 0.721451 0.692466 0.000000
-6.020187 -5.694357 -0.668531 1487 0.721451 0.692466 0.000000
-6.020184 -5.694351 -0.665971 1493 0.721451 0.692466 0.000000
-6.020545 -5.694689 -0.663448 1499 0.721451 0.692466 0.000000
-6.020635 -5.694771 -0.660897 1505 0.721451 0.692466 0.000000
-6.020720 -5.694862 -0.658346 1503 0.721451 0.692466 0.000000
-6.020390 -5.694543 -0.655749 1511 0.721450 0.692466 0.000000
-6.020052 -5.694232 -0.653152 1501 0.721451 0.692466 0.000000
-6.020787 -5.694920 -0.650675 1503 0.721450 0.692466 0.000000
-6.021459 -5.695558 -0.648179 1511 0.721451 0.692466 0.000000
-6.021073 -5.695195 -0.645582 1499 0.721451 0.692466 0.000000
-6.020735 -5.694870 -0.642985 1497 0.721450 0.692466 0.000000
-6.020923 -5.695055 -0.640444 1495 0.721451 0.692466 0.000000
-6.020648 -5.694794 -0.637856 1499 0.721451 0.692466 0.000000
-6.019936 -5.694119 -0.635223 1489 0.721451 0.692466 0.000000
-6.019964 -5.694151 -0.632672 1501 0.721451 0.692466 0.000000
-6.020374 -5.694541 -0.630148 1505 0.721451 0.692466 0.000000
-6.020194 -5.694368 -0.627570 1501 0.721451 0.692466 0.000000
-6.020222 -5.694387 -0.625020 1505 0.721451 0.692466 0.000000
-6.020099 -5.694273 -0.622441 1507 0.721451 0.692466 0.000000
-6.019919 -5.694100 -0.619872 1491 0.721451 0.692466 0.000000
-6.020210 -5.694382 -0.617340 1503 0.721451 0.692466 0.000000
-6.020604 -5.694759 -0.614816 1515 0.721450 0.692466 0.000000
-6.020106 -5.694280 -0.612211 1517 0.721451 0.692466 0.000000
-6.019919 -5.694102 -0.609632 1509 0.721450 0.692466 0.000000
-6.020591 -5.694739 -0.607146 1511 0.721451 0.692466 0.000000
-6.020778 -5.694912 -0.604604 1509 0.721451 0.692466 0.000000
-6.020695 -5.694843 -0.602035 1513 0.721451 0.692466 0.000000
-6.020611 -5.694760 -0.599476 1509 0.721450 0.692466 0.000000
-6.020273 -5.694435 -0.596879 1501 0.721450 0.692466 0.000000
-6.019919 -5.694111 -0.594292 1491 0.721450 0.692466 0.000000
-6.020043 -5.694232 -0.591741 1499 0.721451 0.692466 0.000000
-6.019960 -5.694150 -0.589181 1499 0.721450 0.692466 0.000000
-6.020097 -5.694270 -0.586630 1511 0.721451 0.692466 0.000000
-6.020332 -5.694494 -0.584098 1503 0.721451 0.692466 0.000000
-6.020345 -5.694514 -0.581547 1509 0.721450 0.692466 0.000000
-6.019896 -5.694088 -0.578942 1499 0.721451 0.692466 0.000000
-6.019176 -5.693405 -0.576318 1489 0.721451 0.692466 0.000000
-6.019617 -5.693820 -0.573804 1495 0.721450 0.692466 0.000000
-6.020002 -5.694190 -0.571280 1501 0.721451 0.692466 0.000000
-6.019648 -5.693852 -0.568694 1503 0.721450 0.692466 0.000000
-6.019723 -5.693923 -0.566143 1495 0.721450 0.692466 0.000000
-6.019799 -5.693993 -0.563592 1497 0.721450 0.692466 0.000000
-6.019866 -5.694057 -0.561042 1491 0.721451 0.692466 0.000000
-6.019982 -5.694172 -0.558500 1497 0.721450 0.692466 0.000000
-6.019636 -5.693841 -0.555914 1505 0.721450 0.692466 0.000000
-6.019282 -5.693503 -0.553327 1499 0.721451 0.692466 0.000000
-6.019342 -5.693561 -0.550776 1497 0.721450 0.692466 0.000000
-6.019617 -5.693830 -0.548244 1495 0.721450 0.692466 0.000000
-6.019739 -5.693937 -0.545702 1497 0.721451 0.692466 0.000000
-6.019966 -5.694154 -0.543160 1503 0.721451 0.692466 0.000000
-6.020352 -5.694525 -0.540646 1507 0.721451 0.692466 0.000000
-6.020633 -5.694786 -0.538114 1511 0.721451 0.692466 0.000000
-6.020479 -5.694647 -0.535545 1505 0.721451 0.692466 0.000000
-6.019847 -5.694048 -0.532931 1515 0.721451 0.692466 0.000000
-6.019120 -5.693360 -0.530318 1503 0.721451 0.692466 0.000000
-6.019028 -5.693271 -0.527749 1513 0.721451 0.692466 0.000000
-6.019301 -5.693526 -0.525226 1523 0.721451 0.692466 0.000000
-6.020053 -5.694240 -0.522729 1515 0.721451 0.692466 0.000000
-6.020375 -5.694546 -0.520206 1519 0.721451 0.692466 0.000000
-6.019640 -5.693852 -0.517593 1507 0.721450 0.692466 0.000000
-6.019700 -5.693910 -0.515042 1495 0.721451 0.692466 0.000000
-6.019496 -5.693718 -0.512464 1493 0.721451 0.692466 0.000000
-6.018865 -5.693120 -0.509860 1503 0.721450 0.692466 0.000000
-6.019290 -5.693522 -0.507346 1515 0.721451 0.692466 0.000000
-6.018920 -5.693172 -0.504759 1503 0.721451 0.692466 0.000000
-6.018869 -5.693128 -0.502199 1503 0.721451 0.692466 0.000000
-6.019683 -5.693892 -0.499712 1515 0.721451 0.692466 0.000000
-6.019473 -5.693695 -0.497144 1515 0.721451 0.692466 0.000000
-6.018889 -5.693148 -0.494539 1521 0.721451 0.692466 0.000000
-6.018303 -5.692586 -0.491945 1499 0.721451 0.692466 0.000000
-6.018626 -5.692893 -0.489422 1511 0.721451 0.692466 0.000000
-6.018781 -5.693040 -0.486880 1519 0.721451 0.692466 0.000000
-6.018570 -5.692843 -0.484312 1511 0.721450 0.692466 0.000000
-6.018725 -5.692989 -0.481770 1521 0.721451 0.692466 0.000000
-6.019096 -5.693347 -0.479247 1515 0.721451 0.692466 0.000000
-6.019091 -5.693341 -0.476687 1513 0.721450 0.692466 0.000000
-6.018874 -5.693138 -0.474119 1505 0.721451 0.692466 0.000000
-6.018931 -5.693182 -0.471568 1513 0.721451 0.692466 0.000000
-6.019032 -5.693285 -0.469027 1519 0.721451 0.692466 0.000000
-6.019457 -5.693686 -0.466513 1519 0.721451 0.692466 0.000000
-6.019556 -5.693776 -0.463962 1513 0.721451 0.692466 0.000000
-6.020181 -5.694376 -0.461456 1529 0.721451 0.692466 0.000000
-6.020238 -5.694419 -0.458906 1509 0.721451 0.692466 0.000000
-6.019328 -5.693559 -0.456294 1501 0.721450 0.692466 0.000000
-6.018786 -5.693058 -0.453699 1499 0.721451 0.692466 0.000000
-6.018932 -5.693198 -0.451158 1511 0.721451 0.692466 0.000000
-6.019031 -5.693287 -0.448617 1509 0.721451 0.692466 0.000000
-6.018122 -5.692428 -0.445995 1507 0.721451 0.692466 0.000000
-6.017958 -5.692268 -0.443437 1509 0.721451 0.692466 0.000000
-6.018424 -5.692715 -0.440912 1499 0.721451 0.692466 0.000000
-6.018523 -5.692804 -0.438371 1505 0.721451 0.692466 0.000000
-6.018351 -5.692638 -0.435813 1517 0.721451 0.692466 0.000000
-6.018658 -5.692933 -0.433280 1513 0.721451 0.692466 0.000000
-6.019337 -5.693576 -0.430773 1513 0.721451 0.692466 0.000000
-6.019794 -5.694017 -0.428259 1517 0.721451 0.692466 0.000000
-6.019791 -5.694011 -0.425709 1507 0.721451 0.692466 0.000000
-6.018658 -5.692934 -0.423080 1499 0.721451 0.692466 0.000000
-6.018224 -5.692519 -0.420494 1497 0.721451 0.692466 0.000000
-6.017990 -5.692303 -0.417926 1497 0.721451 0.692466 0.000000
-6.017867 -5.692189 -0.415377 1489 0.721451 0.692466 0.000000
-6.018229 -5.692527 -0.412843 1509 0.721451 0.692466 0.000000
-6.018789 -5.693063 -0.410338 1509 0.721451 0.692466 0.000000
-6.019150 -5.693401 -0.407805 1503 0.721451 0.692466 0.000000
-6.018708 -5.692980 -0.405229 1513 0.721451 0.692466 0.000000
-6.018420 -5.692720 -0.402661 1507 0.721451 0.692466 0.000000
-6.018137 -5.692439 -0.400094 1505 0.721450 0.692466 0.000000
-6.018435 -5.692727 -0.397561 1499 0.721451 0.692466 0.000000
-6.018788 -5.693058 -0.395038 1503 0.721451 0.692466 0.000000
-6.018603 -5.692894 -0.392469 1511 0.721451 0.692466 0.000000
-6.018638 -5.692919 -0.389929 1519 0.721451 0.692466 0.000000
-6.018991 -5.693250 -0.387396 1529 0.721451 0.692466 0.000000
-6.018860 -5.693130 -0.384837 1527 0.721451 0.692466 0.000000
-6.018785 -5.693067 -0.382287 1513 0.721451 0.692466 0.000000
-6.018923 -5.693187 -0.379746 1501 0.721451 0.692466 0.000000
-6.018730 -5.693017 -0.377188 1505 0.721451 0.692466 0.000000
-6.018764 -5.693041 -0.374637 1513 0.721451 0.692466 0.000000
-6.018896 -5.693170 -0.372096 1509 0.721451 0.692466 0.000000
-6.018599 -5.692890 -0.369529 1509 0.721451 0.692466 0.000000
-6.018108 -5.692418 -0.366953 1505 0.721451 0.692466 0.000000
-6.017810 -5.692138 -0.364386 1513 0.721451 0.692466 0.000000
-6.018045 -5.692362 -0.361844 1497 0.721451 0.692466 0.000000
-6.018598 -5.692891 -0.359329 1507 0.721451 0.692466 0.000000
-6.018625 -5.692910 -0.356788 1521 0.721451 0.692466 0.000000
-6.018011 -5.692338 -0.354204 1501 0.721450 0.692466 0.000000
-6.017879 -5.692204 -0.351645 1495 0.721451 0.692466 0.000000
-6.018121 -5.692433 -0.349113 1503 0.721451 0.692466 0.000000
-6.018347 -5.692651 -0.346571 1507 0.721450 0.692466 0.000000
-6.018320 -5.692626 -0.344021 1509 0.721451 0.692466 0.000000
-6.018022 -5.692346 -0.341464 1495 0.721450 0.692466 0.000000
-6.017716 -5.692059 -0.338896 1491 0.721451 0.692466 0.000000
-6.017943 -5.692277 -0.336364 1505 0.721451 0.692466 0.000000
-6.017859 -5.692194 -0.333805 1489 0.721451 0.692466 0.000000
-6.017618 -5.691972 -0.331247 1487 0.721451 0.692466 0.000000
-6.017947 -5.692284 -0.328714 1503 0.721451 0.692466 0.000000
-6.018077 -5.692399 -0.326173 1505 0.721451 0.692466 0.000000
-6.017771 -5.692112 -0.323616 1507 0.721450 0.692466 0.000000
-6.017474 -5.691833 -0.321048 1503 0.721451 0.692466 0.000000
-6.017701 -5.692050 -0.318516 1495 0.721451 0.692466 0.000000
-6.018356 -5.692661 -0.316000 1499 0.721451 0.692466 0.000000
-6.018209 -5.692528 -0.313441 1497 0.721451 0.692466 0.000000
-6.017855 -5.692190 -0.310884 1485 0.721450 0.692466 0.000000
-6.017922 -5.692255 -0.308334 1505 0.721451 0.692466 0.000000
-6.021990 -5.692434 -0.694153 1483 0.721451 0.692466 0.000000
-6.021985 -5.692428 -0.691583 1479 0.721451 0.692466 0.000000
-6.022513 -5.692925 -0.689088 1493 0.721451 0.692466 0.000000
-6.022923 -5.693314 -0.686564 1495 0.721451 0.692466 0.000000
-6.022815 -5.693212 -0.683995 1499 0.721450 0.692466 0.000000
-6.022278 -5.692702 -0.681370 1495 0.721450 0.692466 0.000000
-6.021631 -5.692091 -0.678736 1495 0.721451 0.692466 0.000000
-6.021453 -5.691933 -0.676157 1487 0.721451 0.692466 0.000000
-6.022084 -5.692526 -0.673661 1485 0.721451 0.692466 0.000000
-6.022175 -5.692608 -0.671110 1501 0.721451 0.692466 0.000000
-6.022482 -5.692902 -0.668587 1497 0.721450 0.692466 0.000000
-6.022518 -5.692942 -0.666027 1507 0.721451 0.692466 0.000000
-6.022243 -5.692680 -0.663440 1507 0.721450 0.692466 0.000000
-6.022548 -5.692960 -0.660907 1511 0.721451 0.692466 0.000000
-6.022370 -5.692801 -0.658328 1501 0.721451 0.692466 0.000000
-6.022310 -5.692738 -0.655759 1513 0.721451 0.692466 0.000000
-6.022560 -5.692974 -0.653226 1513 0.721451 0.692466 0.000000
-6.022596 -5.693012 -0.650676 1507 0.721451 0.692466 0.000000
-6.022790 -5.693190 -0.648134 1513 0.721451 0.692466 0.000000
-6.022453 -5.692879 -0.645537 1507 0.721450 0.692466 0.000000
-6.021901 -5.692357 -0.642922 1499 0.721450 0.692466 0.000000
-6.022413 -5.692842 -0.640417 1513 0.721451 0.692466 0.000000
-6.022775 -5.693180 -0.637894 1499 0.721451 0.692466 0.000000
-6.022381 -5.692810 -0.635288 1491 0.721451 0.692466 0.000000
-6.021780 -5.692236 -0.632673 1487 0.721451 0.692466 0.000000
-6.021387 -5.691867 -0.630067 1495 0.721451 0.692466 0.000000
-6.021940 -5.692397 -0.627571 1497 0.721451 0.692466 0.000000
-6.022985 -5.693385 -0.625112 1511 0.721450 0.692466 0.000000
-6.023077 -5.693468 -0.622561 1523 0.721451 0.692466 0.000000
-6.022619 -5.693034 -0.619955 1517 0.721451 0.692466 0.000000
-6.022226 -5.692665 -0.617359 1509 0.721451 0.692466 0.000000
-6.021777 -5.692239 -0.614753 1507 0.721451 0.692466 0.000000
-6.021384 -5.691870 -0.612156 1501 0.721451 0.692466 0.000000
-6.021148 -5.691640 -0.609579 1501 0.721451 0.692466 0.000000
-6.021598 -5.692074 -0.607064 1497 0.721451 0.692466 0.000000
-6.022054 -5.692501 -0.604550 1515 0.721451 0.692466 0.000000
-6.021867 -5.692323 -0.601972 1503 0.721450 0.692466 0.000000
-6.021888 -5.692349 -0.599421 1501 0.721451 0.692466 0.000000
-6.021861 -5.692324 -0.596861 1509 0.721451 0.692466 0.000000
-6.021935 -5.692394 -0.594311 1501 0.721450 0.692466 0.000000
-6.022122 -5.692566 -0.591769 1501 0.721451 0.692466 0.000000
-6.021880 -5.692345 -0.589191 1495 0.721450 0.692466 0.000000
-6.021740 -5.692204 -0.586622 1499 0.721451 0.692466 0.000000
-6.022134 -5.692580 -0.584099 1501 0.721451 0.692466 0.000000
-6.022424 -5.692861 -0.581566 1505 0.721451 0.692466 0.000000
-6.022230 -5.692677 -0.578998 1511 0.721451 0.692466 0.000000
-6.021932 -5.692397 -0.576410 1499 0.721451 0.692466 0.000000
-6.021910 -5.692364 -0.573851 1505 0.721451 0.692466 0.000000
-6.022240 -5.692676 -0.571327 1507 0.721451 0.692466 0.000000
-6.022363 -5.692798 -0.568776 1511 0.721450 0.692466 0.000000
-6.021803 -5.692270 -0.566171 1501 0.721450 0.692466 0.000000
-6.021552 -5.692027 -0.563594 1503 0.721451 0.692466 0.000000
-6.021406 -5.691895 -0.561025 1503 0.721451 0.692466 0.000000
-6.021157 -5.691666 -0.558447 1513 0.721451 0.692466 0.000000
-6.021390 -5.691875 -0.555905 1501 0.721451 0.692466 0.000000
-6.021989 -5.692442 -0.553409 1501 0.721451 0.692466 0.000000
-6.022479 -5.692909 -0.550895 1499 0.721451 0.692466 0.000000
-6.022491 -5.692929 -0.548344 1503 0.721451 0.692466 0.000000
-6.021659 -5.692132 -0.545712 1493 0.721451 0.692466 0.000000
-6.021886 -5.692349 -0.543180 1519 0.721451 0.692466 0.000000
-6.021946 -5.692407 -0.540629 1515 0.721450 0.692466 0.000000
-6.021585 -5.692063 -0.538043 1511 0.721451 0.692466 0.000000
-6.021811 -5.692280 -0.535501 1499 0.721450 0.692466 0.000000
-6.021235 -5.691739 -0.532896 1503 0.721450 0.692466 0.000000
-6.020873 -5.691395 -0.530309 1507 0.721450 0.692466 0.000000
-6.021362 -5.691860 -0.527794 1509 0.721451 0.692466 0.000000
-6.021374 -5.691866 -0.525244 1515 0.721451 0.692466 0.000000
-6.021171 -5.691676 -0.522676 1503 0.721451 0.692466 0.000000
-6.021071 -5.691580 -0.520107 1495 0.721451 0.692466 0.000000
-6.021242 -5.691740 -0.517575 1497 0.721451 0.692466 0.000000
-6.021453 -5.691945 -0.515033 1495 0.721451 0.692466 0.000000
-6.021354 -5.691850 -0.512474 1499 0.721451 0.692466 0.000000
-6.021516 -5.692002 -0.509933 1509 0.721451 0.692466 0.000000
-6.020940 -5.691461 -0.507328 1495 0.721451 0.692466 0.000000
-6.019991 -5.690570 -0.504697 1503 0.721451 0.692466 0.000000
-6.019787 -5.690365 -0.502129 1497 0.721451 0.692466 0.000000
-6.020420 -5.690972 -0.499633 1491 0.721451 0.692466 0.000000
-6.021115 -5.691628 -0.497136 1511 0.721451 0.692466 0.000000
-6.021064 -5.691585 -0.494577 1513 0.721450 0.692466 0.000000
-6.020854 -5.691388 -0.492008 1523 0.721451 0.692466 0.000000
-6.020912 -5.691431 -0.489458 1527 0.721451 0.692466 0.000000
-6.021075 -5.691585 -0.486916 1517 0.721451 0.692466 0.000000
-6.020745 -5.691279 -0.484339 1509 0.721451 0.692466 0.000000
-6.020687 -5.691229 -0.481780 1519 0.721451 0.692466 0.000000
-6.021063 -5.691580 -0.479256 1513 0.721451 0.692466 0.000000
-6.021163 -5.691682 -0.476715 1509 0.721451 0.692466 0.000000
-6.020794 -5.691333 -0.474129 1509 0.721450 0.692466 0.000000
-6.020852 -5.691376 -0.471578 1519 0.721451 0.692466 0.000000
-6.021691 -5.692173 -0.469090 1531 0.721451 0.692466 0.000000
-6.021791 -5.692276 -0.466549 1531 0.721451 0.692466 0.000000
-6.020992 -5.691518 -0.463936 1517 0.721451 0.692466 0.000000
-6.020504 -5.691060 -0.461351 1517 0.721451 0.692466 0.000000
-6.020666 -5.691213 -0.458809 1523 0.721451 0.692466 0.000000
-6.020868 -5.691397 -0.456267 1513 0.721450 0.692466 0.000000
-6.020642 -5.691188 -0.453699 1501 0.721451 0.692466 0.000000
-6.020853 -5.691393 -0.451167 1499 0.721451 0.692466 0.000000
-6.021428 -5.691927 -0.448662 1515 0.721451 0.692466 0.000000
-6.021210 -5.691723 -0.446094 1529 0.721450 0.692466 0.000000
-6.020825 -5.691361 -0.443508 1529 0.721451 0.692466 0.000000
-6.020550 -5.691100 -0.440940 1499 0.721451 0.692466 0.000000
-6.020379 -5.690934 -0.438372 1505 0.721451 0.692466 0.000000
-6.020693 -5.691234 -0.435849 1505 0.721451 0.692466 0.000000
-6.021159 -5.691681 -0.433324 1513 0.721451 0.692466 0.000000
-6.021298 -5.691816 -0.430793 1513 0.721451 0.692466 0.000000
-6.020976 -5.691504 -0.428216 1513 0.721451 0.692466 0.000000
-6.020804 -5.691337 -0.425647 1509 0.721451 0.692466 0.000000
-6.021317 -5.691822 -0.423132 1501 0.721451 0.692466 0.000000
-6.021139 -5.691664 -0.420574 1503 0.721451 0.692466 0.000000
-6.020221 -5.690798 -0.417963 1499 0.721451 0.692466 0.000000
-6.020161 -5.690734 -0.415403 1497 0.721451 0.692466 0.000000
-6.020611 -5.691168 -0.412889 1515 0.721451 0.692466 0.000000
-6.021027 -5.691549 -0.410365 1509 0.721451 0.692466 0.000000
-6.021062 -5.691588 -0.407815 1505 0.721450 0.692466 0.000000
-6.020510 -5.691066 -0.405230 1509 0.721451 0.692466 0.000000
-6.019966 -5.690550 -0.402645 1503 0.721451 0.692466 0.000000
-6.019938 -5.690526 -0.400095 1503 0.721451 0.692466 0.000000
-6.020188 -5.690761 -0.397562 1505 0.721451 0.692466 0.000000
-6.020271 -5.690838 -0.395012 1509 0.721451 0.692466 0.000000
-6.020792 -5.691329 -0.392497 1519 0.721451 0.692466 0.000000
-6.021139 -5.691669 -0.389973 1507 0.721450 0.692466 0.000000
-6.021595 -5.692095 -0.387449 1521 0.721451 0.692466 0.000000
-6.021194 -5.691720 -0.384873 1525 0.721451 0.692466 0.000000
-6.020158 -5.690745 -0.382262 1513 0.721451 0.692466 0.000000
-6.020193 -5.690771 -0.379712 1509 0.721451 0.692466 0.000000
-6.020284 -5.690854 -0.377171 1503 0.721451 0.692466 0.000000
-6.020359 -5.690923 -0.374620 1505 0.721451 0.692466 0.000000
-6.020117 -5.690701 -0.372062 1495 0.721450 0.692466 0.000000
-6.020145 -5.690734 -0.369512 1489 0.721450 0.692466 0.000000
-6.020331 -5.690906 -0.366970 1501 0.721451 0.692466 0.000000
-6.019994 -5.690581 -0.364403 1511 0.721450 0.692466 0.000000
-6.020117 -5.690703 -0.361862 1513 0.721451 0.692466 0.000000
-6.020146 -5.690736 -0.359322 1505 0.721451 0.692466 0.000000
-6.020005 -5.690595 -0.356763 1503 0.721451 0.692466 0.000000
-6.020296 -5.690876 -0.354230 1515 0.721450 0.692466 0.000000
-6.019896 -5.690501 -0.351654 1497 0.721451 0.692466 0.000000
-6.019493 -5.690112 -0.349088 1497 0.721450 0.692466 0.000000
-6.020157 -5.690743 -0.346572 1507 0.721451 0.692466 0.000000
-6.020495 -5.691062 -0.344048 1513 0.721451 0.692466 0.000000
-6.019824 -5.690432 -0.341465 1505 0.721450 0.692466 0.000000
-6.019581 -5.690196 -0.338897 1501 0.721451 0.692466 0.000000
-6.020078 -5.690668 -0.336382 1501 0.721451 0.692466 0.000000
-6.019780 -5.690389 -0.333815 1499 0.721451 0.692466 0.000000
-6.020220 -5.690803 -0.331291 1505 0.721451 0.692466 0.000000
-6.020407 -5.690975 -0.328749 1513 0.721451 0.692466 0.000000
-6.020895 -5.691440 -0.326234 1521 0.721451 0.692466 0.000000
-6.021552 -5.692065 -0.323718 1511 0.721450 0.692466 0.000000
-6.021030 -5.691568 -0.321143 1503 0.721451 0.692466 0.000000
-6.020789 -5.691346 -0.318585 1513 0.721451 0.692466 0.000000
-6.020427 -5.691002 -0.316018 1519 0.721451 0.692466 0.000000
-6.020176 -5.690760 -0.313451 1505 0.721451 0.692466 0.000000
-6.019767 -5.690378 -0.310884 1477 0.721451 0.692466 0.000000
-6.019938 -5.690538 -0.308353 1487 0.721451 0.692466 0.000000
-6.024642 -5.691330 -0.694245 1495 0.721451 0.692466 0.000000
-6.025066 -5.691719 -0.691731 1505 0.721451 0.692466 0.000000
-6.024958 -5.691617 -0.689152 1503 0.721451 0.692466 0.000000
-6.024573 -5.691253 -0.686546 1495 0.721451 0.692466 0.000000
-6.024347 -5.691044 -0.683968 1485 0.721451 0.692466 0.000000
-6.024288 -5.690994 -0.681398 1489 0.721451 0.692466 0.000000
-6.024808 -5.691485 -0.678894 1495 0.721451 0.692466 0.000000
-6.024851 -5.691515 -0.676333 1499 0.721451 0.692466 0.000000
-6.024370 -5.691063 -0.673718 1499 0.721451 0.692466 0.000000
-6.024517 -5.691205 -0.671176 1499 0.721451 0.692466 0.000000
-6.024919 -5.691587 -0.668652 1509 0.721451 0.692466 0.000000
-6.024541 -5.691230 -0.666056 1499 0.721450 0.692466 0.000000
-6.024529 -5.691218 -0.663496 1499 0.721451 0.692466 0.000000
-6.024509 -5.691199 -0.660926 1493 0.721451 0.692466 0.000000
-6.024545 -5.691238 -0.658376 1513 0.721451 0.692466 0.000000
-6.024693 -5.691379 -0.655824 1511 0.721451 0.692466 0.000000
-6.024411 -5.691112 -0.653237 1511 0.721451 0.692466 0.000000
-6.024288 -5.690997 -0.650658 1499 0.721450 0.692466 0.000000
-6.025125 -5.691781 -0.648190 1509 0.721451 0.692466 0.000000
-6.024890 -5.691564 -0.645602 1507 0.721450 0.692466 0.000000
-6.023981 -5.690705 -0.642950 1497 0.721451 0.692466 0.000000
-6.023691 -5.690431 -0.640363 1501 0.721451 0.692466 0.000000
-6.023457 -5.690215 -0.637775 1487 0.721451 0.692466 0.000000
-6.023491 -5.690240 -0.635215 1493 0.721450 0.692466 0.000000
-6.023528 -5.690279 -0.632665 1491 0.721450 0.692466 0.000000
-6.023930 -5.690662 -0.630151 1493 0.721451 0.692466 0.000000
-6.024545 -5.691242 -0.627655 1515 0.721451 0.692466 0.000000
-6.024691 -5.691368 -0.625103 1509 0.721450 0.692466 0.000000
-6.024559 -5.691248 -0.622535 1509 0.721450 0.692466 0.000000
-6.023904 -5.690630 -0.619911 1517 0.721451 0.692466 0.000000
-6.022922 -5.689699 -0.617250 1499 0.721451 0.692466 0.000000
-6.023483 -5.690236 -0.614744 1495 0.721450 0.692466 0.000000
-6.023829 -5.690561 -0.612221 1507 0.721450 0.692466 0.000000
-6.023428 -5.690186 -0.609625 1503 0.721451 0.692466 0.000000
-6.023613 -5.690357 -0.607083 1497 0.721451 0.692466 0.000000
-6.023491 -5.690244 -0.604514 1509 0.721451 0.692466 0.000000
-6.023241 -5.690015 -0.601936 1503 0.721451 0.692466 0.000000
-6.024063 -5.690786 -0.599459 1507 0.721451 0.692466 0.000000
-6.024257 -5.690964 -0.596917 1507 0.721450 0.692466 0.000000
-6.023634 -5.690385 -0.594303 1507 0.721450 0.692466 0.000000
-6.023447 -5.690207 -0.591724 1493 0.721451 0.692466 0.000000
-6.023736 -5.690475 -0.589191 1493 0.721451 0.692466 0.000000
-6.023605 -5.690353 -0.586623 1499 0.721450 0.692466 0.000000
-6.023570 -5.690322 -0.584063 1495 0.721451 0.692466 0.000000
-6.023956 -5.690693 -0.581549 1505 0.721451 0.692466 0.000000
-6.024031 -5.690763 -0.578998 1513 0.721451 0.692466 0.000000
-6.023796 -5.690533 -0.576411 1503 0.721451 0.692466 0.000000
-6.023442 -5.690196 -0.573824 1505 0.721450 0.692466 0.000000
-6.023144 -5.689916 -0.571237 1503 0.721450 0.692466 0.000000
-6.023419 -5.690184 -0.568714 1505 0.721451 0.692466 0.000000
-6.023549 -5.690298 -0.566163 1491 0.721450 0.692466 0.000000
-6.023354 -5.690114 -0.563595 1483 0.721451 0.692466 0.000000
-6.023589 -5.690337 -0.561052 1495 0.721451 0.692466 0.000000
-6.024348 -5.691058 -0.558565 1529 0.721451 0.692466 0.000000
-6.024035 -5.690765 -0.555988 1521 0.721451 0.692466 0.000000
-6.023578 -5.690332 -0.553392 1511 0.721451 0.692466 0.000000
-6.023272 -5.690046 -0.550805 1499 0.721451 0.692466 0.000000
-6.023339 -5.690110 -0.548254 1511 0.721451 0.692466 0.000000
-6.023350 -5.690116 -0.545704 1509 0.721450 0.692466 0.000000
-6.023577 -5.690333 -0.543162 1511 0.721450 0.692466 0.000000
-6.023597 -5.690346 -0.540612 1511 0.721450 0.692466 0.000000
-6.022966 -5.689761 -0.537997 1501 0.721450 0.692466 0.000000
-6.023248 -5.690022 -0.535475 1513 0.721451 0.692466 0.000000
-6.023729 -5.690482 -0.532960 1509 0.721451 0.692466 0.000000
-6.023112 -5.689895 -0.530346 1497 0.721451 0.692466 0.000000
-6.022902 -5.689698 -0.527778 1495 0.721451 0.692466 0.000000
-6.023024 -5.689806 -0.525237 1499 0.721451 0.692466 0.000000
-6.023132 -5.689915 -0.522686 1497 0.721450 0.692466 0.000000
-6.023032 -5.689820 -0.520126 1499 0.721451 0.692466 0.000000
-6.023252 -5.690031 -0.517594 1497 0.721450 0.692466 0.000000
-6.023573 -5.690337 -0.515061 1503 0.721451 0.692466 0.000000
-6.023108 -5.689898 -0.512465 1505 0.721450 0.692466 0.000000
-6.023168 -5.689956 -0.509925 1503 0.721451 0.692466 0.000000
-6.023283 -5.690057 -0.507374 1505 0.721451 0.692466 0.000000
-6.023494 -5.690262 -0.504842 1509 0.721450 0.692466 0.000000
-6.023767 -5.690517 -0.502309 1499 0.721450 0.692466 0.000000
-6.023079 -5.689860 -0.499696 1505 0.721450 0.692466 0.000000
-6.022814 -5.689620 -0.497128 1513 0.721451 0.692466 0.000000
-6.023510 -5.690276 -0.494631 1517 0.721451 0.692466 0.000000
-6.023083 -5.689867 -0.492035 1507 0.721451 0.692466 0.000000
-6.022659 -5.689474 -0.489449 1503 0.721451 0.692466 0.000000
-6.023035 -5.689824 -0.486926 1515 0.721451 0.692466 0.000000
-6.023031 -5.689817 -0.484376 1509 0.721451 0.692466 0.000000
-6.022766 -5.689577 -0.481798 1515 0.721450 0.692466 0.000000
-6.022603 -5.689417 -0.479240 1519 0.721451 0.692466 0.000000
-6.022495 -5.689315 -0.476680 1515 0.721450 0.692466 0.000000
-6.022491 -5.689309 -0.474120 1509 0.721450 0.692466 0.000000
-6.023131 -5.689922 -0.471624 1517 0.721450 0.692466 0.000000
-6.023398 -5.690171 -0.469092 1521 0.721451 0.692466 0.000000
-6.022909 -5.689713 -0.466496 1517 0.721451 0.692466 0.000000
-6.021951 -5.688801 -0.463875 1513 0.721451 0.692466 0.000000
-6.021138 -5.688044 -0.461263 1499 0.721451 0.692466 0.000000
-6.021514 -5.688395 -0.458739 1499 0.721451 0.692466 0.000000
-6.022256 -5.689088 -0.456242 1499 0.721451 0.692466 0.000000
-6.022611 -5.689434 -0.453719 1497 0.721451 0.692466 0.000000
-6.022606 -5.689428 -0.451169 1509 0.721451 0.692466 0.000000
-6.022443 -5.689268 -0.448600 1513 0.721451 0.692466 0.000000
-6.022693 -5.689504 -0.446068 1519 0.721451 0.692466 0.000000
-6.022897 -5.689703 -0.443526 1523 0.721450 0.692466 0.000000
-6.022678 -5.689499 -0.440968 1519 0.721451 0.692466 0.000000
-6.022666 -5.689487 -0.438408 1513 0.721450 0.692466 0.000000
-6.022543 -5.689372 -0.435849 1501 0.721450 0.692466 0.000000
-6.021688 -5.688556 -0.433237 1501 0.721450 0.692466 0.000000
-6.022043 -5.688901 -0.430714 1499 0.721450 0.692466 0.000000
-6.022991 -5.689786 -0.428225 1515 0.721451 0.692466 0.000000
-6.022973 -5.689781 -0.425675 1517 0.721451 0.692466 0.000000
-6.022380 -5.689214 -0.423090 1513 0.721451 0.692466 0.000000
-6.021573 -5.688450 -0.420478 1499 0.721451 0.692466 0.000000
-6.021760 -5.688635 -0.417946 1495 0.721451 0.692466 0.000000
-6.022336 -5.689170 -0.415431 1507 0.721450 0.692466 0.000000
-6.022585 -5.689406 -0.412898 1501 0.721450 0.692466 0.000000
-6.022623 -5.689445 -0.410348 1507 0.721451 0.692466 0.000000
-6.022340 -5.689178 -0.407780 1505 0.721451 0.692466 0.000000
-6.022320 -5.689159 -0.405230 1503 0.721451 0.692466 0.000000
-6.022301 -5.689140 -0.402681 1497 0.721451 0.692466 0.000000
-6.022329 -5.689174 -0.400130 1487 0.721451 0.692466 0.000000
-6.022309 -5.689154 -0.397580 1495 0.721451 0.692466 0.000000
-6.022351 -5.689185 -0.395030 1497 0.721451 0.692466 0.000000
-6.022961 -5.689773 -0.392524 1521 0.721451 0.692466 0.000000
-6.022781 -5.689601 -0.389956 1511 0.721451 0.692466 0.000000
-6.022277 -5.689130 -0.387380 1501 0.721451 0.692466 0.000000
-6.022161 -5.689009 -0.384821 1515 0.721451 0.692466 0.000000
-6.021649 -5.688532 -0.382236 1507 0.721450 0.692466 0.000000
-6.021788 -5.688666 -0.379705 1511 0.721451 0.692466 0.000000
-6.022190 -5.689049 -0.377171 1501 0.721451 0.692466 0.000000
-6.021898 -5.688761 -0.374604 1501 0.721451 0.692466 0.000000
-6.021338 -5.688233 -0.372029 1493 0.721451 0.692466 0.000000
-6.021581 -5.688463 -0.369496 1489 0.721451 0.692466 0.000000
-6.022355 -5.689196 -0.366989 1509 0.721450 0.692466 0.000000
-6.022438 -5.689272 -0.364448 1497 0.721451 0.692466 0.000000
-6.022403 -5.689241 -0.361899 1493 0.721451 0.692466 0.000000
-6.022051 -5.688918 -0.359322 1491 0.721451 0.692466 0.000000
-6.021815 -5.688688 -0.356764 1507 0.721451 0.692466 0.000000
-6.021677 -5.688560 -0.354205 1507 0.721451 0.692466 0.000000
-6.021752 -5.688631 -0.351664 1503 0.721451 0.692466 0.000000
-6.021938 -5.688803 -0.349123 1497 0.721450 0.692466 0.000000
-6.022173 -5.689027 -0.346590 1519 0.721450 0.692466 0.000000
-6.022510 -5.689345 -0.344057 1513 0.721450 0.692466 0.000000
-6.022586 -5.689415 -0.341516 1503 0.721451 0.692466 0.000000
-6.022026 -5.688888 -0.338932 1499 0.721450 0.692466 0.000000
-6.021720 -5.688601 -0.336374 1493 0.721451 0.692466 0.000000
-6.021311 -5.688220 -0.333798 1491 0.721451 0.692466 0.000000
-6.021387 -5.688290 -0.331257 1491 0.721451 0.692466 0.000000
-6.021510 -5.688412 -0.328716 1501 0.721451 0.692466 0.000000
-6.021745 -5.688635 -0.326184 1503 0.721450 0.692466 0.000000
-6.022456 -5.689304 -0.323667 1503 0.721450 0.692466 0.000000
-6.022683 -5.689522 -0.321135 1503 0.721451 0.692466 0.000000
-6.022002 -5.688871 -0.318551 1507 0.721451 0.692466 0.000000
-6.020847 -5.687789 -0.315942 1499 0.721450 0.692466 0.000000
-6.020653 -5.687605 -0.313384 1495 0.721451 0.692466 0.000000
-6.021196 -5.688115 -0.310869 1485 0.721451 0.692466 0.000000
-6.021374 -5.688280 -0.308327 1491 0.721451 0.692466 0.000000
-6.026044 -5.688892 -0.694191 1497 0.721451 0.692466 0.000000
-6.026614 -5.689434 -0.691695 1495 0.721450 0.692466 0.000000
-6.027133 -5.689925 -0.689190 1495 0.721451 0.692466 0.000000
-6.026445 -5.689268 -0.686547 1505 0.721451 0.692466 0.000000
-6.026268 -5.689110 -0.683968 1503 0.721451 0.692466 0.000000
-6.026582 -5.689410 -0.681445 1513 0.721451 0.692466 0.000000
-6.026632 -5.689448 -0.678885 1501 0.721450 0.692466 0.000000
-6.026717 -5.689538 -0.676334 1497 0.721451 0.692466 0.000000
-6.026975 -5.689780 -0.673802 1509 0.721451 0.692466 0.000000
-6.027336 -5.690118 -0.671278 1511 0.721451 0.692466 0.000000
-6.026951 -5.689755 -0.668672 1509 0.721451 0.692466 0.000000
-6.026413 -5.689245 -0.666057 1501 0.721450 0.692466 0.000000
-6.026077 -5.688934 -0.663460 1503 0.721450 0.692466 0.000000
-6.025905 -5.688768 -0.660881 1501 0.721451 0.692466 0.000000
-6.026474 -5.689311 -0.658376 1517 0.721451 0.692466 0.000000
-6.026565 -5.689394 -0.655825 1507 0.721451 0.692466 0.000000
-6.026180 -5.689031 -0.653229 1501 0.721451 0.692466 0.000000
-6.026222 -5.689062 -0.650668 1499 0.721451 0.692466 0.000000
-6.026568 -5.689401 -0.648145 1519 0.721451 0.692466 0.000000
-6.026184 -5.689039 -0.645548 1513 0.721450 0.692466 0.000000
-6.025956 -5.688815 -0.642960 1503 0.721451 0.692466 0.000000
-6.026406 -5.689249 -0.640446 1503 0.721451 0.692466 0.000000
-6.025654 -5.688529 -0.637813 1497 0.721451 0.692466 0.000000
-6.024838 -5.687757 -0.635161 1493 0.721450 0.692466 0.000000
-6.025034 -5.687949 -0.632629 1485 0.721451 0.692466 0.000000
-6.025967 -5.688822 -0.630160 1489 0.721451 0.692466 0.000000
-6.026577 -5.689410 -0.627664 1503 0.721451 0.692466 0.000000
-6.026294 -5.689142 -0.625077 1513 0.721450 0.692466 0.000000
-6.026440 -5.689269 -0.622535 1503 0.721451 0.692466 0.000000
-6.026301 -5.689142 -0.619957 1511 0.721451 0.692466 0.000000
-6.025956 -5.688825 -0.617370 1509 0.721450 0.692466 0.000000
-6.026142 -5.688996 -0.614828 1505 0.721451 0.692466 0.000000
-6.026020 -5.688882 -0.612259 1509 0.721451 0.692466 0.000000
-6.025562 -5.688449 -0.609653 1503 0.721451 0.692466 0.000000
-6.025645 -5.688525 -0.607102 1501 0.721450 0.692466 0.000000
-6.025617 -5.688500 -0.604543 1499 0.721450 0.692466 0.000000
-6.025638 -5.688527 -0.601982 1501 0.721451 0.692466 0.000000
-6.025776 -5.688647 -0.599441 1499 0.721451 0.692466 0.000000
-6.025590 -5.688483 -0.596863 1493 0.721451 0.692466 0.000000
-6.025347 -5.688247 -0.594285 1491 0.721450 0.692466 0.000000
-6.025270 -5.688170 -0.591716 1503 0.721451 0.692466 0.000000
-6.025443 -5.688344 -0.589184 1505 0.721451 0.692466 0.000000
-6.025851 -5.688718 -0.586660 1507 0.721450 0.692466 0.000000
-6.026085 -5.688941 -0.584128 1503 0.721451 0.692466 0.000000
-6.026154 -5.689006 -0.581577 1507 0.721451 0.692466 0.000000
-6.025704 -5.688579 -0.578971 1493 0.721451 0.692466 0.000000
-6.024873 -5.687796 -0.576339 1499 0.721450 0.692466 0.000000
-6.025045 -5.687970 -0.573797 1513 0.721450 0.692466 0.000000
-6.025549 -5.688434 -0.571293 1511 0.721451 0.692466 0.000000
-6.025196 -5.688109 -0.568706 1501 0.721451 0.692466 0.000000
-6.024358 -5.687320 -0.566074 1491 0.721451 0.692466 0.000000
-6.024536 -5.687486 -0.563532 1485 0.721450 0.692466 0.000000
-6.025350 -5.688250 -0.561044 1511 0.721451 0.692466 0.000000
-6.025577 -5.688468 -0.558512 1521 0.721451 0.692466 0.000000
-6.025279 -5.688187 -0.555925 1511 0.721451 0.692466 0.000000
-6.025132 -5.688055 -0.553356 1507 0.721451 0.692466 0.000000
-6.025200 -5.688118 -0.550815 1495 0.721451 0.692466 0.000000
-6.025322 -5.688226 -0.548264 1503 0.721451 0.692466 0.000000
-6.025287 -5.688195 -0.545704 1503 0.721451 0.692466 0.000000
-6.025187 -5.688099 -0.543145 1499 0.721450 0.692466 0.000000
-6.025255 -5.688164 -0.540595 1507 0.721451 0.692466 0.000000
-6.025100 -5.688024 -0.538026 1511 0.721451 0.692466 0.000000
-6.025279 -5.688190 -0.535484 1513 0.721451 0.692466 0.000000
-6.025187 -5.688101 -0.532925 1507 0.721451 0.692466 0.000000
-6.025144 -5.688063 -0.530365 1491 0.721451 0.692466 0.000000
-6.025361 -5.688260 -0.527833 1485 0.721451 0.692466 0.000000
-6.025263 -5.688179 -0.525264 1491 0.721450 0.692466 0.000000
-6.025426 -5.688332 -0.522722 1505 0.721451 0.692466 0.000000
-6.024905 -5.687835 -0.520127 1503 0.721451 0.692466 0.000000
-6.024813 -5.687746 -0.517568 1511 0.721451 0.692466 0.000000
-6.025556 -5.688453 -0.515071 1517 0.721451 0.692466 0.000000
-6.025305 -5.688211 -0.512493 1515 0.721451 0.692466 0.000000
-6.024722 -5.687664 -0.509899 1509 0.721451 0.692466 0.000000
-6.025092 -5.688022 -0.507375 1503 0.721451 0.692466 0.000000
-6.025366 -5.688277 -0.504843 1505 0.721451 0.692466 0.000000
-6.025266 -5.688181 -0.502283 1505 0.721451 0.692466 0.000000
-6.025270 -5.688181 -0.499723 1511 0.721450 0.692466 0.000000
-6.024741 -5.687678 -0.497128 1519 0.721451 0.692466 0.000000
-6.024849 -5.687787 -0.494587 1525 0.721451 0.692466 0.000000
-6.025060 -5.687992 -0.492045 1513 0.721451 0.692466 0.000000
-6.024587 -5.687546 -0.489460 1513 0.721451 0.692466 0.000000
-6.024693 -5.687642 -0.486909 1525 0.721451 0.692466 0.000000
-6.025332 -5.688240 -0.484412 1525 0.721451 0.692466 0.000000
-6.025592 -5.688497 -0.481880 1517 0.721451 0.692466 0.000000
-6.024745 -5.687687 -0.479258 1503 0.721451 0.692466 0.000000
-6.024161 -5.687140 -0.476663 1505 0.721450 0.692466 0.000000
-6.024158 -5.687133 -0.474103 1511 0.721450 0.692466 0.000000
-6.024098 -5.687083 -0.471554 1503 0.721450 0.692466 0.000000
-6.024626 -5.687580 -0.469039 1513 0.721450 0.692466 0.000000
-6.025210 -5.688135 -0.466533 1533 0.721451 0.692466 0.000000
-6.024625 -5.687573 -0.463939 1513 0.721451 0.692466 0.000000
-6.024248 -5.687217 -0.461352 1497 0.721451 0.692466 0.000000
-6.024714 -5.687665 -0.458838 1511 0.721451 0.692466 0.000000
-6.024971 -5.687907 -0.456305 1507 0.721451 0.692466 0.000000
-6.024546 -5.687498 -0.453719 1507 0.721451 0.692466 0.000000
-6.024057 -5.687040 -0.451134 1497 0.721451 0.692466 0.000000
-6.024045 -5.687027 -0.448584 1511 0.721451 0.692466 0.000000
-6.024296 -5.687278 -0.446051 1503 0.721451 0.692466 0.000000
-6.024617 -5.687570 -0.443518 1509 0.721451 0.692466 0.000000
-6.024972 -5.687915 -0.440995 1515 0.721450 0.692466 0.000000
-6.025014 -5.687946 -0.438444 1503 0.721451 0.692466 0.000000
-6.024637 -5.687590 -0.435868 1501 0.721451 0.692466 0.000000
-6.024038 -5.687030 -0.433273 1503 0.721451 0.692466 0.000000
-6.024178 -5.687165 -0.430732 1489 0.721451 0.692466 0.000000
-6.024595 -5.687560 -0.428208 1505 0.721451 0.692466 0.000000
-6.024637 -5.687592 -0.425668 1505 0.721451 0.692466 0.000000
-6.024681 -5.687636 -0.423117 1511 0.721450 0.692466 0.000000
-6.024231 -5.687210 -0.420531 1507 0.721450 0.692466 0.000000
-6.024006 -5.687000 -0.417973 1501 0.721451 0.692466 0.000000
-6.024207 -5.687185 -0.415431 1505 0.721451 0.692466 0.000000
-6.024403 -5.687376 -0.412899 1501 0.721450 0.692466 0.000000
-6.024702 -5.687664 -0.410367 1513 0.721451 0.692466 0.000000
-6.024211 -5.687192 -0.407781 1499 0.721450 0.692466 0.000000
-6.023867 -5.686875 -0.405204 1505 0.721451 0.692466 0.000000
-6.024332 -5.687308 -0.402690 1513 0.721451 0.692466 0.000000
-6.024574 -5.687538 -0.400158 1509 0.721450 0.692466 0.000000
-6.024610 -5.687577 -0.397607 1513 0.721451 0.692466 0.000000
-6.024590 -5.687558 -0.395057 1507 0.721451 0.692466 0.000000
-6.024887 -5.687831 -0.392524 1523 0.721451 0.692466 0.000000
-6.024710 -5.687674 -0.389966 1511 0.721451 0.692466 0.000000
-6.024585 -5.687545 -0.387407 1517 0.721451 0.692466 0.000000
-6.024392 -5.687375 -0.384849 1509 0.721451 0.692466 0.000000
-6.023791 -5.686801 -0.382254 1491 0.721451 0.692466 0.000000
-6.023604 -5.686623 -0.379696 1489 0.721451 0.692466 0.000000
-6.023687 -5.686699 -0.377155 1491 0.721451 0.692466 0.000000
-6.024199 -5.687183 -0.374630 1509 0.721451 0.692466 0.000000
-6.024228 -5.687216 -0.372090 1501 0.721451 0.692466 0.000000
-6.024152 -5.687140 -0.369531 1495 0.721451 0.692466 0.000000
-6.024165 -5.687160 -0.366991 1497 0.721451 0.692466 0.000000
-6.023986 -5.686988 -0.364422 1501 0.721451 0.692466 0.000000
-6.024229 -5.687218 -0.361890 1509 0.721451 0.692466 0.000000
-6.024463 -5.687441 -0.359358 1509 0.721451 0.692466 0.000000
-6.024482 -5.687454 -0.356807 1507 0.721451 0.692466 0.000000
-6.023659 -5.686677 -0.354215 1501 0.721451 0.692466 0.000000
-6.023370 -5.686404 -0.351648 1493 0.721450 0.692466 0.000000
-6.024820 -5.687780 -0.349184 1509 0.721451 0.692466 0.000000
-6.025221 -5.688150 -0.346650 1509 0.721451 0.692466 0.000000
-6.024122 -5.687126 -0.344050 1491 0.721451 0.692466 0.000000
-6.023719 -5.686737 -0.341474 1487 0.721450 0.692466 0.000000
-6.023684 -5.686705 -0.338924 1487 0.721450 0.692466 0.000000
-6.023600 -5.686622 -0.336375 1489 0.721450 0.692466 0.000000
-6.024208 -5.687196 -0.333859 1505 0.721451 0.692466 0.000000
-6.024483 -5.687464 -0.331327 1511 0.721451 0.692466 0.000000
-6.023707 -5.686725 -0.328734 1501 0.721451 0.692466 0.000000
-6.023029 -5.686089 -0.326150 1501 0.721450 0.692466 0.000000
-6.022841 -5.685910 -0.323592 1499 0.721450 0.692466 0.000000
-6.023117 -5.686180 -0.321059 1499 0.721450 0.692466 0.000000
-6.023509 -5.686542 -0.318536 1501 0.721451 0.692466 0.000000
-6.023252 -5.686307 -0.315978 1493 0.721451 0.692466 0.000000
-6.022795 -5.685874 -0.313402 1493 0.721450 0.692466 0.000000
-6.022862 -5.685938 -0.310861 1487 0.721451 0.692466 0.000000
-6.022976 -5.686040 -0.308320 1491 0.721451 0.692466 0.000000
-6.028401 -5.687358 -0.694247 1499 0.721450 0.692466 0.000000
-6.028072 -5.687053 -0.691650 1497 0.721451 0.692466 0.000000
-6.028060 -5.687040 -0.689090 1499 0.721451 0.692466 0.000000
-6.027992 -5.686984 -0.686521 1511 0.721451 0.692466 0.000000
-6.028099 -5.687079 -0.683970 1501 0.721451 0.692466 0.000000
-6.028517 -5.687475 -0.681446 1491 0.721450 0.692466 0.000000
-6.028664 -5.687616 -0.678904 1495 0.721451 0.692466 0.000000
-6.028389 -5.687354 -0.676317 1501 0.721451 0.692466 0.000000
-6.028274 -5.687246 -0.673738 1497 0.721451 0.692466 0.000000
-6.028635 -5.687584 -0.671214 1503 0.721451 0.692466 0.000000
-6.028831 -5.687776 -0.668672 1513 0.721451 0.692466 0.000000
-6.028770 -5.687712 -0.666103 1517 0.721451 0.692466 0.000000
-6.028799 -5.687745 -0.663553 1521 0.721451 0.692466 0.000000
-6.028420 -5.687388 -0.660946 1517 0.721451 0.692466 0.000000
-6.028090 -5.687069 -0.658349 1503 0.721451 0.692466 0.000000
-6.028174 -5.687160 -0.655798 1507 0.721451 0.692466 0.000000
-6.028114 -5.687095 -0.653229 1515 0.721451 0.692466 0.000000
-6.027777 -5.686784 -0.650632 1499 0.721451 0.692466 0.000000
-6.027860 -5.686861 -0.648081 1503 0.721451 0.692466 0.000000
-6.027745 -5.686753 -0.645512 1497 0.721451 0.692466 0.000000
-6.027517 -5.686529 -0.642924 1489 0.721451 0.692466 0.000000
-6.027276 -5.686307 -0.640346 1499 0.721451 0.692466 0.000000
-6.026939 -5.685996 -0.637749 1499 0.721450 0.692466 0.000000
-6.027299 -5.686333 -0.635226 1483 0.721451 0.692466 0.000000
-6.028075 -5.687066 -0.632749 1497 0.721451 0.692466 0.000000
-6.028475 -5.687435 -0.630235 1513 0.721451 0.692466 0.000000
-6.028352 -5.687321 -0.627656 1513 0.721451 0.692466 0.000000
-6.028491 -5.687456 -0.625115 1507 0.721451 0.692466 0.000000
-6.027828 -5.686831 -0.622491 1493 0.721451 0.692466 0.000000
-6.026845 -5.685901 -0.619830 1493 0.721451 0.692466 0.000000
-6.026666 -5.685729 -0.617252 1495 0.721451 0.692466 0.000000
-6.026798 -5.685857 -0.614710 1499 0.721451 0.692466 0.000000
-6.027143 -5.686182 -0.612187 1513 0.721451 0.692466 0.000000
-6.027235 -5.686265 -0.609636 1517 0.721451 0.692466 0.000000
-6.027366 -5.686393 -0.607085 1505 0.721451 0.692466 0.000000
-6.027703 -5.686712 -0.604562 1497 0.721451 0.692466 0.000000
-6.027732 -5.686745 -0.602011 1505 0.721451 0.692466 0.000000
-6.027504 -5.686521 -0.599423 1497 0.721451 0.692466 0.000000
-6.027469 -5.686490 -0.596864 1499 0.721451 0.692466 0.000000
-6.027918 -5.686910 -0.594349 1503 0.721451 0.692466 0.000000
-6.027987 -5.686989 -0.591799 1513 0.721451 0.692466 0.000000
-6.027640 -5.686656 -0.589212 1517 0.721451 0.692466 0.000000
-6.027564 -5.686580 -0.586642 1499 0.721450 0.692466 0.000000
-6.027417 -5.686447 -0.584074 1497 0.721451 0.692466 0.000000
-6.027763 -5.686772 -0.581550 1497 0.721451 0.692466 0.000000
-6.027625 -5.686646 -0.578982 1485 0.721451 0.692466 0.000000
-6.027381 -5.686409 -0.576404 1495 0.721450 0.692466 0.000000
-6.027393 -5.686429 -0.573844 1511 0.721451 0.692466 0.000000
-6.026999 -5.686046 -0.571247 1517 0.721451 0.692466 0.000000
-6.026750 -5.685818 -0.568670 1503 0.721451 0.692466 0.000000
-6.026555 -5.685634 -0.566101 1491 0.721451 0.692466 0.000000
-6.026630 -5.685703 -0.563551 1489 0.721450 0.692466 0.000000
-6.027009 -5.686068 -0.561027 1501 0.721451 0.692466 0.000000
-6.027083 -5.686138 -0.558476 1503 0.721451 0.692466 0.000000
-6.027524 -5.686553 -0.555962 1529 0.721451 0.692466 0.000000
-6.027329 -5.686368 -0.553394 1533 0.721451 0.692466 0.000000
-6.026650 -5.685731 -0.550770 1503 0.721451 0.692466 0.000000
-6.026662 -5.685738 -0.548220 1507 0.721451 0.692466 0.000000
-6.026729 -5.685802 -0.545669 1501 0.721451 0.692466 0.000000
-6.026686 -5.685764 -0.543110 1505 0.721451 0.692466 0.000000
-6.026856 -5.685923 -0.540568 1497 0.721451 0.692466 0.000000
-6.027353 -5.686395 -0.538063 1513 0.721451 0.692466 0.000000
-6.027524 -5.686555 -0.535522 1513 0.721451 0.692466 0.000000
-6.027059 -5.686115 -0.532926 1497 0.721451 0.692466 0.000000
-6.026856 -5.685925 -0.530348 1491 0.721451 0.692466 0.000000
-6.027289 -5.686332 -0.527834 1495 0.721450 0.692466 0.000000
-6.027301 -5.686339 -0.525283 1503 0.721450 0.692466 0.000000
-6.026938 -5.685995 -0.522697 1509 0.721451 0.692466 0.000000
-6.027102 -5.686148 -0.520155 1503 0.721450 0.692466 0.000000
-6.028226 -5.687213 -0.517695 1539 0.721450 0.692466 0.000000
-6.028016 -5.687016 -0.515127 1523 0.721451 0.692466 0.000000
-6.027018 -5.686073 -0.512486 1507 0.721450 0.692466 0.000000
-6.026705 -5.685780 -0.509909 1501 0.721451 0.692466 0.000000
-6.027027 -5.686087 -0.507376 1513 0.721451 0.692466 0.000000
-6.027293 -5.686335 -0.504843 1519 0.721451 0.692466 0.000000
-6.026709 -5.685788 -0.502248 1501 0.721451 0.692466 0.000000
-6.026721 -5.685794 -0.499688 1501 0.721451 0.692466 0.000000
-6.027519 -5.686546 -0.497201 1527 0.721451 0.692466 0.000000
-6.027785 -5.686808 -0.494668 1527 0.721451 0.692466 0.000000
-6.027892 -5.686904 -0.492127 1511 0.721451 0.692466 0.000000
-6.027945 -5.686955 -0.489577 1519 0.721451 0.692466 0.000000
-6.027631 -5.686663 -0.486999 1519 0.721450 0.692466 0.000000
-6.027419 -5.686451 -0.484431 1509 0.721451 0.692466 0.000000
-6.027208 -5.686255 -0.481853 1511 0.721451 0.692466 0.000000
-6.027197 -5.686256 -0.479303 1517 0.721451 0.692466 0.000000
-6.026772 -5.685848 -0.476717 1525 0.721451 0.692466 0.000000
