774
-4.650414 -4.211216 -0.602813 1369 0.749660 0.661824 0.000000
-4.649896 -4.210753 -0.600807 1363 0.749660 0.661823 0.000000
-4.649441 -4.210340 -0.598802 1351 0.749660 0.661824 0.000000
-4.649678 -4.210550 -0.596889 1349 0.749660 0.661824 0.000000
-4.650187 -4.211015 -0.595015 1363 0.749660 0.661824 0.000000
-4.650440 -4.211238 -0.593102 1363 0.749660 0.661824 0.000000
-4.650407 -4.211210 -0.591153 1357 0.749660 0.661823 0.000000
-4.650167 -4.210992 -0.589175 1345 0.749660 0.661824 0.000000
-4.650889 -4.211638 -0.587328 1355 0.749660 0.661824 0.000000
-4.651079 -4.211812 -0.585406 1373 0.749660 0.661824 0.000000
-4.650561 -4.211349 -0.583401 1359 0.749660 0.661824 0.000000
-4.649827 -4.210675 -0.581368 1345 0.749660 0.661824 0.000000
-4.649524 -4.210408 -0.579380 1343 0.749660 0.661824 0.000000
-4.649554 -4.210429 -0.577450 1357 0.749660 0.661824 0.000000
-4.649521 -4.210401 -0.575500 1365 0.749660 0.661824 0.000000
-4.650300 -4.211104 -0.573653 1369 0.749660 0.661823 0.000000
-4.651016 -4.211759 -0.571796 1381 0.749660 0.661823 0.000000
-4.650657 -4.211433 -0.569810 1375 0.749660 0.661824 0.000000
-4.650575 -4.211354 -0.567860 1359 0.749660 0.661824 0.000000
-4.650424 -4.211219 -0.565902 1367 0.749660 0.661824 0.000000
-4.650009 -4.210850 -0.563906 1375 0.749660 0.661823 0.000000
-4.650358 -4.211162 -0.562002 1381 0.749660 0.661824 0.000000
-4.650102 -4.210932 -0.560035 1373 0.749660 0.661824 0.000000
-4.649694 -4.210556 -0.558048 1359 0.749660 0.661824 0.000000
-4.649653 -4.210521 -0.556099 1361 0.749660 0.661824 0.000000
-4.649564 -4.210435 -0.554150 1349 0.749660 0.661824 0.000000
-4.649961 -4.210799 -0.552256 1351 0.749660 0.661824 0.000000
-4.650414 -4.211205 -0.550362 1365 0.749660 0.661824 0.000000
-4.650207 -4.211027 -0.548403 1363 0.749660 0.661824 0.000000
-4.650276 -4.211079 -0.546463 1359 0.749660 0.661824 0.000000
-4.650507 -4.211298 -0.544551 1375 0.749660 0.661824 0.000000
-4.650625 -4.211402 -0.542619 1371 0.749660 0.661824 0.000000
-4.650585 -4.211368 -0.540680 1367 0.749660 0.661824 0.000000
-4.650114 -4.210941 -0.538684 1361 0.749660 0.661824 0.000000
-4.650239 -4.211051 -0.536753 1363 0.749660 0.661824 0.000000
-4.650627 -4.211394 -0.534859 1373 0.749660 0.661824 0.000000
-4.650905 -4.211650 -0.532957 1383 0.749660 0.661824 0.000000
-4.650704 -4.211464 -0.530988 1379 0.749660 0.661824 0.000000
-4.650234 -4.211038 -0.528993 1373 0.749660 0.661824 0.000000
-4.650449 -4.211244 -0.527081 1369 0.749660 0.661823 0.000000
-4.650199 -4.211006 -0.525113 1357 0.749660 0.661823 0.000000
-4.649666 -4.210531 -0.523118 1349 0.749660 0.661824 0.000000
-4.649888 -4.210729 -0.521196 1349 0.749660 0.661824 0.000000
-4.650166 -4.210986 -0.519293 1347 0.749660 0.661824 0.000000
-4.649805 -4.210646 -0.517306 1357 0.749660 0.661824 0.000000
-4.649271 -4.210170 -0.515311 1361 0.749660 0.661824 0.000000
-4.649867 -4.210703 -0.513436 1355 0.749660 0.661824 0.000000
-4.650311 -4.211104 -0.511552 1367 0.749660 0.661823 0.000000
-4.649881 -4.210723 -0.509566 1345 0.749660 0.661823 0.000000
-4.649833 -4.210682 -0.507616 1343 0.749660 0.661823 0.000000
-4.649901 -4.210735 -0.505685 1365 0.749660 0.661824 0.000000
-4.650123 -4.210934 -0.503773 1369 0.749660 0.661824 0.000000
-4.649470 -4.210351 -0.501759 1365 0.749660 0.661824 0.000000
-4.649158 -4.210063 -0.499792 1361 0.749660 0.661824 0.000000
-4.648838 -4.209769 -0.497815 1349 0.749660 0.661824 0.000000
-4.649108 -4.210019 -0.495912 1353 0.749660 0.661824 0.000000
-4.649656 -4.210514 -0.494027 1357 0.749660 0.661824 0.000000
-4.649377 -4.210265 -0.492060 1361 0.749660 0.661824 0.000000
-4.649114 -4.210029 -0.490102 1377 0.749660 0.661824 0.000000
-4.649009 -4.209931 -0.488153 1371 0.749660 0.661824 0.000000
-4.649500 -4.210369 -0.486259 1367 0.749660 0.661824 0.000000
-4.649722 -4.210567 -0.484347 1359 0.749660 0.661823 0.000000
-4.649921 -4.210762 -0.482435 1369 0.749660 0.661824 0.000000
-4.649982 -4.210808 -0.480504 1379 0.749660 0.661824 0.000000
-4.649178 -4.210079 -0.478481 1359 0.749660 0.661824 0.000000
-4.649287 -4.210176 -0.476550 1351 0.749660 0.661824 0.000000
-4.650092 -4.210912 -0.474693 1357 0.749660 0.661824 0.000000
-4.650033 -4.210852 -0.472753 1361 0.749660 0.661824 0.000000
-4.650630 -4.211399 -0.470878 1371 0.749660 0.661824 0.000000
-4.650733 -4.211490 -0.468947 1379 0.749660 0.661824 0.000000
-4.650190 -4.210994 -0.466962 1379 0.749660 0.661824 0.000000
-4.650022 -4.210846 -0.465003 1369 0.749660 0.661824 0.000000
-4.649694 -4.210546 -0.463036 1367 0.749660 0.661824 0.000000
-4.649796 -4.210637 -0.461105 1367 0.749660 0.661824 0.000000
-4.649955 -4.210786 -0.459184 1347 0.749660 0.661824 0.000000
-4.649842 -4.210682 -0.457245 1349 0.749660 0.661824 0.000000
-4.649403 -4.210281 -0.455259 1349 0.749660 0.661824 0.000000
-4.648860 -4.209785 -0.453274 1339 0.749660 0.661824 0.000000
-4.649329 -4.210218 -0.451379 1335 0.749660 0.661824 0.000000
-4.649654 -4.210512 -0.449476 1349 0.749660 0.661824 0.000000
-4.649056 -4.209972 -0.447482 1357 0.749660 0.661823 0.000000
-4.649692 -4.210550 -0.445606 1359 0.749660 0.661824 0.000000
-4.649904 -4.210728 -0.443694 1367 0.749660 0.661823 0.000000
-4.649666 -4.210525 -0.441736 1359 0.749660 0.661824 0.000000
-4.649720 -4.210565 -0.439805 1365 0.749660 0.661823 0.000000
-4.650030 -4.210846 -0.437903 1365 0.749660 0.661824 0.000000
-4.650292 -4.211090 -0.435990 1377 0.749660 0.661824 0.000000
-4.650019 -4.210833 -0.434023 1367 0.749660 0.661824 0.000000
-4.649239 -4.210136 -0.432020 1343 0.749660 0.661824 0.000000
-4.648258 -4.209243 -0.429999 1337 0.749660 0.661824 0.000000
-4.648575 -4.209530 -0.428086 1339 0.749660 0.661824 0.000000
-4.649641 -4.210499 -0.426246 1365 0.749660 0.661824 0.000000
-4.650006 -4.210824 -0.424352 1373 0.749660 0.661824 0.000000
-4.649781 -4.210618 -0.422395 1363 0.749660 0.661824 0.000000
-4.649494 -4.210363 -0.420427 1351 0.749660 0.661824 0.000000
-4.649693 -4.210544 -0.418515 1355 0.749660 0.661823 0.000000
-4.650002 -4.210824 -0.416612 1367 0.749660 0.661824 0.000000
-4.649881 -4.210714 -0.414663 1361 0.749660 0.661824 0.000000
-4.649107 -4.210010 -0.412660 1343 0.749660 0.661824 0.000000
-4.649251 -4.210146 -0.410739 1349 0.749660 0.661824 0.000000
-4.650537 -4.211304 -0.408917 1355 0.749660 0.661824 0.000000
-4.650528 -4.211294 -0.406977 1343 0.749660 0.661824 0.000000
-4.649692 -4.210540 -0.404975 1339 0.749660 0.661824 0.000000
-4.649190 -4.210089 -0.402999 1339 0.749660 0.661824 0.000000
-4.648735 -4.209676 -0.401024 1339 0.749660 0.661823 0.000000
-4.648718 -4.209661 -0.399094 1353 0.749660 0.661824 0.000000
-4.648916 -4.209840 -0.397172 1359 0.749660 0.661824 0.000000
-4.648891 -4.209818 -0.395232 1341 0.749660 0.661824 0.000000
-4.649255 -4.210143 -0.393329 1355 0.749660 0.661824 0.000000
-4.649558 -4.210417 -0.391426 1361 0.749660 0.661824 0.000000
-4.649484 -4.210344 -0.389486 1337 0.749660 0.661824 0.000000
-4.649459 -4.210322 -0.387547 1327 0.749660 0.661824 0.000000
-4.649657 -4.210502 -0.385635 1337 0.749660 0.661824 0.000000
-4.649903 -4.210733 -0.383722 1345 0.749660 0.661824 0.000000
-4.650045 -4.210856 -0.381801 1341 0.749660 0.661823 0.000000
-4.649424 -4.210298 -0.379817 1335 0.749660 0.661824 0.000000
-4.649295 -4.210181 -0.377868 1347 0.749660 0.661823 0.000000
-4.649706 -4.210543 -0.375974 1351 0.749660 0.661824 0.000000
-4.649515 -4.210376 -0.374026 1345 0.749660 0.661824 0.000000
-4.649498 -4.210361 -0.372086 1333 0.749660 0.661824 0.000000
-4.649792 -4.210629 -0.370173 1349 0.749660 0.661823 0.000000
-4.649663 -4.210513 -0.368234 1347 0.749660 0.661824 0.000000
-4.649582 -4.210433 -0.366295 1347 0.749660 0.661824 0.000000
-4.649598 -4.210456 -0.364365 1353 0.749660 0.661824 0.000000
-4.649524 -4.210383 -0.362425 1331 0.749660 0.661824 0.000000
-4.649172 -4.210064 -0.360469 1319 0.749660 0.661824 0.000000
-4.648551 -4.209507 -0.358484 1321 0.749660 0.661824 0.000000
-4.649331 -4.210209 -0.356617 1333 0.749660 0.661824 0.000000
-4.650068 -4.210868 -0.354740 1335 0.749660 0.661824 0.000000
-4.649981 -4.210796 -0.352801 1327 0.749660 0.661824 0.000000
-4.649733 -4.210573 -0.350843 1323 0.749660 0.661824 0.000000
-4.649867 -4.210689 -0.348922 1341 0.749660 0.661824 0.000000
-4.649937 -4.210755 -0.347001 1347 0.749660 0.661824 0.000000
-4.649746 -4.210589 -0.345053 1335 0.749660 0.661824 0.000000
-4.649768 -4.210605 -0.343123 1333 0.749660 0.661824 0.000000
-4.649909 -4.210727 -0.341201 1345 0.749660 0.661823 0.000000
-4.650140 -4.210946 -0.339279 1349 0.749660 0.661824 0.000000
-4.650218 -4.211004 -0.337358 1343 0.749660 0.661824 0.000000
-4.650233 -4.211028 -0.335428 1339 0.749660 0.661824 0.000000
-4.650201 -4.210999 -0.333489 1343 0.749660 0.661823 0.000000
-4.649300 -4.210182 -0.331497 1325 0.749660 0.661824 0.000000
-4.648996 -4.209901 -0.329550 1321 0.749660 0.661824 0.000000
-4.649823 -4.210655 -0.327672 1337 0.749660 0.661823 0.000000
-4.650338 -4.211112 -0.325777 1339 0.749660 0.661824 0.000000
-4.650346 -4.211129 -0.323847 1349 0.749660 0.661824 0.000000
-4.650154 -4.210948 -0.321899 1329 0.749660 0.661824 0.000000
-4.650176 -4.210964 -0.319968 1327 0.749660 0.661824 0.000000
-4.650247 -4.211030 -0.318038 1347 0.749660 0.661824 0.000000
-4.650207 -4.210996 -0.316108 1357 0.749660 0.661824 0.000000
-4.650443 -4.211207 -0.314196 1349 0.749660 0.661824 0.000000
-4.650340 -4.211123 -0.312257 1345 0.749660 0.661824 0.000000
-4.649432 -4.210299 -0.310265 1333 0.749660 0.661824 0.000000
-4.649454 -4.210314 -0.308335 1335 0.749660 0.661824 0.000000
-4.650551 -4.211308 -0.306475 1353 0.749660 0.661824 0.000000
-4.650510 -4.211274 -0.304545 1351 0.749660 0.661824 0.000000
-4.650922 -4.209111 -0.694213 1343 0.749660 0.661824 0.000000
-4.650913 -4.209102 -0.692263 1361 0.749660 0.661824 0.000000
-4.650911 -4.209098 -0.690313 1357 0.749660 0.661824 0.000000
-4.651180 -4.209334 -0.688400 1363 0.749660 0.661824 0.000000
-4.650574 -4.208788 -0.686366 1361 0.749660 0.661824 0.000000
-4.650398 -4.208634 -0.684388 1345 0.749660 0.661824 0.000000
-4.651416 -4.209552 -0.682588 1363 0.749660 0.661824 0.000000
-4.651679 -4.209796 -0.680676 1367 0.749660 0.661824 0.000000
-4.651023 -4.209198 -0.678632 1357 0.749660 0.661824 0.000000
-4.651452 -4.209587 -0.676748 1359 0.749660 0.661824 0.000000
-4.651650 -4.209767 -0.674826 1357 0.749660 0.661824 0.000000
-4.651425 -4.209561 -0.672848 1351 0.749660 0.661824 0.000000
-4.651910 -4.209993 -0.670963 1355 0.749660 0.661824 0.000000
-4.651949 -4.210035 -0.669023 1349 0.749660 0.661824 0.000000
-4.651725 -4.209829 -0.667045 1341 0.749660 0.661824 0.000000
-4.651652 -4.209770 -0.665085 1343 0.749660 0.661823 0.000000
-4.651643 -4.209761 -0.663136 1343 0.749660 0.661823 0.000000
-4.651419 -4.209555 -0.661158 1345 0.749660 0.661824 0.000000
-4.651402 -4.209539 -0.659208 1353 0.749660 0.661824 0.000000
-4.651711 -4.209820 -0.657305 1353 0.749660 0.661824 0.000000
-4.651049 -4.209217 -0.655261 1341 0.749660 0.661824 0.000000
-4.650928 -4.209106 -0.653302 1353 0.749660 0.661824 0.000000
-4.651134 -4.209292 -0.651380 1361 0.749660 0.661824 0.000000
-4.650305 -4.208544 -0.649318 1359 0.749660 0.661823 0.000000
-4.650726 -4.208927 -0.647434 1351 0.749660 0.661824 0.000000
-4.651464 -4.209585 -0.645587 1357 0.749660 0.661824 0.000000
-4.651766 -4.209860 -0.643684 1361 0.749660 0.661824 0.000000
-4.652123 -4.210192 -0.641781 1361 0.749660 0.661824 0.000000
-4.651788 -4.209886 -0.639794 1365 0.749660 0.661824 0.000000
-4.651499 -4.209616 -0.637806 1367 0.749660 0.661824 0.000000
-4.651379 -4.209506 -0.635847 1375 0.749660 0.661824 0.000000
-4.651138 -4.209288 -0.633860 1373 0.749660 0.661823 0.000000
-4.651281 -4.209424 -0.631938 1363 0.749660 0.661824 0.000000
-4.651749 -4.209844 -0.630054 1373 0.749660 0.661824 0.000000
-4.651724 -4.209822 -0.628104 1377 0.749660 0.661824 0.000000
-4.651763 -4.209863 -0.626164 1375 0.749660 0.661824 0.000000
-4.651739 -4.209841 -0.624214 1383 0.749660 0.661824 0.000000
-4.651610 -4.209725 -0.622255 1357 0.749660 0.661824 0.000000
-4.651807 -4.209890 -0.620333 1355 0.749660 0.661824 0.000000
-4.652165 -4.210223 -0.618440 1361 0.749660 0.661824 0.000000
-4.651925 -4.210005 -0.616462 1351 0.749660 0.661824 0.000000
-4.651040 -4.209199 -0.614400 1347 0.749660 0.661824 0.000000
-4.650529 -4.208743 -0.612385 1351 0.749660 0.661824 0.000000
-4.650551 -4.208758 -0.610444 1361 0.749660 0.661824 0.000000
-4.651020 -4.209177 -0.608560 1361 0.749660 0.661824 0.000000
-4.651911 -4.209996 -0.606732 1357 0.749660 0.661824 0.000000
-4.652100 -4.210155 -0.604810 1367 0.749660 0.661824 0.000000
-4.651701 -4.209799 -0.602814 1375 0.749660 0.661824 0.000000
-4.651884 -4.209967 -0.600902 1377 0.749660 0.661823 0.000000
-4.651699 -4.209793 -0.598934 1361 0.749660 0.661824 0.000000
-4.650696 -4.208894 -0.596863 1349 0.749660 0.661824 0.000000
-4.651211 -4.209351 -0.594978 1347 0.749660 0.661824 0.000000
-4.651720 -4.209816 -0.593103 1353 0.749660 0.661823 0.000000
-4.650875 -4.209054 -0.591051 1355 0.749660 0.661824 0.000000
-4.650309 -4.208540 -0.589036 1349 0.749660 0.661824 0.000000
-4.650825 -4.209011 -0.587161 1361 0.749660 0.661824 0.000000
-4.651228 -4.209366 -0.585268 1357 0.749660 0.661824 0.000000
-4.651308 -4.209439 -0.583337 1347 0.749660 0.661824 0.000000
-4.650997 -4.209165 -0.581350 1353 0.749660 0.661824 0.000000
-4.650215 -4.208455 -0.579317 1341 0.749660 0.661823 0.000000
-4.650237 -4.208470 -0.577377 1351 0.749660 0.661824 0.000000
-4.650531 -4.208739 -0.575464 1357 0.749660 0.661824 0.000000
-4.651365 -4.209486 -0.573626 1371 0.749660 0.661824 0.000000
-4.652089 -4.210146 -0.571769 1377 0.749660 0.661824 0.000000
-4.651896 -4.209966 -0.569801 1377 0.749660 0.661824 0.000000
-4.651482 -4.209597 -0.567815 1375 0.749660 0.661824 0.000000
-4.651392 -4.209511 -0.565866 1379 0.749660 0.661824 0.000000
-4.651297 -4.209433 -0.563906 1369 0.749660 0.661824 0.000000
-4.651645 -4.209745 -0.562003 1363 0.749660 0.661823 0.000000
-4.652152 -4.210196 -0.560129 1363 0.749660 0.661824 0.000000
-4.651412 -4.209530 -0.558095 1365 0.749660 0.661824 0.000000
-4.650559 -4.208764 -0.556053 1361 0.749660 0.661824 0.000000
-4.650851 -4.209018 -0.554150 1361 0.749660 0.661824 0.000000
-4.651998 -4.210064 -0.552340 1381 0.749660 0.661824 0.000000
-4.652290 -4.210319 -0.550437 1393 0.749660 0.661824 0.000000
-4.651272 -4.209408 -0.548376 1361 0.749660 0.661824 0.000000
-4.650425 -4.208634 -0.546334 1351 0.749660 0.661824 0.000000
-4.649954 -4.208208 -0.544338 1363 0.749660 0.661824 0.000000
-4.650455 -4.208666 -0.542454 1353 0.749660 0.661824 0.000000
-4.651011 -4.209167 -0.540579 1343 0.749660 0.661824 0.000000
-4.651886 -4.209960 -0.538740 1353 0.749660 0.661824 0.000000
-4.652004 -4.210063 -0.536809 1361 0.749660 0.661824 0.000000
-4.651255 -4.209392 -0.534786 1361 0.749660 0.661824 0.000000
-4.651229 -4.209356 -0.532846 1375 0.749660 0.661823 0.000000
-4.651340 -4.209467 -0.530915 1377 0.749660 0.661824 0.000000
-4.651410 -4.209520 -0.528985 1373 0.749660 0.661824 0.000000
-4.651799 -4.209877 -0.527091 1369 0.749660 0.661824 0.000000
-4.651479 -4.209583 -0.525114 1365 0.749660 0.661823 0.000000
-4.651272 -4.209404 -0.523146 1367 0.749660 0.661824 0.000000
-4.651556 -4.209653 -0.521243 1363 0.749660 0.661824 0.000000
-4.651897 -4.209959 -0.519340 1357 0.749660 0.661824 0.000000
-4.651626 -4.209716 -0.517372 1361 0.749660 0.661824 0.000000
-4.650725 -4.208899 -0.515331 1359 0.749660 0.661823 0.000000
-4.650988 -4.209142 -0.513418 1369 0.749660 0.661824 0.000000
-4.651598 -4.209687 -0.511553 1373 0.749660 0.661824 0.000000
-4.651223 -4.209350 -0.509566 1365 0.749660 0.661824 0.000000
-4.651120 -4.209266 -0.507617 1363 0.749660 0.661824 0.000000
-4.651556 -4.209660 -0.505723 1365 0.749660 0.661824 0.000000
-4.651563 -4.209663 -0.503793 1359 0.749660 0.661824 0.000000
-4.650812 -4.208977 -0.501770 1355 0.749660 0.661823 0.000000
-4.650445 -4.208646 -0.499793 1351 0.749660 0.661824 0.000000
-4.650555 -4.208743 -0.497862 1349 0.749660 0.661824 0.000000
-4.651256 -4.209385 -0.496005 1363 0.749660 0.661824 0.000000
-4.651581 -4.209679 -0.494102 1377 0.749660 0.661824 0.000000
-4.651269 -4.209391 -0.492125 1377 0.749660 0.661824 0.000000
-4.651164 -4.209293 -0.490176 1369 0.749660 0.661824 0.000000
-4.651593 -4.209681 -0.488282 1361 0.749660 0.661824 0.000000
-4.652348 -4.210366 -0.486425 1369 0.749660 0.661824 0.000000
-4.651591 -4.209688 -0.484412 1365 0.749660 0.661824 0.000000
-4.651105 -4.209249 -0.482416 1351 0.749660 0.661824 0.000000
-4.651812 -4.209883 -0.480560 1373 0.749660 0.661824 0.000000
-4.651325 -4.209445 -0.478564 1373 0.749660 0.661824 0.000000
-4.650782 -4.208949 -0.476579 1363 0.749660 0.661824 0.000000
-4.650941 -4.209098 -0.474658 1367 0.749660 0.661824 0.000000
-4.651370 -4.209486 -0.472764 1371 0.749660 0.661824 0.000000
-4.651320 -4.209431 -0.470814 1365 0.749660 0.661824 0.000000
-4.650722 -4.208892 -0.468820 1361 0.749660 0.661824 0.000000
-4.650443 -4.208643 -0.466862 1355 0.749660 0.661823 0.000000
-4.650449 -4.208646 -0.464922 1359 0.749660 0.661823 0.000000
-4.650600 -4.208789 -0.463001 1369 0.749660 0.661824 0.000000
-4.650868 -4.209024 -0.461088 1365 0.749660 0.661823 0.000000
-4.651457 -4.209565 -0.459213 1353 0.749660 0.661824 0.000000
-4.651288 -4.209404 -0.457254 1349 0.749660 0.661824 0.000000
-4.650578 -4.208763 -0.455251 1359 0.749660 0.661824 0.000000
-4.650411 -4.208615 -0.453302 1345 0.749660 0.661824 0.000000
-4.650298 -4.208510 -0.451353 1329 0.749660 0.661824 0.000000
-4.650289 -4.208501 -0.449413 1341 0.749660 0.661824 0.000000
-4.650884 -4.209034 -0.447538 1355 0.749660 0.661823 0.000000
-4.650923 -4.209075 -0.445607 1359 0.749660 0.661824 0.000000
-4.650596 -4.208775 -0.443640 1353 0.749660 0.661824 0.000000
-4.651065 -4.209208 -0.441746 1355 0.749660 0.661824 0.000000
-4.651764 -4.209836 -0.439879 1359 0.749660 0.661824 0.000000
-4.651809 -4.209870 -0.437949 1357 0.749660 0.661824 0.000000
-4.651364 -4.209477 -0.435963 1365 0.749660 0.661824 0.000000
-4.650543 -4.208735 -0.433960 1347 0.749660 0.661824 0.000000
-4.650311 -4.208524 -0.432003 1329 0.749660 0.661824 0.000000
-4.651002 -4.209145 -0.430126 1335 0.749660 0.661824 0.000000
-4.651589 -4.209671 -0.428251 1351 0.749660 0.661824 0.000000
-4.651469 -4.209561 -0.426302 1365 0.749660 0.661824 0.000000
-4.651293 -4.209407 -0.424353 1359 0.749660 0.661823 0.000000
-4.651388 -4.209492 -0.422422 1359 0.749660 0.661824 0.000000
-4.651212 -4.209338 -0.420474 1359 0.749660 0.661823 0.000000
-4.651258 -4.209372 -0.418544 1361 0.749660 0.661824 0.000000
-4.651989 -4.210038 -0.416667 1365 0.749660 0.661824 0.000000
-4.652299 -4.210319 -0.414764 1371 0.749660 0.661824 0.000000
-4.651533 -4.209621 -0.412761 1363 0.749660 0.661823 0.000000
-4.650871 -4.209019 -0.410767 1347 0.749660 0.661824 0.000000
-4.651069 -4.209198 -0.408855 1349 0.749660 0.661824 0.000000
-4.651052 -4.209183 -0.406915 1339 0.749660 0.661824 0.000000
-4.651083 -4.209219 -0.404985 1337 0.749660 0.661824 0.000000
-4.651344 -4.209448 -0.403072 1345 0.749660 0.661823 0.000000
-4.651153 -4.209281 -0.401124 1355 0.749660 0.661824 0.000000
-4.651032 -4.209171 -0.399175 1353 0.749660 0.661824 0.000000
-4.651445 -4.209547 -0.397281 1361 0.749660 0.661824 0.000000
-4.651371 -4.209473 -0.395342 1355 0.749660 0.661824 0.000000
-4.650924 -4.209066 -0.393366 1349 0.749660 0.661824 0.000000
-4.651226 -4.209341 -0.391453 1357 0.749660 0.661824 0.000000
-4.651694 -4.209760 -0.389559 1345 0.749660 0.661824 0.000000
-4.651671 -4.209752 -0.387629 1345 0.749660 0.661824 0.000000
-4.651159 -4.209281 -0.385654 1341 0.749660 0.661824 0.000000
-4.651080 -4.209215 -0.383714 1345 0.749660 0.661824 0.000000
-4.651005 -4.209142 -0.381775 1339 0.749660 0.661823 0.000000
-4.650822 -4.208982 -0.379827 1333 0.749660 0.661824 0.000000
-4.650694 -4.208866 -0.377878 1335 0.749660 0.661824 0.000000
-4.651097 -4.209221 -0.375974 1343 0.749660 0.661823 0.000000
-4.651502 -4.209590 -0.374080 1347 0.749660 0.661824 0.000000
-4.651159 -4.209278 -0.372113 1345 0.749660 0.661824 0.000000
-4.651079 -4.209212 -0.370174 1339 0.749660 0.661824 0.000000
-4.650943 -4.209089 -0.368235 1329 0.749660 0.661824 0.000000
-4.651133 -4.209263 -0.366313 1335 0.749660 0.661824 0.000000
-4.651704 -4.209777 -0.364428 1361 0.749660 0.661824 0.000000
-4.651512 -4.209597 -0.362480 1351 0.749660 0.661824 0.000000
-4.650842 -4.208988 -0.360496 1349 0.749660 0.661824 0.000000
-4.649671 -4.207931 -0.358477 1325 0.749660 0.661823 0.000000
-4.650180 -4.208395 -0.356582 1335 0.749660 0.661824 0.000000
-4.651078 -4.209206 -0.354714 1345 0.749660 0.661824 0.000000
-4.651156 -4.209279 -0.352793 1341 0.749660 0.661824 0.000000
-4.651227 -4.209345 -0.350862 1333 0.749660 0.661824 0.000000
-4.651584 -4.209663 -0.348959 1343 0.749660 0.661824 0.000000
-4.651551 -4.209635 -0.347019 1335 0.749660 0.661824 0.000000
-4.650810 -4.208970 -0.345036 1339 0.749660 0.661824 0.000000
-4.650411 -4.208600 -0.343080 1327 0.749660 0.661824 0.000000
-4.650593 -4.208767 -0.341158 1321 0.749660 0.661824 0.000000
-4.650830 -4.208979 -0.339246 1325 0.749660 0.661824 0.000000
-4.650901 -4.209045 -0.337315 1329 0.749660 0.661823 0.000000
-4.650819 -4.208966 -0.335376 1333 0.749660 0.661824 0.000000
-4.650836 -4.208989 -0.333445 1339 0.749660 0.661824 0.000000
-4.650373 -4.208570 -0.331480 1329 0.749660 0.661824 0.000000
-4.650283 -4.208484 -0.329551 1331 0.749660 0.661824 0.000000
-4.650847 -4.208992 -0.327655 1331 0.749660 0.661824 0.000000
-4.651348 -4.209450 -0.325760 1331 0.749660 0.661824 0.000000
-4.651371 -4.209465 -0.323830 1329 0.749660 0.661824 0.000000
-4.651489 -4.209583 -0.321899 1325 0.749660 0.661824 0.000000
-4.651186 -4.209301 -0.319952 1331 0.749660 0.661824 0.000000
-4.651096 -4.209216 -0.318013 1345 0.749660 0.661823 0.000000
-4.651548 -4.209622 -0.316108 1357 0.749660 0.661824 0.000000
-4.651189 -4.209297 -0.314162 1337 0.749660 0.661824 0.000000
-4.651030 -4.209156 -0.312213 1341 0.749660 0.661824 0.000000
-4.651427 -4.209519 -0.310309 1343 0.749660 0.661824 0.000000
-4.652094 -4.210122 -0.308423 1337 0.749660 0.661824 0.000000
-4.651949 -4.209992 -0.306485 1341 0.749660 0.661824 0.000000
-4.651360 -4.209459 -0.304510 1339 0.749660 0.661824 0.000000
-4.652411 -4.207778 -0.694242 1351 0.749660 0.661824 0.000000
-4.652576 -4.207919 -0.692311 1375 0.749660 0.661824 0.000000
-4.652616 -4.207961 -0.690370 1373 0.749660 0.661824 0.000000
-4.652822 -4.208147 -0.688448 1375 0.749660 0.661824 0.000000
-4.652550 -4.207903 -0.686461 1369 0.749660 0.661824 0.000000
-4.652652 -4.207995 -0.684530 1373 0.749660 0.661824 0.000000
-4.653073 -4.208377 -0.682636 1365 0.749660 0.661824 0.000000
-4.652530 -4.207881 -0.680611 1363 0.749660 0.661824 0.000000
-4.652139 -4.207531 -0.678605 1357 0.749660 0.661824 0.000000
-4.652297 -4.207666 -0.676683 1359 0.749660 0.661824 0.000000
-4.652447 -4.207808 -0.674752 1359 0.749660 0.661824 0.000000
-4.652812 -4.208133 -0.672858 1355 0.749660 0.661824 0.000000
-4.652636 -4.207979 -0.670880 1355 0.749660 0.661824 0.000000
-4.651823 -4.207243 -0.668817 1349 0.749660 0.661824 0.000000
-4.651980 -4.207379 -0.666896 1347 0.749660 0.661824 0.000000
-4.652782 -4.208101 -0.665058 1347 0.749660 0.661823 0.000000
-4.652765 -4.208085 -0.663108 1351 0.749660 0.661824 0.000000
-4.652263 -4.207634 -0.661093 1359 0.749660 0.661824 0.000000
-4.652142 -4.207523 -0.659124 1359 0.749660 0.661824 0.000000
-4.652070 -4.207464 -0.657165 1349 0.749660 0.661824 0.000000
-4.651797 -4.207207 -0.655187 1355 0.749660 0.661824 0.000000
-4.651940 -4.207344 -0.653256 1361 0.749660 0.661824 0.000000
-4.652465 -4.207821 -0.651381 1357 0.749660 0.661824 0.000000
-4.652663 -4.208001 -0.649459 1365 0.749660 0.661824 0.000000
-4.652596 -4.207933 -0.647510 1363 0.749660 0.661824 0.000000
-4.652253 -4.207621 -0.645513 1347 0.749660 0.661824 0.000000
-4.652507 -4.207858 -0.643600 1335 0.749660 0.661824 0.000000
-4.652823 -4.208131 -0.641697 1347 0.749660 0.661824 0.000000
-4.652528 -4.207870 -0.639710 1367 0.749660 0.661824 0.000000
-4.652726 -4.208050 -0.637788 1361 0.749660 0.661824 0.000000
-4.653251 -4.208527 -0.635913 1375 0.749660 0.661824 0.000000
-4.653073 -4.208359 -0.633945 1367 0.749660 0.661823 0.000000
-4.653209 -4.208489 -0.632024 1373 0.749660 0.661824 0.000000
-4.653454 -4.208706 -0.630101 1369 0.749660 0.661824 0.000000
-4.653055 -4.208350 -0.628105 1377 0.749660 0.661823 0.000000
-4.652878 -4.208182 -0.626137 1367 0.749660 0.661824 0.000000
-4.653569 -4.208803 -0.624280 1393 0.749660 0.661824 0.000000
-4.653432 -4.208680 -0.622321 1381 0.749660 0.661824 0.000000
-4.652596 -4.207926 -0.620259 1355 0.749660 0.661824 0.000000
-4.652364 -4.207715 -0.618291 1347 0.749660 0.661824 0.000000
-4.653095 -4.208381 -0.616444 1361 0.749660 0.661824 0.000000
-4.652697 -4.208025 -0.614438 1359 0.749660 0.661824 0.000000
-4.652185 -4.207553 -0.612433 1351 0.749660 0.661824 0.000000
-4.652813 -4.208126 -0.610567 1365 0.749660 0.661824 0.000000
-4.652996 -4.208293 -0.608645 1365 0.749660 0.661824 0.000000
-4.652811 -4.208118 -0.606677 1351 0.749660 0.661824 0.000000
-4.653224 -4.208494 -0.604783 1353 0.749660 0.661824 0.000000
-4.653142 -4.208415 -0.602834 1343 0.749660 0.661824 0.000000
-4.652466 -4.207813 -0.600800 1347 0.749660 0.661824 0.000000
-4.652329 -4.207690 -0.598841 1363 0.749660 0.661824 0.000000
-4.652741 -4.208052 -0.596947 1367 0.749660 0.661824 0.000000
-4.652923 -4.208220 -0.595025 1355 0.749660 0.661824 0.000000
-4.652843 -4.208153 -0.593076 1361 0.749660 0.661824 0.000000
-4.652116 -4.207487 -0.591043 1351 0.749660 0.661824 0.000000
-4.652132 -4.207510 -0.589103 1363 0.749660 0.661824 0.000000
-4.652211 -4.207582 -0.587162 1363 0.749660 0.661824 0.000000
-4.652185 -4.207547 -0.585222 1349 0.749660 0.661824 0.000000
-4.652478 -4.207815 -0.583309 1363 0.749660 0.661823 0.000000
-4.651849 -4.207251 -0.581295 1357 0.749660 0.661824 0.000000
-4.651552 -4.206975 -0.579318 1343 0.749660 0.661824 0.000000
-4.652491 -4.207831 -0.577489 1353 0.749660 0.661824 0.000000
-4.652728 -4.208042 -0.575577 1359 0.749660 0.661824 0.000000
-4.652854 -4.208152 -0.573646 1375 0.749660 0.661824 0.000000
-4.653426 -4.208667 -0.571770 1373 0.749660 0.661824 0.000000
-4.653330 -4.208588 -0.569821 1361 0.749660 0.661824 0.000000
-4.652756 -4.208068 -0.567806 1371 0.749660 0.661824 0.000000
-4.652348 -4.207692 -0.565820 1357 0.749660 0.661824 0.000000
-4.652467 -4.207809 -0.563889 1363 0.749660 0.661824 0.000000
-4.652704 -4.208020 -0.561977 1367 0.749660 0.661824 0.000000
-4.652512 -4.207840 -0.560008 1369 0.749660 0.661824 0.000000
-4.652256 -4.207609 -0.558041 1359 0.749660 0.661824 0.000000
-4.652112 -4.207480 -0.556082 1357 0.749660 0.661824 0.000000
-4.652461 -4.207792 -0.554179 1357 0.749660 0.661824 0.000000
-4.652850 -4.208149 -0.552285 1367 0.749660 0.661824 0.000000
-4.652483 -4.207818 -0.550298 1359 0.749660 0.661824 0.000000
-4.652769 -4.208080 -0.548396 1363 0.749660 0.661824 0.000000
-4.652957 -4.208240 -0.546474 1367 0.749660 0.661824 0.000000
-4.652750 -4.208061 -0.544506 1363 0.749660 0.661824 0.000000
-4.652661 -4.207976 -0.542557 1365 0.749660 0.661824 0.000000
-4.652237 -4.207587 -0.540571 1355 0.749660 0.661824 0.000000
-4.652515 -4.207843 -0.538658 1361 0.749660 0.661824 0.000000
-4.652641 -4.207953 -0.536737 1365 0.749660 0.661823 0.000000
-4.652592 -4.207912 -0.534787 1367 0.749660 0.661824 0.000000
-4.652830 -4.208123 -0.532875 1369 0.749660 0.661824 0.000000
-4.653274 -4.208524 -0.530981 1373 0.749660 0.661824 0.000000
-4.652956 -4.208244 -0.529014 1379 0.749660 0.661823 0.000000
-4.651998 -4.207369 -0.526962 1359 0.749660 0.661824 0.000000
-4.652006 -4.207386 -0.525022 1355 0.749660 0.661824 0.000000
-4.652179 -4.207533 -0.523101 1355 0.749660 0.661824 0.000000
-4.652019 -4.207392 -0.521142 1349 0.749660 0.661823 0.000000
-4.652194 -4.207553 -0.519230 1351 0.749660 0.661823 0.000000
-4.652527 -4.207852 -0.517327 1357 0.749660 0.661824 0.000000
-4.652318 -4.207660 -0.515359 1367 0.749660 0.661824 0.000000
-4.652174 -4.207530 -0.513411 1357 0.749660 0.661824 0.000000
-4.652061 -4.207426 -0.511451 1361 0.749660 0.661824 0.000000
-4.652173 -4.207537 -0.509530 1363 0.749660 0.661824 0.000000
-4.653053 -4.208322 -0.507682 1355 0.749660 0.661824 0.000000
-4.653547 -4.208774 -0.505798 1355 0.749660 0.661824 0.000000
-4.652844 -4.208139 -0.503784 1343 0.749660 0.661824 0.000000
-4.652206 -4.207555 -0.501780 1353 0.749660 0.661824 0.000000
-4.652420 -4.207747 -0.499858 1361 0.749660 0.661824 0.000000
-4.652802 -4.208099 -0.497964 1365 0.749660 0.661823 0.000000
-4.652593 -4.207905 -0.496006 1373 0.749660 0.661824 0.000000
-4.652482 -4.207815 -0.494057 1367 0.749660 0.661824 0.000000
-4.652599 -4.207919 -0.492126 1361 0.749660 0.661824 0.000000
-4.652813 -4.208111 -0.490214 1361 0.749660 0.661824 0.000000
-4.652438 -4.207774 -0.488237 1357 0.749660 0.661824 0.000000
-4.652437 -4.207771 -0.486297 1343 0.749660 0.661824 0.000000
-4.652762 -4.208064 -0.484394 1351 0.749660 0.661824 0.000000
-4.652069 -4.207436 -0.482381 1363 0.749660 0.661824 0.000000
-4.652010 -4.207375 -0.480441 1375 0.749660 0.661823 0.000000
-4.652281 -4.207625 -0.478529 1371 0.749660 0.661824 0.000000
-4.652064 -4.207426 -0.476571 1369 0.749660 0.661824 0.000000
-4.652008 -4.207379 -0.474631 1353 0.749660 0.661824 0.000000
-4.652214 -4.207565 -0.472709 1367 0.749660 0.661824 0.000000
-4.652165 -4.207525 -0.470770 1365 0.749660 0.661824 0.000000
-4.652052 -4.207420 -0.468821 1367 0.749660 0.661824 0.000000
-4.651025 -4.206489 -0.466780 1355 0.749660 0.661824 0.000000
-4.651619 -4.207022 -0.464904 1357 0.749660 0.661824 0.000000
-4.652368 -4.207701 -0.463048 1363 0.749660 0.661824 0.000000
-4.651936 -4.207306 -0.461061 1355 0.749660 0.661824 0.000000
-4.651705 -4.207108 -0.459104 1353 0.749660 0.661824 0.000000
-4.652196 -4.207546 -0.457219 1353 0.749660 0.661823 0.000000
-4.651909 -4.207291 -0.455252 1355 0.749660 0.661824 0.000000
-4.651429 -4.206845 -0.453266 1345 0.749660 0.661824 0.000000
-4.651365 -4.206792 -0.451326 1343 0.749660 0.661824 0.000000
-4.651252 -4.206688 -0.449378 1337 0.749660 0.661824 0.000000
-4.651888 -4.207265 -0.447512 1341 0.749660 0.661824 0.000000
-4.652421 -4.207748 -0.445617 1365 0.749660 0.661824 0.000000
-4.651878 -4.207252 -0.443632 1361 0.749660 0.661824 0.000000
-4.651860 -4.207236 -0.441702 1357 0.749660 0.661824 0.000000
-4.652338 -4.207676 -0.439807 1347 0.749660 0.661824 0.000000
-4.652176 -4.207520 -0.437859 1341 0.749660 0.661824 0.000000
-4.652105 -4.207461 -0.435909 1343 0.749660 0.661823 0.000000
-4.651714 -4.207111 -0.433943 1343 0.749660 0.661824 0.000000
-4.651433 -4.206849 -0.431985 1347 0.749660 0.661824 0.000000
-4.652173 -4.207521 -0.430119 1349 0.749660 0.661824 0.000000
-4.653031 -4.208301 -0.428261 1357 0.749660 0.661824 0.000000
-4.652966 -4.208234 -0.426311 1359 0.749660 0.661824 0.000000
-4.652735 -4.208036 -0.424363 1351 0.749660 0.661824 0.000000
-4.652781 -4.208070 -0.422433 1351 0.749660 0.661824 0.000000
-4.652493 -4.207815 -0.420465 1357 0.749660 0.661823 0.000000
-4.652477 -4.207799 -0.418535 1355 0.749660 0.661824 0.000000
-4.653119 -4.208369 -0.416650 1361 0.749660 0.661824 0.000000
-4.653205 -4.208448 -0.414729 1369 0.749660 0.661824 0.000000
-4.652815 -4.208098 -0.412752 1355 0.749660 0.661824 0.000000
-4.652153 -4.207495 -0.410768 1351 0.749660 0.661823 0.000000
-4.651588 -4.206995 -0.408783 1341 0.749660 0.661823 0.000000
-4.652279 -4.207616 -0.406907 1353 0.749660 0.661824 0.000000
-4.652684 -4.207985 -0.405003 1357 0.749660 0.661824 0.000000
-4.652460 -4.207780 -0.403055 1345 0.749660 0.661824 0.000000
-4.652817 -4.208098 -0.401152 1359 0.749660 0.661824 0.000000
-4.652696 -4.207988 -0.399203 1363 0.749660 0.661823 0.000000
-4.652178 -4.207525 -0.397228 1351 0.749660 0.661824 0.000000
-4.652009 -4.207363 -0.395279 1359 0.749660 0.661824 0.000000
-4.652359 -4.207689 -0.393376 1361 0.749660 0.661824 0.000000
-4.652557 -4.207869 -0.391454 1359 0.749660 0.661824 0.000000
-4.652483 -4.207796 -0.389515 1353 0.749660 0.661823 0.000000
-4.652403 -4.207730 -0.387575 1355 0.749660 0.661824 0.000000
-4.651900 -4.207265 -0.385600 1333 0.749660 0.661824 0.000000
-4.651660 -4.207048 -0.383652 1321 0.749660 0.661823 0.000000
-4.651906 -4.207279 -0.381740 1329 0.749660 0.661824 0.000000
-4.652374 -4.207698 -0.379845 1345 0.749660 0.661824 0.000000
-4.652565 -4.207872 -0.377924 1349 0.749660 0.661824 0.000000
-4.652595 -4.207893 -0.375993 1345 0.749660 0.661824 0.000000
-4.652626 -4.207929 -0.374063 1349 0.749660 0.661824 0.000000
-4.652379 -4.207705 -0.372105 1351 0.749660 0.661824 0.000000
-4.652035 -4.207393 -0.370148 1341 0.749660 0.661824 0.000000
-4.651683 -4.207074 -0.368192 1329 0.749660 0.661824 0.000000
-4.652040 -4.207392 -0.366288 1345 0.749660 0.661824 0.000000
-4.652660 -4.207957 -0.364403 1351 0.749660 0.661823 0.000000
-4.652954 -4.208226 -0.362490 1347 0.749660 0.661824 0.000000
-4.652921 -4.208198 -0.360550 1353 0.749660 0.661824 0.000000
-4.652625 -4.207922 -0.358603 1349 0.749660 0.661824 0.000000
-4.652663 -4.207950 -0.356672 1347 0.749660 0.661824 0.000000
-4.652741 -4.208023 -0.354742 1343 0.749660 0.661824 0.000000
-4.652543 -4.207850 -0.352793 1341 0.749660 0.661824 0.000000
-4.652246 -4.207575 -0.350836 1337 0.749660 0.661824 0.000000
-4.652373 -4.207699 -0.348915 1343 0.749660 0.661824 0.000000
-4.652673 -4.207960 -0.347012 1339 0.749660 0.661824 0.000000
-4.652967 -4.208229 -0.345099 1345 0.749660 0.661824 0.000000
-4.652872 -4.208150 -0.343160 1331 0.749660 0.661824 0.000000
-4.652575 -4.207875 -0.341203 1325 0.749660 0.661824 0.000000
-4.652382 -4.207695 -0.339255 1333 0.749660 0.661824 0.000000
-4.652613 -4.207914 -0.337342 1333 0.749660 0.661824 0.000000
-4.652477 -4.207791 -0.335404 1325 0.749660 0.661824 0.000000
-4.652388 -4.207705 -0.333464 1313 0.749660 0.661824 0.000000
-4.652951 -4.208213 -0.331569 1337 0.749660 0.661824 0.000000
-4.652864 -4.208141 -0.329630 1329 0.749660 0.661824 0.000000
-4.652608 -4.207911 -0.327682 1341 0.749660 0.661824 0.000000
-4.652248 -4.207586 -0.325725 1331 0.749660 0.661823 0.000000
-4.652326 -4.207645 -0.323805 1329 0.749660 0.661824 0.000000
-4.652500 -4.207806 -0.321883 1317 0.749660 0.661824 0.000000
-4.652142 -4.207481 -0.319926 1323 0.749660 0.661824 0.000000
-4.651774 -4.207150 -0.317970 1331 0.749660 0.661824 0.000000
-4.651956 -4.207318 -0.316048 1325 0.749660 0.661824 0.000000
-4.652028 -4.207385 -0.314127 1313 0.749660 0.661823 0.000000
-4.652638 -4.207930 -0.312232 1327 0.749660 0.661824 0.000000
-4.652875 -4.208141 -0.310319 1353 0.749660 0.661824 0.000000
-4.652565 -4.207867 -0.308372 1349 0.749660 0.661824 0.000000
-4.652897 -4.208167 -0.306459 1337 0.749660 0.661824 0.000000
-4.652920 -4.208181 -0.304529 1353 0.749660 0.661824 0.000000
-4.653648 -4.206295 -0.694234 1345 0.749660 0.661824 0.000000
-4.653050 -4.205756 -0.692189 1343 0.749660 0.661824 0.000000
-4.653215 -4.205897 -0.690268 1355 0.749660 0.661823 0.000000
-4.652721 -4.205452 -0.688242 1343 0.749660 0.661824 0.000000
-4.653572 -4.206226 -0.686424 1355 0.749660 0.661824 0.000000
-4.654541 -4.207092 -0.684615 1377 0.749660 0.661824 0.000000
-4.654476 -4.207039 -0.682656 1373 0.749660 0.661824 0.000000
-4.653767 -4.206399 -0.680602 1361 0.749660 0.661824 0.000000
-4.653162 -4.205853 -0.678568 1345 0.749660 0.661824 0.000000
-4.653542 -4.206190 -0.676674 1349 0.749660 0.661824 0.000000
-4.654177 -4.206768 -0.674819 1375 0.749660 0.661824 0.000000
-4.654335 -4.206903 -0.672887 1371 0.749660 0.661824 0.000000
-4.654047 -4.206647 -0.670900 1341 0.749660 0.661824 0.000000
-4.653822 -4.206442 -0.668922 1337 0.749660 0.661824 0.000000
-4.653647 -4.206288 -0.666943 1345 0.749660 0.661824 0.000000
-4.653845 -4.206468 -0.665031 1349 0.749660 0.661824 0.000000
-4.654058 -4.206660 -0.663109 1345 0.749660 0.661824 0.000000
-4.653986 -4.206587 -0.661150 1355 0.749660 0.661824 0.000000
-4.653706 -4.206338 -0.659163 1357 0.749660 0.661824 0.000000
-4.653315 -4.205988 -0.657166 1363 0.749660 0.661824 0.000000
-4.652979 -4.205681 -0.655169 1349 0.749660 0.661824 0.000000
-4.653455 -4.206107 -0.653285 1347 0.749660 0.661824 0.000000
-4.654298 -4.206874 -0.651457 1361 0.749660 0.661824 0.000000
-4.654497 -4.207055 -0.649535 1353 0.749660 0.661824 0.000000
-4.654264 -4.206842 -0.647557 1361 0.749660 0.661824 0.000000
-4.653928 -4.206537 -0.645570 1349 0.749660 0.661824 0.000000
-4.654175 -4.206768 -0.643658 1355 0.749660 0.661824 0.000000
-4.653790 -4.206410 -0.641651 1343 0.749660 0.661824 0.000000
-4.653392 -4.206054 -0.639655 1351 0.749660 0.661824 0.000000
-4.653097 -4.205792 -0.637668 1343 0.749660 0.661824 0.000000
-4.653191 -4.205878 -0.635737 1353 0.749660 0.661823 0.000000
-4.653763 -4.206391 -0.633861 1353 0.749660 0.661824 0.000000
-4.654876 -4.207398 -0.632071 1371 0.749660 0.661824 0.000000
-4.655074 -4.207578 -0.630149 1361 0.749660 0.661824 0.000000
-4.654793 -4.207315 -0.628162 1365 0.749660 0.661824 0.000000
-4.654768 -4.207293 -0.626222 1369 0.749660 0.661824 0.000000
-4.654147 -4.206735 -0.624188 1369 0.749660 0.661824 0.000000
-4.653429 -4.206089 -0.622154 1361 0.749660 0.661824 0.000000
-4.653356 -4.206015 -0.620195 1341 0.749660 0.661824 0.000000
-4.653387 -4.206050 -0.618254 1333 0.749660 0.661824 0.000000
-4.653529 -4.206173 -0.616323 1339 0.749660 0.661824 0.000000
-4.653066 -4.205753 -0.614327 1347 0.749660 0.661824 0.000000
-4.653041 -4.205730 -0.612378 1347 0.749660 0.661824 0.000000
-4.654099 -4.206694 -0.610568 1357 0.749660 0.661823 0.000000
-4.654344 -4.206912 -0.608656 1369 0.749660 0.661824 0.000000
-4.654216 -4.206795 -0.606697 1355 0.749660 0.661824 0.000000
-4.654191 -4.206772 -0.604747 1355 0.749660 0.661824 0.000000
-4.653728 -4.206353 -0.602741 1353 0.749660 0.661824 0.000000
-4.653433 -4.206091 -0.600764 1359 0.749660 0.661824 0.000000
-4.653781 -4.206403 -0.598860 1361 0.749660 0.661824 0.000000
-4.654290 -4.206868 -0.596986 1355 0.749660 0.661824 0.000000
-4.653939 -4.206549 -0.594999 1359 0.749660 0.661824 0.000000
-4.653483 -4.206135 -0.592993 1355 0.749660 0.661824 0.000000
-4.653617 -4.206252 -0.591072 1355 0.749660 0.661824 0.000000
-4.654022 -4.206621 -0.589178 1357 0.749660 0.661824 0.000000
-4.653830 -4.206441 -0.587210 1351 0.749660 0.661824 0.000000
-4.653527 -4.206173 -0.585222 1349 0.749660 0.661824 0.000000
-4.653230 -4.205897 -0.583245 1341 0.749660 0.661824 0.000000
-4.653197 -4.205869 -0.581305 1341 0.749660 0.661824 0.000000
-4.653379 -4.206037 -0.579384 1347 0.749660 0.661824 0.000000
-4.653347 -4.206009 -0.577434 1357 0.749660 0.661824 0.000000
-4.653481 -4.206125 -0.575513 1367 0.749660 0.661824 0.000000
-4.653878 -4.206489 -0.573619 1359 0.749660 0.661824 0.000000
-4.653789 -4.206402 -0.571660 1357 0.749660 0.661824 0.000000
-4.653541 -4.206179 -0.569692 1353 0.749660 0.661824 0.000000
-4.653404 -4.206056 -0.567733 1359 0.749660 0.661824 0.000000
-4.653308 -4.205977 -0.565784 1359 0.749660 0.661824 0.000000
-4.653864 -4.206479 -0.563909 1355 0.749660 0.661824 0.000000
-4.654532 -4.207082 -0.562043 1357 0.749660 0.661824 0.000000
-4.654235 -4.206807 -0.560065 1359 0.749660 0.661824 0.000000
-4.653821 -4.206438 -0.558069 1355 0.749660 0.661824 0.000000
-4.654002 -4.206592 -0.556157 1353 0.749660 0.661824 0.000000
-4.653850 -4.206456 -0.554189 1359 0.749660 0.661824 0.000000
-4.653865 -4.206479 -0.552259 1351 0.749660 0.661824 0.000000
-4.653395 -4.206053 -0.550263 1339 0.749660 0.661824 0.000000
-4.653417 -4.206068 -0.548323 1351 0.749660 0.661824 0.000000
-4.653480 -4.206129 -0.546382 1345 0.749660 0.661824 0.000000
-4.653924 -4.206530 -0.544498 1345 0.749660 0.661824 0.000000
-4.654488 -4.207037 -0.542623 1363 0.749660 0.661824 0.000000
-4.654072 -4.206655 -0.540636 1357 0.749660 0.661824 0.000000
-4.653865 -4.206476 -0.538668 1343 0.749660 0.661824 0.000000
-4.654310 -4.206876 -0.536774 1351 0.749660 0.661824 0.000000
-4.654531 -4.207075 -0.534862 1365 0.749660 0.661824 0.000000
-4.654442 -4.206989 -0.532913 1363 0.749660 0.661824 0.000000
-4.654609 -4.207144 -0.530991 1371 0.749660 0.661823 0.000000
-4.654408 -4.206958 -0.529033 1379 0.749660 0.661824 0.000000
-4.653605 -4.206243 -0.527000 1357 0.749660 0.661824 0.000000
-4.653133 -4.205817 -0.525005 1357 0.749660 0.661824 0.000000
-4.652758 -4.205479 -0.523028 1355 0.749660 0.661823 0.000000
-4.653307 -4.205975 -0.521143 1357 0.749660 0.661824 0.000000
-4.654187 -4.206759 -0.519305 1353 0.749660 0.661824 0.000000
-4.653766 -4.206384 -0.517319 1361 0.749660 0.661824 0.000000
-4.653342 -4.205996 -0.515333 1351 0.749660 0.661824 0.000000
-4.654050 -4.206643 -0.513476 1349 0.749660 0.661824 0.000000
-4.654048 -4.206640 -0.511536 1355 0.749660 0.661824 0.000000
-4.653896 -4.206504 -0.509577 1357 0.749660 0.661824 0.000000
-4.654340 -4.206905 -0.507683 1361 0.749660 0.661824 0.000000
-4.653966 -4.206568 -0.505707 1357 0.749660 0.661824 0.000000
-4.653319 -4.205977 -0.503703 1357 0.749660 0.661824 0.000000
-4.653652 -4.206276 -0.501799 1355 0.749660 0.661824 0.000000
-4.654353 -4.206918 -0.499933 1365 0.749660 0.661824 0.000000
-4.654310 -4.206870 -0.497983 1365 0.749660 0.661824 0.000000
-4.653124 -4.205800 -0.495924 1357 0.749660 0.661824 0.000000
-4.652311 -4.205065 -0.493901 1347 0.749660 0.661824 0.000000
-4.653074 -4.205756 -0.492044 1343 0.749660 0.661824 0.000000
-4.653996 -4.206585 -0.490206 1347 0.749660 0.661824 0.000000
-4.654432 -4.206980 -0.488312 1347 0.749660 0.661824 0.000000
-4.654376 -4.206933 -0.486362 1355 0.749660 0.661823 0.000000
-4.654160 -4.206734 -0.484404 1361 0.749660 0.661824 0.000000
-4.654381 -4.206933 -0.482492 1373 0.749660 0.661824 0.000000
-4.654428 -4.206981 -0.480562 1357 0.749660 0.661824 0.000000
-4.653997 -4.206586 -0.478576 1363 0.749660 0.661824 0.000000
-4.653774 -4.206394 -0.476618 1367 0.749660 0.661824 0.000000
-4.654543 -4.207078 -0.474751 1381 0.749660 0.661824 0.000000
-4.654424 -4.206981 -0.472802 1379 0.749660 0.661824 0.000000
-4.653826 -4.206442 -0.470807 1367 0.749660 0.661824 0.000000
-4.653777 -4.206387 -0.468867 1353 0.749660 0.661824 0.000000
-4.653012 -4.205703 -0.466854 1343 0.749660 0.661823 0.000000
-4.653003 -4.205694 -0.464915 1359 0.749660 0.661824 0.000000
-4.653279 -4.205936 -0.463012 1363 0.749660 0.661824 0.000000
-4.653493 -4.206128 -0.461090 1363 0.749660 0.661823 0.000000
-4.654185 -4.206763 -0.459223 1363 0.749660 0.661824 0.000000
-4.654072 -4.206659 -0.457274 1345 0.749660 0.661823 0.000000
-4.653793 -4.206410 -0.455317 1335 0.749660 0.661824 0.000000
-4.653784 -4.206400 -0.453377 1349 0.749660 0.661824 0.000000
-4.653568 -4.206202 -0.451419 1365 0.749660 0.661824 0.000000
-4.653725 -4.206336 -0.449498 1353 0.749660 0.661824 0.000000
-4.654202 -4.206776 -0.447603 1351 0.749660 0.661824 0.000000
-4.653485 -4.206130 -0.445600 1359 0.749660 0.661824 0.000000
-4.652879 -4.205584 -0.443605 1355 0.749660 0.661823 0.000000
-4.653530 -4.206160 -0.441729 1357 0.749660 0.661823 0.000000
-4.653896 -4.206499 -0.439836 1355 0.749660 0.661824 0.000000
-4.654268 -4.206829 -0.437932 1361 0.749660 0.661824 0.000000
-4.653980 -4.206574 -0.435965 1351 0.749660 0.661823 0.000000
-4.653486 -4.206129 -0.433989 1329 0.749660 0.661823 0.000000
-4.653851 -4.206454 -0.432086 1335 0.749660 0.661824 0.000000
-4.653953 -4.206545 -0.430155 1353 0.749660 0.661824 0.000000
-4.652854 -4.205559 -0.428125 1357 0.749660 0.661824 0.000000
-4.652241 -4.205007 -0.426141 1351 0.749660 0.661824 0.000000
-4.652994 -4.205678 -0.424264 1345 0.749660 0.661824 0.000000
-4.653304 -4.205959 -0.422361 1349 0.749660 0.661824 0.000000
-4.653670 -4.206297 -0.420457 1361 0.749660 0.661824 0.000000
-4.653875 -4.206483 -0.418545 1367 0.749660 0.661824 0.000000
-4.654183 -4.206750 -0.416633 1357 0.749660 0.661824 0.000000
-4.654541 -4.207083 -0.414729 1365 0.749660 0.661824 0.000000
-4.654699 -4.207217 -0.412808 1353 0.749660 0.661824 0.000000
-4.654404 -4.206956 -0.410850 1353 0.749660 0.661824 0.000000
-4.653575 -4.206209 -0.408848 1349 0.749660 0.661824 0.000000
-4.653455 -4.206099 -0.406899 1347 0.749660 0.661823 0.000000
-4.653757 -4.206373 -0.404986 1341 0.749660 0.661823 0.000000
-4.653843 -4.206452 -0.403065 1341 0.749660 0.661824 0.000000
-4.653937 -4.206537 -0.401134 1353 0.749660 0.661824 0.000000
-4.654301 -4.206861 -0.399231 1357 0.749660 0.661824 0.000000
-4.654388 -4.206941 -0.397310 1347 0.749660 0.661824 0.000000
-4.654426 -4.206968 -0.395380 1351 0.749660 0.661824 0.000000
-4.654458 -4.207004 -0.393439 1363 0.749660 0.661824 0.000000
-4.654051 -4.206642 -0.391473 1361 0.749660 0.661824 0.000000
-4.653978 -4.206568 -0.389534 1353 0.749660 0.661824 0.000000
-4.654287 -4.206849 -0.387631 1347 0.749660 0.661823 0.000000
-4.654214 -4.206776 -0.385692 1341 0.749660 0.661824 0.000000
-4.654134 -4.206711 -0.383752 1347 0.749660 0.661824 0.000000
-4.654275 -4.206833 -0.381821 1361 0.749660 0.661824 0.000000
-4.654147 -4.206717 -0.379882 1359 0.749660 0.661823 0.000000
-4.653907 -4.206499 -0.377924 1353 0.749660 0.661824 0.000000
-4.653397 -4.206041 -0.375959 1333 0.749660 0.661824 0.000000
-4.653531 -4.206158 -0.374038 1345 0.749660 0.661824 0.000000
-4.654047 -4.206628 -0.372143 1355 0.749660 0.661823 0.000000
-4.653800 -4.206404 -0.370185 1341 0.749660 0.661823 0.000000
-4.653616 -4.206244 -0.368237 1331 0.749660 0.661824 0.000000
-4.653750 -4.206360 -0.366315 1337 0.749660 0.661824 0.000000
-4.653774 -4.206390 -0.364385 1331 0.749660 0.661824 0.000000
-4.653811 -4.206418 -0.362455 1333 0.749660 0.661824 0.000000
-4.653667 -4.206288 -0.360516 1347 0.749660 0.661824 0.000000
-4.653746 -4.206361 -0.358585 1349 0.749660 0.661824 0.000000
-4.654214 -4.206780 -0.356691 1339 0.749660 0.661824 0.000000
-4.654181 -4.206752 -0.354751 1331 0.749660 0.661824 0.000000
-4.654099 -4.206673 -0.352812 1341 0.749660 0.661824 0.000000
-4.653740 -4.206348 -0.350855 1345 0.749660 0.661824 0.000000
-4.653604 -4.206225 -0.348916 1343 0.749660 0.661824 0.000000
-4.653794 -4.206398 -0.346994 1335 0.749660 0.661824 0.000000
-4.653595 -4.206226 -0.345046 1319 0.749660 0.661824 0.000000
-4.653451 -4.206097 -0.343107 1325 0.749660 0.661823 0.000000
-4.653647 -4.206263 -0.341186 1323 0.749660 0.661824 0.000000
-4.653607 -4.206228 -0.339256 1317 0.749660 0.661824 0.000000
-4.653470 -4.206105 -0.337317 1329 0.749660 0.661824 0.000000
-4.653701 -4.206324 -0.335395 1335 0.749660 0.661824 0.000000
-4.654154 -4.206731 -0.333501 1333 0.749660 0.661824 0.000000
-4.654399 -4.206948 -0.331578 1337 0.749660 0.661824 0.000000
-4.654421 -4.206964 -0.329648 1337 0.749660 0.661824 0.000000
-4.654214 -4.206785 -0.327710 1337 0.749660 0.661824 0.000000
-4.653855 -4.206460 -0.325753 1335 0.749660 0.661824 0.000000
-4.653662 -4.206279 -0.323805 1323 0.749660 0.661824 0.000000
-4.653192 -4.205853 -0.321839 1309 0.749660 0.661824 0.000000
-4.653047 -4.205725 -0.319901 1327 0.749660 0.661824 0.000000
-4.653333 -4.205987 -0.317988 1333 0.749660 0.661823 0.000000
-4.653293 -4.205953 -0.316058 1331 0.749660 0.661824 0.000000
-4.653522 -4.206157 -0.314136 1327 0.749660 0.661824 0.000000
-4.653808 -4.206419 -0.312233 1329 0.749660 0.661824 0.000000
-4.653781 -4.206383 -0.310294 1335 0.749660 0.661824 0.000000
-4.653893 -4.206495 -0.308373 1333 0.749660 0.661824 0.000000
-4.654074 -4.206649 -0.306451 1331 0.749660 0.661824 0.000000
-4.654471 -4.207012 -0.304547 1353 0.749660 0.661824 0.000000
-4.655137 -4.204770 -0.694244 1347 0.749660 0.661824 0.000000
-4.655620 -4.205202 -0.692360 1359 0.749660 0.661824 0.000000
-4.655453 -4.205053 -0.690391 1367 0.749660 0.661824 0.000000
-4.654305 -4.204015 -0.688272 1337 0.749660 0.661824 0.000000
-4.654567 -4.204258 -0.686359 1335 0.749660 0.661824 0.000000
-4.654994 -4.204633 -0.684475 1361 0.749660 0.661824 0.000000
-4.655257 -4.204876 -0.682563 1353 0.749660 0.661824 0.000000
-4.655525 -4.205112 -0.680650 1355 0.749660 0.661823 0.000000
-4.654920 -4.204567 -0.678616 1343 0.749660 0.661824 0.000000
-4.655022 -4.204658 -0.676685 1343 0.749660 0.661824 0.000000
-4.655984 -4.205533 -0.674866 1365 0.749660 0.661824 0.000000
-4.655594 -4.205183 -0.672870 1365 0.749660 0.661824 0.000000
-4.654724 -4.204390 -0.670798 1343 0.749660 0.661824 0.000000
