628
-15.324803 -14.866802 -0.657059 827 0.707407 0.706807 0.000000
-15.325894 -14.867861 -0.650549 829 0.707407 0.706807 0.000000
-15.325621 -14.867587 -0.643971 837 0.707407 0.706807 0.000000
-15.324399 -14.866405 -0.637353 843 0.707407 0.706807 0.000000
-15.324953 -14.866951 -0.630817 839 0.707407 0.706807 0.000000
-15.325827 -14.867802 -0.624289 805 0.707407 0.706807 0.000000
-15.325494 -14.867477 -0.617712 803 0.707407 0.706807 0.000000
-15.325625 -14.867606 -0.611161 827 0.707407 0.706807 0.000000
-15.325347 -14.867328 -0.604583 853 0.707407 0.706807 0.000000
-15.324000 -14.866027 -0.597966 831 0.707407 0.706807 0.000000
-15.324820 -14.866820 -0.591438 839 0.707407 0.706807 0.000000
-15.324944 -14.866942 -0.584876 841 0.707407 0.706807 0.000000
-15.324813 -14.866814 -0.578318 829 0.707407 0.706807 0.000000
-15.324885 -14.866892 -0.571757 835 0.707407 0.706807 0.000000
-15.324487 -14.866502 -0.565180 831 0.707407 0.706807 0.000000
-15.324769 -14.866781 -0.558627 841 0.707407 0.706807 0.000000
-15.324257 -14.866282 -0.552052 837 0.707407 0.706807 0.000000
-15.323332 -14.865385 -0.545451 827 0.707407 0.706807 0.000000
-15.324242 -14.866267 -0.538922 825 0.707407 0.706807 0.000000
-15.324252 -14.866281 -0.532362 817 0.707407 0.706807 0.000000
-15.324525 -14.866540 -0.525809 821 0.707407 0.706807 0.000000
-15.324947 -14.866964 -0.519265 821 0.707407 0.706807 0.000000
-15.323540 -14.865599 -0.512658 849 0.707407 0.706807 0.000000
-15.322870 -14.864943 -0.506074 857 0.707407 0.706807 0.000000
-15.323604 -14.865664 -0.499537 859 0.707407 0.706807 0.000000
-15.324187 -14.866222 -0.493001 849 0.707407 0.706807 0.000000
-15.324398 -14.866429 -0.486449 851 0.707407 0.706807 0.000000
-15.323823 -14.865878 -0.479865 845 0.707407 0.706807 0.000000
-15.322462 -14.864552 -0.473267 825 0.707407 0.706807 0.000000
-15.323032 -14.865112 -0.466722 827 0.707407 0.706807 0.000000
-15.324184 -14.866221 -0.460201 821 0.707407 0.706807 0.000000
-15.324232 -14.866281 -0.453640 825 0.707407 0.706807 0.000000
-15.323541 -14.865604 -0.447066 831 0.707407 0.706807 0.000000
-15.322492 -14.864593 -0.440476 807 0.707407 0.706807 0.000000
-15.322531 -14.864630 -0.433916 807 0.707407 0.706807 0.000000
-15.324368 -14.866403 -0.427408 817 0.707407 0.706807 0.000000
-15.324874 -14.866897 -0.420863 805 0.707407 0.706807 0.000000
-15.322549 -14.864650 -0.414245 829 0.707407 0.706807 0.000000
-15.322480 -14.864585 -0.407676 841 0.707407 0.706807 0.000000
-15.324458 -14.866501 -0.401177 817 0.707407 0.706807 0.000000
-15.325121 -14.867151 -0.394630 831 0.707407 0.706807 0.000000
-15.324474 -14.866512 -0.388056 805 0.707407 0.706807 0.000000
-15.323769 -14.865839 -0.381483 841 0.707407 0.706807 0.000000
-15.324165 -14.866228 -0.374929 843 0.707407 0.706807 0.000000
-15.324096 -14.866150 -0.368369 837 0.707407 0.706807 0.000000
-15.322495 -14.864597 -0.361774 831 0.707407 0.706807 0.000000
-15.322316 -14.864429 -0.355216 825 0.707407 0.706807 0.000000
-15.323541 -14.865624 -0.348684 805 0.707407 0.706807 0.000000
-15.323191 -14.865287 -0.342117 817 0.707407 0.706807 0.000000
-15.323378 -14.865461 -0.335565 803 0.707407 0.706807 0.000000
-15.324188 -14.866247 -0.329027 821 0.707407 0.706807 0.000000
-15.324523 -14.866571 -0.322474 831 0.707407 0.706807 0.000000
-15.323794 -14.865878 -0.315901 835 0.707407 0.706807 0.000000
-15.321505 -14.863647 -0.309293 807 0.707407 0.706807 0.000000
-15.321732 -14.863870 -0.302740 799 0.707407 0.706807 0.000000
-15.322217 -14.864345 -0.296195 805 0.707407 0.706807 0.000000
-15.321493 -14.863642 -0.289622 809 0.707407 0.706807 0.000000
-15.328697 -14.861671 -0.663607 837 0.707407 0.706807 0.000000
-15.329943 -14.862873 -0.657095 831 0.707407 0.706807 0.000000
-15.330349 -14.863269 -0.650551 847 0.707407 0.706807 0.000000
-15.330023 -14.862950 -0.643974 821 0.707407 0.706807 0.000000
-15.330741 -14.863647 -0.637437 849 0.707407 0.706807 0.000000
-15.331293 -14.864191 -0.630902 817 0.707407 0.706807 0.000000
-15.330804 -14.863711 -0.624316 827 0.707407 0.706807 0.000000
-15.329995 -14.862925 -0.617714 831 0.707407 0.706807 0.000000
-15.330183 -14.863112 -0.611162 827 0.707407 0.706807 0.000000
-15.329897 -14.862841 -0.604584 845 0.707407 0.706807 0.000000
-15.328085 -14.861087 -0.597951 837 0.707407 0.706807 0.000000
-15.327906 -14.860904 -0.591383 817 0.707407 0.706807 0.000000
-15.329766 -14.862709 -0.584895 833 0.707407 0.706807 0.000000
-15.330367 -14.863295 -0.578359 837 0.707407 0.706807 0.000000
-15.330967 -14.863879 -0.571813 843 0.707407 0.706807 0.000000
-15.329302 -14.862262 -0.565189 837 0.707407 0.706807 0.000000
-15.327590 -14.860604 -0.558565 833 0.707407 0.706807 0.000000
-15.329134 -14.862106 -0.552060 839 0.707407 0.706807 0.000000
-15.330146 -14.863087 -0.545541 843 0.707407 0.706807 0.000000
-15.329734 -14.862683 -0.538964 841 0.707407 0.706807 0.000000
-15.329594 -14.862547 -0.532396 833 0.707407 0.706807 0.000000
-15.330601 -14.863535 -0.525876 837 0.707407 0.706807 0.000000
-15.329822 -14.862774 -0.519283 815 0.707407 0.706807 0.000000
-15.328680 -14.861670 -0.512684 827 0.707407 0.706807 0.000000
-15.328106 -14.861118 -0.506109 851 0.707407 0.706807 0.000000
-15.327741 -14.860768 -0.499532 855 0.707407 0.706807 0.000000
-15.328650 -14.861637 -0.493004 839 0.707407 0.706807 0.000000
-15.328379 -14.861377 -0.486436 859 0.707407 0.706807 0.000000
-15.328171 -14.861183 -0.479868 849 0.707407 0.706807 0.000000
-15.329377 -14.862351 -0.473346 863 0.707407 0.706807 0.000000
-15.329067 -14.862047 -0.466779 861 0.707407 0.706807 0.000000
-15.328587 -14.861586 -0.460203 875 0.707407 0.706807 0.000000
-15.329108 -14.862092 -0.453658 841 0.707407 0.706807 0.000000
-15.328736 -14.861734 -0.447082 837 0.707407 0.706807 0.000000
-15.329405 -14.862376 -0.440545 823 0.707407 0.706807 0.000000
-15.328723 -14.861723 -0.433971 839 0.707407 0.706807 0.000000
-15.327026 -14.860078 -0.427357 821 0.707407 0.706807 0.000000
-15.327284 -14.860324 -0.420805 803 0.707407 0.706807 0.000000
-15.326530 -14.859598 -0.414232 821 0.707407 0.706807 0.000000
-15.327192 -14.860247 -0.407685 819 0.707407 0.706807 0.000000
-15.328229 -14.861247 -0.401155 811 0.707407 0.706807 0.000000
-15.328370 -14.861383 -0.394604 817 0.707407 0.706807 0.000000
-15.328510 -14.861520 -0.388052 837 0.707407 0.706807 0.000000
-15.327967 -14.860994 -0.381477 841 0.707407 0.706807 0.000000
-15.327782 -14.860819 -0.374909 815 0.707407 0.706807 0.000000
-15.327657 -14.860694 -0.368350 823 0.707407 0.706807 0.000000
-15.328678 -14.861695 -0.361820 803 0.707407 0.706807 0.000000
-15.329597 -14.862585 -0.355281 799 0.707407 0.706807 0.000000
-15.327888 -14.860929 -0.348687 815 0.707407 0.706807 0.000000
-15.326651 -14.859735 -0.342099 815 0.707407 0.706807 0.000000
-15.328199 -14.861227 -0.335574 799 0.707407 0.706807 0.000000
-15.327484 -14.860532 -0.329001 811 0.707407 0.706807 0.000000
-15.326756 -14.859838 -0.322427 817 0.707407 0.706807 0.000000
-15.327938 -14.860974 -0.315896 835 0.707407 0.706807 0.000000
-15.327847 -14.860890 -0.309337 787 0.707407 0.706807 0.000000
-15.327706 -14.860753 -0.302778 795 0.707407 0.706807 0.000000
-15.327614 -14.860669 -0.296219 797 0.707407 0.706807 0.000000
-15.327623 -14.860682 -0.289658 807 0.707407 0.706807 0.000000
-15.334328 -14.858040 -0.657089 831 0.707407 0.706807 0.000000
-15.334311 -14.858019 -0.650529 839 0.707407 0.706807 0.000000
-15.333768 -14.857507 -0.643944 827 0.707407 0.706807 0.000000
-15.334120 -14.857844 -0.637390 815 0.707407 0.706807 0.000000
-15.334729 -14.858437 -0.630855 819 0.707407 0.706807 0.000000
-15.335344 -14.859035 -0.624319 831 0.707407 0.706807 0.000000
-15.335531 -14.859208 -0.617757 855 0.707407 0.706807 0.000000
-15.334201 -14.857922 -0.611139 821 0.707407 0.706807 0.000000
-15.332911 -14.856682 -0.604531 821 0.707407 0.706807 0.000000
-15.333045 -14.856812 -0.597970 829 0.707407 0.706807 0.000000
-15.333341 -14.857091 -0.591427 837 0.707407 0.706807 0.000000
-15.333575 -14.857318 -0.584874 831 0.707407 0.706807 0.000000
-15.333639 -14.857390 -0.578314 821 0.707407 0.706807 0.000000
-15.333874 -14.857616 -0.571761 849 0.707407 0.706807 0.000000
-15.333741 -14.857488 -0.565192 839 0.707407 0.706807 0.000000
-15.333859 -14.857604 -0.558631 809 0.707407 0.706807 0.000000
-15.335137 -14.858845 -0.552119 843 0.707407 0.706807 0.000000
-15.334731 -14.858448 -0.545542 821 0.707407 0.706807 0.000000
-15.332857 -14.856628 -0.538920 829 0.707407 0.706807 0.000000
-15.333084 -14.856850 -0.532368 831 0.707407 0.706807 0.000000
-15.334307 -14.858031 -0.525846 851 0.707407 0.706807 0.000000
-15.332946 -14.856719 -0.519239 823 0.707407 0.706807 0.000000
-15.331173 -14.854999 -0.512616 827 0.707407 0.706807 0.000000
-15.331384 -14.855206 -0.506063 821 0.707407 0.706807 0.000000
-15.332022 -14.855823 -0.499527 825 0.707407 0.706807 0.000000
-15.333231 -14.857006 -0.493005 839 0.707407 0.706807 0.000000
-15.333075 -14.856856 -0.486437 839 0.707407 0.706807 0.000000
-15.331404 -14.855232 -0.479833 825 0.707407 0.706807 0.000000
-15.331979 -14.855783 -0.473287 841 0.707407 0.706807 0.000000
-15.332767 -14.856550 -0.466749 827 0.707407 0.706807 0.000000
-15.332916 -14.856707 -0.460198 819 0.707407 0.706807 0.000000
-15.333811 -14.857563 -0.453659 807 0.707407 0.706807 0.000000
-15.332436 -14.856238 -0.447062 817 0.707407 0.706807 0.000000
-15.331425 -14.855258 -0.440471 837 0.707407 0.706807 0.000000
-15.332047 -14.855861 -0.433935 839 0.707407 0.706807 0.000000
-15.331979 -14.855797 -0.427376 827 0.707407 0.706807 0.000000
-15.332135 -14.855945 -0.420824 809 0.707407 0.706807 0.000000
-15.333063 -14.856856 -0.414285 835 0.707407 0.706807 0.000000
-15.332520 -14.856331 -0.407710 811 0.707407 0.706807 0.000000
-15.331351 -14.855192 -0.401121 819 0.707407 0.706807 0.000000
-15.331702 -14.855530 -0.394578 821 0.707407 0.706807 0.000000
-15.332467 -14.856277 -0.388040 823 0.707407 0.706807 0.000000
-15.332656 -14.856467 -0.381478 811 0.707407 0.706807 0.000000
-15.331691 -14.855523 -0.374897 809 0.707407 0.706807 0.000000
-15.331247 -14.855095 -0.368331 815 0.707407 0.706807 0.000000
-15.331537 -14.855381 -0.361778 811 0.707407 0.706807 0.000000
-15.331990 -14.855817 -0.355234 811 0.707407 0.706807 0.000000
-15.331905 -14.855739 -0.348675 807 0.707407 0.706807 0.000000
-15.331347 -14.855199 -0.342100 791 0.707407 0.706807 0.000000
-15.332996 -14.856791 -0.335584 813 0.707407 0.706807 0.000000
-15.334281 -14.858036 -0.329052 813 0.707407 0.706807 0.000000
-15.332984 -14.856791 -0.322464 819 0.707407 0.706807 0.000000
-15.332160 -14.855991 -0.315891 829 0.707407 0.706807 0.000000
-15.331491 -14.855350 -0.309318 779 0.707407 0.706807 0.000000
-15.330970 -14.854842 -0.302752 801 0.707407 0.706807 0.000000
-15.331679 -14.855531 -0.296205 793 0.707407 0.706807 0.000000
-15.332108 -14.855947 -0.289661 781 0.707407 0.706807 0.000000
-15.338903 -14.853210 -0.657092 841 0.707407 0.706807 0.000000
-15.338625 -14.852943 -0.650514 811 0.707407 0.706807 0.000000
-15.338821 -14.853140 -0.643962 821 0.707407 0.706807 0.000000
-15.338907 -14.853217 -0.637401 833 0.707407 0.706807 0.000000
-15.337740 -14.852093 -0.630792 817 0.707407 0.706807 0.000000
-15.338720 -14.853033 -0.624263 821 0.707407 0.706807 0.000000
-15.339158 -14.853470 -0.617718 833 0.707407 0.706807 0.000000
-15.337246 -14.851619 -0.611086 833 0.707407 0.706807 0.000000
-15.337020 -14.851397 -0.604509 837 0.707407 0.706807 0.000000
-15.337783 -14.852131 -0.597981 817 0.707407 0.706807 0.000000
-15.338120 -14.852456 -0.591428 835 0.707407 0.706807 0.000000
-15.338198 -14.852540 -0.584877 809 0.707407 0.706807 0.000000
-15.338690 -14.853022 -0.578332 827 0.707407 0.706807 0.000000
-15.338552 -14.852885 -0.571763 833 0.707407 0.706807 0.000000
-15.338208 -14.852553 -0.565186 831 0.707407 0.706807 0.000000
-15.338068 -14.852416 -0.558627 837 0.707407 0.706807 0.000000
-15.338514 -14.852846 -0.552073 847 0.707407 0.706807 0.000000
-15.339153 -14.853476 -0.545537 837 0.707407 0.706807 0.000000
-15.338750 -14.853080 -0.538960 829 0.707407 0.706807 0.000000
-15.338284 -14.852632 -0.532385 847 0.707407 0.706807 0.000000
-15.338401 -14.852748 -0.525833 849 0.707407 0.706807 0.000000
-15.338674 -14.853007 -0.519281 847 0.707407 0.706807 0.000000
-15.337742 -14.852104 -0.512689 827 0.707407 0.706807 0.000000
-15.337852 -14.852216 -0.506128 815 0.707407 0.706807 0.000000
-15.337440 -14.851812 -0.499552 843 0.707407 0.706807 0.000000
-15.337284 -14.851663 -0.492993 841 0.707407 0.706807 0.000000
-15.337917 -14.852287 -0.486447 831 0.707407 0.706807 0.000000
-15.338073 -14.852436 -0.479896 849 0.707407 0.706807 0.000000
-15.337226 -14.851617 -0.473313 825 0.707407 0.706807 0.000000
-15.337490 -14.851871 -0.466761 845 0.707407 0.706807 0.000000
-15.339117 -14.853442 -0.460245 829 0.707407 0.706807 0.000000
-15.338482 -14.852839 -0.453671 821 0.707407 0.706807 0.000000
-15.337790 -14.852162 -0.447087 853 0.707407 0.706807 0.000000
-15.337479 -14.851857 -0.440520 815 0.707407 0.706807 0.000000
-15.337465 -14.851851 -0.433960 811 0.707407 0.706807 0.000000
-15.336774 -14.851175 -0.427377 783 0.707407 0.706807 0.000000
-15.336231 -14.850663 -0.420812 807 0.707407 0.706807 0.000000
-15.336947 -14.851358 -0.414265 803 0.707407 0.706807 0.000000
-15.336465 -14.850883 -0.407699 823 0.707407 0.706807 0.000000
-15.336443 -14.850870 -0.401139 801 0.707407 0.706807 0.000000
-15.337806 -14.852182 -0.394616 817 0.707407 0.706807 0.000000
-15.337572 -14.851954 -0.388048 803 0.707407 0.706807 0.000000
-15.336445 -14.850877 -0.381459 811 0.707407 0.706807 0.000000
-15.336314 -14.850746 -0.374900 799 0.707407 0.706807 0.000000
-15.336930 -14.851345 -0.368364 797 0.707407 0.706807 0.000000
-15.336738 -14.851163 -0.361795 805 0.707407 0.706807 0.000000
-15.336395 -14.850832 -0.355228 797 0.707407 0.706807 0.000000
-15.337004 -14.851422 -0.348682 795 0.707407 0.706807 0.000000
-15.337923 -14.852312 -0.342154 827 0.707407 0.706807 0.000000
-15.338095 -14.852475 -0.335592 807 0.707407 0.706807 0.000000
-15.338647 -14.853005 -0.329046 801 0.707407 0.706807 0.000000
-15.337879 -14.852267 -0.322474 799 0.707407 0.706807 0.000000
-15.336838 -14.851260 -0.315893 803 0.707407 0.706807 0.000000
-15.335382 -14.849857 -0.309307 777 0.707407 0.706807 0.000000
-15.333826 -14.848343 -0.302722 767 0.707407 0.706807 0.000000
-15.335423 -14.849889 -0.296196 759 0.707407 0.706807 0.000000
-15.336841 -14.851273 -0.289663 783 0.707407 0.706807 0.000000
-15.342805 -14.847909 -0.657060 817 0.707407 0.706807 0.000000
-15.342853 -14.847954 -0.650500 833 0.707407 0.706807 0.000000
-15.342628 -14.847733 -0.643932 829 0.707407 0.706807 0.000000
-15.342388 -14.847513 -0.637364 833 0.707407 0.706807 0.000000
-15.342279 -14.847403 -0.630795 823 0.707407 0.706807 0.000000
-15.343307 -14.848395 -0.624275 811 0.707407 0.706807 0.000000
-15.345021 -14.850052 -0.617778 833 0.707407 0.706807 0.000000
-15.344523 -14.849578 -0.611193 833 0.707407 0.706807 0.000000
-15.344338 -14.849402 -0.604624 829 0.707407 0.706807 0.000000
-15.343678 -14.848766 -0.598041 823 0.707407 0.706807 0.000000
-15.342870 -14.847980 -0.591438 827 0.707407 0.706807 0.000000
-15.343260 -14.848363 -0.584894 821 0.707407 0.706807 0.000000
-15.343182 -14.848278 -0.578335 845 0.707407 0.706807 0.000000
-15.342731 -14.847842 -0.571749 827 0.707407 0.706807 0.000000
-15.341697 -14.846842 -0.565149 807 0.707407 0.706807 0.000000
-15.341403 -14.846563 -0.558581 809 0.707407 0.706807 0.000000
-15.342096 -14.847239 -0.552044 829 0.707407 0.706807 0.000000
-15.342587 -14.847706 -0.545500 829 0.707407 0.706807 0.000000
-15.343864 -14.848947 -0.538987 831 0.707407 0.706807 0.000000
-15.342978 -14.848097 -0.532396 837 0.707407 0.706807 0.000000
-15.342473 -14.847602 -0.525820 849 0.707407 0.706807 0.000000
-15.343898 -14.848979 -0.519307 861 0.707407 0.706807 0.000000
-15.344063 -14.849148 -0.512745 871 0.707407 0.706807 0.000000
-15.344383 -14.849461 -0.506202 841 0.707407 0.706807 0.000000
-15.344766 -14.849824 -0.499648 841 0.707407 0.706807 0.000000
-15.342766 -14.847887 -0.493027 831 0.707407 0.706807 0.000000
-15.341981 -14.847135 -0.486434 807 0.707407 0.706807 0.000000
-15.342294 -14.847441 -0.479891 817 0.707407 0.706807 0.000000
-15.341772 -14.846932 -0.473316 823 0.707407 0.706807 0.000000
-15.342240 -14.847381 -0.466771 823 0.707407 0.706807 0.000000
-15.342608 -14.847745 -0.460217 847 0.707407 0.706807 0.000000
-15.341979 -14.847135 -0.453643 821 0.707407 0.706807 0.000000
-15.341761 -14.846919 -0.447075 831 0.707407 0.706807 0.000000
-15.342174 -14.847322 -0.440521 821 0.707407 0.706807 0.000000
-15.341795 -14.846959 -0.433954 827 0.707407 0.706807 0.000000
-15.341524 -14.846700 -0.427387 811 0.707407 0.706807 0.000000
-15.342505 -14.847654 -0.420857 827 0.707407 0.706807 0.000000
-15.342754 -14.847894 -0.414305 849 0.707407 0.706807 0.000000
-15.342320 -14.847472 -0.407739 833 0.707407 0.706807 0.000000
-15.342352 -14.847505 -0.401178 817 0.707407 0.706807 0.000000
-15.341551 -14.846725 -0.394596 835 0.707407 0.706807 0.000000
-15.340478 -14.845693 -0.388016 829 0.707407 0.706807 0.000000
-15.341723 -14.846893 -0.381484 831 0.707407 0.706807 0.000000
-15.342332 -14.847485 -0.374938 811 0.707407 0.706807 0.000000
-15.341205 -14.846394 -0.368359 809 0.707407 0.706807 0.000000
-15.341020 -14.846218 -0.361790 835 0.707407 0.706807 0.000000
-15.341877 -14.847057 -0.355252 823 0.707407 0.706807 0.000000
-15.341597 -14.846776 -0.348694 801 0.707407 0.706807 0.000000
-15.341512 -14.846698 -0.342135 847 0.707407 0.706807 0.000000
-15.342113 -14.847283 -0.335589 827 0.707407 0.706807 0.000000
-15.342705 -14.847861 -0.329043 827 0.707407 0.706807 0.000000
-15.341413 -14.846607 -0.322455 799 0.707407 0.706807 0.000000
-15.340598 -14.845815 -0.315883 791 0.707407 0.706807 0.000000
-15.340186 -14.845426 -0.309317 791 0.707407 0.706807 0.000000
-15.341201 -14.846407 -0.302777 781 0.707407 0.706807 0.000000
-15.342313 -14.847485 -0.296246 795 0.707407 0.706807 0.000000
-15.341638 -14.846835 -0.289672 789 0.707407 0.706807 0.000000
-15.347638 -14.843333 -0.657081 805 0.707407 0.706807 0.000000
-15.348146 -14.843827 -0.650536 809 0.707407 0.706807 0.000000
-15.348715 -14.844373 -0.644000 823 0.707407 0.706807 0.000000
-15.348599 -14.844268 -0.637431 831 0.707407 0.706807 0.000000
-15.348209 -14.843884 -0.630845 821 0.707407 0.706807 0.000000
-15.348344 -14.844014 -0.624293 829 0.707407 0.706807 0.000000
-15.348273 -14.843949 -0.617724 839 0.707407 0.706807 0.000000
-15.347569 -14.843275 -0.611130 835 0.707407 0.706807 0.000000
-15.348065 -14.843747 -0.604595 837 0.707407 0.706807 0.000000
-15.348464 -14.844137 -0.598041 801 0.707407 0.706807 0.000000
-15.348332 -14.844007 -0.591472 827 0.707407 0.706807 0.000000
-15.348413 -14.844093 -0.584922 813 0.707407 0.706807 0.000000
-15.348645 -14.844319 -0.578369 821 0.707407 0.706807 0.000000
-15.348140 -14.843825 -0.571784 837 0.707407 0.706807 0.000000
-15.348789 -14.844463 -0.565247 825 0.707407 0.706807 0.000000
-15.348759 -14.844431 -0.558688 839 0.707407 0.706807 0.000000
-15.348510 -14.844189 -0.552110 835 0.707407 0.706807 0.000000
-15.348051 -14.843748 -0.545534 823 0.707407 0.706807 0.000000
-15.348479 -14.844163 -0.538990 833 0.707407 0.706807 0.000000
-15.348389 -14.844080 -0.532420 825 0.707407 0.706807 0.000000
-15.347198 -14.842922 -0.525822 841 0.707407 0.706807 0.000000
-15.347308 -14.843034 -0.519260 833 0.707407 0.706807 0.000000
-15.347737 -14.843449 -0.512716 855 0.707407 0.706807 0.000000
-15.347956 -14.843663 -0.506164 859 0.707407 0.706807 0.000000
-15.348805 -14.844481 -0.499636 849 0.707407 0.706807 0.000000
-15.348339 -14.844033 -0.493060 833 0.707407 0.706807 0.000000
-15.347919 -14.843623 -0.486484 859 0.707407 0.706807 0.000000
-15.347975 -14.843676 -0.479923 829 0.707407 0.706807 0.000000
-15.347602 -14.843318 -0.473347 815 0.707407 0.706807 0.000000
-15.347075 -14.842819 -0.466771 819 0.707407 0.706807 0.000000
-15.346119 -14.841896 -0.460190 815 0.707407 0.706807 0.000000
-15.346127 -14.841896 -0.453630 815 0.707407 0.706807 0.000000
-15.347217 -14.842954 -0.447100 813 0.707407 0.706807 0.000000
-15.347998 -14.843716 -0.440562 817 0.707407 0.706807 0.000000
-15.347103 -14.842845 -0.433980 831 0.707407 0.706807 0.000000
-15.346302 -14.842065 -0.427398 813 0.707407 0.706807 0.000000
-15.346855 -14.842610 -0.420852 827 0.707407 0.706807 0.000000
-15.347480 -14.843215 -0.414306 829 0.707407 0.706807 0.000000
-15.347729 -14.843454 -0.407754 823 0.707407 0.706807 0.000000
-15.346976 -14.842728 -0.401181 827 0.707407 0.706807 0.000000
-15.347382 -14.843124 -0.394627 837 0.707407 0.706807 0.000000
-15.347257 -14.842999 -0.388068 831 0.707407 0.706807 0.000000
-15.347133 -14.842875 -0.381509 809 0.707407 0.706807 0.000000
-15.347952 -14.843669 -0.374971 801 0.707407 0.706807 0.000000
-15.347298 -14.843039 -0.368397 799 0.707407 0.706807 0.000000
-15.345900 -14.841694 -0.361800 795 0.707407 0.706807 0.000000
-15.346033 -14.841825 -0.355249 795 0.707407 0.706807 0.000000
-15.346743 -14.842514 -0.348702 815 0.707407 0.706807 0.000000
-15.347295 -14.843044 -0.342156 797 0.707407 0.706807 0.000000
-15.345787 -14.841584 -0.335570 793 0.707407 0.706807 0.000000
-15.344970 -14.840791 -0.328988 803 0.707407 0.706807 0.000000
-15.345563 -14.841369 -0.322442 797 0.707407 0.706807 0.000000
-15.346420 -14.842207 -0.315904 803 0.707407 0.706807 0.000000
-15.347020 -14.842779 -0.309358 799 0.707407 0.706807 0.000000
-15.345605 -14.841422 -0.302771 787 0.707407 0.706807 0.000000
-15.344516 -14.840363 -0.296202 785 0.707407 0.706807 0.000000
-15.345894 -14.841701 -0.289668 803 0.707407 0.706807 0.000000
-15.354547 -14.840409 -0.657173 829 0.707407 0.706807 0.000000
-15.355643 -14.841461 -0.650652 815 0.707407 0.706807 0.000000
-15.354571 -14.840428 -0.644043 811 0.707407 0.706807 0.000000
-15.352088 -14.838024 -0.637376 825 0.707407 0.706807 0.000000
-15.351539 -14.837505 -0.630791 807 0.707407 0.706807 0.000000
-15.353359 -14.839265 -0.624304 817 0.707407 0.706807 0.000000
-15.355275 -14.841117 -0.617815 837 0.707407 0.706807 0.000000
-15.354413 -14.840286 -0.611223 827 0.707407 0.706807 0.000000
-15.352662 -14.838583 -0.604590 821 0.707407 0.706807 0.000000
-15.353316 -14.839227 -0.598053 813 0.707407 0.706807 0.000000
-15.353293 -14.839200 -0.591483 819 0.707407 0.706807 0.000000
-15.352681 -14.838615 -0.584899 801 0.707407 0.706807 0.000000
-15.351818 -14.837771 -0.578307 813 0.707407 0.706807 0.000000
-15.352356 -14.838304 -0.571762 829 0.707407 0.706807 0.000000
-15.352489 -14.838421 -0.565210 819 0.707407 0.706807 0.000000
-15.352715 -14.838641 -0.558658 821 0.707407 0.706807 0.000000
-15.353572 -14.839478 -0.552120 825 0.707407 0.706807 0.000000
-15.352700 -14.838628 -0.545528 837 0.707407 0.706807 0.000000
-15.352764 -14.838699 -0.538967 831 0.707407 0.706807 0.000000
-15.354040 -14.839926 -0.532455 825 0.707407 0.706807 0.000000
-15.354308 -14.840195 -0.525902 831 0.707407 0.706807 0.000000
-15.354160 -14.840051 -0.519333 821 0.707407 0.706807 0.000000
-15.353904 -14.839804 -0.512766 835 0.707407 0.706807 0.000000
-15.353290 -14.839205 -0.506181 813 0.707407 0.706807 0.000000
-15.352757 -14.838700 -0.499606 809 0.707407 0.706807 0.000000
-15.352763 -14.838699 -0.493046 827 0.707407 0.706807 0.000000
-15.351980 -14.837946 -0.486463 815 0.707407 0.706807 0.000000
-15.351723 -14.837699 -0.479896 817 0.707407 0.706807 0.000000
-15.352775 -14.838712 -0.473366 811 0.707407 0.706807 0.000000
-15.352036 -14.837997 -0.466782 817 0.707407 0.706807 0.000000
-15.351196 -14.837186 -0.460200 831 0.707407 0.706807 0.000000
-15.351446 -14.837440 -0.453648 833 0.707407 0.706807 0.000000
-15.351074 -14.837069 -0.447071 829 0.707407 0.706807 0.000000
-15.351595 -14.837575 -0.440526 829 0.707407 0.706807 0.000000
-15.352936 -14.838881 -0.434013 819 0.707407 0.706807 0.000000
-15.353676 -14.839596 -0.427466 819 0.707407 0.706807 0.000000
-15.353294 -14.839218 -0.420899 819 0.707407 0.706807 0.000000
-15.352915 -14.838854 -0.414333 817 0.707407 0.706807 0.000000
-15.352744 -14.838692 -0.407764 813 0.707407 0.706807 0.000000
-15.351461 -14.837458 -0.401176 823 0.707407 0.706807 0.000000
-15.351393 -14.837394 -0.394617 825 0.707407 0.706807 0.000000
-15.352056 -14.838030 -0.388070 817 0.707407 0.706807 0.000000
-15.352508 -14.838465 -0.381526 799 0.707407 0.706807 0.000000
-15.353169 -14.839114 -0.374979 793 0.707407 0.706807 0.000000
-15.353256 -14.839191 -0.368418 791 0.707407 0.706807 0.000000
-15.352704 -14.838660 -0.361854 811 0.707407 0.706807 0.000000
-15.352619 -14.838581 -0.355294 805 0.707407 0.706807 0.000000
-15.352069 -14.838050 -0.348719 785 0.707407 0.706807 0.000000
-15.350933 -14.836951 -0.342140 805 0.707407 0.706807 0.000000
-15.350328 -14.836373 -0.335565 803 0.707407 0.706807 0.000000
-15.350656 -14.836692 -0.329012 825 0.707407 0.706807 0.000000
-15.350687 -14.836711 -0.322452 809 0.707407 0.706807 0.000000
-15.350595 -14.836626 -0.315892 799 0.707407 0.706807 0.000000
-15.350931 -14.836951 -0.309349 769 0.707407 0.706807 0.000000
-15.350791 -14.836814 -0.302790 781 0.707407 0.706807 0.000000
-15.350629 -14.836673 -0.296222 769 0.707407 0.706807 0.000000
-15.351386 -14.837399 -0.289684 739 0.707407 0.706807 0.000000
-15.357627 -14.833955 -0.657101 779 0.707407 0.706807 0.000000
-15.357043 -14.833382 -0.650516 819 0.707407 0.706807 0.000000
-15.357658 -14.833980 -0.643980 833 0.707407 0.706807 0.000000
-15.357956 -14.834271 -0.637427 817 0.707407 0.706807 0.000000
-15.357987 -14.834304 -0.630867 813 0.707407 0.706807 0.000000
-15.358173 -14.834477 -0.624305 807 0.707407 0.706807 0.000000
-15.357468 -14.833804 -0.617722 813 0.707407 0.706807 0.000000
-15.358503 -14.834805 -0.611192 813 0.707407 0.706807 0.000000
-15.359374 -14.835641 -0.604663 803 0.707407 0.706807 0.000000
-15.359080 -14.835361 -0.598096 787 0.707407 0.706807 0.000000
-15.358319 -14.834628 -0.591503 801 0.707407 0.706807 0.000000
-15.357402 -14.833737 -0.584901 791 0.707407 0.706807 0.000000
-15.357527 -14.833861 -0.578350 797 0.707407 0.706807 0.000000
-15.356656 -14.833023 -0.571748 821 0.707407 0.706807 0.000000
-15.356518 -14.832888 -0.565189 783 0.707407 0.706807 0.000000
-15.358371 -14.834686 -0.558692 805 0.707407 0.706807 0.000000
-15.358076 -14.834394 -0.552114 815 0.707407 0.706807 0.000000
-15.357040 -14.833393 -0.545524 803 0.707407 0.706807 0.000000
-15.356584 -14.832952 -0.538948 793 0.707407 0.706807 0.000000
-15.356383 -14.832764 -0.532380 803 0.707407 0.706807 0.000000
-15.357239 -14.833588 -0.525842 799 0.707407 0.706807 0.000000
-15.357568 -14.833907 -0.519298 803 0.707407 0.706807 0.000000
-15.357886 -14.834217 -0.512745 797 0.707407 0.706807 0.000000
-15.357157 -14.833510 -0.506162 799 0.707407 0.706807 0.000000
-15.356006 -14.832399 -0.499563 791 0.707407 0.706807 0.000000
-15.356693 -14.833070 -0.493026 809 0.707407 0.706807 0.000000
-15.356280 -14.832665 -0.486450 827 0.707407 0.706807 0.000000
-15.355636 -14.832056 -0.479866 803 0.707407 0.706807 0.000000
-15.356376 -14.832769 -0.473328 795 0.707407 0.706807 0.000000
-15.356906 -14.833283 -0.466793 813 0.707407 0.706807 0.000000
-15.356059 -14.832465 -0.460201 819 0.707407 0.706807 0.000000
-15.356160 -14.832555 -0.453650 835 0.707407 0.706807 0.000000
-15.355991 -14.832393 -0.447082 825 0.707407 0.706807 0.000000
-15.356520 -14.832905 -0.440536 819 0.707407 0.706807 0.000000
-15.358029 -14.834367 -0.434022 799 0.707407 0.706807 0.000000
-15.357021 -14.833401 -0.427431 793 0.707407 0.706807 0.000000
-15.356010 -14.832419 -0.420851 805 0.707407 0.706807 0.000000
-15.355204 -14.831647 -0.414268 809 0.707407 0.706807 0.000000
-15.355872 -14.832290 -0.407722 803 0.707407 0.706807 0.000000
-15.357546 -14.833899 -0.401216 787 0.707407 0.706807 0.000000
-15.357313 -14.833686 -0.394648 783 0.707407 0.706807 0.000000
-15.357088 -14.833464 -0.388080 799 0.707407 0.706807 0.000000
-15.356646 -14.833036 -0.381514 791 0.707407 0.706807 0.000000
-15.356459 -14.832859 -0.374945 803 0.707407 0.706807 0.000000
-15.358330 -14.834673 -0.368437 819 0.707407 0.706807 0.000000
-15.358943 -14.835256 -0.361891 819 0.707407 0.706807 0.000000
-15.357017 -14.833406 -0.355290 821 0.707407 0.706807 0.000000
-15.356565 -14.832971 -0.348714 797 0.707407 0.706807 0.000000
-15.357119 -14.833503 -0.342168 781 0.707407 0.706807 0.000000
-15.356349 -14.832763 -0.335595 775 0.707407 0.706807 0.000000
-15.356902 -14.833295 -0.329050 789 0.707407 0.706807 0.000000
-15.357285 -14.833658 -0.322496 797 0.707407 0.706807 0.000000
-15.356834 -14.833223 -0.315930 771 0.707407 0.706807 0.000000
-15.357061 -14.833445 -0.309378 807 0.707407 0.706807 0.000000
-15.356121 -14.832548 -0.302797 789 0.707407 0.706807 0.000000
-15.355717 -14.832152 -0.296231 787 0.707407 0.706807 0.000000
-15.356628 -14.833035 -0.289692 785 0.707407 0.706807 0.000000
-15.363280 -14.829986 -0.657145 817 0.707407 0.706807 0.000000
-15.363687 -14.830382 -0.650601 819 0.707407 0.706807 0.000000
-15.364147 -14.830823 -0.644056 819 0.707407 0.706807 0.000000
-15.364344 -14.831019 -0.637494 835 0.707407 0.706807 0.000000
-15.362857 -14.829576 -0.630868 803 0.707407 0.706807 0.000000
-15.361832 -14.828596 -0.624268 793 0.707407 0.706807 0.000000
-15.362602 -14.829336 -0.617740 787 0.707407 0.706807 0.000000
-15.363101 -14.829823 -0.611195 787 0.707407 0.706807 0.000000
-15.362916 -14.829648 -0.604627 803 0.707407 0.706807 0.000000
-15.363212 -14.829926 -0.598074 815 0.707407 0.706807 0.000000
-15.363384 -14.830102 -0.591512 789 0.707407 0.706807 0.000000
-15.362894 -14.829621 -0.584936 803 0.707407 0.706807 0.000000
-15.363394 -14.830108 -0.578392 799 0.707407 0.706807 0.000000
-15.362679 -14.829413 -0.571798 805 0.707407 0.706807 0.000000
-15.361171 -14.827966 -0.565182 791 0.707407 0.706807 0.000000
-15.360712 -14.827523 -0.558607 779 0.707407 0.706807 0.000000
-15.361149 -14.827946 -0.552062 785 0.707407 0.706807 0.000000
-15.362169 -14.828934 -0.545542 805 0.707407 0.706807 0.000000
-15.362700 -14.829446 -0.538997 819 0.707407 0.706807 0.000000
-15.361198 -14.827991 -0.532381 789 0.707407 0.706807 0.000000
-15.360522 -14.827341 -0.525798 781 0.707407 0.706807 0.000000
-15.361798 -14.828568 -0.519285 799 0.707407 0.706807 0.000000
-15.361545 -14.828335 -0.512708 821 0.707407 0.706807 0.000000
-15.361964 -14.828731 -0.506163 801 0.707407 0.706807 0.000000
-15.362339 -14.829101 -0.499620 805 0.707407 0.706807 0.000000
-15.362137 -14.828899 -0.493051 817 0.707407 0.706807 0.000000
-15.361033 -14.827841 -0.486452 809 0.707407 0.706807 0.000000
-15.361027 -14.827842 -0.479892 793 0.707407 0.706807 0.000000
-15.362358 -14.829114 -0.473379 795 0.707407 0.706807 0.000000
-15.361986 -14.828757 -0.466802 813 0.707407 0.706807 0.000000
-15.361612 -14.828399 -0.460236 807 0.707407 0.706807 0.000000
-15.362182 -14.828958 -0.453690 813 0.707407 0.706807 0.000000
-15.362385 -14.829146 -0.447138 847 0.707407 0.706807 0.000000
-15.362013 -14.828789 -0.440561 829 0.707407 0.706807 0.000000
-15.361890 -14.828680 -0.434002 821 0.707407 0.706807 0.000000
-15.362101 -14.828873 -0.427450 807 0.707407 0.706807 0.000000
-15.362187 -14.828964 -0.420889 817 0.707407 0.706807 0.000000
-15.360703 -14.827536 -0.414293 803 0.707407 0.706807 0.000000
-15.359848 -14.826712 -0.407711 793 0.707407 0.706807 0.000000
-15.361195 -14.828010 -0.401188 797 0.707407 0.706807 0.000000
-15.361865 -14.828653 -0.394642 811 0.707407 0.706807 0.000000
-15.361688 -14.828484 -0.388083 789 0.707407 0.706807 0.000000
-15.362675 -14.829431 -0.381544 823 0.707407 0.706807 0.000000
-15.362965 -14.829718 -0.374991 809 0.707407 0.706807 0.000000
-15.362256 -14.829028 -0.368417 801 0.707407 0.706807 0.000000
-15.361442 -14.828250 -0.361835 811 0.707407 0.706807 0.000000
-15.360882 -14.827710 -0.355270 785 0.707407 0.706807 0.000000
-15.362595 -14.829367 -0.348754 785 0.707407 0.706807 0.000000
-15.362883 -14.829638 -0.342201 765 0.707407 0.706807 0.000000
-15.361694 -14.828497 -0.335612 787 0.707407 0.706807 0.000000
-15.362139 -14.828925 -0.329058 775 0.707407 0.706807 0.000000
-15.363050 -14.829808 -0.322519 783 0.707407 0.706807 0.000000
-15.363378 -14.830127 -0.315975 799 0.707407 0.706807 0.000000
-15.362134 -14.828925 -0.309387 799 0.707407 0.706807 0.000000
-15.361045 -14.827879 -0.302807 803 0.707407 0.706807 0.000000
-15.359957 -14.826821 -0.296227 763 0.707407 0.706807 0.000000
-15.359903 -14.826782 -0.289668 787 0.707407 0.706807 0.000000
-15.366836 -14.823991 -0.657098 777 0.707407 0.706807 0.000000
-15.366924 -14.824083 -0.650537 823 0.707407 0.706807 0.000000
-15.366387 -14.823564 -0.643952 797 0.707407 0.706807 0.000000
-15.366419 -14.823596 -0.637392 787 0.707407 0.706807 0.000000
-15.368350 -14.825459 -0.630903 805 0.707407 0.706807 0.000000
-15.368911 -14.825998 -0.624368 799 0.707407 0.706807 0.000000
-15.367518 -14.824660 -0.617751 795 0.707407 0.706807 0.000000
-15.367286 -14.824431 -0.611173 783 0.707407 0.706807 0.000000
-15.367778 -14.824914 -0.604628 797 0.707407 0.706807 0.000000
-15.368345 -14.825459 -0.598092 819 0.707407 0.706807 0.000000
-15.367685 -14.824822 -0.591508 793 0.707407 0.706807 0.000000
-15.367968 -14.825103 -0.584956 813 0.707407 0.706807 0.000000
-15.368730 -14.825834 -0.578418 823 0.707407 0.706807 0.000000
-15.368124 -14.825244 -0.571834 793 0.707407 0.706807 0.000000
-15.367302 -14.824459 -0.565241 805 0.707407 0.706807 0.000000
-15.367053 -14.824219 -0.558674 789 0.707407 0.706807 0.000000
-15.365958 -14.823167 -0.552064 807 0.707407 0.706807 0.000000
-15.366720 -14.823900 -0.545536 795 0.707407 0.706807 0.000000
-15.367318 -14.824470 -0.538991 787 0.707407 0.706807 0.000000
-15.366067 -14.823262 -0.532392 779 0.707407 0.706807 0.000000
-15.366545 -14.823731 -0.525848 789 0.707407 0.706807 0.000000
-15.367244 -14.824399 -0.519311 811 0.707407 0.706807 0.000000
-15.366561 -14.823743 -0.512727 811 0.707407 0.706807 0.000000
-15.364779 -14.822028 -0.506104 781 0.707407 0.706807 0.000000
-15.365529 -14.822750 -0.499567 791 0.707407 0.706807 0.000000
-15.367000 -14.824179 -0.493052 795 0.707407 0.706807 0.000000
-15.366855 -14.824036 -0.486494 795 0.707407 0.706807 0.000000
-15.366583 -14.823777 -0.479926 787 0.707407 0.706807 0.000000
-15.366373 -14.823568 -0.473358 799 0.707407 0.706807 0.000000
-15.366849 -14.824037 -0.466813 779 0.707407 0.706807 0.000000
-15.367417 -14.824581 -0.460268 783 0.707407 0.706807 0.000000
-15.365684 -14.822906 -0.453654 809 0.707407 0.706807 0.000000
-15.365785 -14.823009 -0.447103 801 0.707407 0.706807 0.000000
-15.367715 -14.824873 -0.440594 827 0.707407 0.706807 0.000000
-15.367289 -14.824457 -0.434018 817 0.707407 0.706807 0.000000
-15.367328 -14.824495 -0.427468 793 0.707407 0.706807 0.000000
-15.368216 -14.825359 -0.420929 791 0.707407 0.706807 0.000000
-15.367882 -14.825035 -0.414362 819 0.707407 0.706807 0.000000
-15.366608 -14.823808 -0.407764 787 0.707407 0.706807 0.000000
-15.365909 -14.823126 -0.401191 775 0.707407 0.706807 0.000000
-15.366253 -14.823471 -0.394637 791 0.707407 0.706807 0.000000
-15.366556 -14.823755 -0.388084 781 0.707407 0.706807 0.000000
-15.366798 -14.823989 -0.381532 789 0.707407 0.706807 0.000000
-15.367197 -14.824380 -0.374988 795 0.707407 0.706807 0.000000
-15.366488 -14.823690 -0.368404 775 0.707407 0.706807 0.000000
-15.365726 -14.822955 -0.361831 775 0.707407 0.706807 0.000000
-15.366015 -14.823242 -0.355279 793 0.707407 0.706807 0.000000
-15.366879 -14.824073 -0.348740 791 0.707407 0.706807 0.000000
-15.366377 -14.823594 -0.342175 773 0.707407 0.706807 0.000000
-15.366773 -14.823970 -0.335621 767 0.707407 0.706807 0.000000
-15.366214 -14.823430 -0.329056 795 0.707407 0.706807 0.000000
-15.365234 -14.822489 -0.322475 797 0.707407 0.706807 0.000000
-15.365881 -14.823112 -0.315929 783 0.707407 0.706807 0.000000
-15.366738 -14.823950 -0.309391 765 0.707407 0.706807 0.000000
-15.365487 -14.822742 -0.302802 779 0.707407 0.706807 0.000000
-15.364764 -14.822042 -0.296229 763 0.707407 0.706807 0.000000
-15.364882 -14.822158 -0.289678 761 0.707407 0.706807 0.000000
-15.372676 -14.820567 -0.657158 769 0.707407 0.706807 0.000000
-15.372560 -14.820450 -0.650589 785 0.707407 0.706807 0.000000
-15.372335 -14.820230 -0.644011 789 0.707407 0.706807 0.000000
-15.372522 -14.820418 -0.637459 791 0.707407 0.706807 0.000000
-15.372819 -14.820710 -0.630906 789 0.707407 0.706807 0.000000
-15.372438 -14.820333 -0.624330 797 0.707407 0.706807 0.000000
-15.372097 -14.820015 -0.617752 797 0.707407 0.706807 0.000000
-15.372760 -14.820652 -0.611216 769 0.707407 0.706807 0.000000
-15.373477 -14.821346 -0.604679 779 0.707407 0.706807 0.000000
-15.373616 -14.821468 -0.598128 783 0.707407 0.706807 0.000000
-15.372691 -14.820585 -0.591526 771 0.707407 0.706807 0.000000
-15.371821 -14.819748 -0.584924 787 0.707407 0.706807 0.000000
-15.371893 -14.819813 -0.578374 767 0.707407 0.706807 0.000000
-15.371653 -14.819579 -0.571796 777 0.707407 0.706807 0.000000
-15.371038 -14.818995 -0.565211 785 0.707407 0.706807 0.000000
-15.371576 -14.819514 -0.558676 785 0.707407 0.706807 0.000000
-15.370870 -14.818826 -0.552083 797 0.707407 0.706807 0.000000
-15.370039 -14.818033 -0.545490 809 0.707407 0.706807 0.000000
-15.371423 -14.819364 -0.538977 787 0.707407 0.706807 0.000000
-15.372327 -14.820241 -0.532448 795 0.707407 0.706807 0.000000
-15.372864 -14.820761 -0.525913 801 0.707407 0.706807 0.000000
-15.373510 -14.821383 -0.519367 811 0.707407 0.706807 0.000000
-15.373302 -14.821190 -0.512799 815 0.707407 0.706807 0.000000
-15.372524 -14.820429 -0.506216 793 0.707407 0.706807 0.000000
-15.371787 -14.819727 -0.499633 787 0.707407 0.706807 0.000000
-15.371323 -14.819281 -0.493057 771 0.707407 0.706807 0.000000
-15.371120 -14.819077 -0.486489 781 0.707407 0.706807 0.000000
-15.370958 -14.818923 -0.479920 795 0.707407 0.706807 0.000000
-15.372483 -14.820396 -0.473405 813 0.707407 0.706807 0.000000
-15.373061 -14.820962 -0.466860 809 0.707407 0.706807 0.000000
-15.372058 -14.819987 -0.460269 805 0.707407 0.706807 0.000000
-15.371738 -14.819688 -0.453702 817 0.707407 0.706807 0.000000
-15.372993 -14.820897 -0.447180 801 0.707407 0.706807 0.000000
-15.373507 -14.821397 -0.440635 797 0.707407 0.706807 0.000000
-15.372713 -14.820622 -0.434052 803 0.707407 0.706807 0.000000
-15.372023 -14.819961 -0.427469 801 0.707407 0.706807 0.000000
-15.372219 -14.820156 -0.420917 797 0.707407 0.706807 0.000000
-15.371730 -14.819675 -0.414341 777 0.707407 0.706807 0.000000
-15.370502 -14.818501 -0.407753 781 0.707407 0.706807 0.000000
-15.371220 -14.819196 -0.401216 773 0.707407 0.706807 0.000000
-15.371055 -14.819025 -0.394647 777 0.707407 0.706807 0.000000
-15.370605 -14.818604 -0.388081 797 0.707407 0.706807 0.000000
-15.371330 -14.819292 -0.381534 803 0.707407 0.706807 0.000000
-15.371776 -14.819735 -0.374990 785 0.707407 0.706807 0.000000
-15.371284 -14.819252 -0.368414 771 0.707407 0.706807 0.000000
-15.370679 -14.818675 -0.361840 767 0.707407 0.706807 0.000000
-15.371598 -14.819565 -0.355311 791 0.707407 0.706807 0.000000
-15.371411 -14.819376 -0.348743 795 0.707407 0.706807 0.000000
-15.371273 -14.819252 -0.342184 783 0.707407 0.706807 0.000000
-15.371881 -14.819831 -0.335638 789 0.707407 0.706807 0.000000
-15.370691 -14.818687 -0.329049 779 0.707407 0.706807 0.000000
-15.370382 -14.818397 -0.322492 745 0.707407 0.706807 0.000000
-15.370669 -14.818667 -0.315939 759 0.707407 0.706807 0.000000
-15.370998 -14.818987 -0.309386 763 0.707407 0.706807 0.000000
-15.370656 -14.818654 -0.302819 785 0.707407 0.706807 0.000000
-15.371242 -14.819227 -0.296273 759 0.707407 0.706807 0.000000
-15.372355 -14.820306 -0.289732 773 0.707407 0.706807 0.000000
