312
-23.522024 -22.266640 -0.624542 363 0.735930 0.677058 0.000000
-23.523977 -22.268480 -0.614644 307 0.735930 0.677058 0.000000
-23.519382 -22.264132 -0.604567 329 0.735930 0.677058 0.000000
-23.519728 -22.264469 -0.594633 363 0.735930 0.677058 0.000000
-23.521883 -22.266504 -0.584733 381 0.735930 0.677058 0.000000
-23.521429 -22.266081 -0.574777 361 0.735930 0.677058 0.000000
-23.520554 -22.265244 -0.564805 349 0.735930 0.677058 0.000000
-23.521048 -22.265717 -0.554870 357 0.735930 0.677058 0.000000
-23.522144 -22.266750 -0.544939 371 0.735930 0.677058 0.000000
-23.520878 -22.265554 -0.534961 357 0.735930 0.677058 0.000000
-23.522383 -22.266987 -0.525047 349 0.735930 0.677058 0.000000
-23.523132 -22.267696 -0.515119 365 0.735930 0.677058 0.000000
-23.522087 -22.266708 -0.505139 349 0.735930 0.677058 0.000000
-23.521940 -22.266563 -0.495190 377 0.735930 0.677058 0.000000
-23.524437 -22.268929 -0.485296 367 0.735930 0.677058 0.000000
-23.525871 -22.270292 -0.475373 393 0.735930 0.677058 0.000000
-23.525505 -22.269939 -0.465416 393 0.735930 0.677058 0.000000
-23.523689 -22.268229 -0.455433 427 0.735930 0.677058 0.000000
-23.525232 -22.269693 -0.445508 443 0.735930 0.677058 0.000000
-23.524008 -22.268532 -0.435539 421 0.735930 0.677058 0.000000
-23.522306 -22.266914 -0.425555 379 0.735930 0.677058 0.000000
-23.522646 -22.267246 -0.415612 385 0.735930 0.677058 0.000000
-23.522331 -22.266937 -0.405654 371 0.735930 0.677058 0.000000
-23.525293 -22.269751 -0.395766 405 0.735930 0.677058 0.000000
-23.523848 -22.268379 -0.385790 389 0.735930 0.677058 0.000000
-23.525415 -22.269865 -0.375865 365 0.735930 0.677058 0.000000
-23.526573 -22.270962 -0.365933 389 0.735930 0.677058 0.000000
-23.522989 -22.267561 -0.355927 397 0.735930 0.677058 0.000000
-23.524448 -22.268944 -0.346003 355 0.735930 0.677058 0.000000
-23.527500 -22.271845 -0.336094 355 0.735930 0.677058 0.000000
-23.524864 -22.269341 -0.326109 385 0.735930 0.677058 0.000000
-23.521530 -22.266188 -0.316110 375 0.735930 0.677058 0.000000
-23.524952 -22.269430 -0.306217 349 0.735930 0.677058 0.000000
-23.524008 -22.268539 -0.296256 359 0.735930 0.677058 0.000000
-23.522535 -22.267149 -0.286279 345 0.735930 0.677058 0.000000
-23.525322 -22.269779 -0.276373 377 0.735930 0.677058 0.000000
-23.524370 -22.268879 -0.266412 381 0.735930 0.677058 0.000000
-23.521187 -22.265875 -0.256421 361 0.735930 0.677058 0.000000
-23.522478 -22.267094 -0.246489 369 0.735930 0.677058 0.000000
-23.526062 -22.256300 -0.624465 351 0.735930 0.677058 0.000000
-23.527325 -22.257496 -0.614543 329 0.735930 0.677058 0.000000
-23.527990 -22.258123 -0.604617 325 0.735930 0.677058 0.000000
-23.530149 -22.260160 -0.594716 351 0.735930 0.677058 0.000000
-23.531460 -22.261406 -0.584804 337 0.735930 0.677058 0.000000
-23.527546 -22.257696 -0.574750 323 0.735930 0.677058 0.000000
-23.525028 -22.255318 -0.564743 337 0.735930 0.677058 0.000000
-23.529825 -22.259859 -0.554908 337 0.735930 0.677058 0.000000
-23.534414 -22.264204 -0.545065 343 0.735930 0.677058 0.000000
-23.530668 -22.260658 -0.535030 345 0.735930 0.677058 0.000000
-23.528923 -22.259005 -0.525036 329 0.735930 0.677058 0.000000
-23.528406 -22.258516 -0.515081 357 0.735930 0.677058 0.000000
-23.527563 -22.257719 -0.505108 455 0.735930 0.677058 0.000000
-23.528364 -22.258484 -0.495180 363 0.735930 0.677058 0.000000
-23.528637 -22.258736 -0.485238 361 0.735930 0.677058 0.000000
-23.530453 -22.260450 -0.475330 349 0.735930 0.677058 0.000000
-23.530777 -22.260757 -0.465387 365 0.735930 0.677058 0.000000
-23.529533 -22.259596 -0.455408 361 0.735930 0.677058 0.000000
-23.531084 -22.261053 -0.445494 417 0.735930 0.677058 0.000000
-23.532352 -22.262253 -0.435562 389 0.735930 0.677058 0.000000
-23.529951 -22.259983 -0.425574 349 0.735930 0.677058 0.000000
-23.529047 -22.259136 -0.415602 373 0.735930 0.677058 0.000000
-23.535204 -22.264952 -0.405764 395 0.735930 0.677058 0.000000
-23.535349 -22.265097 -0.395822 359 0.735930 0.677058 0.000000
-23.530327 -22.260345 -0.385779 383 0.735930 0.677058 0.000000
-23.529936 -22.259975 -0.375823 379 0.735930 0.677058 0.000000
-23.531031 -22.261005 -0.365892 395 0.735930 0.677058 0.000000
-23.528511 -22.258625 -0.355906 401 0.735930 0.677058 0.000000
-23.529280 -22.259350 -0.345968 371 0.735930 0.677058 0.000000
-23.531059 -22.261047 -0.336051 373 0.735930 0.677058 0.000000
-23.529167 -22.259247 -0.326069 359 0.735930 0.677058 0.000000
-23.531004 -22.260994 -0.316151 347 0.735930 0.677058 0.000000
-23.533150 -22.263018 -0.306231 337 0.735930 0.677058 0.000000
-23.532051 -22.261986 -0.296271 349 0.735930 0.677058 0.000000
-23.531738 -22.261692 -0.286314 361 0.735930 0.677058 0.000000
-23.533875 -22.263710 -0.276394 333 0.735930 0.677058 0.000000
-23.536873 -22.266552 -0.266475 349 0.735930 0.677058 0.000000
-23.535875 -22.265602 -0.256514 369 0.735930 0.677058 0.000000
-23.532846 -22.262739 -0.246532 355 0.735930 0.677058 0.000000
-23.539946 -22.255795 -0.624663 379 0.735930 0.677058 0.000000
-23.539663 -22.255526 -0.614695 359 0.735930 0.677058 0.000000
-23.535166 -22.251284 -0.604627 367 0.735930 0.677058 0.000000
-23.534885 -22.251015 -0.594670 347 0.735930 0.677058 0.000000
-23.535114 -22.251230 -0.584727 327 0.735930 0.677058 0.000000
-23.537434 -22.253424 -0.574835 361 0.735930 0.677058 0.000000
-23.538107 -22.254059 -0.564899 349 0.735930 0.677058 0.000000
-23.534611 -22.250755 -0.554861 357 0.735930 0.677058 0.000000
-23.534618 -22.250765 -0.544921 353 0.735930 0.677058 0.000000
-23.534582 -22.250734 -0.534971 335 0.735930 0.677058 0.000000
-23.533695 -22.249891 -0.524999 377 0.735930 0.677058 0.000000
-23.535412 -22.251513 -0.515093 365 0.735930 0.677058 0.000000
-23.536266 -22.252333 -0.505155 409 0.735930 0.677058 0.000000
-23.536871 -22.252895 -0.495219 381 0.735930 0.677058 0.000000
-23.537292 -22.253296 -0.485284 395 0.735930 0.677058 0.000000
-23.537199 -22.253208 -0.475325 379 0.735930 0.677058 0.000000
-23.539278 -22.255177 -0.465425 363 0.735930 0.677058 0.000000
-23.539644 -22.255520 -0.455482 385 0.735930 0.677058 0.000000
-23.538052 -22.254017 -0.445496 379 0.735930 0.677058 0.000000
-23.536236 -22.252304 -0.435513 329 0.735930 0.677058 0.000000
-23.536972 -22.253002 -0.425576 337 0.735930 0.677058 0.000000
-23.538553 -22.254499 -0.415661 361 0.735930 0.677058 0.000000
-23.538441 -22.254395 -0.405702 345 0.735930 0.677058 0.000000
-23.538683 -22.254622 -0.395759 389 0.735930 0.677058 0.000000
-23.538614 -22.254553 -0.385810 385 0.735930 0.677058 0.000000
-23.535717 -22.251822 -0.375817 387 0.735930 0.677058 0.000000
-23.532354 -22.248629 -0.365808 363 0.735930 0.677058 0.000000
-23.534830 -22.250978 -0.355905 375 0.735930 0.677058 0.000000
-23.538750 -22.254683 -0.346017 383 0.735930 0.677058 0.000000
-23.538141 -22.254107 -0.336053 343 0.735930 0.677058 0.000000
-23.537048 -22.253078 -0.326093 367 0.735930 0.677058 0.000000
-23.536898 -22.252932 -0.316144 389 0.735930 0.677058 0.000000
-23.538090 -22.254068 -0.306213 413 0.735930 0.677058 0.000000
-23.539007 -22.254927 -0.296274 375 0.735930 0.677058 0.000000
-23.537756 -22.253746 -0.286305 377 0.735930 0.677058 0.000000
-23.538883 -22.254816 -0.276375 349 0.735930 0.677058 0.000000
-23.538095 -22.254065 -0.266422 361 0.735930 0.677058 0.000000
-23.538103 -22.254074 -0.256471 371 0.735930 0.677058 0.000000
-23.541409 -22.257208 -0.246560 367 0.735930 0.677058 0.000000
-23.545767 -22.247169 -0.624629 363 0.735930 0.677058 0.000000
-23.543423 -22.244944 -0.614611 359 0.735930 0.677058 0.000000
-23.542326 -22.243916 -0.604631 331 0.735930 0.677058 0.000000
-23.543533 -22.245052 -0.594719 289 0.735930 0.677058 0.000000
-23.543613 -22.245131 -0.584768 325 0.735930 0.677058 0.000000
-23.543261 -22.244793 -0.574811 341 0.735930 0.677058 0.000000
-23.544931 -22.246374 -0.564895 363 0.735930 0.677058 0.000000
-23.544430 -22.245897 -0.554940 367 0.735930 0.677058 0.000000
-23.542162 -22.243761 -0.544931 383 0.735930 0.677058 0.000000
-23.542875 -22.244427 -0.535004 359 0.735930 0.677058 0.000000
-23.542564 -22.244146 -0.525046 377 0.735930 0.677058 0.000000
-23.542681 -22.244259 -0.515095 369 0.735930 0.677058 0.000000
-23.545675 -22.247084 -0.505217 357 0.735930 0.677058 0.000000
-23.546700 -22.248043 -0.495287 403 0.735930 0.677058 0.000000
-23.545637 -22.247044 -0.485317 387 0.735930 0.677058 0.000000
-23.544416 -22.245899 -0.475338 359 0.735930 0.677058 0.000000
-23.543518 -22.245043 -0.465366 371 0.735930 0.677058 0.000000
-23.545475 -22.246902 -0.455458 359 0.735930 0.677058 0.000000
-23.545155 -22.246588 -0.445500 375 0.735930 0.677058 0.000000
-23.543713 -22.245234 -0.435524 361 0.735930 0.677058 0.000000
-23.544180 -22.245672 -0.425589 397 0.735930 0.677058 0.000000
-23.546310 -22.247684 -0.415679 387 0.735930 0.677058 0.000000
-23.546827 -22.248177 -0.405734 333 0.735930 0.677058 0.000000
-23.545795 -22.247200 -0.395763 379 0.735930 0.677058 0.000000
-23.548065 -22.249353 -0.385852 377 0.735930 0.677058 0.000000
-23.545815 -22.247217 -0.375872 385 0.735930 0.677058 0.000000
-23.541182 -22.242838 -0.365846 389 0.735930 0.677058 0.000000
-23.546099 -22.247492 -0.355969 383 0.735930 0.677058 0.000000
-23.547297 -22.248621 -0.346048 383 0.735930 0.677058 0.000000
-23.545412 -22.246840 -0.336065 377 0.735930 0.677058 0.000000
-23.545164 -22.246611 -0.326117 365 0.735930 0.677058 0.000000
-23.545609 -22.247030 -0.316173 371 0.735930 0.677058 0.000000
-23.543991 -22.245495 -0.306198 387 0.735930 0.677058 0.000000
-23.545229 -22.246670 -0.296266 341 0.735930 0.677058 0.000000
-23.549120 -22.250349 -0.286369 335 0.735930 0.677058 0.000000
-23.549137 -22.250366 -0.276419 373 0.735930 0.677058 0.000000
-23.546532 -22.247902 -0.266443 343 0.735930 0.677058 0.000000
-23.547338 -22.248671 -0.256495 359 0.735930 0.677058 0.000000
-23.545275 -22.246714 -0.246524 369 0.735930 0.677058 0.000000
-23.551306 -22.238232 -0.624588 367 0.735930 0.677058 0.000000
-23.549789 -22.236794 -0.614602 355 0.735930 0.677058 0.000000
-23.550245 -22.237232 -0.604667 335 0.735930 0.677058 0.000000
-23.550339 -22.237312 -0.594716 297 0.735930 0.677058 0.000000
-23.549511 -22.236540 -0.584743 307 0.735930 0.677058 0.000000
-23.549807 -22.236813 -0.574800 297 0.735930 0.677058 0.000000
-23.548878 -22.235933 -0.564829 329 0.735930 0.677058 0.000000
-23.549540 -22.236568 -0.554892 343 0.735930 0.677058 0.000000
-23.550291 -22.237280 -0.544965 369 0.735930 0.677058 0.000000
-23.549355 -22.236393 -0.534994 381 0.735930 0.677058 0.000000
-23.548197 -22.235300 -0.525014 349 0.735930 0.677058 0.000000
-23.547741 -22.234863 -0.515058 347 0.735930 0.677058 0.000000
-23.547894 -22.235016 -0.505107 333 0.735930 0.677058 0.000000
-23.549875 -22.236879 -0.495208 355 0.735930 0.677058 0.000000
-23.550945 -22.237892 -0.485278 325 0.735930 0.677058 0.000000
-23.553507 -22.240311 -0.475383 389 0.735930 0.677058 0.000000
-23.554619 -22.241369 -0.465453 407 0.735930 0.677058 0.000000
-23.552656 -22.239510 -0.455461 381 0.735930 0.677058 0.000000
-23.550413 -22.237394 -0.445472 419 0.735930 0.677058 0.000000
-23.549669 -22.236694 -0.435508 367 0.735930 0.677058 0.000000
-23.549976 -22.236986 -0.425565 373 0.735930 0.677058 0.000000
-23.550707 -22.237680 -0.415628 391 0.735930 0.677058 0.000000
-23.552515 -22.239388 -0.405711 393 0.735930 0.677058 0.000000
-23.551912 -22.238817 -0.395756 383 0.735930 0.677058 0.000000
-23.549238 -22.236294 -0.385761 391 0.735930 0.677058 0.000000
-23.550545 -22.237526 -0.375839 387 0.735930 0.677058 0.000000
-23.554951 -22.241682 -0.365957 363 0.735930 0.677058 0.000000
-23.550344 -22.237337 -0.355930 367 0.735930 0.677058 0.000000
-23.546331 -22.233547 -0.345928 375 0.735930 0.677058 0.000000
-23.550503 -22.237484 -0.336038 349 0.735930 0.677058 0.000000
-23.550898 -22.237862 -0.326094 343 0.735930 0.677058 0.000000
-23.549747 -22.236774 -0.316135 381 0.735930 0.677058 0.000000
-23.551891 -22.238800 -0.306214 391 0.735930 0.677058 0.000000
-23.554834 -22.241583 -0.296307 363 0.735930 0.677058 0.000000
-23.556990 -22.243614 -0.286386 365 0.735930 0.677058 0.000000
-23.555197 -22.241922 -0.276413 369 0.735930 0.677058 0.000000
-23.552328 -22.239216 -0.266430 367 0.735930 0.677058 0.000000
-23.550686 -22.237675 -0.256465 369 0.735930 0.677058 0.000000
-23.552971 -22.239824 -0.246533 375 0.735930 0.677058 0.000000
-23.553839 -22.227537 -0.624489 359 0.735930 0.677058 0.000000
-23.554575 -22.228235 -0.614562 281 0.735930 0.677058 0.000000
-23.556141 -22.229719 -0.604647 313 0.735930 0.677058 0.000000
-23.554796 -22.228443 -0.594669 297 0.735930 0.677058 0.000000
-23.556519 -22.230070 -0.584763 343 0.735930 0.677058 0.000000
-23.558405 -22.231855 -0.574855 301 0.735930 0.677058 0.000000
-23.557325 -22.230825 -0.564875 325 0.735930 0.677058 0.000000
-23.556063 -22.229645 -0.554897 343 0.735930 0.677058 0.000000
-23.557032 -22.230562 -0.544967 331 0.735930 0.677058 0.000000
-23.558502 -22.231941 -0.535053 367 0.735930 0.677058 0.000000
-23.556808 -22.230341 -0.525069 341 0.735930 0.677058 0.000000
-23.556713 -22.230253 -0.515120 349 0.735930 0.677058 0.000000
-23.559055 -22.232464 -0.505217 371 0.735930 0.677058 0.000000
-23.560135 -22.233484 -0.495287 375 0.735930 0.677058 0.000000
-23.558384 -22.231838 -0.485303 365 0.735930 0.677058 0.000000
-23.557587 -22.231081 -0.475340 389 0.735930 0.677058 0.000000
-23.559084 -22.232494 -0.465416 395 0.735930 0.677058 0.000000
-23.557167 -22.230686 -0.455434 375 0.735930 0.677058 0.000000
-23.558697 -22.232140 -0.445509 379 0.735930 0.677058 0.000000
-23.559292 -22.232697 -0.435573 395 0.735930 0.677058 0.000000
-23.557789 -22.231281 -0.425597 401 0.735930 0.677058 0.000000
-23.558739 -22.232180 -0.415658 387 0.735930 0.677058 0.000000
-23.560326 -22.233667 -0.405743 369 0.735930 0.677058 0.000000
-23.559944 -22.233316 -0.395786 379 0.735930 0.677058 0.000000
-23.559235 -22.232643 -0.385823 371 0.735930 0.677058 0.000000
-23.558790 -22.232225 -0.375867 391 0.735930 0.677058 0.000000
-23.556633 -22.230194 -0.365887 349 0.735930 0.677058 0.000000
-23.556391 -22.229958 -0.355929 359 0.735930 0.677058 0.000000
-23.559240 -22.232651 -0.346022 387 0.735930 0.677058 0.000000
-23.557465 -22.230974 -0.336048 375 0.735930 0.677058 0.000000
-23.554977 -22.228632 -0.326071 341 0.735930 0.677058 0.000000
-23.556698 -22.230257 -0.316145 365 0.735930 0.677058 0.000000
-23.559542 -22.232946 -0.306238 383 0.735930 0.677058 0.000000
-23.560261 -22.233616 -0.296291 401 0.735930 0.677058 0.000000
-23.559372 -22.232784 -0.286339 389 0.735930 0.677058 0.000000
-23.557941 -22.231426 -0.276372 395 0.735930 0.677058 0.000000
-23.559866 -22.233244 -0.266444 369 0.735930 0.677058 0.000000
-23.559359 -22.232763 -0.256489 381 0.735930 0.677058 0.000000
-23.558710 -22.232155 -0.246534 357 0.735930 0.677058 0.000000
-23.563919 -22.223980 -0.624590 363 0.735930 0.677058 0.000000
-23.560455 -22.220716 -0.614542 337 0.735930 0.677058 0.000000
-23.563744 -22.223812 -0.604681 315 0.735930 0.677058 0.000000
-23.564566 -22.224594 -0.594753 369 0.735930 0.677058 0.000000
-23.562618 -22.222759 -0.584751 325 0.735930 0.677058 0.000000
-23.565155 -22.225145 -0.574867 337 0.735930 0.677058 0.000000
-23.562613 -22.222757 -0.564851 343 0.735930 0.677058 0.000000
-23.563759 -22.223829 -0.554930 369 0.735930 0.677058 0.000000
-23.566223 -22.226158 -0.545036 401 0.735930 0.677058 0.000000
-23.563688 -22.223763 -0.535030 377 0.735930 0.677058 0.000000
-23.562315 -22.222481 -0.525052 381 0.735930 0.677058 0.000000
-23.561852 -22.222036 -0.515087 359 0.735930 0.677058 0.000000
-23.563185 -22.223301 -0.505164 357 0.735930 0.677058 0.000000
-23.564688 -22.224707 -0.495250 351 0.735930 0.677058 0.000000
-23.564587 -22.224627 -0.485300 373 0.735930 0.677058 0.000000
-23.565666 -22.225634 -0.475370 387 0.735930 0.677058 0.000000
-23.567102 -22.226995 -0.465456 395 0.735930 0.677058 0.000000
-23.565561 -22.225536 -0.455470 371 0.735930 0.677058 0.000000
-23.562943 -22.223072 -0.445465 377 0.735930 0.677058 0.000000
-23.564163 -22.224220 -0.435543 373 0.735930 0.677058 0.000000
-23.565002 -22.225016 -0.425615 357 0.735930 0.677058 0.000000
-23.563351 -22.223454 -0.415630 347 0.735930 0.677058 0.000000
-23.561941 -22.222126 -0.405653 383 0.735930 0.677058 0.000000
-23.562885 -22.223019 -0.395724 373 0.735930 0.677058 0.000000
-23.565430 -22.225424 -0.385820 369 0.735930 0.677058 0.000000
-23.565422 -22.225405 -0.375870 373 0.735930 0.677058 0.000000
-23.563255 -22.223368 -0.365890 389 0.735930 0.677058 0.000000
-23.562176 -22.222351 -0.355920 379 0.735930 0.677058 0.000000
-23.565771 -22.225748 -0.346026 387 0.735930 0.677058 0.000000
-23.570112 -22.229841 -0.336145 391 0.735930 0.677058 0.000000
-23.567902 -22.227751 -0.326165 393 0.735930 0.677058 0.000000
-23.566807 -22.226723 -0.316195 373 0.735930 0.677058 0.000000
-23.568792 -22.228590 -0.306277 369 0.735930 0.677058 0.000000
-23.568012 -22.227859 -0.296314 377 0.735930 0.677058 0.000000
-23.564556 -22.224606 -0.286326 393 0.735930 0.677058 0.000000
-23.563986 -22.224058 -0.276371 361 0.735930 0.677058 0.000000
-23.565966 -22.225935 -0.266442 371 0.735930 0.677058 0.000000
-23.565716 -22.225693 -0.256494 353 0.735930 0.677058 0.000000
-23.568216 -22.228062 -0.246571 409 0.735930 0.677058 0.000000
-23.567551 -22.214071 -0.624512 453 0.735930 0.677058 0.000000
-23.568808 -22.215261 -0.614590 441 0.735930 0.677058 0.000000
-23.569643 -22.216042 -0.604662 415 0.735930 0.677058 0.000000
-23.570370 -22.216732 -0.594735 383 0.735930 0.677058 0.000000
-23.568699 -22.215149 -0.584741 405 0.735930 0.677058 0.000000
-23.568388 -22.214869 -0.574783 471 0.735930 0.677058 0.000000
-23.570820 -22.217155 -0.564890 467 0.735930 0.677058 0.000000
-23.571527 -22.217831 -0.554963 451 0.735930 0.677058 0.000000
-23.571064 -22.217386 -0.544998 475 0.735930 0.677058 0.000000
-23.570238 -22.216604 -0.535035 473 0.735930 0.677058 0.000000
-23.569613 -22.216026 -0.525071 467 0.735930 0.677058 0.000000
-23.571804 -22.218090 -0.515170 475 0.735930 0.677058 0.000000
-23.572298 -22.218548 -0.505225 441 0.735930 0.677058 0.000000
-23.573099 -22.219313 -0.495297 447 0.735930 0.677058 0.000000
-23.572428 -22.218672 -0.485333 443 0.735930 0.677058 0.000000
-23.568480 -22.214960 -0.475300 409 0.735930 0.677058 0.000000
-23.569067 -22.215508 -0.465364 391 0.735930 0.677058 0.000000
-23.570765 -22.217113 -0.455448 375 0.735930 0.677058 0.000000
-23.569695 -22.216106 -0.445478 405 0.735930 0.677058 0.000000
-23.570869 -22.217203 -0.435547 407 0.735930 0.677058 0.000000
-23.572887 -22.219110 -0.425638 437 0.735930 0.677058 0.000000
-23.570745 -22.217091 -0.415648 411 0.735930 0.677058 0.000000
-23.572390 -22.218639 -0.405732 391 0.735930 0.677058 0.000000
-23.572533 -22.218784 -0.395780 411 0.735930 0.677058 0.000000
-23.571712 -22.218006 -0.385818 431 0.735930 0.677058 0.000000
-23.574411 -22.220552 -0.375912 437 0.735930 0.677058 0.000000
-23.573433 -22.219631 -0.365951 401 0.735930 0.677058 0.000000
-23.571552 -22.217852 -0.355969 391 0.735930 0.677058 0.000000
-23.572750 -22.218981 -0.346037 377 0.735930 0.677058 0.000000
-23.572880 -22.219105 -0.336096 377 0.735930 0.677058 0.000000
-23.572212 -22.218477 -0.326132 425 0.735930 0.677058 0.000000
-23.571648 -22.217951 -0.316177 359 0.735930 0.677058 0.000000
-23.573002 -22.219221 -0.306244 365 0.735930 0.677058 0.000000
-23.573122 -22.219336 -0.296302 383 0.735930 0.677058 0.000000
-23.572763 -22.219004 -0.286345 387 0.735930 0.677058 0.000000
-23.571545 -22.217859 -0.276387 351 0.735930 0.677058 0.000000
-23.571131 -22.217468 -0.266430 359 0.735930 0.677058 0.000000
-23.571829 -22.218122 -0.256494 373 0.735930 0.677058 0.000000
-23.573380 -22.219591 -0.246559 367 0.735930 0.677058 0.000000
