786
-9.721069 -9.093921 -0.558032 369 0.722667 0.691196 0.000000
-9.720222 -9.093128 -0.553890 377 0.722667 0.691196 0.000000
-9.721634 -9.094440 -0.549876 379 0.722667 0.691196 0.000000
-9.722234 -9.095004 -0.545811 399 0.722667 0.691196 0.000000
-9.720056 -9.092964 -0.541601 375 0.722667 0.691196 0.000000
-9.719152 -9.092129 -0.537459 371 0.722667 0.691196 0.000000
-9.720018 -9.092937 -0.533411 345 0.722667 0.691196 0.000000
-9.720249 -9.093148 -0.529329 357 0.722667 0.691196 0.000000
-9.720472 -9.093353 -0.525247 363 0.722667 0.691196 0.000000
-9.720681 -9.093558 -0.521164 361 0.722667 0.691196 0.000000
-9.720537 -9.093423 -0.517056 353 0.722667 0.691196 0.000000
-9.721026 -9.093870 -0.512991 359 0.722667 0.691196 0.000000
-9.721133 -9.093980 -0.508900 369 0.722667 0.691196 0.000000
-9.721985 -9.094777 -0.504852 379 0.722667 0.691196 0.000000
-9.721832 -9.094634 -0.500753 381 0.722667 0.691196 0.000000
-9.720656 -9.093534 -0.496604 385 0.722667 0.691196 0.000000
-9.721412 -9.094240 -0.492547 399 0.722667 0.691196 0.000000
-9.721408 -9.094233 -0.488447 385 0.722667 0.691196 0.000000
-9.720293 -9.093183 -0.484297 381 0.722667 0.691196 0.000000
-9.719914 -9.092828 -0.480191 367 0.722667 0.691196 0.000000
-9.719543 -9.092480 -0.476084 353 0.722667 0.691196 0.000000
-9.718946 -9.091932 -0.471960 349 0.722667 0.691196 0.000000
-9.719796 -9.092715 -0.467912 381 0.722667 0.691196 0.000000
-9.720535 -9.093409 -0.463855 399 0.722667 0.691196 0.000000
-9.719994 -9.092907 -0.459730 379 0.722667 0.691196 0.000000
-9.720318 -9.093207 -0.455656 369 0.722667 0.691196 0.000000
-9.720253 -9.093149 -0.451557 355 0.722667 0.691196 0.000000
-9.719437 -9.092382 -0.447434 349 0.722667 0.691196 0.000000
-9.719378 -9.092331 -0.443335 357 0.722667 0.691196 0.000000
-9.720111 -9.093018 -0.439278 369 0.722667 0.691196 0.000000
-9.720107 -9.093010 -0.435188 385 0.722667 0.691196 0.000000
-9.720253 -9.093151 -0.431096 371 0.722667 0.691196 0.000000
-9.720719 -9.093580 -0.427032 367 0.722667 0.691196 0.000000
-9.721077 -9.093922 -0.422949 355 0.722667 0.691196 0.000000
-9.720581 -9.093457 -0.418843 349 0.722667 0.691196 0.000000
-9.720140 -9.093038 -0.414727 361 0.722667 0.691196 0.000000
-9.720120 -9.093017 -0.410637 379 0.722667 0.691196 0.000000
-9.720368 -9.093255 -0.406555 379 0.722667 0.691196 0.000000
-9.721414 -9.094238 -0.402505 369 0.722667 0.691196 0.000000
-9.720698 -9.093569 -0.398391 367 0.722667 0.691196 0.000000
-9.720311 -9.093193 -0.394285 365 0.722667 0.691196 0.000000
-9.720136 -9.093032 -0.390187 345 0.722667 0.691196 0.000000
-9.719782 -9.092710 -0.386080 379 0.722667 0.691196 0.000000
-9.720301 -9.093184 -0.382005 355 0.722667 0.691196 0.000000
-9.719947 -9.092862 -0.377908 341 0.722667 0.691196 0.000000
-9.719818 -9.092739 -0.373809 329 0.722667 0.691196 0.000000
-9.719150 -9.092107 -0.369695 325 0.722667 0.691196 0.000000
-9.719233 -9.092184 -0.365605 333 0.722667 0.691196 0.000000
-9.719787 -9.092710 -0.361539 317 0.722667 0.691196 0.000000
-9.719283 -9.092240 -0.357424 337 0.722667 0.691196 0.000000
-9.719679 -9.092612 -0.353350 353 0.722667 0.691196 0.000000
-9.719754 -9.092682 -0.349269 361 0.722667 0.691196 0.000000
-9.719720 -9.092649 -0.345169 339 0.722667 0.691196 0.000000
-9.720170 -9.093065 -0.341095 347 0.722667 0.691196 0.000000
-9.720033 -9.092937 -0.337006 353 0.722667 0.691196 0.000000
-9.719828 -9.092749 -0.332908 347 0.722667 0.691196 0.000000
-9.720333 -9.093225 -0.328833 351 0.722667 0.691196 0.000000
-9.720189 -9.093088 -0.324735 359 0.722667 0.691196 0.000000
-9.720742 -9.093601 -0.320669 367 0.722667 0.691196 0.000000
-9.720652 -9.093511 -0.316570 333 0.722667 0.691196 0.000000
-9.720610 -9.093471 -0.312480 333 0.722667 0.691196 0.000000
-9.720309 -9.093194 -0.308383 325 0.722667 0.691196 0.000000
-9.718554 -9.091553 -0.304239 341 0.722667 0.691196 0.000000
-9.718566 -9.091558 -0.300149 329 0.722667 0.691196 0.000000
-9.726725 -9.093649 -0.689330 341 0.722667 0.691196 0.000000
-9.725853 -9.092837 -0.685168 341 0.722667 0.691196 0.000000
-9.724137 -9.091228 -0.680954 341 0.722667 0.691196 0.000000
-9.724768 -9.091820 -0.676898 325 0.722667 0.691196 0.000000
-9.724914 -9.091960 -0.672806 323 0.722667 0.691196 0.000000
-9.724206 -9.091296 -0.668663 327 0.722667 0.691196 0.000000
-9.725525 -9.092530 -0.664650 331 0.722667 0.691196 0.000000
-9.725241 -9.092266 -0.660533 303 0.722667 0.691196 0.000000
-9.724752 -9.091808 -0.656408 325 0.722667 0.691196 0.000000
-9.725327 -9.092340 -0.652342 337 0.722667 0.691196 0.000000
-9.724612 -9.091671 -0.648199 331 0.722667 0.691196 0.000000
-9.724274 -9.091361 -0.644082 343 0.722667 0.691196 0.000000
-9.724686 -9.091747 -0.640008 347 0.722667 0.691196 0.000000
-9.725034 -9.092067 -0.635934 347 0.722667 0.691196 0.000000
-9.724905 -9.091944 -0.631826 363 0.722667 0.691196 0.000000
-9.723713 -9.090830 -0.627657 331 0.722667 0.691196 0.000000
-9.723522 -9.090656 -0.623548 337 0.722667 0.691196 0.000000
-9.723880 -9.090996 -0.619475 321 0.722667 0.691196 0.000000
-9.723320 -9.090466 -0.615340 333 0.722667 0.691196 0.000000
-9.723927 -9.091039 -0.611284 325 0.722667 0.691196 0.000000
-9.724284 -9.091366 -0.607211 355 0.722667 0.691196 0.000000
-9.724257 -9.091338 -0.603111 369 0.722667 0.691196 0.000000
-9.724175 -9.091268 -0.599012 351 0.722667 0.691196 0.000000
-9.724314 -9.091388 -0.594920 349 0.722667 0.691196 0.000000
-9.723692 -9.090809 -0.590786 325 0.722667 0.691196 0.000000
-9.724622 -9.091682 -0.586747 325 0.722667 0.691196 0.000000
-9.725494 -9.092498 -0.582699 339 0.722667 0.691196 0.000000
-9.724443 -9.091513 -0.578549 355 0.722667 0.691196 0.000000
-9.724682 -9.091730 -0.574466 367 0.722667 0.691196 0.000000
-9.724429 -9.091505 -0.570349 359 0.722667 0.691196 0.000000
-9.723753 -9.090867 -0.566215 369 0.722667 0.691196 0.000000
-9.723929 -9.091033 -0.562133 361 0.722667 0.691196 0.000000
-9.724270 -9.091348 -0.558060 361 0.722667 0.691196 0.000000
-9.724495 -9.091565 -0.553977 347 0.722667 0.691196 0.000000
-9.724506 -9.091570 -0.549877 351 0.722667 0.691196 0.000000
-9.724418 -9.091493 -0.545778 383 0.722667 0.691196 0.000000
-9.723734 -9.090849 -0.541644 375 0.722667 0.691196 0.000000
-9.722510 -9.089709 -0.537486 349 0.722667 0.691196 0.000000
-9.722852 -9.090023 -0.533412 353 0.722667 0.691196 0.000000
-9.724302 -9.091378 -0.529399 363 0.722667 0.691196 0.000000
-9.724636 -9.091686 -0.525316 379 0.722667 0.691196 0.000000
-9.723679 -9.090792 -0.521174 339 0.722667 0.691196 0.000000
-9.723847 -9.090952 -0.517093 327 0.722667 0.691196 0.000000
-9.723688 -9.090802 -0.512984 361 0.722667 0.691196 0.000000
-9.723802 -9.090904 -0.508903 365 0.722667 0.691196 0.000000
-9.724669 -9.091714 -0.504845 365 0.722667 0.691196 0.000000
-9.723279 -9.090414 -0.500688 359 0.722667 0.691196 0.000000
-9.722369 -9.089571 -0.496546 343 0.722667 0.691196 0.000000
-9.723540 -9.090670 -0.492515 383 0.722667 0.691196 0.000000
-9.723388 -9.090513 -0.488416 377 0.722667 0.691196 0.000000
-9.723276 -9.090417 -0.484317 387 0.722667 0.691196 0.000000
-9.722959 -9.090113 -0.480210 385 0.722667 0.691196 0.000000
-9.723160 -9.090312 -0.476118 363 0.722667 0.691196 0.000000
-9.724667 -9.091713 -0.472104 385 0.722667 0.691196 0.000000
-9.724226 -9.091308 -0.467988 377 0.722667 0.691196 0.000000
-9.723901 -9.090997 -0.463881 369 0.722667 0.691196 0.000000
-9.724164 -9.091247 -0.459798 353 0.722667 0.691196 0.000000
-9.723518 -9.090634 -0.455674 343 0.722667 0.691196 0.000000
-9.724048 -9.091128 -0.451609 361 0.722667 0.691196 0.000000
-9.724304 -9.091372 -0.447527 355 0.722667 0.691196 0.000000
-9.722586 -9.089764 -0.443363 365 0.722667 0.691196 0.000000
-9.722358 -9.089558 -0.439255 385 0.722667 0.691196 0.000000
-9.723034 -9.090186 -0.435198 387 0.722667 0.691196 0.000000
-9.723189 -9.090334 -0.431107 383 0.722667 0.691196 0.000000
-9.723544 -9.090659 -0.427034 387 0.722667 0.691196 0.000000
-9.723268 -9.090402 -0.422926 363 0.722667 0.691196 0.000000
-9.722342 -9.089533 -0.418795 357 0.722667 0.691196 0.000000
-9.722480 -9.089667 -0.414713 371 0.722667 0.691196 0.000000
-9.723055 -9.090199 -0.410648 371 0.722667 0.691196 0.000000
-9.722607 -9.089788 -0.406542 355 0.722667 0.691196 0.000000
-9.722752 -9.089914 -0.402450 347 0.722667 0.691196 0.000000
-9.722788 -9.089953 -0.398360 339 0.722667 0.691196 0.000000
-9.724154 -9.091239 -0.394327 359 0.722667 0.691196 0.000000
-9.723806 -9.090909 -0.390220 363 0.722667 0.691196 0.000000
-9.722294 -9.089493 -0.386074 363 0.722667 0.691196 0.000000
-9.722752 -9.089917 -0.382000 373 0.722667 0.691196 0.000000
-9.722991 -9.090147 -0.377918 365 0.722667 0.691196 0.000000
-9.723020 -9.090165 -0.373827 337 0.722667 0.691196 0.000000
-9.722783 -9.089952 -0.369729 351 0.722667 0.691196 0.000000
-9.721738 -9.088975 -0.365599 343 0.722667 0.691196 0.000000
-9.721610 -9.088851 -0.361500 333 0.722667 0.691196 0.000000
-9.723078 -9.090219 -0.357466 357 0.722667 0.691196 0.000000
-9.723201 -9.090342 -0.353375 347 0.722667 0.691196 0.000000
-9.722047 -9.089260 -0.349246 337 0.722667 0.691196 0.000000
-9.721699 -9.088930 -0.345149 337 0.722667 0.691196 0.000000
-9.722619 -9.089798 -0.341090 343 0.722667 0.691196 0.000000
-9.722537 -9.089713 -0.337001 333 0.722667 0.691196 0.000000
-9.722449 -9.089636 -0.332902 349 0.722667 0.691196 0.000000
-9.722680 -9.089847 -0.328819 353 0.722667 0.691196 0.000000
-9.722380 -9.089569 -0.324722 335 0.722667 0.691196 0.000000
-9.722557 -9.089736 -0.320640 361 0.722667 0.691196 0.000000
-9.721982 -9.089193 -0.316536 341 0.722667 0.691196 0.000000
-9.721134 -9.088403 -0.312413 339 0.722667 0.691196 0.000000
-9.721743 -9.088974 -0.308348 315 0.722667 0.691196 0.000000
-9.722458 -9.089634 -0.304281 325 0.722667 0.691196 0.000000
-9.723050 -9.090194 -0.300205 327 0.722667 0.691196 0.000000
-9.728858 -9.089759 -0.689279 335 0.722667 0.691196 0.000000
-9.727885 -9.088851 -0.685108 339 0.722667 0.691196 0.000000
-9.727444 -9.088431 -0.680982 315 0.722667 0.691196 0.000000
-9.726900 -9.087929 -0.676847 319 0.722667 0.691196 0.000000
-9.727272 -9.088268 -0.672774 315 0.722667 0.691196 0.000000
-9.726878 -9.087900 -0.668647 331 0.722667 0.691196 0.000000
-9.727407 -9.088395 -0.664582 327 0.722667 0.691196 0.000000
-9.729517 -9.090368 -0.660623 309 0.722667 0.691196 0.000000
-9.728488 -9.089402 -0.656462 325 0.722667 0.691196 0.000000
-9.726765 -9.087801 -0.652248 353 0.722667 0.691196 0.000000
-9.727230 -9.088230 -0.648184 355 0.722667 0.691196 0.000000
-9.728824 -9.089715 -0.644189 351 0.722667 0.691196 0.000000
-9.728530 -9.089443 -0.640071 363 0.722667 0.691196 0.000000
-9.727761 -9.088730 -0.635918 347 0.722667 0.691196 0.000000
-9.727585 -9.088554 -0.631810 347 0.722667 0.691196 0.000000
-9.726917 -9.087935 -0.627676 323 0.722667 0.691196 0.000000
-9.727109 -9.088115 -0.623584 331 0.722667 0.691196 0.000000
-9.728265 -9.089188 -0.619563 367 0.722667 0.691196 0.000000
-9.727807 -9.088769 -0.615438 345 0.722667 0.691196 0.000000
-9.727146 -9.088143 -0.611304 319 0.722667 0.691196 0.000000
-9.728027 -9.088965 -0.607255 363 0.722667 0.691196 0.000000
-9.728322 -9.089242 -0.603182 363 0.722667 0.691196 0.000000
-9.727489 -9.088462 -0.599030 363 0.722667 0.691196 0.000000
-9.726179 -9.087239 -0.594862 373 0.722667 0.691196 0.000000
-9.726575 -9.087612 -0.590789 331 0.722667 0.691196 0.000000
-9.727559 -9.088531 -0.586749 363 0.722667 0.691196 0.000000
-9.726241 -9.087301 -0.582571 353 0.722667 0.691196 0.000000
-9.725517 -9.086625 -0.578438 339 0.722667 0.691196 0.000000
-9.726445 -9.087485 -0.574399 361 0.722667 0.691196 0.000000
-9.726780 -9.087807 -0.570316 385 0.722667 0.691196 0.000000
-9.726212 -9.087272 -0.566191 379 0.722667 0.691196 0.000000
-9.725372 -9.086486 -0.562049 363 0.722667 0.691196 0.000000
-9.725981 -9.087057 -0.557993 355 0.722667 0.691196 0.000000
-9.727065 -9.088073 -0.553953 365 0.722667 0.691196 0.000000
-9.726756 -9.087776 -0.549846 371 0.722667 0.691196 0.000000
-9.726073 -9.087145 -0.545712 359 0.722667 0.691196 0.000000
-9.725233 -9.086359 -0.541570 363 0.722667 0.691196 0.000000
-9.724922 -9.086062 -0.537463 351 0.722667 0.691196 0.000000
-9.725687 -9.086774 -0.533406 333 0.722667 0.691196 0.000000
-9.727139 -9.088130 -0.529392 379 0.722667 0.691196 0.000000
-9.727089 -9.088085 -0.525292 343 0.722667 0.691196 0.000000
-9.725812 -9.086902 -0.521134 339 0.722667 0.691196 0.000000
-9.726246 -9.087306 -0.517060 343 0.722667 0.691196 0.000000
-9.726995 -9.088005 -0.513013 357 0.722667 0.691196 0.000000
-9.726693 -9.087714 -0.508896 359 0.722667 0.691196 0.000000
-9.727011 -9.088009 -0.504822 381 0.722667 0.691196 0.000000
-9.726532 -9.087572 -0.500707 387 0.722667 0.691196 0.000000
-9.724993 -9.086123 -0.496531 343 0.722667 0.691196 0.000000
-9.725304 -9.086425 -0.492458 347 0.722667 0.691196 0.000000
-9.725896 -9.086970 -0.488392 333 0.722667 0.691196 0.000000
-9.725955 -9.087028 -0.484302 327 0.722667 0.691196 0.000000
-9.725413 -9.086525 -0.480187 361 0.722667 0.691196 0.000000
-9.726748 -9.087772 -0.476154 369 0.722667 0.691196 0.000000
-9.727494 -9.088458 -0.472097 401 0.722667 0.691196 0.000000
-9.726467 -9.087505 -0.467957 401 0.722667 0.691196 0.000000
-9.726151 -9.087202 -0.463850 385 0.722667 0.691196 0.000000
-9.725710 -9.086797 -0.459734 377 0.722667 0.691196 0.000000
-9.727207 -9.088190 -0.455710 379 0.722667 0.691196 0.000000
-9.727081 -9.088081 -0.451611 375 0.722667 0.691196 0.000000
-9.726333 -9.087372 -0.447487 363 0.722667 0.691196 0.000000
-9.726753 -9.087763 -0.443413 387 0.722667 0.691196 0.000000
-9.726907 -9.087911 -0.439332 381 0.722667 0.691196 0.000000
-9.727257 -9.088244 -0.435249 387 0.722667 0.691196 0.000000
-9.726823 -9.087831 -0.431143 389 0.722667 0.691196 0.000000
-9.726921 -9.087920 -0.427052 349 0.722667 0.691196 0.000000
-9.726473 -9.087509 -0.422946 365 0.722667 0.691196 0.000000
-9.725492 -9.086595 -0.418815 357 0.722667 0.691196 0.000000
-9.726442 -9.087474 -0.414756 365 0.722667 0.691196 0.000000
-9.726431 -9.087460 -0.410666 345 0.722667 0.691196 0.000000
-9.725121 -9.086236 -0.406518 353 0.722667 0.691196 0.000000
-9.724462 -9.085626 -0.402404 333 0.722667 0.691196 0.000000
-9.724600 -9.085759 -0.398322 339 0.722667 0.691196 0.000000
-9.725331 -9.086433 -0.394256 373 0.722667 0.691196 0.000000
-9.725578 -9.086671 -0.390173 353 0.722667 0.691196 0.000000
-9.725661 -9.086747 -0.386092 341 0.722667 0.691196 0.000000
-9.725956 -9.087023 -0.382010 343 0.722667 0.691196 0.000000
-9.726150 -9.087201 -0.377928 349 0.722667 0.691196 0.000000
-9.726663 -9.087683 -0.373853 345 0.722667 0.691196 0.000000
-9.726253 -9.087303 -0.369746 327 0.722667 0.691196 0.000000
-9.725694 -9.086775 -0.365642 355 0.722667 0.691196 0.000000
-9.725940 -9.086998 -0.361559 357 0.722667 0.691196 0.000000
-9.724992 -9.086123 -0.357428 335 0.722667 0.691196 0.000000
-9.725340 -9.086443 -0.353355 333 0.722667 0.691196 0.000000
-9.726377 -9.087406 -0.349295 333 0.722667 0.691196 0.000000
-9.725491 -9.086584 -0.345183 329 0.722667 0.691196 0.000000
-9.725565 -9.086653 -0.341092 351 0.722667 0.691196 0.000000
-9.725953 -9.087019 -0.337018 353 0.722667 0.691196 0.000000
-9.726192 -9.087235 -0.332936 337 0.722667 0.691196 0.000000
-9.724985 -9.086110 -0.328807 313 0.722667 0.691196 0.000000
-9.724356 -9.085524 -0.324693 309 0.722667 0.691196 0.000000
-9.725754 -9.086835 -0.320650 357 0.722667 0.691196 0.000000
-9.726258 -9.087296 -0.316575 343 0.722667 0.691196 0.000000
-9.726436 -9.087462 -0.312493 347 0.722667 0.691196 0.000000
-9.725431 -9.086530 -0.308373 337 0.722667 0.691196 0.000000
-9.724482 -9.085642 -0.304251 317 0.722667 0.691196 0.000000
-9.725136 -9.086251 -0.300185 317 0.722667 0.691196 0.000000
-9.728914 -9.084124 -0.689087 319 0.722667 0.691196 0.000000
-9.729920 -9.085062 -0.685058 309 0.722667 0.691196 0.000000
-9.730389 -9.085506 -0.680993 323 0.722667 0.691196 0.000000
-9.729844 -9.084990 -0.676848 311 0.722667 0.691196 0.000000
-9.729082 -9.084281 -0.672705 323 0.722667 0.691196 0.000000
-9.728374 -9.083618 -0.668562 315 0.722667 0.691196 0.000000
-9.729961 -9.085111 -0.664567 305 0.722667 0.691196 0.000000
-9.732251 -9.087244 -0.660626 311 0.722667 0.691196 0.000000
-9.731809 -9.086824 -0.656490 333 0.722667 0.691196 0.000000
-9.729866 -9.085017 -0.652268 335 0.722667 0.691196 0.000000
-9.730010 -9.085144 -0.648176 327 0.722667 0.691196 0.000000
-9.731166 -9.086230 -0.644155 351 0.722667 0.691196 0.000000
-9.730505 -9.085605 -0.640011 341 0.722667 0.691196 0.000000
-9.730220 -9.085340 -0.635904 341 0.722667 0.691196 0.000000
-9.730147 -9.085276 -0.631795 331 0.722667 0.691196 0.000000
-9.729909 -9.085049 -0.627687 347 0.722667 0.691196 0.000000
-9.729938 -9.085081 -0.623586 341 0.722667 0.691196 0.000000
-9.729708 -9.084861 -0.619478 341 0.722667 0.691196 0.000000
-9.729360 -9.084532 -0.615362 315 0.722667 0.691196 0.000000
-9.730617 -9.085714 -0.611340 305 0.722667 0.691196 0.000000
-9.731442 -9.086478 -0.607292 361 0.722667 0.691196 0.000000
-9.730079 -9.085211 -0.603115 363 0.722667 0.691196 0.000000
-9.730647 -9.085737 -0.599059 377 0.722667 0.691196 0.000000
-9.731144 -9.086205 -0.594984 355 0.722667 0.691196 0.000000
-9.729356 -9.084526 -0.590781 343 0.722667 0.691196 0.000000
-9.729377 -9.084551 -0.586691 325 0.722667 0.691196 0.000000
-9.729929 -9.085064 -0.582626 343 0.722667 0.691196 0.000000
-9.728994 -9.084188 -0.578474 331 0.722667 0.691196 0.000000
-9.729815 -9.084960 -0.574426 333 0.722667 0.691196 0.000000
-9.730045 -9.085170 -0.570344 369 0.722667 0.691196 0.000000
-9.729213 -9.084391 -0.566202 379 0.722667 0.691196 0.000000
-9.729757 -9.084898 -0.562137 367 0.722667 0.691196 0.000000
-9.730145 -9.085264 -0.558063 373 0.722667 0.691196 0.000000
-9.729361 -9.084537 -0.553930 363 0.722667 0.691196 0.000000
-9.729803 -9.084947 -0.549856 369 0.722667 0.691196 0.000000
-9.730511 -9.085602 -0.545799 377 0.722667 0.691196 0.000000
-9.730837 -9.085916 -0.541726 379 0.722667 0.691196 0.000000
-9.729363 -9.084532 -0.537550 347 0.722667 0.691196 0.000000
-9.729532 -9.084692 -0.533468 351 0.722667 0.691196 0.000000
-9.730178 -9.085295 -0.529402 349 0.722667 0.691196 0.000000
-9.730136 -9.085256 -0.525312 363 0.722667 0.691196 0.000000
-9.729554 -9.084708 -0.521188 383 0.722667 0.691196 0.000000
-9.728863 -9.084071 -0.517054 375 0.722667 0.691196 0.000000
-9.728711 -9.083929 -0.512955 347 0.722667 0.691196 0.000000
-9.729358 -9.084533 -0.508889 347 0.722667 0.691196 0.000000
-9.729582 -9.084737 -0.504807 361 0.722667 0.691196 0.000000
-9.728779 -9.083983 -0.500674 361 0.722667 0.691196 0.000000
-9.729528 -9.084682 -0.496617 341 0.722667 0.691196 0.000000
-9.729962 -9.085087 -0.492553 363 0.722667 0.691196 0.000000
-9.730117 -9.085235 -0.488462 379 0.722667 0.691196 0.000000
-9.730019 -9.085136 -0.484362 377 0.722667 0.691196 0.000000
-9.729476 -9.084634 -0.480247 357 0.722667 0.691196 0.000000
-9.729418 -9.084581 -0.476148 375 0.722667 0.691196 0.000000
-9.728562 -9.083783 -0.472016 353 0.722667 0.691196 0.000000
-9.728819 -9.084028 -0.467933 371 0.722667 0.691196 0.000000
-9.729886 -9.085016 -0.463893 383 0.722667 0.691196 0.000000
-9.728859 -9.084064 -0.459753 369 0.722667 0.691196 0.000000
-9.728269 -9.083509 -0.455638 359 0.722667 0.691196 0.000000
-9.729063 -9.084249 -0.451581 355 0.722667 0.691196 0.000000
-9.727612 -9.082897 -0.447424 369 0.722667 0.691196 0.000000
-9.727765 -9.083031 -0.443332 357 0.722667 0.691196 0.000000
-9.730000 -9.085120 -0.439342 363 0.722667 0.691196 0.000000
-9.730099 -9.085208 -0.435251 361 0.722667 0.691196 0.000000
-9.729862 -9.084996 -0.431153 339 0.722667 0.691196 0.000000
-9.730282 -9.085387 -0.427079 357 0.722667 0.691196 0.000000
-9.729839 -9.084969 -0.422963 357 0.722667 0.691196 0.000000
-9.728914 -9.084112 -0.418841 369 0.722667 0.691196 0.000000
-9.728575 -9.083790 -0.414734 369 0.722667 0.691196 0.000000
-9.729901 -9.085030 -0.410692 371 0.722667 0.691196 0.000000
-9.729451 -9.084604 -0.406586 357 0.722667 0.691196 0.000000
-9.728683 -9.083890 -0.402463 357 0.722667 0.691196 0.000000
-9.729203 -9.084378 -0.398388 355 0.722667 0.691196 0.000000
-9.728691 -9.083900 -0.394283 341 0.722667 0.691196 0.000000
-9.729588 -9.084736 -0.390224 335 0.722667 0.691196 0.000000
-9.729781 -9.084915 -0.386142 323 0.722667 0.691196 0.000000
-9.728463 -9.083686 -0.381995 313 0.722667 0.691196 0.000000
-9.727960 -9.083215 -0.377889 313 0.722667 0.691196 0.000000
-9.728848 -9.084044 -0.373831 313 0.722667 0.691196 0.000000
-9.729518 -9.084667 -0.369764 331 0.722667 0.691196 0.000000
-9.728583 -9.083791 -0.365643 351 0.722667 0.691196 0.000000
-9.728284 -9.083513 -0.361536 339 0.722667 0.691196 0.000000
-9.728899 -9.084091 -0.357470 349 0.722667 0.691196 0.000000
-9.728489 -9.083712 -0.353364 343 0.722667 0.691196 0.000000
-9.728837 -9.084031 -0.349290 375 0.722667 0.691196 0.000000
-9.729499 -9.084648 -0.345224 361 0.722667 0.691196 0.000000
-9.729957 -9.085072 -0.341150 315 0.722667 0.691196 0.000000
-9.730072 -9.085186 -0.337058 335 0.722667 0.691196 0.000000
-9.729827 -9.084954 -0.332961 327 0.722667 0.691196 0.000000
-9.729629 -9.084773 -0.328862 319 0.722667 0.691196 0.000000
-9.729273 -9.084436 -0.324766 329 0.722667 0.691196 0.000000
-9.728377 -9.083608 -0.320644 327 0.722667 0.691196 0.000000
-9.728556 -9.083774 -0.316562 315 0.722667 0.691196 0.000000
-9.729209 -9.084384 -0.312486 359 0.722667 0.691196 0.000000
-9.728370 -9.083598 -0.308374 317 0.722667 0.691196 0.000000
-9.728858 -9.084046 -0.304299 317 0.722667 0.691196 0.000000
-9.728981 -9.084168 -0.300218 305 0.722667 0.691196 0.000000
-9.735802 -9.084992 -0.689371 321 0.722667 0.691196 0.000000
-9.734664 -9.083937 -0.685192 323 0.722667 0.691196 0.000000
-9.733964 -9.083280 -0.681048 345 0.722667 0.691196 0.000000
-9.734539 -9.083812 -0.676983 349 0.722667 0.691196 0.000000
-9.733574 -9.082911 -0.672821 331 0.722667 0.691196 0.000000
-9.732703 -9.082099 -0.668659 315 0.722667 0.691196 0.000000
-9.732739 -9.082138 -0.664569 329 0.722667 0.691196 0.000000
-9.732728 -9.082123 -0.660469 337 0.722667 0.691196 0.000000
-9.733241 -9.082605 -0.656404 327 0.722667 0.691196 0.000000
-9.733441 -9.082790 -0.652322 331 0.722667 0.691196 0.000000
-9.733852 -9.083175 -0.648248 351 0.722667 0.691196 0.000000
-9.733459 -9.082808 -0.644122 335 0.722667 0.691196 0.000000
-9.732219 -9.081642 -0.639953 339 0.722667 0.691196 0.000000
-9.732520 -9.081923 -0.635870 339 0.722667 0.691196 0.000000
-9.733770 -9.083100 -0.631859 349 0.722667 0.691196 0.000000
-9.733813 -9.083132 -0.627758 337 0.722667 0.691196 0.000000
-9.732988 -9.082358 -0.623606 351 0.722667 0.691196 0.000000
-9.732635 -9.082037 -0.619489 341 0.722667 0.691196 0.000000
-9.732983 -9.082356 -0.615416 349 0.722667 0.691196 0.000000
-9.733121 -9.082491 -0.611324 333 0.722667 0.691196 0.000000
-9.732507 -9.081918 -0.607190 349 0.722667 0.691196 0.000000
-9.731886 -9.081338 -0.603056 349 0.722667 0.691196 0.000000
-9.731921 -9.081362 -0.598965 363 0.722667 0.691196 0.000000
-9.732216 -9.081637 -0.594892 361 0.722667 0.691196 0.000000
-9.733363 -9.082704 -0.590862 351 0.722667 0.691196 0.000000
-9.734557 -9.083822 -0.586830 343 0.722667 0.691196 0.000000
-9.735328 -9.084541 -0.582783 353 0.722667 0.691196 0.000000
-9.734278 -9.083570 -0.578623 363 0.722667 0.691196 0.000000
-9.732373 -9.081781 -0.574420 353 0.722667 0.691196 0.000000
-9.732183 -9.081607 -0.570312 353 0.722667 0.691196 0.000000
-9.732304 -9.081715 -0.566221 331 0.722667 0.691196 0.000000
-9.733123 -9.082485 -0.562173 361 0.722667 0.691196 0.000000
-9.732344 -9.081751 -0.558040 363 0.722667 0.691196 0.000000
-9.731066 -9.080567 -0.553872 357 0.722667 0.691196 0.000000
-9.731831 -9.081281 -0.549815 349 0.722667 0.691196 0.000000
-9.731091 -9.080591 -0.545682 357 0.722667 0.691196 0.000000
-9.732230 -9.081651 -0.541651 375 0.722667 0.691196 0.000000
-9.734488 -9.083759 -0.537680 359 0.722667 0.691196 0.000000
-9.732835 -9.082215 -0.533495 353 0.722667 0.691196 0.000000
-9.732048 -9.081473 -0.529362 373 0.722667 0.691196 0.000000
-9.733391 -9.082726 -0.525340 359 0.722667 0.691196 0.000000
-9.733083 -9.082443 -0.521223 361 0.722667 0.691196 0.000000
-9.732602 -9.081992 -0.517107 365 0.722667 0.691196 0.000000
-9.732984 -9.082352 -0.513033 363 0.722667 0.691196 0.000000
-9.732347 -9.081759 -0.508909 355 0.722667 0.691196 0.000000
-9.731552 -9.081012 -0.504776 347 0.722667 0.691196 0.000000
-9.731550 -9.081018 -0.500676 359 0.722667 0.691196 0.000000
-9.732189 -9.081614 -0.496620 343 0.722667 0.691196 0.000000
-9.733163 -9.082514 -0.492571 355 0.722667 0.691196 0.000000
-9.733160 -9.082520 -0.488481 363 0.722667 0.691196 0.000000
-9.732258 -9.081670 -0.484339 367 0.722667 0.691196 0.000000
-9.731824 -9.081269 -0.480223 377 0.722667 0.691196 0.000000
-9.731547 -9.081012 -0.476126 375 0.722667 0.691196 0.000000
-9.732186 -9.081609 -0.472060 363 0.722667 0.691196 0.000000
-9.733151 -9.082500 -0.468011 375 0.722667 0.691196 0.000000
-9.733142 -9.082501 -0.463921 397 0.722667 0.691196 0.000000
-9.732762 -9.082146 -0.459804 379 0.722667 0.691196 0.000000
-9.732438 -9.081837 -0.455697 359 0.722667 0.691196 0.000000
-9.732435 -9.081828 -0.451607 379 0.722667 0.691196 0.000000
-9.732042 -9.081475 -0.447501 375 0.722667 0.691196 0.000000
-9.732195 -9.081609 -0.443409 359 0.722667 0.691196 0.000000
-9.732075 -9.081506 -0.439310 355 0.722667 0.691196 0.000000
-9.731688 -9.081144 -0.435204 347 0.722667 0.691196 0.000000
-9.731418 -9.080878 -0.431106 351 0.722667 0.691196 0.000000
-9.733051 -9.082408 -0.427081 371 0.722667 0.691196 0.000000
-9.733205 -9.082556 -0.422999 351 0.722667 0.691196 0.000000
-9.732224 -9.081641 -0.418858 359 0.722667 0.691196 0.000000
-9.732158 -9.081570 -0.414769 383 0.722667 0.691196 0.000000
-9.732726 -9.082108 -0.410693 385 0.722667 0.691196 0.000000
-9.732981 -9.082339 -0.406621 375 0.722667 0.691196 0.000000
-9.732265 -9.081669 -0.402497 357 0.722667 0.691196 0.000000
-9.733366 -9.082697 -0.398447 351 0.722667 0.691196 0.000000
-9.733667 -9.082979 -0.394364 353 0.722667 0.691196 0.000000
-9.732092 -9.081512 -0.390219 323 0.722667 0.691196 0.000000
-9.731424 -9.080894 -0.386095 337 0.722667 0.691196 0.000000
-9.731398 -9.080868 -0.382005 327 0.722667 0.691196 0.000000
-9.731379 -9.080847 -0.377915 325 0.722667 0.691196 0.000000
-9.731995 -9.081426 -0.373849 337 0.722667 0.691196 0.000000
-9.731224 -9.080697 -0.369726 337 0.722667 0.691196 0.000000
-9.730659 -9.080176 -0.365622 327 0.722667 0.691196 0.000000
-9.731757 -9.081190 -0.361571 369 0.722667 0.691196 0.000000
-9.731355 -9.080816 -0.357465 337 0.722667 0.691196 0.000000
-9.730891 -9.080392 -0.353359 315 0.722667 0.691196 0.000000
-9.731724 -9.081161 -0.349291 359 0.722667 0.691196 0.000000
-9.733074 -9.082421 -0.345249 369 0.722667 0.691196 0.000000
-9.732883 -9.082248 -0.341150 335 0.722667 0.691196 0.000000
-9.731730 -9.081165 -0.337021 329 0.722667 0.691196 0.000000
-9.731470 -9.080934 -0.332923 339 0.722667 0.691196 0.000000
-9.731388 -9.080849 -0.328834 317 0.722667 0.691196 0.000000
-9.730869 -9.080365 -0.324729 341 0.722667 0.691196 0.000000
-9.731108 -9.080583 -0.320646 313 0.722667 0.691196 0.000000
-9.732083 -9.081495 -0.316587 337 0.722667 0.691196 0.000000
-9.731932 -9.081352 -0.312488 343 0.722667 0.691196 0.000000
-9.731890 -9.081314 -0.308399 343 0.722667 0.691196 0.000000
-9.732810 -9.082181 -0.304340 359 0.722667 0.691196 0.000000
-9.732454 -9.081845 -0.300233 331 0.722667 0.691196 0.000000
-9.736435 -9.080026 -0.689223 329 0.722667 0.691196 0.000000
-9.735039 -9.078719 -0.685026 323 0.722667 0.691196 0.000000
-9.736366 -9.079959 -0.681023 323 0.722667 0.691196 0.000000
-9.737802 -9.081289 -0.677020 347 0.722667 0.691196 0.000000
-9.737197 -9.080736 -0.672885 367 0.722667 0.691196 0.000000
-9.735855 -9.079473 -0.668688 327 0.722667 0.691196 0.000000
-9.735728 -9.079365 -0.664589 313 0.722667 0.691196 0.000000
-9.735607 -9.079247 -0.660480 337 0.722667 0.691196 0.000000
-9.735275 -9.078931 -0.656363 321 0.722667 0.691196 0.000000
-9.736218 -9.079818 -0.652324 333 0.722667 0.691196 0.000000
-9.737593 -9.081096 -0.648311 339 0.722667 0.691196 0.000000
-9.736925 -9.080479 -0.644177 347 0.722667 0.691196 0.000000
-9.735944 -9.079564 -0.640016 341 0.722667 0.691196 0.000000
-9.735767 -9.079388 -0.635908 347 0.722667 0.691196 0.000000
-9.736554 -9.080120 -0.631861 339 0.722667 0.691196 0.000000
-9.736371 -9.079953 -0.627742 353 0.722667 0.691196 0.000000
-9.736344 -9.079926 -0.623652 357 0.722667 0.691196 0.000000
-9.736429 -9.080016 -0.619561 363 0.722667 0.691196 0.000000
-9.736354 -9.079937 -0.615452 345 0.722667 0.691196 0.000000
-9.736438 -9.080013 -0.611361 327 0.722667 0.691196 0.000000
-9.736670 -9.080237 -0.607279 311 0.722667 0.691196 0.000000
-9.736378 -9.079967 -0.603162 327 0.722667 0.691196 0.000000
-9.735871 -9.079482 -0.599036 337 0.722667 0.691196 0.000000
-9.736379 -9.079958 -0.594971 365 0.722667 0.691196 0.000000
-9.736078 -9.079680 -0.590854 347 0.722667 0.691196 0.000000
-9.735402 -9.079056 -0.586720 343 0.722667 0.691196 0.000000
-9.734898 -9.078572 -0.582595 361 0.722667 0.691196 0.000000
-9.734590 -9.078288 -0.578488 369 0.722667 0.691196 0.000000
-9.734241 -9.077958 -0.574371 337 0.722667 0.691196 0.000000
-9.734740 -9.078428 -0.570306 333 0.722667 0.691196 0.000000
-9.735128 -9.078794 -0.566232 343 0.722667 0.691196 0.000000
-9.734234 -9.077964 -0.562081 341 0.722667 0.691196 0.000000
-9.735051 -9.078721 -0.558033 353 0.722667 0.691196 0.000000
-9.736511 -9.080083 -0.554019 351 0.722667 0.691196 0.000000
-9.735945 -9.079548 -0.549894 355 0.722667 0.691196 0.000000
-9.735363 -9.079014 -0.545770 371 0.722667 0.691196 0.000000
-9.735000 -9.078672 -0.541653 359 0.722667 0.691196 0.000000
-9.735333 -9.078979 -0.537580 347 0.722667 0.691196 0.000000
-9.735722 -9.079346 -0.533506 335 0.722667 0.691196 0.000000
-9.735038 -9.078701 -0.529372 353 0.722667 0.691196 0.000000
-9.735840 -9.079459 -0.525325 349 0.722667 0.691196 0.000000
-9.736549 -9.080114 -0.521268 363 0.722667 0.691196 0.000000
-9.736296 -9.079874 -0.517160 359 0.722667 0.691196 0.000000
-9.736567 -9.080132 -0.513078 353 0.722667 0.691196 0.000000
-9.736729 -9.080285 -0.508986 343 0.722667 0.691196 0.000000
-9.736732 -9.080283 -0.504896 325 0.722667 0.691196 0.000000
-9.735939 -9.079536 -0.500763 343 0.722667 0.691196 0.000000
-9.734646 -9.078340 -0.496605 361 0.722667 0.691196 0.000000
-9.735134 -9.078789 -0.492531 381 0.722667 0.691196 0.000000
-9.736900 -9.080441 -0.488524 377 0.722667 0.691196 0.000000
-9.736904 -9.080440 -0.484434 405 0.722667 0.691196 0.000000
-9.736416 -9.079982 -0.480318 389 0.722667 0.691196 0.000000
-9.735185 -9.078836 -0.476160 365 0.722667 0.691196 0.000000
-9.733038 -9.076836 -0.471970 361 0.722667 0.691196 0.000000
-9.733035 -9.076827 -0.467880 363 0.722667 0.691196 0.000000
-9.734957 -9.078622 -0.463872 371 0.722667 0.691196 0.000000
-9.736072 -9.079661 -0.459831 361 0.722667 0.691196 0.000000
-9.735802 -9.079410 -0.455724 375 0.722667 0.691196 0.000000
-9.736059 -9.079654 -0.451651 375 0.722667 0.691196 0.000000
-9.735726 -9.079337 -0.447544 375 0.722667 0.691196 0.000000
-9.734706 -9.078392 -0.443403 367 0.722667 0.691196 0.000000
-9.734531 -9.078231 -0.439305 369 0.722667 0.691196 0.000000
-9.733612 -9.077367 -0.435174 369 0.722667 0.691196 0.000000
-9.733648 -9.077405 -0.431083 365 0.722667 0.691196 0.000000
-9.733958 -9.077694 -0.427000 347 0.722667 0.691196 0.000000
-9.734370 -9.078078 -0.422926 355 0.722667 0.691196 0.000000
-9.735431 -9.079061 -0.418876 359 0.722667 0.691196 0.000000
-9.736217 -9.079792 -0.414819 353 0.722667 0.691196 0.000000
-9.735550 -9.079175 -0.410705 373 0.722667 0.691196 0.000000
-9.733983 -9.077715 -0.406549 345 0.722667 0.691196 0.000000
-9.734495 -9.078196 -0.402474 331 0.722667 0.691196 0.000000
-9.734860 -9.078529 -0.398401 363 0.722667 0.691196 0.000000
-9.733981 -9.077711 -0.394269 333 0.722667 0.691196 0.000000
-9.734760 -9.078437 -0.390212 347 0.722667 0.691196 0.000000
-9.735274 -9.078918 -0.386147 349 0.722667 0.691196 0.000000
-9.735997 -9.079585 -0.382080 345 0.722667 0.691196 0.000000
-9.737418 -9.080915 -0.378037 371 0.722667 0.691196 0.000000
-9.736484 -9.080039 -0.373915 375 0.722667 0.691196 0.000000
-9.734001 -9.077724 -0.369728 339 0.722667 0.691196 0.000000
-9.734076 -9.077794 -0.365648 327 0.722667 0.691196 0.000000
-9.735168 -9.078816 -0.361587 341 0.722667 0.691196 0.000000
-9.734282 -9.077992 -0.357465 345 0.722667 0.691196 0.000000
-9.734200 -9.077908 -0.353376 341 0.722667 0.691196 0.000000
-9.734119 -9.077836 -0.349287 363 0.722667 0.691196 0.000000
-9.734140 -9.077862 -0.345196 347 0.722667 0.691196 0.000000
-9.734958 -9.078618 -0.341129 331 0.722667 0.691196 0.000000
-9.734719 -9.078392 -0.337031 313 0.722667 0.691196 0.000000
-9.733073 -9.076855 -0.332886 337 0.722667 0.691196 0.000000
-9.733790 -9.077530 -0.328819 339 0.722667 0.691196 0.000000
-9.735674 -9.079290 -0.324792 357 0.722667 0.691196 0.000000
-9.734410 -9.078106 -0.320663 353 0.722667 0.691196 0.000000
-9.733835 -9.077563 -0.316559 363 0.722667 0.691196 0.000000
-9.733952 -9.077680 -0.312467 337 0.722667 0.691196 0.000000
-9.734182 -9.077890 -0.308385 333 0.722667 0.691196 0.000000
-9.734359 -9.078056 -0.304304 345 0.722667 0.691196 0.000000
-9.734480 -9.078165 -0.300212 367 0.722667 0.691196 0.000000
-9.739850 -9.077538 -0.689270 335 0.722667 0.691196 0.000000
-9.740644 -9.078277 -0.685222 315 0.722667 0.691196 0.000000
-9.740306 -9.077968 -0.681105 325 0.722667 0.691196 0.000000
-9.739341 -9.077066 -0.676934 337 0.722667 0.691196 0.000000
-9.738477 -9.076262 -0.672782 343 0.722667 0.691196 0.000000
-9.739208 -9.076935 -0.668725 331 0.722667 0.691196 0.000000
-9.739948 -9.077628 -0.664678 335 0.722667 0.691196 0.000000
-9.739344 -9.077063 -0.660544 349 0.722667 0.691196 0.000000
-9.739331 -9.077047 -0.656444 325 0.722667 0.691196 0.000000
-9.740699 -9.078333 -0.652431 321 0.722667 0.691196 0.000000
-9.740953 -9.078564 -0.648348 335 0.722667 0.691196 0.000000
-9.738689 -9.076453 -0.644109 299 0.722667 0.691196 0.000000
-9.738234 -9.076035 -0.639983 317 0.722667 0.691196 0.000000
-9.739074 -9.076812 -0.635936 325 0.722667 0.691196 0.000000
-9.739274 -9.076997 -0.631854 327 0.722667 0.691196 0.000000
-9.739835 -9.077517 -0.627788 339 0.722667 0.691196 0.000000
-9.739816 -9.077496 -0.623688 343 0.722667 0.691196 0.000000
-9.738670 -9.076434 -0.619519 327 0.722667 0.691196 0.000000
-9.737885 -9.075708 -0.615376 333 0.722667 0.691196 0.000000
-9.737866 -9.075687 -0.611276 341 0.722667 0.691196 0.000000
-9.737902 -9.075711 -0.607186 359 0.722667 0.691196 0.000000
-9.737548 -9.075390 -0.603069 343 0.722667 0.691196 0.000000
-9.737465 -9.075303 -0.598970 349 0.722667 0.691196 0.000000
-9.739043 -9.076777 -0.594965 335 0.722667 0.691196 0.000000
-9.739017 -9.076749 -0.590865 361 0.722667 0.691196 0.000000
-9.738552 -9.076324 -0.586739 363 0.722667 0.691196 0.000000
-9.739268 -9.076984 -0.582693 343 0.722667 0.691196 0.000000
-9.738007 -9.075814 -0.578524 349 0.722667 0.691196 0.000000
-9.737540 -9.075376 -0.574398 337 0.722667 0.691196 0.000000
-9.738476 -9.076241 -0.570360 357 0.722667 0.691196 0.000000
-9.737528 -9.075368 -0.566208 367 0.722667 0.691196 0.000000
-9.737384 -9.075232 -0.562110 373 0.722667 0.691196 0.000000
-9.738412 -9.076188 -0.558070 377 0.722667 0.691196 0.000000
-9.738801 -9.076555 -0.553996 367 0.722667 0.691196 0.000000
-9.738282 -9.076072 -0.549871 357 0.722667 0.691196 0.000000
-9.737066 -9.074939 -0.545712 355 0.722667 0.691196 0.000000
-9.737876 -9.075689 -0.541655 353 0.722667 0.691196 0.000000
-9.738701 -9.076453 -0.537607 369 0.722667 0.691196 0.000000
-9.738222 -9.076016 -0.533491 335 0.722667 0.691196 0.000000
-9.738296 -9.076072 -0.529400 349 0.722667 0.691196 0.000000
-9.737972 -9.075775 -0.525283 355 0.722667 0.691196 0.000000
-9.737665 -9.075492 -0.521176 349 0.722667 0.691196 0.000000
-9.737403 -9.075247 -0.517068 363 0.722667 0.691196 0.000000
-9.738801 -9.076545 -0.513045 379 0.722667 0.691196 0.000000
-9.740041 -9.077701 -0.509014 377 0.722667 0.691196 0.000000
-9.739929 -9.077603 -0.504915 365 0.722667 0.691196 0.000000
-9.738972 -9.076709 -0.500773 361 0.722667 0.691196 0.000000
-9.737632 -9.075460 -0.496616 325 0.722667 0.691196 0.000000
-9.738168 -9.075961 -0.492551 367 0.722667 0.691196 0.000000
-9.738767 -9.076513 -0.488485 377 0.722667 0.691196 0.000000
-9.738873 -9.076608 -0.484394 351 0.722667 0.691196 0.000000
-9.738167 -9.075959 -0.480270 349 0.722667 0.691196 0.000000
-9.737099 -9.074961 -0.476120 361 0.722667 0.691196 0.000000
-9.738269 -9.076046 -0.472089 357 0.722667 0.691196 0.000000
-9.739235 -9.076951 -0.468040 367 0.722667 0.691196 0.000000
-9.738317 -9.076089 -0.463899 375 0.722667 0.691196 0.000000
-9.738315 -9.076095 -0.459809 361 0.722667 0.691196 0.000000
-9.738577 -9.076331 -0.455726 361 0.722667 0.691196 0.000000
-9.738190 -9.075970 -0.451620 375 0.722667 0.691196 0.000000
-9.738391 -9.076156 -0.447538 365 0.722667 0.691196 0.000000
-9.738272 -9.076053 -0.443439 361 0.722667 0.691196 0.000000
-9.738480 -9.076244 -0.439357 375 0.722667 0.691196 0.000000
-9.738631 -9.076377 -0.435265 357 0.722667 0.691196 0.000000
-9.738191 -9.075972 -0.431159 385 0.722667 0.691196 0.000000
-9.738180 -9.075957 -0.427059 407 0.722667 0.691196 0.000000
-9.738052 -9.075849 -0.422970 389 0.722667 0.691196 0.000000
-9.738143 -9.075931 -0.418879 391 0.722667 0.691196 0.000000
-9.738882 -9.076611 -0.414812 385 0.722667 0.691196 0.000000
-9.738214 -9.075992 -0.410698 359 0.722667 0.691196 0.000000
-9.738093 -9.075876 -0.406599 349 0.722667 0.691196 0.000000
-9.737215 -9.075058 -0.402478 349 0.722667 0.691196 0.000000
-9.736609 -9.074492 -0.398363 343 0.722667 0.691196 0.000000
-9.737982 -9.075770 -0.394320 367 0.722667 0.691196 0.000000
-9.738174 -9.075949 -0.390238 371 0.722667 0.691196 0.000000
-9.737939 -9.075737 -0.386140 335 0.722667 0.691196 0.000000
-9.738983 -9.076706 -0.382091 367 0.722667 0.691196 0.000000
-9.738800 -9.076538 -0.377992 365 0.722667 0.691196 0.000000
-9.737803 -9.075611 -0.373861 369 0.722667 0.691196 0.000000
-9.737354 -9.075187 -0.369756 355 0.722667 0.691196 0.000000
-9.736578 -9.074466 -0.365633 353 0.722667 0.691196 0.000000
-9.736872 -9.074740 -0.361550 355 0.722667 0.691196 0.000000
-9.737384 -9.075209 -0.357485 361 0.722667 0.691196 0.000000
-9.737083 -9.074931 -0.353378 329 0.722667 0.691196 0.000000
-9.736893 -9.074757 -0.349279 329 0.722667 0.691196 0.000000
-9.737493 -9.075322 -0.345214 317 0.722667 0.691196 0.000000
-9.736073 -9.073997 -0.341077 331 0.722667 0.691196 0.000000
-9.735617 -9.073564 -0.336971 309 0.722667 0.691196 0.000000
-9.737295 -9.075132 -0.332935 327 0.722667 0.691196 0.000000
-9.737950 -9.075743 -0.328869 363 0.722667 0.691196 0.000000
-9.738823 -9.076558 -0.324811 335 0.722667 0.691196 0.000000
-9.737670 -9.075477 -0.320681 347 0.722667 0.691196 0.000000
-9.736290 -9.074197 -0.316544 337 0.722667 0.691196 0.000000
-9.737156 -9.075006 -0.312486 335 0.722667 0.691196 0.000000
-9.737816 -9.075608 -0.308410 345 0.722667 0.691196 0.000000
-9.737345 -9.075177 -0.304314 337 0.722667 0.691196 0.000000
-9.737255 -9.075087 -0.300215 345 0.722667 0.691196 0.000000
-9.741720 -9.073716 -0.689210 327 0.722667 0.691196 0.000000
-9.740425 -9.072506 -0.685022 317 0.722667 0.691196 0.000000
-9.741589 -9.073599 -0.681001 325 0.722667 0.691196 0.000000
-9.742914 -9.074825 -0.676989 329 0.722667 0.691196 0.000000
-9.742324 -9.074270 -0.672854 319 0.722667 0.691196 0.000000
-9.741180 -9.073209 -0.668675 317 0.722667 0.691196 0.000000
-9.741709 -9.073704 -0.664610 305 0.722667 0.691196 0.000000
-9.742113 -9.074083 -0.660546 353 0.722667 0.691196 0.000000
-9.742265 -9.074216 -0.656454 317 0.722667 0.691196 0.000000
-9.741824 -9.073811 -0.652328 315 0.722667 0.691196 0.000000
-9.741375 -9.073384 -0.648202 317 0.722667 0.691196 0.000000
-9.742045 -9.074021 -0.644146 343 0.722667 0.691196 0.000000
-9.741760 -9.073756 -0.640028 315 0.722667 0.691196 0.000000
-9.741054 -9.073092 -0.635885 337 0.722667 0.691196 0.000000
-9.740440 -9.072519 -0.631751 319 0.722667 0.691196 0.000000
-9.740367 -9.072454 -0.627651 339 0.722667 0.691196 0.000000
-9.741521 -9.073527 -0.623630 339 0.722667 0.691196 0.000000
-9.741658 -9.073647 -0.619539 349 0.722667 0.691196 0.000000
-9.740506 -9.072580 -0.615370 323 0.722667 0.691196 0.000000
-9.741120 -9.073157 -0.611314 325 0.722667 0.691196 0.000000
-9.741632 -9.073626 -0.607249 335 0.722667 0.691196 0.000000
-9.741067 -9.073104 -0.603114 357 0.722667 0.691196 0.000000
-9.741362 -9.073380 -0.599041 343 0.722667 0.691196 0.000000
-9.742836 -9.074741 -0.595028 365 0.722667 0.691196 0.000000
-9.741144 -9.073165 -0.590833 341 0.722667 0.691196 0.000000
-9.740468 -9.072540 -0.586699 337 0.722667 0.691196 0.000000
-9.742367 -9.074314 -0.582712 363 0.722667 0.691196 0.000000
-9.742441 -9.074385 -0.578621 345 0.722667 0.691196 0.000000
-9.742086 -9.074049 -0.574504 355 0.722667 0.691196 0.000000
-9.740932 -9.072967 -0.570345 335 0.722667 0.691196 0.000000
-9.741321 -9.073333 -0.566271 359 0.722667 0.691196 0.000000
-9.740160 -9.072245 -0.562112 341 0.722667 0.691196 0.000000
-9.738576 -9.070772 -0.557926 325 0.722667 0.691196 0.000000
-9.739066 -9.071235 -0.553862 345 0.722667 0.691196 0.000000
-9.740581 -9.072641 -0.549847 361 0.722667 0.691196 0.000000
-9.741657 -9.073650 -0.545807 359 0.722667 0.691196 0.000000
-9.740879 -9.072915 -0.541674 353 0.722667 0.691196 0.000000
-9.741479 -9.073482 -0.537609 347 0.722667 0.691196 0.000000
-9.740412 -9.072483 -0.533459 325 0.722667 0.691196 0.000000
-9.739572 -9.071697 -0.529316 367 0.722667 0.691196 0.000000
-9.741077 -9.073097 -0.525302 357 0.722667 0.691196 0.000000
-9.740175 -9.072261 -0.521161 301 0.722667 0.691196 0.000000
-9.740658 -9.072718 -0.517096 341 0.722667 0.691196 0.000000
-9.741421 -9.073417 -0.513039 361 0.722667 0.691196 0.000000
-9.741582 -9.073569 -0.508957 359 0.722667 0.691196 0.000000
-9.742009 -9.073967 -0.504883 363 0.722667 0.691196 0.000000
-9.740950 -9.072975 -0.500733 377 0.722667 0.691196 0.000000
-9.741050 -9.073079 -0.496652 335 0.722667 0.691196 0.000000
-9.740842 -9.072878 -0.492544 369 0.722667 0.691196 0.000000
-9.739831 -9.071939 -0.488403 359 0.722667 0.691196 0.000000
-9.740093 -9.072188 -0.484320 353 0.722667 0.691196 0.000000
-9.740738 -9.072778 -0.480254 333 0.722667 0.691196 0.000000
-9.740142 -9.072231 -0.476140 327 0.722667 0.691196 0.000000
-9.739975 -9.072077 -0.472041 351 0.722667 0.691196 0.000000
-9.741308 -9.073309 -0.468009 363 0.722667 0.691196 0.000000
-9.741087 -9.073110 -0.463901 363 0.722667 0.691196 0.000000
-9.741466 -9.073455 -0.459827 377 0.722667 0.691196 0.000000
-9.742254 -9.074201 -0.455770 369 0.722667 0.691196 0.000000
-9.741609 -9.073587 -0.451646 367 0.722667 0.691196 0.000000
-9.741442 -9.073433 -0.447547 371 0.722667 0.691196 0.000000
-9.741213 -9.073227 -0.443449 361 0.722667 0.691196 0.000000
-9.740725 -9.072770 -0.439334 367 0.722667 0.691196 0.000000
-9.741674 -9.073649 -0.435285 363 0.722667 0.691196 0.000000
-9.741610 -9.073590 -0.431185 389 0.722667 0.691196 0.000000
-9.741222 -9.073229 -0.427079 359 0.722667 0.691196 0.000000
-9.740461 -9.072521 -0.422956 357 0.722667 0.691196 0.000000
-9.739636 -9.071748 -0.418823 383 0.722667 0.691196 0.000000
-9.740580 -9.072635 -0.414774 367 0.722667 0.691196 0.000000
-9.740617 -9.072673 -0.410684 359 0.722667 0.691196 0.000000
-9.740066 -9.072151 -0.406569 371 0.722667 0.691196 0.000000
-9.739944 -9.072033 -0.402470 397 0.722667 0.691196 0.000000
-9.739441 -9.071564 -0.398365 359 0.722667 0.691196 0.000000
-9.740384 -9.072450 -0.394306 359 0.722667 0.691196 0.000000
-9.741219 -9.073219 -0.390248 357 0.722667 0.691196 0.000000
-9.740175 -9.072255 -0.386117 355 0.722667 0.691196 0.000000
-9.740047 -9.072132 -0.382019 411 0.722667 0.691196 0.000000
-9.740990 -9.073005 -0.377970 389 0.722667 0.691196 0.000000
-9.741066 -9.073089 -0.373879 371 0.722667 0.691196 0.000000
-9.740085 -9.072162 -0.369748 345 0.722667 0.691196 0.000000
-9.739840 -9.071942 -0.365650 343 0.722667 0.691196 0.000000
-9.740016 -9.072108 -0.361568 355 0.722667 0.691196 0.000000
-9.741061 -9.073078 -0.357519 367 0.722667 0.691196 0.000000
-9.741300 -9.073296 -0.353436 367 0.722667 0.691196 0.000000
-9.738647 -9.070827 -0.349251 343 0.722667 0.691196 0.000000
-9.737486 -9.069752 -0.345122 319 0.722667 0.691196 0.000000
-9.740461 -9.072514 -0.341134 347 0.722667 0.691196 0.000000
-9.741273 -9.073279 -0.337066 345 0.722667 0.691196 0.000000
-9.740229 -9.072301 -0.332946 309 0.722667 0.691196 0.000000
-9.739177 -9.071316 -0.328815 323 0.722667 0.691196 0.000000
-9.739402 -9.071534 -0.324733 349 0.722667 0.691196 0.000000
-9.740493 -9.072542 -0.320683 357 0.722667 0.691196 0.000000
-9.740514 -9.072568 -0.316593 343 0.722667 0.691196 0.000000
-9.740205 -9.072269 -0.312496 351 0.722667 0.691196 0.000000
-9.740532 -9.072585 -0.308412 333 0.722667 0.691196 0.000000
-9.740012 -9.072102 -0.304307 333 0.722667 0.691196 0.000000
-9.739540 -9.071656 -0.300201 307 0.722667 0.691196 0.000000
-9.744573 -9.071077 -0.689220 309 0.722667 0.691196 0.000000
-9.744945 -9.071417 -0.685146 339 0.722667 0.691196 0.000000
-9.744020 -9.070561 -0.680985 331 0.722667 0.691196 0.000000
-9.744438 -9.070952 -0.676921 319 0.722667 0.691196 0.000000
-9.744207 -9.070732 -0.672803 329 0.722667 0.691196 0.000000
-9.743502 -9.070083 -0.668659 323 0.722667 0.691196 0.000000
-9.744077 -9.070615 -0.664594 321 0.722667 0.691196 0.000000
-9.744699 -9.071199 -0.660538 333 0.722667 0.691196 0.000000
-9.743516 -9.070093 -0.656369 343 0.722667 0.691196 0.000000
-9.742847 -9.069474 -0.652225 327 0.722667 0.691196 0.000000
-9.742461 -9.069114 -0.648099 305 0.722667 0.691196 0.000000
-9.742230 -9.068893 -0.643991 315 0.722667 0.691196 0.000000
-9.743065 -9.069677 -0.639943 319 0.722667 0.691196 0.000000
-9.742883 -9.069510 -0.635834 327 0.722667 0.691196 0.000000
-9.743293 -9.069880 -0.631771 337 0.722667 0.691196 0.000000
-9.743431 -9.070015 -0.627679 335 0.722667 0.691196 0.000000
-9.742975 -9.069596 -0.623553 299 0.722667 0.691196 0.000000
-9.743652 -9.070226 -0.619497 307 0.722667 0.691196 0.000000
-9.744056 -9.070604 -0.615423 339 0.722667 0.691196 0.000000
-9.743435 -9.070024 -0.611289 357 0.722667 0.691196 0.000000
-9.744377 -9.070897 -0.607250 363 0.722667 0.691196 0.000000
-9.745361 -9.071816 -0.603221 361 0.722667 0.691196 0.000000
-9.745498 -9.071937 -0.599129 353 0.722667 0.691196 0.000000
-9.744346 -9.070868 -0.594960 343 0.722667 0.691196 0.000000
-9.744209 -9.070739 -0.590861 329 0.722667 0.691196 0.000000
-9.745615 -9.072057 -0.586848 377 0.722667 0.691196 0.000000
-9.745533 -9.071972 -0.582749 377 0.722667 0.691196 0.000000
-9.744700 -9.071193 -0.578596 345 0.722667 0.691196 0.000000
-9.743650 -9.070222 -0.574446 359 0.722667 0.691196 0.000000
-9.743553 -9.070137 -0.570347 377 0.722667 0.691196 0.000000
-9.743731 -9.070304 -0.566255 351 0.722667 0.691196 0.000000
-9.744821 -9.071312 -0.562225 345 0.722667 0.691196 0.000000
-9.744200 -9.070731 -0.558090 353 0.722667 0.691196 0.000000
-9.742556 -9.069208 -0.553906 359 0.722667 0.691196 0.000000
-9.742725 -9.069368 -0.549824 355 0.722667 0.691196 0.000000
-9.743762 -9.070331 -0.545784 369 0.722667 0.691196 0.000000
-9.743562 -9.070137 -0.541676 379 0.722667 0.691196 0.000000
-9.742769 -9.069403 -0.537543 359 0.722667 0.691196 0.000000
-9.743478 -9.070058 -0.533487 369 0.722667 0.691196 0.000000
-9.743475 -9.070064 -0.529386 373 0.722667 0.691196 0.000000
-9.743596 -9.070171 -0.525305 357 0.722667 0.691196 0.000000
-9.743814 -9.070383 -0.521223 337 0.722667 0.691196 0.000000
-9.744835 -9.071334 -0.517173 375 0.722667 0.691196 0.000000
-9.743886 -9.070446 -0.513032 363 0.722667 0.691196 0.000000
-9.742224 -9.068895 -0.508858 321 0.722667 0.691196 0.000000
-9.743253 -9.069851 -0.504818 355 0.722667 0.691196 0.000000
-9.743736 -9.070308 -0.500743 379 0.722667 0.691196 0.000000
-9.744537 -9.071053 -0.496696 379 0.722667 0.691196 0.000000
-9.744386 -9.070910 -0.492587 379 0.722667 0.691196 0.000000
-9.743790 -9.070364 -0.488472 401 0.722667 0.691196 0.000000
