761
-12.031667 -11.041445 -0.486239 357 0.724118 0.689676 0.000000
-12.031176 -11.040993 -0.481204 343 0.724118 0.689676 0.000000
-12.031833 -11.041592 -0.476207 333 0.724118 0.689676 0.000000
-12.032412 -11.042127 -0.471212 329 0.724118 0.689676 0.000000
-12.033163 -11.042812 -0.466215 345 0.724118 0.689676 0.000000
-12.032624 -11.042311 -0.461180 315 0.724118 0.689676 0.000000
-12.030036 -11.039936 -0.456064 305 0.724118 0.689676 0.000000
-12.029752 -11.039676 -0.451036 321 0.724118 0.689676 0.000000
-12.030656 -11.040510 -0.446048 335 0.724118 0.689676 0.000000
-12.031353 -11.041154 -0.441061 325 0.724118 0.689676 0.000000
-12.031386 -11.041187 -0.436041 321 0.724118 0.689676 0.000000
-12.030888 -11.040730 -0.431005 325 0.724118 0.689676 0.000000
-12.029637 -11.039581 -0.425947 333 0.724118 0.689676 0.000000
-12.029296 -11.039263 -0.420920 325 0.724118 0.689676 0.000000
-12.030312 -11.040199 -0.415930 311 0.724118 0.689676 0.000000
-12.030501 -11.040371 -0.410918 315 0.724118 0.689676 0.000000
-12.030493 -11.040359 -0.405908 327 0.724118 0.689676 0.000000
-12.029980 -11.039889 -0.400873 287 0.724118 0.689676 0.000000
-12.030336 -11.040221 -0.395859 283 0.724118 0.689676 0.000000
-12.030589 -11.040444 -0.390857 297 0.724118 0.689676 0.000000
-12.030725 -11.040573 -0.385846 315 0.724118 0.689676 0.000000
-12.031461 -11.041246 -0.380849 331 0.724118 0.689676 0.000000
-12.032990 -11.042658 -0.375874 315 0.724118 0.689676 0.000000
-12.032967 -11.042633 -0.370855 313 0.724118 0.689676 0.000000
-12.031702 -11.041473 -0.365806 299 0.724118 0.689676 0.000000
-12.031945 -11.041688 -0.360794 303 0.724118 0.689676 0.000000
-12.032722 -11.042408 -0.355796 337 0.724118 0.689676 0.000000
-12.032152 -11.041882 -0.350762 315 0.724118 0.689676 0.000000
-12.030879 -11.040714 -0.345713 293 0.724118 0.689676 0.000000
-12.030744 -11.040587 -0.340694 323 0.724118 0.689676 0.000000
-12.031569 -11.041344 -0.335697 329 0.724118 0.689676 0.000000
-12.030833 -11.040672 -0.330663 311 0.724118 0.689676 0.000000
-12.030740 -11.040591 -0.325644 299 0.724118 0.689676 0.000000
-12.031624 -11.041397 -0.320646 309 0.724118 0.689676 0.000000
-12.032931 -11.042592 -0.315664 317 0.724118 0.689676 0.000000
-12.032459 -11.042170 -0.310638 323 0.724118 0.689676 0.000000
-12.030044 -11.039947 -0.305560 341 0.724118 0.689676 0.000000
-12.030703 -11.040558 -0.300554 319 0.724118 0.689676 0.000000
-12.035000 -11.038530 -0.687113 289 0.724118 0.689676 0.000000
-12.036068 -11.039510 -0.682153 305 0.724118 0.689676 0.000000
-12.035997 -11.039447 -0.677123 283 0.724118 0.689676 0.000000
-12.036530 -11.039945 -0.672128 295 0.724118 0.689676 0.000000
-12.036292 -11.039723 -0.667090 277 0.724118 0.689676 0.000000
-12.035089 -11.038626 -0.662001 293 0.724118 0.689676 0.000000
-12.034110 -11.037731 -0.656920 301 0.724118 0.689676 0.000000
-12.034577 -11.038164 -0.651926 301 0.724118 0.689676 0.000000
-12.034396 -11.038000 -0.646897 285 0.724118 0.689676 0.000000
-12.034380 -11.037981 -0.641867 275 0.724118 0.689676 0.000000
-12.035544 -11.039050 -0.636906 293 0.724118 0.689676 0.000000
-12.034281 -11.037902 -0.631818 293 0.724118 0.689676 0.000000
-12.033932 -11.037579 -0.626781 283 0.724118 0.689676 0.000000
-12.034882 -11.038450 -0.621812 303 0.724118 0.689676 0.000000
-12.035120 -11.038674 -0.616800 291 0.724118 0.689676 0.000000
-12.035525 -11.039057 -0.611796 313 0.724118 0.689676 0.000000
-12.035439 -11.038982 -0.606766 311 0.724118 0.689676 0.000000
-12.035685 -11.039199 -0.601764 317 0.724118 0.689676 0.000000
-12.035923 -11.039423 -0.596752 335 0.724118 0.689676 0.000000
-12.037341 -11.040732 -0.591798 333 0.724118 0.689676 0.000000
-12.037531 -11.040904 -0.586787 305 0.724118 0.689676 0.000000
-12.035616 -11.039146 -0.581674 301 0.724118 0.689676 0.000000
-12.036220 -11.039714 -0.576678 313 0.724118 0.689676 0.000000
-12.035966 -11.039479 -0.571641 283 0.724118 0.689676 0.000000
-12.033830 -11.037517 -0.566520 309 0.724118 0.689676 0.000000
-12.033467 -11.037195 -0.561484 319 0.724118 0.689676 0.000000
-12.033374 -11.037114 -0.556464 293 0.724118 0.689676 0.000000
-12.032415 -11.036239 -0.551403 309 0.724118 0.689676 0.000000
-12.031617 -11.035503 -0.546350 335 0.724118 0.689676 0.000000
-12.032173 -11.036019 -0.541355 313 0.724118 0.689676 0.000000
-12.033424 -11.037169 -0.536383 317 0.724118 0.689676 0.000000
-12.033481 -11.037222 -0.531373 305 0.724118 0.689676 0.000000
-12.034193 -11.037877 -0.526376 329 0.724118 0.689676 0.000000
-12.035271 -11.038877 -0.521406 333 0.724118 0.689676 0.000000
-12.034844 -11.038490 -0.516370 317 0.724118 0.689676 0.000000
-12.034584 -11.038249 -0.511342 289 0.724118 0.689676 0.000000
-12.034419 -11.038098 -0.506313 325 0.724118 0.689676 0.000000
-12.035124 -11.038748 -0.501317 321 0.724118 0.689676 0.000000
-12.035448 -11.039054 -0.496313 319 0.724118 0.689676 0.000000
-12.034476 -11.038165 -0.491252 311 0.724118 0.689676 0.000000
-12.033937 -11.037663 -0.486217 301 0.724118 0.689676 0.000000
-12.035182 -11.038809 -0.481246 329 0.724118 0.689676 0.000000
-12.035603 -11.039205 -0.476242 347 0.724118 0.689676 0.000000
-12.034844 -11.038514 -0.471188 333 0.724118 0.689676 0.000000
-12.034781 -11.038459 -0.466169 345 0.724118 0.689676 0.000000
-12.034023 -11.037767 -0.461126 333 0.724118 0.689676 0.000000
-12.034175 -11.037909 -0.456114 291 0.724118 0.689676 0.000000
-12.034538 -11.038246 -0.451111 291 0.724118 0.689676 0.000000
-12.034538 -11.038240 -0.446091 325 0.724118 0.689676 0.000000
-12.034792 -11.038476 -0.441078 311 0.724118 0.689676 0.000000
-12.034447 -11.038167 -0.436051 315 0.724118 0.689676 0.000000
-12.034218 -11.037966 -0.431023 305 0.724118 0.689676 0.000000
-12.034535 -11.038253 -0.426010 313 0.724118 0.689676 0.000000
-12.033863 -11.037643 -0.420976 337 0.724118 0.689676 0.000000
-12.034655 -11.038376 -0.415979 317 0.724118 0.689676 0.000000
-12.034214 -11.037964 -0.410953 317 0.724118 0.689676 0.000000
-12.033754 -11.037552 -0.405917 331 0.724118 0.689676 0.000000
-12.035085 -11.038766 -0.400944 323 0.724118 0.689676 0.000000
-12.034309 -11.038062 -0.395901 309 0.724118 0.689676 0.000000
-12.034390 -11.038147 -0.390880 323 0.724118 0.689676 0.000000
-12.034684 -11.038414 -0.385878 325 0.724118 0.689676 0.000000
-12.034827 -11.038549 -0.380866 319 0.724118 0.689676 0.000000
-12.035556 -11.039217 -0.375869 307 0.724118 0.689676 0.000000
-12.034931 -11.038647 -0.370835 299 0.724118 0.689676 0.000000
-12.034363 -11.038134 -0.365800 295 0.724118 0.689676 0.000000
-12.033525 -11.037368 -0.360758 289 0.724118 0.689676 0.000000
-12.032632 -11.036555 -0.355716 303 0.724118 0.689676 0.000000
-12.033035 -11.036924 -0.350712 327 0.724118 0.689676 0.000000
-12.033481 -11.037339 -0.345708 297 0.724118 0.689676 0.000000
-12.033394 -11.037265 -0.340688 303 0.724118 0.689676 0.000000
-12.032928 -11.036833 -0.335653 289 0.724118 0.689676 0.000000
-12.033427 -11.037292 -0.330658 263 0.724118 0.689676 0.000000
-12.034259 -11.038054 -0.325660 281 0.724118 0.689676 0.000000
-12.035077 -11.038819 -0.320662 311 0.724118 0.689676 0.000000
-12.035203 -11.038928 -0.315651 299 0.724118 0.689676 0.000000
-12.034072 -11.037900 -0.310601 321 0.724118 0.689676 0.000000
-12.034254 -11.038066 -0.305590 319 0.724118 0.689676 0.000000
-12.033828 -11.037681 -0.300563 299 0.724118 0.689676 0.000000
-12.039750 -11.034649 -0.687149 287 0.724118 0.689676 0.000000
-12.039577 -11.034492 -0.682121 303 0.724118 0.689676 0.000000
-12.039244 -11.034181 -0.677074 287 0.724118 0.689676 0.000000
-12.039618 -11.034525 -0.672070 283 0.724118 0.689676 0.000000
-12.040304 -11.035147 -0.667084 271 0.724118 0.689676 0.000000
-12.039688 -11.034583 -0.662029 277 0.724118 0.689676 0.000000
-12.038707 -11.033688 -0.656948 295 0.724118 0.689676 0.000000
-12.040258 -11.035105 -0.652014 271 0.724118 0.689676 0.000000
-12.040450 -11.035291 -0.647002 255 0.724118 0.689676 0.000000
-12.038604 -11.033588 -0.641879 293 0.724118 0.689676 0.000000
-12.037933 -11.032980 -0.636825 301 0.724118 0.689676 0.000000
-12.038939 -11.033895 -0.631856 291 0.724118 0.689676 0.000000
-12.039342 -11.034266 -0.626852 293 0.724118 0.689676 0.000000
-12.039217 -11.034160 -0.621823 309 0.724118 0.689676 0.000000
-12.038545 -11.033537 -0.616769 303 0.724118 0.689676 0.000000
-12.037437 -11.032528 -0.611689 333 0.724118 0.689676 0.000000
-12.038388 -11.033399 -0.606710 295 0.724118 0.689676 0.000000
-12.039757 -11.034645 -0.601757 303 0.724118 0.689676 0.000000
-12.039077 -11.034029 -0.596704 309 0.724118 0.689676 0.000000
-12.039750 -11.034640 -0.591717 325 0.724118 0.689676 0.000000
-12.040416 -11.035258 -0.586731 293 0.724118 0.689676 0.000000
-12.039845 -11.034731 -0.581676 279 0.724118 0.689676 0.000000
-12.039973 -11.034853 -0.576665 319 0.724118 0.689676 0.000000
-12.039403 -11.034327 -0.571610 323 0.724118 0.689676 0.000000
-12.038882 -11.033851 -0.566565 279 0.724118 0.689676 0.000000
-12.038581 -11.033566 -0.561537 307 0.724118 0.689676 0.000000
-12.037998 -11.033041 -0.556493 315 0.724118 0.689676 0.000000
-12.038986 -11.033942 -0.551513 371 0.724118 0.689676 0.000000
-12.039533 -11.034440 -0.546518 343 0.724118 0.689676 0.000000
-12.039819 -11.034700 -0.541505 319 0.724118 0.689676 0.000000
-12.038695 -11.033679 -0.536436 303 0.724118 0.689676 0.000000
-12.038118 -11.033147 -0.531391 335 0.724118 0.689676 0.000000
-12.038886 -11.033846 -0.526404 329 0.724118 0.689676 0.000000
-12.038513 -11.033503 -0.521367 331 0.724118 0.689676 0.000000
-12.039701 -11.034591 -0.516396 327 0.724118 0.689676 0.000000
-12.040137 -11.034998 -0.511402 321 0.724118 0.689676 0.000000
-12.039441 -11.034358 -0.506348 301 0.724118 0.689676 0.000000
-12.038903 -11.033869 -0.501303 305 0.724118 0.689676 0.000000
-12.038207 -11.033229 -0.496259 339 0.724118 0.689676 0.000000
-12.038589 -11.033580 -0.491256 305 0.724118 0.689676 0.000000
-12.039561 -11.034470 -0.486277 309 0.724118 0.689676 0.000000
-12.040203 -11.035054 -0.481280 327 0.724118 0.689676 0.000000
-12.039658 -11.034560 -0.476235 333 0.724118 0.689676 0.000000
-12.039119 -11.034059 -0.471200 311 0.724118 0.689676 0.000000
-12.038250 -11.033266 -0.466148 327 0.724118 0.689676 0.000000
-12.038463 -11.033457 -0.461136 333 0.724118 0.689676 0.000000
-12.038939 -11.033897 -0.456132 287 0.724118 0.689676 0.000000
-12.039035 -11.033980 -0.451121 303 0.724118 0.689676 0.000000
-12.039780 -11.034675 -0.446134 323 0.724118 0.689676 0.000000
-12.039178 -11.034122 -0.441089 311 0.724118 0.689676 0.000000
-12.038141 -11.033172 -0.436038 351 0.724118 0.689676 0.000000
-12.038514 -11.033502 -0.431025 319 0.724118 0.689676 0.000000
-12.038768 -11.033737 -0.426022 299 0.724118 0.689676 0.000000
-12.038422 -11.033428 -0.420985 307 0.724118 0.689676 0.000000
-12.039165 -11.034108 -0.415998 305 0.724118 0.689676 0.000000
-12.038763 -11.033742 -0.410962 295 0.724118 0.689676 0.000000
-12.038754 -11.033729 -0.405942 301 0.724118 0.689676 0.000000
-12.039545 -11.034447 -0.400955 327 0.724118 0.689676 0.000000
-12.039625 -11.034531 -0.395944 283 0.724118 0.689676 0.000000
-12.039507 -11.034417 -0.390915 321 0.724118 0.689676 0.000000
-12.039746 -11.034641 -0.385902 347 0.724118 0.689676 0.000000
-12.039232 -11.034172 -0.380877 321 0.724118 0.689676 0.000000
-12.037752 -11.032814 -0.375811 317 0.724118 0.689676 0.000000
-12.038218 -11.033234 -0.370806 305 0.724118 0.689676 0.000000
-12.038623 -11.033603 -0.365802 309 0.724118 0.689676 0.000000
-12.037460 -11.032537 -0.360753 297 0.724118 0.689676 0.000000
-12.037477 -11.032557 -0.355733 309 0.724118 0.689676 0.000000
-12.036853 -11.031987 -0.350698 311 0.724118 0.689676 0.000000
-12.037096 -11.032203 -0.345696 301 0.724118 0.689676 0.000000
-12.038143 -11.033163 -0.340706 325 0.724118 0.689676 0.000000
-12.037354 -11.032448 -0.335663 281 0.724118 0.689676 0.000000
-12.036396 -11.031572 -0.330622 277 0.724118 0.689676 0.000000
-12.038405 -11.033407 -0.325663 297 0.724118 0.689676 0.000000
-12.039942 -11.034811 -0.320679 309 0.724118 0.689676 0.000000
-12.038660 -11.033638 -0.315631 331 0.724118 0.689676 0.000000
-12.037814 -11.032865 -0.310598 315 0.724118 0.689676 0.000000
-12.037980 -11.033017 -0.305587 311 0.724118 0.689676 0.000000
-12.038858 -11.033818 -0.300589 307 0.724118 0.689676 0.000000
-12.041949 -11.029759 -0.687083 295 0.724118 0.689676 0.000000
-12.043281 -11.030989 -0.682131 315 0.724118 0.689676 0.000000
-12.043209 -11.030926 -0.677111 295 0.724118 0.689676 0.000000
-12.043259 -11.030972 -0.672091 275 0.724118 0.689676 0.000000
-12.043733 -11.031397 -0.667086 309 0.724118 0.689676 0.000000
-12.043345 -11.031042 -0.662040 265 0.724118 0.689676 0.000000
-12.042950 -11.030682 -0.657003 263 0.724118 0.689676 0.000000
-12.042990 -11.030721 -0.651973 269 0.724118 0.689676 0.000000
-12.042437 -11.030207 -0.646928 271 0.724118 0.689676 0.000000
-12.040848 -11.028761 -0.641822 265 0.724118 0.689676 0.000000
-12.041851 -11.029675 -0.636853 287 0.724118 0.689676 0.000000
-12.043498 -11.031181 -0.631908 285 0.724118 0.689676 0.000000
-12.043799 -11.031455 -0.626905 301 0.724118 0.689676 0.000000
-12.042914 -11.030650 -0.621833 337 0.724118 0.689676 0.000000
-12.042187 -11.029984 -0.616779 291 0.724118 0.689676 0.000000
-12.043303 -11.031000 -0.611809 287 0.724118 0.689676 0.000000
-12.043319 -11.031020 -0.606789 293 0.724118 0.689676 0.000000
-12.042226 -11.030010 -0.601719 283 0.724118 0.689676 0.000000
-12.042629 -11.030380 -0.596715 287 0.724118 0.689676 0.000000
-12.042267 -11.030057 -0.591678 305 0.724118 0.689676 0.000000
-12.042989 -11.030721 -0.586691 315 0.724118 0.689676 0.000000
-12.043828 -11.031489 -0.581703 285 0.724118 0.689676 0.000000
-12.043140 -11.030856 -0.576650 327 0.724118 0.689676 0.000000
-12.042141 -11.029933 -0.571589 329 0.724118 0.689676 0.000000
-12.041938 -11.029752 -0.566550 297 0.724118 0.689676 0.000000
-12.042658 -11.030414 -0.561564 317 0.724118 0.689676 0.000000
-12.042998 -11.030719 -0.556560 343 0.724118 0.689676 0.000000
-12.043069 -11.030783 -0.551540 337 0.724118 0.689676 0.000000
-12.042170 -11.029965 -0.546478 345 0.724118 0.689676 0.000000
-12.042549 -11.030315 -0.541474 321 0.724118 0.689676 0.000000
-12.043206 -11.030912 -0.536488 333 0.724118 0.689676 0.000000
-12.042899 -11.030635 -0.531451 337 0.724118 0.689676 0.000000
-12.042479 -11.030242 -0.526415 331 0.724118 0.689676 0.000000
-12.043081 -11.030795 -0.521419 319 0.724118 0.689676 0.000000
-12.044428 -11.032035 -0.516456 345 0.724118 0.689676 0.000000
-12.043897 -11.031540 -0.511411 341 0.724118 0.689676 0.000000
-12.042980 -11.030710 -0.506359 335 0.724118 0.689676 0.000000
-12.041476 -11.029331 -0.501273 325 0.724118 0.689676 0.000000
-12.041270 -11.029135 -0.496245 323 0.724118 0.689676 0.000000
-12.042024 -11.029836 -0.491258 333 0.724118 0.689676 0.000000
-12.041810 -11.029633 -0.486230 329 0.724118 0.689676 0.000000
-12.042016 -11.029817 -0.481218 333 0.724118 0.689676 0.000000
-12.041796 -11.029622 -0.476190 327 0.724118 0.689676 0.000000
-12.043251 -11.030950 -0.471226 329 0.724118 0.689676 0.000000
-12.044053 -11.031689 -0.466239 349 0.724118 0.689676 0.000000
-12.044478 -11.032076 -0.461235 343 0.724118 0.689676 0.000000
-12.044473 -11.032078 -0.456214 305 0.724118 0.689676 0.000000
-12.041931 -11.029741 -0.451108 321 0.724118 0.689676 0.000000
-12.040849 -11.028751 -0.446048 353 0.724118 0.689676 0.000000
-12.041751 -11.029585 -0.441059 329 0.724118 0.689676 0.000000
-12.042440 -11.030209 -0.436063 327 0.724118 0.689676 0.000000
-12.041626 -11.029460 -0.431020 315 0.724118 0.689676 0.000000
-12.041389 -11.029251 -0.425992 335 0.724118 0.689676 0.000000
-12.041649 -11.029480 -0.420990 347 0.724118 0.689676 0.000000
-12.042497 -11.030256 -0.415992 363 0.724118 0.689676 0.000000
-12.042902 -11.030639 -0.410988 347 0.724118 0.689676 0.000000
-12.042680 -11.030429 -0.405970 337 0.724118 0.689676 0.000000
-12.041574 -11.029422 -0.400910 337 0.724118 0.689676 0.000000
-12.040482 -11.028411 -0.395860 311 0.724118 0.689676 0.000000
-12.041208 -11.029078 -0.390863 305 0.724118 0.689676 0.000000
-12.042312 -11.030098 -0.385883 311 0.724118 0.689676 0.000000
-12.042888 -11.030618 -0.380877 319 0.724118 0.689676 0.000000
-12.043126 -11.030842 -0.375875 329 0.724118 0.689676 0.000000
-12.043111 -11.030823 -0.370855 305 0.724118 0.689676 0.000000
-12.042106 -11.029897 -0.365804 307 0.724118 0.689676 0.000000
-12.041164 -11.029034 -0.360763 307 0.724118 0.689676 0.000000
-12.041839 -11.029657 -0.355767 311 0.724118 0.689676 0.000000
-12.042938 -11.030662 -0.350776 335 0.724118 0.689676 0.000000
-12.042037 -11.029844 -0.345734 335 0.724118 0.689676 0.000000
-12.041793 -11.029616 -0.340717 317 0.724118 0.689676 0.000000
-12.041975 -11.029782 -0.335705 299 0.724118 0.689676 0.000000
-12.041991 -11.029802 -0.330684 299 0.724118 0.689676 0.000000
-12.043035 -11.030748 -0.325695 325 0.724118 0.689676 0.000000
-12.043258 -11.030959 -0.320683 309 0.724118 0.689676 0.000000
-12.041937 -11.029741 -0.315635 279 0.724118 0.689676 0.000000
-12.041945 -11.029756 -0.310614 291 0.724118 0.689676 0.000000
-12.041954 -11.029769 -0.305604 291 0.724118 0.689676 0.000000
-12.041804 -11.029631 -0.300575 291 0.724118 0.689676 0.000000
-12.047727 -11.027893 -0.687205 283 0.724118 0.689676 0.000000
-12.047229 -11.027437 -0.682160 321 0.724118 0.689676 0.000000
-12.045978 -11.026288 -0.677061 285 0.724118 0.689676 0.000000
-12.047047 -11.027267 -0.672101 285 0.724118 0.689676 0.000000
-12.047839 -11.027999 -0.667124 283 0.724118 0.689676 0.000000
-12.046369 -11.026648 -0.662017 301 0.724118 0.689676 0.000000
-12.046733 -11.026985 -0.657014 293 0.724118 0.689676 0.000000
-12.046876 -11.027120 -0.651992 277 0.724118 0.689676 0.000000
-12.046480 -11.026758 -0.646956 315 0.724118 0.689676 0.000000
-12.046307 -11.026587 -0.641917 329 0.724118 0.689676 0.000000
-12.046718 -11.026962 -0.636923 307 0.724118 0.689676 0.000000
-12.048470 -11.028578 -0.631987 299 0.724118 0.689676 0.000000
-12.047367 -11.027561 -0.626907 277 0.724118 0.689676 0.000000
-12.044765 -11.025174 -0.621751 293 0.724118 0.689676 0.000000
-12.046080 -11.026390 -0.616799 325 0.724118 0.689676 0.000000
-12.047029 -11.027246 -0.611820 323 0.724118 0.689676 0.000000
-12.046674 -11.026931 -0.606783 287 0.724118 0.689676 0.000000
-12.046485 -11.026761 -0.601755 315 0.724118 0.689676 0.000000
-12.047323 -11.027516 -0.596767 313 0.724118 0.689676 0.000000
-12.047182 -11.027397 -0.591738 279 0.724118 0.689676 0.000000
-12.045431 -11.025783 -0.586634 299 0.724118 0.689676 0.000000
-12.045664 -11.026001 -0.581622 299 0.724118 0.689676 0.000000
-12.046597 -11.026859 -0.576653 329 0.724118 0.689676 0.000000
-12.046351 -11.026632 -0.571615 325 0.724118 0.689676 0.000000
-12.045894 -11.026206 -0.566569 301 0.724118 0.689676 0.000000
-12.046067 -11.026365 -0.561558 307 0.724118 0.689676 0.000000
-12.045809 -11.026139 -0.556530 303 0.724118 0.689676 0.000000
-12.045610 -11.025949 -0.551502 313 0.724118 0.689676 0.000000
-12.045246 -11.025613 -0.546465 303 0.724118 0.689676 0.000000
-12.046497 -11.026765 -0.541493 309 0.724118 0.689676 0.000000
-12.047162 -11.027368 -0.536507 321 0.724118 0.689676 0.000000
-12.046571 -11.026837 -0.531462 341 0.724118 0.689676 0.000000
-12.047552 -11.027733 -0.526483 319 0.724118 0.689676 0.000000
-12.047076 -11.027295 -0.521437 313 0.724118 0.689676 0.000000
-12.046754 -11.027004 -0.516410 299 0.724118 0.689676 0.000000
-12.046224 -11.026510 -0.511365 317 0.724118 0.689676 0.000000
-12.044830 -11.025233 -0.506288 313 0.724118 0.689676 0.000000
-12.045750 -11.026079 -0.501309 323 0.724118 0.689676 0.000000
-12.045797 -11.026124 -0.496289 315 0.724118 0.689676 0.000000
-12.044459 -11.024893 -0.491221 311 0.724118 0.689676 0.000000
-12.044888 -11.025295 -0.486217 319 0.724118 0.689676 0.000000
-12.046069 -11.026377 -0.481246 311 0.724118 0.689676 0.000000
-12.045854 -11.026173 -0.476218 321 0.724118 0.689676 0.000000
-12.045627 -11.025972 -0.471189 289 0.724118 0.689676 0.000000
-12.046655 -11.026905 -0.466210 315 0.724118 0.689676 0.000000
-12.046109 -11.026411 -0.461165 285 0.724118 0.689676 0.000000
-12.045399 -11.025758 -0.456121 283 0.724118 0.689676 0.000000
-12.045991 -11.026292 -0.451126 293 0.724118 0.689676 0.000000
-12.045928 -11.026236 -0.446106 321 0.724118 0.689676 0.000000
-12.045051 -11.025436 -0.441054 313 0.724118 0.689676 0.000000
-12.044387 -11.024835 -0.436010 329 0.724118 0.689676 0.000000
-12.044483 -11.024918 -0.430999 321 0.724118 0.689676 0.000000
-12.045226 -11.025599 -0.426002 333 0.724118 0.689676 0.000000
-12.044887 -11.025281 -0.420975 353 0.724118 0.689676 0.000000
-12.044973 -11.025372 -0.415964 313 0.724118 0.689676 0.000000
-12.046209 -11.026497 -0.410983 325 0.724118 0.689676 0.000000
-12.046020 -11.026326 -0.405964 343 0.724118 0.689676 0.000000
-12.046218 -11.026505 -0.400952 327 0.724118 0.689676 0.000000
-12.047169 -11.027376 -0.395964 307 0.724118 0.689676 0.000000
-12.047201 -11.027410 -0.390943 303 0.724118 0.689676 0.000000
-12.046536 -11.026793 -0.385909 321 0.724118 0.689676 0.000000
-12.046070 -11.026376 -0.380873 329 0.724118 0.689676 0.000000
-12.046212 -11.026497 -0.375862 331 0.724118 0.689676 0.000000
-12.045105 -11.025489 -0.370812 327 0.724118 0.689676 0.000000
-12.044226 -11.024676 -0.365770 311 0.724118 0.689676 0.000000
-12.043601 -11.024104 -0.360736 311 0.724118 0.689676 0.000000
-12.043619 -11.024125 -0.355715 299 0.724118 0.689676 0.000000
-12.045479 -11.025829 -0.350748 311 0.724118 0.689676 0.000000
-12.045019 -11.025403 -0.345722 357 0.724118 0.689676 0.000000
-12.045028 -11.025417 -0.340702 311 0.724118 0.689676 0.000000
-12.044840 -11.025248 -0.335684 311 0.724118 0.689676 0.000000
-12.044427 -11.024859 -0.330657 297 0.724118 0.689676 0.000000
-12.044057 -11.024532 -0.325631 311 0.724118 0.689676 0.000000
-12.044190 -11.024646 -0.320619 295 0.724118 0.689676 0.000000
-12.044850 -11.025258 -0.315623 285 0.724118 0.689676 0.000000
-12.044968 -11.025359 -0.310602 323 0.724118 0.689676 0.000000
-12.045192 -11.025571 -0.305590 291 0.724118 0.689676 0.000000
-12.044565 -11.024987 -0.300565 267 0.724118 0.689676 0.000000
-12.050012 -11.023009 -0.687149 279 0.724118 0.689676 0.000000
-12.049515 -11.022554 -0.682093 305 0.724118 0.689676 0.000000
-12.049286 -11.022351 -0.677055 305 0.724118 0.689676 0.000000
-12.049167 -11.022238 -0.672026 275 0.724118 0.689676 0.000000
-12.050506 -11.023458 -0.667074 275 0.724118 0.689676 0.000000
-12.051512 -11.024387 -0.662104 287 0.724118 0.689676 0.000000
-12.050371 -11.023339 -0.657025 263 0.724118 0.689676 0.000000
-12.049541 -11.022579 -0.651952 289 0.724118 0.689676 0.000000
-12.049147 -11.022218 -0.646916 283 0.724118 0.689676 0.000000
-12.050261 -11.023234 -0.641945 285 0.724118 0.689676 0.000000
-12.049109 -11.022187 -0.636866 265 0.724118 0.689676 0.000000
-12.048706 -11.021821 -0.631819 295 0.724118 0.689676 0.000000
-12.050793 -11.023720 -0.626910 305 0.724118 0.689676 0.000000
-12.050875 -11.023805 -0.621889 311 0.724118 0.689676 0.000000
-12.048966 -11.022051 -0.616767 317 0.724118 0.689676 0.000000
-12.047583 -11.020796 -0.611679 303 0.724118 0.689676 0.000000
-12.047726 -11.020917 -0.606668 269 0.724118 0.689676 0.000000
-12.049317 -11.022379 -0.601723 325 0.724118 0.689676 0.000000
-12.049990 -11.022989 -0.596737 315 0.724118 0.689676 0.000000
-12.049957 -11.022958 -0.591707 325 0.724118 0.689676 0.000000
-12.050299 -11.023276 -0.586703 315 0.724118 0.689676 0.000000
-12.050592 -11.023544 -0.581701 283 0.724118 0.689676 0.000000
-12.051043 -11.023951 -0.576696 331 0.724118 0.689676 0.000000
-12.050792 -11.023731 -0.571669 339 0.724118 0.689676 0.000000
-12.049731 -11.022760 -0.566598 309 0.724118 0.689676 0.000000
-12.049542 -11.022575 -0.561560 315 0.724118 0.689676 0.000000
-12.050896 -11.023823 -0.556607 325 0.724118 0.689676 0.000000
-12.051022 -11.023931 -0.551586 309 0.724118 0.689676 0.000000
-12.049203 -11.022274 -0.546483 323 0.724118 0.689676 0.000000
-12.048563 -11.021691 -0.541438 317 0.724118 0.689676 0.000000
-12.048903 -11.021996 -0.536435 333 0.724118 0.689676 0.000000
-12.049395 -11.022449 -0.531431 307 0.724118 0.689676 0.000000
-12.049196 -11.022258 -0.526402 321 0.724118 0.689676 0.000000
-12.048770 -11.021873 -0.521366 299 0.724118 0.689676 0.000000
-12.049530 -11.022566 -0.516379 309 0.724118 0.689676 0.000000
-12.050069 -11.023068 -0.511384 301 0.724118 0.689676 0.000000
-12.050076 -11.023069 -0.506364 311 0.724118 0.689676 0.000000
-12.049104 -11.022181 -0.501303 317 0.724118 0.689676 0.000000
-12.048464 -11.021598 -0.496258 305 0.724118 0.689676 0.000000
-12.049002 -11.022087 -0.491263 359 0.724118 0.689676 0.000000
-12.048679 -11.021797 -0.486226 333 0.724118 0.689676 0.000000
-12.048680 -11.021791 -0.481206 313 0.724118 0.689676 0.000000
-12.048031 -11.021201 -0.476162 319 0.724118 0.689676 0.000000
-12.048133 -11.021291 -0.471151 323 0.724118 0.689676 0.000000
-12.049479 -11.022517 -0.466188 325 0.724118 0.689676 0.000000
-12.050492 -11.023452 -0.461199 281 0.724118 0.689676 0.000000
-12.049520 -11.022565 -0.456148 287 0.724118 0.689676 0.000000
-12.048540 -11.021670 -0.451097 299 0.724118 0.689676 0.000000
-12.048807 -11.021904 -0.446084 327 0.724118 0.689676 0.000000
-12.048951 -11.022040 -0.441073 349 0.724118 0.689676 0.000000
-12.049261 -11.022321 -0.436060 345 0.724118 0.689676 0.000000
-12.048819 -11.021922 -0.431034 341 0.724118 0.689676 0.000000
-12.049403 -11.022449 -0.426028 337 0.724118 0.689676 0.000000
-12.049278 -11.022343 -0.421009 345 0.724118 0.689676 0.000000
-12.049151 -11.022223 -0.415990 321 0.724118 0.689676 0.000000
-12.049350 -11.022401 -0.410978 309 0.724118 0.689676 0.000000
-12.049603 -11.022637 -0.405966 335 0.724118 0.689676 0.000000
-12.049097 -11.022175 -0.400930 343 0.724118 0.689676 0.000000
-12.048702 -11.021813 -0.395904 335 0.724118 0.689676 0.000000
-12.048569 -11.021688 -0.390885 301 0.724118 0.689676 0.000000
-12.048925 -11.022019 -0.385872 295 0.724118 0.689676 0.000000
-12.048950 -11.022046 -0.380861 307 0.724118 0.689676 0.000000
-12.048112 -11.021278 -0.375819 313 0.724118 0.689676 0.000000
-12.049544 -11.022587 -0.370835 315 0.724118 0.689676 0.000000
-12.049466 -11.022518 -0.365816 339 0.724118 0.689676 0.000000
-12.047869 -11.021053 -0.360761 315 0.724118 0.689676 0.000000
-12.048059 -11.021225 -0.355749 295 0.724118 0.689676 0.000000
-12.049814 -11.022832 -0.350783 321 0.724118 0.689676 0.000000
-12.049991 -11.022992 -0.345771 351 0.724118 0.689676 0.000000
-12.049800 -11.022821 -0.340742 313 0.724118 0.689676 0.000000
-12.049926 -11.022929 -0.335731 291 0.724118 0.689676 0.000000
-12.048758 -11.021872 -0.330682 323 0.724118 0.689676 0.000000
-12.048504 -11.021637 -0.325654 331 0.724118 0.689676 0.000000
-12.049217 -11.022293 -0.320657 293 0.724118 0.689676 0.000000
-12.049392 -11.022451 -0.315646 299 0.724118 0.689676 0.000000
-12.048600 -11.021723 -0.310613 307 0.724118 0.689676 0.000000
-12.049099 -11.022181 -0.305608 321 0.724118 0.689676 0.000000
-12.049543 -11.022581 -0.300604 293 0.724118 0.689676 0.000000
-12.053524 -11.020013 -0.682147 287 0.724118 0.689676 0.000000
-12.052922 -11.019462 -0.677092 301 0.724118 0.689676 0.000000
-12.053551 -11.020048 -0.672106 325 0.724118 0.689676 0.000000
-12.053810 -11.020276 -0.667094 325 0.724118 0.689676 0.000000
-12.053307 -11.019829 -0.662038 311 0.724118 0.689676 0.000000
-12.053559 -11.020051 -0.657036 297 0.724118 0.689676 0.000000
-12.053932 -11.020394 -0.652032 317 0.724118 0.689676 0.000000
-12.052666 -11.019233 -0.646934 275 0.724118 0.689676 0.000000
-12.053505 -11.020002 -0.641956 307 0.724118 0.689676 0.000000
-12.054787 -11.021177 -0.637004 291 0.724118 0.689676 0.000000
-12.053516 -11.020025 -0.631915 277 0.724118 0.689676 0.000000
-12.053286 -11.019810 -0.626877 295 0.724118 0.689676 0.000000
-12.054505 -11.020922 -0.621916 303 0.724118 0.689676 0.000000
-12.054743 -11.021144 -0.616904 303 0.724118 0.689676 0.000000
-12.053368 -11.019896 -0.611816 307 0.724118 0.689676 0.000000
-12.053295 -11.019819 -0.606787 291 0.724118 0.689676 0.000000
-12.053147 -11.019695 -0.601758 323 0.724118 0.689676 0.000000
-12.051667 -11.018336 -0.596672 335 0.724118 0.689676 0.000000
-12.052111 -11.018749 -0.591667 313 0.724118 0.689676 0.000000
-12.052033 -11.018682 -0.586648 311 0.724118 0.689676 0.000000
-12.051781 -11.018447 -0.581610 295 0.724118 0.689676 0.000000
-12.052128 -11.018758 -0.576607 321 0.724118 0.689676 0.000000
-12.052738 -11.019320 -0.571611 337 0.724118 0.689676 0.000000
-12.053460 -11.019981 -0.566624 313 0.724118 0.689676 0.000000
-12.053311 -11.019856 -0.561596 363 0.724118 0.689676 0.000000
-12.052456 -11.019074 -0.556543 317 0.724118 0.689676 0.000000
-12.052424 -11.019044 -0.551514 303 0.724118 0.689676 0.000000
-12.053682 -11.020187 -0.546552 313 0.724118 0.689676 0.000000
-12.052497 -11.019115 -0.541483 305 0.724118 0.689676 0.000000
-12.052522 -11.019129 -0.536462 289 0.724118 0.689676 0.000000
-12.053923 -11.020414 -0.531499 315 0.724118 0.689676 0.000000
-12.053014 -11.019590 -0.526438 307 0.724118 0.689676 0.000000
-12.052325 -11.018954 -0.521394 317 0.724118 0.689676 0.000000
-12.051678 -11.018366 -0.516340 301 0.724118 0.689676 0.000000
-12.052065 -11.018722 -0.511336 309 0.724118 0.689676 0.000000
-12.053198 -11.019766 -0.506365 321 0.724118 0.689676 0.000000
-12.052226 -11.018877 -0.501304 303 0.724118 0.689676 0.000000
-12.052717 -11.019330 -0.496310 325 0.724118 0.689676 0.000000
-12.054070 -11.020562 -0.491347 351 0.724118 0.689676 0.000000
-12.053146 -11.019726 -0.486285 345 0.724118 0.689676 0.000000
-12.052070 -11.018742 -0.481225 339 0.724118 0.689676 0.000000
-12.052552 -11.019175 -0.476221 333 0.724118 0.689676 0.000000
-12.052704 -11.019316 -0.471209 345 0.724118 0.689676 0.000000
-12.051787 -11.018485 -0.466157 331 0.724118 0.689676 0.000000
-12.051572 -11.018281 -0.461129 303 0.724118 0.689676 0.000000
-12.052144 -11.018811 -0.456134 319 0.724118 0.689676 0.000000
-12.053387 -11.019942 -0.451162 333 0.724118 0.689676 0.000000
-12.052405 -11.019048 -0.446101 351 0.724118 0.689676 0.000000
-12.051528 -11.018248 -0.441059 351 0.724118 0.689676 0.000000
-12.052321 -11.018981 -0.436062 321 0.724118 0.689676 0.000000
-12.052202 -11.018867 -0.431043 339 0.724118 0.689676 0.000000
-12.052616 -11.019257 -0.426039 295 0.724118 0.689676 0.000000
-12.053248 -11.019835 -0.421043 321 0.724118 0.689676 0.000000
-12.051723 -11.018439 -0.415977 321 0.724118 0.689676 0.000000
-12.052459 -11.019114 -0.410980 351 0.724118 0.689676 0.000000
-12.053146 -11.019735 -0.405983 319 0.724118 0.689676 0.000000
-12.052096 -11.018785 -0.400933 311 0.724118 0.689676 0.000000
-12.052507 -11.019160 -0.395929 347 0.724118 0.689676 0.000000
-12.052596 -11.019238 -0.390908 299 0.724118 0.689676 0.000000
-12.052352 -11.019024 -0.385890 299 0.724118 0.689676 0.000000
-12.051520 -11.018262 -0.380848 313 0.724118 0.689676 0.000000
-12.051657 -11.018392 -0.375836 309 0.724118 0.689676 0.000000
-12.053897 -11.020436 -0.370886 337 0.724118 0.689676 0.000000
-12.054568 -11.021046 -0.365879 317 0.724118 0.689676 0.000000
-12.053194 -11.019797 -0.360822 287 0.724118 0.689676 0.000000
-12.052624 -11.019271 -0.355787 291 0.724118 0.689676 0.000000
-12.052483 -11.019152 -0.350768 283 0.724118 0.689676 0.000000
-12.052238 -11.018925 -0.345750 333 0.724118 0.689676 0.000000
-12.052247 -11.018938 -0.340730 299 0.724118 0.689676 0.000000
-12.050981 -11.017776 -0.335682 281 0.724118 0.689676 0.000000
-12.050562 -11.017397 -0.330655 301 0.724118 0.689676 0.000000
-12.052303 -11.018991 -0.325679 323 0.724118 0.689676 0.000000
-12.052058 -11.018764 -0.320661 299 0.724118 0.689676 0.000000
-12.051205 -11.017984 -0.315619 301 0.724118 0.689676 0.000000
-12.051805 -11.018538 -0.310613 319 0.724118 0.689676 0.000000
-12.051120 -11.017918 -0.305580 315 0.724118 0.689676 0.000000
-12.051997 -11.018717 -0.300591 319 0.724118 0.689676 0.000000
-12.056387 -11.015393 -0.687136 271 0.724118 0.689676 0.000000
-12.055888 -11.014935 -0.682081 269 0.724118 0.689676 0.000000
-12.056364 -11.015376 -0.677086 249 0.724118 0.689676 0.000000
-12.056023 -11.015058 -0.672039 263 0.724118 0.689676 0.000000
-12.055526 -11.014603 -0.666994 255 0.724118 0.689676 0.000000
-12.057133 -11.016077 -0.662059 287 0.724118 0.689676 0.000000
-12.057331 -11.016256 -0.657047 271 0.724118 0.689676 0.000000
-12.056516 -11.015508 -0.651974 285 0.724118 0.689676 0.000000
-12.056174 -11.015189 -0.646937 283 0.724118 0.689676 0.000000
-12.056580 -11.015558 -0.641933 299 0.724118 0.689676 0.000000
-12.057743 -11.016626 -0.636972 293 0.724118 0.689676 0.000000
-12.057183 -11.016121 -0.631917 291 0.724118 0.689676 0.000000
-12.056627 -11.015606 -0.626872 289 0.724118 0.689676 0.000000
-12.057246 -11.016172 -0.621877 291 0.724118 0.689676 0.000000
-12.056900 -11.015863 -0.616840 267 0.724118 0.689676 0.000000
-12.056013 -11.015044 -0.611768 287 0.724118 0.689676 0.000000
-12.056631 -11.015611 -0.606782 299 0.724118 0.689676 0.000000
-12.056979 -11.015936 -0.601779 299 0.724118 0.689676 0.000000
-12.056203 -11.015217 -0.596716 307 0.724118 0.689676 0.000000
-12.056435 -11.015436 -0.591703 317 0.724118 0.689676 0.000000
-12.057170 -11.016096 -0.586717 315 0.724118 0.689676 0.000000
-12.056759 -11.015722 -0.581680 311 0.724118 0.689676 0.000000
-12.056767 -11.015737 -0.576660 319 0.724118 0.689676 0.000000
-12.057115 -11.016047 -0.571647 337 0.724118 0.689676 0.000000
-12.056865 -11.015828 -0.566619 325 0.724118 0.689676 0.000000
-12.056500 -11.015492 -0.561582 311 0.724118 0.689676 0.000000
-12.056358 -11.015359 -0.556553 311 0.724118 0.689676 0.000000
-12.056698 -11.015664 -0.551550 307 0.724118 0.689676 0.000000
-12.057141 -11.016078 -0.546546 321 0.724118 0.689676 0.000000
-12.056985 -11.015933 -0.541517 315 0.724118 0.689676 0.000000
-12.057809 -11.016690 -0.536529 321 0.724118 0.689676 0.000000
-12.057658 -11.016552 -0.531511 329 0.724118 0.689676 0.000000
-12.055292 -11.014380 -0.526383 323 0.724118 0.689676 0.000000
-12.055728 -11.014788 -0.521388 329 0.724118 0.689676 0.000000
-12.057200 -11.016129 -0.516425 329 0.724118 0.689676 0.000000
-12.056401 -11.015393 -0.511372 315 0.724118 0.689676 0.000000
-12.055904 -11.014949 -0.506336 323 0.724118 0.689676 0.000000
-12.056624 -11.015598 -0.501340 329 0.724118 0.689676 0.000000
-12.056830 -11.015796 -0.496328 347 0.724118 0.689676 0.000000
-12.055858 -11.014907 -0.491276 353 0.724118 0.689676 0.000000
-12.055487 -11.014565 -0.486240 327 0.724118 0.689676 0.000000
-12.055701 -11.014757 -0.481228 319 0.724118 0.689676 0.000000
-12.055534 -11.014605 -0.476199 319 0.724118 0.689676 0.000000
-12.056287 -11.015293 -0.471212 307 0.724118 0.689676 0.000000
-12.056993 -11.015942 -0.466215 325 0.724118 0.689676 0.000000
-12.057150 -11.016075 -0.461204 329 0.724118 0.689676 0.000000
-12.057727 -11.016609 -0.456208 325 0.724118 0.689676 0.000000
-12.057459 -11.016362 -0.451181 323 0.724118 0.689676 0.000000
-12.057167 -11.016097 -0.446153 339 0.724118 0.689676 0.000000
-12.056399 -11.015400 -0.441100 347 0.724118 0.689676 0.000000
-12.056400 -11.015394 -0.436080 325 0.724118 0.689676 0.000000
-12.057302 -11.016212 -0.431092 333 0.724118 0.689676 0.000000
-12.056149 -11.015168 -0.426042 347 0.724118 0.689676 0.000000
-12.054844 -11.013975 -0.420974 323 0.724118 0.689676 0.000000
-12.055580 -11.014649 -0.415987 339 0.724118 0.689676 0.000000
-12.057186 -11.016109 -0.411022 325 0.724118 0.689676 0.000000
-12.057005 -11.015945 -0.405994 307 0.724118 0.689676 0.000000
-12.055960 -11.014987 -0.400944 325 0.724118 0.689676 0.000000
-12.056856 -11.015815 -0.395955 313 0.724118 0.689676 0.000000
-12.056294 -11.015294 -0.390920 299 0.724118 0.689676 0.000000
-12.055243 -11.014343 -0.385870 319 0.724118 0.689676 0.000000
-12.055985 -11.015010 -0.380873 307 0.724118 0.689676 0.000000
-12.056818 -11.015774 -0.375875 319 0.724118 0.689676 0.000000
-12.055275 -11.014365 -0.370819 297 0.724118 0.689676 0.000000
-12.055410 -11.014493 -0.365808 301 0.724118 0.689676 0.000000
-12.056028 -11.015059 -0.360802 295 0.724118 0.689676 0.000000
-12.055783 -11.014832 -0.355784 301 0.724118 0.689676 0.000000
-12.057429 -11.016337 -0.350809 307 0.724118 0.689676 0.000000
-12.056798 -11.015760 -0.345774 351 0.724118 0.689676 0.000000
-12.055737 -11.014790 -0.340724 337 0.724118 0.689676 0.000000
-12.055762 -11.014817 -0.335714 335 0.724118 0.689676 0.000000
-12.055350 -11.014429 -0.330687 317 0.724118 0.689676 0.000000
-12.055366 -11.014449 -0.325667 329 0.724118 0.689676 0.000000
-12.055762 -11.014812 -0.320663 315 0.724118 0.689676 0.000000
-12.055558 -11.014629 -0.315635 311 0.724118 0.689676 0.000000
-12.054553 -11.013703 -0.310594 307 0.724118 0.689676 0.000000
-12.055431 -11.014504 -0.305606 311 0.724118 0.689676 0.000000
-12.055385 -11.014461 -0.300586 343 0.724118 0.689676 0.000000
-12.059672 -11.011901 -0.687138 283 0.724118 0.689676 0.000000
-12.060518 -11.012675 -0.682160 289 0.724118 0.689676 0.000000
-12.060900 -11.013013 -0.677156 271 0.724118 0.689676 0.000000
-12.061636 -11.013687 -0.672169 287 0.724118 0.689676 0.000000
-12.060544 -11.012691 -0.667089 279 0.724118 0.689676 0.000000
-12.060480 -11.012634 -0.662060 255 0.724118 0.689676 0.000000
-12.061646 -11.013703 -0.657099 249 0.724118 0.689676 0.000000
-12.061954 -11.013982 -0.652096 263 0.724118 0.689676 0.000000
-12.062642 -11.014606 -0.647110 273 0.724118 0.689676 0.000000
-12.063433 -11.015323 -0.642122 285 0.724118 0.689676 0.000000
-12.062281 -11.014277 -0.637043 295 0.724118 0.689676 0.000000
-12.061179 -11.013275 -0.631963 275 0.724118 0.689676 0.000000
-12.060769 -11.012902 -0.626916 287 0.724118 0.689676 0.000000
-12.060746 -11.012877 -0.621896 283 0.724118 0.689676 0.000000
-12.061536 -11.013595 -0.616909 271 0.724118 0.689676 0.000000
-12.061183 -11.013280 -0.611872 263 0.724118 0.689676 0.000000
-12.060351 -11.012518 -0.606810 285 0.724118 0.689676 0.000000
-12.060707 -11.012836 -0.601796 325 0.724118 0.689676 0.000000
-12.061001 -11.013103 -0.596794 311 0.724118 0.689676 0.000000
-12.060914 -11.013028 -0.591764 303 0.724118 0.689676 0.000000
-12.060821 -11.012947 -0.586745 337 0.724118 0.689676 0.000000
-12.060362 -11.012523 -0.581699 317 0.724118 0.689676 0.000000
-12.060489 -11.012645 -0.576678 319 0.724118 0.689676 0.000000
-12.060734 -11.012860 -0.571675 301 0.724118 0.689676 0.000000
-12.060908 -11.013020 -0.566654 317 0.724118 0.689676 0.000000
-12.061193 -11.013281 -0.561651 301 0.724118 0.689676 0.000000
-12.061154 -11.013245 -0.556621 313 0.724118 0.689676 0.000000
-12.060467 -11.012624 -0.551577 301 0.724118 0.689676 0.000000
-12.059565 -11.011792 -0.546516 309 0.724118 0.689676 0.000000
-12.059200 -11.011456 -0.541479 307 0.724118 0.689676 0.000000
-12.058893 -11.011178 -0.536442 305 0.724118 0.689676 0.000000
-12.058681 -11.010989 -0.531413 305 0.724118 0.689676 0.000000
-12.059716 -11.011929 -0.526434 301 0.724118 0.689676 0.000000
-12.059670 -11.011886 -0.521414 305 0.724118 0.689676 0.000000
-12.058705 -11.011003 -0.516353 317 0.724118 0.689676 0.000000
-12.058279 -11.010617 -0.511317 315 0.724118 0.689676 0.000000
-12.058280 -11.010626 -0.506297 335 0.724118 0.689676 0.000000
-12.057908 -11.010283 -0.501270 327 0.724118 0.689676 0.000000
-12.057537 -11.009941 -0.496233 309 0.724118 0.689676 0.000000
-12.058021 -11.010387 -0.491229 343 0.724118 0.689676 0.000000
-12.059318 -11.011562 -0.486267 331 0.724118 0.689676 0.000000
-12.059365 -11.011607 -0.481246 329 0.724118 0.689676 0.000000
-12.058931 -11.011214 -0.476210 305 0.724118 0.689676 0.000000
-12.059958 -11.012148 -0.471230 319 0.724118 0.689676 0.000000
-12.059413 -11.011655 -0.466195 313 0.724118 0.689676 0.000000
-12.060056 -11.012239 -0.461199 311 0.724118 0.689676 0.000000
-12.061504 -11.013561 -0.456226 337 0.724118 0.689676 0.000000
-12.060095 -11.012273 -0.451159 299 0.724118 0.689676 0.000000
-12.058577 -11.010882 -0.446082 333 0.724118 0.689676 0.000000
-12.058727 -11.011024 -0.441071 347 0.724118 0.689676 0.000000
-12.060225 -11.012397 -0.436107 335 0.724118 0.689676 0.000000
-12.059505 -11.011738 -0.431064 313 0.724118 0.689676 0.000000
-12.059008 -11.011282 -0.426028 347 0.724118 0.689676 0.000000
-12.059372 -11.011620 -0.421024 319 0.724118 0.689676 0.000000
-12.059244 -11.011499 -0.415996 315 0.724118 0.689676 0.000000
-12.058637 -11.010942 -0.410961 319 0.724118 0.689676 0.000000
-12.058028 -11.010383 -0.405927 331 0.724118 0.689676 0.000000
-12.058274 -11.010613 -0.400914 323 0.724118 0.689676 0.000000
-12.058409 -11.010742 -0.395903 329 0.724118 0.689676 0.000000
-12.059366 -11.011605 -0.390914 343 0.724118 0.689676 0.000000
-12.060262 -11.012433 -0.385925 335 0.724118 0.689676 0.000000
-12.060292 -11.012451 -0.380905 317 0.724118 0.689676 0.000000
-12.059778 -11.011982 -0.375870 325 0.724118 0.689676 0.000000
-12.058568 -11.010879 -0.370821 297 0.724118 0.689676 0.000000
-12.059186 -11.011444 -0.365825 289 0.724118 0.689676 0.000000
-12.058831 -11.011116 -0.360798 313 0.724118 0.689676 0.000000
-12.057621 -11.010013 -0.355739 301 0.724118 0.689676 0.000000
-12.059962 -11.012152 -0.350787 311 0.724118 0.689676 0.000000
-12.060573 -11.012712 -0.345792 319 0.724118 0.689676 0.000000
-12.058278 -11.010612 -0.340713 317 0.724118 0.689676 0.000000
-12.057156 -11.009591 -0.335663 347 0.724118 0.689676 0.000000
-12.059231 -11.011491 -0.330704 345 0.724118 0.689676 0.000000
-12.060489 -11.012633 -0.325722 299 0.724118 0.689676 0.000000
-12.059752 -11.011961 -0.320679 311 0.724118 0.689676 0.000000
-12.058527 -11.010845 -0.315630 305 0.724118 0.689676 0.000000
-12.058108 -11.010466 -0.310604 331 0.724118 0.689676 0.000000
-12.058337 -11.010669 -0.305601 323 0.724118 0.689676 0.000000
-12.058401 -11.010727 -0.300581 293 0.724118 0.689676 0.000000
-12.062228 -11.007912 -0.687106 291 0.724118 0.689676 0.000000
-12.063827 -11.009380 -0.682171 269 0.724118 0.689676 0.000000
-12.064255 -11.009768 -0.677167 267 0.724118 0.689676 0.000000
-12.062238 -11.007928 -0.672035 285 0.724118 0.689676 0.000000
-12.062714 -11.008368 -0.667041 253 0.724118 0.689676 0.000000
-12.065183 -11.010622 -0.662148 267 0.724118 0.689676 0.000000
-12.065174 -11.010610 -0.657128 291 0.724118 0.689676 0.000000
-12.064068 -11.009603 -0.652038 281 0.724118 0.689676 0.000000
-12.064433 -11.009940 -0.647034 275 0.724118 0.689676 0.000000
-12.065437 -11.010855 -0.642065 247 0.724118 0.689676 0.000000
-12.063364 -11.008957 -0.636934 273 0.724118 0.689676 0.000000
-12.061673 -11.007416 -0.631829 293 0.724118 0.689676 0.000000
-12.062511 -11.008184 -0.626851 269 0.724118 0.689676 0.000000
-12.063730 -11.009297 -0.621890 265 0.724118 0.689676 0.000000
-12.064513 -11.010008 -0.616903 293 0.724118 0.689676 0.000000
-12.064815 -11.010283 -0.611900 279 0.724118 0.689676 0.000000
-12.064143 -11.009674 -0.606836 319 0.724118 0.689676 0.000000
-12.063731 -11.009300 -0.601800 315 0.724118 0.689676 0.000000
-12.064412 -11.009916 -0.596813 313 0.724118 0.689676 0.000000
-12.064381 -11.009886 -0.591783 285 0.724118 0.689676 0.000000
-12.062460 -11.008135 -0.586671 287 0.724118 0.689676 0.000000
-12.061772 -11.007514 -0.581617 299 0.724118 0.689676 0.000000
-12.061686 -11.007439 -0.576598 309 0.724118 0.689676 0.000000
-12.062302 -11.007991 -0.571602 291 0.724118 0.689676 0.000000
-12.063665 -11.009245 -0.566639 291 0.724118 0.689676 0.000000
-12.064820 -11.010293 -0.561669 315 0.724118 0.689676 0.000000
-12.064717 -11.010204 -0.556649 341 0.724118 0.689676 0.000000
-12.062899 -11.008549 -0.551546 339 0.724118 0.689676 0.000000
-12.062370 -11.008068 -0.546501 301 0.724118 0.689676 0.000000
-12.063033 -11.008672 -0.541505 303 0.724118 0.689676 0.000000
-12.063210 -11.008832 -0.536493 297 0.724118 0.689676 0.000000
-12.063812 -11.009386 -0.531497 293 0.724118 0.689676 0.000000
-12.063819 -11.009386 -0.526477 313 0.724118 0.689676 0.000000
-12.063344 -11.008948 -0.521441 317 0.724118 0.689676 0.000000
-12.063774 -11.009350 -0.516437 317 0.724118 0.689676 0.000000
-12.063348 -11.008965 -0.511401 343 0.724118 0.689676 0.000000
-12.062658 -11.008329 -0.506357 293 0.724118 0.689676 0.000000
-12.061908 -11.007644 -0.501304 325 0.724118 0.689676 0.000000
-12.063046 -11.008679 -0.496323 317 0.724118 0.689676 0.000000
-12.063310 -11.008923 -0.491321 345 0.724118 0.689676 0.000000
-12.063097 -11.008734 -0.486293 337 0.724118 0.689676 0.000000
-12.063951 -11.009515 -0.481305 335 0.724118 0.689676 0.000000
-12.063468 -11.009071 -0.476269 313 0.724118 0.689676 0.000000
-12.063413 -11.009022 -0.471249 307 0.724118 0.689676 0.000000
-12.063731 -11.009309 -0.466236 313 0.724118 0.689676 0.000000
-12.063558 -11.009151 -0.461208 319 0.724118 0.689676 0.000000
-12.063012 -11.008657 -0.456173 331 0.724118 0.689676 0.000000
-12.062791 -11.008461 -0.451145 317 0.724118 0.689676 0.000000
-12.062458 -11.008150 -0.446118 283 0.724118 0.689676 0.000000
-12.063038 -11.008685 -0.441112 313 0.724118 0.689676 0.000000
-12.063182 -11.008821 -0.436101 327 0.724118 0.689676 0.000000
-12.061449 -11.007234 -0.431027 293 0.724118 0.689676 0.000000
-12.061646 -11.007412 -0.426015 319 0.724118 0.689676 0.000000
-12.062335 -11.008048 -0.421018 307 0.724118 0.689676 0.000000
-12.062533 -11.008227 -0.416006 303 0.724118 0.689676 0.000000
-12.062739 -11.008411 -0.410994 315 0.724118 0.689676 0.000000
-12.063524 -11.009137 -0.406007 311 0.724118 0.689676 0.000000
-12.063826 -11.009412 -0.400994 313 0.724118 0.689676 0.000000
-12.061919 -11.007673 -0.395911 341 0.724118 0.689676 0.000000
-12.061895 -11.007648 -0.390902 311 0.724118 0.689676 0.000000
-12.063217 -11.008855 -0.385919 313 0.724118 0.689676 0.000000
-12.063250 -11.008888 -0.380909 303 0.724118 0.689676 0.000000
-12.063765 -11.009359 -0.375904 319 0.724118 0.689676 0.000000
-12.062498 -11.008198 -0.370845 313 0.724118 0.689676 0.000000
-12.061930 -11.007685 -0.365811 335 0.724118 0.689676 0.000000
-12.063307 -11.008936 -0.360838 339 0.724118 0.689676 0.000000
-12.063173 -11.008810 -0.355809 317 0.724118 0.689676 0.000000
-12.062492 -11.008195 -0.350775 321 0.724118 0.689676 0.000000
-12.062178 -11.007912 -0.345748 301 0.724118 0.689676 0.000000
-12.061174 -11.006999 -0.340707 317 0.724118 0.689676 0.000000
-12.060122 -11.006034 -0.335667 335 0.724118 0.689676 0.000000
-12.060407 -11.006295 -0.330654 315 0.724118 0.689676 0.000000
-12.061129 -11.006957 -0.325657 305 0.724118 0.689676 0.000000
-12.062117 -11.007859 -0.320668 319 0.724118 0.689676 0.000000
-12.062885 -11.008558 -0.315671 311 0.724118 0.689676 0.000000
-12.063488 -11.009112 -0.310665 343 0.724118 0.689676 0.000000
-12.062965 -11.008636 -0.305640 337 0.724118 0.689676 0.000000
-12.061083 -11.006917 -0.300577 297 0.724118 0.689676 0.000000
-12.067039 -11.005233 -0.687186 263 0.724118 0.689676 0.000000
-12.067197 -11.005366 -0.682165 293 0.724118 0.689676 0.000000
-12.066858 -11.005064 -0.677128 271 0.724118 0.689676 0.000000
-12.066408 -11.004659 -0.672072 247 0.724118 0.689676 0.000000
-12.066076 -11.004348 -0.667035 289 0.724118 0.689676 0.000000
-12.066985 -11.005173 -0.662056 305 0.724118 0.689676 0.000000
-12.067178 -11.005360 -0.657044 263 0.724118 0.689676 0.000000
-12.067383 -11.005545 -0.652032 275 0.724118 0.689676 0.000000
-12.067961 -11.006065 -0.647037 263 0.724118 0.689676 0.000000
-12.067668 -11.005799 -0.641999 255 0.724118 0.689676 0.000000
-12.066846 -11.005045 -0.636937 271 0.724118 0.689676 0.000000
-12.067788 -11.005910 -0.631958 273 0.724118 0.689676 0.000000
-12.067765 -11.005885 -0.626938 287 0.724118 0.689676 0.000000
-12.067480 -11.005625 -0.621901 265 0.724118 0.689676 0.000000
-12.068478 -11.006535 -0.616931 283 0.724118 0.689676 0.000000
-12.067687 -11.005818 -0.611868 301 0.724118 0.689676 0.000000
-12.067340 -11.005508 -0.606831 315 0.724118 0.689676 0.000000
-12.067206 -11.005383 -0.601793 309 0.724118 0.689676 0.000000
-12.066794 -11.005009 -0.596756 329 0.724118 0.689676 0.000000
-12.066557 -11.004787 -0.591718 313 0.724118 0.689676 0.000000
-12.066526 -11.004757 -0.586699 303 0.724118 0.689676 0.000000
-12.067144 -11.005322 -0.581703 313 0.724118 0.689676 0.000000
