284
-22.768097 -21.584532 -0.661808 263 0.721701 0.692205 0.000000
-22.762182 -21.578930 -0.652003 325 0.721701 0.692205 0.000000
-22.758873 -21.575794 -0.642273 317 0.721701 0.692205 0.000000
-22.761036 -21.577833 -0.632703 335 0.721701 0.692205 0.000000
-22.762918 -21.579630 -0.623115 339 0.721701 0.692205 0.000000
-22.768049 -21.584488 -0.613617 345 0.721701 0.692205 0.000000
-22.766266 -21.582802 -0.603933 349 0.721701 0.692205 0.000000
-22.759607 -21.576487 -0.594125 323 0.721701 0.692205 0.000000
-22.759409 -21.576296 -0.584487 325 0.721701 0.692205 0.000000
-22.761234 -21.578035 -0.574900 345 0.721701 0.692205 0.000000
-22.762850 -21.579557 -0.565304 365 0.721701 0.692205 0.000000
-22.763550 -21.580227 -0.555678 293 0.721701 0.692205 0.000000
-22.763615 -21.580296 -0.546047 379 0.721701 0.692205 0.000000
-22.758646 -21.575577 -0.536303 387 0.721701 0.692205 0.000000
-22.757225 -21.574224 -0.526636 379 0.721701 0.692205 0.000000
-22.767944 -21.584393 -0.517236 383 0.721701 0.692205 0.000000
-22.773739 -21.589888 -0.507731 337 0.721701 0.692205 0.000000
-22.766886 -21.583397 -0.497945 403 0.721701 0.692205 0.000000
-22.761002 -21.577820 -0.488180 355 0.721701 0.692205 0.000000
-22.760418 -21.577263 -0.478535 385 0.721701 0.692205 0.000000
-22.763443 -21.580128 -0.468967 381 0.721701 0.692205 0.000000
-22.761261 -21.578064 -0.459287 379 0.721701 0.692205 0.000000
-22.763151 -21.579851 -0.449689 387 0.721701 0.692205 0.000000
-22.770308 -21.586636 -0.440192 327 0.721701 0.692205 0.000000
-22.772486 -21.588701 -0.430591 415 0.721701 0.692205 0.000000
-22.767536 -21.584007 -0.420867 395 0.721701 0.692205 0.000000
-22.765127 -21.581732 -0.411189 397 0.721701 0.692205 0.000000
-22.766546 -21.583069 -0.401576 405 0.721701 0.692205 0.000000
-22.764664 -21.581289 -0.391913 393 0.721701 0.692205 0.000000
-22.762083 -21.578844 -0.382237 397 0.721701 0.692205 0.000000
-22.761202 -21.578016 -0.372585 375 0.721701 0.692205 0.000000
-22.761347 -21.578152 -0.362954 375 0.721701 0.692205 0.000000
-22.764072 -21.580730 -0.353368 369 0.721701 0.692205 0.000000
-22.765532 -21.582115 -0.343754 329 0.721701 0.692205 0.000000
-22.764118 -21.580772 -0.334097 365 0.721701 0.692205 0.000000
-22.766369 -21.582911 -0.324496 383 0.721701 0.692205 0.000000
-22.767231 -21.583723 -0.314868 327 0.721701 0.692205 0.000000
-22.765488 -21.582071 -0.305214 331 0.721701 0.692205 0.000000
-22.761406 -21.578213 -0.295532 355 0.721701 0.692205 0.000000
-22.759453 -21.576361 -0.285870 343 0.721701 0.692205 0.000000
-22.764229 -21.580887 -0.276295 339 0.721701 0.692205 0.000000
-22.770195 -21.572014 -0.661670 355 0.721701 0.692205 0.000000
-22.771286 -21.573055 -0.652060 357 0.721701 0.692205 0.000000
-22.772543 -21.574245 -0.642458 333 0.721701 0.692205 0.000000
-22.770660 -21.572466 -0.632775 351 0.721701 0.692205 0.000000
-22.768358 -21.570276 -0.623076 317 0.721701 0.692205 0.000000
-22.768551 -21.570461 -0.613444 361 0.721701 0.692205 0.000000
-22.767136 -21.569120 -0.603768 343 0.721701 0.692205 0.000000
-22.769596 -21.571457 -0.594204 329 0.721701 0.692205 0.000000
-22.772863 -21.574547 -0.584643 353 0.721701 0.692205 0.000000
-22.771402 -21.573166 -0.574977 327 0.721701 0.692205 0.000000
-22.770145 -21.571978 -0.565308 355 0.721701 0.692205 0.000000
-22.771692 -21.573444 -0.555704 367 0.721701 0.692205 0.000000
-22.773674 -21.575323 -0.546115 387 0.721701 0.692205 0.000000
-22.773630 -21.575275 -0.536485 375 0.721701 0.692205 0.000000
-22.770081 -21.571918 -0.526768 411 0.721701 0.692205 0.000000
-22.766701 -21.568710 -0.517060 407 0.721701 0.692205 0.000000
-22.770195 -21.572029 -0.507497 331 0.721701 0.692205 0.000000
-22.772749 -21.574442 -0.497912 387 0.721701 0.692205 0.000000
-22.773237 -21.574909 -0.488288 337 0.721701 0.692205 0.000000
-22.771317 -21.573099 -0.478615 319 0.721701 0.692205 0.000000
-22.769777 -21.571640 -0.468950 353 0.721701 0.692205 0.000000
-22.767174 -21.569162 -0.459264 331 0.721701 0.692205 0.000000
-22.768805 -21.570713 -0.449668 353 0.721701 0.692205 0.000000
-22.774366 -21.575989 -0.440136 399 0.721701 0.692205 0.000000
-22.771549 -21.573311 -0.430442 337 0.721701 0.692205 0.000000
-22.770678 -21.572491 -0.420800 367 0.721701 0.692205 0.000000
-22.768801 -21.570717 -0.411127 379 0.721701 0.692205 0.000000
-22.765436 -21.567524 -0.401439 387 0.721701 0.692205 0.000000
-22.761278 -21.563585 -0.391737 373 0.721701 0.692205 0.000000
-22.765501 -21.567593 -0.382178 357 0.721701 0.692205 0.000000
-22.766808 -21.568827 -0.372565 331 0.721701 0.692205 0.000000
-22.765348 -21.567446 -0.362909 331 0.721701 0.692205 0.000000
-22.775291 -21.576868 -0.353425 381 0.721701 0.692205 0.000000
-22.774050 -21.575680 -0.343777 345 0.721701 0.692205 0.000000
-22.771187 -21.572979 -0.334103 375 0.721701 0.692205 0.000000
-22.773806 -21.575459 -0.324499 391 0.721701 0.692205 0.000000
-22.770849 -21.572651 -0.314826 347 0.721701 0.692205 0.000000
-22.769701 -21.571568 -0.305176 371 0.721701 0.692205 0.000000
-22.771355 -21.573137 -0.295571 345 0.721701 0.692205 0.000000
-22.770515 -21.572344 -0.285918 373 0.721701 0.692205 0.000000
-22.774195 -21.575827 -0.276334 327 0.721701 0.692205 0.000000
-22.774115 -21.561487 -0.661584 339 0.721701 0.692205 0.000000
-22.775589 -21.562883 -0.651990 333 0.721701 0.692205 0.000000
-22.769402 -21.557030 -0.642178 325 0.721701 0.692205 0.000000
-22.773521 -21.560925 -0.632659 305 0.721701 0.692205 0.000000
-22.778910 -21.566034 -0.623169 341 0.721701 0.692205 0.000000
-22.779053 -21.566166 -0.613537 349 0.721701 0.692205 0.000000
-22.774992 -21.562323 -0.603795 339 0.721701 0.692205 0.000000
-22.773142 -21.560583 -0.594112 351 0.721701 0.692205 0.000000
-22.772425 -21.559902 -0.584458 365 0.721701 0.692205 0.000000
-22.773947 -21.561337 -0.574864 371 0.721701 0.692205 0.000000
-22.776985 -21.564215 -0.565305 381 0.721701 0.692205 0.000000
-22.774929 -21.562267 -0.555624 349 0.721701 0.692205 0.000000
-22.778399 -21.565550 -0.546072 349 0.721701 0.692205 0.000000
-22.779844 -21.566919 -0.536468 367 0.721701 0.692205 0.000000
-22.778139 -21.565315 -0.526794 355 0.721701 0.692205 0.000000
-22.779224 -21.566338 -0.517183 343 0.721701 0.692205 0.000000
-22.782028 -21.568996 -0.507607 397 0.721701 0.692205 0.000000
-22.776512 -21.563772 -0.497848 393 0.721701 0.692205 0.000000
-22.769989 -21.557592 -0.488079 361 0.721701 0.692205 0.000000
-22.775188 -21.562519 -0.478550 377 0.721701 0.692205 0.000000
-22.780552 -21.567593 -0.469030 387 0.721701 0.692205 0.000000
-22.779255 -21.566374 -0.459372 409 0.721701 0.692205 0.000000
-22.775864 -21.563156 -0.449663 345 0.721701 0.692205 0.000000
-22.776960 -21.564203 -0.440053 343 0.721701 0.692205 0.000000
-22.779930 -21.567009 -0.430475 365 0.721701 0.692205 0.000000
-22.780333 -21.567394 -0.420851 413 0.721701 0.692205 0.000000
-22.771875 -21.559391 -0.411059 327 0.721701 0.692205 0.000000
-22.770258 -21.557856 -0.401404 401 0.721701 0.692205 0.000000
-22.777470 -21.564684 -0.391897 351 0.721701 0.692205 0.000000
-22.779350 -21.566463 -0.382289 393 0.721701 0.692205 0.000000
-22.780075 -21.567152 -0.372662 365 0.721701 0.692205 0.000000
-22.785257 -21.572052 -0.363113 345 0.721701 0.692205 0.000000
-22.783632 -21.570524 -0.353448 383 0.721701 0.692205 0.000000
-22.777061 -21.564304 -0.343719 375 0.721701 0.692205 0.000000
-22.775547 -21.562864 -0.334063 377 0.721701 0.692205 0.000000
-22.774391 -21.561773 -0.324414 393 0.721701 0.692205 0.000000
-22.778330 -21.565508 -0.314837 351 0.721701 0.692205 0.000000
-22.785093 -21.571901 -0.305293 335 0.721701 0.692205 0.000000
-22.782497 -21.569445 -0.295617 325 0.721701 0.692205 0.000000
-22.782824 -21.569754 -0.285984 357 0.721701 0.692205 0.000000
-22.779179 -21.566305 -0.276308 355 0.721701 0.692205 0.000000
-22.782791 -21.556244 -0.661640 321 0.721701 0.692205 0.000000
-22.781919 -21.555416 -0.642348 377 0.721701 0.692205 0.000000
-22.786469 -21.559715 -0.632835 349 0.721701 0.692205 0.000000
-22.790525 -21.563560 -0.623307 347 0.721701 0.692205 0.000000
-22.783016 -21.556450 -0.613467 321 0.721701 0.692205 0.000000
-22.779739 -21.553358 -0.603748 307 0.721701 0.692205 0.000000
-22.785673 -21.558966 -0.594262 315 0.721701 0.692205 0.000000
-22.790092 -21.563158 -0.584740 349 0.721701 0.692205 0.000000
-22.783794 -21.557190 -0.574949 311 0.721701 0.692205 0.000000
-22.777115 -21.550880 -0.565151 357 0.721701 0.692205 0.000000
-22.784460 -21.557829 -0.555692 391 0.721701 0.692205 0.000000
-22.791756 -21.564728 -0.546224 387 0.721701 0.692205 0.000000
-22.791344 -21.564339 -0.536577 359 0.721701 0.692205 0.000000
-22.793640 -21.566515 -0.526996 369 0.721701 0.692205 0.000000
-22.792046 -21.565012 -0.517320 327 0.721701 0.692205 0.000000
-22.782759 -21.556219 -0.507477 367 0.721701 0.692205 0.000000
-22.782543 -21.556019 -0.497839 335 0.721701 0.692205 0.000000
-22.783815 -21.557220 -0.488237 361 0.721701 0.692205 0.000000
-22.783348 -21.556774 -0.478591 379 0.721701 0.692205 0.000000
-22.785416 -21.558737 -0.468991 387 0.721701 0.692205 0.000000
-22.782484 -21.555965 -0.459298 381 0.721701 0.692205 0.000000
-22.783966 -21.557365 -0.449694 393 0.721701 0.692205 0.000000
-22.783155 -21.556597 -0.440052 421 0.721701 0.692205 0.000000
-22.782290 -21.555782 -0.430400 401 0.721701 0.692205 0.000000
-22.786785 -21.560040 -0.420847 379 0.721701 0.692205 0.000000
-22.786131 -21.559412 -0.411203 349 0.721701 0.692205 0.000000
-22.783630 -21.557047 -0.401526 415 0.721701 0.692205 0.000000
-22.779938 -21.553556 -0.391831 387 0.721701 0.692205 0.000000
-22.779551 -21.553188 -0.382184 367 0.721701 0.692205 0.000000
-22.783346 -21.556780 -0.372618 353 0.721701 0.692205 0.000000
-22.790974 -21.563999 -0.363097 363 0.721701 0.692205 0.000000
-22.797049 -21.569752 -0.353550 339 0.721701 0.692205 0.000000
-22.791809 -21.564795 -0.343839 357 0.721701 0.692205 0.000000
-22.789221 -21.562344 -0.334163 347 0.721701 0.692205 0.000000
-22.786322 -21.559595 -0.324489 367 0.721701 0.692205 0.000000
-22.786659 -21.559916 -0.314866 355 0.721701 0.692205 0.000000
-22.789856 -21.562948 -0.305266 335 0.721701 0.692205 0.000000
-22.785868 -21.559179 -0.295583 343 0.721701 0.692205 0.000000
-22.786053 -21.559343 -0.285951 319 0.721701 0.692205 0.000000
-22.786907 -21.560154 -0.276323 343 0.721701 0.692205 0.000000
-22.789484 -21.549385 -0.661644 333 0.721701 0.692205 0.000000
-22.792282 -21.552036 -0.652087 311 0.721701 0.692205 0.000000
-22.790194 -21.550064 -0.642396 355 0.721701 0.692205 0.000000
-22.794788 -21.554401 -0.632883 337 0.721701 0.692205 0.000000
-22.793768 -21.553434 -0.623223 301 0.721701 0.692205 0.000000
-22.789865 -21.549746 -0.613479 301 0.721701 0.692205 0.000000
-22.795572 -21.555143 -0.603995 355 0.721701 0.692205 0.000000
-22.796766 -21.556269 -0.594384 361 0.721701 0.692205 0.000000
-22.795040 -21.554642 -0.584700 381 0.721701 0.692205 0.000000
-22.793831 -21.553507 -0.575031 407 0.721701 0.692205 0.000000
-22.790390 -21.550249 -0.565313 391 0.721701 0.692205 0.000000
-22.791582 -21.551374 -0.555711 359 0.721701 0.692205 0.000000
-22.791059 -21.550882 -0.546056 383 0.721701 0.692205 0.000000
-22.789789 -21.549685 -0.536398 367 0.721701 0.692205 0.000000
-22.792788 -21.552515 -0.526829 381 0.721701 0.692205 0.000000
-22.793165 -21.552866 -0.517206 363 0.721701 0.692205 0.000000
-22.795614 -21.555195 -0.497982 351 0.721701 0.692205 0.000000
-22.793066 -21.552776 -0.488296 391 0.721701 0.692205 0.000000
-22.795940 -21.555490 -0.478719 393 0.721701 0.692205 0.000000
-22.795130 -21.554737 -0.469066 403 0.721701 0.692205 0.000000
-22.791079 -21.550901 -0.459344 405 0.721701 0.692205 0.000000
-22.789587 -21.549494 -0.449688 353 0.721701 0.692205 0.000000
-22.790428 -21.550291 -0.440069 417 0.721701 0.692205 0.000000
-22.792284 -21.552040 -0.430462 433 0.721701 0.692205 0.000000
-22.794870 -21.554493 -0.420878 387 0.721701 0.692205 0.000000
-22.794746 -21.554367 -0.411239 419 0.721701 0.692205 0.000000
-22.792969 -21.552698 -0.401575 371 0.721701 0.692205 0.000000
-22.796194 -21.555742 -0.391994 379 0.721701 0.692205 0.000000
-22.793295 -21.553009 -0.382311 391 0.721701 0.692205 0.000000
-22.795080 -21.554686 -0.372705 369 0.721701 0.692205 0.000000
-22.798779 -21.558184 -0.363120 375 0.721701 0.692205 0.000000
-22.800556 -21.559868 -0.353513 383 0.721701 0.692205 0.000000
-22.796803 -21.556316 -0.343818 385 0.721701 0.692205 0.000000
-22.790123 -21.550007 -0.334090 357 0.721701 0.692205 0.000000
-22.790510 -21.550379 -0.324466 365 0.721701 0.692205 0.000000
-22.789730 -21.549635 -0.314823 391 0.721701 0.692205 0.000000
-22.789219 -21.549150 -0.305178 389 0.721701 0.692205 0.000000
-22.786942 -21.546995 -0.295519 389 0.721701 0.692205 0.000000
-22.787096 -21.547150 -0.285887 361 0.721701 0.692205 0.000000
-22.792847 -21.552584 -0.276323 361 0.721701 0.692205 0.000000
-22.793617 -21.539589 -0.661573 321 0.721701 0.692205 0.000000
-22.799982 -21.545605 -0.652123 313 0.721701 0.692205 0.000000
-22.802881 -21.548353 -0.642566 321 0.721701 0.692205 0.000000
-22.799988 -21.545612 -0.632843 309 0.721701 0.692205 0.000000
-22.799601 -21.545244 -0.623196 313 0.721701 0.692205 0.000000
-22.796324 -21.542147 -0.613477 345 0.721701 0.692205 0.000000
-22.794918 -21.540825 -0.603800 289 0.721701 0.692205 0.000000
-22.797714 -21.543465 -0.594243 295 0.721701 0.692205 0.000000
-22.793909 -21.539867 -0.584509 335 0.721701 0.692205 0.000000
-22.793127 -21.539137 -0.574856 317 0.721701 0.692205 0.000000
-22.797401 -21.543173 -0.565325 351 0.721701 0.692205 0.000000
-22.795816 -21.541677 -0.555650 333 0.721701 0.692205 0.000000
-22.793230 -21.539227 -0.545954 349 0.721701 0.692205 0.000000
-22.796850 -21.542660 -0.536410 391 0.721701 0.692205 0.000000
-22.797649 -21.543409 -0.526792 403 0.721701 0.692205 0.000000
-22.800797 -21.546391 -0.517223 341 0.721701 0.692205 0.000000
-22.800652 -21.546246 -0.507584 329 0.721701 0.692205 0.000000
-22.799801 -21.545444 -0.497931 369 0.721701 0.692205 0.000000
-22.798725 -21.544430 -0.488271 397 0.721701 0.692205 0.000000
-22.795597 -21.541471 -0.478570 363 0.721701 0.692205 0.000000
-22.797449 -21.543230 -0.468973 391 0.721701 0.692205 0.000000
-22.800167 -21.545790 -0.459397 369 0.721701 0.692205 0.000000
-22.804401 -21.549795 -0.449837 371 0.721701 0.692205 0.000000
-22.802380 -21.547886 -0.440166 355 0.721701 0.692205 0.000000
-22.798475 -21.544197 -0.430462 387 0.721701 0.692205 0.000000
-22.799629 -21.545290 -0.420841 413 0.721701 0.692205 0.000000
-22.799248 -21.544928 -0.411205 403 0.721701 0.692205 0.000000
-22.797844 -21.543606 -0.401548 373 0.721701 0.692205 0.000000
-22.797024 -21.542828 -0.391895 335 0.721701 0.692205 0.000000
-22.798288 -21.544012 -0.382283 391 0.721701 0.692205 0.000000
-22.799965 -21.545599 -0.372677 351 0.721701 0.692205 0.000000
-22.799286 -21.544968 -0.363033 379 0.721701 0.692205 0.000000
-22.804470 -21.549868 -0.353474 365 0.721701 0.692205 0.000000
-22.804653 -21.550032 -0.343843 311 0.721701 0.692205 0.000000
-22.796637 -21.542467 -0.334087 371 0.721701 0.692205 0.000000
-22.798885 -21.544590 -0.324486 361 0.721701 0.692205 0.000000
-22.794498 -21.540440 -0.314797 377 0.721701 0.692205 0.000000
-22.795784 -21.541655 -0.305184 365 0.721701 0.692205 0.000000
-22.797548 -21.543329 -0.295568 381 0.721701 0.692205 0.000000
-22.796448 -21.542282 -0.285928 405 0.721701 0.692205 0.000000
-22.797623 -21.543394 -0.276307 343 0.721701 0.692205 0.000000
-22.800219 -21.532383 -0.661578 319 0.721701 0.692205 0.000000
-22.802008 -21.534075 -0.651991 343 0.721701 0.692205 0.000000
-22.797314 -21.529633 -0.642225 351 0.721701 0.692205 0.000000
-22.798622 -21.530867 -0.632633 335 0.721701 0.692205 0.000000
-22.806530 -21.538345 -0.623209 329 0.721701 0.692205 0.000000
-22.808363 -21.540075 -0.613621 287 0.721701 0.692205 0.000000
-22.808922 -21.540602 -0.603996 359 0.721701 0.692205 0.000000
-22.809097 -21.540771 -0.594364 341 0.721701 0.692205 0.000000
-22.807426 -21.539192 -0.584679 371 0.721701 0.692205 0.000000
-22.805056 -21.536947 -0.574991 341 0.721701 0.692205 0.000000
-22.805223 -21.537113 -0.565359 399 0.721701 0.692205 0.000000
-22.805447 -21.537321 -0.555727 391 0.721701 0.692205 0.000000
-22.803877 -21.535839 -0.546052 361 0.721701 0.692205 0.000000
-22.808292 -21.540003 -0.536520 373 0.721701 0.692205 0.000000
-22.810698 -21.542282 -0.526937 305 0.721701 0.692205 0.000000
-22.806404 -21.538223 -0.517207 323 0.721701 0.692205 0.000000
-22.805767 -21.537621 -0.507553 385 0.721701 0.692205 0.000000
-22.803432 -21.535419 -0.488234 319 0.721701 0.692205 0.000000
-22.805452 -21.537329 -0.478645 355 0.721701 0.692205 0.000000
-22.806084 -21.537928 -0.469019 397 0.721701 0.692205 0.000000
-22.805069 -21.536966 -0.459368 403 0.721701 0.692205 0.000000
-22.807459 -21.539230 -0.449776 373 0.721701 0.692205 0.000000
-22.807922 -21.539667 -0.440151 387 0.721701 0.692205 0.000000
-22.808332 -21.540056 -0.430517 363 0.721701 0.692205 0.000000
-22.810024 -21.541643 -0.420911 399 0.721701 0.692205 0.000000
-22.802502 -21.534552 -0.411141 373 0.721701 0.692205 0.000000
-22.805628 -21.537498 -0.401562 367 0.721701 0.692205 0.000000
-22.809587 -21.541239 -0.391995 381 0.721701 0.692205 0.000000
-22.803137 -21.535141 -0.382255 391 0.721701 0.692205 0.000000
-22.806879 -21.538675 -0.372680 403 0.721701 0.692205 0.000000
-22.808611 -21.540323 -0.363073 371 0.721701 0.692205 0.000000
-22.808786 -21.540482 -0.353441 397 0.721701 0.692205 0.000000
-22.808821 -21.540512 -0.343811 397 0.721701 0.692205 0.000000
-22.800226 -21.532406 -0.334051 335 0.721701 0.692205 0.000000
-22.798693 -21.530954 -0.324395 385 0.721701 0.692205 0.000000
-22.806421 -21.538258 -0.314872 385 0.721701 0.692205 0.000000
-22.806211 -21.538061 -0.305234 345 0.721701 0.692205 0.000000
-22.806339 -21.538181 -0.295603 413 0.721701 0.692205 0.000000
-22.809486 -21.541147 -0.286003 361 0.721701 0.692205 0.000000
-22.812792 -21.544270 -0.276402 361 0.721701 0.692205 0.000000
