786
-8.847341 -8.560944 -0.494717 909 0.716863 0.697214 0.000000
-8.846609 -8.560235 -0.490893 909 0.716863 0.697214 0.000000
-8.846709 -8.560340 -0.487112 915 0.716863 0.697214 0.000000
-8.846498 -8.560132 -0.483314 901 0.716863 0.697214 0.000000
-8.845975 -8.559626 -0.479499 895 0.716863 0.697214 0.000000
-8.846447 -8.560081 -0.475745 909 0.716863 0.697214 0.000000
-8.846183 -8.559829 -0.471947 905 0.716863 0.697214 0.000000
-8.845855 -8.559511 -0.468140 893 0.716863 0.697214 0.000000
-8.846382 -8.560026 -0.464385 919 0.716863 0.697214 0.000000
-8.846480 -8.560117 -0.460604 897 0.716863 0.697214 0.000000
-8.846261 -8.559903 -0.456806 893 0.716863 0.697214 0.000000
-8.845677 -8.559345 -0.452991 889 0.716863 0.697214 0.000000
-8.845094 -8.558773 -0.449177 889 0.716863 0.697214 0.000000
-8.846078 -8.559722 -0.445437 909 0.716863 0.697214 0.000000
-8.846380 -8.560022 -0.441674 891 0.716863 0.697214 0.000000
-8.845742 -8.559405 -0.437860 893 0.716863 0.697214 0.000000
-8.845265 -8.558938 -0.434045 885 0.716863 0.697214 0.000000
-8.845140 -8.558815 -0.430256 879 0.716863 0.697214 0.000000
-8.845705 -8.559361 -0.426500 885 0.716863 0.697214 0.000000
-8.845634 -8.559298 -0.422711 883 0.716863 0.697214 0.000000
-8.845097 -8.558778 -0.418906 891 0.716863 0.697214 0.000000
-8.844876 -8.558563 -0.415108 873 0.716863 0.697214 0.000000
-8.844859 -8.558544 -0.411328 873 0.716863 0.697214 0.000000
-8.844734 -8.558421 -0.407539 873 0.716863 0.697214 0.000000
-8.845137 -8.558820 -0.403775 865 0.716863 0.697214 0.000000
-8.846168 -8.559808 -0.400036 877 0.716863 0.697214 0.000000
-8.845933 -8.559581 -0.396238 881 0.716863 0.697214 0.000000
-8.845862 -8.559517 -0.392448 877 0.716863 0.697214 0.000000
-8.846264 -8.559900 -0.388684 867 0.716863 0.697214 0.000000
-8.846559 -8.560194 -0.384911 883 0.716863 0.697214 0.000000
-8.845951 -8.559604 -0.381107 879 0.716863 0.697214 0.000000
-8.845568 -8.559225 -0.377301 895 0.716863 0.697214 0.000000
-8.845428 -8.559103 -0.373512 867 0.716863 0.697214 0.000000
-8.845457 -8.559123 -0.369731 855 0.716863 0.697214 0.000000
-8.845222 -8.558896 -0.365944 845 0.716863 0.697214 0.000000
-8.845354 -8.559028 -0.362162 863 0.716863 0.697214 0.000000
-8.846322 -8.559965 -0.358423 883 0.716863 0.697214 0.000000
-8.847129 -8.560739 -0.354665 899 0.716863 0.697214 0.000000
-8.846318 -8.559953 -0.350853 875 0.716863 0.697214 0.000000
-8.845813 -8.559472 -0.347048 877 0.716863 0.697214 0.000000
-8.845935 -8.559583 -0.343266 883 0.716863 0.697214 0.000000
-8.846106 -8.559759 -0.339495 865 0.716863 0.697214 0.000000
-8.846182 -8.559832 -0.335714 859 0.716863 0.697214 0.000000
-8.846148 -8.559799 -0.331934 875 0.716863 0.697214 0.000000
-8.845952 -8.559605 -0.328136 869 0.716863 0.697214 0.000000
-8.845663 -8.559319 -0.324348 853 0.716863 0.697214 0.000000
-8.846252 -8.559898 -0.320583 861 0.716863 0.697214 0.000000
-8.845956 -8.559607 -0.316795 869 0.716863 0.697214 0.000000
-8.845131 -8.558807 -0.312983 867 0.716863 0.697214 0.000000
-8.844406 -8.558105 -0.309180 855 0.716863 0.697214 0.000000
-8.849368 -8.557373 -0.687920 865 0.716863 0.697214 0.000000
-8.849888 -8.557881 -0.684165 885 0.716863 0.697214 0.000000
-8.849092 -8.557108 -0.680312 899 0.716863 0.697214 0.000000
-8.848712 -8.556745 -0.676496 877 0.716863 0.697214 0.000000
-8.849797 -8.557792 -0.672785 885 0.716863 0.697214 0.000000
-8.850214 -8.558188 -0.669021 895 0.716863 0.697214 0.000000
-8.849360 -8.557364 -0.665169 885 0.716863 0.697214 0.000000
-8.849342 -8.557344 -0.661379 875 0.716863 0.697214 0.000000
-8.849433 -8.557443 -0.657588 865 0.716863 0.697214 0.000000
-8.849835 -8.557828 -0.653835 895 0.716863 0.697214 0.000000
-8.849609 -8.557607 -0.650027 897 0.716863 0.697214 0.000000
-8.848288 -8.556326 -0.646139 873 0.716863 0.697214 0.000000
-8.849474 -8.557470 -0.642438 899 0.716863 0.697214 0.000000
-8.850707 -8.558668 -0.638726 911 0.716863 0.697214 0.000000
-8.850319 -8.558299 -0.634910 905 0.716863 0.697214 0.000000
-8.849569 -8.557563 -0.631067 911 0.716863 0.697214 0.000000
-8.849864 -8.557857 -0.627304 901 0.716863 0.697214 0.000000
-8.850732 -8.558697 -0.623565 921 0.716863 0.697214 0.000000
-8.850287 -8.558268 -0.619749 911 0.716863 0.697214 0.000000
-8.849113 -8.557124 -0.615881 887 0.716863 0.697214 0.000000
-8.848825 -8.556851 -0.612073 901 0.716863 0.697214 0.000000
-8.848326 -8.556364 -0.608248 899 0.716863 0.697214 0.000000
-8.848139 -8.556190 -0.604449 883 0.716863 0.697214 0.000000
-8.848594 -8.556618 -0.600685 877 0.716863 0.697214 0.000000
-8.848661 -8.556684 -0.596904 873 0.716863 0.697214 0.000000
-8.849578 -8.557576 -0.593176 895 0.716863 0.697214 0.000000
-8.849701 -8.557701 -0.589394 877 0.716863 0.697214 0.000000
-8.849520 -8.557518 -0.585596 871 0.716863 0.697214 0.000000
-8.849386 -8.557389 -0.581797 883 0.716863 0.697214 0.000000
-8.849510 -8.557513 -0.578016 881 0.716863 0.697214 0.000000
-8.849950 -8.557929 -0.574252 887 0.716863 0.697214 0.000000
-8.849647 -8.557645 -0.570444 881 0.716863 0.697214 0.000000
-8.849194 -8.557210 -0.566629 881 0.716863 0.697214 0.000000
-8.849472 -8.557477 -0.562856 917 0.716863 0.697214 0.000000
-8.849648 -8.557647 -0.559084 901 0.716863 0.697214 0.000000
-8.850089 -8.558063 -0.555320 917 0.716863 0.697214 0.000000
-8.850462 -8.558434 -0.551556 913 0.716863 0.697214 0.000000
-8.850118 -8.558089 -0.547750 913 0.716863 0.697214 0.000000
-8.849083 -8.557089 -0.543899 893 0.716863 0.697214 0.000000
-8.848670 -8.556700 -0.540083 897 0.716863 0.697214 0.000000
-8.848941 -8.556961 -0.536310 901 0.716863 0.697214 0.000000
-8.849164 -8.557169 -0.532538 901 0.716863 0.697214 0.000000
-8.848851 -8.556877 -0.528731 905 0.716863 0.697214 0.000000
-8.849067 -8.557079 -0.524959 907 0.716863 0.697214 0.000000
-8.849865 -8.557847 -0.521221 909 0.716863 0.697214 0.000000
-8.849514 -8.557509 -0.517414 891 0.716863 0.697214 0.000000
-8.848621 -8.556652 -0.513573 893 0.716863 0.697214 0.000000
-8.848518 -8.556548 -0.509784 899 0.716863 0.697214 0.000000
-8.848842 -8.556868 -0.506011 899 0.716863 0.697214 0.000000
-8.848684 -8.556705 -0.502222 889 0.716863 0.697214 0.000000
-8.849522 -8.557519 -0.498474 911 0.716863 0.697214 0.000000
-8.849264 -8.557272 -0.494676 901 0.716863 0.697214 0.000000
-8.848688 -8.556706 -0.490862 899 0.716863 0.697214 0.000000
-8.848958 -8.556968 -0.487089 909 0.716863 0.697214 0.000000
-8.849058 -8.557073 -0.483308 893 0.716863 0.697214 0.000000
-8.849841 -8.557828 -0.479560 895 0.716863 0.697214 0.000000
-8.849054 -8.557060 -0.475738 895 0.716863 0.697214 0.000000
-8.848889 -8.556905 -0.471939 901 0.716863 0.697214 0.000000
-8.849099 -8.557115 -0.468167 897 0.716863 0.697214 0.000000
-8.848670 -8.556699 -0.464361 895 0.716863 0.697214 0.000000
-8.849189 -8.557193 -0.460596 895 0.716863 0.697214 0.000000
-8.849289 -8.557298 -0.456825 897 0.716863 0.697214 0.000000
-8.848812 -8.556830 -0.453010 871 0.716863 0.697214 0.000000
-8.848858 -8.556877 -0.449229 881 0.716863 0.697214 0.000000
-8.849214 -8.557222 -0.445466 895 0.716863 0.697214 0.000000
-8.850098 -8.558074 -0.441717 885 0.716863 0.697214 0.000000
-8.850872 -8.558824 -0.437970 913 0.716863 0.697214 0.000000
-8.849808 -8.557796 -0.434140 885 0.716863 0.697214 0.000000
-8.848585 -8.556613 -0.430291 881 0.716863 0.697214 0.000000
-8.848266 -8.556301 -0.426494 875 0.716863 0.697214 0.000000
-8.848303 -8.556341 -0.422714 873 0.716863 0.697214 0.000000
-8.848604 -8.556627 -0.418941 875 0.716863 0.697214 0.000000
-8.848796 -8.556809 -0.415169 885 0.716863 0.697214 0.000000
-8.847887 -8.555940 -0.411337 873 0.716863 0.697214 0.000000
-8.847396 -8.555459 -0.407532 879 0.716863 0.697214 0.000000
-8.848001 -8.556052 -0.403776 883 0.716863 0.697214 0.000000
-8.848775 -8.556800 -0.400029 885 0.716863 0.697214 0.000000
-8.849124 -8.557139 -0.396255 875 0.716863 0.697214 0.000000
-8.849051 -8.557061 -0.392476 873 0.716863 0.697214 0.000000
-8.848453 -8.556490 -0.388662 861 0.716863 0.697214 0.000000
-8.847588 -8.555644 -0.384840 865 0.716863 0.697214 0.000000
-8.848774 -8.556789 -0.381108 871 0.716863 0.697214 0.000000
-8.849643 -8.557630 -0.377360 857 0.716863 0.697214 0.000000
-8.849145 -8.557156 -0.373555 893 0.716863 0.697214 0.000000
-8.848747 -8.556766 -0.369758 867 0.716863 0.697214 0.000000
-8.849413 -8.557410 -0.366002 869 0.716863 0.697214 0.000000
-8.849219 -8.557230 -0.362204 877 0.716863 0.697214 0.000000
-8.847881 -8.555936 -0.358376 871 0.716863 0.697214 0.000000
-8.847747 -8.555806 -0.354587 853 0.716863 0.697214 0.000000
-8.848351 -8.556385 -0.350822 861 0.716863 0.697214 0.000000
-8.847682 -8.555742 -0.347018 867 0.716863 0.697214 0.000000
-8.847028 -8.555099 -0.343214 845 0.716863 0.697214 0.000000
-8.847989 -8.556028 -0.339465 873 0.716863 0.697214 0.000000
-8.849216 -8.557220 -0.335723 859 0.716863 0.697214 0.000000
-8.850441 -8.558412 -0.331991 879 0.716863 0.697214 0.000000
-8.850089 -8.558060 -0.328195 875 0.716863 0.697214 0.000000
-8.849156 -8.557170 -0.324373 857 0.716863 0.697214 0.000000
-8.848541 -8.556572 -0.320569 877 0.716863 0.697214 0.000000
-8.848190 -8.556234 -0.316772 865 0.716863 0.697214 0.000000
-8.848049 -8.556099 -0.312994 869 0.716863 0.697214 0.000000
-8.847643 -8.555703 -0.309197 853 0.716863 0.697214 0.000000
-8.852043 -8.554722 -0.687921 867 0.716863 0.697214 0.000000
-8.852974 -8.555627 -0.684202 883 0.716863 0.697214 0.000000
-8.852281 -8.554951 -0.680359 877 0.716863 0.697214 0.000000
-8.852007 -8.554691 -0.676551 881 0.716863 0.697214 0.000000
-8.852364 -8.555037 -0.672787 883 0.716863 0.697214 0.000000
-8.852144 -8.554823 -0.668980 885 0.716863 0.697214 0.000000
-8.852547 -8.555206 -0.665216 905 0.716863 0.697214 0.000000
-8.853011 -8.555656 -0.661451 901 0.716863 0.697214 0.000000
-8.852994 -8.555637 -0.657661 907 0.716863 0.697214 0.000000
-8.852605 -8.555267 -0.653845 899 0.716863 0.697214 0.000000
-8.851911 -8.554590 -0.650001 877 0.716863 0.697214 0.000000
-8.851055 -8.553765 -0.646149 875 0.716863 0.697214 0.000000
-8.851146 -8.553850 -0.642368 869 0.716863 0.697214 0.000000
-8.851861 -8.554547 -0.638632 875 0.716863 0.697214 0.000000
-8.852371 -8.555035 -0.634877 875 0.716863 0.697214 0.000000
-8.851872 -8.554562 -0.631051 883 0.716863 0.697214 0.000000
-8.851429 -8.554133 -0.627225 887 0.716863 0.697214 0.000000
-8.851674 -8.554360 -0.623453 907 0.716863 0.697214 0.000000
-8.850911 -8.553626 -0.619610 865 0.716863 0.697214 0.000000
-8.850576 -8.553302 -0.615803 851 0.716863 0.697214 0.000000
-8.850970 -8.553679 -0.612039 867 0.716863 0.697214 0.000000
-8.851886 -8.554571 -0.608311 885 0.716863 0.697214 0.000000
-8.851760 -8.554448 -0.604512 871 0.716863 0.697214 0.000000
-8.851727 -8.554416 -0.600722 877 0.716863 0.697214 0.000000
-8.852339 -8.555002 -0.596976 883 0.716863 0.697214 0.000000
-8.852096 -8.554769 -0.593168 871 0.716863 0.697214 0.000000
-8.851902 -8.554587 -0.589370 867 0.716863 0.697214 0.000000
-8.851402 -8.554099 -0.585545 895 0.716863 0.697214 0.000000
-8.851160 -8.553866 -0.581747 883 0.716863 0.697214 0.000000
-8.851656 -8.554341 -0.577982 885 0.716863 0.697214 0.000000
-8.851304 -8.554004 -0.574175 889 0.716863 0.697214 0.000000
-8.851380 -8.554076 -0.570394 877 0.716863 0.697214 0.000000
-8.851759 -8.554440 -0.566631 893 0.716863 0.697214 0.000000
-8.851098 -8.553804 -0.562797 889 0.716863 0.697214 0.000000
-8.851105 -8.553819 -0.559007 895 0.716863 0.697214 0.000000
-8.851282 -8.553988 -0.555235 899 0.716863 0.697214 0.000000
-8.851824 -8.554502 -0.551480 915 0.716863 0.697214 0.000000
-8.851898 -8.554574 -0.547699 899 0.716863 0.697214 0.000000
-8.851541 -8.554230 -0.543892 887 0.716863 0.697214 0.000000
-8.851384 -8.554081 -0.540094 883 0.716863 0.697214 0.000000
-8.851927 -8.554609 -0.536339 893 0.716863 0.697214 0.000000
-8.851730 -8.554414 -0.532540 901 0.716863 0.697214 0.000000
-8.851472 -8.554168 -0.528733 895 0.716863 0.697214 0.000000
-8.851843 -8.554526 -0.524969 887 0.716863 0.697214 0.000000
-8.851965 -8.554636 -0.521188 901 0.716863 0.697214 0.000000
-8.851071 -8.553779 -0.517356 881 0.716863 0.697214 0.000000
-8.850238 -8.552973 -0.513514 877 0.716863 0.697214 0.000000
-8.850448 -8.553183 -0.509742 885 0.716863 0.697214 0.000000
-8.850826 -8.553547 -0.505978 883 0.716863 0.697214 0.000000
-8.850521 -8.553247 -0.502181 881 0.716863 0.697214 0.000000
-8.851359 -8.554062 -0.498433 901 0.716863 0.697214 0.000000
-8.851994 -8.554667 -0.494687 897 0.716863 0.697214 0.000000
-8.851885 -8.554570 -0.490898 903 0.716863 0.697214 0.000000
-8.852044 -8.554712 -0.487116 911 0.716863 0.697214 0.000000
-8.851990 -8.554662 -0.483327 889 0.716863 0.697214 0.000000
-8.852408 -8.555073 -0.479563 907 0.716863 0.697214 0.000000
-8.851830 -8.554506 -0.475748 891 0.716863 0.697214 0.000000
-8.851300 -8.553993 -0.471933 889 0.716863 0.697214 0.000000
-8.851354 -8.554046 -0.468152 901 0.716863 0.697214 0.000000
-8.851399 -8.554092 -0.464372 897 0.716863 0.697214 0.000000
-8.851755 -8.554438 -0.460598 885 0.716863 0.697214 0.000000
-8.852484 -8.555147 -0.456851 897 0.716863 0.697214 0.000000
-8.851852 -8.554537 -0.453037 879 0.716863 0.697214 0.000000
-8.851369 -8.554062 -0.449222 883 0.716863 0.697214 0.000000
-8.851151 -8.553848 -0.445434 881 0.716863 0.697214 0.000000
-8.851195 -8.553894 -0.441643 881 0.716863 0.697214 0.000000
-8.851809 -8.554494 -0.437887 877 0.716863 0.697214 0.000000
-8.852172 -8.554846 -0.434124 877 0.716863 0.697214 0.000000
-8.852365 -8.555028 -0.430352 885 0.716863 0.697214 0.000000
-8.851617 -8.554307 -0.426529 879 0.716863 0.697214 0.000000
-8.850862 -8.553579 -0.422706 881 0.716863 0.697214 0.000000
-8.850906 -8.553612 -0.418926 879 0.716863 0.697214 0.000000
-8.851100 -8.553809 -0.415154 883 0.716863 0.697214 0.000000
-8.851034 -8.553737 -0.411364 877 0.716863 0.697214 0.000000
-8.851065 -8.553771 -0.407584 879 0.716863 0.697214 0.000000
-8.850986 -8.553700 -0.403794 891 0.716863 0.697214 0.000000
-8.850922 -8.553628 -0.400005 885 0.716863 0.697214 0.000000
-8.851161 -8.553864 -0.396233 875 0.716863 0.697214 0.000000
-8.851671 -8.554351 -0.392478 867 0.716863 0.697214 0.000000
-8.851803 -8.554482 -0.388696 883 0.716863 0.697214 0.000000
-8.851149 -8.553852 -0.384882 883 0.716863 0.697214 0.000000
-8.851233 -8.553931 -0.381101 885 0.716863 0.697214 0.000000
-8.851417 -8.554107 -0.377330 883 0.716863 0.697214 0.000000
-8.851921 -8.554603 -0.373565 899 0.716863 0.697214 0.000000
-8.852471 -8.555136 -0.369799 903 0.716863 0.697214 0.000000
-8.852492 -8.555149 -0.366019 891 0.716863 0.697214 0.000000
-8.852204 -8.554877 -0.362222 881 0.716863 0.697214 0.000000
-8.851440 -8.554130 -0.358409 875 0.716863 0.697214 0.000000
-8.852100 -8.554768 -0.354653 883 0.716863 0.697214 0.000000
-8.852649 -8.555301 -0.350887 885 0.716863 0.697214 0.000000
-8.851087 -8.553793 -0.347052 873 0.716863 0.697214 0.000000
-8.850325 -8.553059 -0.343239 841 0.716863 0.697214 0.000000
-8.850975 -8.553677 -0.339483 839 0.716863 0.697214 0.000000
-8.850936 -8.553652 -0.335693 837 0.716863 0.697214 0.000000
-8.851274 -8.553970 -0.331920 863 0.716863 0.697214 0.000000
-8.851452 -8.554140 -0.328148 853 0.716863 0.697214 0.000000
-8.851411 -8.554102 -0.324368 861 0.716863 0.697214 0.000000
-8.851060 -8.553764 -0.320572 855 0.716863 0.697214 0.000000
-8.851338 -8.554031 -0.316799 849 0.716863 0.697214 0.000000
-8.851353 -8.554052 -0.313019 847 0.716863 0.697214 0.000000
-8.850839 -8.553552 -0.309214 863 0.716863 0.697214 0.000000
-8.854079 -8.551665 -0.687887 867 0.716863 0.697214 0.000000
-8.854700 -8.552272 -0.684151 879 0.716863 0.697214 0.000000
-8.854635 -8.552200 -0.680352 873 0.716863 0.697214 0.000000
-8.854781 -8.552343 -0.676570 875 0.716863 0.697214 0.000000
-8.855394 -8.552943 -0.672824 869 0.716863 0.697214 0.000000
-8.855601 -8.553139 -0.669042 889 0.716863 0.697214 0.000000
-8.854746 -8.552314 -0.665190 903 0.716863 0.697214 0.000000
-8.854371 -8.551942 -0.661374 893 0.716863 0.697214 0.000000
-8.854719 -8.552280 -0.657610 905 0.716863 0.697214 0.000000
-8.854600 -8.552165 -0.653811 895 0.716863 0.697214 0.000000
-8.854948 -8.552503 -0.650038 887 0.716863 0.697214 0.000000
-8.855087 -8.552641 -0.646257 871 0.716863 0.697214 0.000000
-8.855489 -8.553025 -0.642503 885 0.716863 0.697214 0.000000
-8.855472 -8.553005 -0.638703 899 0.716863 0.697214 0.000000
-8.854406 -8.551979 -0.634843 879 0.716863 0.697214 0.000000
-8.854801 -8.552371 -0.631079 883 0.716863 0.697214 0.000000
-8.854621 -8.552189 -0.627280 879 0.716863 0.697214 0.000000
-8.854495 -8.552066 -0.623482 891 0.716863 0.697214 0.000000
-8.854159 -8.551741 -0.619665 873 0.716863 0.697214 0.000000
-8.853762 -8.551365 -0.615848 867 0.716863 0.697214 0.000000
-8.854109 -8.551690 -0.612085 887 0.716863 0.697214 0.000000
-8.854139 -8.551724 -0.608295 877 0.716863 0.697214 0.000000
-8.854154 -8.551744 -0.604504 875 0.716863 0.697214 0.000000
-8.854190 -8.551769 -0.600724 879 0.716863 0.697214 0.000000
-8.854523 -8.552096 -0.596951 889 0.716863 0.697214 0.000000
-8.853861 -8.551459 -0.593127 881 0.716863 0.697214 0.000000
-8.853416 -8.551030 -0.589301 867 0.716863 0.697214 0.000000
-8.854277 -8.551849 -0.585573 889 0.716863 0.697214 0.000000
-8.854455 -8.552033 -0.581791 893 0.716863 0.697214 0.000000
-8.853481 -8.551084 -0.577940 899 0.716863 0.697214 0.000000
-8.852968 -8.550598 -0.574125 889 0.716863 0.697214 0.000000
-8.853681 -8.551280 -0.570378 887 0.716863 0.697214 0.000000
-8.853850 -8.551444 -0.566606 879 0.716863 0.697214 0.000000
-8.853769 -8.551359 -0.562807 885 0.716863 0.697214 0.000000
-8.853886 -8.551477 -0.559026 889 0.716863 0.697214 0.000000
-8.854164 -8.551744 -0.555263 875 0.716863 0.697214 0.000000
-8.854014 -8.551602 -0.551464 891 0.716863 0.697214 0.000000
-8.853508 -8.551108 -0.547639 885 0.716863 0.697214 0.000000
-8.853467 -8.551070 -0.543849 887 0.716863 0.697214 0.000000
-8.853637 -8.551233 -0.540078 897 0.716863 0.697214 0.000000
-8.853488 -8.551090 -0.536279 887 0.716863 0.697214 0.000000
-8.853184 -8.550805 -0.532482 873 0.716863 0.697214 0.000000
-8.853873 -8.551470 -0.528735 887 0.716863 0.697214 0.000000
-8.853468 -8.551073 -0.524919 885 0.716863 0.697214 0.000000
-8.853419 -8.551028 -0.521129 905 0.716863 0.697214 0.000000
-8.853798 -8.551392 -0.517366 889 0.716863 0.697214 0.000000
-8.853805 -8.551393 -0.513576 887 0.716863 0.697214 0.000000
-8.854114 -8.551701 -0.509813 881 0.716863 0.697214 0.000000
-8.854127 -8.551705 -0.506022 881 0.716863 0.697214 0.000000
-8.854180 -8.551759 -0.502242 897 0.716863 0.697214 0.000000
-8.853395 -8.551006 -0.498409 885 0.716863 0.697214 0.000000
-8.853549 -8.551156 -0.494637 901 0.716863 0.697214 0.000000
-8.853197 -8.550804 -0.490831 881 0.716863 0.697214 0.000000
-8.852761 -8.550397 -0.487025 869 0.716863 0.697214 0.000000
-8.853559 -8.551165 -0.483277 885 0.716863 0.697214 0.000000
-8.853347 -8.550956 -0.479479 893 0.716863 0.697214 0.000000
-8.853027 -8.550645 -0.475682 887 0.716863 0.697214 0.000000
-8.854074 -8.551660 -0.471952 893 0.716863 0.697214 0.000000
-8.854648 -8.552214 -0.468197 913 0.716863 0.697214 0.000000
-8.854219 -8.551798 -0.464381 891 0.716863 0.697214 0.000000
-8.853223 -8.550829 -0.460550 893 0.716863 0.697214 0.000000
-8.853796 -8.551382 -0.456794 891 0.716863 0.697214 0.000000
-8.854618 -8.552183 -0.453047 877 0.716863 0.697214 0.000000
-8.853987 -8.551572 -0.449232 883 0.716863 0.697214 0.000000
-8.853924 -8.551515 -0.445443 887 0.716863 0.697214 0.000000
-8.854171 -8.551756 -0.441670 891 0.716863 0.697214 0.000000
-8.854271 -8.551847 -0.437889 863 0.716863 0.697214 0.000000
-8.853998 -8.551588 -0.434092 889 0.716863 0.697214 0.000000
-8.853770 -8.551368 -0.430294 881 0.716863 0.697214 0.000000
-8.854180 -8.551758 -0.426530 877 0.716863 0.697214 0.000000
-8.853961 -8.551544 -0.422742 887 0.716863 0.697214 0.000000
-8.854410 -8.551981 -0.418978 889 0.716863 0.697214 0.000000
-8.855131 -8.552684 -0.415221 893 0.716863 0.697214 0.000000
-8.854688 -8.552256 -0.411415 879 0.716863 0.697214 0.000000
-8.854468 -8.552042 -0.407627 895 0.716863 0.697214 0.000000
-8.854240 -8.551821 -0.403829 885 0.716863 0.697214 0.000000
-8.854425 -8.551996 -0.400057 891 0.716863 0.697214 0.000000
-8.854936 -8.552485 -0.396292 889 0.716863 0.697214 0.000000
-8.854338 -8.551914 -0.392478 881 0.716863 0.697214 0.000000
-8.853257 -8.550874 -0.388648 881 0.716863 0.697214 0.000000
-8.852928 -8.550555 -0.384851 869 0.716863 0.697214 0.000000
-8.853268 -8.550874 -0.381088 893 0.716863 0.697214 0.000000
-8.853616 -8.551214 -0.377314 889 0.716863 0.697214 0.000000
-8.854011 -8.551591 -0.373550 885 0.716863 0.697214 0.000000
-8.854351 -8.551924 -0.369777 875 0.716863 0.697214 0.000000
-8.853642 -8.551233 -0.365964 885 0.716863 0.697214 0.000000
-8.852771 -8.550396 -0.362152 873 0.716863 0.697214 0.000000
-8.853010 -8.550631 -0.358379 857 0.716863 0.697214 0.000000
-8.853444 -8.551055 -0.354615 871 0.716863 0.697214 0.000000
-8.853412 -8.551023 -0.350826 869 0.716863 0.697214 0.000000
-8.853388 -8.550998 -0.347046 879 0.716863 0.697214 0.000000
-8.853781 -8.551374 -0.343272 869 0.716863 0.697214 0.000000
-8.853539 -8.551141 -0.339484 867 0.716863 0.697214 0.000000
-8.853289 -8.550901 -0.335686 857 0.716863 0.697214 0.000000
-8.853776 -8.551371 -0.331922 857 0.716863 0.697214 0.000000
-8.853751 -8.551345 -0.328142 847 0.716863 0.697214 0.000000
-8.853765 -8.551351 -0.324362 853 0.716863 0.697214 0.000000
-8.854097 -8.551678 -0.320588 865 0.716863 0.697214 0.000000
-8.853483 -8.551080 -0.316784 841 0.716863 0.697214 0.000000
-8.852440 -8.550073 -0.312964 839 0.716863 0.697214 0.000000
-8.852773 -8.550398 -0.309201 859 0.716863 0.697214 0.000000
-8.857162 -8.549617 -0.687933 875 0.716863 0.697214 0.000000
-8.856790 -8.549261 -0.684117 867 0.716863 0.697214 0.000000
-8.856833 -8.549307 -0.680326 871 0.716863 0.697214 0.000000
-8.857710 -8.550153 -0.676598 885 0.716863 0.697214 0.000000
-8.857544 -8.549984 -0.672799 885 0.716863 0.697214 0.000000
-8.857372 -8.549823 -0.668991 889 0.716863 0.697214 0.000000
-8.857263 -8.549712 -0.665192 893 0.716863 0.697214 0.000000
-8.857346 -8.549790 -0.661411 877 0.716863 0.697214 0.000000
-8.858168 -8.550591 -0.657673 881 0.716863 0.697214 0.000000
-8.857631 -8.550072 -0.653848 867 0.716863 0.697214 0.000000
-8.857147 -8.549610 -0.650023 877 0.716863 0.697214 0.000000
-8.858178 -8.550600 -0.646303 881 0.716863 0.697214 0.000000
-8.858209 -8.550633 -0.642512 861 0.716863 0.697214 0.000000
-8.857982 -8.550411 -0.638704 877 0.716863 0.697214 0.000000
-8.857755 -8.550191 -0.634906 871 0.716863 0.697214 0.000000
-8.857208 -8.549664 -0.631072 859 0.716863 0.697214 0.000000
-8.857449 -8.549900 -0.627299 883 0.716863 0.697214 0.000000
-8.857368 -8.549815 -0.623510 871 0.716863 0.697214 0.000000
-8.856506 -8.548985 -0.619658 863 0.716863 0.697214 0.000000
-8.856069 -8.548561 -0.615832 879 0.716863 0.697214 0.000000
-8.856930 -8.549396 -0.612104 889 0.716863 0.697214 0.000000
-8.857121 -8.549578 -0.608332 863 0.716863 0.697214 0.000000
-8.856569 -8.549045 -0.604507 869 0.716863 0.697214 0.000000
-8.856801 -8.549273 -0.600725 877 0.716863 0.697214 0.000000
-8.857723 -8.550159 -0.596996 865 0.716863 0.697214 0.000000
-8.857799 -8.550230 -0.593215 875 0.716863 0.697214 0.000000
-8.856609 -8.549087 -0.589346 867 0.716863 0.697214 0.000000
-8.856218 -8.548702 -0.585540 861 0.716863 0.697214 0.000000
-8.856342 -8.548827 -0.581759 887 0.716863 0.697214 0.000000
-8.856931 -8.549394 -0.578003 891 0.716863 0.697214 0.000000
-8.857162 -8.549622 -0.574231 881 0.716863 0.697214 0.000000
-8.856710 -8.549187 -0.570415 885 0.716863 0.697214 0.000000
-8.857150 -8.549603 -0.566651 899 0.716863 0.697214 0.000000
-8.857327 -8.549772 -0.562879 899 0.716863 0.697214 0.000000
-8.857078 -8.549533 -0.559071 895 0.716863 0.697214 0.000000
-8.856673 -8.549150 -0.555265 897 0.716863 0.697214 0.000000
-8.857106 -8.549560 -0.551501 909 0.716863 0.697214 0.000000
-8.857175 -8.549625 -0.547720 917 0.716863 0.697214 0.000000
-8.857398 -8.549848 -0.543938 911 0.716863 0.697214 0.000000
-8.857093 -8.549549 -0.540130 883 0.716863 0.697214 0.000000
-8.856269 -8.548750 -0.536298 885 0.716863 0.697214 0.000000
-8.855901 -8.548398 -0.532492 875 0.716863 0.697214 0.000000
-8.856227 -8.548719 -0.528718 865 0.716863 0.697214 0.000000
-8.855976 -8.548465 -0.524921 887 0.716863 0.697214 0.000000
-8.855928 -8.548420 -0.521131 883 0.716863 0.697214 0.000000
-8.856930 -8.549397 -0.517402 895 0.716863 0.697214 0.000000
-8.856516 -8.548994 -0.513595 889 0.716863 0.697214 0.000000
-8.856212 -8.548695 -0.509788 873 0.716863 0.697214 0.000000
-8.857057 -8.549516 -0.506050 899 0.716863 0.697214 0.000000
-8.857211 -8.549666 -0.502268 901 0.716863 0.697214 0.000000
-8.857224 -8.549673 -0.498488 887 0.716863 0.697214 0.000000
-8.857121 -8.549569 -0.494689 887 0.716863 0.697214 0.000000
-8.856855 -8.549315 -0.490892 881 0.716863 0.697214 0.000000
-8.856956 -8.549420 -0.487111 873 0.716863 0.697214 0.000000
-8.856806 -8.549264 -0.483322 895 0.716863 0.697214 0.000000
-8.856011 -8.548505 -0.479489 863 0.716863 0.697214 0.000000
-8.856429 -8.548902 -0.475725 861 0.716863 0.697214 0.000000
-8.857058 -8.549514 -0.471979 871 0.716863 0.697214 0.000000
-8.857265 -8.549709 -0.468197 883 0.716863 0.697214 0.000000
-8.856154 -8.548644 -0.464358 893 0.716863 0.697214 0.000000
-8.855306 -8.547826 -0.460526 877 0.716863 0.697214 0.000000
-8.855932 -8.548424 -0.456780 873 0.716863 0.697214 0.000000
-8.856924 -8.549379 -0.453040 867 0.716863 0.697214 0.000000
-8.857180 -8.549628 -0.449268 885 0.716863 0.697214 0.000000
-8.856372 -8.548856 -0.445445 905 0.716863 0.697214 0.000000
-8.856632 -8.549095 -0.441673 889 0.716863 0.697214 0.000000
-8.857253 -8.549701 -0.437917 873 0.716863 0.697214 0.000000
-8.857453 -8.549891 -0.434145 887 0.716863 0.697214 0.000000
-8.857064 -8.549520 -0.430338 903 0.716863 0.697214 0.000000
-8.857162 -8.549612 -0.426557 901 0.716863 0.697214 0.000000
-8.857728 -8.550159 -0.422802 905 0.716863 0.697214 0.000000
-8.857975 -8.550400 -0.419019 903 0.716863 0.697214 0.000000
-8.857383 -8.549821 -0.415215 887 0.716863 0.697214 0.000000
-8.855938 -8.548439 -0.411358 859 0.716863 0.697214 0.000000
-8.855454 -8.547963 -0.407553 861 0.716863 0.697214 0.000000
-8.856120 -8.548608 -0.403807 869 0.716863 0.697214 0.000000
-8.856570 -8.549045 -0.400042 853 0.716863 0.697214 0.000000
-8.856815 -8.549272 -0.396270 865 0.716863 0.697214 0.000000
-8.855899 -8.548396 -0.392438 857 0.716863 0.697214 0.000000
-8.854980 -8.547504 -0.388617 851 0.716863 0.697214 0.000000
-8.855119 -8.547642 -0.384845 875 0.716863 0.697214 0.000000
-8.855669 -8.548176 -0.381080 879 0.716863 0.697214 0.000000
-8.856179 -8.548665 -0.377315 889 0.716863 0.697214 0.000000
-8.855789 -8.548281 -0.373519 867 0.716863 0.697214 0.000000
-8.856448 -8.548919 -0.369763 887 0.716863 0.697214 0.000000
-8.857100 -8.549551 -0.366006 885 0.716863 0.697214 0.000000
-8.856602 -8.549077 -0.362201 849 0.716863 0.697214 0.000000
-8.856461 -8.548942 -0.358412 843 0.716863 0.697214 0.000000
-8.856698 -8.549162 -0.354640 861 0.716863 0.697214 0.000000
-8.856193 -8.548682 -0.350835 867 0.716863 0.697214 0.000000
-8.855903 -8.548395 -0.347047 857 0.716863 0.697214 0.000000
-8.856344 -8.548825 -0.343273 843 0.716863 0.697214 0.000000
-8.856095 -8.548586 -0.339485 837 0.716863 0.697214 0.000000
-8.855277 -8.547793 -0.335673 849 0.716863 0.697214 0.000000
-8.855974 -8.548463 -0.331916 859 0.716863 0.697214 0.000000
-8.856834 -8.549296 -0.328168 849 0.716863 0.697214 0.000000
-8.856437 -8.548905 -0.324372 851 0.716863 0.697214 0.000000
-8.855877 -8.548368 -0.320567 843 0.716863 0.697214 0.000000
-8.855728 -8.548224 -0.316778 829 0.716863 0.697214 0.000000
-8.856162 -8.548649 -0.313014 855 0.716863 0.697214 0.000000
-8.855235 -8.547752 -0.309193 851 0.716863 0.697214 0.000000
-8.860301 -8.547627 -0.687989 861 0.716863 0.697214 0.000000
-8.860137 -8.547473 -0.684180 873 0.716863 0.697214 0.000000
-8.860236 -8.547564 -0.680399 867 0.716863 0.697214 0.000000
-8.861321 -8.548612 -0.676689 869 0.716863 0.697214 0.000000
-8.861157 -8.548456 -0.672881 875 0.716863 0.697214 0.000000
-8.860829 -8.548138 -0.669064 871 0.716863 0.697214 0.000000
-8.860765 -8.548080 -0.665264 869 0.716863 0.697214 0.000000
-8.860538 -8.547860 -0.661456 869 0.716863 0.697214 0.000000
-8.860149 -8.547490 -0.657640 869 0.716863 0.697214 0.000000
-8.859821 -8.547172 -0.653823 859 0.716863 0.697214 0.000000
-8.859812 -8.547159 -0.650033 883 0.716863 0.697214 0.000000
-8.859577 -8.546931 -0.646225 859 0.716863 0.697214 0.000000
-8.860197 -8.547523 -0.642479 857 0.716863 0.697214 0.000000
-8.861120 -8.548423 -0.638760 871 0.716863 0.697214 0.000000
-8.861568 -8.548859 -0.634996 895 0.716863 0.697214 0.000000
-8.861077 -8.548378 -0.631170 893 0.716863 0.697214 0.000000
-8.860268 -8.547591 -0.627328 897 0.716863 0.697214 0.000000
-8.860244 -8.547580 -0.623528 889 0.716863 0.697214 0.000000
-8.859753 -8.547099 -0.619713 881 0.716863 0.697214 0.000000
-8.859308 -8.546670 -0.615887 863 0.716863 0.697214 0.000000
-8.860123 -8.547450 -0.612149 885 0.716863 0.697214 0.000000
-8.859685 -8.547029 -0.608333 869 0.716863 0.697214 0.000000
-8.858923 -8.546294 -0.604490 881 0.716863 0.697214 0.000000
-8.859208 -8.546567 -0.600727 875 0.716863 0.697214 0.000000
-8.858337 -8.545730 -0.596875 859 0.716863 0.697214 0.000000
-8.857676 -8.545094 -0.593042 855 0.716863 0.697214 0.000000
-8.858854 -8.546231 -0.589330 879 0.716863 0.697214 0.000000
-8.859249 -8.546609 -0.585567 901 0.716863 0.697214 0.000000
-8.859372 -8.546734 -0.581795 895 0.716863 0.697214 0.000000
-8.859231 -8.546597 -0.577996 885 0.716863 0.697214 0.000000
-8.859361 -8.546715 -0.574215 885 0.716863 0.697214 0.000000
-8.860221 -8.547547 -0.570477 881 0.716863 0.697214 0.000000
-8.860127 -8.547464 -0.566688 877 0.716863 0.697214 0.000000
-8.859045 -8.546412 -0.562828 871 0.716863 0.697214 0.000000
-8.858742 -8.546126 -0.559021 897 0.716863 0.697214 0.000000
-8.858444 -8.545835 -0.555213 889 0.716863 0.697214 0.000000
-8.858403 -8.545795 -0.551424 857 0.716863 0.697214 0.000000
-8.859318 -8.546674 -0.547695 891 0.716863 0.697214 0.000000
-8.859697 -8.547038 -0.543931 893 0.716863 0.697214 0.000000
-8.859278 -8.546643 -0.540115 867 0.716863 0.697214 0.000000
-8.858871 -8.546247 -0.536309 875 0.716863 0.697214 0.000000
-8.858940 -8.546312 -0.532528 869 0.716863 0.697214 0.000000
-8.859785 -8.547132 -0.528790 879 0.716863 0.697214 0.000000
-8.860374 -8.547699 -0.525034 887 0.716863 0.697214 0.000000
-8.860116 -8.547453 -0.521227 877 0.716863 0.697214 0.000000
-8.859236 -8.546594 -0.517395 887 0.716863 0.697214 0.000000
-8.858661 -8.546041 -0.513570 883 0.716863 0.697214 0.000000
-8.858775 -8.546146 -0.509789 885 0.716863 0.697214 0.000000
-8.859667 -8.547019 -0.506061 869 0.716863 0.697214 0.000000
-8.860620 -8.547929 -0.502322 905 0.716863 0.697214 0.000000
-8.860097 -8.547422 -0.498507 899 0.716863 0.697214 0.000000
-8.858885 -8.546259 -0.494658 891 0.716863 0.697214 0.000000
-8.858621 -8.546007 -0.490860 893 0.716863 0.697214 0.000000
-8.858844 -8.546215 -0.487078 875 0.716863 0.697214 0.000000
-8.858204 -8.545598 -0.483264 875 0.716863 0.697214 0.000000
-8.858366 -8.545754 -0.479482 867 0.716863 0.697214 0.000000
-8.858877 -8.546256 -0.475727 879 0.716863 0.697214 0.000000
-8.858565 -8.545951 -0.471920 875 0.716863 0.697214 0.000000
-8.859138 -8.546504 -0.468165 873 0.716863 0.697214 0.000000
-8.859611 -8.546960 -0.464410 879 0.716863 0.697214 0.000000
-8.859391 -8.546745 -0.460612 869 0.716863 0.697214 0.000000
-8.858908 -8.546285 -0.456797 877 0.716863 0.697214 0.000000
-8.858642 -8.546019 -0.452999 881 0.716863 0.697214 0.000000
-8.859480 -8.546832 -0.449261 905 0.716863 0.697214 0.000000
-8.859618 -8.546969 -0.445480 905 0.716863 0.697214 0.000000
-8.858879 -8.546255 -0.441657 873 0.716863 0.697214 0.000000
-8.859072 -8.546437 -0.437885 867 0.716863 0.697214 0.000000
-8.859746 -8.547089 -0.434128 883 0.716863 0.697214 0.000000
-8.859208 -8.546569 -0.430323 887 0.716863 0.697214 0.000000
-8.858252 -8.545647 -0.426492 863 0.716863 0.697214 0.000000
-8.858662 -8.546037 -0.422728 871 0.716863 0.697214 0.000000
-8.859383 -8.546741 -0.418971 899 0.716863 0.697214 0.000000
-8.859730 -8.547065 -0.415208 895 0.716863 0.697214 0.000000
-8.859138 -8.546500 -0.411394 879 0.716863 0.697214 0.000000
-8.858903 -8.546273 -0.407606 867 0.716863 0.697214 0.000000
-8.858832 -8.546209 -0.403816 851 0.716863 0.697214 0.000000
-8.858559 -8.545937 -0.400019 859 0.716863 0.697214 0.000000
-8.858745 -8.546126 -0.396247 865 0.716863 0.697214 0.000000
-8.858462 -8.545847 -0.392449 861 0.716863 0.697214 0.000000
-8.858593 -8.545978 -0.388668 863 0.716863 0.697214 0.000000
-8.858211 -8.545600 -0.384872 873 0.716863 0.697214 0.000000
-8.858341 -8.545731 -0.381090 875 0.716863 0.697214 0.000000
-8.858208 -8.545602 -0.377302 853 0.716863 0.697214 0.000000
-8.858766 -8.546143 -0.373546 855 0.716863 0.697214 0.000000
-8.859525 -8.546878 -0.369789 861 0.716863 0.697214 0.000000
-8.859710 -8.547054 -0.366017 883 0.716863 0.697214 0.000000
-8.859529 -8.546872 -0.362219 873 0.716863 0.697214 0.000000
-8.858915 -8.546288 -0.358414 851 0.716863 0.697214 0.000000
-8.858882 -8.546256 -0.354635 849 0.716863 0.697214 0.000000
-8.858865 -8.546236 -0.350845 857 0.716863 0.697214 0.000000
-8.858825 -8.546199 -0.347065 859 0.716863 0.697214 0.000000
-8.858745 -8.546114 -0.343276 859 0.716863 0.697214 0.000000
-8.858875 -8.546245 -0.339494 859 0.716863 0.697214 0.000000
-8.858361 -8.545745 -0.335699 837 0.716863 0.697214 0.000000
-8.858227 -8.545615 -0.331910 835 0.716863 0.697214 0.000000
-8.858342 -8.545733 -0.328129 825 0.716863 0.697214 0.000000
-8.858676 -8.546060 -0.324356 841 0.716863 0.697214 0.000000
-8.858162 -8.545559 -0.320561 849 0.716863 0.697214 0.000000
-8.856925 -8.544363 -0.316732 829 0.716863 0.697214 0.000000
-8.856884 -8.544325 -0.312953 829 0.716863 0.697214 0.000000
-8.858210 -8.545599 -0.309210 847 0.716863 0.697214 0.000000
-8.862689 -8.544619 -0.687963 873 0.716863 0.697214 0.000000
-8.863107 -8.545015 -0.684209 869 0.716863 0.697214 0.000000
-8.862576 -8.544502 -0.680374 855 0.716863 0.697214 0.000000
-8.862039 -8.543983 -0.676539 845 0.716863 0.697214 0.000000
-8.861975 -8.543924 -0.672750 863 0.716863 0.697214 0.000000
-8.862331 -8.544271 -0.668986 863 0.716863 0.697214 0.000000
-8.862361 -8.544304 -0.665196 855 0.716863 0.697214 0.000000
-8.862670 -8.544597 -0.661423 871 0.716863 0.697214 0.000000
-8.863337 -8.545241 -0.657676 891 0.716863 0.697214 0.000000
-8.862480 -8.544415 -0.653824 867 0.716863 0.697214 0.000000
-8.862043 -8.543993 -0.650008 853 0.716863 0.697214 0.000000
-8.862297 -8.544227 -0.646236 871 0.716863 0.697214 0.000000
-8.862273 -8.544215 -0.642446 865 0.716863 0.697214 0.000000
-8.862737 -8.544650 -0.638682 883 0.716863 0.697214 0.000000
-8.862807 -8.544730 -0.634901 871 0.716863 0.697214 0.000000
-8.863426 -8.545323 -0.631155 881 0.716863 0.697214 0.000000
-8.863354 -8.545244 -0.627356 889 0.716863 0.697214 0.000000
-8.862645 -8.544569 -0.623512 877 0.716863 0.697214 0.000000
-8.862147 -8.544082 -0.619687 877 0.716863 0.697214 0.000000
-8.861865 -8.543817 -0.615879 865 0.716863 0.697214 0.000000
-8.862617 -8.544545 -0.612142 867 0.716863 0.697214 0.000000
-8.863440 -8.545332 -0.608414 875 0.716863 0.697214 0.000000
-8.863469 -8.545365 -0.604624 885 0.716863 0.697214 0.000000
-8.862551 -8.544476 -0.600773 871 0.716863 0.697214 0.000000
-8.861733 -8.543682 -0.596930 849 0.716863 0.697214 0.000000
-8.861856 -8.543806 -0.593149 891 0.716863 0.697214 0.000000
-8.861722 -8.543676 -0.589350 887 0.716863 0.697214 0.000000
-8.862745 -8.544660 -0.585630 883 0.716863 0.697214 0.000000
-8.863552 -8.545447 -0.581893 879 0.716863 0.697214 0.000000
-8.862837 -8.544752 -0.578059 887 0.716863 0.697214 0.000000
-8.862486 -8.544415 -0.574243 887 0.716863 0.697214 0.000000
-8.862724 -8.544635 -0.570470 897 0.716863 0.697214 0.000000
-8.862792 -8.544701 -0.566690 897 0.716863 0.697214 0.000000
-8.862650 -8.544564 -0.562891 889 0.716863 0.697214 0.000000
-8.862300 -8.544228 -0.559084 885 0.716863 0.697214 0.000000
-8.862470 -8.544391 -0.555302 891 0.716863 0.697214 0.000000
-8.862267 -8.544204 -0.551504 889 0.716863 0.697214 0.000000
-8.862288 -8.544216 -0.547714 887 0.716863 0.697214 0.000000
-8.862504 -8.544432 -0.543942 869 0.716863 0.697214 0.000000
-8.862844 -8.544750 -0.540168 875 0.716863 0.697214 0.000000
-8.862695 -8.544608 -0.536380 873 0.716863 0.697214 0.000000
-8.862018 -8.543960 -0.532546 853 0.716863 0.697214 0.000000
-8.861869 -8.543817 -0.528757 849 0.716863 0.697214 0.000000
-8.862823 -8.544741 -0.525018 871 0.716863 0.697214 0.000000
-8.863093 -8.545001 -0.521256 881 0.716863 0.697214 0.000000
-8.862314 -8.544241 -0.517423 895 0.716863 0.697214 0.000000
-8.861894 -8.543846 -0.513607 879 0.716863 0.697214 0.000000
-8.862062 -8.543995 -0.509835 883 0.716863 0.697214 0.000000
-8.862542 -8.544457 -0.506070 879 0.716863 0.697214 0.000000
-8.863279 -8.545174 -0.502323 881 0.716863 0.697214 0.000000
-8.862702 -8.544621 -0.498509 873 0.716863 0.697214 0.000000
-8.862234 -8.544160 -0.494693 873 0.716863 0.697214 0.000000
-8.862706 -8.544616 -0.490939 889 0.716863 0.697214 0.000000
-8.862705 -8.544623 -0.487148 885 0.716863 0.697214 0.000000
-8.862751 -8.544669 -0.483368 887 0.716863 0.697214 0.000000
-8.862858 -8.544767 -0.479587 887 0.716863 0.697214 0.000000
-8.862335 -8.544260 -0.475772 897 0.716863 0.697214 0.000000
-8.861914 -8.543850 -0.471966 887 0.716863 0.697214 0.000000
-8.862169 -8.544098 -0.468193 875 0.716863 0.697214 0.000000
-8.861951 -8.543899 -0.464395 871 0.716863 0.697214 0.000000
-8.861422 -8.543385 -0.460580 867 0.716863 0.697214 0.000000
-8.860783 -8.542768 -0.456766 869 0.716863 0.697214 0.000000
-8.860720 -8.542711 -0.452976 865 0.716863 0.697214 0.000000
-8.861447 -8.543406 -0.449229 875 0.716863 0.697214 0.000000
-8.861546 -8.543497 -0.445448 879 0.716863 0.697214 0.000000
-8.862112 -8.544044 -0.441693 877 0.716863 0.697214 0.000000
-8.862685 -8.544598 -0.437927 877 0.716863 0.697214 0.000000
-8.862203 -8.544137 -0.434122 869 0.716863 0.697214 0.000000
-8.862551 -8.544476 -0.430359 893 0.716863 0.697214 0.000000
-8.862540 -8.544463 -0.426569 877 0.716863 0.697214 0.000000
-8.861685 -8.543638 -0.422747 869 0.716863 0.697214 0.000000
-8.862134 -8.544075 -0.418982 879 0.716863 0.697214 0.000000
-8.863180 -8.545075 -0.415242 897 0.716863 0.697214 0.000000
-8.862527 -8.544446 -0.411428 881 0.716863 0.697214 0.000000
-8.862199 -8.544128 -0.407631 873 0.716863 0.697214 0.000000
-8.861862 -8.543803 -0.403835 873 0.716863 0.697214 0.000000
-8.861054 -8.543031 -0.400012 855 0.716863 0.697214 0.000000
-8.861092 -8.543057 -0.396232 873 0.716863 0.697214 0.000000
-8.861169 -8.543143 -0.392451 865 0.716863 0.697214 0.000000
-8.861152 -8.543124 -0.388661 847 0.716863 0.697214 0.000000
-8.860815 -8.542798 -0.384864 857 0.716863 0.697214 0.000000
-8.860899 -8.542877 -0.381083 859 0.716863 0.697214 0.000000
-8.861131 -8.543105 -0.377311 869 0.716863 0.697214 0.000000
-8.861532 -8.543490 -0.373547 861 0.716863 0.697214 0.000000
-8.861764 -8.543705 -0.369775 839 0.716863 0.697214 0.000000
-8.861375 -8.543336 -0.365978 847 0.716863 0.697214 0.000000
-8.861815 -8.543765 -0.362204 865 0.716863 0.697214 0.000000
-8.862420 -8.544344 -0.358448 867 0.716863 0.697214 0.000000
-8.862550 -8.544461 -0.354667 867 0.716863 0.697214 0.000000
-8.861314 -8.543279 -0.350838 863 0.716863 0.697214 0.000000
-8.860644 -8.542636 -0.347035 843 0.716863 0.697214 0.000000
-8.861559 -8.543514 -0.343286 851 0.716863 0.697214 0.000000
-8.861318 -8.543281 -0.339488 835 0.716863 0.697214 0.000000
-8.861285 -8.543249 -0.335708 839 0.716863 0.697214 0.000000
-8.861461 -8.543418 -0.331927 849 0.716863 0.697214 0.000000
-8.860846 -8.542821 -0.328122 833 0.716863 0.697214 0.000000
-8.860542 -8.542536 -0.324335 835 0.716863 0.697214 0.000000
-8.859778 -8.541788 -0.320522 829 0.716863 0.697214 0.000000
-8.860369 -8.542368 -0.316767 825 0.716863 0.697214 0.000000
-8.861383 -8.543344 -0.313017 839 0.716863 0.697214 0.000000
-8.861404 -8.543356 -0.309237 841 0.716863 0.697214 0.000000
-8.865566 -8.541850 -0.687974 871 0.716863 0.697214 0.000000
-8.865659 -8.541949 -0.684193 859 0.716863 0.697214 0.000000
-8.865448 -8.541741 -0.680385 857 0.716863 0.697214 0.000000
-8.864747 -8.541073 -0.676541 853 0.716863 0.697214 0.000000
-8.864738 -8.541059 -0.672751 877 0.716863 0.697214 0.000000
-8.864829 -8.541144 -0.668961 873 0.716863 0.697214 0.000000
-8.865713 -8.541998 -0.665242 867 0.716863 0.697214 0.000000
-8.866380 -8.542642 -0.661496 855 0.716863 0.697214 0.000000
-8.866518 -8.542779 -0.657714 867 0.716863 0.697214 0.000000
-8.865663 -8.541954 -0.653862 855 0.716863 0.697214 0.000000
-8.865077 -8.541381 -0.650028 853 0.716863 0.697214 0.000000
-8.865426 -8.541720 -0.646264 865 0.716863 0.697214 0.000000
-8.865409 -8.541701 -0.642464 861 0.716863 0.697214 0.000000
-8.865121 -8.541430 -0.638657 849 0.716863 0.697214 0.000000
-8.865054 -8.541357 -0.634868 841 0.716863 0.697214 0.000000
-8.864820 -8.541131 -0.631060 863 0.716863 0.697214 0.000000
-8.864167 -8.540501 -0.627226 851 0.716863 0.697214 0.000000
-8.864515 -8.540840 -0.623452 867 0.716863 0.697214 0.000000
-8.864280 -8.540612 -0.619655 877 0.716863 0.697214 0.000000
-8.863308 -8.539677 -0.615794 851 0.716863 0.697214 0.000000
-8.864813 -8.541128 -0.612109 861 0.716863 0.697214 0.000000
-8.865674 -8.541961 -0.608381 871 0.716863 0.697214 0.000000
-8.864803 -8.541123 -0.604529 867 0.716863 0.697214 0.000000
-8.864412 -8.540738 -0.600713 867 0.716863 0.697214 0.000000
-8.864543 -8.540870 -0.596932 877 0.716863 0.697214 0.000000
-8.865675 -8.541956 -0.593221 875 0.716863 0.697214 0.000000
-8.865433 -8.541723 -0.589413 875 0.716863 0.697214 0.000000
-8.864723 -8.541033 -0.585580 879 0.716863 0.697214 0.000000
-8.864901 -8.541203 -0.581798 865 0.716863 0.697214 0.000000
-8.865025 -8.541327 -0.578017 855 0.716863 0.697214 0.000000
-8.865201 -8.541496 -0.574245 881 0.716863 0.697214 0.000000
-8.865215 -8.541517 -0.570455 875 0.716863 0.697214 0.000000
-8.866022 -8.542293 -0.566717 885 0.716863 0.697214 0.000000
-8.866261 -8.542513 -0.562945 887 0.716863 0.697214 0.000000
-8.864589 -8.540901 -0.559050 861 0.716863 0.697214 0.000000
-8.864813 -8.541122 -0.555278 863 0.716863 0.697214 0.000000
-8.865300 -8.541591 -0.551523 869 0.716863 0.697214 0.000000
-8.864996 -8.541306 -0.547716 871 0.716863 0.697214 0.000000
-8.865429 -8.541716 -0.543952 875 0.716863 0.697214 0.000000
-8.865653 -8.541938 -0.540180 883 0.716863 0.697214 0.000000
-8.865131 -8.541431 -0.536365 863 0.716863 0.697214 0.000000
-8.864524 -8.540840 -0.532540 845 0.716863 0.697214 0.000000
-8.865003 -8.541302 -0.528776 871 0.716863 0.697214 0.000000
-8.865064 -8.541362 -0.524995 871 0.716863 0.697214 0.000000
-8.864853 -8.541167 -0.521197 877 0.716863 0.697214 0.000000
-8.864610 -8.540920 -0.517389 875 0.716863 0.697214 0.000000
-8.864562 -8.540875 -0.513599 887 0.716863 0.697214 0.000000
-8.864981 -8.541286 -0.509845 861 0.716863 0.697214 0.000000
-8.865514 -8.541793 -0.506080 859 0.716863 0.697214 0.000000
-8.864837 -8.541144 -0.502257 877 0.716863 0.697214 0.000000
-8.864315 -8.540637 -0.498441 879 0.716863 0.697214 0.000000
-8.864895 -8.541196 -0.494686 869 0.716863 0.697214 0.000000
-8.864732 -8.541041 -0.490897 857 0.716863 0.697214 0.000000
-8.863790 -8.540132 -0.487056 857 0.716863 0.697214 0.000000
-8.864208 -8.540543 -0.483292 871 0.716863 0.697214 0.000000
-8.865472 -8.541752 -0.479580 895 0.716863 0.697214 0.000000
-8.865464 -8.541754 -0.475790 877 0.716863 0.697214 0.000000
-8.864676 -8.540986 -0.471967 863 0.716863 0.697214 0.000000
-8.864404 -8.540727 -0.468160 871 0.716863 0.697214 0.000000
-8.864558 -8.540877 -0.464388 865 0.716863 0.697214 0.000000
-8.865185 -8.541475 -0.460632 871 0.716863 0.697214 0.000000
-8.865697 -8.541977 -0.456877 889 0.716863 0.697214 0.000000
-8.865018 -8.541313 -0.453054 887 0.716863 0.697214 0.000000
-8.865366 -8.541653 -0.449290 877 0.716863 0.697214 0.000000
-8.865303 -8.541595 -0.445501 859 0.716863 0.697214 0.000000
-8.864144 -8.540478 -0.441652 859 0.716863 0.697214 0.000000
-8.863661 -8.540003 -0.437846 857 0.716863 0.697214 0.000000
-8.864017 -8.540348 -0.434083 875 0.716863 0.697214 0.000000
-8.863898 -8.540232 -0.430294 861 0.716863 0.697214 0.000000
-8.864302 -8.540629 -0.426530 859 0.716863 0.697214 0.000000
-8.865495 -8.541780 -0.422799 883 0.716863 0.697214 0.000000
-8.865540 -8.541813 -0.419008 885 0.716863 0.697214 0.000000
-8.865198 -8.541496 -0.415211 875 0.716863 0.697214 0.000000
-8.865351 -8.541633 -0.411430 865 0.716863 0.697214 0.000000
-8.865441 -8.541717 -0.407649 863 0.716863 0.697214 0.000000
-8.865052 -8.541348 -0.403852 857 0.716863 0.697214 0.000000
-8.864033 -8.540360 -0.400022 851 0.716863 0.697214 0.000000
-8.863901 -8.540245 -0.396233 835 0.716863 0.697214 0.000000
-8.864356 -8.540673 -0.392469 869 0.716863 0.697214 0.000000
-8.864231 -8.540550 -0.388680 879 0.716863 0.697214 0.000000
-8.864736 -8.541046 -0.384915 867 0.716863 0.697214 0.000000
-8.864134 -8.540461 -0.381110 855 0.716863 0.697214 0.000000
-8.864001 -8.540332 -0.377322 855 0.716863 0.697214 0.000000
-8.864816 -8.541126 -0.373574 875 0.716863 0.697214 0.000000
-8.863897 -8.540235 -0.369752 839 0.716863 0.697214 0.000000
-8.864028 -8.540365 -0.365971 857 0.716863 0.697214 0.000000
-8.864633 -8.540945 -0.362215 863 0.716863 0.697214 0.000000
-8.864289 -8.540614 -0.358418 863 0.716863 0.697214 0.000000
-8.865049 -8.541350 -0.354661 865 0.716863 0.697214 0.000000
-8.865604 -8.541876 -0.350896 857 0.716863 0.697214 0.000000
-8.864835 -8.541137 -0.347083 865 0.716863 0.697214 0.000000
-8.864274 -8.540596 -0.343278 879 0.716863 0.697214 0.000000
-8.863924 -8.540259 -0.339491 835 0.716863 0.697214 0.000000
-8.863938 -8.540279 -0.335701 835 0.716863 0.697214 0.000000
-8.864589 -8.540897 -0.331945 837 0.716863 0.697214 0.000000
-8.864983 -8.541276 -0.328181 849 0.716863 0.697214 0.000000
-8.863996 -8.540327 -0.324360 843 0.716863 0.697214 0.000000
-8.863482 -8.539840 -0.320555 823 0.716863 0.697214 0.000000
-8.864396 -8.540718 -0.316806 833 0.716863 0.697214 0.000000
-8.865465 -8.541739 -0.313066 853 0.716863 0.697214 0.000000
-8.865534 -8.541805 -0.309286 857 0.716863 0.697214 0.000000
-8.868697 -8.539450 -0.688012 853 0.716863 0.697214 0.000000
-8.868587 -8.539339 -0.684213 849 0.716863 0.697214 0.000000
-8.868468 -8.539223 -0.680414 841 0.716863 0.697214 0.000000
-8.869041 -8.539776 -0.676658 857 0.716863 0.697214 0.000000
-8.869498 -8.540218 -0.672904 863 0.716863 0.697214 0.000000
-8.868649 -8.539400 -0.669052 857 0.716863 0.697214 0.000000
-8.868423 -8.539180 -0.665244 873 0.716863 0.697214 0.000000
-8.868833 -8.539570 -0.661480 871 0.716863 0.697214 0.000000
-8.868653 -8.539402 -0.657672 863 0.716863 0.697214 0.000000
-8.868176 -8.538934 -0.653846 865 0.716863 0.697214 0.000000
-8.868525 -8.539273 -0.650083 863 0.716863 0.697214 0.000000
-8.868773 -8.539515 -0.646310 863 0.716863 0.697214 0.000000
-8.869012 -8.539749 -0.642538 871 0.716863 0.697214 0.000000
-8.869413 -8.540133 -0.638774 865 0.716863 0.697214 0.000000
-8.869451 -8.540159 -0.634984 873 0.716863 0.697214 0.000000
-8.868695 -8.539431 -0.631141 861 0.716863 0.697214 0.000000
-8.868507 -8.539256 -0.627332 865 0.716863 0.697214 0.000000
-8.868072 -8.538835 -0.623516 861 0.716863 0.697214 0.000000
-8.867464 -8.538257 -0.619682 875 0.716863 0.697214 0.000000
-8.866445 -8.537269 -0.615821 877 0.716863 0.697214 0.000000
-8.866210 -8.537041 -0.612024 863 0.716863 0.697214 0.000000
-8.867079 -8.537881 -0.608285 841 0.716863 0.697214 0.000000
-8.866945 -8.537751 -0.604496 843 0.716863 0.697214 0.000000
-8.866757 -8.537577 -0.600688 861 0.716863 0.697214 0.000000
-8.868092 -8.538858 -0.596985 865 0.716863 0.697214 0.000000
-8.868757 -8.539489 -0.593239 849 0.716863 0.697214 0.000000
-8.868306 -8.539054 -0.589423 853 0.716863 0.697214 0.000000
-8.868016 -8.538782 -0.585616 869 0.716863 0.697214 0.000000
-8.867029 -8.537833 -0.581765 855 0.716863 0.697214 0.000000
