774
-6.938736 -6.173903 -0.667762 1131 0.733220 0.679992 0.000000
-6.938007 -6.173261 -0.664829 1131 0.733220 0.679992 0.000000
-6.938540 -6.173733 -0.662014 1143 0.733220 0.679992 0.000000
-6.938640 -6.173819 -0.659153 1141 0.733220 0.679992 0.000000
-6.939060 -6.174192 -0.656329 1149 0.733220 0.679992 0.000000
-6.939209 -6.174329 -0.653478 1141 0.733220 0.679992 0.000000
-6.939137 -6.174258 -0.650598 1135 0.733220 0.679992 0.000000
-6.939060 -6.174195 -0.647729 1141 0.733220 0.679992 0.000000
-6.938829 -6.173988 -0.644841 1127 0.733220 0.679992 0.000000
-6.939241 -6.174354 -0.642017 1145 0.733220 0.679992 0.000000
-6.939173 -6.174297 -0.639138 1141 0.733220 0.679992 0.000000
-6.938603 -6.173791 -0.636223 1131 0.733220 0.679992 0.000000
-6.938694 -6.173871 -0.633372 1139 0.733220 0.679992 0.000000
-6.939332 -6.174437 -0.630556 1145 0.733220 0.679992 0.000000
-6.939037 -6.174167 -0.627669 1149 0.733220 0.679992 0.000000
-6.938574 -6.173768 -0.624763 1149 0.733220 0.679992 0.000000
-6.939050 -6.174184 -0.621938 1151 0.733220 0.679992 0.000000
-6.938313 -6.173534 -0.619015 1143 0.733220 0.679992 0.000000
-6.938066 -6.173315 -0.616127 1143 0.733220 0.679992 0.000000
-6.939469 -6.174561 -0.613384 1145 0.733220 0.679992 0.000000
-6.939986 -6.175021 -0.610560 1145 0.733220 0.679992 0.000000
-6.940012 -6.175038 -0.607699 1159 0.733220 0.679992 0.000000
-6.939226 -6.174338 -0.604766 1147 0.733220 0.679992 0.000000
-6.938489 -6.173689 -0.601843 1145 0.733220 0.679992 0.000000
-6.938410 -6.173612 -0.598974 1137 0.733220 0.679992 0.000000
-6.938268 -6.173486 -0.596095 1119 0.733220 0.679992 0.000000
-6.938183 -6.173418 -0.593226 1125 0.733220 0.679992 0.000000
-6.938692 -6.173872 -0.590401 1151 0.733220 0.679992 0.000000
-6.938614 -6.173795 -0.587532 1133 0.733220 0.679992 0.000000
-6.938528 -6.173726 -0.584662 1133 0.733220 0.679992 0.000000
-6.938498 -6.173699 -0.581792 1139 0.733220 0.679992 0.000000
-6.938517 -6.173710 -0.578932 1141 0.733220 0.679992 0.000000
-6.939637 -6.174700 -0.576162 1161 0.733220 0.679992 0.000000
-6.939374 -6.174468 -0.573274 1153 0.733220 0.679992 0.000000
-6.938855 -6.174013 -0.570369 1145 0.733220 0.679992 0.000000
-6.938921 -6.174074 -0.567518 1155 0.733220 0.679992 0.000000
-6.938175 -6.173405 -0.564595 1145 0.733220 0.679992 0.000000
-6.937598 -6.172892 -0.561690 1137 0.733220 0.679992 0.000000
-6.937399 -6.172709 -0.558812 1127 0.733220 0.679992 0.000000
-6.937628 -6.172921 -0.555960 1127 0.733220 0.679992 0.000000
-6.938354 -6.173569 -0.553163 1135 0.733220 0.679992 0.000000
-6.938260 -6.173480 -0.550294 1151 0.733220 0.679992 0.000000
-6.937788 -6.173060 -0.547388 1147 0.733220 0.679992 0.000000
-6.937847 -6.173116 -0.544538 1127 0.733220 0.679992 0.000000
-6.938139 -6.173377 -0.541695 1141 0.733220 0.679992 0.000000
-6.938157 -6.173387 -0.538835 1155 0.733220 0.679992 0.000000
-6.938877 -6.174028 -0.536028 1163 0.733220 0.679992 0.000000
-6.938396 -6.173604 -0.533132 1161 0.733220 0.679992 0.000000
-6.937039 -6.172400 -0.530165 1133 0.733220 0.679992 0.000000
-6.937701 -6.172983 -0.527359 1143 0.733220 0.679992 0.000000
-6.938098 -6.173338 -0.524525 1133 0.733220 0.679992 0.000000
-6.937787 -6.173056 -0.521638 1143 0.733220 0.679992 0.000000
-6.938005 -6.173247 -0.518796 1155 0.733220 0.679992 0.000000
-6.938402 -6.173601 -0.515962 1149 0.733220 0.679992 0.000000
-6.937634 -6.172928 -0.513049 1135 0.733220 0.679992 0.000000
-6.937314 -6.172640 -0.510162 1137 0.733220 0.679992 0.000000
-6.938138 -6.173375 -0.507364 1141 0.733220 0.679992 0.000000
-6.938414 -6.173623 -0.504521 1149 0.733220 0.679992 0.000000
-6.938094 -6.173335 -0.501644 1149 0.733220 0.679992 0.000000
-6.938096 -6.173333 -0.498784 1151 0.733220 0.679992 0.000000
-6.937993 -6.173238 -0.495915 1147 0.733220 0.679992 0.000000
-6.937443 -6.172758 -0.493020 1125 0.733220 0.679992 0.000000
-6.937669 -6.172955 -0.490168 1131 0.733220 0.679992 0.000000
-6.938428 -6.173628 -0.487361 1145 0.733220 0.679992 0.000000
-6.938221 -6.173439 -0.484493 1165 0.733220 0.679992 0.000000
-6.938097 -6.173339 -0.481624 1157 0.733220 0.679992 0.000000
-6.938604 -6.173779 -0.478799 1149 0.733220 0.679992 0.000000
-6.938213 -6.173435 -0.475913 1145 0.733220 0.679992 0.000000
-6.937990 -6.173234 -0.473035 1141 0.733220 0.679992 0.000000
-6.937978 -6.173234 -0.470175 1153 0.733220 0.679992 0.000000
-6.937988 -6.173239 -0.467324 1159 0.733220 0.679992 0.000000
-6.938466 -6.173669 -0.464490 1157 0.733220 0.679992 0.000000
-6.938572 -6.173760 -0.461639 1141 0.733220 0.679992 0.000000
-6.939064 -6.174188 -0.458815 1139 0.733220 0.679992 0.000000
-6.939324 -6.174425 -0.455972 1147 0.733220 0.679992 0.000000
-6.938604 -6.173788 -0.453069 1141 0.733220 0.679992 0.000000
-6.938542 -6.173738 -0.450199 1131 0.733220 0.679992 0.000000
-6.938479 -6.173673 -0.447340 1147 0.733220 0.679992 0.000000
-6.938481 -6.173672 -0.444479 1147 0.733220 0.679992 0.000000
-6.938847 -6.174002 -0.441646 1141 0.733220 0.679992 0.000000
-6.938399 -6.173601 -0.438760 1147 0.733220 0.679992 0.000000
-6.937895 -6.173158 -0.435875 1145 0.733220 0.679992 0.000000
-6.937826 -6.173101 -0.433005 1141 0.733220 0.679992 0.000000
-6.938423 -6.173622 -0.430190 1139 0.733220 0.679992 0.000000
-6.938683 -6.173858 -0.427347 1151 0.733220 0.679992 0.000000
-6.938010 -6.173259 -0.424443 1141 0.733220 0.679992 0.000000
-6.937932 -6.173196 -0.421584 1125 0.733220 0.679992 0.000000
-6.938642 -6.173817 -0.418767 1147 0.733220 0.679992 0.000000
-6.938235 -6.173461 -0.415891 1149 0.733220 0.679992 0.000000
-6.937674 -6.172961 -0.412996 1141 0.733220 0.679992 0.000000
-6.938262 -6.173476 -0.410171 1137 0.733220 0.679992 0.000000
-6.939111 -6.174243 -0.407363 1137 0.733220 0.679992 0.000000
-6.939097 -6.174229 -0.404503 1141 0.733220 0.679992 0.000000
-6.938416 -6.173624 -0.401609 1127 0.733220 0.679992 0.000000
-6.939005 -6.174139 -0.398784 1147 0.733220 0.679992 0.000000
-6.939467 -6.174556 -0.395959 1139 0.733220 0.679992 0.000000
-6.939068 -6.174206 -0.393073 1131 0.733220 0.679992 0.000000
-6.938555 -6.173743 -0.390188 1129 0.733220 0.679992 0.000000
-6.937714 -6.173000 -0.387285 1133 0.733220 0.679992 0.000000
-6.936815 -6.172202 -0.384383 1109 0.733220 0.679992 0.000000
-6.936906 -6.172282 -0.381532 1109 0.733220 0.679992 0.000000
-6.938026 -6.173270 -0.378732 1133 0.733220 0.679992 0.000000
-6.938713 -6.173888 -0.375916 1135 0.733220 0.679992 0.000000
-6.938362 -6.173574 -0.373039 1121 0.733220 0.679992 0.000000
-6.938115 -6.173355 -0.370171 1119 0.733220 0.679992 0.000000
-6.937932 -6.173185 -0.367303 1123 0.733220 0.679992 0.000000
-6.937951 -6.173209 -0.364452 1127 0.733220 0.679992 0.000000
-6.938251 -6.173476 -0.361610 1129 0.733220 0.679992 0.000000
-6.938494 -6.173686 -0.358767 1133 0.733220 0.679992 0.000000
-6.939124 -6.174246 -0.355942 1123 0.733220 0.679992 0.000000
-6.939207 -6.174319 -0.353081 1139 0.733220 0.679992 0.000000
-6.939057 -6.174187 -0.350222 1145 0.733220 0.679992 0.000000
-6.939253 -6.174361 -0.347370 1129 0.733220 0.679992 0.000000
-6.938563 -6.173749 -0.344486 1121 0.733220 0.679992 0.000000
-6.938196 -6.173424 -0.341610 1103 0.733220 0.679992 0.000000
-6.938650 -6.173835 -0.338775 1109 0.733220 0.679992 0.000000
-6.938621 -6.173809 -0.335926 1111 0.733220 0.679992 0.000000
-6.938259 -6.173476 -0.333049 1095 0.733220 0.679992 0.000000
-6.938334 -6.173543 -0.330198 1101 0.733220 0.679992 0.000000
-6.938627 -6.173804 -0.327355 1109 0.733220 0.679992 0.000000
-6.938476 -6.173672 -0.324497 1109 0.733220 0.679992 0.000000
-6.938334 -6.173547 -0.321628 1107 0.733220 0.679992 0.000000
-6.938193 -6.173421 -0.318769 1111 0.733220 0.679992 0.000000
-6.937655 -6.172939 -0.315894 1109 0.733220 0.679992 0.000000
-6.937345 -6.172671 -0.313017 1123 0.733220 0.679992 0.000000
-6.937083 -6.172439 -0.310159 1117 0.733220 0.679992 0.000000
-6.937593 -6.172893 -0.307324 1107 0.733220 0.679992 0.000000
-6.940731 -6.171739 -0.699314 1125 0.733220 0.679992 0.000000
-6.940508 -6.171539 -0.696416 1129 0.733220 0.679992 0.000000
-6.941162 -6.172117 -0.693620 1137 0.733220 0.679992 0.000000
-6.941912 -6.172782 -0.690823 1149 0.733220 0.679992 0.000000
-6.941570 -6.172490 -0.687926 1149 0.733220 0.679992 0.000000
-6.940695 -6.171709 -0.684964 1149 0.733220 0.679992 0.000000
-6.940634 -6.171658 -0.682094 1129 0.733220 0.679992 0.000000
-6.940788 -6.171786 -0.679243 1133 0.733220 0.679992 0.000000
-6.940887 -6.171873 -0.676382 1133 0.733220 0.679992 0.000000
-6.940551 -6.171572 -0.673485 1129 0.733220 0.679992 0.000000
-6.940539 -6.171572 -0.670615 1127 0.733220 0.679992 0.000000
-6.940693 -6.171700 -0.667764 1135 0.733220 0.679992 0.000000
-6.940294 -6.171350 -0.664857 1135 0.733220 0.679992 0.000000
-6.940555 -6.171587 -0.662015 1121 0.733220 0.679992 0.000000
-6.941256 -6.172202 -0.659218 1133 0.733220 0.679992 0.000000
-6.941235 -6.172182 -0.656348 1137 0.733220 0.679992 0.000000
-6.941487 -6.172412 -0.653506 1147 0.733220 0.679992 0.000000
-6.941690 -6.172591 -0.650664 1141 0.733220 0.679992 0.000000
-6.941509 -6.172435 -0.647776 1137 0.733220 0.679992 0.000000
-6.941495 -6.172421 -0.644906 1129 0.733220 0.679992 0.000000
-6.941311 -6.172250 -0.642027 1143 0.733220 0.679992 0.000000
-6.940695 -6.171708 -0.639103 1137 0.733220 0.679992 0.000000
-6.940624 -6.171637 -0.636234 1139 0.733220 0.679992 0.000000
-6.940610 -6.171623 -0.633364 1135 0.733220 0.679992 0.000000
-6.940751 -6.171753 -0.630512 1141 0.733220 0.679992 0.000000
-6.940728 -6.171733 -0.627642 1157 0.733220 0.679992 0.000000
-6.940209 -6.171278 -0.624737 1133 0.733220 0.679992 0.000000
-6.940243 -6.171300 -0.621877 1119 0.733220 0.679992 0.000000
-6.940655 -6.171667 -0.619043 1131 0.733220 0.679992 0.000000
-6.940465 -6.171504 -0.616164 1143 0.733220 0.679992 0.000000
-6.940227 -6.171291 -0.613277 1139 0.733220 0.679992 0.000000
-6.940414 -6.171459 -0.610435 1125 0.733220 0.679992 0.000000
-6.940175 -6.171245 -0.607547 1127 0.733220 0.679992 0.000000
-6.940693 -6.171705 -0.604722 1141 0.733220 0.679992 0.000000
-6.941097 -6.172066 -0.601898 1153 0.733220 0.679992 0.000000
-6.940303 -6.171360 -0.598966 1121 0.733220 0.679992 0.000000
-6.939727 -6.170847 -0.596051 1113 0.733220 0.679992 0.000000
-6.940469 -6.171507 -0.593254 1133 0.733220 0.679992 0.000000
-6.941364 -6.172297 -0.590466 1151 0.733220 0.679992 0.000000
-6.941881 -6.172757 -0.587641 1157 0.733220 0.679992 0.000000
-6.941627 -6.172532 -0.584753 1151 0.733220 0.679992 0.000000
-6.940624 -6.171639 -0.581812 1153 0.733220 0.679992 0.000000
-6.940305 -6.171364 -0.578925 1145 0.733220 0.679992 0.000000
-6.940766 -6.171768 -0.576101 1157 0.733220 0.679992 0.000000
-6.940574 -6.171591 -0.573222 1157 0.733220 0.679992 0.000000
-6.940103 -6.171173 -0.570317 1159 0.733220 0.679992 0.000000
-6.939847 -6.170947 -0.567439 1143 0.733220 0.679992 0.000000
-6.939592 -6.170721 -0.564551 1137 0.733220 0.679992 0.000000
-6.939668 -6.170788 -0.561700 1149 0.733220 0.679992 0.000000
-6.939905 -6.171006 -0.558848 1147 0.733220 0.679992 0.000000
-6.939865 -6.170960 -0.555989 1137 0.733220 0.679992 0.000000
-6.940157 -6.171221 -0.553146 1147 0.733220 0.679992 0.000000
-6.940547 -6.171569 -0.550322 1161 0.733220 0.679992 0.000000
-6.941161 -6.172117 -0.547507 1159 0.733220 0.679992 0.000000
-6.941340 -6.172277 -0.544655 1155 0.733220 0.679992 0.000000
-6.940651 -6.171666 -0.541741 1153 0.733220 0.679992 0.000000
-6.940331 -6.171377 -0.538854 1143 0.733220 0.679992 0.000000
-6.940615 -6.171632 -0.536011 1153 0.733220 0.679992 0.000000
-6.940191 -6.171250 -0.533125 1143 0.733220 0.679992 0.000000
-6.940195 -6.171262 -0.530255 1129 0.733220 0.679992 0.000000
-6.940922 -6.171909 -0.527448 1143 0.733220 0.679992 0.000000
-6.940167 -6.171235 -0.524535 1135 0.733220 0.679992 0.000000
-6.940177 -6.171238 -0.521675 1141 0.733220 0.679992 0.000000
-6.940670 -6.171680 -0.518850 1145 0.733220 0.679992 0.000000
-6.940464 -6.171492 -0.515972 1141 0.733220 0.679992 0.000000
-6.939816 -6.170924 -0.513068 1141 0.733220 0.679992 0.000000
-6.940478 -6.171509 -0.510252 1159 0.733220 0.679992 0.000000
-6.941189 -6.172144 -0.507445 1151 0.733220 0.679992 0.000000
-6.940539 -6.171563 -0.504541 1133 0.733220 0.679992 0.000000
-6.940268 -6.171325 -0.501654 1149 0.733220 0.679992 0.000000
-6.939844 -6.170942 -0.498767 1143 0.733220 0.679992 0.000000
-6.939621 -6.170742 -0.495889 1135 0.733220 0.679992 0.000000
-6.939946 -6.171041 -0.493056 1135 0.733220 0.679992 0.000000
-6.939795 -6.170895 -0.490188 1137 0.733220 0.679992 0.000000
-6.940071 -6.171143 -0.487345 1149 0.733220 0.679992 0.000000
-6.941321 -6.172258 -0.484574 1169 0.733220 0.679992 0.000000
-6.941372 -6.172307 -0.481713 1171 0.733220 0.679992 0.000000
-6.941317 -6.172249 -0.478854 1151 0.733220 0.679992 0.000000
-6.941264 -6.172205 -0.475984 1141 0.733220 0.679992 0.000000
-6.940986 -6.171961 -0.473106 1143 0.733220 0.679992 0.000000
-6.940594 -6.171618 -0.470220 1151 0.733220 0.679992 0.000000
-6.940112 -6.171178 -0.467334 1165 0.733220 0.679992 0.000000
-6.940430 -6.171472 -0.464491 1157 0.733220 0.679992 0.000000
-6.940746 -6.171751 -0.461658 1133 0.733220 0.679992 0.000000
-6.940474 -6.171499 -0.458781 1119 0.733220 0.679992 0.000000
-6.940132 -6.171206 -0.455894 1121 0.733220 0.679992 0.000000
-6.940302 -6.171347 -0.453052 1133 0.733220 0.679992 0.000000
-6.940016 -6.171097 -0.450175 1137 0.733220 0.679992 0.000000
-6.939681 -6.170796 -0.447298 1151 0.733220 0.679992 0.000000
-6.939724 -6.170839 -0.444437 1143 0.733220 0.679992 0.000000
-6.939927 -6.171019 -0.441595 1139 0.733220 0.679992 0.000000
-6.939432 -6.170582 -0.438700 1123 0.733220 0.679992 0.000000
-6.939368 -6.170517 -0.435840 1123 0.733220 0.679992 0.000000
-6.939791 -6.170904 -0.433006 1141 0.733220 0.679992 0.000000
-6.940429 -6.171470 -0.430190 1147 0.733220 0.679992 0.000000
-6.940695 -6.171698 -0.427348 1159 0.733220 0.679992 0.000000
-6.940464 -6.171491 -0.424480 1165 0.733220 0.679992 0.000000
-6.940436 -6.171478 -0.421620 1127 0.733220 0.679992 0.000000
-6.939939 -6.171028 -0.418735 1133 0.733220 0.679992 0.000000
-6.940142 -6.171207 -0.415883 1153 0.733220 0.679992 0.000000
-6.940290 -6.171344 -0.413031 1133 0.733220 0.679992 0.000000
-6.939238 -6.170400 -0.410121 1115 0.733220 0.679992 0.000000
-6.939715 -6.170829 -0.407286 1123 0.733220 0.679992 0.000000
-6.940942 -6.171926 -0.404505 1139 0.733220 0.679992 0.000000
-6.940486 -6.171520 -0.401619 1137 0.733220 0.679992 0.000000
-6.939989 -6.171069 -0.398734 1137 0.733220 0.679992 0.000000
-6.939846 -6.170943 -0.395865 1121 0.733220 0.679992 0.000000
-6.939552 -6.170687 -0.392998 1119 0.733220 0.679992 0.000000
-6.940190 -6.171253 -0.390172 1127 0.733220 0.679992 0.000000
-6.941479 -6.172399 -0.387390 1139 0.733220 0.679992 0.000000
-6.941562 -6.172472 -0.384529 1145 0.733220 0.679992 0.000000
-6.941106 -6.172066 -0.381653 1129 0.733220 0.679992 0.000000
-6.940747 -6.171747 -0.378776 1135 0.733220 0.679992 0.000000
-6.940291 -6.171340 -0.375890 1129 0.733220 0.679992 0.000000
-6.939884 -6.170985 -0.373014 1109 0.733220 0.679992 0.000000
-6.940401 -6.171444 -0.370189 1115 0.733220 0.679992 0.000000
-6.940372 -6.171418 -0.367329 1119 0.733220 0.679992 0.000000
-6.940568 -6.171592 -0.364478 1119 0.733220 0.679992 0.000000
-6.940972 -6.171953 -0.361644 1107 0.733220 0.679992 0.000000
-6.940943 -6.171926 -0.358784 1111 0.733220 0.679992 0.000000
-6.940759 -6.171756 -0.355926 1147 0.733220 0.679992 0.000000
-6.939894 -6.170995 -0.353024 1133 0.733220 0.679992 0.000000
-6.939815 -6.170918 -0.350164 1123 0.733220 0.679992 0.000000
-6.940332 -6.171379 -0.347329 1117 0.733220 0.679992 0.000000
-6.940295 -6.171347 -0.344480 1107 0.733220 0.679992 0.000000
-6.940758 -6.171764 -0.341645 1107 0.733220 0.679992 0.000000
-6.941490 -6.172403 -0.338819 1125 0.733220 0.679992 0.000000
-6.940850 -6.171842 -0.335934 1133 0.733220 0.679992 0.000000
-6.939509 -6.170650 -0.333017 1103 0.733220 0.679992 0.000000
-6.939801 -6.170910 -0.330174 1109 0.733220 0.679992 0.000000
-6.940310 -6.171365 -0.327339 1105 0.733220 0.679992 0.000000
-6.940056 -6.171140 -0.324471 1097 0.733220 0.679992 0.000000
-6.940404 -6.171443 -0.321638 1121 0.733220 0.679992 0.000000
-6.939924 -6.171018 -0.318762 1109 0.733220 0.679992 0.000000
-6.940104 -6.171179 -0.315911 1095 0.733220 0.679992 0.000000
-6.940886 -6.171869 -0.313094 1111 0.733220 0.679992 0.000000
-6.940197 -6.171257 -0.310210 1111 0.733220 0.679992 0.000000
-6.939934 -6.171025 -0.307342 1117 0.733220 0.679992 0.000000
-6.942396 -6.169652 -0.699306 1137 0.733220 0.679992 0.000000
-6.942552 -6.169794 -0.696445 1123 0.733220 0.679992 0.000000
-6.943030 -6.170224 -0.693630 1121 0.733220 0.679992 0.000000
-6.943192 -6.170359 -0.690779 1131 0.733220 0.679992 0.000000
-6.942962 -6.170166 -0.687881 1129 0.733220 0.679992 0.000000
-6.943230 -6.170394 -0.685048 1153 0.733220 0.679992 0.000000
-6.943056 -6.170244 -0.682160 1143 0.733220 0.679992 0.000000
-6.942881 -6.170094 -0.679271 1149 0.733220 0.679992 0.000000
-6.943148 -6.170322 -0.676429 1145 0.733220 0.679992 0.000000
-6.943353 -6.170516 -0.673587 1143 0.733220 0.679992 0.000000
-6.943395 -6.170544 -0.670726 1145 0.733220 0.679992 0.000000
-6.942842 -6.170050 -0.667801 1133 0.733220 0.679992 0.000000
-6.942935 -6.170144 -0.664940 1131 0.733220 0.679992 0.000000
-6.943790 -6.170903 -0.662162 1133 0.733220 0.679992 0.000000
-6.943342 -6.170503 -0.659246 1125 0.733220 0.679992 0.000000
-6.942396 -6.169667 -0.656295 1113 0.733220 0.679992 0.000000
-6.942332 -6.169602 -0.653426 1127 0.733220 0.679992 0.000000
-6.942802 -6.170025 -0.650601 1149 0.733220 0.679992 0.000000
-6.943118 -6.170304 -0.647758 1157 0.733220 0.679992 0.000000
-6.942340 -6.169611 -0.644825 1141 0.733220 0.679992 0.000000
-6.941772 -6.169105 -0.641910 1125 0.733220 0.679992 0.000000
-6.942676 -6.169915 -0.639122 1123 0.733220 0.679992 0.000000
-6.942709 -6.169937 -0.636262 1139 0.733220 0.679992 0.000000
-6.942689 -6.169931 -0.633392 1143 0.733220 0.679992 0.000000
-6.943431 -6.170591 -0.630595 1145 0.733220 0.679992 0.000000
-6.942871 -6.170091 -0.627680 1139 0.733220 0.679992 0.000000
-6.942302 -6.169585 -0.624765 1139 0.733220 0.679992 0.000000
-6.942658 -6.169895 -0.621932 1115 0.733220 0.679992 0.000000
-6.942469 -6.169732 -0.619053 1117 0.733220 0.679992 0.000000
-6.942229 -6.169518 -0.616166 1119 0.733220 0.679992 0.000000
-6.942634 -6.169878 -0.613332 1133 0.733220 0.679992 0.000000
-6.942670 -6.169916 -0.610471 1135 0.733220 0.679992 0.000000
-6.943074 -6.170277 -0.607648 1123 0.733220 0.679992 0.000000
-6.943375 -6.170543 -0.604805 1125 0.733220 0.679992 0.000000
-6.943240 -6.170423 -0.601926 1135 0.733220 0.679992 0.000000
-6.942839 -6.170060 -0.599030 1133 0.733220 0.679992 0.000000
-6.942746 -6.169984 -0.596160 1133 0.733220 0.679992 0.000000
-6.942885 -6.170101 -0.593309 1131 0.733220 0.679992 0.000000
-6.942366 -6.169646 -0.590404 1135 0.733220 0.679992 0.000000
-6.941957 -6.169276 -0.587507 1123 0.733220 0.679992 0.000000
-6.942081 -6.169394 -0.584656 1139 0.733220 0.679992 0.000000
-6.941994 -6.169310 -0.581777 1143 0.733220 0.679992 0.000000
-6.942069 -6.169378 -0.578926 1129 0.733220 0.679992 0.000000
-6.942369 -6.169645 -0.576083 1133 0.733220 0.679992 0.000000
-6.942219 -6.169513 -0.573215 1151 0.733220 0.679992 0.000000
-6.941587 -6.168958 -0.570300 1153 0.733220 0.679992 0.000000
-6.942306 -6.169599 -0.567494 1153 0.733220 0.679992 0.000000
-6.942928 -6.170153 -0.564678 1143 0.733220 0.679992 0.000000
-6.942561 -6.169827 -0.561791 1139 0.733220 0.679992 0.000000
-6.942202 -6.169509 -0.558894 1141 0.733220 0.679992 0.000000
-6.941721 -6.169083 -0.555999 1127 0.733220 0.679992 0.000000
-6.941852 -6.169194 -0.553147 1145 0.733220 0.679992 0.000000
-6.942417 -6.169691 -0.550322 1141 0.733220 0.679992 0.000000
-6.943136 -6.170332 -0.547526 1145 0.733220 0.679992 0.000000
-6.942826 -6.170064 -0.544638 1153 0.733220 0.679992 0.000000
-6.942079 -6.169394 -0.541715 1157 0.733220 0.679992 0.000000
-6.941704 -6.169064 -0.538828 1139 0.733220 0.679992 0.000000
-6.941713 -6.169068 -0.535968 1129 0.733220 0.679992 0.000000
-6.942272 -6.169573 -0.533143 1141 0.733220 0.679992 0.000000
-6.942991 -6.170214 -0.530336 1135 0.733220 0.679992 0.000000
-6.943218 -6.170412 -0.527494 1143 0.733220 0.679992 0.000000
-6.942522 -6.169794 -0.524581 1141 0.733220 0.679992 0.000000
-6.942314 -6.169605 -0.521703 1139 0.733220 0.679992 0.000000
-6.942261 -6.169560 -0.518843 1125 0.733220 0.679992 0.000000
-6.942440 -6.169721 -0.515991 1137 0.733220 0.679992 0.000000
-6.942387 -6.169677 -0.513132 1147 0.733220 0.679992 0.000000
-6.942341 -6.169638 -0.510262 1143 0.733220 0.679992 0.000000
-6.941629 -6.169008 -0.507348 1137 0.733220 0.679992 0.000000
-6.941631 -6.169006 -0.504488 1147 0.733220 0.679992 0.000000
-6.942622 -6.169883 -0.501699 1157 0.733220 0.679992 0.000000
-6.943066 -6.170275 -0.498875 1149 0.733220 0.679992 0.000000
-6.943238 -6.170429 -0.496023 1157 0.733220 0.679992 0.000000
-6.942959 -6.170185 -0.493146 1143 0.733220 0.679992 0.000000
-6.942794 -6.170042 -0.490277 1153 0.733220 0.679992 0.000000
-6.942089 -6.169417 -0.487364 1157 0.733220 0.679992 0.000000
-6.941978 -6.169316 -0.484495 1147 0.733220 0.679992 0.000000
-6.942681 -6.169945 -0.481688 1163 0.733220 0.679992 0.000000
-6.942796 -6.170043 -0.478837 1171 0.733220 0.679992 0.000000
-6.942413 -6.169706 -0.475951 1151 0.733220 0.679992 0.000000
-6.942126 -6.169455 -0.473073 1137 0.733220 0.679992 0.000000
-6.942024 -6.169360 -0.470204 1139 0.733220 0.679992 0.000000
-6.941858 -6.169216 -0.467335 1129 0.733220 0.679992 0.000000
-6.941305 -6.168722 -0.464440 1125 0.733220 0.679992 0.000000
-6.941461 -6.168864 -0.461589 1131 0.733220 0.679992 0.000000
-6.942549 -6.169829 -0.458799 1123 0.733220 0.679992 0.000000
-6.942592 -6.169872 -0.455948 1133 0.733220 0.679992 0.000000
-6.941605 -6.168992 -0.453027 1121 0.733220 0.679992 0.000000
-6.941599 -6.168984 -0.450167 1127 0.733220 0.679992 0.000000
-6.942020 -6.169357 -0.447333 1135 0.733220 0.679992 0.000000
-6.941411 -6.168820 -0.444439 1141 0.733220 0.679992 0.000000
-6.941406 -6.168812 -0.441579 1137 0.733220 0.679992 0.000000
-6.941344 -6.168762 -0.438719 1129 0.733220 0.679992 0.000000
-6.941493 -6.168899 -0.435868 1131 0.733220 0.679992 0.000000
-6.942516 -6.169800 -0.433069 1145 0.733220 0.679992 0.000000
-6.942944 -6.170179 -0.430235 1147 0.733220 0.679992 0.000000
-6.942770 -6.170029 -0.427366 1161 0.733220 0.679992 0.000000
-6.941712 -6.169093 -0.424446 1141 0.733220 0.679992 0.000000
-6.941481 -6.168886 -0.421578 1131 0.733220 0.679992 0.000000
-6.942069 -6.169401 -0.418752 1127 0.733220 0.679992 0.000000
-6.942597 -6.169881 -0.415927 1147 0.733220 0.679992 0.000000
-6.942583 -6.169868 -0.413067 1161 0.733220 0.679992 0.000000
-6.942400 -6.169697 -0.410199 1137 0.733220 0.679992 0.000000
-6.942764 -6.170027 -0.407366 1145 0.733220 0.679992 0.000000
-6.941601 -6.168997 -0.404436 1127 0.733220 0.679992 0.000000
-6.940486 -6.168005 -0.401516 1115 0.733220 0.679992 0.000000
-6.941404 -6.168813 -0.398718 1101 0.733220 0.679992 0.000000
-6.942083 -6.169424 -0.395892 1111 0.733220 0.679992 0.000000
-6.941844 -6.169211 -0.393024 1127 0.733220 0.679992 0.000000
-6.942097 -6.169441 -0.390181 1133 0.733220 0.679992 0.000000
-6.942461 -6.169757 -0.387348 1145 0.733220 0.679992 0.000000
-6.942376 -6.169688 -0.384489 1147 0.733220 0.679992 0.000000
-6.942136 -6.169474 -0.381611 1147 0.733220 0.679992 0.000000
-6.942275 -6.169591 -0.378769 1137 0.733220 0.679992 0.000000
-6.941763 -6.169142 -0.375884 1103 0.733220 0.679992 0.000000
-6.941734 -6.169116 -0.373024 1105 0.733220 0.679992 0.000000
-6.942147 -6.169482 -0.370190 1117 0.733220 0.679992 0.000000
-6.941949 -6.169313 -0.367322 1111 0.733220 0.679992 0.000000
-6.941878 -6.169243 -0.364463 1105 0.733220 0.679992 0.000000
-6.941953 -6.169311 -0.361612 1117 0.733220 0.679992 0.000000
-6.941812 -6.169185 -0.358743 1105 0.733220 0.679992 0.000000
-6.941951 -6.169315 -0.355902 1111 0.733220 0.679992 0.000000
-6.942131 -6.169477 -0.353050 1115 0.733220 0.679992 0.000000
-6.942052 -6.169399 -0.350191 1101 0.733220 0.679992 0.000000
-6.942352 -6.169666 -0.347348 1105 0.733220 0.679992 0.000000
-6.942694 -6.169978 -0.344505 1107 0.733220 0.679992 0.000000
-6.942657 -6.169946 -0.341655 1107 0.733220 0.679992 0.000000
-6.942184 -6.169527 -0.338769 1099 0.733220 0.679992 0.000000
-6.942260 -6.169594 -0.335919 1119 0.733220 0.679992 0.000000
-6.943049 -6.170290 -0.333101 1129 0.733220 0.679992 0.000000
-6.942522 -6.169829 -0.330226 1121 0.733220 0.679992 0.000000
-6.941504 -6.168924 -0.327315 1101 0.733220 0.679992 0.000000
-6.942013 -6.169378 -0.324491 1115 0.733220 0.679992 0.000000
-6.941975 -6.169346 -0.321631 1109 0.733220 0.679992 0.000000
-6.941888 -6.169263 -0.318771 1107 0.733220 0.679992 0.000000
-6.942286 -6.169617 -0.315938 1107 0.733220 0.679992 0.000000
-6.942569 -6.169872 -0.313095 1093 0.733220 0.679992 0.000000
-6.942420 -6.169740 -0.310226 1093 0.733220 0.679992 0.000000
-6.941722 -6.169121 -0.307343 1123 0.733220 0.679992 0.000000
-6.944265 -6.167431 -0.699298 1121 0.733220 0.679992 0.000000
-6.944918 -6.168010 -0.696492 1123 0.733220 0.679992 0.000000
-6.944913 -6.168002 -0.693622 1137 0.733220 0.679992 0.000000
-6.944577 -6.167701 -0.690725 1143 0.733220 0.679992 0.000000
-6.944516 -6.167651 -0.687845 1135 0.733220 0.679992 0.000000
-6.944672 -6.167793 -0.684994 1141 0.733220 0.679992 0.000000
-6.944826 -6.167922 -0.682142 1133 0.733220 0.679992 0.000000
-6.944652 -6.167771 -0.679264 1127 0.733220 0.679992 0.000000
-6.944582 -6.167715 -0.676384 1133 0.733220 0.679992 0.000000
-6.944744 -6.167849 -0.673533 1139 0.733220 0.679992 0.000000
-6.944289 -6.167443 -0.670627 1127 0.733220 0.679992 0.000000
-6.944445 -6.167586 -0.667775 1131 0.733220 0.679992 0.000000
-6.944438 -6.167578 -0.664905 1113 0.733220 0.679992 0.000000
-6.945455 -6.168488 -0.662136 1133 0.733220 0.679992 0.000000
-6.945610 -6.168616 -0.659285 1137 0.733220 0.679992 0.000000
-6.944776 -6.167880 -0.656332 1119 0.733220 0.679992 0.000000
-6.944474 -6.167618 -0.653445 1129 0.733220 0.679992 0.000000
-6.944139 -6.167317 -0.650548 1137 0.733220 0.679992 0.000000
-6.944396 -6.167539 -0.647705 1125 0.733220 0.679992 0.000000
-6.944488 -6.167619 -0.644845 1117 0.733220 0.679992 0.000000
-6.943976 -6.167169 -0.641929 1121 0.733220 0.679992 0.000000
-6.943577 -6.166820 -0.639033 1135 0.733220 0.679992 0.000000
-6.943668 -6.166899 -0.636172 1129 0.733220 0.679992 0.000000
-6.943864 -6.167073 -0.633330 1131 0.733220 0.679992 0.000000
-6.943624 -6.166859 -0.630442 1133 0.733220 0.679992 0.000000
-6.944150 -6.167325 -0.627627 1131 0.733220 0.679992 0.000000
-6.944997 -6.168078 -0.624829 1133 0.733220 0.679992 0.000000
-6.945192 -6.168252 -0.621988 1129 0.733220 0.679992 0.000000
-6.944792 -6.167888 -0.619081 1133 0.733220 0.679992 0.000000
-6.944553 -6.167675 -0.616203 1103 0.733220 0.679992 0.000000
-6.945513 -6.168528 -0.613415 1141 0.733220 0.679992 0.000000
-6.945645 -6.168652 -0.610563 1155 0.733220 0.679992 0.000000
-6.945566 -6.168575 -0.607694 1139 0.733220 0.679992 0.000000
-6.945264 -6.168313 -0.604807 1149 0.733220 0.679992 0.000000
-6.944421 -6.167557 -0.601864 1131 0.733220 0.679992 0.000000
-6.944665 -6.167780 -0.599022 1123 0.733220 0.679992 0.000000
-6.945288 -6.168334 -0.596216 1125 0.733220 0.679992 0.000000
-6.945041 -6.168115 -0.593328 1137 0.733220 0.679992 0.000000
-6.943924 -6.167122 -0.590368 1137 0.733220 0.679992 0.000000
-6.943403 -6.166652 -0.587463 1125 0.733220 0.679992 0.000000
-6.944292 -6.167450 -0.584675 1145 0.733220 0.679992 0.000000
-6.944865 -6.167953 -0.581860 1139 0.733220 0.679992 0.000000
-6.944885 -6.167978 -0.578999 1145 0.733220 0.679992 0.000000
-6.944902 -6.167988 -0.576139 1129 0.733220 0.679992 0.000000
-6.944438 -6.167576 -0.573233 1155 0.733220 0.679992 0.000000
-6.943798 -6.167014 -0.570319 1149 0.733220 0.679992 0.000000
-6.943978 -6.167176 -0.567467 1129 0.733220 0.679992 0.000000
-6.944004 -6.167192 -0.564607 1119 0.733220 0.679992 0.000000
-6.944351 -6.167495 -0.561774 1121 0.733220 0.679992 0.000000
-6.944636 -6.167750 -0.558941 1137 0.733220 0.679992 0.000000
-6.944381 -6.167525 -0.556054 1119 0.733220 0.679992 0.000000
-6.944344 -6.167493 -0.553194 1147 0.733220 0.679992 0.000000
-6.943976 -6.167167 -0.550297 1145 0.733220 0.679992 0.000000
-6.943777 -6.166985 -0.547419 1125 0.733220 0.679992 0.000000
-6.943731 -6.166946 -0.544559 1125 0.733220 0.679992 0.000000
-6.944024 -6.167207 -0.541716 1121 0.733220 0.679992 0.000000
-6.944146 -6.167312 -0.538865 1135 0.733220 0.679992 0.000000
-6.944592 -6.167717 -0.536041 1123 0.733220 0.679992 0.000000
-6.944932 -6.168015 -0.533198 1133 0.733220 0.679992 0.000000
-6.944058 -6.167247 -0.530276 1105 0.733220 0.679992 0.000000
-6.944350 -6.167494 -0.527433 1123 0.733220 0.679992 0.000000
-6.944788 -6.167892 -0.524609 1141 0.733220 0.679992 0.000000
-6.943928 -6.167124 -0.521677 1127 0.733220 0.679992 0.000000
-6.943938 -6.167129 -0.518817 1151 0.733220 0.679992 0.000000
-6.944223 -6.167383 -0.515984 1145 0.733220 0.679992 0.000000
-6.944387 -6.167532 -0.513132 1141 0.733220 0.679992 0.000000
-6.944067 -6.167243 -0.510245 1131 0.733220 0.679992 0.000000
-6.943692 -6.166912 -0.507359 1147 0.733220 0.679992 0.000000
-6.943855 -6.167061 -0.504517 1133 0.733220 0.679992 0.000000
-6.944132 -6.167309 -0.501674 1153 0.733220 0.679992 0.000000
-6.943861 -6.167072 -0.498797 1151 0.733220 0.679992 0.000000
-6.944411 -6.167556 -0.495972 1135 0.733220 0.679992 0.000000
-6.945289 -6.168334 -0.493174 1145 0.733220 0.679992 0.000000
-6.944849 -6.167939 -0.490278 1167 0.733220 0.679992 0.000000
-6.944579 -6.167702 -0.487400 1165 0.733220 0.679992 0.000000
-6.944855 -6.167951 -0.484558 1141 0.733220 0.679992 0.000000
-6.944415 -6.167556 -0.481671 1139 0.733220 0.679992 0.000000
-6.944257 -6.167418 -0.478803 1133 0.733220 0.679992 0.000000
-6.944748 -6.167846 -0.475978 1131 0.733220 0.679992 0.000000
-6.944406 -6.167553 -0.473091 1129 0.733220 0.679992 0.000000
-6.944079 -6.167258 -0.470214 1129 0.733220 0.679992 0.000000
-6.943864 -6.167064 -0.467336 1141 0.733220 0.679992 0.000000
-6.943423 -6.166669 -0.464450 1149 0.733220 0.679992 0.000000
-6.943145 -6.166425 -0.461573 1125 0.733220 0.679992 0.000000
-6.943678 -6.166898 -0.458748 1117 0.733220 0.679992 0.000000
-6.943947 -6.167140 -0.455905 1121 0.733220 0.679992 0.000000
-6.944424 -6.167570 -0.453081 1139 0.733220 0.679992 0.000000
-6.944748 -6.167855 -0.450238 1147 0.733220 0.679992 0.000000
-6.944574 -6.167705 -0.447369 1125 0.733220 0.679992 0.000000
-6.945004 -6.168084 -0.444535 1143 0.733220 0.679992 0.000000
-6.945102 -6.168169 -0.441684 1157 0.733220 0.679992 0.000000
-6.944437 -6.167576 -0.438790 1125 0.733220 0.679992 0.000000
-6.943658 -6.166882 -0.435877 1127 0.733220 0.679992 0.000000
-6.944032 -6.167218 -0.433044 1123 0.733220 0.679992 0.000000
-6.944298 -6.167446 -0.430201 1119 0.733220 0.679992 0.000000
-6.943899 -6.167097 -0.427325 1129 0.733220 0.679992 0.000000
-6.944490 -6.167626 -0.424499 1151 0.733220 0.679992 0.000000
-6.944531 -6.167655 -0.421639 1137 0.733220 0.679992 0.000000
-6.944237 -6.167399 -0.418772 1121 0.733220 0.679992 0.000000
-6.944490 -6.167629 -0.415929 1139 0.733220 0.679992 0.000000
-6.945128 -6.168195 -0.413103 1147 0.733220 0.679992 0.000000
-6.944575 -6.167701 -0.410218 1147 0.733220 0.679992 0.000000
-6.943893 -6.167096 -0.407314 1147 0.733220 0.679992 0.000000
-6.943823 -6.167025 -0.404455 1113 0.733220 0.679992 0.000000
-6.943594 -6.166831 -0.401587 1111 0.733220 0.679992 0.000000
-6.944328 -6.167485 -0.398770 1123 0.733220 0.679992 0.000000
-6.944917 -6.168000 -0.395945 1145 0.733220 0.679992 0.000000
-6.944460 -6.167593 -0.393059 1129 0.733220 0.679992 0.000000
-6.944214 -6.167374 -0.390191 1127 0.733220 0.679992 0.000000
-6.944417 -6.167554 -0.387349 1129 0.733220 0.679992 0.000000
-6.944605 -6.167721 -0.384497 1119 0.733220 0.679992 0.000000
-6.944753 -6.167858 -0.381646 1131 0.733220 0.679992 0.000000
-6.944778 -6.167874 -0.378796 1131 0.733220 0.679992 0.000000
-6.943938 -6.167132 -0.375893 1115 0.733220 0.679992 0.000000
-6.943586 -6.166819 -0.373016 1101 0.733220 0.679992 0.000000
-6.943886 -6.167086 -0.370174 1105 0.733220 0.679992 0.000000
-6.944349 -6.167503 -0.367349 1111 0.733220 0.679992 0.000000
-6.944971 -6.168057 -0.364524 1127 0.733220 0.679992 0.000000
-6.945438 -6.168467 -0.361689 1129 0.733220 0.679992 0.000000
-6.944372 -6.167524 -0.358779 1105 0.733220 0.679992 0.000000
-6.943964 -6.167155 -0.355903 1099 0.733220 0.679992 0.000000
-6.944641 -6.167751 -0.353076 1119 0.733220 0.679992 0.000000
-6.944234 -6.167396 -0.350200 1113 0.733220 0.679992 0.000000
-6.945024 -6.168092 -0.347383 1131 0.733220 0.679992 0.000000
-6.945261 -6.168310 -0.344540 1123 0.733220 0.679992 0.000000
-6.944402 -6.167541 -0.341638 1119 0.733220 0.679992 0.000000
-6.943987 -6.167179 -0.338762 1105 0.733220 0.679992 0.000000
-6.944552 -6.167676 -0.335937 1109 0.733220 0.679992 0.000000
-6.944627 -6.167744 -0.333086 1103 0.733220 0.679992 0.000000
-6.944043 -6.167225 -0.330201 1095 0.733220 0.679992 0.000000
-6.944013 -6.167199 -0.327341 1089 0.733220 0.679992 0.000000
-6.944088 -6.167267 -0.324491 1081 0.733220 0.679992 0.000000
-6.943440 -6.166699 -0.321607 1075 0.733220 0.679992 0.000000
-6.943458 -6.166710 -0.318756 1087 0.733220 0.679992 0.000000
-6.944466 -6.167600 -0.315947 1113 0.733220 0.679992 0.000000
-6.945458 -6.168490 -0.313128 1103 0.733220 0.679992 0.000000
-6.945974 -6.168937 -0.310293 1121 0.733220 0.679992 0.000000
-6.945101 -6.168170 -0.307401 1103 0.733220 0.679992 0.000000
-6.946656 -6.166057 -0.699363 1125 0.733220 0.679992 0.000000
-6.947141 -6.166492 -0.696538 1131 0.733220 0.679992 0.000000
-6.947087 -6.166434 -0.693669 1137 0.733220 0.679992 0.000000
-6.947074 -6.166434 -0.690799 1135 0.733220 0.679992 0.000000
-6.947068 -6.166426 -0.687929 1135 0.733220 0.679992 0.000000
-6.946516 -6.165933 -0.685004 1127 0.733220 0.679992 0.000000
-6.946180 -6.165632 -0.682107 1123 0.733220 0.679992 0.000000
-6.946658 -6.166061 -0.679293 1119 0.733220 0.679992 0.000000
-6.947576 -6.166870 -0.676504 1139 0.733220 0.679992 0.000000
-6.947892 -6.167149 -0.673671 1153 0.733220 0.679992 0.000000
-6.947886 -6.167141 -0.670801 1153 0.733220 0.679992 0.000000
-6.947432 -6.166748 -0.667895 1119 0.733220 0.679992 0.000000
-6.946654 -6.166054 -0.664952 1117 0.733220 0.679992 0.000000
-6.946205 -6.165654 -0.662046 1123 0.733220 0.679992 0.000000
-6.946738 -6.166126 -0.659221 1145 0.733220 0.679992 0.000000
-6.946394 -6.165819 -0.656324 1135 0.733220 0.679992 0.000000
-6.946213 -6.165663 -0.653446 1131 0.733220 0.679992 0.000000
-6.946802 -6.166178 -0.650631 1133 0.733220 0.679992 0.000000
-6.947384 -6.166701 -0.647815 1131 0.733220 0.679992 0.000000
-6.947363 -6.166682 -0.644955 1125 0.733220 0.679992 0.000000
-6.946633 -6.166039 -0.642022 1111 0.733220 0.679992 0.000000
-6.945910 -6.165388 -0.639088 1103 0.733220 0.679992 0.000000
-6.945616 -6.165132 -0.636201 1103 0.733220 0.679992 0.000000
-6.946141 -6.165598 -0.633376 1129 0.733220 0.679992 0.000000
-6.946779 -6.166164 -0.630570 1143 0.733220 0.679992 0.000000
-6.946590 -6.166001 -0.627692 1123 0.733220 0.679992 0.000000
-6.946954 -6.166318 -0.624859 1119 0.733220 0.679992 0.000000
-6.946609 -6.166010 -0.621962 1121 0.733220 0.679992 0.000000
-6.945928 -6.165404 -0.619038 1131 0.733220 0.679992 0.000000
-6.946391 -6.165822 -0.616213 1119 0.733220 0.679992 0.000000
-6.947125 -6.166475 -0.613407 1139 0.733220 0.679992 0.000000
-6.946611 -6.166012 -0.610501 1137 0.733220 0.679992 0.000000
-6.946430 -6.165855 -0.607623 1135 0.733220 0.679992 0.000000
-6.946400 -6.165829 -0.604753 1135 0.733220 0.679992 0.000000
-6.946314 -6.165746 -0.601884 1121 0.733220 0.679992 0.000000
-6.946229 -6.165677 -0.599015 1117 0.733220 0.679992 0.000000
-6.947188 -6.166530 -0.596226 1137 0.733220 0.679992 0.000000
-6.947110 -6.166453 -0.593356 1151 0.733220 0.679992 0.000000
-6.946308 -6.165741 -0.590424 1145 0.733220 0.679992 0.000000
-6.946278 -6.165715 -0.587564 1145 0.733220 0.679992 0.000000
-6.946570 -6.165976 -0.584721 1149 0.733220 0.679992 0.000000
-6.946703 -6.166101 -0.581870 1131 0.733220 0.679992 0.000000
-6.947001 -6.166354 -0.579027 1145 0.733220 0.679992 0.000000
-6.946803 -6.166184 -0.576149 1133 0.733220 0.679992 0.000000
-6.946064 -6.165522 -0.573225 1135 0.733220 0.679992 0.000000
-6.946084 -6.165546 -0.570365 1143 0.733220 0.679992 0.000000
-6.946152 -6.165607 -0.567505 1121 0.733220 0.679992 0.000000
-6.945735 -6.165231 -0.564608 1119 0.733220 0.679992 0.000000
-6.945592 -6.165106 -0.561740 1119 0.733220 0.679992 0.000000
-6.945555 -6.165074 -0.558870 1105 0.733220 0.679992 0.000000
-6.945517 -6.165041 -0.556010 1115 0.733220 0.679992 0.000000
-6.946132 -6.165589 -0.553194 1149 0.733220 0.679992 0.000000
-6.945820 -6.165307 -0.550307 1153 0.733220 0.679992 0.000000
-6.945727 -6.165231 -0.547438 1135 0.733220 0.679992 0.000000
-6.946284 -6.165722 -0.544623 1121 0.733220 0.679992 0.000000
-6.946351 -6.165784 -0.541762 1125 0.733220 0.679992 0.000000
-6.946418 -6.165845 -0.538911 1133 0.733220 0.679992 0.000000
-6.946807 -6.166193 -0.536078 1141 0.733220 0.679992 0.000000
-6.946663 -6.166054 -0.533199 1135 0.733220 0.679992 0.000000
-6.946079 -6.165535 -0.530294 1115 0.733220 0.679992 0.000000
-6.946243 -6.165684 -0.527443 1117 0.733220 0.679992 0.000000
-6.946639 -6.166038 -0.524619 1131 0.733220 0.679992 0.000000
-6.946152 -6.165607 -0.521723 1127 0.733220 0.679992 0.000000
-6.945727 -6.165225 -0.518827 1143 0.733220 0.679992 0.000000
-6.945296 -6.164850 -0.515931 1121 0.733220 0.679992 0.000000
-6.945741 -6.165242 -0.513107 1121 0.733220 0.679992 0.000000
-6.946073 -6.165533 -0.510274 1129 0.733220 0.679992 0.000000
-6.946300 -6.165731 -0.507422 1135 0.733220 0.679992 0.000000
-6.946464 -6.165880 -0.504580 1133 0.733220 0.679992 0.000000
-6.946853 -6.166228 -0.501747 1141 0.733220 0.679992 0.000000
-6.946687 -6.166084 -0.498868 1129 0.733220 0.679992 0.000000
-6.946207 -6.165659 -0.495972 1135 0.733220 0.679992 0.000000
-6.945829 -6.165313 -0.493086 1129 0.733220 0.679992 0.000000
-6.946428 -6.165849 -0.490270 1155 0.733220 0.679992 0.000000
-6.946374 -6.165804 -0.487411 1151 0.733220 0.679992 0.000000
-6.945935 -6.165411 -0.484515 1127 0.733220 0.679992 0.000000
-6.946371 -6.165795 -0.481691 1149 0.733220 0.679992 0.000000
-6.945771 -6.165264 -0.478786 1139 0.733220 0.679992 0.000000
-6.945547 -6.165063 -0.475918 1143 0.733220 0.679992 0.000000
-6.945711 -6.165212 -0.473066 1129 0.733220 0.679992 0.000000
-6.946415 -6.165841 -0.470250 1141 0.733220 0.679992 0.000000
-6.946255 -6.165689 -0.467381 1141 0.733220 0.679992 0.000000
-6.945211 -6.164765 -0.464451 1125 0.733220 0.679992 0.000000
-6.945311 -6.164852 -0.461600 1115 0.733220 0.679992 0.000000
-6.945909 -6.165386 -0.458784 1131 0.733220 0.679992 0.000000
-6.945840 -6.165330 -0.455915 1133 0.733220 0.679992 0.000000
-6.945891 -6.165379 -0.453064 1123 0.733220 0.679992 0.000000
-6.946054 -6.165514 -0.450213 1119 0.733220 0.679992 0.000000
-6.945324 -6.164871 -0.447309 1107 0.733220 0.679992 0.000000
-6.944828 -6.164434 -0.444424 1117 0.733220 0.679992 0.000000
-6.945200 -6.164756 -0.441590 1121 0.733220 0.679992 0.000000
-6.945460 -6.164992 -0.438748 1125 0.733220 0.679992 0.000000
-6.945785 -6.165277 -0.435905 1137 0.733220 0.679992 0.000000
-6.945933 -6.165414 -0.433053 1143 0.733220 0.679992 0.000000
-6.946249 -6.165693 -0.430220 1141 0.733220 0.679992 0.000000
-6.946725 -6.166109 -0.427386 1139 0.733220 0.679992 0.000000
-6.946769 -6.166152 -0.424536 1135 0.733220 0.679992 0.000000
-6.946755 -6.166138 -0.421676 1135 0.733220 0.679992 0.000000
-6.946411 -6.165831 -0.418799 1127 0.733220 0.679992 0.000000
-6.946012 -6.165481 -0.415912 1121 0.733220 0.679992 0.000000
-6.945725 -6.165232 -0.413035 1111 0.733220 0.679992 0.000000
-6.945766 -6.165260 -0.410184 1121 0.733220 0.679992 0.000000
-6.945633 -6.165141 -0.407315 1117 0.733220 0.679992 0.000000
-6.945451 -6.164985 -0.404447 1127 0.733220 0.679992 0.000000
-6.945542 -6.165064 -0.401596 1129 0.733220 0.679992 0.000000
-6.945737 -6.165237 -0.398754 1121 0.733220 0.679992 0.000000
-6.945507 -6.165030 -0.395886 1123 0.733220 0.679992 0.000000
-6.945485 -6.165010 -0.393027 1111 0.733220 0.679992 0.000000
-6.945785 -6.165277 -0.390184 1125 0.733220 0.679992 0.000000
-6.945546 -6.165063 -0.387316 1121 0.733220 0.679992 0.000000
-6.945629 -6.165137 -0.384465 1121 0.733220 0.679992 0.000000
-6.946918 -6.166283 -0.381673 1133 0.733220 0.679992 0.000000
-6.948040 -6.167287 -0.378873 1155 0.733220 0.679992 0.000000
-6.946763 -6.166144 -0.375955 1111 0.733220 0.679992 0.000000
-6.945864 -6.165345 -0.373053 1093 0.733220 0.679992 0.000000
-6.946276 -6.165711 -0.370209 1103 0.733220 0.679992 0.000000
-6.946578 -6.165978 -0.367376 1119 0.733220 0.679992 0.000000
-6.946492 -6.165909 -0.364507 1119 0.733220 0.679992 0.000000
-6.946358 -6.165790 -0.361648 1123 0.733220 0.679992 0.000000
-6.946208 -6.165658 -0.358789 1107 0.733220 0.679992 0.000000
-6.946459 -6.165874 -0.355937 1129 0.733220 0.679992 0.000000
-6.947026 -6.166385 -0.353112 1133 0.733220 0.679992 0.000000
-6.946842 -6.166214 -0.350243 1147 0.733220 0.679992 0.000000
-6.946307 -6.165746 -0.347368 1135 0.733220 0.679992 0.000000
-6.946445 -6.165863 -0.344517 1101 0.733220 0.679992 0.000000
-6.946681 -6.166080 -0.341664 1101 0.733220 0.679992 0.000000
-6.945550 -6.165076 -0.338765 1093 0.733220 0.679992 0.000000
-6.945304 -6.164857 -0.335897 1099 0.733220 0.679992 0.000000
-6.945982 -6.165453 -0.333071 1103 0.733220 0.679992 0.000000
-6.946007 -6.165470 -0.330210 1101 0.733220 0.679992 0.000000
-6.946404 -6.165824 -0.327377 1109 0.733220 0.679992 0.000000
-6.946086 -6.165550 -0.324509 1101 0.733220 0.679992 0.000000
-6.945347 -6.164887 -0.321616 1099 0.733220 0.679992 0.000000
-6.945142 -6.164712 -0.318758 1091 0.733220 0.679992 0.000000
-6.945706 -6.165209 -0.315923 1097 0.733220 0.679992 0.000000
-6.945942 -6.165414 -0.313081 1103 0.733220 0.679992 0.000000
-6.946275 -6.165719 -0.310237 1109 0.733220 0.679992 0.000000
-6.946126 -6.165587 -0.307379 1095 0.733220 0.679992 0.000000
-6.948470 -6.164021 -0.699364 1127 0.733220 0.679992 0.000000
-6.948514 -6.164064 -0.696504 1113 0.733220 0.679992 0.000000
-6.948507 -6.164056 -0.693634 1115 0.733220 0.679992 0.000000
-6.948888 -6.164399 -0.690800 1125 0.733220 0.679992 0.000000
-6.949148 -6.164621 -0.687958 1131 0.733220 0.679992 0.000000
-6.949199 -6.164670 -0.685097 1125 0.733220 0.679992 0.000000
-6.948750 -6.164269 -0.682181 1127 0.733220 0.679992 0.000000
-6.947757 -6.163397 -0.679220 1115 0.733220 0.679992 0.000000
-6.947693 -6.163332 -0.676351 1107 0.733220 0.679992 0.000000
-6.948171 -6.163761 -0.673526 1121 0.733220 0.679992 0.000000
-6.949260 -6.164727 -0.670766 1145 0.733220 0.679992 0.000000
-6.949189 -6.164656 -0.667887 1121 0.733220 0.679992 0.000000
-6.948790 -6.164306 -0.664980 1133 0.733220 0.679992 0.000000
-6.948349 -6.163911 -0.662074 1125 0.733220 0.679992 0.000000
-6.948707 -6.164236 -0.659241 1131 0.733220 0.679992 0.000000
-6.949353 -6.164808 -0.656435 1131 0.733220 0.679992 0.000000
-6.949290 -6.164742 -0.653566 1133 0.733220 0.679992 0.000000
-6.949045 -6.164538 -0.650678 1125 0.733220 0.679992 0.000000
-6.948538 -6.164080 -0.647762 1129 0.733220 0.679992 0.000000
-6.947914 -6.163531 -0.644838 1129 0.733220 0.679992 0.000000
-6.947845 -6.163474 -0.641968 1123 0.733220 0.679992 0.000000
-6.948209 -6.163790 -0.639135 1131 0.733220 0.679992 0.000000
-6.947914 -6.163534 -0.636238 1119 0.733220 0.679992 0.000000
-6.947788 -6.163420 -0.633369 1109 0.733220 0.679992 0.000000
-6.948473 -6.164023 -0.630562 1143 0.733220 0.679992 0.000000
-6.948396 -6.163960 -0.627693 1129 0.733220 0.679992 0.000000
-6.947891 -6.163503 -0.624778 1111 0.733220 0.679992 0.000000
-6.947597 -6.163246 -0.621890 1111 0.733220 0.679992 0.000000
-6.948065 -6.163656 -0.619066 1123 0.733220 0.679992 0.000000
-6.947980 -6.163587 -0.616197 1125 0.733220 0.679992 0.000000
-6.948505 -6.164053 -0.613372 1131 0.733220 0.679992 0.000000
-6.948861 -6.164363 -0.610538 1127 0.733220 0.679992 0.000000
-6.948124 -6.163714 -0.607615 1129 0.733220 0.679992 0.000000
-6.948039 -6.163645 -0.604736 1143 0.733220 0.679992 0.000000
-6.947905 -6.163526 -0.601867 1129 0.733220 0.679992 0.000000
-6.948042 -6.163641 -0.599016 1115 0.733220 0.679992 0.000000
-6.948293 -6.163858 -0.596173 1125 0.733220 0.679992 0.000000
-6.948151 -6.163732 -0.593295 1133 0.733220 0.679992 0.000000
-6.947736 -6.163370 -0.590398 1135 0.733220 0.679992 0.000000
-6.947434 -6.163108 -0.587511 1107 0.733220 0.679992 0.000000
-6.948216 -6.163798 -0.584704 1123 0.733220 0.679992 0.000000
-6.947865 -6.163485 -0.581817 1107 0.733220 0.679992 0.000000
-6.947665 -6.163302 -0.578939 1111 0.733220 0.679992 0.000000
-6.948610 -6.164143 -0.576150 1125 0.733220 0.679992 0.000000
-6.948684 -6.164210 -0.573289 1141 0.733220 0.679992 0.000000
-6.948053 -6.163656 -0.570375 1147 0.733220 0.679992 0.000000
-6.948568 -6.164102 -0.567560 1145 0.733220 0.679992 0.000000
-6.948201 -6.163776 -0.564663 1121 0.733220 0.679992 0.000000
-6.947617 -6.163258 -0.561759 1137 0.733220 0.679992 0.000000
-6.947089 -6.162796 -0.558853 1135 0.733220 0.679992 0.000000
-6.946672 -6.162420 -0.555957 1115 0.733220 0.679992 0.000000
-6.947174 -6.162868 -0.553132 1109 0.733220 0.679992 0.000000
-6.948286 -6.163851 -0.550362 1145 0.733220 0.679992 0.000000
-6.948135 -6.163719 -0.547484 1129 0.733220 0.679992 0.000000
-6.948252 -6.163831 -0.544632 1125 0.733220 0.679992 0.000000
-6.948656 -6.164178 -0.541799 1125 0.733220 0.679992 0.000000
-6.948554 -6.164096 -0.538930 1123 0.733220 0.679992 0.000000
-6.948074 -6.163671 -0.536034 1115 0.733220 0.679992 0.000000
-6.947650 -6.163290 -0.533138 1117 0.733220 0.679992 0.000000
-6.947331 -6.163015 -0.530261 1115 0.733220 0.679992 0.000000
-6.946899 -6.162626 -0.527364 1119 0.733220 0.679992 0.000000
-6.947079 -6.162788 -0.524513 1121 0.733220 0.679992 0.000000
-6.947418 -6.163085 -0.521680 1117 0.733220 0.679992 0.000000
-6.947477 -6.163140 -0.518819 1129 0.733220 0.679992 0.000000
-6.948035 -6.163631 -0.516004 1141 0.733220 0.679992 0.000000
-6.948971 -6.164466 -0.513205 1139 0.733220 0.679992 0.000000
-6.948917 -6.164421 -0.510346 1143 0.733220 0.679992 0.000000
-6.948163 -6.163746 -0.507432 1153 0.733220 0.679992 0.000000
-6.947781 -6.163409 -0.504546 1141 0.733220 0.679992 0.000000
-6.948499 -6.164050 -0.501729 1151 0.733220 0.679992 0.000000
-6.948059 -6.163655 -0.498843 1141 0.733220 0.679992 0.000000
-6.946870 -6.162593 -0.495894 1133 0.733220 0.679992 0.000000
-6.947517 -6.163180 -0.493088 1133 0.733220 0.679992 0.000000
-6.948179 -6.163764 -0.490272 1137 0.733220 0.679992 0.000000
-6.948454 -6.163999 -0.487429 1151 0.733220 0.679992 0.000000
-6.947903 -6.163519 -0.484534 1141 0.733220 0.679992 0.000000
-6.947736 -6.163375 -0.481656 1149 0.733220 0.679992 0.000000
-6.947802 -6.163422 -0.478805 1145 0.733220 0.679992 0.000000
-6.947628 -6.163271 -0.475937 1147 0.733220 0.679992 0.000000
-6.947567 -6.163221 -0.473067 1135 0.733220 0.679992 0.000000
-6.947849 -6.163462 -0.470224 1139 0.733220 0.679992 0.000000
-6.947788 -6.163411 -0.467365 1137 0.733220 0.679992 0.000000
-6.948217 -6.163790 -0.464531 1149 0.733220 0.679992 0.000000
-6.948211 -6.163782 -0.461671 1147 0.733220 0.679992 0.000000
-6.947498 -6.163152 -0.458767 1135 0.733220 0.679992 0.000000
-6.947871 -6.163487 -0.455934 1129 0.733220 0.679992 0.000000
-6.948685 -6.164203 -0.453126 1121 0.733220 0.679992 0.000000
-6.948076 -6.163665 -0.450232 1117 0.733220 0.679992 0.000000
-6.947845 -6.163458 -0.447354 1129 0.733220 0.679992 0.000000
-6.947946 -6.163558 -0.444503 1129 0.733220 0.679992 0.000000
-6.947561 -6.163207 -0.441626 1137 0.733220 0.679992 0.000000
-6.947871 -6.163494 -0.438783 1137 0.733220 0.679992 0.000000
-6.947857 -6.163480 -0.435924 1119 0.733220 0.679992 0.000000
-6.947852 -6.163473 -0.433064 1115 0.733220 0.679992 0.000000
-6.947950 -6.163558 -0.430213 1137 0.733220 0.679992 0.000000
