786
-7.020496 -6.086329 -0.439008 681 0.733220 0.679992 0.000000
-7.022030 -6.087664 -0.436234 701 0.733220 0.679992 0.000000
-7.022507 -6.088080 -0.433409 709 0.733220 0.679992 0.000000
-7.020792 -6.086586 -0.430445 687 0.733220 0.679992 0.000000
-7.020827 -6.086623 -0.427584 677 0.733220 0.679992 0.000000
-7.021639 -6.087324 -0.424777 687 0.733220 0.679992 0.000000
-7.022187 -6.087794 -0.421952 705 0.733220 0.679992 0.000000
-7.022222 -6.087831 -0.419091 695 0.733220 0.679992 0.000000
-7.021822 -6.087481 -0.416205 667 0.733220 0.679992 0.000000
-7.021914 -6.087561 -0.413354 675 0.733220 0.679992 0.000000
-7.021402 -6.087112 -0.410469 665 0.733220 0.679992 0.000000
-7.021270 -6.087006 -0.407600 661 0.733220 0.679992 0.000000
-7.021641 -6.087328 -0.404756 667 0.733220 0.679992 0.000000
-7.022123 -6.087736 -0.401932 701 0.733220 0.679992 0.000000
-7.022096 -6.087724 -0.399072 685 0.733220 0.679992 0.000000
-7.021752 -6.087416 -0.396185 673 0.733220 0.679992 0.000000
-7.022220 -6.087826 -0.393361 685 0.733220 0.679992 0.000000
-7.021758 -6.087428 -0.390475 693 0.733220 0.679992 0.000000
-7.022185 -6.087792 -0.387631 691 0.733220 0.679992 0.000000
-7.022821 -6.088345 -0.384815 675 0.733220 0.679992 0.000000
-7.022847 -6.088361 -0.381955 689 0.733220 0.679992 0.000000
-7.022441 -6.088019 -0.379068 691 0.733220 0.679992 0.000000
-7.021306 -6.087037 -0.376159 669 0.733220 0.679992 0.000000
-7.021830 -6.087489 -0.373324 695 0.733220 0.679992 0.000000
-7.022143 -6.087754 -0.370481 669 0.733220 0.679992 0.000000
-7.022443 -6.088020 -0.367638 671 0.733220 0.679992 0.000000
-7.022533 -6.088087 -0.364787 673 0.733220 0.679992 0.000000
-7.022616 -6.088160 -0.361927 709 0.733220 0.679992 0.000000
-7.022146 -6.087756 -0.359051 689 0.733220 0.679992 0.000000
-7.021010 -6.086772 -0.356131 671 0.733220 0.679992 0.000000
-7.020642 -6.086447 -0.353264 677 0.733220 0.679992 0.000000
-7.020782 -6.086577 -0.350413 685 0.733220 0.679992 0.000000
-7.021522 -6.087209 -0.347586 681 0.733220 0.679992 0.000000
-7.021927 -6.087570 -0.344752 685 0.733220 0.679992 0.000000
-7.022120 -6.087729 -0.341901 705 0.733220 0.679992 0.000000
-7.023414 -6.088853 -0.339099 715 0.733220 0.679992 0.000000
-7.023376 -6.088820 -0.336239 709 0.733220 0.679992 0.000000
-7.022296 -6.087881 -0.333339 689 0.733220 0.679992 0.000000
-7.023092 -6.088569 -0.330512 693 0.733220 0.679992 0.000000
-7.022719 -6.088252 -0.327635 683 0.733220 0.679992 0.000000
-7.021526 -6.087212 -0.324726 659 0.733220 0.679992 0.000000
-7.021648 -6.087317 -0.321874 689 0.733220 0.679992 0.000000
-7.022436 -6.087998 -0.319057 693 0.733220 0.679992 0.000000
-7.021958 -6.087588 -0.316172 685 0.733220 0.679992 0.000000
-7.021142 -6.086878 -0.313279 697 0.733220 0.679992 0.000000
-7.021666 -6.087330 -0.310444 699 0.733220 0.679992 0.000000
-7.022110 -6.087721 -0.307610 699 0.733220 0.679992 0.000000
-7.023919 -6.085577 -0.699791 647 0.733220 0.679992 0.000000
-7.023585 -6.085290 -0.696884 643 0.733220 0.679992 0.000000
-7.023796 -6.085475 -0.694032 643 0.733220 0.679992 0.000000
-7.024071 -6.085710 -0.691189 635 0.733220 0.679992 0.000000
-7.023231 -6.084982 -0.688247 663 0.733220 0.679992 0.000000
-7.023610 -6.085310 -0.685413 663 0.733220 0.679992 0.000000
-7.024262 -6.085874 -0.682607 659 0.733220 0.679992 0.000000
-7.024201 -6.085823 -0.679728 675 0.733220 0.679992 0.000000
-7.023642 -6.085337 -0.676803 671 0.733220 0.679992 0.000000
-7.023347 -6.085081 -0.673905 647 0.733220 0.679992 0.000000
-7.023405 -6.085122 -0.671045 625 0.733220 0.679992 0.000000
-7.023391 -6.085108 -0.668175 651 0.733220 0.679992 0.000000
-7.023427 -6.085145 -0.665314 615 0.733220 0.679992 0.000000
-7.023580 -6.085273 -0.662463 619 0.733220 0.679992 0.000000
-7.024395 -6.085988 -0.659666 647 0.733220 0.679992 0.000000
-7.023995 -6.085639 -0.656759 643 0.733220 0.679992 0.000000
-7.023813 -6.085482 -0.653881 645 0.733220 0.679992 0.000000
-7.024681 -6.086226 -0.651083 659 0.733220 0.679992 0.000000
-7.024821 -6.086356 -0.648231 641 0.733220 0.679992 0.000000
-7.023098 -6.084856 -0.645207 635 0.733220 0.679992 0.000000
-7.023029 -6.084799 -0.642337 617 0.733220 0.679992 0.000000
-7.024604 -6.086165 -0.639613 651 0.733220 0.679992 0.000000
-7.024967 -6.086482 -0.636770 637 0.733220 0.679992 0.000000
-7.025009 -6.086510 -0.633909 651 0.733220 0.679992 0.000000
-7.024772 -6.086311 -0.631021 647 0.733220 0.679992 0.000000
-7.024307 -6.085898 -0.628116 657 0.733220 0.679992 0.000000
-7.023228 -6.084972 -0.625155 649 0.733220 0.679992 0.000000
-7.022557 -6.084386 -0.622231 631 0.733220 0.679992 0.000000
-7.022632 -6.084454 -0.619371 649 0.733220 0.679992 0.000000
-7.023058 -6.084818 -0.616537 671 0.733220 0.679992 0.000000
-7.023582 -6.085270 -0.613722 679 0.733220 0.679992 0.000000
-7.024001 -6.085629 -0.610888 681 0.733220 0.679992 0.000000
-7.024084 -6.085702 -0.608027 687 0.733220 0.679992 0.000000
-7.023396 -6.085104 -0.605103 675 0.733220 0.679992 0.000000
-7.022260 -6.084121 -0.602144 665 0.733220 0.679992 0.000000
-7.022175 -6.084053 -0.599274 661 0.733220 0.679992 0.000000
-7.023035 -6.084791 -0.596476 667 0.733220 0.679992 0.000000
-7.023286 -6.085007 -0.593634 671 0.733220 0.679992 0.000000
-7.023256 -6.084980 -0.590764 667 0.733220 0.679992 0.000000
-7.023766 -6.085434 -0.587940 673 0.733220 0.679992 0.000000
-7.023686 -6.085357 -0.585070 643 0.733220 0.679992 0.000000
-7.022991 -6.084753 -0.582146 657 0.733220 0.679992 0.000000
-7.023122 -6.084863 -0.579295 693 0.733220 0.679992 0.000000
-7.023862 -6.085509 -0.576488 673 0.733220 0.679992 0.000000
-7.023497 -6.085197 -0.573602 675 0.733220 0.679992 0.000000
-7.023074 -6.084830 -0.570695 655 0.733220 0.679992 0.000000
-7.023925 -6.085561 -0.567898 663 0.733220 0.679992 0.000000
-7.024610 -6.086150 -0.565091 677 0.733220 0.679992 0.000000
-7.024453 -6.086025 -0.562213 673 0.733220 0.679992 0.000000
-7.023596 -6.085271 -0.559281 667 0.733220 0.679992 0.000000
-7.023110 -6.084854 -0.556385 683 0.733220 0.679992 0.000000
-7.023570 -6.085257 -0.553551 697 0.733220 0.679992 0.000000
-7.024309 -6.085888 -0.550744 675 0.733220 0.679992 0.000000
-7.024536 -6.086087 -0.547902 677 0.733220 0.679992 0.000000
-7.024331 -6.085912 -0.545024 697 0.733220 0.679992 0.000000
-7.024621 -6.086158 -0.542181 681 0.733220 0.679992 0.000000
-7.024030 -6.085648 -0.539266 671 0.733220 0.679992 0.000000
-7.023544 -6.085231 -0.536370 653 0.733220 0.679992 0.000000
-7.024493 -6.086050 -0.533582 693 0.733220 0.679992 0.000000
-7.024664 -6.086204 -0.530730 687 0.733220 0.679992 0.000000
-7.024297 -6.085879 -0.527833 699 0.733220 0.679992 0.000000
-7.023859 -6.085499 -0.524947 679 0.733220 0.679992 0.000000
-7.024696 -6.086232 -0.522140 695 0.733220 0.679992 0.000000
-7.025364 -6.086809 -0.519324 693 0.733220 0.679992 0.000000
-7.024883 -6.086383 -0.516428 715 0.733220 0.679992 0.000000
-7.024390 -6.085960 -0.513532 685 0.733220 0.679992 0.000000
-7.024287 -6.085865 -0.510663 707 0.733220 0.679992 0.000000
-7.024283 -6.085871 -0.507793 725 0.733220 0.679992 0.000000
-7.024678 -6.086211 -0.504959 721 0.733220 0.679992 0.000000
-7.024023 -6.085638 -0.502055 691 0.733220 0.679992 0.000000
-7.023865 -6.085500 -0.499177 693 0.733220 0.679992 0.000000
-7.023090 -6.084834 -0.496264 685 0.733220 0.679992 0.000000
-7.022923 -6.084690 -0.493395 691 0.733220 0.679992 0.000000
-7.023655 -6.085316 -0.490578 689 0.733220 0.679992 0.000000
-7.023923 -6.085557 -0.487736 705 0.733220 0.679992 0.000000
-7.024038 -6.085656 -0.484885 701 0.733220 0.679992 0.000000
-7.023864 -6.085505 -0.482006 675 0.733220 0.679992 0.000000
-7.023817 -6.085454 -0.479147 663 0.733220 0.679992 0.000000
-7.024366 -6.085938 -0.476322 683 0.733220 0.679992 0.000000
-7.024976 -6.086458 -0.473496 689 0.733220 0.679992 0.000000
-7.024299 -6.085880 -0.470592 707 0.733220 0.679992 0.000000
-7.024141 -6.085742 -0.467723 735 0.733220 0.679992 0.000000
-7.024240 -6.085827 -0.464872 707 0.733220 0.679992 0.000000
-7.023078 -6.084812 -0.461933 701 0.733220 0.679992 0.000000
-7.022913 -6.084668 -0.459064 685 0.733220 0.679992 0.000000
-7.024062 -6.085667 -0.456274 693 0.733220 0.679992 0.000000
-7.024434 -6.085990 -0.453441 705 0.733220 0.679992 0.000000
-7.024436 -6.085988 -0.450570 691 0.733220 0.679992 0.000000
-7.023926 -6.085553 -0.447685 679 0.733220 0.679992 0.000000
-7.023471 -6.085160 -0.444799 697 0.733220 0.679992 0.000000
-7.023571 -6.085247 -0.441938 699 0.733220 0.679992 0.000000
-7.023235 -6.084945 -0.439061 695 0.733220 0.679992 0.000000
-7.023824 -6.085461 -0.436236 685 0.733220 0.679992 0.000000
-7.024258 -6.085831 -0.433402 693 0.733220 0.679992 0.000000
-7.023258 -6.084967 -0.430481 709 0.733220 0.679992 0.000000
-7.022033 -6.083902 -0.427552 665 0.733220 0.679992 0.000000
-7.022446 -6.084269 -0.424718 661 0.733220 0.679992 0.000000
-7.024422 -6.085984 -0.421970 695 0.733220 0.679992 0.000000
-7.024969 -6.086454 -0.419145 699 0.733220 0.679992 0.000000
-7.023904 -6.085526 -0.416224 707 0.733220 0.679992 0.000000
-7.023442 -6.085128 -0.413339 701 0.733220 0.679992 0.000000
-7.023645 -6.085307 -0.410487 683 0.733220 0.679992 0.000000
-7.024009 -6.085623 -0.407653 693 0.733220 0.679992 0.000000
-7.023442 -6.085131 -0.404758 669 0.733220 0.679992 0.000000
-7.023484 -6.085160 -0.401898 689 0.733220 0.679992 0.000000
-7.022909 -6.084661 -0.399013 675 0.733220 0.679992 0.000000
-7.023545 -6.085213 -0.396187 669 0.733220 0.679992 0.000000
-7.024197 -6.085778 -0.393361 689 0.733220 0.679992 0.000000
-7.023726 -6.085372 -0.390475 697 0.733220 0.679992 0.000000
-7.023760 -6.085395 -0.387625 689 0.733220 0.679992 0.000000
-7.024461 -6.086010 -0.384799 677 0.733220 0.679992 0.000000
-7.024215 -6.085791 -0.381931 695 0.733220 0.679992 0.000000
-7.023255 -6.084957 -0.379019 673 0.733220 0.679992 0.000000
-7.023723 -6.085366 -0.376185 663 0.733220 0.679992 0.000000
-7.024141 -6.085724 -0.373351 667 0.733220 0.679992 0.000000
-7.024497 -6.086034 -0.370508 693 0.733220 0.679992 0.000000
-7.023755 -6.085394 -0.367615 693 0.733220 0.679992 0.000000
-7.022626 -6.084417 -0.364695 655 0.733220 0.679992 0.000000
-7.023205 -6.084912 -0.361870 661 0.733220 0.679992 0.000000
-7.023841 -6.085464 -0.359044 689 0.733220 0.679992 0.000000
-7.023581 -6.085247 -0.356176 693 0.733220 0.679992 0.000000
-7.023334 -6.085027 -0.353298 697 0.733220 0.679992 0.000000
-7.023690 -6.085337 -0.350465 701 0.733220 0.679992 0.000000
-7.024653 -6.086168 -0.347646 697 0.733220 0.679992 0.000000
-7.024737 -6.086241 -0.344795 681 0.733220 0.679992 0.000000
-7.024531 -6.086067 -0.341927 707 0.733220 0.679992 0.000000
-7.024725 -6.086226 -0.339075 691 0.733220 0.679992 0.000000
-7.025290 -6.086722 -0.336250 703 0.733220 0.679992 0.000000
-7.025315 -6.086740 -0.333390 683 0.733220 0.679992 0.000000
-7.024837 -6.086329 -0.330514 697 0.733220 0.679992 0.000000
-7.024352 -6.085912 -0.327628 677 0.733220 0.679992 0.000000
-7.023431 -6.085108 -0.324737 659 0.733220 0.679992 0.000000
-7.023176 -6.084883 -0.321859 677 0.733220 0.679992 0.000000
-7.024406 -6.085957 -0.319058 699 0.733220 0.679992 0.000000
-7.023984 -6.085589 -0.316181 705 0.733220 0.679992 0.000000
-7.023336 -6.085022 -0.313297 691 0.733220 0.679992 0.000000
-7.025231 -6.086661 -0.310520 685 0.733220 0.679992 0.000000
-7.024962 -6.086437 -0.307652 703 0.733220 0.679992 0.000000
-7.025211 -6.083088 -0.699737 641 0.733220 0.679992 0.000000
-7.025373 -6.083222 -0.696885 641 0.733220 0.679992 0.000000
-7.024984 -6.082892 -0.693979 657 0.733220 0.679992 0.000000
-7.025628 -6.083451 -0.691173 665 0.733220 0.679992 0.000000
-7.026238 -6.083970 -0.688357 663 0.733220 0.679992 0.000000
-7.025952 -6.083720 -0.685460 651 0.733220 0.679992 0.000000
-7.026100 -6.083857 -0.682608 673 0.733220 0.679992 0.000000
-7.026045 -6.083798 -0.679739 645 0.733220 0.679992 0.000000
-7.025871 -6.083648 -0.676850 635 0.733220 0.679992 0.000000
-7.025746 -6.083548 -0.673971 625 0.733220 0.679992 0.000000
-7.025411 -6.083248 -0.671064 643 0.733220 0.679992 0.000000
-7.025391 -6.083241 -0.668194 657 0.733220 0.679992 0.000000
-7.025264 -6.083127 -0.665315 633 0.733220 0.679992 0.000000
-7.024650 -6.082599 -0.662391 623 0.733220 0.679992 0.000000
-7.025350 -6.083200 -0.659594 635 0.733220 0.679992 0.000000
-7.026274 -6.084000 -0.656806 645 0.733220 0.679992 0.000000
-7.026532 -6.084222 -0.653964 651 0.733220 0.679992 0.000000
-7.026183 -6.083923 -0.651067 643 0.733220 0.679992 0.000000
-7.026001 -6.083766 -0.648178 645 0.733220 0.679992 0.000000
-7.025715 -6.083517 -0.645281 663 0.733220 0.679992 0.000000
-7.025580 -6.083397 -0.642402 657 0.733220 0.679992 0.000000
-7.025784 -6.083577 -0.639560 645 0.733220 0.679992 0.000000
-7.025553 -6.083369 -0.636672 633 0.733220 0.679992 0.000000
-7.025531 -6.083349 -0.633802 637 0.733220 0.679992 0.000000
-7.025124 -6.082994 -0.630896 631 0.733220 0.679992 0.000000
-7.025424 -6.083261 -0.628053 627 0.733220 0.679992 0.000000
-7.025795 -6.083582 -0.625220 637 0.733220 0.679992 0.000000
-7.025276 -6.083127 -0.622314 655 0.733220 0.679992 0.000000
-7.025535 -6.083348 -0.619462 671 0.733220 0.679992 0.000000
-7.026829 -6.084473 -0.616710 683 0.733220 0.679992 0.000000
-7.026967 -6.084589 -0.613859 685 0.733220 0.679992 0.000000
-7.025951 -6.083713 -0.610908 693 0.733220 0.679992 0.000000
-7.025537 -6.083350 -0.608002 673 0.733220 0.679992 0.000000
-7.025837 -6.083617 -0.605159 681 0.733220 0.679992 0.000000
-7.025975 -6.083733 -0.602307 679 0.733220 0.679992 0.000000
-7.025296 -6.083141 -0.599384 649 0.733220 0.679992 0.000000
-7.025098 -6.082973 -0.596505 659 0.733220 0.679992 0.000000
-7.025509 -6.083325 -0.593672 671 0.733220 0.679992 0.000000
-7.025367 -6.083200 -0.590793 663 0.733220 0.679992 0.000000
-7.025386 -6.083224 -0.587932 669 0.733220 0.679992 0.000000
-7.025693 -6.083483 -0.585090 675 0.733220 0.679992 0.000000
-7.025986 -6.083744 -0.582247 683 0.733220 0.679992 0.000000
-7.025402 -6.083239 -0.579342 677 0.733220 0.679992 0.000000
-7.025813 -6.083591 -0.576508 669 0.733220 0.679992 0.000000
-7.026665 -6.084323 -0.573711 647 0.733220 0.679992 0.000000
-7.026467 -6.084154 -0.570832 683 0.733220 0.679992 0.000000
-7.026485 -6.084165 -0.567962 687 0.733220 0.679992 0.000000
-7.026609 -6.084283 -0.565111 681 0.733220 0.679992 0.000000
-7.026467 -6.084157 -0.562232 691 0.733220 0.679992 0.000000
-7.026100 -6.083832 -0.559345 669 0.733220 0.679992 0.000000
-7.025509 -6.083322 -0.556431 685 0.733220 0.679992 0.000000
-7.025472 -6.083289 -0.553561 681 0.733220 0.679992 0.000000
-7.025762 -6.083536 -0.550718 689 0.733220 0.679992 0.000000
-7.026823 -6.084454 -0.547939 689 0.733220 0.679992 0.000000
-7.027058 -6.084658 -0.545096 687 0.733220 0.679992 0.000000
-7.025738 -6.083520 -0.542128 695 0.733220 0.679992 0.000000
-7.025043 -6.082916 -0.539214 695 0.733220 0.679992 0.000000
-7.025383 -6.083214 -0.536381 655 0.733220 0.679992 0.000000
-7.026507 -6.084181 -0.533601 667 0.733220 0.679992 0.000000
-7.027055 -6.084666 -0.530776 689 0.733220 0.679992 0.000000
-7.026248 -6.083961 -0.527853 679 0.733220 0.679992 0.000000
-7.025816 -6.083588 -0.524957 667 0.733220 0.679992 0.000000
-7.026149 -6.083879 -0.522114 697 0.733220 0.679992 0.000000
-7.025887 -6.083648 -0.519236 701 0.733220 0.679992 0.000000
-7.026441 -6.084124 -0.516411 709 0.733220 0.679992 0.000000
-7.025956 -6.083707 -0.513516 707 0.733220 0.679992 0.000000
-7.024804 -6.082712 -0.510566 685 0.733220 0.679992 0.000000
-7.025141 -6.082995 -0.507733 683 0.733220 0.679992 0.000000
-7.025369 -6.083193 -0.504891 671 0.733220 0.679992 0.000000
-7.025483 -6.083291 -0.502030 671 0.733220 0.679992 0.000000
-7.025815 -6.083583 -0.499197 695 0.733220 0.679992 0.000000
-7.026371 -6.084059 -0.496372 687 0.733220 0.679992 0.000000
-7.026485 -6.084157 -0.493510 695 0.733220 0.679992 0.000000
-7.026046 -6.083777 -0.490624 697 0.733220 0.679992 0.000000
-7.025817 -6.083584 -0.487746 711 0.733220 0.679992 0.000000
-7.025827 -6.083588 -0.484886 711 0.733220 0.679992 0.000000
-7.026206 -6.083917 -0.482053 693 0.733220 0.679992 0.000000
-7.025936 -6.083679 -0.479165 671 0.733220 0.679992 0.000000
-7.025208 -6.083050 -0.476262 685 0.733220 0.679992 0.000000
-7.025156 -6.083005 -0.473392 677 0.733220 0.679992 0.000000
-7.025928 -6.083675 -0.470585 673 0.733220 0.679992 0.000000
-7.026692 -6.084339 -0.467778 681 0.733220 0.679992 0.000000
-7.026246 -6.083953 -0.464882 675 0.733220 0.679992 0.000000
-7.026023 -6.083752 -0.462004 679 0.733220 0.679992 0.000000
-7.025681 -6.083459 -0.459127 665 0.733220 0.679992 0.000000
-7.025179 -6.083030 -0.456231 695 0.733220 0.679992 0.000000
-7.026007 -6.083743 -0.453424 733 0.733220 0.679992 0.000000
-7.026722 -6.084356 -0.450607 727 0.733220 0.679992 0.000000
-7.026653 -6.084300 -0.447748 697 0.733220 0.679992 0.000000
-7.026143 -6.083863 -0.444852 679 0.733220 0.679992 0.000000
-7.026193 -6.083899 -0.441992 677 0.733220 0.679992 0.000000
-7.026340 -6.084035 -0.439140 707 0.733220 0.679992 0.000000
-7.025942 -6.083686 -0.436254 703 0.733220 0.679992 0.000000
-7.025165 -6.083006 -0.433351 683 0.733220 0.679992 0.000000
-7.024992 -6.082856 -0.430483 689 0.733220 0.679992 0.000000
-7.024369 -6.082321 -0.427588 681 0.733220 0.679992 0.000000
-7.024243 -6.082207 -0.424719 693 0.733220 0.679992 0.000000
-7.025497 -6.083300 -0.421928 685 0.733220 0.679992 0.000000
-7.025868 -6.083622 -0.419094 671 0.733220 0.679992 0.000000
-7.025911 -6.083652 -0.416234 673 0.733220 0.679992 0.000000
-7.025834 -6.083589 -0.413374 689 0.733220 0.679992 0.000000
-7.026318 -6.084011 -0.410540 707 0.733220 0.679992 0.000000
-7.026295 -6.083990 -0.407680 701 0.733220 0.679992 0.000000
-7.025841 -6.083598 -0.404794 683 0.733220 0.679992 0.000000
-7.026596 -6.084241 -0.401977 709 0.733220 0.679992 0.000000
-7.026455 -6.084130 -0.399109 703 0.733220 0.679992 0.000000
-7.024901 -6.082772 -0.396163 693 0.733220 0.679992 0.000000
-7.025105 -6.082952 -0.393321 703 0.733220 0.679992 0.000000
-7.025908 -6.083647 -0.390503 675 0.733220 0.679992 0.000000
-7.025663 -6.083441 -0.387625 659 0.733220 0.679992 0.000000
-7.026187 -6.083894 -0.384801 683 0.733220 0.679992 0.000000
-7.026053 -6.083774 -0.381932 663 0.733220 0.679992 0.000000
-7.025590 -6.083375 -0.379046 671 0.733220 0.679992 0.000000
-7.025841 -6.083591 -0.376204 667 0.733220 0.679992 0.000000
-7.026309 -6.084001 -0.373369 671 0.733220 0.679992 0.000000
-7.026118 -6.083824 -0.370501 689 0.733220 0.679992 0.000000
-7.026032 -6.083755 -0.367642 677 0.733220 0.679992 0.000000
-7.026678 -6.084314 -0.364816 681 0.733220 0.679992 0.000000
-7.026431 -6.084094 -0.361938 687 0.733220 0.679992 0.000000
-7.026169 -6.083876 -0.359070 681 0.733220 0.679992 0.000000
-7.025474 -6.083272 -0.356176 687 0.733220 0.679992 0.000000
-7.025123 -6.082959 -0.353299 695 0.733220 0.679992 0.000000
-7.025751 -6.083506 -0.350474 703 0.733220 0.679992 0.000000
-7.026002 -6.083722 -0.347631 709 0.733220 0.679992 0.000000
-7.025854 -6.083604 -0.344763 675 0.733220 0.679992 0.000000
-7.025544 -6.083335 -0.341895 681 0.733220 0.679992 0.000000
-7.025897 -6.083631 -0.339052 683 0.733220 0.679992 0.000000
-7.026421 -6.084083 -0.336217 689 0.733220 0.679992 0.000000
-7.026495 -6.084150 -0.333367 687 0.733220 0.679992 0.000000
-7.026018 -6.083740 -0.330481 697 0.733220 0.679992 0.000000
-7.025259 -6.083086 -0.327588 699 0.733220 0.679992 0.000000
-7.025549 -6.083333 -0.324745 685 0.733220 0.679992 0.000000
-7.025737 -6.083501 -0.321903 693 0.733220 0.679992 0.000000
-7.025587 -6.083369 -0.319035 691 0.733220 0.679992 0.000000
-7.026222 -6.083906 -0.316209 675 0.733220 0.679992 0.000000
-7.025840 -6.083583 -0.313332 677 0.733220 0.679992 0.000000
-7.025304 -6.083116 -0.310447 693 0.733220 0.679992 0.000000
-7.026527 -6.084184 -0.307646 701 0.733220 0.679992 0.000000
-7.026827 -6.080671 -0.699710 657 0.733220 0.679992 0.000000
-7.026934 -6.080763 -0.696859 679 0.733220 0.679992 0.000000
-7.027192 -6.080985 -0.694017 659 0.733220 0.679992 0.000000
-7.028132 -6.081798 -0.691229 641 0.733220 0.679992 0.000000
-7.028344 -6.081983 -0.688387 641 0.733220 0.679992 0.000000
-7.027568 -6.081304 -0.685444 649 0.733220 0.679992 0.000000
-7.027281 -6.081053 -0.682546 649 0.733220 0.679992 0.000000
-7.027766 -6.081476 -0.679722 627 0.733220 0.679992 0.000000
-7.027705 -6.081425 -0.676842 623 0.733220 0.679992 0.000000
-7.027473 -6.081217 -0.673954 649 0.733220 0.679992 0.000000
-7.027244 -6.081024 -0.671066 643 0.733220 0.679992 0.000000
-7.027558 -6.081289 -0.668223 635 0.733220 0.679992 0.000000
-7.027433 -6.081190 -0.665344 623 0.733220 0.679992 0.000000
-7.026488 -6.080368 -0.662393 647 0.733220 0.679992 0.000000
-7.027020 -6.080826 -0.659568 661 0.733220 0.679992 0.000000
-7.027168 -6.080963 -0.656716 647 0.733220 0.679992 0.000000
-7.026937 -6.080756 -0.653829 633 0.733220 0.679992 0.000000
-7.027645 -6.081362 -0.651022 619 0.733220 0.679992 0.000000
-7.028058 -6.081729 -0.648198 641 0.733220 0.679992 0.000000
-7.027385 -6.081143 -0.645264 635 0.733220 0.679992 0.000000
-7.026755 -6.080602 -0.642340 639 0.733220 0.679992 0.000000
-7.027560 -6.081297 -0.639553 655 0.733220 0.679992 0.000000
-7.028645 -6.082233 -0.636773 667 0.733220 0.679992 0.000000
-7.028686 -6.082262 -0.633912 663 0.733220 0.679992 0.000000
-7.027398 -6.081149 -0.630934 637 0.733220 0.679992 0.000000
-7.027481 -6.081223 -0.628073 627 0.733220 0.679992 0.000000
-7.027740 -6.081445 -0.625231 639 0.733220 0.679992 0.000000
-7.027606 -6.081325 -0.622352 659 0.733220 0.679992 0.000000
-7.027640 -6.081362 -0.619481 657 0.733220 0.679992 0.000000
-7.027667 -6.081379 -0.616621 657 0.733220 0.679992 0.000000
-7.027757 -6.081458 -0.613760 657 0.733220 0.679992 0.000000
-7.027111 -6.080904 -0.610846 659 0.733220 0.679992 0.000000
-7.026767 -6.080598 -0.607949 645 0.733220 0.679992 0.000000
-7.027956 -6.081628 -0.605178 667 0.733220 0.679992 0.000000
-7.029025 -6.082552 -0.602409 669 0.733220 0.679992 0.000000
-7.029276 -6.082768 -0.599566 663 0.733220 0.679992 0.000000
-7.029023 -6.082557 -0.596678 659 0.733220 0.679992 0.000000
-7.028776 -6.082338 -0.593791 681 0.733220 0.679992 0.000000
-7.028860 -6.082412 -0.590930 699 0.733220 0.679992 0.000000
-7.028541 -6.082137 -0.588033 687 0.733220 0.679992 0.000000
-7.027854 -6.081539 -0.585119 679 0.733220 0.679992 0.000000
-7.027208 -6.080986 -0.582194 669 0.733220 0.679992 0.000000
-7.027577 -6.081294 -0.579361 683 0.733220 0.679992 0.000000
-7.027644 -6.081355 -0.576500 675 0.733220 0.679992 0.000000
-7.027279 -6.081043 -0.573604 651 0.733220 0.679992 0.000000
-7.027577 -6.081296 -0.570771 667 0.733220 0.679992 0.000000
-7.028478 -6.082078 -0.567973 701 0.733220 0.679992 0.000000
-7.028232 -6.081859 -0.565095 681 0.733220 0.679992 0.000000
-7.027858 -6.081542 -0.562198 683 0.733220 0.679992 0.000000
-7.028205 -6.081845 -0.559355 687 0.733220 0.679992 0.000000
-7.028278 -6.081898 -0.556504 699 0.733220 0.679992 0.000000
-7.028241 -6.081866 -0.553635 697 0.733220 0.679992 0.000000
-7.028203 -6.081834 -0.550765 689 0.733220 0.679992 0.000000
-7.028158 -6.081796 -0.547895 673 0.733220 0.679992 0.000000
-7.028008 -6.081664 -0.545026 655 0.733220 0.679992 0.000000
-7.027577 -6.081289 -0.542130 659 0.733220 0.679992 0.000000
-7.027036 -6.080830 -0.539225 663 0.733220 0.679992 0.000000
-7.027494 -6.081219 -0.536391 665 0.733220 0.679992 0.000000
-7.028883 -6.082417 -0.533638 687 0.733220 0.679992 0.000000
-7.029448 -6.082913 -0.530813 699 0.733220 0.679992 0.000000
-7.029186 -6.082682 -0.527925 679 0.733220 0.679992 0.000000
-7.029085 -6.082601 -0.525056 677 0.733220 0.679992 0.000000
-7.027988 -6.081648 -0.522116 675 0.733220 0.679992 0.000000
-7.026619 -6.080460 -0.519148 667 0.733220 0.679992 0.000000
-7.027617 -6.081328 -0.516359 683 0.733220 0.679992 0.000000
-7.028516 -6.082097 -0.513561 683 0.733220 0.679992 0.000000
-7.027909 -6.081574 -0.510656 683 0.733220 0.679992 0.000000
-7.028183 -6.081808 -0.507814 691 0.733220 0.679992 0.000000
-7.028306 -6.081913 -0.504963 681 0.733220 0.679992 0.000000
-7.028029 -6.081683 -0.502075 705 0.733220 0.679992 0.000000
-7.027374 -6.081109 -0.499171 685 0.733220 0.679992 0.000000
-7.027705 -6.081400 -0.496338 687 0.733220 0.679992 0.000000
-7.028373 -6.081977 -0.493512 709 0.733220 0.679992 0.000000
-7.028263 -6.081876 -0.490643 709 0.733220 0.679992 0.000000
-7.027271 -6.081017 -0.487722 699 0.733220 0.679992 0.000000
-7.027435 -6.081166 -0.484870 705 0.733220 0.679992 0.000000
-7.028095 -6.081737 -0.482054 697 0.733220 0.679992 0.000000
-7.027656 -6.081356 -0.479158 691 0.733220 0.679992 0.000000
-7.027545 -6.081254 -0.476289 701 0.733220 0.679992 0.000000
-7.026722 -6.080538 -0.473376 683 0.733220 0.679992 0.000000
-7.026597 -6.080439 -0.470507 683 0.733220 0.679992 0.000000
-7.028364 -6.081966 -0.467761 669 0.733220 0.679992 0.000000
-7.028975 -6.082486 -0.464936 679 0.733220 0.679992 0.000000
-7.027911 -6.081572 -0.462005 687 0.733220 0.679992 0.000000
-7.027633 -6.081328 -0.459128 695 0.733220 0.679992 0.000000
-7.028012 -6.081656 -0.456294 715 0.733220 0.679992 0.000000
-7.028006 -6.081648 -0.453434 721 0.733220 0.679992 0.000000
-7.027721 -6.081412 -0.450557 703 0.733220 0.679992 0.000000
-7.028044 -6.081683 -0.447714 711 0.733220 0.679992 0.000000
-7.028486 -6.082061 -0.444880 697 0.733220 0.679992 0.000000
-7.028186 -6.081812 -0.442002 705 0.733220 0.679992 0.000000
-7.027795 -6.081469 -0.439116 699 0.733220 0.679992 0.000000
-7.027613 -6.081312 -0.436247 685 0.733220 0.679992 0.000000
-7.027544 -6.081256 -0.433378 693 0.733220 0.679992 0.000000
-7.026823 -6.080619 -0.430475 699 0.733220 0.679992 0.000000
-7.026922 -6.080705 -0.427624 687 0.733220 0.679992 0.000000
-7.027455 -6.081177 -0.424799 691 0.733220 0.679992 0.000000
-7.027937 -6.081585 -0.421964 697 0.733220 0.679992 0.000000
-7.028701 -6.082249 -0.419147 711 0.733220 0.679992 0.000000
-7.028512 -6.082086 -0.416279 695 0.733220 0.679992 0.000000
-7.027560 -6.081258 -0.413367 695 0.733220 0.679992 0.000000
-7.027546 -6.081244 -0.410508 683 0.733220 0.679992 0.000000
-7.027196 -6.080945 -0.407621 679 0.733220 0.679992 0.000000
-7.027119 -6.080883 -0.404761 685 0.733220 0.679992 0.000000
-7.027546 -6.081247 -0.401927 703 0.733220 0.679992 0.000000
-7.028183 -6.081800 -0.399101 699 0.733220 0.679992 0.000000
-7.028000 -6.081643 -0.396233 711 0.733220 0.679992 0.000000
-7.028147 -6.081765 -0.393382 727 0.733220 0.679992 0.000000
-7.028350 -6.081945 -0.390530 687 0.733220 0.679992 0.000000
-7.026942 -6.080726 -0.387602 667 0.733220 0.679992 0.000000
-7.026367 -6.080228 -0.384708 663 0.733220 0.679992 0.000000
-7.026843 -6.080643 -0.381873 677 0.733220 0.679992 0.000000
-7.027983 -6.081623 -0.379073 687 0.733220 0.679992 0.000000
-7.027786 -6.081454 -0.376205 671 0.733220 0.679992 0.000000
-7.027756 -6.081428 -0.373345 683 0.733220 0.679992 0.000000
-7.027285 -6.081023 -0.370469 691 0.733220 0.679992 0.000000
-7.026766 -6.080568 -0.367584 669 0.733220 0.679992 0.000000
-7.028236 -6.081840 -0.364800 695 0.733220 0.679992 0.000000
-7.028038 -6.081671 -0.361932 707 0.733220 0.679992 0.000000
-7.027015 -6.080789 -0.359021 695 0.733220 0.679992 0.000000
-7.027145 -6.080899 -0.356170 689 0.733220 0.679992 0.000000
-7.027781 -6.081451 -0.353344 713 0.733220 0.679992 0.000000
-7.027863 -6.081511 -0.350483 697 0.733220 0.679992 0.000000
-7.028105 -6.081720 -0.347641 695 0.733220 0.679992 0.000000
-7.028133 -6.081751 -0.344781 689 0.733220 0.679992 0.000000
-7.027823 -6.081483 -0.341913 699 0.733220 0.679992 0.000000
-7.027786 -6.081451 -0.339054 683 0.733220 0.679992 0.000000
-7.028084 -6.081704 -0.336211 691 0.733220 0.679992 0.000000
-7.027389 -6.081099 -0.333317 691 0.733220 0.679992 0.000000
-7.027023 -6.080788 -0.330440 695 0.733220 0.679992 0.000000
-7.027321 -6.081040 -0.327598 687 0.733220 0.679992 0.000000
-7.027725 -6.081387 -0.324764 671 0.733220 0.679992 0.000000
-7.028072 -6.081691 -0.321921 675 0.733220 0.679992 0.000000
-7.027754 -6.081417 -0.319054 681 0.733220 0.679992 0.000000
-7.028215 -6.081820 -0.316209 681 0.733220 0.679992 0.000000
-7.027624 -6.081309 -0.313325 677 0.733220 0.679992 0.000000
-7.027416 -6.081120 -0.310466 683 0.733220 0.679992 0.000000
-7.027596 -6.081282 -0.307615 689 0.733220 0.679992 0.000000
-7.029670 -6.079153 -0.699804 631 0.733220 0.679992 0.000000
-7.029568 -6.079058 -0.696925 635 0.733220 0.679992 0.000000
-7.028896 -6.078472 -0.693991 659 0.733220 0.679992 0.000000
-7.028834 -6.078421 -0.691112 653 0.733220 0.679992 0.000000
-7.029927 -6.079364 -0.688352 655 0.733220 0.679992 0.000000
-7.030201 -6.079598 -0.685509 665 0.733220 0.679992 0.000000
-7.029524 -6.079021 -0.682575 659 0.733220 0.679992 0.000000
-7.029736 -6.079206 -0.679723 633 0.733220 0.679992 0.000000
-7.030715 -6.080050 -0.676944 637 0.733220 0.679992 0.000000
-7.030211 -6.079606 -0.674029 627 0.733220 0.679992 0.000000
-7.029484 -6.078977 -0.671095 637 0.733220 0.679992 0.000000
-7.029037 -6.078590 -0.668179 635 0.733220 0.679992 0.000000
-7.028961 -6.078528 -0.665310 635 0.733220 0.679992 0.000000
-7.029445 -6.078950 -0.662485 655 0.733220 0.679992 0.000000
-7.029381 -6.078885 -0.659606 645 0.733220 0.679992 0.000000
-7.029249 -6.078779 -0.656727 615 0.733220 0.679992 0.000000
-7.029453 -6.078959 -0.653885 613 0.733220 0.679992 0.000000
-7.029158 -6.078702 -0.650988 643 0.733220 0.679992 0.000000
-7.029808 -6.079252 -0.648172 643 0.733220 0.679992 0.000000
-7.030342 -6.079725 -0.645357 639 0.733220 0.679992 0.000000
-7.031154 -6.080426 -0.642560 671 0.733220 0.679992 0.000000
-7.031188 -6.080449 -0.639699 659 0.733220 0.679992 0.000000
-7.030234 -6.079620 -0.636748 627 0.733220 0.679992 0.000000
-7.029878 -6.079316 -0.633841 633 0.733220 0.679992 0.000000
-7.030304 -6.079680 -0.631017 659 0.733220 0.679992 0.000000
-7.030836 -6.080139 -0.628192 667 0.733220 0.679992 0.000000
-7.030141 -6.079548 -0.625268 643 0.733220 0.679992 0.000000
-7.029798 -6.079241 -0.622371 651 0.733220 0.679992 0.000000
-7.030211 -6.079608 -0.619538 669 0.733220 0.679992 0.000000
-7.030350 -6.079724 -0.616686 673 0.733220 0.679992 0.000000
-7.030159 -6.079562 -0.613798 677 0.733220 0.679992 0.000000
-7.028982 -6.078535 -0.610838 661 0.733220 0.679992 0.000000
-7.028127 -6.077794 -0.607896 647 0.733220 0.679992 0.000000
-7.028931 -6.078487 -0.605099 663 0.733220 0.679992 0.000000
-7.029182 -6.078704 -0.602256 659 0.733220 0.679992 0.000000
-7.029586 -6.079064 -0.599423 659 0.733220 0.679992 0.000000
-7.030551 -6.079895 -0.596634 657 0.733220 0.679992 0.000000
-7.030409 -6.079770 -0.593765 665 0.733220 0.679992 0.000000
-7.030211 -6.079601 -0.590877 685 0.733220 0.679992 0.000000
-7.030181 -6.079575 -0.588007 679 0.733220 0.679992 0.000000
-7.029711 -6.079170 -0.585111 675 0.733220 0.679992 0.000000
-7.030178 -6.079566 -0.582277 667 0.733220 0.679992 0.000000
-7.030365 -6.079732 -0.579425 673 0.733220 0.679992 0.000000
-7.029733 -6.079177 -0.576511 657 0.733220 0.679992 0.000000
-7.029640 -6.079103 -0.573642 665 0.733220 0.679992 0.000000
-7.030043 -6.079449 -0.570808 665 0.733220 0.679992 0.000000
-7.030335 -6.079710 -0.567965 661 0.733220 0.679992 0.000000
-7.030193 -6.079584 -0.565096 683 0.733220 0.679992 0.000000
-7.030596 -6.079930 -0.562263 681 0.733220 0.679992 0.000000
-7.030509 -6.079847 -0.559384 667 0.733220 0.679992 0.000000
-7.030080 -6.079487 -0.556487 703 0.733220 0.679992 0.000000
-7.029545 -6.079019 -0.553582 683 0.733220 0.679992 0.000000
-7.029459 -6.078936 -0.550713 659 0.733220 0.679992 0.000000
-7.029743 -6.079191 -0.547870 651 0.733220 0.679992 0.000000
-7.030088 -6.079480 -0.545037 641 0.733220 0.679992 0.000000
-7.030373 -6.079735 -0.542194 669 0.733220 0.679992 0.000000
-7.030608 -6.079938 -0.539342 671 0.733220 0.679992 0.000000
-7.031066 -6.080328 -0.536518 675 0.733220 0.679992 0.000000
-7.030363 -6.079718 -0.533604 681 0.733220 0.679992 0.000000
-7.030037 -6.079437 -0.530717 681 0.733220 0.679992 0.000000
-7.030159 -6.079541 -0.527856 675 0.733220 0.679992 0.000000
-7.030009 -6.079409 -0.524987 707 0.733220 0.679992 0.000000
-7.030014 -6.079422 -0.522117 673 0.733220 0.679992 0.000000
-7.030632 -6.079947 -0.519301 687 0.733220 0.679992 0.000000
-7.030474 -6.079809 -0.516433 667 0.733220 0.679992 0.000000
-7.030365 -6.079722 -0.513554 683 0.733220 0.679992 0.000000
-7.030760 -6.080062 -0.510720 711 0.733220 0.679992 0.000000
-7.031100 -6.080359 -0.507887 721 0.733220 0.679992 0.000000
-7.030604 -6.079923 -0.504981 703 0.733220 0.679992 0.000000
-7.029829 -6.079257 -0.502068 671 0.733220 0.679992 0.000000
-7.030112 -6.079497 -0.499226 675 0.733220 0.679992 0.000000
-7.030059 -6.079453 -0.496366 685 0.733220 0.679992 0.000000
-7.029516 -6.078979 -0.493461 679 0.733220 0.679992 0.000000
-7.028958 -6.078507 -0.490566 699 0.733220 0.679992 0.000000
-7.029577 -6.079033 -0.487740 705 0.733220 0.679992 0.000000
-7.030839 -6.080132 -0.484969 695 0.733220 0.679992 0.000000
-7.030946 -6.080225 -0.482108 735 0.733220 0.679992 0.000000
-7.030345 -6.079694 -0.479213 701 0.733220 0.679992 0.000000
-7.030396 -6.079743 -0.476353 685 0.733220 0.679992 0.000000
-7.029958 -6.079362 -0.473457 703 0.733220 0.679992 0.000000
-7.029897 -6.079312 -0.470597 691 0.733220 0.679992 0.000000
-7.030276 -6.079640 -0.467754 701 0.733220 0.679992 0.000000
-7.030496 -6.079831 -0.464911 695 0.733220 0.679992 0.000000
-7.030104 -6.079488 -0.462025 687 0.733220 0.679992 0.000000
-7.029440 -6.078908 -0.459121 681 0.733220 0.679992 0.000000
-7.029429 -6.078908 -0.456261 727 0.733220 0.679992 0.000000
-7.028702 -6.078280 -0.453357 711 0.733220 0.679992 0.000000
-7.028646 -6.078221 -0.450488 689 0.733220 0.679992 0.000000
-7.029130 -6.078643 -0.447663 723 0.733220 0.679992 0.000000
-7.028956 -6.078492 -0.444785 703 0.733220 0.679992 0.000000
-7.028832 -6.078393 -0.441926 691 0.733220 0.679992 0.000000
-7.028882 -6.078428 -0.439065 689 0.733220 0.679992 0.000000
-7.028916 -6.078465 -0.436205 659 0.733220 0.679992 0.000000
-7.029016 -6.078551 -0.433354 693 0.733220 0.679992 0.000000
-7.028568 -6.078151 -0.430468 685 0.733220 0.679992 0.000000
-7.028666 -6.078236 -0.427617 689 0.733220 0.679992 0.000000
-7.029472 -6.078945 -0.424800 703 0.733220 0.679992 0.000000
-7.029522 -6.078980 -0.421939 699 0.733220 0.679992 0.000000
-7.029068 -6.078588 -0.419053 693 0.733220 0.679992 0.000000
-7.029655 -6.079102 -0.416228 673 0.733220 0.679992 0.000000
-7.029690 -6.079125 -0.413378 669 0.733220 0.679992 0.000000
-7.029516 -6.078975 -0.410509 679 0.733220 0.679992 0.000000
-7.029053 -6.078577 -0.407623 689 0.733220 0.679992 0.000000
-7.028919 -6.078457 -0.404754 683 0.733220 0.679992 0.000000
-7.028955 -6.078494 -0.401894 675 0.733220 0.679992 0.000000
-7.029101 -6.078616 -0.399042 663 0.733220 0.679992 0.000000
-7.030081 -6.079459 -0.396244 681 0.733220 0.679992 0.000000
-7.029732 -6.079161 -0.393367 683 0.733220 0.679992 0.000000
-7.028827 -6.078369 -0.390455 661 0.733220 0.679992 0.000000
-7.028966 -6.078499 -0.387603 653 0.733220 0.679992 0.000000
-7.030107 -6.079479 -0.384803 661 0.733220 0.679992 0.000000
-7.030806 -6.080080 -0.381987 671 0.733220 0.679992 0.000000
-7.031219 -6.080447 -0.379143 703 0.733220 0.679992 0.000000
-7.030972 -6.080227 -0.376275 701 0.733220 0.679992 0.000000
-7.029621 -6.079065 -0.373347 693 0.733220 0.679992 0.000000
-7.029429 -6.078888 -0.370479 683 0.733220 0.679992 0.000000
-7.029402 -6.078876 -0.367619 675 0.733220 0.679992 0.000000
-7.028265 -6.077894 -0.364699 663 0.733220 0.679992 0.000000
-7.029565 -6.079010 -0.361907 653 0.733220 0.679992 0.000000
-7.031636 -6.080798 -0.359149 685 0.733220 0.679992 0.000000
-7.031607 -6.080771 -0.356289 695 0.733220 0.679992 0.000000
-7.030751 -6.080031 -0.353397 711 0.733220 0.679992 0.000000
-7.029497 -6.078957 -0.350478 701 0.733220 0.679992 0.000000
-7.029082 -6.078594 -0.347592 687 0.733220 0.679992 0.000000
-7.029493 -6.078947 -0.344758 701 0.733220 0.679992 0.000000
-7.029896 -6.079293 -0.341914 687 0.733220 0.679992 0.000000
-7.029803 -6.079218 -0.339055 697 0.733220 0.679992 0.000000
-7.030046 -6.079428 -0.336213 719 0.733220 0.679992 0.000000
-7.029799 -6.079209 -0.333345 691 0.733220 0.679992 0.000000
-7.029271 -6.078747 -0.330459 683 0.733220 0.679992 0.000000
-7.029388 -6.078859 -0.327608 687 0.733220 0.679992 0.000000
-7.029310 -6.078783 -0.324749 677 0.733220 0.679992 0.000000
-7.029048 -6.078565 -0.321881 691 0.733220 0.679992 0.000000
-7.029394 -6.078855 -0.319038 709 0.733220 0.679992 0.000000
-7.030240 -6.079594 -0.316220 717 0.733220 0.679992 0.000000
-7.030313 -6.079647 -0.313360 691 0.733220 0.679992 0.000000
-7.030157 -6.079523 -0.310501 685 0.733220 0.679992 0.000000
-7.029509 -6.078956 -0.307617 679 0.733220 0.679992 0.000000
-7.031590 -6.077047 -0.699805 669 0.733220 0.679992 0.000000
-7.032362 -6.077718 -0.697018 667 0.733220 0.679992 0.000000
-7.032406 -6.077761 -0.694148 657 0.733220 0.679992 0.000000
-7.032182 -6.077559 -0.691260 655 0.733220 0.679992 0.000000
-7.032554 -6.077882 -0.688426 677 0.733220 0.679992 0.000000
-7.032380 -6.077731 -0.685538 657 0.733220 0.679992 0.000000
-7.032319 -6.077681 -0.682658 653 0.733220 0.679992 0.000000
-7.032522 -6.077860 -0.679816 641 0.733220 0.679992 0.000000
-7.032356 -6.077715 -0.676928 625 0.733220 0.679992 0.000000
-7.031853 -6.077272 -0.674012 631 0.733220 0.679992 0.000000
-7.031615 -6.077073 -0.671124 643 0.733220 0.679992 0.000000
-7.031328 -6.076822 -0.668227 649 0.733220 0.679992 0.000000
-7.031483 -6.076952 -0.665365 641 0.733220 0.679992 0.000000
-7.031028 -6.076559 -0.662459 649 0.733220 0.679992 0.000000
-7.031344 -6.076838 -0.659616 637 0.733220 0.679992 0.000000
-7.032052 -6.077445 -0.656820 637 0.733220 0.679992 0.000000
-7.032302 -6.077661 -0.653968 611 0.733220 0.679992 0.000000
-7.032401 -6.077746 -0.651117 639 0.733220 0.679992 0.000000
-7.031834 -6.077255 -0.648192 629 0.733220 0.679992 0.000000
-7.032366 -6.077713 -0.645377 651 0.733220 0.679992 0.000000
-7.031358 -6.076842 -0.642416 649 0.733220 0.679992 0.000000
-7.031231 -6.076728 -0.639537 643 0.733220 0.679992 0.000000
-7.031925 -6.077337 -0.636731 613 0.733220 0.679992 0.000000
-7.031798 -6.077223 -0.633852 641 0.733220 0.679992 0.000000
-7.032427 -6.077770 -0.631046 639 0.733220 0.679992 0.000000
-7.031700 -6.077140 -0.628112 657 0.733220 0.679992 0.000000
-7.029969 -6.075634 -0.625088 635 0.733220 0.679992 0.000000
-7.030822 -6.076379 -0.622300 633 0.733220 0.679992 0.000000
-7.032131 -6.077502 -0.619548 683 0.733220 0.679992 0.000000
-7.032430 -6.077768 -0.616706 689 0.733220 0.679992 0.000000
-7.031911 -6.077313 -0.613790 683 0.733220 0.679992 0.000000
-7.030895 -6.076437 -0.610839 667 0.733220 0.679992 0.000000
-7.030643 -6.076224 -0.607952 647 0.733220 0.679992 0.000000
-7.031117 -6.076626 -0.605127 669 0.733220 0.679992 0.000000
-7.032138 -6.077514 -0.602348 697 0.733220 0.679992 0.000000
-7.032774 -6.078066 -0.599532 705 0.733220 0.679992 0.000000
-7.032359 -6.077703 -0.596636 677 0.733220 0.679992 0.000000
-7.032049 -6.077435 -0.593749 661 0.733220 0.679992 0.000000
-7.032356 -6.077694 -0.590906 685 0.733220 0.679992 0.000000
-7.032920 -6.078192 -0.588081 707 0.733220 0.679992 0.000000
-7.032673 -6.077972 -0.585203 691 0.733220 0.679992 0.000000
-7.032372 -6.077710 -0.582305 681 0.733220 0.679992 0.000000
-7.032116 -6.077484 -0.579418 667 0.733220 0.679992 0.000000
-7.031415 -6.076888 -0.576504 667 0.733220 0.679992 0.000000
-7.031769 -6.077184 -0.573661 683 0.733220 0.679992 0.000000
-7.032061 -6.077445 -0.570828 675 0.733220 0.679992 0.000000
-7.032191 -6.077555 -0.567967 677 0.733220 0.679992 0.000000
-7.032057 -6.077435 -0.565098 671 0.733220 0.679992 0.000000
-7.031626 -6.077060 -0.562192 675 0.733220 0.679992 0.000000
-7.032038 -6.077413 -0.559358 695 0.733220 0.679992 0.000000
-7.032594 -6.077904 -0.556543 713 0.733220 0.679992 0.000000
-7.032285 -6.077636 -0.553656 659 0.733220 0.679992 0.000000
-7.031861 -6.077267 -0.550759 657 0.733220 0.679992 0.000000
-7.031871 -6.077272 -0.547889 643 0.733220 0.679992 0.000000
-7.031336 -6.076804 -0.544984 667 0.733220 0.679992 0.000000
-7.031733 -6.077159 -0.542160 671 0.733220 0.679992 0.000000
-7.032409 -6.077741 -0.539344 671 0.733220 0.679992 0.000000
-7.032258 -6.077609 -0.536465 649 0.733220 0.679992 0.000000
-7.032990 -6.078235 -0.533659 669 0.733220 0.679992 0.000000
-7.032006 -6.077382 -0.530718 675 0.733220 0.679992 0.000000
-7.030582 -6.076151 -0.527750 655 0.733220 0.679992 0.000000
-7.031369 -6.076833 -0.524953 675 0.733220 0.679992 0.000000
-7.031815 -6.077224 -0.522119 691 0.733220 0.679992 0.000000
-7.031712 -6.077129 -0.519250 697 0.733220 0.679992 0.000000
-7.031771 -6.077184 -0.516389 687 0.733220 0.679992 0.000000
-7.031893 -6.077288 -0.513538 675 0.733220 0.679992 0.000000
-7.031735 -6.077150 -0.510660 661 0.733220 0.679992 0.000000
-7.031137 -6.076633 -0.507755 675 0.733220 0.679992 0.000000
-7.031636 -6.077067 -0.504930 669 0.733220 0.679992 0.000000
-7.031919 -6.077308 -0.502088 669 0.733220 0.679992 0.000000
-7.031921 -6.077306 -0.499228 681 0.733220 0.679992 0.000000
-7.032084 -6.077455 -0.496376 659 0.733220 0.679992 0.000000
-7.031764 -6.077167 -0.493489 653 0.733220 0.679992 0.000000
-7.031711 -6.077122 -0.490619 673 0.733220 0.679992 0.000000
-7.031265 -6.076735 -0.487733 649 0.733220 0.679992 0.000000
-7.032478 -6.077785 -0.484952 661 0.733220 0.679992 0.000000
-7.033858 -6.078976 -0.482180 701 0.733220 0.679992 0.000000
-7.032980 -6.078217 -0.479258 697 0.733220 0.679992 0.000000
-7.032310 -6.077645 -0.476354 703 0.733220 0.679992 0.000000
-7.032144 -6.077501 -0.473485 687 0.733220 0.679992 0.000000
-7.032026 -6.077393 -0.470616 679 0.733220 0.679992 0.000000
-7.032077 -6.077442 -0.467755 661 0.733220 0.679992 0.000000
-7.032134 -6.077483 -0.464895 703 0.733220 0.679992 0.000000
-7.031456 -6.076905 -0.461991 695 0.733220 0.679992 0.000000
-7.030801 -6.076332 -0.459087 697 0.733220 0.679992 0.000000
-7.030458 -6.076039 -0.456210 705 0.733220 0.679992 0.000000
-7.031336 -6.076802 -0.453402 713 0.733220 0.679992 0.000000
-7.031826 -6.077216 -0.450577 689 0.733220 0.679992 0.000000
-7.031661 -6.077072 -0.447699 691 0.733220 0.679992 0.000000
-7.031919 -6.077294 -0.444856 677 0.733220 0.679992 0.000000
-7.031627 -6.077053 -0.441979 667 0.733220 0.679992 0.000000
-7.031621 -6.077044 -0.439119 687 0.733220 0.679992 0.000000
-7.031775 -6.077173 -0.436267 685 0.733220 0.679992 0.000000
-7.031538 -6.076974 -0.433390 683 0.733220 0.679992 0.000000
-7.031917 -6.077302 -0.430556 685 0.733220 0.679992 0.000000
-7.031237 -6.076710 -0.427652 667 0.733220 0.679992 0.000000
-7.031504 -6.076938 -0.424810 667 0.733220 0.679992 0.000000
-7.032814 -6.078074 -0.422028 697 0.733220 0.679992 0.000000
-7.032478 -6.077774 -0.419151 721 0.733220 0.679992 0.000000
-7.031239 -6.076712 -0.416222 699 0.733220 0.679992 0.000000
-7.031666 -6.077076 -0.413378 665 0.733220 0.679992 0.000000
-7.032591 -6.077877 -0.410580 673 0.733220 0.679992 0.000000
-7.031960 -6.077335 -0.407685 671 0.733220 0.679992 0.000000
-7.031561 -6.076985 -0.404799 677 0.733220 0.679992 0.000000
-7.030931 -6.076445 -0.401904 675 0.733220 0.679992 0.000000
-7.030693 -6.076231 -0.399036 675 0.733220 0.679992 0.000000
-7.030888 -6.076405 -0.396185 693 0.733220 0.679992 0.000000
-7.031973 -6.077342 -0.393385 697 0.733220 0.679992 0.000000
-7.032344 -6.077663 -0.390541 689 0.733220 0.679992 0.000000
-7.031706 -6.077116 -0.387657 669 0.733220 0.679992 0.000000
-7.032125 -6.077475 -0.384813 687 0.733220 0.679992 0.000000
-7.031773 -6.077162 -0.381936 699 0.733220 0.679992 0.000000
-7.032081 -6.077435 -0.379093 689 0.733220 0.679992 0.000000
-7.032781 -6.078036 -0.376277 679 0.733220 0.679992 0.000000
-7.031918 -6.077289 -0.373365 679 0.733220 0.679992 0.000000
-7.032168 -6.077506 -0.370522 675 0.733220 0.679992 0.000000
-7.032700 -6.077964 -0.367688 679 0.733220 0.679992 0.000000
-7.031949 -6.077316 -0.364794 671 0.733220 0.679992 0.000000
-7.032087 -6.077433 -0.361943 683 0.733220 0.679992 0.000000
-7.032779 -6.078028 -0.359117 699 0.733220 0.679992 0.000000
-7.031756 -6.077145 -0.356206 701 0.733220 0.679992 0.000000
-7.031054 -6.076549 -0.353322 687 0.733220 0.679992 0.000000
-7.031578 -6.077001 -0.350487 705 0.733220 0.679992 0.000000
-7.031772 -6.077160 -0.347636 697 0.733220 0.679992 0.000000
-7.032014 -6.077370 -0.344793 719 0.733220 0.679992 0.000000
-7.031985 -6.077344 -0.341933 721 0.733220 0.679992 0.000000
-7.031507 -6.076933 -0.339048 693 0.733220 0.679992 0.000000
-7.032022 -6.077379 -0.336213 689 0.733220 0.679992 0.000000
-7.032217 -6.077539 -0.333371 685 0.733220 0.679992 0.000000
-7.031345 -6.076786 -0.330469 697 0.733220 0.679992 0.000000
-7.031805 -6.077189 -0.327635 701 0.733220 0.679992 0.000000
-7.032489 -6.077778 -0.324808 683 0.733220 0.679992 0.000000
-7.032396 -6.077703 -0.321949 717 0.733220 0.679992 0.000000
-7.032189 -6.077514 -0.319081 725 0.733220 0.679992 0.000000
-7.031768 -6.077160 -0.316205 701 0.733220 0.679992 0.000000
-7.031337 -6.076786 -0.313329 687 0.733220 0.679992 0.000000
-7.031075 -6.076554 -0.310461 693 0.733220 0.679992 0.000000
-7.030709 -6.076243 -0.307584 665 0.733220 0.679992 0.000000
-7.034235 -6.075655 -0.699889 679 0.733220 0.679992 0.000000
-7.033678 -6.075182 -0.696964 687 0.733220 0.679992 0.000000
-7.034666 -6.076032 -0.694195 669 0.733220 0.679992 0.000000
-7.035653 -6.076881 -0.691416 669 0.733220 0.679992 0.000000
-7.034983 -6.076309 -0.688482 663 0.733220 0.679992 0.000000
-7.034094 -6.075530 -0.685530 665 0.733220 0.679992 0.000000
-7.033375 -6.074907 -0.682586 675 0.733220 0.679992 0.000000
-7.033411 -6.074944 -0.679726 651 0.733220 0.679992 0.000000
-7.034175 -6.075608 -0.676929 649 0.733220 0.679992 0.000000
-7.033118 -6.074686 -0.673959 639 0.733220 0.679992 0.000000
-7.033275 -6.074829 -0.671107 637 0.733220 0.679992 0.000000
-7.034142 -6.075572 -0.668319 673 0.733220 0.679992 0.000000
-7.033583 -6.075086 -0.665394 679 0.733220 0.679992 0.000000
-7.033841 -6.075308 -0.662552 657 0.733220 0.679992 0.000000
-7.034653 -6.076009 -0.659754 635 0.733220 0.679992 0.000000
-7.034199 -6.075617 -0.656849 651 0.733220 0.679992 0.000000
-7.033793 -6.075274 -0.653942 637 0.733220 0.679992 0.000000
-7.033835 -6.075304 -0.651082 635 0.733220 0.679992 0.000000
-7.033213 -6.074769 -0.648157 637 0.733220 0.679992 0.000000
-7.034243 -6.075663 -0.645378 639 0.733220 0.679992 0.000000
-7.034331 -6.075728 -0.642517 633 0.733220 0.679992 0.000000
-7.033596 -6.075093 -0.639584 647 0.733220 0.679992 0.000000
-7.033744 -6.075230 -0.636732 635 0.733220 0.679992 0.000000
-7.034114 -6.075538 -0.633899 653 0.733220 0.679992 0.000000
-7.034918 -6.076232 -0.631101 669 0.733220 0.679992 0.000000
-7.034240 -6.075654 -0.628177 659 0.733220 0.679992 0.000000
-7.033497 -6.075013 -0.625244 659 0.733220 0.679992 0.000000
-7.035079 -6.076372 -0.622510 661 0.733220 0.679992 0.000000
-7.035433 -6.076681 -0.619677 657 0.733220 0.679992 0.000000
-7.034201 -6.075611 -0.616708 675 0.733220 0.679992 0.000000
-7.034171 -6.075584 -0.613838 671 0.733220 0.679992 0.000000
-7.034374 -6.075764 -0.610986 683 0.733220 0.679992 0.000000
-7.033463 -6.074980 -0.608044 657 0.733220 0.679992 0.000000
-7.033209 -6.074755 -0.605156 669 0.733220 0.679992 0.000000
-7.033404 -6.074928 -0.602304 651 0.733220 0.679992 0.000000
-7.033760 -6.075238 -0.599471 675 0.733220 0.679992 0.000000
-7.033731 -6.075212 -0.596601 677 0.733220 0.679992 0.000000
-7.034590 -6.075950 -0.593804 681 0.733220 0.679992 0.000000
-7.034720 -6.076060 -0.590952 687 0.733220 0.679992 0.000000
-7.033864 -6.075319 -0.588010 717 0.733220 0.679992 0.000000
-7.034157 -6.075580 -0.585177 707 0.733220 0.679992 0.000000
-7.034127 -6.075553 -0.582307 655 0.733220 0.679992 0.000000
-7.034208 -6.075613 -0.579447 649 0.733220 0.679992 0.000000
-7.034781 -6.076116 -0.576631 675 0.733220 0.679992 0.000000
-7.034584 -6.075947 -0.573743 661 0.733220 0.679992 0.000000
-7.034103 -6.075522 -0.570837 667 0.733220 0.679992 0.000000
-7.033634 -6.075118 -0.567942 661 0.733220 0.679992 0.000000
-7.033813 -6.075278 -0.565090 679 0.733220 0.679992 0.000000
-7.034280 -6.075674 -0.562266 683 0.733220 0.679992 0.000000
