774
-7.569411 -6.977138 -0.377373 1047 0.735563 0.677456 0.000000
-7.569119 -6.976875 -0.374196 1053 0.735563 0.677456 0.000000
-7.568232 -6.976061 -0.370994 1035 0.735563 0.677456 0.000000
-7.568367 -6.976178 -0.367833 1041 0.735563 0.677456 0.000000
-7.568336 -6.976150 -0.364663 1025 0.735563 0.677456 0.000000
-7.568741 -6.976521 -0.361519 1039 0.735563 0.677456 0.000000
-7.568608 -6.976398 -0.358351 1039 0.735563 0.677456 0.000000
-7.568418 -6.976231 -0.355172 1053 0.735563 0.677456 0.000000
-7.569079 -6.976844 -0.352046 1051 0.735563 0.677456 0.000000
-7.570071 -6.977747 -0.348917 1047 0.735563 0.677456 0.000000
-7.569557 -6.977283 -0.345731 1029 0.735563 0.677456 0.000000
-7.569581 -6.977298 -0.342571 1047 0.735563 0.677456 0.000000
-7.569550 -6.977270 -0.339401 1055 0.735563 0.677456 0.000000
-7.569026 -6.976785 -0.336216 1041 0.735563 0.677456 0.000000
-7.569099 -6.976852 -0.333055 1025 0.735563 0.677456 0.000000
-7.569712 -6.977427 -0.329919 1045 0.735563 0.677456 0.000000
-7.569403 -6.977139 -0.326742 1057 0.735563 0.677456 0.000000
-7.568722 -6.976515 -0.323549 1039 0.735563 0.677456 0.000000
-7.568635 -6.976429 -0.320379 1029 0.735563 0.677456 0.000000
-7.569136 -6.976890 -0.317235 1017 0.735563 0.677456 0.000000
-7.569470 -6.977205 -0.314081 1035 0.735563 0.677456 0.000000
-7.568893 -6.976676 -0.310897 1011 0.735563 0.677456 0.000000
-7.569394 -6.977136 -0.307752 1049 0.735563 0.677456 0.000000
-7.569126 -6.972832 -0.694174 1073 0.735563 0.677456 0.000000
-7.569015 -6.972728 -0.690984 1061 0.735563 0.677456 0.000000
-7.569540 -6.973206 -0.687860 1057 0.735563 0.677456 0.000000
-7.571034 -6.974587 -0.684816 1067 0.735563 0.677456 0.000000
-7.571788 -6.975275 -0.681708 1077 0.735563 0.677456 0.000000
-7.570805 -6.974372 -0.678447 1065 0.735563 0.677456 0.000000
-7.570146 -6.973766 -0.675214 1067 0.735563 0.677456 0.000000
-7.570354 -6.973968 -0.672062 1045 0.735563 0.677456 0.000000
-7.570554 -6.974149 -0.668900 1053 0.735563 0.677456 0.000000
-7.570276 -6.973885 -0.665702 1051 0.735563 0.677456 0.000000
-7.570531 -6.974123 -0.662550 1079 0.735563 0.677456 0.000000
-7.570136 -6.973766 -0.659343 1055 0.735563 0.677456 0.000000
-7.569850 -6.973496 -0.656146 1045 0.735563 0.677456 0.000000
-7.570645 -6.974230 -0.653038 1061 0.735563 0.677456 0.000000
-7.571868 -6.975356 -0.649977 1085 0.735563 0.677456 0.000000
-7.570766 -6.974345 -0.646707 1053 0.735563 0.677456 0.000000
-7.569846 -6.973492 -0.643456 1049 0.735563 0.677456 0.000000
-7.570037 -6.973666 -0.640294 1071 0.735563 0.677456 0.000000
-7.569753 -6.973410 -0.637106 1045 0.735563 0.677456 0.000000
-7.570269 -6.973883 -0.633971 1061 0.735563 0.677456 0.000000
-7.570509 -6.974109 -0.630819 1063 0.735563 0.677456 0.000000
-7.569905 -6.973547 -0.627595 1041 0.735563 0.677456 0.000000
-7.569771 -6.973424 -0.624416 1051 0.735563 0.677456 0.000000
-7.570393 -6.974006 -0.621290 1065 0.735563 0.677456 0.000000
-7.570266 -6.973889 -0.618111 1073 0.735563 0.677456 0.000000
-7.569862 -6.973511 -0.614905 1061 0.735563 0.677456 0.000000
-7.570316 -6.973934 -0.611770 1065 0.735563 0.677456 0.000000
-7.570515 -6.974115 -0.608618 1061 0.735563 0.677456 0.000000
-7.570651 -6.974232 -0.605457 1057 0.735563 0.677456 0.000000
-7.570882 -6.974452 -0.602295 1055 0.735563 0.677456 0.000000
-7.570534 -6.974132 -0.599098 1063 0.735563 0.677456 0.000000
-7.570511 -6.974110 -0.595928 1053 0.735563 0.677456 0.000000
-7.571282 -6.974825 -0.592811 1067 0.735563 0.677456 0.000000
-7.571148 -6.974701 -0.589632 1061 0.735563 0.677456 0.000000
-7.570687 -6.974266 -0.586426 1055 0.735563 0.677456 0.000000
-7.570816 -6.974391 -0.583265 1057 0.735563 0.677456 0.000000
-7.570459 -6.974065 -0.580068 1047 0.735563 0.677456 0.000000
-7.570215 -6.973841 -0.576881 1037 0.735563 0.677456 0.000000
-7.570176 -6.973806 -0.573701 1059 0.735563 0.677456 0.000000
-7.570359 -6.973974 -0.570549 1067 0.735563 0.677456 0.000000
-7.570922 -6.974484 -0.567424 1063 0.735563 0.677456 0.000000
-7.571203 -6.974756 -0.564271 1063 0.735563 0.677456 0.000000
-7.571005 -6.974568 -0.561083 1071 0.735563 0.677456 0.000000
-7.570592 -6.974185 -0.557887 1073 0.735563 0.677456 0.000000
-7.571204 -6.974747 -0.554761 1075 0.735563 0.677456 0.000000
-7.571054 -6.974610 -0.551582 1081 0.735563 0.677456 0.000000
-7.570531 -6.974126 -0.548367 1063 0.735563 0.677456 0.000000
-7.570755 -6.974339 -0.545215 1055 0.735563 0.677456 0.000000
-7.571367 -6.974901 -0.542089 1075 0.735563 0.677456 0.000000
-7.571432 -6.974961 -0.538928 1081 0.735563 0.677456 0.000000
-7.570686 -6.974274 -0.535705 1057 0.735563 0.677456 0.000000
-7.571022 -6.974589 -0.532552 1053 0.735563 0.677456 0.000000
-7.571189 -6.974745 -0.529400 1083 0.735563 0.677456 0.000000
-7.570713 -6.974297 -0.526195 1065 0.735563 0.677456 0.000000
-7.570674 -6.974263 -0.523025 1071 0.735563 0.677456 0.000000
-7.571104 -6.974667 -0.519881 1075 0.735563 0.677456 0.000000
-7.571064 -6.974618 -0.516711 1065 0.735563 0.677456 0.000000
-7.571017 -6.974577 -0.513542 1085 0.735563 0.677456 0.000000
-7.570583 -6.974189 -0.510346 1083 0.735563 0.677456 0.000000
-7.569949 -6.973602 -0.507131 1059 0.735563 0.677456 0.000000
-7.570546 -6.974152 -0.504006 1067 0.735563 0.677456 0.000000
-7.571197 -6.974745 -0.500880 1079 0.735563 0.677456 0.000000
-7.570990 -6.974551 -0.497692 1081 0.735563 0.677456 0.000000
-7.570659 -6.974257 -0.494504 1065 0.735563 0.677456 0.000000
-7.570881 -6.974458 -0.491352 1053 0.735563 0.677456 0.000000
-7.571256 -6.974804 -0.488209 1051 0.735563 0.677456 0.000000
-7.570980 -6.974554 -0.485021 1065 0.735563 0.677456 0.000000
-7.570717 -6.974303 -0.481834 1061 0.735563 0.677456 0.000000
-7.571099 -6.974655 -0.478690 1065 0.735563 0.677456 0.000000
-7.570441 -6.974051 -0.475486 1053 0.735563 0.677456 0.000000
-7.570387 -6.974004 -0.472317 1057 0.735563 0.677456 0.000000
-7.570650 -6.974248 -0.469164 1083 0.735563 0.677456 0.000000
-7.569960 -6.973604 -0.465950 1059 0.735563 0.677456 0.000000
-7.569946 -6.973602 -0.462790 1045 0.735563 0.677456 0.000000
-7.570312 -6.973942 -0.459637 1055 0.735563 0.677456 0.000000
-7.571010 -6.974573 -0.456520 1089 0.735563 0.677456 0.000000
-7.570837 -6.974419 -0.453342 1075 0.735563 0.677456 0.000000
-7.570512 -6.974117 -0.450155 1065 0.735563 0.677456 0.000000
-7.570664 -6.974261 -0.446993 1047 0.735563 0.677456 0.000000
-7.570006 -6.973655 -0.443789 1037 0.735563 0.677456 0.000000
-7.569508 -6.973203 -0.440594 1053 0.735563 0.677456 0.000000
-7.570040 -6.973689 -0.437459 1067 0.735563 0.677456 0.000000
-7.570564 -6.974167 -0.434324 1059 0.735563 0.677456 0.000000
-7.570606 -6.974209 -0.431153 1049 0.735563 0.677456 0.000000
-7.570813 -6.974397 -0.428001 1057 0.735563 0.677456 0.000000
-7.570582 -6.974184 -0.424824 1041 0.735563 0.677456 0.000000
-7.570457 -6.974067 -0.421655 1037 0.735563 0.677456 0.000000
-7.571466 -6.974997 -0.418535 1057 0.735563 0.677456 0.000000
-7.571722 -6.975236 -0.415383 1053 0.735563 0.677456 0.000000
-7.570896 -6.974471 -0.412180 1045 0.735563 0.677456 0.000000
-7.570452 -6.974062 -0.408984 1029 0.735563 0.677456 0.000000
-7.570485 -6.974098 -0.405824 1035 0.735563 0.677456 0.000000
-7.570408 -6.974033 -0.402655 1037 0.735563 0.677456 0.000000
-7.570385 -6.974011 -0.399485 1017 0.735563 0.677456 0.000000
-7.570958 -6.974542 -0.396349 1047 0.735563 0.677456 0.000000
-7.571100 -6.974665 -0.393188 1027 0.735563 0.677456 0.000000
-7.571833 -6.975348 -0.390061 1047 0.735563 0.677456 0.000000
-7.571913 -6.975421 -0.386900 1045 0.735563 0.677456 0.000000
-7.571573 -6.975108 -0.383713 1041 0.735563 0.677456 0.000000
-7.571501 -6.975035 -0.380544 1045 0.735563 0.677456 0.000000
-7.571209 -6.974773 -0.377367 1063 0.735563 0.677456 0.000000
-7.570964 -6.974548 -0.374189 1049 0.735563 0.677456 0.000000
-7.570719 -6.974323 -0.371011 1035 0.735563 0.677456 0.000000
-7.570696 -6.974301 -0.367851 1033 0.735563 0.677456 0.000000
-7.570888 -6.974476 -0.364689 1021 0.735563 0.677456 0.000000
-7.571659 -6.975191 -0.361562 1045 0.735563 0.677456 0.000000
-7.571628 -6.975163 -0.358392 1053 0.735563 0.677456 0.000000
-7.570429 -6.974049 -0.355173 1023 0.735563 0.677456 0.000000
-7.570715 -6.974312 -0.352021 1025 0.735563 0.677456 0.000000
-7.571536 -6.975078 -0.348893 1039 0.735563 0.677456 0.000000
-7.571242 -6.974802 -0.345715 1023 0.735563 0.677456 0.000000
-7.570783 -6.974381 -0.342530 1027 0.735563 0.677456 0.000000
-7.571283 -6.974841 -0.339395 1023 0.735563 0.677456 0.000000
-7.572491 -6.975955 -0.336284 1043 0.735563 0.677456 0.000000
-7.571699 -6.975230 -0.333081 1013 0.735563 0.677456 0.000000
-7.571341 -6.974889 -0.329904 1021 0.735563 0.677456 0.000000
-7.571573 -6.975110 -0.326742 1027 0.735563 0.677456 0.000000
-7.571168 -6.974732 -0.323566 1035 0.735563 0.677456 0.000000
-7.571075 -6.974654 -0.320396 1015 0.735563 0.677456 0.000000
-7.571409 -6.974955 -0.317243 1025 0.735563 0.677456 0.000000
-7.571212 -6.974782 -0.314075 1037 0.735563 0.677456 0.000000
-7.571166 -6.974741 -0.310905 1047 0.735563 0.677456 0.000000
-7.570808 -6.974401 -0.307729 1041 0.735563 0.677456 0.000000
-7.572032 -6.971403 -0.694247 1061 0.735563 0.677456 0.000000
-7.571859 -6.971248 -0.691058 1045 0.735563 0.677456 0.000000
-7.571797 -6.971196 -0.687879 1057 0.735563 0.677456 0.000000
-7.572544 -6.971878 -0.684772 1059 0.735563 0.677456 0.000000
-7.573498 -6.972764 -0.681683 1061 0.735563 0.677456 0.000000
-7.573220 -6.972499 -0.678485 1061 0.735563 0.677456 0.000000
-7.572300 -6.971660 -0.675224 1067 0.735563 0.677456 0.000000
-7.571697 -6.971098 -0.671999 1053 0.735563 0.677456 0.000000
-7.572118 -6.971482 -0.668865 1039 0.735563 0.677456 0.000000
-7.572637 -6.971969 -0.665730 1053 0.735563 0.677456 0.000000
-7.572573 -6.971902 -0.662551 1061 0.735563 0.677456 0.000000
-7.572233 -6.971589 -0.659354 1041 0.735563 0.677456 0.000000
-7.572171 -6.971535 -0.656174 1027 0.735563 0.677456 0.000000
-7.573012 -6.972306 -0.653067 1057 0.735563 0.677456 0.000000
-7.573317 -6.972596 -0.649924 1075 0.735563 0.677456 0.000000
-7.572165 -6.971534 -0.646654 1053 0.735563 0.677456 0.000000
-7.571451 -6.970870 -0.643421 1041 0.735563 0.677456 0.000000
-7.571326 -6.970767 -0.640242 1037 0.735563 0.677456 0.000000
-7.571469 -6.970891 -0.637080 1051 0.735563 0.677456 0.000000
-7.571993 -6.971369 -0.633946 1057 0.735563 0.677456 0.000000
-7.572455 -6.971798 -0.630811 1061 0.735563 0.677456 0.000000
-7.571940 -6.971334 -0.627596 1049 0.735563 0.677456 0.000000
-7.571647 -6.971057 -0.624399 1031 0.735563 0.677456 0.000000
-7.571846 -6.971238 -0.621247 1031 0.735563 0.677456 0.000000
-7.572086 -6.971464 -0.618094 1061 0.735563 0.677456 0.000000
-7.572499 -6.971842 -0.614950 1059 0.735563 0.677456 0.000000
-7.572842 -6.972164 -0.611807 1059 0.735563 0.677456 0.000000
-7.572820 -6.972142 -0.608637 1053 0.735563 0.677456 0.000000
-7.572789 -6.972114 -0.605457 1061 0.735563 0.677456 0.000000
-7.572988 -6.972294 -0.602305 1079 0.735563 0.677456 0.000000
-7.572901 -6.972208 -0.599126 1067 0.735563 0.677456 0.000000
-7.572338 -6.971692 -0.595911 1055 0.735563 0.677456 0.000000
-7.572418 -6.971766 -0.592751 1057 0.735563 0.677456 0.000000
-7.572547 -6.971890 -0.589589 1087 0.735563 0.677456 0.000000
-7.572516 -6.971862 -0.586410 1055 0.735563 0.677456 0.000000
-7.572753 -6.972074 -0.583257 1055 0.735563 0.677456 0.000000
-7.572398 -6.971748 -0.580060 1051 0.735563 0.677456 0.000000
-7.572526 -6.971873 -0.576899 1059 0.735563 0.677456 0.000000
-7.573082 -6.972376 -0.573774 1069 0.735563 0.677456 0.000000
-7.572886 -6.972204 -0.570586 1067 0.735563 0.677456 0.000000
-7.572687 -6.972016 -0.567397 1073 0.735563 0.677456 0.000000
-7.572760 -6.972083 -0.564237 1063 0.735563 0.677456 0.000000
-7.573157 -6.972448 -0.561093 1073 0.735563 0.677456 0.000000
-7.572531 -6.971868 -0.557879 1057 0.735563 0.677456 0.000000
-7.572492 -6.971834 -0.554709 1073 0.735563 0.677456 0.000000
-7.572391 -6.971749 -0.551530 1059 0.735563 0.677456 0.000000
-7.572352 -6.971715 -0.548360 1049 0.735563 0.677456 0.000000
-7.573011 -6.972314 -0.545234 1061 0.735563 0.677456 0.000000
-7.573458 -6.972731 -0.542090 1055 0.735563 0.677456 0.000000
-7.574172 -6.973388 -0.538973 1067 0.735563 0.677456 0.000000
-7.574023 -6.973252 -0.535794 1089 0.735563 0.677456 0.000000
-7.572737 -6.972069 -0.532536 1067 0.735563 0.677456 0.000000
-7.572325 -6.971685 -0.529340 1055 0.735563 0.677456 0.000000
-7.573295 -6.972584 -0.526231 1071 0.735563 0.677456 0.000000
-7.573843 -6.973082 -0.523106 1079 0.735563 0.677456 0.000000
-7.573146 -6.972445 -0.519882 1059 0.735563 0.677456 0.000000
-7.572408 -6.971763 -0.516669 1049 0.735563 0.677456 0.000000
-7.572901 -6.972217 -0.513534 1083 0.735563 0.677456 0.000000
-7.573117 -6.972411 -0.510372 1085 0.735563 0.677456 0.000000
-7.572856 -6.972174 -0.507195 1065 0.735563 0.677456 0.000000
-7.573175 -6.972476 -0.504041 1079 0.735563 0.677456 0.000000
-7.573135 -6.972428 -0.500872 1073 0.735563 0.677456 0.000000
-7.572915 -6.972236 -0.497694 1071 0.735563 0.677456 0.000000
-7.572438 -6.971788 -0.494488 1055 0.735563 0.677456 0.000000
-7.572543 -6.971894 -0.491327 1071 0.735563 0.677456 0.000000
-7.572059 -6.971440 -0.488132 1059 0.735563 0.677456 0.000000
-7.571305 -6.970746 -0.484918 1059 0.735563 0.677456 0.000000
-7.572553 -6.971891 -0.481827 1055 0.735563 0.677456 0.000000
-7.573563 -6.972835 -0.478717 1083 0.735563 0.677456 0.000000
-7.572547 -6.971893 -0.475487 1053 0.735563 0.677456 0.000000
-7.572651 -6.971985 -0.472326 1055 0.735563 0.677456 0.000000
-7.573074 -6.972383 -0.469192 1059 0.735563 0.677456 0.000000
-7.572478 -6.971827 -0.465987 1059 0.735563 0.677456 0.000000
-7.572638 -6.971977 -0.462825 1069 0.735563 0.677456 0.000000
-7.573162 -6.972455 -0.459690 1059 0.735563 0.677456 0.000000
-7.573482 -6.972759 -0.456537 1067 0.735563 0.677456 0.000000
-7.573363 -6.972648 -0.453368 1079 0.735563 0.677456 0.000000
-7.573364 -6.972644 -0.450198 1067 0.735563 0.677456 0.000000
-7.573833 -6.973080 -0.447064 1063 0.735563 0.677456 0.000000
-7.573612 -6.972873 -0.443876 1059 0.735563 0.677456 0.000000
-7.573328 -6.972618 -0.440699 1061 0.735563 0.677456 0.000000
-7.573860 -6.973103 -0.437563 1063 0.735563 0.677456 0.000000
-7.573630 -6.972891 -0.434376 1059 0.735563 0.677456 0.000000
-7.573298 -6.972584 -0.431199 1059 0.735563 0.677456 0.000000
-7.573228 -6.972525 -0.428029 1063 0.735563 0.677456 0.000000
-7.572999 -6.972311 -0.424841 1037 0.735563 0.677456 0.000000
-7.573143 -6.972449 -0.421690 1039 0.735563 0.677456 0.000000
-7.573238 -6.972535 -0.418529 1051 0.735563 0.677456 0.000000
-7.573597 -6.972869 -0.415375 1073 0.735563 0.677456 0.000000
-7.573153 -6.972460 -0.412189 1061 0.735563 0.677456 0.000000
-7.572384 -6.971753 -0.408986 1055 0.735563 0.677456 0.000000
-7.571877 -6.971281 -0.405791 1041 0.735563 0.677456 0.000000
-7.572512 -6.971861 -0.402655 1055 0.735563 0.677456 0.000000
-7.573514 -6.972785 -0.399546 1043 0.735563 0.677456 0.000000
-7.573864 -6.973112 -0.396392 1061 0.735563 0.677456 0.000000
-7.573524 -6.972799 -0.393216 1055 0.735563 0.677456 0.000000
-7.573826 -6.973075 -0.390063 1051 0.735563 0.677456 0.000000
-7.573859 -6.973111 -0.386892 1045 0.735563 0.677456 0.000000
-7.573463 -6.972740 -0.383706 1043 0.735563 0.677456 0.000000
-7.572416 -6.971773 -0.380496 1037 0.735563 0.677456 0.000000
-7.572544 -6.971897 -0.377334 1025 0.735563 0.677456 0.000000
-7.573490 -6.972763 -0.374215 1035 0.735563 0.677456 0.000000
-7.572934 -6.972253 -0.371020 1017 0.735563 0.677456 0.000000
-7.571984 -6.971389 -0.367809 1027 0.735563 0.677456 0.000000
-7.572333 -6.971702 -0.364666 1025 0.735563 0.677456 0.000000
-7.572787 -6.972125 -0.361522 1025 0.735563 0.677456 0.000000
-7.572708 -6.972045 -0.358352 1015 0.735563 0.677456 0.000000
-7.572899 -6.972220 -0.355200 1013 0.735563 0.677456 0.000000
-7.572702 -6.972047 -0.352022 1035 0.735563 0.677456 0.000000
-7.573536 -6.972811 -0.348894 1043 0.735563 0.677456 0.000000
-7.574419 -6.973627 -0.345766 1051 0.735563 0.677456 0.000000
-7.574015 -6.973250 -0.342590 1039 0.735563 0.677456 0.000000
-7.573111 -6.972423 -0.339388 1021 0.735563 0.677456 0.000000
-7.572381 -6.971747 -0.336185 1023 0.735563 0.677456 0.000000
-7.572287 -6.971669 -0.333016 1025 0.735563 0.677456 0.000000
-7.572851 -6.972179 -0.329880 1027 0.735563 0.677456 0.000000
-7.573352 -6.972639 -0.326735 1037 0.735563 0.677456 0.000000
-7.573909 -6.973157 -0.323590 1031 0.735563 0.677456 0.000000
-7.573822 -6.973072 -0.320431 1049 0.735563 0.677456 0.000000
-7.572967 -6.972296 -0.317229 1017 0.735563 0.677456 0.000000
-7.572555 -6.971912 -0.314043 1037 0.735563 0.677456 0.000000
-7.573056 -6.972373 -0.310898 1031 0.735563 0.677456 0.000000
-7.573605 -6.972885 -0.307763 1037 0.735563 0.677456 0.000000
-7.574235 -6.968914 -0.694248 1067 0.735563 0.677456 0.000000
-7.574643 -6.969299 -0.691114 1047 0.735563 0.677456 0.000000
-7.574747 -6.969391 -0.687943 1059 0.735563 0.677456 0.000000
-7.574899 -6.969535 -0.684782 1059 0.735563 0.677456 0.000000
-7.575542 -6.970122 -0.681666 1065 0.735563 0.677456 0.000000
-7.575472 -6.970062 -0.678486 1053 0.735563 0.677456 0.000000
-7.574663 -6.969310 -0.675234 1041 0.735563 0.677456 0.000000
-7.573839 -6.968559 -0.671991 1065 0.735563 0.677456 0.000000
-7.573672 -6.968397 -0.668803 1045 0.735563 0.677456 0.000000
-7.574618 -6.969277 -0.665714 1039 0.735563 0.677456 0.000000
-7.574562 -6.969216 -0.662535 1033 0.735563 0.677456 0.000000
-7.574381 -6.969056 -0.659346 1029 0.735563 0.677456 0.000000
-7.574421 -6.969083 -0.656176 1037 0.735563 0.677456 0.000000
-7.575256 -6.969862 -0.653068 1061 0.735563 0.677456 0.000000
-7.575678 -6.970246 -0.649934 1077 0.735563 0.677456 0.000000
-7.574963 -6.969583 -0.646700 1055 0.735563 0.677456 0.000000
-7.574885 -6.969517 -0.643521 1059 0.735563 0.677456 0.000000
-7.574704 -6.969356 -0.640333 1067 0.735563 0.677456 0.000000
-7.574744 -6.969385 -0.637162 1075 0.735563 0.677456 0.000000
-7.574666 -6.969319 -0.633983 1057 0.735563 0.677456 0.000000
-7.575294 -6.969893 -0.630857 1057 0.735563 0.677456 0.000000
-7.575002 -6.969631 -0.627670 1047 0.735563 0.677456 0.000000
-7.574439 -6.969114 -0.624445 1061 0.735563 0.677456 0.000000
-7.575121 -6.969732 -0.621328 1043 0.735563 0.677456 0.000000
-7.575686 -6.970257 -0.618203 1065 0.735563 0.677456 0.000000
-7.574425 -6.969092 -0.614935 1035 0.735563 0.677456 0.000000
-7.574077 -6.968772 -0.611728 1055 0.735563 0.677456 0.000000
-7.574696 -6.969340 -0.608612 1065 0.735563 0.677456 0.000000
-7.575587 -6.970163 -0.605504 1073 0.735563 0.677456 0.000000
-7.575612 -6.970192 -0.602333 1077 0.735563 0.677456 0.000000
-7.574676 -6.969326 -0.599092 1069 0.735563 0.677456 0.000000
-7.574645 -6.969298 -0.595922 1071 0.735563 0.677456 0.000000
-7.575528 -6.970114 -0.592814 1065 0.735563 0.677456 0.000000
-7.575386 -6.969985 -0.589635 1043 0.735563 0.677456 0.000000
-7.575091 -6.969708 -0.586438 1055 0.735563 0.677456 0.000000
-7.574950 -6.969579 -0.583259 1059 0.735563 0.677456 0.000000
-7.575133 -6.969747 -0.580097 1061 0.735563 0.677456 0.000000
-7.574832 -6.969465 -0.576910 1057 0.735563 0.677456 0.000000
-7.574913 -6.969538 -0.573739 1061 0.735563 0.677456 0.000000
-7.575137 -6.969752 -0.570587 1051 0.735563 0.677456 0.000000
-7.574938 -6.969565 -0.567399 1041 0.735563 0.677456 0.000000
-7.575289 -6.969893 -0.564255 1045 0.735563 0.677456 0.000000
-7.575091 -6.969705 -0.561067 1071 0.735563 0.677456 0.000000
-7.574941 -6.969569 -0.557889 1073 0.735563 0.677456 0.000000
-7.575387 -6.969986 -0.554754 1067 0.735563 0.677456 0.000000
-7.574864 -6.969501 -0.551549 1051 0.735563 0.677456 0.000000
-7.574665 -6.969314 -0.548361 1043 0.735563 0.677456 0.000000
-7.575380 -6.969970 -0.545244 1067 0.735563 0.677456 0.000000
-7.575127 -6.969739 -0.542056 1037 0.735563 0.677456 0.000000
-7.575567 -6.970150 -0.538912 1041 0.735563 0.677456 0.000000
-7.576003 -6.970546 -0.535778 1047 0.735563 0.677456 0.000000
-7.575099 -6.969719 -0.532546 1061 0.735563 0.677456 0.000000
-7.574950 -6.969583 -0.529368 1077 0.735563 0.677456 0.000000
-7.576037 -6.970576 -0.526268 1073 0.735563 0.677456 0.000000
-7.575887 -6.970440 -0.523089 1059 0.735563 0.677456 0.000000
-7.574325 -6.969010 -0.519813 1039 0.735563 0.677456 0.000000
-7.574605 -6.969268 -0.516661 1061 0.735563 0.677456 0.000000
-7.575254 -6.969861 -0.513544 1069 0.735563 0.677456 0.000000
-7.575963 -6.970511 -0.510418 1081 0.735563 0.677456 0.000000
-7.576179 -6.970719 -0.507266 1077 0.735563 0.677456 0.000000
-7.575496 -6.970080 -0.504052 1071 0.735563 0.677456 0.000000
-7.574846 -6.969482 -0.500838 1057 0.735563 0.677456 0.000000
-7.574259 -6.968946 -0.497633 1049 0.735563 0.677456 0.000000
-7.574156 -6.968848 -0.494454 1055 0.735563 0.677456 0.000000
-7.574753 -6.969397 -0.491329 1073 0.735563 0.677456 0.000000
-7.574477 -6.969148 -0.488141 1073 0.735563 0.677456 0.000000
-7.573834 -6.968554 -0.484937 1051 0.735563 0.677456 0.000000
-7.574098 -6.968800 -0.481785 1045 0.735563 0.677456 0.000000
-7.574694 -6.969348 -0.478649 1065 0.735563 0.677456 0.000000
-7.575552 -6.970132 -0.475541 1057 0.735563 0.677456 0.000000
-7.576140 -6.970675 -0.472405 1065 0.735563 0.677456 0.000000
-7.575379 -6.969975 -0.469192 1051 0.735563 0.677456 0.000000
-7.575047 -6.969681 -0.466005 1037 0.735563 0.677456 0.000000
-7.575802 -6.970369 -0.462878 1075 0.735563 0.677456 0.000000
-7.576016 -6.970562 -0.459726 1073 0.735563 0.677456 0.000000
-7.575193 -6.969813 -0.456514 1045 0.735563 0.677456 0.000000
-7.574868 -6.969511 -0.453327 1055 0.735563 0.677456 0.000000
-7.575878 -6.970441 -0.450217 1067 0.735563 0.677456 0.000000
-7.576355 -6.970882 -0.447073 1053 0.735563 0.677456 0.000000
-7.576133 -6.970676 -0.443895 1055 0.735563 0.677456 0.000000
-7.576015 -6.970566 -0.440726 1067 0.735563 0.677456 0.000000
-7.576221 -6.970753 -0.437564 1065 0.735563 0.677456 0.000000
-7.576206 -6.970737 -0.434404 1059 0.735563 0.677456 0.000000
-7.575659 -6.970233 -0.431199 1065 0.735563 0.677456 0.000000
-7.574621 -6.969286 -0.427978 1045 0.735563 0.677456 0.000000
-7.575685 -6.970260 -0.424868 1051 0.735563 0.677456 0.000000
-7.576909 -6.971386 -0.421767 1063 0.735563 0.677456 0.000000
-7.576354 -6.970876 -0.418572 1031 0.735563 0.677456 0.000000
-7.575959 -6.970519 -0.415386 1041 0.735563 0.677456 0.000000
-7.575784 -6.970351 -0.412207 1053 0.735563 0.677456 0.000000
-7.575444 -6.970037 -0.409020 1045 0.735563 0.677456 0.000000
-7.575525 -6.970124 -0.405859 1041 0.735563 0.677456 0.000000
-7.575572 -6.970158 -0.402699 1045 0.735563 0.677456 0.000000
-7.574685 -6.969344 -0.399487 1043 0.735563 0.677456 0.000000
-7.573757 -6.968484 -0.396276 1027 0.735563 0.677456 0.000000
-7.574696 -6.969358 -0.393157 1047 0.735563 0.677456 0.000000
-7.576085 -6.970630 -0.390064 1037 0.735563 0.677456 0.000000
-7.576379 -6.970900 -0.386911 1047 0.735563 0.677456 0.000000
-7.575651 -6.970238 -0.383708 1031 0.735563 0.677456 0.000000
-7.574714 -6.969372 -0.380496 1029 0.735563 0.677456 0.000000
-7.575065 -6.969699 -0.377353 1041 0.735563 0.677456 0.000000
-7.575644 -6.970222 -0.374208 1033 0.735563 0.677456 0.000000
-7.575559 -6.970150 -0.371038 1029 0.735563 0.677456 0.000000
-7.575368 -6.969970 -0.367870 1027 0.735563 0.677456 0.000000
-7.575339 -6.969956 -0.364700 1023 0.735563 0.677456 0.000000
-7.575959 -6.970523 -0.361564 1021 0.735563 0.677456 0.000000
-7.575554 -6.970146 -0.358378 1035 0.735563 0.677456 0.000000
-7.574721 -6.969375 -0.355176 1029 0.735563 0.677456 0.000000
-7.575603 -6.970191 -0.352057 1055 0.735563 0.677456 0.000000
-7.576113 -6.970658 -0.348913 1045 0.735563 0.677456 0.000000
-7.576082 -6.970630 -0.345743 1045 0.735563 0.677456 0.000000
-7.575614 -6.970202 -0.342557 1043 0.735563 0.677456 0.000000
-7.575044 -6.969680 -0.339372 1035 0.735563 0.677456 0.000000
-7.575117 -6.969747 -0.336212 1019 0.735563 0.677456 0.000000
-7.575999 -6.970562 -0.333083 1011 0.735563 0.677456 0.000000
-7.575635 -6.970230 -0.329906 1017 0.735563 0.677456 0.000000
-7.574795 -6.969454 -0.326704 1009 0.735563 0.677456 0.000000
-7.575143 -6.969767 -0.323551 1029 0.735563 0.677456 0.000000
-7.575049 -6.969689 -0.320382 1025 0.735563 0.677456 0.000000
-7.575495 -6.970091 -0.317238 1039 0.735563 0.677456 0.000000
-7.575830 -6.970407 -0.314084 1045 0.735563 0.677456 0.000000
-7.576283 -6.970816 -0.310940 1035 0.735563 0.677456 0.000000
-7.576395 -6.970928 -0.307779 1039 0.735563 0.677456 0.000000
-7.576050 -6.966063 -0.694214 1065 0.735563 0.677456 0.000000
-7.575566 -6.965609 -0.690988 1049 0.735563 0.677456 0.000000
-7.576575 -6.966539 -0.687909 1041 0.735563 0.677456 0.000000
-7.576402 -6.966384 -0.684720 1039 0.735563 0.677456 0.000000
-7.576451 -6.966432 -0.681550 1063 0.735563 0.677456 0.000000
-7.576864 -6.966810 -0.678406 1057 0.735563 0.677456 0.000000
-7.576643 -6.966604 -0.675218 1055 0.735563 0.677456 0.000000
-7.575984 -6.965999 -0.671984 1045 0.735563 0.677456 0.000000
-7.576088 -6.966091 -0.668823 1059 0.735563 0.677456 0.000000
-7.576343 -6.966329 -0.665670 1049 0.735563 0.677456 0.000000
-7.576591 -6.966562 -0.662518 1039 0.735563 0.677456 0.000000
-7.577503 -6.967389 -0.659419 1055 0.735563 0.677456 0.000000
-7.578339 -6.968168 -0.656321 1049 0.735563 0.677456 0.000000
-7.578109 -6.967956 -0.653123 1037 0.735563 0.677456 0.000000
-7.577777 -6.967648 -0.649917 1059 0.735563 0.677456 0.000000
-7.577276 -6.967181 -0.646701 1047 0.735563 0.677456 0.000000
-7.577524 -6.967413 -0.643549 1061 0.735563 0.677456 0.000000
-7.578200 -6.968039 -0.640432 1069 0.735563 0.677456 0.000000
-7.577106 -6.967034 -0.637173 1065 0.735563 0.677456 0.000000
-7.575797 -6.965833 -0.633895 1049 0.735563 0.677456 0.000000
-7.576694 -6.966648 -0.630796 1057 0.735563 0.677456 0.000000
-7.576941 -6.966879 -0.627644 1053 0.735563 0.677456 0.000000
-7.576704 -6.966661 -0.624446 1051 0.735563 0.677456 0.000000
-7.577006 -6.966938 -0.621303 1057 0.735563 0.677456 0.000000
-7.576492 -6.966472 -0.618088 1049 0.735563 0.677456 0.000000
-7.576199 -6.966196 -0.614890 1049 0.735563 0.677456 0.000000
-7.577302 -6.967215 -0.611810 1053 0.735563 0.677456 0.000000
-7.578186 -6.968031 -0.608702 1059 0.735563 0.677456 0.000000
-7.577304 -6.967208 -0.605460 1051 0.735563 0.677456 0.000000
-7.576638 -6.966598 -0.602236 1051 0.735563 0.677456 0.000000
-7.576607 -6.966569 -0.599066 1077 0.735563 0.677456 0.000000
-7.576473 -6.966445 -0.595887 1047 0.735563 0.677456 0.000000
-7.576808 -6.966761 -0.592744 1037 0.735563 0.677456 0.000000
-7.576840 -6.966783 -0.589574 1025 0.735563 0.677456 0.000000
-7.577397 -6.967300 -0.586439 1039 0.735563 0.677456 0.000000
-7.577263 -6.967177 -0.583260 1037 0.735563 0.677456 0.000000
-7.576907 -6.966851 -0.580063 1045 0.735563 0.677456 0.000000
-7.577034 -6.966962 -0.576902 1043 0.735563 0.677456 0.000000
-7.576940 -6.966884 -0.573722 1065 0.735563 0.677456 0.000000
-7.576807 -6.966761 -0.570544 1049 0.735563 0.677456 0.000000
-7.577148 -6.967068 -0.567400 1037 0.735563 0.677456 0.000000
-7.577546 -6.967433 -0.564257 1065 0.735563 0.677456 0.000000
-7.577722 -6.967596 -0.561105 1065 0.735563 0.677456 0.000000
-7.577406 -6.967314 -0.557908 1047 0.735563 0.677456 0.000000
-7.577104 -6.967031 -0.554711 1053 0.735563 0.677456 0.000000
-7.577177 -6.967099 -0.551550 1059 0.735563 0.677456 0.000000
-7.577082 -6.967007 -0.548371 1057 0.735563 0.677456 0.000000
-7.577472 -6.967366 -0.545227 1035 0.735563 0.677456 0.000000
-7.578395 -6.968227 -0.542128 1077 0.735563 0.677456 0.000000
-7.577600 -6.967487 -0.538906 1075 0.735563 0.677456 0.000000
-7.577562 -6.967453 -0.535726 1077 0.735563 0.677456 0.000000
-7.577897 -6.967768 -0.532583 1075 0.735563 0.677456 0.000000
-7.577041 -6.966979 -0.529351 1075 0.735563 0.677456 0.000000
-7.576953 -6.966893 -0.526181 1061 0.735563 0.677456 0.000000
-7.577924 -6.967792 -0.523072 1083 0.735563 0.677456 0.000000
-7.577717 -6.967598 -0.519894 1063 0.735563 0.677456 0.000000
-7.577614 -6.967500 -0.516715 1075 0.735563 0.677456 0.000000
-7.577680 -6.967561 -0.513554 1059 0.735563 0.677456 0.000000
-7.577522 -6.967419 -0.510376 1057 0.735563 0.677456 0.000000
-7.577579 -6.967473 -0.507205 1079 0.735563 0.677456 0.000000
-7.577311 -6.967230 -0.504017 1075 0.735563 0.677456 0.000000
-7.577311 -6.967227 -0.500857 1051 0.735563 0.677456 0.000000
-7.578343 -6.968175 -0.497748 1073 0.735563 0.677456 0.000000
-7.578240 -6.968077 -0.494579 1075 0.735563 0.677456 0.000000
-7.577750 -6.967631 -0.491373 1065 0.735563 0.677456 0.000000
-7.577973 -6.967831 -0.488221 1067 0.735563 0.677456 0.000000
-7.578403 -6.968235 -0.485077 1075 0.735563 0.677456 0.000000
-7.578133 -6.967977 -0.481899 1065 0.735563 0.677456 0.000000
-7.577698 -6.967588 -0.478703 1053 0.735563 0.677456 0.000000
-7.577428 -6.967331 -0.475516 1051 0.735563 0.677456 0.000000
-7.576564 -6.966536 -0.472294 1047 0.735563 0.677456 0.000000
-7.576828 -6.966781 -0.469141 1043 0.735563 0.677456 0.000000
-7.577852 -6.967722 -0.466042 1057 0.735563 0.677456 0.000000
-7.578004 -6.967866 -0.462880 1065 0.735563 0.677456 0.000000
-7.577403 -6.967319 -0.459675 1041 0.735563 0.677456 0.000000
-7.577450 -6.967353 -0.456515 1053 0.735563 0.677456 0.000000
-7.578578 -6.968390 -0.453414 1057 0.735563 0.677456 0.000000
-7.577928 -6.967791 -0.450210 1061 0.735563 0.677456 0.000000
-7.576890 -6.966844 -0.446980 1051 0.735563 0.677456 0.000000
-7.577208 -6.967133 -0.443827 1055 0.735563 0.677456 0.000000
-7.577733 -6.967612 -0.440692 1059 0.735563 0.677456 0.000000
-7.578258 -6.968105 -0.437557 1069 0.735563 0.677456 0.000000
-7.578465 -6.968292 -0.434405 1059 0.735563 0.677456 0.000000
-7.578181 -6.968036 -0.431218 1057 0.735563 0.677456 0.000000
-7.577363 -6.967278 -0.428005 1033 0.735563 0.677456 0.000000
-7.577833 -6.967713 -0.424861 1045 0.735563 0.677456 0.000000
-7.577333 -6.967247 -0.421675 1045 0.735563 0.677456 0.000000
-7.576674 -6.966641 -0.418471 1039 0.735563 0.677456 0.000000
-7.577034 -6.966975 -0.415328 1041 0.735563 0.677456 0.000000
-7.576908 -6.966858 -0.412149 1035 0.735563 0.677456 0.000000
-7.576900 -6.966848 -0.408989 1033 0.735563 0.677456 0.000000
-7.576877 -6.966827 -0.405819 1011 0.735563 0.677456 0.000000
-7.578038 -6.967904 -0.402708 1043 0.735563 0.677456 0.000000
-7.577911 -6.967786 -0.399539 1031 0.735563 0.677456 0.000000
-7.577888 -6.967765 -0.396369 1019 0.735563 0.677456 0.000000
-7.578302 -6.968143 -0.393226 1035 0.735563 0.677456 0.000000
-7.577096 -6.967036 -0.389997 1025 0.735563 0.677456 0.000000
-7.576908 -6.966869 -0.386828 1017 0.735563 0.677456 0.000000
-7.577598 -6.967493 -0.383692 1035 0.735563 0.677456 0.000000
-7.577291 -6.967219 -0.380515 1033 0.735563 0.677456 0.000000
-7.577440 -6.967348 -0.377353 1041 0.735563 0.677456 0.000000
-7.577840 -6.967727 -0.374209 1033 0.735563 0.677456 0.000000
-7.577650 -6.967546 -0.371041 1029 0.735563 0.677456 0.000000
-7.578429 -6.968267 -0.367904 1049 0.735563 0.677456 0.000000
-7.578946 -6.968740 -0.364769 1015 0.735563 0.677456 0.000000
-7.579192 -6.968958 -0.361616 1041 0.735563 0.677456 0.000000
-7.578019 -6.967891 -0.358397 1023 0.735563 0.677456 0.000000
-7.577242 -6.967178 -0.355194 1015 0.735563 0.677456 0.000000
-7.577592 -6.967492 -0.352041 1047 0.735563 0.677456 0.000000
-7.578474 -6.968307 -0.348923 1025 0.735563 0.677456 0.000000
-7.578983 -6.968774 -0.345778 1051 0.735563 0.677456 0.000000
-7.577984 -6.967858 -0.342567 1019 0.735563 0.677456 0.000000
-7.577675 -6.967570 -0.339390 1027 0.735563 0.677456 0.000000
-7.577858 -6.967739 -0.336228 1035 0.735563 0.677456 0.000000
-7.577765 -6.967660 -0.333059 1021 0.735563 0.677456 0.000000
-7.577574 -6.967479 -0.329891 1001 0.735563 0.677456 0.000000
-7.578886 -6.968688 -0.326779 1021 0.735563 0.677456 0.000000
-7.579283 -6.969053 -0.323635 1045 0.735563 0.677456 0.000000
-7.578110 -6.967972 -0.320416 1033 0.735563 0.677456 0.000000
-7.577482 -6.967391 -0.317231 1031 0.735563 0.677456 0.000000
-7.577278 -6.967212 -0.314053 1023 0.735563 0.677456 0.000000
-7.577128 -6.967077 -0.310884 1025 0.735563 0.677456 0.000000
-7.576874 -6.966832 -0.307717 1019 0.735563 0.677456 0.000000
-7.578423 -6.963811 -0.694223 1051 0.735563 0.677456 0.000000
-7.579598 -6.964886 -0.691152 1051 0.735563 0.677456 0.000000
-7.579805 -6.965073 -0.688000 1057 0.735563 0.677456 0.000000
-7.579051 -6.964379 -0.684757 1065 0.735563 0.677456 0.000000
-7.578767 -6.964123 -0.681560 1041 0.735563 0.677456 0.000000
-7.578760 -6.964114 -0.678380 1037 0.735563 0.677456 0.000000
-7.579180 -6.964497 -0.675246 1045 0.735563 0.677456 0.000000
-7.579214 -6.964533 -0.672076 1055 0.735563 0.677456 0.000000
-7.578778 -6.964130 -0.668860 1049 0.735563 0.677456 0.000000
-7.578977 -6.964311 -0.665708 1047 0.735563 0.677456 0.000000
-7.579241 -6.964557 -0.662555 1045 0.735563 0.677456 0.000000
-7.579591 -6.964884 -0.659412 1065 0.735563 0.677456 0.000000
-7.578773 -6.964126 -0.656169 1051 0.735563 0.677456 0.000000
-7.578544 -6.963914 -0.652971 1053 0.735563 0.677456 0.000000
-7.579014 -6.964349 -0.649837 1051 0.735563 0.677456 0.000000
-7.578674 -6.964036 -0.646640 1037 0.735563 0.677456 0.000000
-7.578493 -6.963874 -0.643452 1043 0.735563 0.677456 0.000000
-7.579009 -6.964347 -0.640317 1051 0.735563 0.677456 0.000000
-7.579151 -6.964470 -0.637155 1039 0.735563 0.677456 0.000000
-7.579193 -6.964513 -0.633995 1051 0.735563 0.677456 0.000000
-7.579058 -6.964389 -0.630806 1049 0.735563 0.677456 0.000000
-7.579472 -6.964767 -0.627672 1065 0.735563 0.677456 0.000000
-7.578917 -6.964257 -0.624447 1043 0.735563 0.677456 0.000000
-7.578997 -6.964330 -0.621286 1059 0.735563 0.677456 0.000000
-7.579403 -6.964701 -0.618142 1041 0.735563 0.677456 0.000000
-7.579588 -6.964884 -0.614991 1049 0.735563 0.677456 0.000000
-7.579565 -6.964862 -0.611811 1049 0.735563 0.677456 0.000000
-7.580136 -6.965378 -0.608685 1067 0.735563 0.677456 0.000000
-7.579677 -6.964957 -0.605480 1053 0.735563 0.677456 0.000000
-7.578464 -6.963844 -0.602211 1021 0.735563 0.677456 0.000000
-7.578107 -6.963518 -0.599014 1035 0.735563 0.677456 0.000000
-7.578409 -6.963795 -0.595861 1039 0.735563 0.677456 0.000000
-7.579561 -6.964851 -0.592780 1045 0.735563 0.677456 0.000000
-7.579427 -6.964727 -0.589602 1037 0.735563 0.677456 0.000000
-7.579285 -6.964598 -0.586423 1049 0.735563 0.677456 0.000000
-7.579636 -6.964926 -0.583279 1073 0.735563 0.677456 0.000000
-7.579383 -6.964695 -0.580082 1049 0.735563 0.677456 0.000000
-7.579019 -6.964363 -0.576885 1019 0.735563 0.677456 0.000000
-7.579153 -6.964479 -0.573724 1035 0.735563 0.677456 0.000000
-7.579061 -6.964401 -0.570555 1051 0.735563 0.677456 0.000000
-7.578981 -6.964321 -0.567375 1057 0.735563 0.677456 0.000000
-7.579482 -6.964782 -0.564240 1071 0.735563 0.677456 0.000000
-7.579658 -6.964944 -0.561079 1055 0.735563 0.677456 0.000000
-7.580166 -6.965410 -0.557944 1071 0.735563 0.677456 0.000000
-7.580335 -6.965567 -0.554792 1061 0.735563 0.677456 0.000000
-7.580406 -6.965634 -0.551622 1069 0.735563 0.677456 0.000000
-7.579717 -6.965003 -0.548408 1053 0.735563 0.677456 0.000000
-7.579408 -6.964715 -0.545211 1057 0.735563 0.677456 0.000000
-7.580449 -6.965669 -0.542121 1079 0.735563 0.677456 0.000000
-7.580569 -6.965788 -0.538960 1099 0.735563 0.677456 0.000000
-7.579990 -6.965245 -0.535745 1091 0.735563 0.677456 0.000000
-7.579729 -6.965008 -0.532557 1067 0.735563 0.677456 0.000000
-7.579468 -6.964770 -0.529370 1067 0.735563 0.677456 0.000000
-7.579476 -6.964774 -0.526200 1059 0.735563 0.677456 0.000000
-7.579866 -6.965132 -0.523056 1067 0.735563 0.677456 0.000000
-7.579930 -6.965193 -0.519895 1061 0.735563 0.677456 0.000000
-7.580251 -6.965496 -0.516742 1065 0.735563 0.677456 0.000000
-7.580370 -6.965600 -0.513581 1081 0.735563 0.677456 0.000000
-7.579569 -6.964869 -0.510358 1049 0.735563 0.677456 0.000000
-7.579737 -6.965024 -0.507207 1043 0.735563 0.677456 0.000000
-7.579578 -6.964869 -0.504028 1035 0.735563 0.677456 0.000000
-7.579683 -6.964975 -0.500867 1049 0.735563 0.677456 0.000000
-7.580494 -6.965721 -0.497749 1065 0.735563 0.677456 0.000000
-7.580557 -6.965767 -0.494579 1075 0.735563 0.677456 0.000000
-7.579686 -6.964980 -0.491357 1055 0.735563 0.677456 0.000000
-7.579583 -6.964881 -0.488188 1065 0.735563 0.677456 0.000000
-7.580069 -6.965329 -0.485043 1059 0.735563 0.677456 0.000000
-7.579751 -6.965034 -0.481856 1051 0.735563 0.677456 0.000000
-7.579102 -6.964435 -0.478652 1065 0.735563 0.677456 0.000000
-7.578937 -6.964286 -0.475473 1045 0.735563 0.677456 0.000000
-7.579739 -6.965026 -0.472356 1049 0.735563 0.677456 0.000000
-7.580057 -6.965315 -0.469203 1059 0.735563 0.677456 0.000000
-7.579463 -6.964774 -0.466008 1055 0.735563 0.677456 0.000000
-7.579193 -6.964516 -0.462821 1057 0.735563 0.677456 0.000000
-7.579670 -6.964957 -0.459686 1065 0.735563 0.677456 0.000000
-7.580307 -6.965552 -0.456550 1077 0.735563 0.677456 0.000000
-7.580197 -6.965447 -0.453381 1047 0.735563 0.677456 0.000000
-7.579761 -6.965045 -0.450185 1023 0.735563 0.677456 0.000000
-7.578888 -6.964243 -0.446963 1025 0.735563 0.677456 0.000000
-7.578073 -6.963499 -0.443751 1035 0.735563 0.677456 0.000000
-7.578708 -6.964079 -0.440625 1041 0.735563 0.677456 0.000000
-7.580574 -6.965795 -0.437567 1055 0.735563 0.677456 0.000000
-7.580242 -6.965488 -0.434380 1039 0.735563 0.677456 0.000000
-7.579369 -6.964686 -0.431158 1045 0.735563 0.677456 0.000000
-7.578974 -6.964329 -0.427972 1039 0.735563 0.677456 0.000000
-7.579070 -6.964415 -0.424811 1045 0.735563 0.677456 0.000000
-7.578952 -6.964304 -0.421642 1037 0.735563 0.677456 0.000000
-7.578937 -6.964288 -0.418472 1045 0.735563 0.677456 0.000000
-7.579510 -6.964819 -0.415337 1027 0.735563 0.677456 0.000000
-7.579771 -6.965049 -0.412184 1035 0.735563 0.677456 0.000000
-7.579216 -6.964539 -0.408989 1021 0.735563 0.677456 0.000000
-7.579838 -6.965122 -0.405853 1051 0.735563 0.677456 0.000000
-7.579877 -6.965149 -0.402693 1059 0.735563 0.677456 0.000000
-7.579585 -6.964888 -0.399516 1053 0.735563 0.677456 0.000000
-7.579673 -6.964967 -0.396355 1023 0.735563 0.677456 0.000000
-7.579650 -6.964945 -0.393185 1011 0.735563 0.677456 0.000000
-7.579786 -6.965075 -0.390023 1015 0.735563 0.677456 0.000000
-7.580192 -6.965447 -0.386880 1033 0.735563 0.677456 0.000000
-7.580280 -6.965527 -0.383719 1035 0.735563 0.677456 0.000000
-7.579614 -6.964915 -0.380525 1019 0.735563 0.677456 0.000000
-7.579702 -6.964995 -0.377364 1021 0.735563 0.677456 0.000000
-7.579997 -6.965265 -0.374211 1019 0.735563 0.677456 0.000000
-7.579912 -6.965193 -0.371042 1019 0.735563 0.677456 0.000000
-7.580428 -6.965666 -0.367897 1031 0.735563 0.677456 0.000000
-7.580937 -6.966132 -0.364762 1023 0.735563 0.677456 0.000000
-7.580857 -6.966053 -0.361593 1019 0.735563 0.677456 0.000000
-7.580232 -6.965487 -0.358399 1023 0.735563 0.677456 0.000000
-7.580313 -6.965560 -0.355238 1029 0.735563 0.677456 0.000000
-7.580710 -6.965925 -0.352084 1035 0.735563 0.677456 0.000000
-7.580687 -6.965903 -0.348924 1039 0.735563 0.677456 0.000000
-7.580283 -6.965526 -0.345738 1047 0.735563 0.677456 0.000000
-7.579221 -6.964560 -0.342528 1003 0.735563 0.677456 0.000000
-7.579618 -6.964924 -0.339374 1017 0.735563 0.677456 0.000000
-7.579857 -6.965137 -0.336222 1023 0.735563 0.677456 0.000000
-7.579867 -6.965154 -0.333061 1029 0.735563 0.677456 0.000000
-7.580701 -6.965919 -0.329934 1019 0.735563 0.677456 0.000000
-7.581153 -6.966327 -0.326789 1037 0.735563 0.677456 0.000000
-7.581274 -6.966445 -0.323628 1059 0.735563 0.677456 0.000000
-7.581076 -6.966259 -0.320450 1033 0.735563 0.677456 0.000000
-7.579688 -6.964981 -0.317233 1019 0.735563 0.677456 0.000000
-7.579269 -6.964605 -0.314047 1015 0.735563 0.677456 0.000000
-7.579825 -6.965109 -0.310911 1031 0.735563 0.677456 0.000000
-7.579683 -6.964980 -0.307742 1013 0.735563 0.677456 0.000000
-7.580709 -6.961541 -0.694234 1041 0.735563 0.677456 0.000000
-7.581560 -6.962332 -0.691136 1061 0.735563 0.677456 0.000000
-7.581655 -6.962418 -0.687975 1055 0.735563 0.677456 0.000000
-7.580948 -6.961761 -0.684731 1033 0.735563 0.677456 0.000000
-7.581372 -6.962159 -0.681597 1035 0.735563 0.677456 0.000000
-7.581792 -6.962542 -0.678463 1055 0.735563 0.677456 0.000000
-7.581348 -6.962133 -0.675247 1061 0.735563 0.677456 0.000000
-7.581819 -6.962569 -0.672113 1061 0.735563 0.677456 0.000000
-7.582136 -6.962857 -0.668970 1057 0.735563 0.677456 0.000000
-7.581470 -6.962245 -0.665736 1049 0.735563 0.677456 0.000000
-7.580709 -6.961545 -0.662493 1037 0.735563 0.677456 0.000000
-7.580957 -6.961778 -0.659340 1025 0.735563 0.677456 0.000000
-7.581323 -6.962118 -0.656197 1037 0.735563 0.677456 0.000000
-7.581308 -6.962102 -0.653027 1057 0.735563 0.677456 0.000000
-7.581618 -6.962384 -0.649874 1047 0.735563 0.677456 0.000000
-7.581332 -6.962114 -0.646677 1035 0.735563 0.677456 0.000000
-7.581794 -6.962543 -0.643542 1037 0.735563 0.677456 0.000000
-7.582421 -6.963118 -0.640426 1047 0.735563 0.677456 0.000000
-7.581487 -6.962266 -0.637175 1045 0.735563 0.677456 0.000000
-7.581304 -6.962091 -0.633987 1041 0.735563 0.677456 0.000000
-7.581393 -6.962171 -0.630826 1049 0.735563 0.677456 0.000000
-7.581212 -6.962010 -0.627637 1047 0.735563 0.677456 0.000000
-7.581188 -6.961987 -0.624458 1055 0.735563 0.677456 0.000000
-7.581388 -6.962169 -0.621306 1061 0.735563 0.677456 0.000000
-7.581896 -6.962635 -0.618171 1047 0.735563 0.677456 0.000000
-7.581761 -6.962512 -0.614992 1047 0.735563 0.677456 0.000000
-7.581850 -6.962592 -0.611821 1043 0.735563 0.677456 0.000000
-7.581716 -6.962468 -0.608642 1053 0.735563 0.677456 0.000000
-7.580773 -6.961610 -0.605391 1029 0.735563 0.677456 0.000000
-7.580694 -6.961530 -0.602222 1031 0.735563 0.677456 0.000000
-7.580345 -6.961210 -0.599015 1039 0.735563 0.677456 0.000000
-7.580252 -6.961132 -0.595846 1045 0.735563 0.677456 0.000000
-7.579904 -6.960813 -0.592649 1029 0.735563 0.677456 0.000000
-7.580087 -6.960981 -0.589487 1033 0.735563 0.677456 0.000000
-7.581294 -6.962081 -0.586406 1045 0.735563 0.677456 0.000000
-7.581859 -6.962605 -0.583280 1071 0.735563 0.677456 0.000000
-7.580907 -6.961727 -0.580039 1053 0.735563 0.677456 0.000000
-7.580336 -6.961204 -0.576824 1027 0.735563 0.677456 0.000000
-7.580631 -6.961474 -0.573672 1047 0.735563 0.677456 0.000000
-7.581028 -6.961839 -0.570538 1035 0.735563 0.677456 0.000000
-7.581903 -6.962648 -0.567429 1055 0.735563 0.677456 0.000000
-7.581602 -6.962367 -0.564232 1053 0.735563 0.677456 0.000000
-7.580920 -6.961742 -0.561018 1041 0.735563 0.677456 0.000000
-7.581524 -6.962298 -0.557893 1049 0.735563 0.677456 0.000000
-7.582074 -6.962810 -0.554758 1067 0.735563 0.677456 0.000000
-7.582257 -6.962977 -0.551606 1079 0.735563 0.677456 0.000000
-7.582059 -6.962790 -0.548418 1071 0.735563 0.677456 0.000000
-7.581370 -6.962160 -0.545204 1053 0.735563 0.677456 0.000000
-7.581600 -6.962366 -0.542042 1065 0.735563 0.677456 0.000000
-7.581878 -6.962624 -0.538899 1065 0.735563 0.677456 0.000000
-7.581452 -6.962242 -0.535693 1063 0.735563 0.677456 0.000000
-7.581683 -6.962447 -0.532541 1043 0.735563 0.677456 0.000000
-7.582398 -6.963104 -0.529424 1057 0.735563 0.677456 0.000000
-7.582455 -6.963159 -0.526253 1063 0.735563 0.677456 0.000000
-7.582194 -6.962922 -0.523076 1075 0.735563 0.677456 0.000000
-7.581828 -6.962575 -0.519879 1067 0.735563 0.677456 0.000000
-7.581353 -6.962141 -0.516673 1051 0.735563 0.677456 0.000000
-7.581244 -6.962050 -0.513504 1071 0.735563 0.677456 0.000000
-7.581363 -6.962155 -0.510343 1049 0.735563 0.677456 0.000000
-7.581531 -6.962311 -0.507182 1047 0.735563 0.677456 0.000000
-7.581254 -6.962061 -0.503994 1039 0.735563 0.677456 0.000000
-7.581913 -6.962661 -0.500868 1055 0.735563 0.677456 0.000000
-7.582240 -6.962955 -0.497725 1073 0.735563 0.677456 0.000000
-7.582407 -6.963112 -0.494563 1059 0.735563 0.677456 0.000000
-7.582782 -6.963458 -0.491419 1065 0.735563 0.677456 0.000000
-7.582402 -6.963113 -0.488223 1051 0.735563 0.677456 0.000000
-7.582513 -6.963212 -0.485062 1055 0.735563 0.677456 0.000000
-7.582300 -6.963012 -0.481884 1067 0.735563 0.677456 0.000000
-7.581817 -6.962572 -0.478688 1063 0.735563 0.677456 0.000000
-7.581858 -6.962614 -0.475518 1057 0.735563 0.677456 0.000000
-7.581644 -6.962414 -0.472340 1041 0.735563 0.677456 0.000000
-7.581367 -6.962164 -0.469152 1039 0.735563 0.677456 0.000000
-7.580829 -6.961667 -0.465957 1033 0.735563 0.677456 0.000000
-7.580504 -6.961366 -0.462770 1041 0.735563 0.677456 0.000000
-7.581092 -6.961909 -0.459634 1041 0.735563 0.677456 0.000000
-7.581776 -6.962540 -0.456508 1057 0.735563 0.677456 0.000000
-7.581506 -6.962283 -0.453330 1021 0.735563 0.677456 0.000000
-7.582094 -6.962826 -0.450195 1039 0.735563 0.677456 0.000000
-7.582350 -6.963065 -0.447042 1037 0.735563 0.677456 0.000000
-7.581906 -6.962656 -0.443846 1027 0.735563 0.677456 0.000000
-7.581844 -6.962603 -0.440677 1033 0.735563 0.677456 0.000000
-7.582376 -6.963089 -0.437542 1053 0.735563 0.677456 0.000000
-7.581981 -6.962731 -0.434355 1035 0.735563 0.677456 0.000000
-7.581648 -6.962423 -0.431169 1041 0.735563 0.677456 0.000000
-7.581267 -6.962065 -0.427982 1029 0.735563 0.677456 0.000000
-7.581086 -6.961904 -0.424804 1031 0.735563 0.677456 0.000000
-7.581549 -6.962333 -0.421669 1041 0.735563 0.677456 0.000000
-7.582565 -6.963269 -0.418550 1055 0.735563 0.677456 0.000000
-7.582757 -6.963444 -0.415398 1033 0.735563 0.677456 0.000000
-7.582424 -6.963136 -0.412211 1035 0.735563 0.677456 0.000000
-7.581869 -6.962626 -0.409016 1061 0.735563 0.677456 0.000000
-7.581521 -6.962306 -0.405829 1041 0.735563 0.677456 0.000000
-7.581880 -6.962640 -0.402686 1025 0.735563 0.677456 0.000000
-7.582617 -6.963315 -0.399559 1031 0.735563 0.677456 0.000000
-7.583356 -6.963992 -0.396432 1049 0.735563 0.677456 0.000000
-7.583168 -6.963825 -0.393254 1029 0.735563 0.677456 0.000000
-7.582930 -6.963606 -0.390076 1043 0.735563 0.677456 0.000000
-7.582756 -6.963438 -0.386897 1055 0.735563 0.677456 0.000000
-7.582773 -6.963461 -0.383737 1057 0.735563 0.677456 0.000000
-7.582536 -6.963243 -0.380559 1055 0.735563 0.677456 0.000000
-7.582147 -6.962878 -0.377373 1019 0.735563 0.677456 0.000000
-7.582545 -6.963243 -0.374229 1029 0.735563 0.677456 0.000000
-7.582307 -6.963024 -0.371051 1023 0.735563 0.677456 0.000000
-7.581357 -6.962160 -0.367840 1007 0.735563 0.677456 0.000000
-7.581278 -6.962080 -0.364671 1021 0.735563 0.677456 0.000000
-7.581899 -6.962662 -0.361535 1045 0.735563 0.677456 0.000000
-7.581979 -6.962735 -0.358374 1027 0.735563 0.677456 0.000000
-7.582266 -6.962999 -0.355221 1039 0.735563 0.677456 0.000000
-7.581861 -6.962621 -0.352045 1033 0.735563 0.677456 0.000000
-7.582427 -6.963146 -0.348899 1039 0.735563 0.677456 0.000000
-7.582610 -6.963315 -0.345748 1033 0.735563 0.677456 0.000000
-7.582309 -6.963032 -0.342570 1019 0.735563 0.677456 0.000000
-7.581738 -6.962510 -0.339376 1017 0.735563 0.677456 0.000000
-7.581755 -6.962519 -0.336215 1027 0.735563 0.677456 0.000000
-7.582312 -6.963037 -0.333070 1019 0.735563 0.677456 0.000000
-7.582820 -6.963503 -0.329925 1011 0.735563 0.677456 0.000000
-7.582781 -6.963469 -0.326766 1015 0.735563 0.677456 0.000000
-7.582258 -6.962984 -0.323580 1011 0.735563 0.677456 0.000000
-7.582387 -6.963109 -0.320419 1019 0.735563 0.677456 0.000000
-7.581974 -6.962724 -0.317233 1005 0.735563 0.677456 0.000000
-7.582199 -6.962938 -0.314081 1029 0.735563 0.677456 0.000000
-7.582263 -6.962999 -0.310920 1031 0.735563 0.677456 0.000000
-7.581851 -6.962615 -0.307744 1033 0.735563 0.677456 0.000000
-7.582721 -6.959130 -0.694226 1043 0.735563 0.677456 0.000000
-7.583405 -6.959762 -0.691119 1031 0.735563 0.677456 0.000000
-7.583572 -6.959904 -0.687958 1027 0.735563 0.677456 0.000000
-7.583295 -6.959654 -0.684750 1031 0.735563 0.677456 0.000000
-7.584145 -6.960432 -0.681652 1049 0.735563 0.677456 0.000000
-7.584552 -6.960817 -0.678518 1057 0.735563 0.677456 0.000000
-7.584068 -6.960363 -0.675303 1057 0.735563 0.677456 0.000000
-7.583783 -6.960107 -0.672105 1059 0.735563 0.677456 0.000000
-7.582862 -6.959253 -0.668844 1061 0.735563 0.677456 0.000000
-7.582524 -6.958954 -0.665647 1053 0.735563 0.677456 0.000000
-7.583158 -6.959533 -0.662521 1047 0.735563 0.677456 0.000000
-7.583683 -6.960013 -0.659396 1021 0.735563 0.677456 0.000000
-7.584145 -6.960442 -0.656262 1023 0.735563 0.677456 0.000000
