749
-12.455655 -12.058665 -0.493366 1303 0.727041 0.686594 0.000000
-12.456074 -12.059075 -0.488052 1319 0.727041 0.686594 0.000000
-12.456553 -12.059537 -0.482737 1325 0.727041 0.686594 0.000000
-12.456600 -12.059581 -0.477416 1323 0.727041 0.686594 0.000000
-12.456124 -12.059125 -0.472071 1311 0.727041 0.686594 0.000000
-12.455752 -12.058765 -0.466724 1313 0.727041 0.686594 0.000000
-12.455640 -12.058655 -0.461395 1307 0.727041 0.686594 0.000000
-12.455685 -12.058700 -0.456065 1315 0.727041 0.686594 0.000000
-12.455463 -12.058488 -0.450737 1319 0.727041 0.686594 0.000000
-12.455715 -12.058738 -0.445414 1325 0.727041 0.686594 0.000000
-12.456078 -12.059090 -0.440100 1317 0.727041 0.686594 0.000000
-12.455902 -12.058916 -0.434762 1313 0.727041 0.686594 0.000000
-12.455735 -12.058763 -0.429433 1323 0.727041 0.686594 0.000000
-12.455512 -12.058537 -0.424096 1329 0.727041 0.686594 0.000000
-12.455805 -12.058832 -0.418783 1315 0.727041 0.686594 0.000000
-12.456420 -12.059428 -0.413477 1327 0.727041 0.686594 0.000000
-12.455564 -12.058599 -0.408125 1329 0.727041 0.686594 0.000000
-12.455071 -12.058118 -0.402779 1317 0.727041 0.686594 0.000000
-12.455309 -12.058354 -0.397457 1315 0.727041 0.686594 0.000000
-12.455758 -12.058790 -0.392142 1323 0.727041 0.686594 0.000000
-12.456208 -12.059227 -0.386838 1317 0.727041 0.686594 0.000000
-12.456609 -12.059610 -0.381514 1327 0.727041 0.686594 0.000000
-12.456482 -12.059488 -0.376185 1335 0.727041 0.686594 0.000000
-12.456196 -12.059212 -0.370858 1323 0.727041 0.686594 0.000000
-12.456472 -12.059494 -0.365535 1321 0.727041 0.686594 0.000000
-12.456757 -12.059771 -0.360212 1325 0.727041 0.686594 0.000000
-12.456627 -12.059647 -0.354883 1335 0.727041 0.686594 0.000000
-12.456287 -12.059313 -0.349546 1317 0.727041 0.686594 0.000000
-12.456680 -12.059691 -0.344232 1331 0.727041 0.686594 0.000000
-12.456481 -12.059498 -0.338904 1315 0.727041 0.686594 0.000000
-12.455864 -12.058913 -0.333560 1317 0.727041 0.686594 0.000000
-12.456408 -12.059439 -0.328244 1327 0.727041 0.686594 0.000000
-12.456429 -12.059451 -0.322924 1323 0.727041 0.686594 0.000000
-12.456175 -12.059214 -0.317587 1329 0.727041 0.686594 0.000000
-12.455874 -12.058925 -0.312259 1329 0.727041 0.686594 0.000000
-12.455730 -12.058789 -0.306930 1325 0.727041 0.686594 0.000000
-12.456322 -12.059353 -0.301615 1327 0.727041 0.686594 0.000000
-12.456328 -12.059365 -0.296294 1323 0.727041 0.686594 0.000000
-12.459935 -12.055100 -0.685268 1339 0.727041 0.686594 0.000000
-12.459713 -12.054874 -0.679920 1335 0.727041 0.686594 0.000000
-12.459806 -12.054972 -0.674599 1329 0.727041 0.686594 0.000000
-12.459954 -12.055112 -0.669267 1321 0.727041 0.686594 0.000000
-12.460049 -12.055207 -0.663946 1325 0.727041 0.686594 0.000000
-12.460237 -12.055393 -0.658624 1331 0.727041 0.686594 0.000000
-12.460482 -12.055637 -0.653302 1335 0.727041 0.686594 0.000000
-12.460361 -12.055521 -0.647963 1329 0.727041 0.686594 0.000000
-12.459979 -12.055140 -0.642616 1323 0.727041 0.686594 0.000000
-12.459955 -12.055128 -0.637286 1325 0.727041 0.686594 0.000000
-12.460294 -12.055461 -0.631963 1323 0.727041 0.686594 0.000000
-12.460072 -12.055236 -0.626625 1321 0.727041 0.686594 0.000000
-12.459991 -12.055165 -0.621296 1329 0.727041 0.686594 0.000000
-12.460132 -12.055299 -0.615964 1317 0.727041 0.686594 0.000000
-12.459680 -12.054861 -0.610618 1317 0.727041 0.686594 0.000000
-12.459172 -12.054379 -0.605263 1331 0.727041 0.686594 0.000000
-12.459614 -12.054811 -0.599949 1323 0.727041 0.686594 0.000000
-12.460222 -12.055400 -0.594653 1321 0.727041 0.686594 0.000000
-12.460299 -12.055470 -0.589322 1335 0.727041 0.686594 0.000000
-12.459532 -12.054725 -0.583959 1325 0.727041 0.686594 0.000000
-12.459237 -12.054441 -0.578612 1323 0.727041 0.686594 0.000000
-12.460036 -12.055225 -0.573324 1329 0.727041 0.686594 0.000000
-12.460215 -12.055389 -0.568002 1319 0.727041 0.686594 0.000000
-12.460181 -12.055357 -0.562662 1319 0.727041 0.686594 0.000000
-12.460672 -12.055840 -0.557358 1335 0.727041 0.686594 0.000000
-12.460361 -12.055543 -0.552020 1319 0.727041 0.686594 0.000000
-12.460322 -12.055505 -0.546681 1319 0.727041 0.686594 0.000000
-12.460440 -12.055619 -0.541359 1323 0.727041 0.686594 0.000000
-12.460033 -12.055220 -0.536013 1317 0.727041 0.686594 0.000000
-12.459723 -12.054925 -0.530676 1325 0.727041 0.686594 0.000000
-12.459366 -12.054578 -0.525329 1317 0.727041 0.686594 0.000000
-12.459532 -12.054745 -0.520007 1325 0.727041 0.686594 0.000000
-12.459902 -12.055102 -0.514694 1323 0.727041 0.686594 0.000000
-12.460431 -12.055616 -0.509389 1321 0.727041 0.686594 0.000000
-12.460431 -12.055623 -0.504058 1315 0.727041 0.686594 0.000000
-12.460176 -12.055371 -0.498721 1319 0.727041 0.686594 0.000000
-12.460484 -12.055678 -0.493398 1331 0.727041 0.686594 0.000000
-12.461012 -12.056192 -0.488093 1329 0.727041 0.686594 0.000000
-12.461067 -12.056243 -0.482762 1337 0.727041 0.686594 0.000000
-12.460693 -12.055883 -0.477425 1329 0.727041 0.686594 0.000000
-12.460122 -12.055324 -0.472071 1317 0.727041 0.686594 0.000000
-12.459948 -12.055163 -0.466742 1317 0.727041 0.686594 0.000000
-12.460254 -12.055458 -0.461419 1325 0.727041 0.686594 0.000000
-12.459729 -12.054950 -0.456074 1313 0.727041 0.686594 0.000000
-12.459928 -12.055142 -0.450752 1315 0.727041 0.686594 0.000000
-12.459814 -12.055032 -0.445423 1319 0.727041 0.686594 0.000000
-12.459110 -12.054365 -0.440069 1317 0.727041 0.686594 0.000000
-12.459210 -12.054454 -0.434748 1315 0.727041 0.686594 0.000000
-12.459139 -12.054390 -0.429419 1311 0.727041 0.686594 0.000000
-12.459027 -12.054279 -0.424090 1313 0.727041 0.686594 0.000000
-12.458907 -12.054164 -0.418761 1315 0.727041 0.686594 0.000000
-12.459674 -12.054909 -0.413454 1317 0.727041 0.686594 0.000000
-12.460177 -12.055401 -0.408149 1325 0.727041 0.686594 0.000000
-12.459164 -12.054419 -0.402788 1323 0.727041 0.686594 0.000000
-12.459194 -12.054450 -0.397458 1319 0.727041 0.686594 0.000000
-12.460016 -12.055253 -0.392160 1321 0.727041 0.686594 0.000000
-12.460204 -12.055425 -0.386838 1323 0.727041 0.686594 0.000000
-12.460227 -12.055450 -0.381517 1331 0.727041 0.686594 0.000000
-12.459949 -12.055180 -0.376180 1329 0.727041 0.686594 0.000000
-12.459750 -12.054999 -0.370852 1327 0.727041 0.686594 0.000000
-12.460262 -12.055487 -0.365537 1329 0.727041 0.686594 0.000000
-12.460704 -12.055916 -0.360222 1325 0.727041 0.686594 0.000000
-12.460665 -12.055891 -0.354892 1333 0.727041 0.686594 0.000000
-12.461010 -12.056217 -0.349579 1331 0.727041 0.686594 0.000000
-12.460345 -12.055582 -0.344235 1323 0.727041 0.686594 0.000000
-12.459948 -12.055189 -0.338899 1325 0.727041 0.686594 0.000000
-12.460058 -12.055311 -0.333568 1321 0.727041 0.686594 0.000000
-12.459977 -12.055226 -0.328238 1325 0.727041 0.686594 0.000000
-12.459778 -12.055034 -0.322910 1321 0.727041 0.686594 0.000000
-12.459636 -12.054900 -0.317581 1321 0.727041 0.686594 0.000000
-12.459968 -12.055226 -0.312268 1325 0.727041 0.686594 0.000000
-12.459767 -12.055033 -0.306940 1325 0.727041 0.686594 0.000000
-12.459617 -12.054893 -0.301611 1329 0.727041 0.686594 0.000000
-12.459954 -12.055212 -0.296288 1313 0.727041 0.686594 0.000000
-12.464108 -12.051622 -0.685285 1333 0.727041 0.686594 0.000000
-12.464786 -12.052269 -0.679989 1335 0.727041 0.686594 0.000000
-12.464721 -12.052211 -0.674659 1329 0.727041 0.686594 0.000000
-12.464072 -12.051588 -0.669295 1329 0.727041 0.686594 0.000000
-12.463691 -12.051221 -0.663939 1335 0.727041 0.686594 0.000000
-12.463675 -12.051202 -0.658609 1325 0.727041 0.686594 0.000000
-12.463553 -12.051085 -0.653270 1313 0.727041 0.686594 0.000000
-12.463695 -12.051220 -0.647948 1331 0.727041 0.686594 0.000000
-12.463623 -12.051156 -0.642609 1323 0.727041 0.686594 0.000000
-12.464185 -12.051707 -0.637303 1335 0.727041 0.686594 0.000000
-12.464529 -12.052033 -0.631990 1333 0.727041 0.686594 0.000000
-12.464243 -12.051757 -0.626642 1321 0.727041 0.686594 0.000000
-12.464005 -12.051532 -0.621305 1315 0.727041 0.686594 0.000000
-12.463924 -12.051460 -0.615975 1313 0.727041 0.686594 0.000000
-12.463956 -12.051492 -0.610645 1323 0.727041 0.686594 0.000000
-12.463930 -12.051466 -0.605305 1337 0.727041 0.686594 0.000000
-12.463327 -12.050882 -0.599951 1321 0.727041 0.686594 0.000000
-12.463342 -12.050900 -0.594620 1327 0.727041 0.686594 0.000000
-12.463057 -12.050625 -0.589273 1321 0.727041 0.686594 0.000000
-12.462914 -12.050489 -0.583944 1321 0.727041 0.686594 0.000000
-12.463624 -12.051176 -0.578647 1321 0.727041 0.686594 0.000000
-12.464160 -12.051694 -0.573342 1325 0.727041 0.686594 0.000000
-12.463708 -12.051257 -0.567986 1317 0.727041 0.686594 0.000000
-12.463832 -12.051378 -0.562665 1323 0.727041 0.686594 0.000000
-12.464157 -12.051700 -0.557352 1331 0.727041 0.686594 0.000000
-12.463697 -12.051257 -0.551996 1325 0.727041 0.686594 0.000000
-12.463449 -12.051011 -0.546658 1313 0.727041 0.686594 0.000000
-12.463717 -12.051274 -0.541345 1317 0.727041 0.686594 0.000000
-12.463891 -12.051447 -0.536024 1325 0.727041 0.686594 0.000000
-12.463478 -12.051043 -0.530677 1319 0.727041 0.686594 0.000000
-12.463436 -12.051003 -0.525338 1321 0.727041 0.686594 0.000000
-12.462914 -12.050509 -0.519992 1323 0.727041 0.686594 0.000000
-12.463078 -12.050662 -0.514671 1309 0.727041 0.686594 0.000000
-12.463717 -12.051276 -0.509365 1307 0.727041 0.686594 0.000000
-12.463660 -12.051225 -0.504035 1313 0.727041 0.686594 0.000000
-12.463241 -12.050827 -0.498689 1319 0.727041 0.686594 0.000000
-12.463872 -12.051435 -0.493393 1319 0.727041 0.686594 0.000000
-12.464187 -12.051738 -0.488070 1321 0.727041 0.686594 0.000000
-12.463718 -12.051288 -0.482724 1321 0.727041 0.686594 0.000000
-12.463237 -12.050826 -0.477378 1319 0.727041 0.686594 0.000000
-12.462918 -12.050524 -0.472041 1317 0.727041 0.686594 0.000000
-12.463494 -12.051074 -0.466736 1319 0.727041 0.686594 0.000000
-12.463802 -12.051384 -0.461423 1317 0.727041 0.686594 0.000000
-12.463634 -12.051215 -0.456084 1321 0.727041 0.686594 0.000000
-12.463468 -12.051061 -0.450755 1319 0.727041 0.686594 0.000000
-12.464042 -12.051611 -0.445440 1327 0.727041 0.686594 0.000000
-12.463773 -12.051347 -0.440102 1325 0.727041 0.686594 0.000000
-12.463233 -12.050828 -0.434757 1333 0.727041 0.686594 0.000000
-12.463051 -12.050661 -0.429429 1327 0.727041 0.686594 0.000000
-12.462891 -12.050499 -0.424090 1329 0.727041 0.686594 0.000000
-12.462660 -12.050281 -0.418762 1311 0.727041 0.686594 0.000000
-12.462689 -12.050312 -0.413432 1299 0.727041 0.686594 0.000000
-12.463147 -12.050755 -0.408127 1319 0.727041 0.686594 0.000000
-12.463282 -12.050896 -0.402796 1329 0.727041 0.686594 0.000000
-12.462949 -12.050568 -0.397459 1329 0.727041 0.686594 0.000000
-12.463508 -12.051105 -0.392154 1329 0.727041 0.686594 0.000000
-12.463856 -12.051446 -0.386840 1327 0.727041 0.686594 0.000000
-12.463458 -12.051066 -0.381504 1319 0.727041 0.686594 0.000000
-12.462957 -12.050577 -0.376158 1309 0.727041 0.686594 0.000000
-12.463093 -12.050719 -0.370837 1317 0.727041 0.686594 0.000000
-12.463486 -12.051098 -0.365523 1311 0.727041 0.686594 0.000000
-12.463565 -12.051167 -0.360192 1325 0.727041 0.686594 0.000000
-12.464005 -12.051596 -0.354878 1329 0.727041 0.686594 0.000000
-12.464496 -12.052078 -0.349573 1323 0.727041 0.686594 0.000000
-12.464043 -12.051641 -0.344227 1321 0.727041 0.686594 0.000000
-12.463908 -12.051513 -0.338898 1323 0.727041 0.686594 0.000000
-12.464025 -12.051627 -0.333577 1327 0.727041 0.686594 0.000000
-12.464046 -12.051652 -0.328257 1311 0.727041 0.686594 0.000000
-12.464165 -12.051767 -0.322926 1327 0.727041 0.686594 0.000000
-12.463705 -12.051325 -0.317590 1325 0.727041 0.686594 0.000000
-12.463664 -12.051285 -0.312270 1323 0.727041 0.686594 0.000000
-12.463632 -12.051252 -0.306940 1331 0.727041 0.686594 0.000000
-12.463424 -12.051054 -0.301612 1329 0.727041 0.686594 0.000000
-12.463281 -12.050919 -0.296283 1329 0.727041 0.686594 0.000000
-12.467392 -12.046857 -0.685253 1333 0.727041 0.686594 0.000000
-12.467178 -12.046651 -0.679915 1329 0.727041 0.686594 0.000000
-12.467690 -12.047138 -0.674610 1343 0.727041 0.686594 0.000000
-12.467466 -12.046925 -0.669262 1329 0.727041 0.686594 0.000000
-12.467711 -12.047169 -0.663940 1323 0.727041 0.686594 0.000000
-12.468382 -12.047811 -0.658643 1327 0.727041 0.686594 0.000000
-12.468097 -12.047547 -0.653296 1331 0.727041 0.686594 0.000000
-12.467613 -12.047071 -0.647940 1321 0.727041 0.686594 0.000000
-12.467326 -12.046794 -0.642603 1315 0.727041 0.686594 0.000000
-12.467469 -12.046942 -0.637271 1321 0.727041 0.686594 0.000000
-12.467656 -12.047113 -0.631949 1321 0.727041 0.686594 0.000000
-12.467473 -12.046948 -0.626611 1321 0.727041 0.686594 0.000000
-12.467338 -12.046819 -0.621272 1317 0.727041 0.686594 0.000000
-12.467685 -12.047158 -0.615959 1315 0.727041 0.686594 0.000000
-12.468237 -12.047689 -0.610653 1327 0.727041 0.686594 0.000000
-12.468843 -12.048280 -0.605357 1339 0.727041 0.686594 0.000000
-12.468494 -12.047938 -0.600011 1323 0.727041 0.686594 0.000000
-12.467687 -12.047162 -0.594638 1329 0.727041 0.686594 0.000000
-12.467179 -12.046667 -0.589283 1325 0.727041 0.686594 0.000000
-12.467353 -12.046841 -0.583961 1325 0.727041 0.686594 0.000000
-12.467526 -12.047014 -0.578639 1329 0.727041 0.686594 0.000000
-12.467714 -12.047186 -0.573317 1317 0.727041 0.686594 0.000000
-12.467570 -12.047050 -0.567989 1319 0.727041 0.686594 0.000000
-12.467054 -12.046562 -0.562633 1325 0.727041 0.686594 0.000000
-12.466919 -12.046420 -0.557295 1325 0.727041 0.686594 0.000000
-12.467290 -12.046793 -0.551981 1325 0.727041 0.686594 0.000000
-12.467208 -12.046708 -0.546652 1323 0.727041 0.686594 0.000000
-12.467216 -12.046721 -0.541321 1325 0.727041 0.686594 0.000000
-12.467911 -12.047394 -0.536025 1331 0.727041 0.686594 0.000000
-12.467917 -12.047394 -0.530694 1327 0.727041 0.686594 0.000000
-12.467717 -12.047200 -0.525356 1331 0.727041 0.686594 0.000000
-12.467614 -12.047110 -0.520027 1331 0.727041 0.686594 0.000000
-12.467834 -12.047321 -0.514705 1329 0.727041 0.686594 0.000000
-12.467785 -12.047276 -0.509375 1327 0.727041 0.686594 0.000000
-12.467579 -12.047077 -0.504037 1317 0.727041 0.686594 0.000000
-12.467742 -12.047229 -0.498715 1317 0.727041 0.686594 0.000000
-12.467425 -12.046926 -0.493378 1317 0.727041 0.686594 0.000000
-12.467576 -12.047082 -0.488057 1323 0.727041 0.686594 0.000000
-12.467526 -12.047037 -0.482727 1313 0.727041 0.686594 0.000000
-12.467366 -12.046875 -0.477388 1313 0.727041 0.686594 0.000000
-12.467460 -12.046970 -0.472067 1317 0.727041 0.686594 0.000000
-12.467403 -12.046918 -0.466738 1313 0.727041 0.686594 0.000000
-12.467607 -12.047118 -0.461416 1321 0.727041 0.686594 0.000000
-12.467654 -12.047162 -0.456085 1317 0.727041 0.686594 0.000000
-12.467487 -12.047008 -0.450756 1315 0.727041 0.686594 0.000000
-12.467644 -12.047154 -0.445435 1325 0.727041 0.686594 0.000000
-12.467476 -12.046986 -0.440096 1325 0.727041 0.686594 0.000000
-12.467768 -12.047282 -0.434783 1327 0.727041 0.686594 0.000000
-12.467498 -12.047018 -0.429446 1331 0.727041 0.686594 0.000000
-12.466699 -12.046247 -0.424093 1321 0.727041 0.686594 0.000000
-12.466782 -12.046323 -0.418772 1311 0.727041 0.686594 0.000000
-12.467399 -12.046920 -0.413456 1317 0.727041 0.686594 0.000000
-12.467642 -12.047164 -0.408144 1329 0.727041 0.686594 0.000000
-12.467364 -12.046894 -0.402806 1331 0.727041 0.686594 0.000000
-12.467024 -12.046573 -0.397470 1321 0.727041 0.686594 0.000000
-12.467417 -12.046950 -0.392156 1317 0.727041 0.686594 0.000000
-12.467765 -12.047291 -0.386842 1313 0.727041 0.686594 0.000000
-12.468000 -12.047514 -0.381520 1319 0.727041 0.686594 0.000000
-12.468141 -12.047647 -0.376198 1329 0.727041 0.686594 0.000000
-12.467855 -12.047372 -0.370861 1323 0.727041 0.686594 0.000000
-12.467348 -12.046891 -0.365516 1317 0.727041 0.686594 0.000000
-12.467055 -12.046608 -0.360188 1315 0.727041 0.686594 0.000000
-12.467550 -12.047081 -0.354874 1319 0.727041 0.686594 0.000000
-12.467842 -12.047362 -0.349551 1323 0.727041 0.686594 0.000000
-12.467438 -12.046978 -0.344214 1317 0.727041 0.686594 0.000000
-12.467509 -12.047055 -0.338893 1315 0.727041 0.686594 0.000000
-12.467680 -12.047214 -0.333572 1327 0.727041 0.686594 0.000000
-12.467331 -12.046886 -0.328235 1323 0.727041 0.686594 0.000000
-12.467402 -12.046951 -0.322914 1335 0.727041 0.686594 0.000000
-12.467890 -12.047418 -0.317599 1335 0.727041 0.686594 0.000000
-12.467852 -12.047393 -0.312270 1325 0.727041 0.686594 0.000000
-12.467073 -12.046640 -0.306927 1317 0.727041 0.686594 0.000000
-12.466914 -12.046494 -0.301598 1317 0.727041 0.686594 0.000000
-12.467452 -12.047013 -0.296283 1319 0.727041 0.686594 0.000000
-12.471119 -12.042785 -0.685246 1323 0.727041 0.686594 0.000000
-12.470943 -12.042624 -0.679907 1325 0.727041 0.686594 0.000000
-12.471362 -12.043021 -0.674603 1325 0.727041 0.686594 0.000000
-12.471868 -12.043515 -0.669298 1333 0.727041 0.686594 0.000000
-12.471329 -12.042995 -0.663933 1327 0.727041 0.686594 0.000000
-12.471897 -12.043554 -0.658628 1327 0.727041 0.686594 0.000000
-12.472354 -12.043996 -0.653323 1329 0.727041 0.686594 0.000000
-12.471545 -12.043205 -0.647951 1327 0.727041 0.686594 0.000000
-12.470683 -12.042384 -0.642579 1327 0.727041 0.686594 0.000000
-12.471393 -12.043069 -0.637282 1337 0.727041 0.686594 0.000000
-12.472119 -12.043769 -0.631985 1341 0.727041 0.686594 0.000000
-12.471613 -12.043287 -0.626630 1333 0.727041 0.686594 0.000000
-12.471169 -12.042857 -0.621274 1325 0.727041 0.686594 0.000000
-12.471150 -12.042836 -0.615944 1327 0.727041 0.686594 0.000000
-12.471703 -12.043367 -0.610638 1329 0.727041 0.686594 0.000000
-12.471513 -12.043196 -0.605300 1331 0.727041 0.686594 0.000000
-12.471439 -12.043117 -0.599971 1325 0.727041 0.686594 0.000000
-12.471668 -12.043348 -0.594648 1325 0.727041 0.686594 0.000000
-12.471270 -12.042954 -0.589302 1323 0.727041 0.686594 0.000000
-12.471175 -12.042871 -0.583963 1313 0.727041 0.686594 0.000000
-12.470888 -12.042594 -0.578625 1315 0.727041 0.686594 0.000000
-12.471385 -12.043070 -0.573310 1313 0.727041 0.686594 0.000000
-12.472079 -12.043742 -0.568014 1323 0.727041 0.686594 0.000000
-12.472421 -12.044077 -0.562700 1331 0.727041 0.686594 0.000000
-12.472267 -12.043935 -0.557362 1331 0.727041 0.686594 0.000000
-12.472028 -12.043695 -0.552024 1319 0.727041 0.686594 0.000000
-12.472035 -12.043708 -0.546694 1327 0.727041 0.686594 0.000000
-12.471259 -12.042956 -0.541331 1331 0.727041 0.686594 0.000000
-12.471059 -12.042764 -0.535993 1335 0.727041 0.686594 0.000000
-12.471335 -12.043033 -0.530680 1323 0.727041 0.686594 0.000000
-12.471287 -12.042988 -0.525350 1321 0.727041 0.686594 0.000000
-12.471339 -12.043037 -0.520020 1327 0.727041 0.686594 0.000000
-12.471189 -12.042896 -0.514691 1325 0.727041 0.686594 0.000000
-12.471189 -12.042903 -0.509361 1323 0.727041 0.686594 0.000000
-12.471519 -12.043217 -0.504047 1319 0.727041 0.686594 0.000000
-12.471622 -12.043320 -0.498716 1323 0.727041 0.686594 0.000000
-12.471573 -12.043274 -0.493387 1313 0.727041 0.686594 0.000000
-12.471405 -12.043119 -0.488058 1309 0.727041 0.686594 0.000000
-12.471776 -12.043479 -0.482744 1323 0.727041 0.686594 0.000000
-12.472042 -12.043727 -0.477422 1325 0.727041 0.686594 0.000000
-12.472082 -12.043779 -0.472091 1329 0.727041 0.686594 0.000000
-12.471542 -12.043258 -0.466746 1321 0.727041 0.686594 0.000000
-12.470703 -12.042442 -0.461384 1319 0.727041 0.686594 0.000000
-12.471017 -12.042744 -0.456071 1321 0.727041 0.686594 0.000000
-12.471381 -12.043097 -0.450757 1323 0.727041 0.686594 0.000000
-12.471364 -12.043090 -0.445427 1319 0.727041 0.686594 0.000000
-12.471561 -12.043283 -0.440105 1323 0.727041 0.686594 0.000000
-12.471859 -12.043570 -0.434792 1337 0.727041 0.686594 0.000000
-12.471588 -12.043306 -0.429455 1325 0.727041 0.686594 0.000000
-12.471525 -12.043248 -0.424125 1325 0.727041 0.686594 0.000000
-12.471872 -12.043588 -0.418812 1317 0.727041 0.686594 0.000000
-12.472061 -12.043775 -0.413490 1325 0.727041 0.686594 0.000000
-12.470888 -12.042637 -0.408121 1321 0.727041 0.686594 0.000000
-12.470397 -12.042169 -0.402786 1333 0.727041 0.686594 0.000000
-12.470957 -12.042706 -0.397470 1329 0.727041 0.686594 0.000000
-12.470931 -12.042679 -0.392150 1329 0.727041 0.686594 0.000000
-12.471381 -12.043116 -0.386836 1327 0.727041 0.686594 0.000000
-12.471672 -12.043398 -0.381513 1323 0.727041 0.686594 0.000000
-12.471284 -12.043025 -0.376176 1323 0.727041 0.686594 0.000000
-12.471416 -12.043152 -0.370855 1335 0.727041 0.686594 0.000000
-12.471488 -12.043231 -0.365534 1339 0.727041 0.686594 0.000000
-12.471677 -12.043416 -0.360212 1323 0.727041 0.686594 0.000000
-12.471120 -12.042869 -0.354867 1309 0.727041 0.686594 0.000000
-12.470827 -12.042585 -0.349530 1309 0.727041 0.686594 0.000000
-12.470628 -12.042407 -0.344202 1317 0.727041 0.686594 0.000000
-12.470912 -12.042683 -0.338879 1333 0.727041 0.686594 0.000000
-12.471188 -12.042952 -0.333566 1327 0.727041 0.686594 0.000000
-12.471113 -12.042872 -0.328237 1323 0.727041 0.686594 0.000000
-12.471178 -12.042945 -0.322916 1325 0.727041 0.686594 0.000000
-12.471087 -12.042853 -0.317587 1329 0.727041 0.686594 0.000000
-12.471365 -12.043123 -0.312264 1333 0.727041 0.686594 0.000000
-12.471267 -12.043025 -0.306935 1315 0.727041 0.686594 0.000000
-12.471227 -12.042987 -0.301615 1331 0.727041 0.686594 0.000000
-12.471392 -12.043153 -0.296293 1329 0.727041 0.686594 0.000000
-12.475168 -12.039631 -0.685282 1335 0.727041 0.686594 0.000000
-12.474852 -12.039330 -0.679935 1329 0.727041 0.686594 0.000000
-12.474628 -12.039104 -0.674587 1331 0.727041 0.686594 0.000000
-12.474454 -12.038943 -0.669249 1327 0.727041 0.686594 0.000000
-12.475021 -12.039488 -0.663943 1323 0.727041 0.686594 0.000000
-12.475273 -12.039738 -0.658620 1321 0.727041 0.686594 0.000000
-12.475146 -12.039617 -0.653292 1323 0.727041 0.686594 0.000000
-12.475018 -12.039493 -0.647953 1331 0.727041 0.686594 0.000000
-12.474698 -12.039177 -0.642606 1323 0.727041 0.686594 0.000000
-12.475616 -12.040069 -0.637317 1323 0.727041 0.686594 0.000000
-12.475852 -12.040307 -0.631994 1325 0.727041 0.686594 0.000000
-12.474893 -12.039369 -0.626613 1333 0.727041 0.686594 0.000000
-12.474655 -12.039145 -0.621275 1315 0.727041 0.686594 0.000000
-12.475207 -12.039689 -0.615970 1333 0.727041 0.686594 0.000000
-12.475342 -12.039817 -0.610649 1335 0.727041 0.686594 0.000000
-12.475157 -12.039637 -0.605310 1329 0.727041 0.686594 0.000000
-12.474815 -12.039302 -0.599963 1321 0.727041 0.686594 0.000000
-12.475622 -12.040092 -0.594666 1329 0.727041 0.686594 0.000000
-12.475541 -12.040007 -0.589336 1323 0.727041 0.686594 0.000000
-12.475088 -12.039569 -0.583980 1333 0.727041 0.686594 0.000000
-12.474574 -12.039083 -0.578635 1315 0.727041 0.686594 0.000000
-12.474492 -12.038998 -0.573296 1329 0.727041 0.686594 0.000000
-12.475142 -12.039633 -0.567999 1321 0.727041 0.686594 0.000000
-12.475575 -12.040056 -0.562685 1315 0.727041 0.686594 0.000000
-12.475439 -12.039914 -0.557346 1331 0.727041 0.686594 0.000000
-12.474765 -12.039272 -0.551993 1323 0.727041 0.686594 0.000000
-12.474407 -12.038925 -0.546646 1317 0.727041 0.686594 0.000000
-12.475110 -12.039603 -0.541349 1319 0.727041 0.686594 0.000000
-12.475014 -12.039507 -0.536020 1323 0.727041 0.686594 0.000000
-12.474602 -12.039116 -0.530674 1317 0.727041 0.686594 0.000000
-12.475138 -12.039635 -0.525358 1321 0.727041 0.686594 0.000000
-12.475564 -12.040051 -0.520054 1319 0.727041 0.686594 0.000000
-12.475200 -12.039698 -0.514708 1321 0.727041 0.686594 0.000000
-12.474881 -12.039395 -0.509370 1325 0.727041 0.686594 0.000000
-12.475204 -12.039703 -0.504047 1317 0.727041 0.686594 0.000000
-12.474936 -12.039454 -0.498710 1327 0.727041 0.686594 0.000000
-12.474150 -12.038695 -0.493357 1313 0.727041 0.686594 0.000000
-12.474418 -12.038944 -0.488034 1313 0.727041 0.686594 0.000000
-12.475152 -12.039663 -0.482737 1319 0.727041 0.686594 0.000000
-12.475728 -12.040214 -0.477432 1331 0.727041 0.686594 0.000000
-12.475719 -12.040215 -0.472102 1329 0.727041 0.686594 0.000000
-12.475039 -12.039553 -0.466748 1315 0.727041 0.686594 0.000000
-12.474767 -12.039288 -0.461410 1317 0.727041 0.686594 0.000000
-12.475280 -12.039789 -0.456095 1327 0.727041 0.686594 0.000000
-12.475327 -12.039833 -0.450775 1323 0.727041 0.686594 0.000000
-12.474890 -12.039422 -0.445429 1329 0.727041 0.686594 0.000000
-12.475150 -12.039666 -0.440116 1323 0.727041 0.686594 0.000000
-12.475505 -12.040011 -0.434793 1333 0.727041 0.686594 0.000000
-12.474854 -12.039389 -0.429449 1321 0.727041 0.686594 0.000000
-12.474743 -12.039279 -0.424120 1321 0.727041 0.686594 0.000000
-12.474512 -12.039060 -0.418782 1315 0.727041 0.686594 0.000000
-12.474757 -12.039305 -0.413459 1327 0.727041 0.686594 0.000000
-12.474740 -12.039285 -0.408139 1333 0.727041 0.686594 0.000000
-12.474564 -12.039110 -0.402801 1325 0.727041 0.686594 0.000000
-12.475070 -12.039604 -0.397496 1323 0.727041 0.686594 0.000000
-12.475471 -12.039989 -0.392182 1319 0.727041 0.686594 0.000000
-12.475708 -12.040226 -0.386860 1335 0.727041 0.686594 0.000000
-12.475524 -12.040046 -0.381521 1327 0.727041 0.686594 0.000000
-12.475348 -12.039870 -0.376193 1313 0.727041 0.686594 0.000000
-12.474896 -12.039447 -0.370857 1321 0.727041 0.686594 0.000000
-12.475021 -12.039569 -0.365536 1317 0.727041 0.686594 0.000000
-12.475519 -12.040043 -0.360221 1319 0.727041 0.686594 0.000000
-12.475494 -12.040030 -0.354891 1323 0.727041 0.686594 0.000000
-12.475043 -12.039593 -0.349555 1325 0.727041 0.686594 0.000000
-12.474322 -12.038901 -0.344212 1323 0.727041 0.686594 0.000000
-12.474867 -12.039426 -0.338896 1329 0.727041 0.686594 0.000000
-12.474627 -12.039186 -0.333569 1321 0.727041 0.686594 0.000000
-12.474538 -12.039109 -0.328239 1327 0.727041 0.686594 0.000000
-12.474925 -12.039481 -0.322915 1325 0.727041 0.686594 0.000000
-12.474830 -12.039398 -0.317596 1321 0.727041 0.686594 0.000000
-12.475049 -12.039609 -0.312274 1317 0.727041 0.686594 0.000000
-12.475222 -12.039768 -0.306952 1321 0.727041 0.686594 0.000000
-12.475235 -12.039787 -0.301622 1323 0.727041 0.686594 0.000000
-12.474927 -12.039493 -0.296295 1329 0.727041 0.686594 0.000000
-12.478813 -12.036072 -0.685282 1329 0.727041 0.686594 0.000000
-12.478703 -12.035964 -0.679953 1325 0.727041 0.686594 0.000000
-12.478898 -12.036155 -0.674631 1325 0.727041 0.686594 0.000000
-12.478779 -12.036038 -0.669292 1327 0.727041 0.686594 0.000000
-12.478446 -12.035725 -0.663935 1327 0.727041 0.686594 0.000000
-12.478745 -12.036013 -0.658622 1335 0.727041 0.686594 0.000000
-12.479361 -12.036609 -0.653326 1321 0.727041 0.686594 0.000000
-12.479247 -12.036499 -0.647987 1321 0.727041 0.686594 0.000000
-12.478226 -12.035510 -0.642607 1321 0.727041 0.686594 0.000000
-12.478573 -12.035849 -0.637294 1331 0.727041 0.686594 0.000000
-12.479189 -12.036447 -0.631988 1339 0.727041 0.686594 0.000000
-12.479164 -12.036420 -0.626658 1335 0.727041 0.686594 0.000000
-12.478767 -12.036041 -0.621301 1313 0.727041 0.686594 0.000000
-12.477902 -12.035205 -0.615929 1319 0.727041 0.686594 0.000000
-12.478086 -12.035385 -0.610608 1319 0.727041 0.686594 0.000000
-12.479324 -12.036578 -0.605336 1325 0.727041 0.686594 0.000000
-12.478975 -12.036250 -0.599989 1329 0.727041 0.686594 0.000000
-12.478523 -12.035813 -0.594643 1343 0.727041 0.686594 0.000000
-12.478498 -12.035787 -0.589313 1335 0.727041 0.686594 0.000000
-12.478307 -12.035600 -0.583975 1323 0.727041 0.686594 0.000000
-12.478433 -12.035723 -0.578644 1325 0.727041 0.686594 0.000000
-12.478772 -12.036056 -0.573330 1327 0.727041 0.686594 0.000000
-12.478669 -12.035966 -0.568001 1331 0.727041 0.686594 0.000000
-12.478168 -12.035476 -0.562646 1323 0.727041 0.686594 0.000000
-12.478395 -12.035694 -0.557323 1325 0.727041 0.686594 0.000000
-12.478774 -12.036060 -0.552010 1325 0.727041 0.686594 0.000000
-12.478741 -12.036026 -0.546680 1329 0.727041 0.686594 0.000000
-12.478858 -12.036141 -0.541358 1315 0.727041 0.686594 0.000000
-12.478699 -12.035994 -0.536020 1329 0.727041 0.686594 0.000000
-12.478714 -12.036013 -0.530690 1331 0.727041 0.686594 0.000000
-12.478981 -12.036276 -0.525377 1329 0.727041 0.686594 0.000000
-12.478410 -12.035716 -0.520022 1319 0.727041 0.686594 0.000000
-12.478047 -12.035377 -0.514686 1325 0.727041 0.686594 0.000000
-12.478210 -12.035529 -0.509364 1325 0.727041 0.686594 0.000000
-12.478527 -12.035845 -0.504041 1325 0.727041 0.686594 0.000000
-12.478580 -12.035894 -0.498720 1327 0.727041 0.686594 0.000000
-12.478802 -12.036106 -0.493398 1333 0.727041 0.686594 0.000000
-12.478847 -12.036150 -0.488067 1325 0.727041 0.686594 0.000000
-12.478157 -12.035482 -0.482714 1319 0.727041 0.686594 0.000000
-12.478685 -12.035995 -0.477409 1327 0.727041 0.686594 0.000000
-12.478992 -12.036288 -0.472095 1315 0.727041 0.686594 0.000000
-12.478248 -12.035576 -0.466733 1319 0.727041 0.686594 0.000000
-12.478033 -12.035370 -0.461404 1319 0.727041 0.686594 0.000000
-12.477928 -12.035267 -0.456065 1311 0.727041 0.686594 0.000000
-12.478133 -12.035465 -0.450753 1317 0.727041 0.686594 0.000000
-12.478433 -12.035768 -0.445430 1325 0.727041 0.686594 0.000000
-12.478526 -12.035850 -0.440109 1317 0.727041 0.686594 0.000000
-12.478511 -12.035844 -0.434779 1319 0.727041 0.686594 0.000000
-12.478122 -12.035472 -0.429443 1313 0.727041 0.686594 0.000000
-12.478278 -12.035618 -0.424121 1313 0.727041 0.686594 0.000000
-12.478309 -12.035649 -0.418791 1323 0.727041 0.686594 0.000000
-12.478298 -12.035636 -0.413461 1315 0.727041 0.686594 0.000000
-12.478852 -12.036181 -0.408155 1327 0.727041 0.686594 0.000000
-12.478946 -12.036263 -0.402834 1329 0.727041 0.686594 0.000000
-12.478557 -12.035892 -0.397488 1317 0.727041 0.686594 0.000000
-12.478270 -12.035615 -0.392160 1315 0.727041 0.686594 0.000000
-12.477921 -12.035288 -0.386824 1315 0.727041 0.686594 0.000000
-12.477438 -12.034812 -0.381478 1311 0.727041 0.686594 0.000000
-12.478038 -12.035395 -0.376172 1315 0.727041 0.686594 0.000000
-12.478328 -12.035676 -0.370849 1321 0.727041 0.686594 0.000000
-12.477924 -12.035293 -0.365513 1317 0.727041 0.686594 0.000000
-12.478745 -12.036079 -0.360215 1327 0.727041 0.686594 0.000000
-12.479344 -12.036663 -0.354899 1327 0.727041 0.686594 0.000000
-12.478743 -12.036078 -0.349555 1331 0.727041 0.686594 0.000000
-12.478337 -12.035694 -0.344218 1323 0.727041 0.686594 0.000000
-12.478456 -12.035809 -0.338897 1323 0.727041 0.686594 0.000000
-12.478636 -12.035988 -0.333575 1321 0.727041 0.686594 0.000000
-12.478121 -12.035487 -0.328240 1321 0.727041 0.686594 0.000000
-12.478024 -12.035403 -0.322911 1325 0.727041 0.686594 0.000000
-12.478206 -12.035583 -0.317589 1331 0.727041 0.686594 0.000000
-12.478529 -12.035890 -0.312276 1337 0.727041 0.686594 0.000000
-12.478813 -12.036165 -0.306953 1329 0.727041 0.686594 0.000000
-12.478604 -12.035966 -0.301625 1337 0.727041 0.686594 0.000000
-12.478882 -12.036236 -0.296302 1335 0.727041 0.686594 0.000000
-12.483171 -12.032923 -0.685327 1331 0.727041 0.686594 0.000000
-12.483004 -12.032756 -0.679979 1333 0.727041 0.686594 0.000000
-12.483206 -12.032953 -0.674667 1329 0.727041 0.686594 0.000000
-12.483087 -12.032837 -0.669328 1329 0.727041 0.686594 0.000000
-12.482279 -12.032061 -0.663945 1329 0.727041 0.686594 0.000000
-12.482104 -12.031899 -0.658607 1327 0.727041 0.686594 0.000000
-12.482514 -12.032291 -0.653303 1317 0.727041 0.686594 0.000000
-12.482971 -12.032733 -0.647988 1325 0.727041 0.686594 0.000000
-12.482528 -12.032316 -0.642632 1327 0.727041 0.686594 0.000000
-12.482454 -12.032237 -0.637303 1333 0.727041 0.686594 0.000000
-12.483109 -12.032880 -0.632007 1333 0.727041 0.686594 0.000000
-12.483045 -12.032807 -0.626667 1325 0.727041 0.686594 0.000000
-12.482760 -12.032546 -0.621320 1329 0.727041 0.686594 0.000000
-12.482520 -12.032306 -0.615982 1321 0.727041 0.686594 0.000000
-12.482655 -12.032434 -0.610661 1325 0.727041 0.686594 0.000000
-12.482368 -12.032158 -0.605313 1331 0.727041 0.686594 0.000000
-12.481860 -12.031677 -0.599958 1329 0.727041 0.686594 0.000000
-12.481884 -12.031702 -0.594627 1329 0.727041 0.686594 0.000000
-12.482065 -12.031881 -0.589306 1321 0.727041 0.686594 0.000000
-12.482244 -12.032045 -0.583984 1317 0.727041 0.686594 0.000000
-12.482156 -12.031969 -0.578654 1319 0.727041 0.686594 0.000000
-12.481655 -12.031481 -0.573299 1317 0.727041 0.686594 0.000000
-12.481664 -12.031494 -0.567969 1319 0.727041 0.686594 0.000000
-12.482104 -12.031922 -0.562654 1327 0.727041 0.686594 0.000000
-12.482223 -12.032038 -0.557333 1323 0.727041 0.686594 0.000000
-12.482656 -12.032462 -0.552029 1323 0.727041 0.686594 0.000000
-12.483406 -12.033179 -0.546732 1331 0.727041 0.686594 0.000000
-12.482945 -12.032735 -0.541376 1317 0.727041 0.686594 0.000000
-12.482059 -12.031881 -0.536014 1315 0.727041 0.686594 0.000000
-12.481964 -12.031799 -0.530675 1317 0.727041 0.686594 0.000000
-12.482862 -12.032663 -0.525386 1317 0.727041 0.686594 0.000000
-12.483193 -12.032977 -0.520073 1327 0.727041 0.686594 0.000000
-12.482244 -12.032072 -0.514702 1319 0.727041 0.686594 0.000000
-12.482249 -12.032071 -0.509372 1329 0.727041 0.686594 0.000000
-12.482257 -12.032084 -0.504052 1313 0.727041 0.686594 0.000000
-12.482050 -12.031884 -0.498713 1317 0.727041 0.686594 0.000000
-12.482475 -12.032287 -0.493399 1325 0.727041 0.686594 0.000000
-12.482942 -12.032750 -0.488085 1327 0.727041 0.686594 0.000000
-12.482409 -12.032236 -0.482740 1323 0.727041 0.686594 0.000000
-12.481997 -12.031831 -0.477394 1313 0.727041 0.686594 0.000000
-12.482566 -12.032389 -0.472088 1313 0.727041 0.686594 0.000000
-12.482564 -12.032381 -0.466758 1315 0.727041 0.686594 0.000000
-12.482287 -12.032126 -0.461420 1319 0.727041 0.686594 0.000000
-12.481961 -12.031804 -0.456083 1311 0.727041 0.686594 0.000000
-12.481802 -12.031655 -0.450755 1321 0.727041 0.686594 0.000000
-12.481737 -12.031598 -0.445425 1323 0.727041 0.686594 0.000000
-12.481776 -12.031635 -0.440095 1319 0.727041 0.686594 0.000000
-12.481924 -12.031776 -0.434773 1315 0.727041 0.686594 0.000000
-12.482271 -12.032116 -0.429460 1323 0.727041 0.686594 0.000000
-12.482688 -12.032512 -0.424146 1317 0.727041 0.686594 0.000000
-12.482616 -12.032448 -0.418816 1323 0.727041 0.686594 0.000000
-12.482497 -12.032332 -0.413487 1329 0.727041 0.686594 0.000000
-12.482574 -12.032415 -0.408156 1325 0.727041 0.686594 0.000000
-12.482035 -12.031895 -0.402811 1313 0.727041 0.686594 0.000000
-12.481545 -12.031427 -0.397476 1313 0.727041 0.686594 0.000000
-12.481789 -12.031656 -0.392153 1321 0.727041 0.686594 0.000000
-12.481446 -12.031322 -0.386817 1333 0.727041 0.686594 0.000000
-12.481952 -12.031816 -0.381501 1335 0.727041 0.686594 0.000000
-12.482607 -12.032444 -0.376195 1319 0.727041 0.686594 0.000000
-12.482574 -12.032426 -0.370875 1329 0.727041 0.686594 0.000000
-12.482707 -12.032553 -0.365544 1333 0.727041 0.686594 0.000000
-12.482730 -12.032578 -0.360224 1337 0.727041 0.686594 0.000000
-12.482119 -12.031986 -0.354879 1325 0.727041 0.686594 0.000000
-12.482196 -12.032056 -0.349558 1319 0.727041 0.686594 0.000000
-12.482584 -12.032442 -0.344234 1327 0.727041 0.686594 0.000000
-12.482559 -12.032415 -0.338915 1321 0.727041 0.686594 0.000000
-12.482628 -12.032478 -0.333584 1319 0.727041 0.686594 0.000000
-12.482113 -12.031990 -0.328249 1321 0.727041 0.686594 0.000000
-12.481606 -12.031496 -0.322913 1319 0.727041 0.686594 0.000000
-12.481612 -12.031508 -0.317583 1321 0.727041 0.686594 0.000000
-12.482055 -12.031939 -0.312269 1339 0.727041 0.686594 0.000000
-12.481854 -12.031744 -0.306941 1323 0.727041 0.686594 0.000000
-12.481807 -12.031701 -0.301611 1323 0.727041 0.686594 0.000000
-12.482659 -12.032527 -0.296303 1333 0.727041 0.686594 0.000000
-12.486449 -12.028579 -0.685303 1331 0.727041 0.686594 0.000000
-12.486385 -12.028521 -0.679964 1335 0.727041 0.686594 0.000000
-12.486004 -12.028154 -0.674617 1323 0.727041 0.686594 0.000000
-12.486564 -12.028691 -0.669312 1327 0.727041 0.686594 0.000000
-12.486822 -12.028934 -0.663989 1329 0.727041 0.686594 0.000000
-12.486331 -12.028466 -0.658634 1325 0.727041 0.686594 0.000000
-12.485999 -12.028152 -0.653287 1325 0.727041 0.686594 0.000000
-12.485879 -12.028035 -0.647948 1319 0.727041 0.686594 0.000000
-12.485806 -12.027971 -0.642618 1327 0.727041 0.686594 0.000000
-12.485948 -12.028105 -0.637287 1327 0.727041 0.686594 0.000000
-12.486451 -12.028585 -0.631982 1333 0.727041 0.686594 0.000000
-12.486791 -12.028918 -0.626669 1343 0.727041 0.686594 0.000000
-12.486402 -12.028545 -0.621322 1331 0.727041 0.686594 0.000000
-12.486218 -12.028365 -0.615984 1321 0.727041 0.686594 0.000000
-12.486138 -12.028295 -0.610645 1317 0.727041 0.686594 0.000000
-12.486215 -12.028364 -0.605314 1319 0.727041 0.686594 0.000000
-12.485930 -12.028089 -0.599976 1321 0.727041 0.686594 0.000000
-12.486310 -12.028467 -0.594662 1333 0.727041 0.686594 0.000000
-12.486924 -12.029049 -0.589357 1339 0.727041 0.686594 0.000000
-12.486417 -12.028568 -0.584001 1329 0.727041 0.686594 0.000000
-12.485956 -12.028125 -0.578655 1319 0.727041 0.686594 0.000000
-12.485710 -12.027894 -0.573318 1305 0.727041 0.686594 0.000000
-12.486365 -12.028522 -0.568011 1311 0.727041 0.686594 0.000000
-12.486483 -12.028636 -0.562690 1329 0.727041 0.686594 0.000000
-12.486237 -12.028405 -0.557352 1329 0.727041 0.686594 0.000000
-12.486614 -12.028770 -0.552038 1331 0.727041 0.686594 0.000000
-12.486210 -12.028371 -0.546692 1333 0.727041 0.686594 0.000000
-12.485806 -12.027987 -0.541346 1327 0.727041 0.686594 0.000000
-12.486231 -12.028403 -0.536032 1313 0.727041 0.686594 0.000000
-12.486500 -12.028666 -0.530709 1311 0.727041 0.686594 0.000000
-12.486719 -12.028877 -0.525397 1329 0.727041 0.686594 0.000000
-12.486045 -12.028221 -0.520033 1331 0.727041 0.686594 0.000000
-12.485887 -12.028073 -0.514705 1323 0.727041 0.686594 0.000000
-12.486366 -12.028535 -0.509390 1323 0.727041 0.686594 0.000000
-12.486106 -12.028291 -0.504052 1321 0.727041 0.686594 0.000000
-12.486269 -12.028443 -0.498731 1321 0.727041 0.686594 0.000000
-12.486641 -12.028803 -0.493417 1325 0.727041 0.686594 0.000000
-12.486535 -12.028700 -0.488088 1321 0.727041 0.686594 0.000000
-12.486479 -12.028647 -0.482748 1317 0.727041 0.686594 0.000000
-12.486106 -12.028287 -0.477412 1321 0.727041 0.686594 0.000000
-12.485520 -12.027730 -0.472057 1319 0.727041 0.686594 0.000000
-12.485724 -12.027927 -0.466745 1319 0.727041 0.686594 0.000000
-12.486135 -12.028333 -0.461431 1321 0.727041 0.686594 0.000000
-12.485982 -12.028177 -0.456092 1319 0.727041 0.686594 0.000000
-12.485706 -12.027921 -0.450755 1317 0.727041 0.686594 0.000000
-12.486067 -12.028259 -0.445441 1325 0.727041 0.686594 0.000000
-12.486003 -12.028200 -0.440112 1331 0.727041 0.686594 0.000000
-12.485882 -12.028085 -0.434783 1321 0.727041 0.686594 0.000000
-12.485976 -12.028181 -0.429462 1329 0.727041 0.686594 0.000000
-12.485699 -12.027911 -0.424124 1323 0.727041 0.686594 0.000000
-12.484891 -12.027135 -0.418772 1313 0.727041 0.686594 0.000000
-12.484716 -12.026974 -0.413433 1307 0.727041 0.686594 0.000000
-12.486279 -12.028481 -0.408158 1319 0.727041 0.686594 0.000000
-12.486373 -12.028563 -0.402837 1319 0.727041 0.686594 0.000000
-12.485915 -12.028133 -0.397491 1317 0.727041 0.686594 0.000000
-12.485896 -12.028114 -0.392161 1321 0.727041 0.686594 0.000000
-12.485666 -12.027895 -0.386833 1313 0.727041 0.686594 0.000000
-12.485641 -12.027868 -0.381504 1317 0.727041 0.686594 0.000000
-12.485885 -12.028098 -0.376181 1323 0.727041 0.686594 0.000000
-12.486699 -12.028895 -0.370883 1331 0.727041 0.686594 0.000000
-12.486714 -12.028913 -0.365553 1325 0.727041 0.686594 0.000000
-12.486640 -12.028834 -0.360224 1333 0.727041 0.686594 0.000000
-12.486711 -12.028913 -0.354903 1333 0.727041 0.686594 0.000000
-12.486369 -12.028578 -0.349566 1327 0.727041 0.686594 0.000000
-12.486176 -12.028391 -0.344238 1329 0.727041 0.686594 0.000000
-12.486627 -12.028826 -0.338923 1341 0.727041 0.686594 0.000000
-12.486263 -12.028486 -0.333586 1323 0.727041 0.686594 0.000000
-12.486332 -12.028549 -0.328266 1321 0.727041 0.686594 0.000000
-12.486727 -12.028929 -0.322942 1321 0.727041 0.686594 0.000000
-12.486527 -12.028735 -0.317613 1321 0.727041 0.686594 0.000000
-12.486535 -12.028748 -0.312293 1329 0.727041 0.686594 0.000000
-12.486233 -12.028459 -0.306956 1321 0.727041 0.686594 0.000000
-12.486082 -12.028318 -0.301627 1331 0.727041 0.686594 0.000000
-12.486358 -12.028586 -0.296305 1331 0.727041 0.686594 0.000000
-12.489458 -12.023975 -0.685262 1331 0.727041 0.686594 0.000000
-12.489924 -12.024426 -0.679957 1329 0.727041 0.686594 0.000000
-12.490169 -12.024669 -0.674635 1327 0.727041 0.686594 0.000000
-12.489581 -12.024096 -0.669270 1317 0.727041 0.686594 0.000000
-12.489566 -12.024091 -0.663940 1327 0.727041 0.686594 0.000000
-12.489918 -12.024422 -0.658627 1335 0.727041 0.686594 0.000000
-12.489957 -12.024460 -0.653296 1323 0.727041 0.686594 0.000000
-12.489673 -12.024199 -0.647949 1325 0.727041 0.686594 0.000000
-12.489654 -12.024178 -0.642619 1323 0.727041 0.686594 0.000000
-12.490104 -12.024613 -0.637315 1321 0.727041 0.686594 0.000000
-12.490245 -12.024748 -0.631983 1325 0.727041 0.686594 0.000000
-12.490126 -12.024632 -0.626654 1335 0.727041 0.686594 0.000000
-12.489452 -12.023990 -0.621290 1319 0.727041 0.686594 0.000000
-12.489441 -12.023975 -0.615950 1313 0.727041 0.686594 0.000000
-12.490145 -12.024655 -0.610664 1317 0.727041 0.686594 0.000000
-12.490545 -12.025040 -0.605350 1323 0.727041 0.686594 0.000000
-12.490040 -12.024558 -0.599994 1329 0.727041 0.686594 0.000000
-12.489801 -12.024334 -0.594646 1331 0.727041 0.686594 0.000000
-12.489768 -12.024301 -0.589317 1329 0.727041 0.686594 0.000000
-12.489736 -12.024268 -0.583987 1321 0.727041 0.686594 0.000000
-12.489812 -12.024338 -0.578666 1325 0.727041 0.686594 0.000000
-12.489774 -12.024313 -0.573326 1319 0.727041 0.686594 0.000000
-12.489525 -12.024067 -0.567988 1323 0.727041 0.686594 0.000000
-12.489865 -12.024401 -0.562675 1323 0.727041 0.686594 0.000000
-12.490615 -12.025119 -0.557378 1327 0.727041 0.686594 0.000000
-12.490360 -12.024881 -0.552040 1323 0.727041 0.686594 0.000000
-12.490059 -12.024592 -0.546693 1333 0.727041 0.686594 0.000000
-12.490121 -12.024649 -0.541372 1321 0.727041 0.686594 0.000000
-12.489866 -12.024411 -0.536024 1309 0.727041 0.686594 0.000000
-12.489565 -12.024122 -0.530687 1315 0.727041 0.686594 0.000000
-12.489516 -12.024076 -0.525357 1325 0.727041 0.686594 0.000000
-12.489728 -12.024282 -0.520035 1327 0.727041 0.686594 0.000000
-12.489537 -12.024095 -0.514697 1335 0.727041 0.686594 0.000000
-12.488855 -12.023433 -0.509343 1317 0.727041 0.686594 0.000000
-12.489487 -12.024042 -0.504037 1317 0.727041 0.686594 0.000000
-12.490324 -12.024857 -0.498739 1325 0.727041 0.686594 0.000000
-12.489967 -12.024509 -0.493402 1323 0.727041 0.686594 0.000000
-12.489538 -12.024104 -0.488056 1325 0.727041 0.686594 0.000000
-12.489275 -12.023848 -0.482719 1315 0.727041 0.686594 0.000000
-12.489955 -12.024508 -0.477412 1321 0.727041 0.686594 0.000000
-12.490586 -12.025117 -0.472116 1335 0.727041 0.686594 0.000000
-12.490260 -12.024795 -0.466769 1335 0.727041 0.686594 0.000000
-12.489991 -12.024546 -0.461431 1327 0.727041 0.686594 0.000000
-12.490092 -12.024648 -0.456110 1327 0.727041 0.686594 0.000000
-12.489713 -12.024282 -0.450764 1317 0.727041 0.686594 0.000000
-12.489490 -12.024069 -0.445436 1323 0.727041 0.686594 0.000000
-12.489797 -12.024363 -0.440113 1333 0.727041 0.686594 0.000000
-12.489574 -12.024153 -0.434785 1323 0.727041 0.686594 0.000000
-12.489193 -12.023786 -0.429438 1309 0.727041 0.686594 0.000000
-12.489492 -12.024074 -0.424125 1313 0.727041 0.686594 0.000000
-12.489420 -12.024009 -0.418796 1313 0.727041 0.686594 0.000000
-12.489458 -12.024047 -0.413465 1311 0.727041 0.686594 0.000000
-12.490185 -12.024746 -0.408168 1315 0.727041 0.686594 0.000000
-12.489850 -12.024417 -0.402831 1321 0.727041 0.686594 0.000000
-12.489399 -12.023993 -0.397485 1317 0.727041 0.686594 0.000000
-12.489334 -12.023922 -0.392156 1315 0.727041 0.686594 0.000000
-12.489625 -12.024204 -0.386843 1321 0.727041 0.686594 0.000000
-12.489703 -12.024287 -0.381512 1317 0.727041 0.686594 0.000000
-12.489204 -12.023812 -0.376177 1319 0.727041 0.686594 0.000000
-12.489495 -12.024080 -0.370854 1325 0.727041 0.686594 0.000000
-12.489414 -12.024011 -0.365524 1317 0.727041 0.686594 0.000000
-12.489808 -12.024387 -0.360211 1315 0.727041 0.686594 0.000000
-12.490359 -12.024919 -0.354905 1321 0.727041 0.686594 0.000000
-12.490066 -12.024636 -0.349568 1313 0.727041 0.686594 0.000000
-12.490398 -12.024964 -0.344254 1329 0.727041 0.686594 0.000000
-12.490625 -12.025181 -0.338932 1329 0.727041 0.686594 0.000000
-12.490277 -12.024854 -0.333595 1335 0.727041 0.686594 0.000000
-12.489872 -12.024455 -0.328259 1325 0.727041 0.686594 0.000000
-12.489785 -12.024379 -0.322930 1325 0.727041 0.686594 0.000000
-12.490170 -12.024749 -0.317616 1333 0.727041 0.686594 0.000000
-12.490280 -12.024858 -0.312295 1337 0.727041 0.686594 0.000000
-12.489979 -12.024569 -0.306958 1325 0.727041 0.686594 0.000000
-12.489517 -12.024126 -0.301622 1325 0.727041 0.686594 0.000000
-12.489367 -12.023985 -0.296293 1325 0.727041 0.686594 0.000000
-12.494400 -12.021379 -0.685331 1335 0.727041 0.686594 0.000000
-12.494706 -12.021672 -0.680018 1333 0.727041 0.686594 0.000000
-12.494112 -12.021108 -0.674654 1325 0.727041 0.686594 0.000000
-12.493937 -12.020933 -0.669315 1327 0.727041 0.686594 0.000000
-12.493762 -12.020772 -0.663967 1325 0.727041 0.686594 0.000000
-12.493435 -12.020451 -0.658620 1321 0.727041 0.686594 0.000000
-12.493474 -12.020489 -0.653289 1321 0.727041 0.686594 0.000000
-12.493616 -12.020637 -0.647968 1321 0.727041 0.686594 0.000000
-12.493699 -12.020712 -0.642637 1317 0.727041 0.686594 0.000000
-12.493471 -12.020494 -0.637299 1323 0.727041 0.686594 0.000000
-12.493761 -12.020776 -0.631976 1327 0.727041 0.686594 0.000000
-12.493642 -12.020659 -0.626647 1323 0.727041 0.686594 0.000000
-12.493293 -12.020332 -0.621300 1321 0.727041 0.686594 0.000000
-12.493639 -12.020658 -0.615987 1321 0.727041 0.686594 0.000000
-12.493402 -12.020433 -0.610639 1315 0.727041 0.686594 0.000000
-12.492956 -12.020002 -0.605293 1315 0.727041 0.686594 0.000000
-12.492978 -12.020028 -0.599963 1321 0.727041 0.686594 0.000000
-12.492844 -12.019899 -0.594624 1319 0.727041 0.686594 0.000000
-12.493077 -12.020123 -0.589302 1309 0.727041 0.686594 0.000000
-12.493727 -12.020759 -0.584005 1313 0.727041 0.686594 0.000000
-12.493748 -12.020770 -0.578675 1327 0.727041 0.686594 0.000000
-12.493930 -12.020949 -0.573353 1325 0.727041 0.686594 0.000000
-12.494102 -12.021123 -0.568031 1329 0.727041 0.686594 0.000000
-12.493586 -12.020620 -0.562676 1317 0.727041 0.686594 0.000000
-12.493396 -12.020434 -0.557338 1307 0.727041 0.686594 0.000000
-12.493671 -12.020703 -0.552025 1313 0.727041 0.686594 0.000000
-12.493947 -12.020972 -0.546702 1319 0.727041 0.686594 0.000000
-12.493486 -12.020529 -0.541357 1311 0.727041 0.686594 0.000000
-12.493176 -12.020233 -0.536009 1319 0.727041 0.686594 0.000000
-12.493872 -12.020907 -0.530713 1331 0.727041 0.686594 0.000000
-12.494140 -12.021170 -0.525400 1329 0.727041 0.686594 0.000000
-12.493196 -12.020258 -0.520029 1313 0.727041 0.686594 0.000000
-12.492944 -12.020020 -0.514691 1321 0.727041 0.686594 0.000000
-12.492846 -12.019922 -0.509362 1315 0.727041 0.686594 0.000000
-12.493430 -12.020481 -0.504056 1321 0.727041 0.686594 0.000000
-12.493642 -12.020685 -0.498734 1319 0.727041 0.686594 0.000000
-12.493483 -12.020536 -0.493395 1327 0.727041 0.686594 0.000000
-12.493214 -12.020287 -0.488058 1319 0.727041 0.686594 0.000000
-12.492691 -12.019779 -0.482713 1321 0.727041 0.686594 0.000000
-12.492847 -12.019927 -0.477391 1325 0.727041 0.686594 0.000000
-12.493319 -12.020380 -0.472076 1321 0.727041 0.686594 0.000000
-12.493360 -12.020432 -0.466756 1331 0.727041 0.686594 0.000000
-12.493721 -12.020772 -0.461432 1333 0.727041 0.686594 0.000000
-12.493395 -12.020464 -0.456095 1323 0.727041 0.686594 0.000000
-12.492865 -12.019950 -0.450750 1313 0.727041 0.686594 0.000000
