266
-25.229982 -23.382586 -0.656859 327 0.722600 0.691266 0.000000
-25.231800 -23.384277 -0.646342 353 0.722600 0.691266 0.000000
-25.231888 -23.384359 -0.635781 337 0.722600 0.691266 0.000000
-25.229036 -23.381710 -0.625137 331 0.722600 0.691266 0.000000
-25.224873 -23.377853 -0.614466 333 0.722600 0.691266 0.000000
-25.224651 -23.377651 -0.603898 343 0.722600 0.691266 0.000000
-25.225204 -23.378157 -0.593342 349 0.722600 0.691266 0.000000
-25.224586 -23.377584 -0.582768 315 0.722600 0.691266 0.000000
-25.225788 -23.378702 -0.572226 347 0.722600 0.691266 0.000000
-25.227005 -23.379822 -0.561695 321 0.722600 0.691266 0.000000
-25.227604 -23.380379 -0.551139 335 0.722600 0.691266 0.000000
-25.227304 -23.380100 -0.540572 345 0.722600 0.691266 0.000000
-25.226290 -23.379169 -0.529981 339 0.722600 0.691266 0.000000
-25.226358 -23.379225 -0.519420 385 0.722600 0.691266 0.000000
-25.226961 -23.379786 -0.508864 393 0.722600 0.691266 0.000000
-25.225891 -23.378798 -0.498284 363 0.722600 0.691266 0.000000
-25.227663 -23.380440 -0.487747 367 0.722600 0.691266 0.000000
-25.226595 -23.379452 -0.477167 345 0.722600 0.691266 0.000000
-25.222246 -23.375422 -0.466517 305 0.722600 0.691266 0.000000
-25.224123 -23.377159 -0.455989 331 0.722600 0.691266 0.000000
-25.225609 -23.378531 -0.445455 353 0.722600 0.691266 0.000000
-25.227585 -23.380362 -0.434927 341 0.722600 0.691266 0.000000
-25.226946 -23.379770 -0.424352 367 0.722600 0.691266 0.000000
-25.226231 -23.379108 -0.413779 387 0.722600 0.691266 0.000000
-25.228849 -23.381529 -0.403254 379 0.722600 0.691266 0.000000
-25.225662 -23.378586 -0.392633 325 0.722600 0.691266 0.000000
-25.225437 -23.378366 -0.382075 321 0.722600 0.691266 0.000000
-25.228783 -23.381477 -0.371554 345 0.722600 0.691266 0.000000
-25.226234 -23.379108 -0.360957 353 0.722600 0.691266 0.000000
-25.226204 -23.379082 -0.350397 313 0.722600 0.691266 0.000000
-25.229240 -23.381895 -0.339869 327 0.722600 0.691266 0.000000
-25.227753 -23.380520 -0.329283 353 0.722600 0.691266 0.000000
-25.223492 -23.376574 -0.318672 307 0.722600 0.691266 0.000000
-25.223665 -23.376724 -0.308110 343 0.722600 0.691266 0.000000
-25.223783 -23.376844 -0.297549 327 0.722600 0.691266 0.000000
-25.221912 -23.375113 -0.286966 315 0.722600 0.691266 0.000000
-25.221769 -23.374971 -0.276407 377 0.722600 0.691266 0.000000
-25.222530 -23.375671 -0.265849 319 0.722600 0.691266 0.000000
-25.233831 -23.372108 -0.656784 289 0.722600 0.691266 0.000000
-25.236069 -23.374172 -0.646283 307 0.722600 0.691266 0.000000
-25.234610 -23.372824 -0.635676 311 0.722600 0.691266 0.000000
-25.236897 -23.374941 -0.625165 347 0.722600 0.691266 0.000000
-25.236612 -23.374685 -0.614587 323 0.722600 0.691266 0.000000
-25.236158 -23.374258 -0.604011 337 0.722600 0.691266 0.000000
-25.234846 -23.373049 -0.593413 353 0.722600 0.691266 0.000000
-25.232666 -23.371031 -0.582803 339 0.722600 0.691266 0.000000
-25.234573 -23.372791 -0.572275 333 0.722600 0.691266 0.000000
-25.230980 -23.369469 -0.561628 367 0.722600 0.691266 0.000000
-25.231277 -23.369736 -0.551075 335 0.722600 0.691266 0.000000
-25.234144 -23.372396 -0.540568 371 0.722600 0.691266 0.000000
-25.231144 -23.369614 -0.529946 373 0.722600 0.691266 0.000000
-25.231853 -23.370274 -0.519389 333 0.722600 0.691266 0.000000
-25.234972 -23.373161 -0.508890 321 0.722600 0.691266 0.000000
-25.233324 -23.371632 -0.498295 327 0.722600 0.691266 0.000000
-25.233751 -23.372028 -0.487740 319 0.722600 0.691266 0.000000
-25.235643 -23.373775 -0.477213 347 0.722600 0.691266 0.000000
-25.235474 -23.373629 -0.466644 351 0.722600 0.691266 0.000000
-25.231819 -23.370243 -0.456008 375 0.722600 0.691266 0.000000
-25.229830 -23.368402 -0.445416 369 0.722600 0.691266 0.000000
-25.237068 -23.375101 -0.434968 367 0.722600 0.691266 0.000000
-25.238773 -23.376688 -0.424432 365 0.722600 0.691266 0.000000
-25.232319 -23.370710 -0.413762 337 0.722600 0.691266 0.000000
-25.230307 -23.368837 -0.403170 369 0.722600 0.691266 0.000000
-25.231211 -23.369678 -0.392622 367 0.722600 0.691266 0.000000
-25.229696 -23.368269 -0.382036 301 0.722600 0.691266 0.000000
-25.229616 -23.368204 -0.371476 359 0.722600 0.691266 0.000000
-25.231207 -23.369675 -0.360931 335 0.722600 0.691266 0.000000
-25.230572 -23.369087 -0.350357 303 0.722600 0.691266 0.000000
-25.231302 -23.369762 -0.339810 305 0.722600 0.691266 0.000000
-25.234116 -23.372368 -0.329283 303 0.722600 0.691266 0.000000
-25.232050 -23.370455 -0.318692 329 0.722600 0.691266 0.000000
-25.231739 -23.370165 -0.308125 315 0.722600 0.691266 0.000000
-25.234430 -23.372660 -0.297600 335 0.722600 0.691266 0.000000
-25.233978 -23.372232 -0.287024 329 0.722600 0.691266 0.000000
-25.230541 -23.369061 -0.276425 379 0.722600 0.691266 0.000000
-25.226101 -23.364944 -0.265816 337 0.722600 0.691266 0.000000
-25.245420 -23.367971 -0.656900 335 0.722600 0.691266 0.000000
-25.244297 -23.366930 -0.646300 337 0.722600 0.691266 0.000000
-25.243896 -23.366558 -0.635724 305 0.722600 0.691266 0.000000
-25.245285 -23.367836 -0.625191 315 0.722600 0.691266 0.000000
-25.243217 -23.365934 -0.614580 319 0.722600 0.691266 0.000000
-25.239756 -23.362732 -0.603921 335 0.722600 0.691266 0.000000
-25.237957 -23.361055 -0.593318 353 0.722600 0.691266 0.000000
-25.237707 -23.360828 -0.582750 331 0.722600 0.691266 0.000000
-25.240372 -23.363287 -0.572245 371 0.722600 0.691266 0.000000
-25.243399 -23.366093 -0.561747 349 0.722600 0.691266 0.000000
-25.241001 -23.363871 -0.551129 327 0.722600 0.691266 0.000000
-25.238815 -23.361847 -0.540519 339 0.722600 0.691266 0.000000
-25.239584 -23.362564 -0.529971 337 0.722600 0.691266 0.000000
-25.241411 -23.364250 -0.519444 315 0.722600 0.691266 0.000000
-25.241957 -23.364767 -0.508889 331 0.722600 0.691266 0.000000
-25.239872 -23.362835 -0.498278 361 0.722600 0.691266 0.000000
-25.241337 -23.364178 -0.487744 335 0.722600 0.691266 0.000000
-25.241543 -23.364380 -0.477182 367 0.722600 0.691266 0.000000
-25.241066 -23.363935 -0.466616 379 0.722600 0.691266 0.000000
-25.241272 -23.364124 -0.456054 407 0.722600 0.691266 0.000000
-25.238951 -23.361977 -0.445445 375 0.722600 0.691266 0.000000
-25.237059 -23.360229 -0.434853 349 0.722600 0.691266 0.000000
-25.239796 -23.362761 -0.424337 333 0.722600 0.691266 0.000000
-25.241709 -23.364527 -0.413799 373 0.722600 0.691266 0.000000
-25.238693 -23.361732 -0.403187 379 0.722600 0.691266 0.000000
-25.238520 -23.361580 -0.392628 363 0.722600 0.691266 0.000000
-25.238226 -23.361307 -0.382061 335 0.722600 0.691266 0.000000
-25.238636 -23.361687 -0.371496 343 0.722600 0.691266 0.000000
-25.240057 -23.362995 -0.360963 327 0.722600 0.691266 0.000000
-25.240683 -23.363571 -0.350407 317 0.722600 0.691266 0.000000
-25.240816 -23.363693 -0.339846 339 0.722600 0.691266 0.000000
-25.241535 -23.364359 -0.329289 379 0.722600 0.691266 0.000000
-25.241503 -23.364334 -0.318729 359 0.722600 0.691266 0.000000
-25.241516 -23.364344 -0.308158 377 0.722600 0.691266 0.000000
-25.238998 -23.362017 -0.297571 341 0.722600 0.691266 0.000000
-25.236229 -23.359459 -0.286977 349 0.722600 0.691266 0.000000
-25.237371 -23.360514 -0.276426 323 0.722600 0.691266 0.000000
-25.241941 -23.364737 -0.265913 345 0.722600 0.691266 0.000000
-25.247679 -23.355434 -0.656772 349 0.722600 0.691266 0.000000
-25.250034 -23.357607 -0.646270 303 0.722600 0.691266 0.000000
-25.249466 -23.357088 -0.635685 311 0.722600 0.691266 0.000000
-25.249985 -23.357569 -0.625130 279 0.722600 0.691266 0.000000
-25.251102 -23.358606 -0.614599 295 0.722600 0.691266 0.000000
-25.249083 -23.356741 -0.603978 343 0.722600 0.691266 0.000000
-25.249063 -23.356712 -0.593418 355 0.722600 0.691266 0.000000
-25.247789 -23.355536 -0.582819 273 0.722600 0.691266 0.000000
-25.248571 -23.356266 -0.572272 317 0.722600 0.691266 0.000000
-25.252022 -23.359461 -0.561780 343 0.722600 0.691266 0.000000
-25.248932 -23.356594 -0.551148 319 0.722600 0.691266 0.000000
-25.247871 -23.355616 -0.540558 335 0.722600 0.691266 0.000000
-25.248535 -23.356222 -0.530011 373 0.722600 0.691266 0.000000
-25.249731 -23.357338 -0.519470 401 0.722600 0.691266 0.000000
-25.249895 -23.357481 -0.508908 323 0.722600 0.691266 0.000000
-25.247269 -23.355051 -0.498292 327 0.722600 0.691266 0.000000
-25.247265 -23.355051 -0.487722 333 0.722600 0.691266 0.000000
-25.248461 -23.356148 -0.477181 331 0.722600 0.691266 0.000000
-25.247858 -23.355602 -0.466606 373 0.722600 0.691266 0.000000
-25.245823 -23.353710 -0.456005 337 0.722600 0.691266 0.000000
-25.245924 -23.353804 -0.445443 321 0.722600 0.691266 0.000000
-25.246565 -23.354397 -0.434897 313 0.722600 0.691266 0.000000
-25.246605 -23.354441 -0.424327 307 0.722600 0.691266 0.000000
-25.248144 -23.355858 -0.413792 351 0.722600 0.691266 0.000000
-25.249205 -23.356848 -0.403242 401 0.722600 0.691266 0.000000
-25.246935 -23.354744 -0.392643 403 0.722600 0.691266 0.000000
-25.247454 -23.355225 -0.382088 365 0.722600 0.691266 0.000000
-25.248022 -23.355745 -0.371532 359 0.722600 0.691266 0.000000
-25.248798 -23.356470 -0.360985 385 0.722600 0.691266 0.000000
-25.248878 -23.356544 -0.350424 353 0.722600 0.691266 0.000000
-25.248646 -23.356321 -0.339856 327 0.722600 0.691266 0.000000
-25.250221 -23.357777 -0.329311 371 0.722600 0.691266 0.000000
-25.248785 -23.356459 -0.318734 385 0.722600 0.691266 0.000000
-25.245262 -23.353195 -0.308126 339 0.722600 0.691266 0.000000
-25.244789 -23.352762 -0.297560 329 0.722600 0.691266 0.000000
-25.249685 -23.357283 -0.287055 359 0.722600 0.691266 0.000000
-25.252003 -23.359426 -0.276513 351 0.722600 0.691266 0.000000
-25.250128 -23.357702 -0.265930 391 0.722600 0.691266 0.000000
-25.254551 -23.347771 -0.656778 307 0.722600 0.691266 0.000000
-25.252501 -23.345879 -0.646157 335 0.722600 0.691266 0.000000
-25.256187 -23.349289 -0.635682 333 0.722600 0.691266 0.000000
-25.256929 -23.349974 -0.625135 325 0.722600 0.691266 0.000000
-25.255337 -23.348505 -0.614530 307 0.722600 0.691266 0.000000
-25.256025 -23.349131 -0.603983 313 0.722600 0.691266 0.000000
-25.257488 -23.350487 -0.593449 315 0.722600 0.691266 0.000000
-25.259197 -23.352062 -0.582923 315 0.722600 0.691266 0.000000
-25.258236 -23.351177 -0.572332 315 0.722600 0.691266 0.000000
-25.255695 -23.348829 -0.561715 325 0.722600 0.691266 0.000000
-25.253391 -23.346697 -0.551096 383 0.722600 0.691266 0.000000
-25.251966 -23.345371 -0.540499 345 0.722600 0.691266 0.000000
-25.252565 -23.345930 -0.529954 359 0.722600 0.691266 0.000000
-25.255371 -23.348528 -0.519447 383 0.722600 0.691266 0.000000
-25.254189 -23.347437 -0.508858 319 0.722600 0.691266 0.000000
-25.251410 -23.344860 -0.498234 305 0.722600 0.691266 0.000000
-25.254368 -23.347595 -0.487736 383 0.722600 0.691266 0.000000
-25.257874 -23.350830 -0.477233 349 0.722600 0.691266 0.000000
-25.256411 -23.349491 -0.466646 341 0.722600 0.691266 0.000000
-25.255228 -23.348387 -0.456057 375 0.722600 0.691266 0.000000
-25.256454 -23.349525 -0.445516 383 0.722600 0.691266 0.000000
-25.258272 -23.351204 -0.434978 387 0.722600 0.691266 0.000000
-25.257725 -23.350700 -0.424403 371 0.722600 0.691266 0.000000
-25.254339 -23.347570 -0.413784 389 0.722600 0.691266 0.000000
-25.252604 -23.345957 -0.403190 331 0.722600 0.691266 0.000000
-25.254141 -23.347383 -0.392656 353 0.722600 0.691266 0.000000
-25.254763 -23.347961 -0.382100 331 0.722600 0.691266 0.000000
-25.253723 -23.346996 -0.371519 345 0.722600 0.691266 0.000000
-25.251974 -23.345375 -0.360935 357 0.722600 0.691266 0.000000
-25.255165 -23.348331 -0.350415 363 0.722600 0.691266 0.000000
-25.257189 -23.350203 -0.339876 353 0.722600 0.691266 0.000000
-25.254093 -23.347330 -0.329275 311 0.722600 0.691266 0.000000
-25.253790 -23.347063 -0.318707 317 0.722600 0.691266 0.000000
-25.254499 -23.347710 -0.308161 347 0.722600 0.691266 0.000000
-25.253395 -23.346695 -0.297581 355 0.722600 0.691266 0.000000
-25.252174 -23.345560 -0.287002 325 0.722600 0.691266 0.000000
-25.251856 -23.345264 -0.276434 355 0.722600 0.691266 0.000000
-25.254547 -23.347759 -0.265909 357 0.722600 0.691266 0.000000
-25.259796 -23.338312 -0.656731 349 0.722600 0.691266 0.000000
-25.262486 -23.340790 -0.646236 327 0.722600 0.691266 0.000000
-25.267464 -23.345390 -0.635799 337 0.722600 0.691266 0.000000
-25.263790 -23.341990 -0.625133 295 0.722600 0.691266 0.000000
-25.261946 -23.340292 -0.614530 295 0.722600 0.691266 0.000000
-25.265314 -23.343393 -0.604038 293 0.722600 0.691266 0.000000
-25.264580 -23.342728 -0.593455 311 0.722600 0.691266 0.000000
-25.266008 -23.344042 -0.582922 353 0.722600 0.691266 0.000000
-25.264845 -23.342964 -0.572332 355 0.722600 0.691266 0.000000
-25.263948 -23.342144 -0.561740 347 0.722600 0.691266 0.000000
-25.263805 -23.342001 -0.551171 349 0.722600 0.691266 0.000000
-25.265057 -23.343161 -0.540639 377 0.722600 0.691266 0.000000
-25.262762 -23.341034 -0.530020 367 0.722600 0.691266 0.000000
-25.260511 -23.338957 -0.519411 349 0.722600 0.691266 0.000000
-25.262894 -23.341166 -0.508899 351 0.722600 0.691266 0.000000
-25.262899 -23.341171 -0.498328 357 0.722600 0.691266 0.000000
-25.261347 -23.339731 -0.487732 317 0.722600 0.691266 0.000000
-25.260380 -23.338840 -0.477151 319 0.722600 0.691266 0.000000
-25.262144 -23.340462 -0.466625 327 0.722600 0.691266 0.000000
-25.261234 -23.339628 -0.456043 359 0.722600 0.691266 0.000000
-25.263922 -23.342108 -0.445528 387 0.722600 0.691266 0.000000
-25.264397 -23.342552 -0.434963 379 0.722600 0.691266 0.000000
-25.263460 -23.341684 -0.424391 345 0.722600 0.691266 0.000000
-25.266136 -23.344152 -0.413866 345 0.722600 0.691266 0.000000
-25.264473 -23.342611 -0.403272 325 0.722600 0.691266 0.000000
-25.265200 -23.343287 -0.392725 345 0.722600 0.691266 0.000000
-25.264805 -23.342930 -0.382148 389 0.722600 0.691266 0.000000
-25.261393 -23.339767 -0.371539 339 0.722600 0.691266 0.000000
-25.261106 -23.339510 -0.360972 363 0.722600 0.691266 0.000000
-25.263220 -23.341463 -0.350432 341 0.722600 0.691266 0.000000
-25.262373 -23.340681 -0.339860 337 0.722600 0.691266 0.000000
-25.262678 -23.340952 -0.329296 323 0.722600 0.691266 0.000000
-25.262852 -23.341116 -0.318735 359 0.722600 0.691266 0.000000
-25.259756 -23.338259 -0.308143 357 0.722600 0.691266 0.000000
-25.259890 -23.338379 -0.297582 365 0.722600 0.691266 0.000000
-25.259357 -23.337887 -0.287006 349 0.722600 0.691266 0.000000
-25.260061 -23.338541 -0.276459 363 0.722600 0.691266 0.000000
-25.259317 -23.337854 -0.265886 323 0.722600 0.691266 0.000000
-25.270376 -23.333776 -0.656824 323 0.722600 0.691266 0.000000
-25.271603 -23.334900 -0.646292 351 0.722600 0.691266 0.000000
-25.270082 -23.333502 -0.635686 321 0.722600 0.691266 0.000000
-25.268394 -23.331940 -0.625082 321 0.722600 0.691266 0.000000
-25.270948 -23.334301 -0.614578 335 0.722600 0.691266 0.000000
-25.273552 -23.336708 -0.604073 313 0.722600 0.691266 0.000000
-25.275034 -23.338078 -0.593539 299 0.722600 0.691266 0.000000
-25.273874 -23.337006 -0.582950 325 0.722600 0.691266 0.000000
-25.271215 -23.334549 -0.572314 333 0.722600 0.691266 0.000000
-25.268602 -23.332132 -0.561698 339 0.722600 0.691266 0.000000
-25.269369 -23.332836 -0.551141 357 0.722600 0.691266 0.000000
-25.270847 -23.334204 -0.540617 385 0.722600 0.691266 0.000000
-25.273230 -23.336397 -0.530095 395 0.722600 0.691266 0.000000
-25.272058 -23.335331 -0.519505 321 0.722600 0.691266 0.000000
-25.268410 -23.331949 -0.508869 357 0.722600 0.691266 0.000000
-25.267775 -23.331364 -0.498294 327 0.722600 0.691266 0.000000
-25.267403 -23.331026 -0.487718 369 0.722600 0.691266 0.000000
-25.267029 -23.330675 -0.477151 365 0.722600 0.691266 0.000000
-25.266750 -23.330425 -0.466583 341 0.722600 0.691266 0.000000
-25.266584 -23.330265 -0.456014 349 0.722600 0.691266 0.000000
-25.267231 -23.330860 -0.445458 375 0.722600 0.691266 0.000000
-25.268291 -23.331841 -0.434918 389 0.722600 0.691266 0.000000
-25.267649 -23.331247 -0.424344 335 0.722600 0.691266 0.000000
-25.270901 -23.334255 -0.413833 361 0.722600 0.691266 0.000000
-25.270411 -23.333797 -0.403258 349 0.722600 0.691266 0.000000
-25.267118 -23.330757 -0.392648 329 0.722600 0.691266 0.000000
-25.267529 -23.331137 -0.382094 367 0.722600 0.691266 0.000000
-25.267393 -23.331015 -0.371525 349 0.722600 0.691266 0.000000
-25.269146 -23.332628 -0.360988 361 0.722600 0.691266 0.000000
-25.269653 -23.333097 -0.350434 335 0.722600 0.691266 0.000000
-25.270161 -23.333570 -0.339879 279 0.722600 0.691266 0.000000
-25.271685 -23.334974 -0.329334 325 0.722600 0.691266 0.000000
-25.269026 -23.332520 -0.318729 341 0.722600 0.691266 0.000000
-25.266998 -23.330647 -0.308147 333 0.722600 0.691266 0.000000
-25.266634 -23.330315 -0.297580 343 0.722600 0.691266 0.000000
-25.269180 -23.332655 -0.287047 359 0.722600 0.691266 0.000000
-25.274710 -23.337761 -0.276545 367 0.722600 0.691266 0.000000
-25.271988 -23.335255 -0.265950 379 0.722600 0.691266 0.000000
