266
-23.366394 -22.426846 -0.624408 1179 0.735930 0.677058 0.000000
-23.366053 -22.426514 -0.614452 1157 0.735930 0.677058 0.000000
-23.365566 -22.426050 -0.604486 1143 0.735930 0.677058 0.000000
-23.365849 -22.426323 -0.594543 1159 0.735930 0.677058 0.000000
-23.366096 -22.426565 -0.584600 1157 0.735930 0.677058 0.000000
-23.366110 -22.426579 -0.574650 1155 0.735930 0.677058 0.000000
-23.366833 -22.427265 -0.564723 1161 0.735930 0.677058 0.000000
-23.367016 -22.427443 -0.554781 1165 0.735930 0.677058 0.000000
-23.367237 -22.427666 -0.544839 1191 0.735930 0.677058 0.000000
-23.366774 -22.427221 -0.534873 1169 0.735930 0.677058 0.000000
-23.366901 -22.427340 -0.524931 1155 0.735930 0.677058 0.000000
-23.367968 -22.428362 -0.515001 1167 0.735930 0.677058 0.000000
-23.367514 -22.427925 -0.505045 1165 0.735930 0.677058 0.000000
-23.367462 -22.427883 -0.495095 1167 0.735930 0.677058 0.000000
-23.367989 -22.428396 -0.485160 1161 0.735930 0.677058 0.000000
-23.367779 -22.428186 -0.475202 1173 0.735930 0.677058 0.000000
-23.367420 -22.427839 -0.465245 1151 0.735930 0.677058 0.000000
-23.367617 -22.428043 -0.455303 1153 0.735930 0.677058 0.000000
-23.368040 -22.428444 -0.445359 1173 0.735930 0.677058 0.000000
-23.367830 -22.428247 -0.435410 1173 0.735930 0.677058 0.000000
-23.367809 -22.428232 -0.425460 1177 0.735930 0.677058 0.000000
-23.368710 -22.429090 -0.415532 1171 0.735930 0.677058 0.000000
-23.369074 -22.429443 -0.405588 1179 0.735930 0.677058 0.000000
-23.367678 -22.428101 -0.395611 1157 0.735930 0.677058 0.000000
-23.367500 -22.427929 -0.385662 1167 0.735930 0.677058 0.000000
-23.367750 -22.428177 -0.375720 1161 0.735930 0.677058 0.000000
-23.367823 -22.428249 -0.365769 1173 0.735930 0.677058 0.000000
-23.369551 -22.429905 -0.355852 1169 0.735930 0.677058 0.000000
-23.369947 -22.430286 -0.345908 1163 0.735930 0.677058 0.000000
-23.368345 -22.428749 -0.335933 1147 0.735930 0.677058 0.000000
-23.367672 -22.428106 -0.325979 1167 0.735930 0.677058 0.000000
-23.368172 -22.428585 -0.316034 1159 0.735930 0.677058 0.000000
-23.368765 -22.429165 -0.306098 1167 0.735930 0.677058 0.000000
-23.368631 -22.429029 -0.296149 1171 0.735930 0.677058 0.000000
-23.368530 -22.428936 -0.286200 1149 0.735930 0.677058 0.000000
-23.369488 -22.429853 -0.276261 1165 0.735930 0.677058 0.000000
-23.369881 -22.430229 -0.266317 1165 0.735930 0.677058 0.000000
-23.369883 -22.430235 -0.256367 1135 0.735930 0.677058 0.000000
-23.372974 -22.418909 -0.624397 1151 0.735930 0.677058 0.000000
-23.373486 -22.419395 -0.614462 1147 0.735930 0.677058 0.000000
-23.374735 -22.420605 -0.604550 1169 0.735930 0.677058 0.000000
-23.374727 -22.420588 -0.594600 1183 0.735930 0.677058 0.000000
-23.374369 -22.420254 -0.584633 1163 0.735930 0.677058 0.000000
-23.374722 -22.420584 -0.574700 1163 0.735930 0.677058 0.000000
-23.375109 -22.420967 -0.564756 1167 0.735930 0.677058 0.000000
-23.375353 -22.421196 -0.554813 1163 0.735930 0.677058 0.000000
-23.375515 -22.421358 -0.544861 1173 0.735930 0.677058 0.000000
-23.376013 -22.421833 -0.534927 1185 0.735930 0.677058 0.000000
-23.374603 -22.420481 -0.524950 1167 0.735930 0.677058 0.000000
-23.373922 -22.419832 -0.514976 1157 0.735930 0.677058 0.000000
-23.374081 -22.419991 -0.505034 1173 0.735930 0.677058 0.000000
-23.374199 -22.420101 -0.495093 1165 0.735930 0.677058 0.000000
-23.375414 -22.421272 -0.485171 1185 0.735930 0.677058 0.000000
-23.376278 -22.422098 -0.475233 1195 0.735930 0.677058 0.000000
-23.375803 -22.421644 -0.465277 1183 0.735930 0.677058 0.000000
-23.374790 -22.420673 -0.455306 1197 0.735930 0.677058 0.000000
-23.374165 -22.420067 -0.445342 1173 0.735930 0.677058 0.000000
-23.373938 -22.419857 -0.435394 1177 0.735930 0.677058 0.000000
-23.374365 -22.420261 -0.425450 1177 0.735930 0.677058 0.000000
-23.373863 -22.419785 -0.415494 1147 0.735930 0.677058 0.000000
-23.375078 -22.420954 -0.405572 1159 0.735930 0.677058 0.000000
-23.376013 -22.421852 -0.395633 1133 0.735930 0.677058 0.000000
-23.374527 -22.420425 -0.385667 1143 0.735930 0.677058 0.000000
-23.375387 -22.421251 -0.375729 1153 0.735930 0.677058 0.000000
-23.376745 -22.422564 -0.365806 1161 0.735930 0.677058 0.000000
-23.376192 -22.422033 -0.355850 1157 0.735930 0.677058 0.000000
-23.375957 -22.421803 -0.345893 1151 0.735930 0.677058 0.000000
-23.374336 -22.420250 -0.335918 1161 0.735930 0.677058 0.000000
-23.373898 -22.419827 -0.325971 1153 0.735930 0.677058 0.000000
-23.375179 -22.421062 -0.316039 1159 0.735930 0.677058 0.000000
-23.376839 -22.422649 -0.306113 1163 0.735930 0.677058 0.000000
-23.377016 -22.422823 -0.296171 1163 0.735930 0.677058 0.000000
-23.375385 -22.421263 -0.286196 1159 0.735930 0.677058 0.000000
-23.375034 -22.420923 -0.276250 1171 0.735930 0.677058 0.000000
-23.375248 -22.421141 -0.266297 1149 0.735930 0.677058 0.000000
-23.375788 -22.421650 -0.256362 1135 0.735930 0.677058 0.000000
-23.381487 -22.412289 -0.624431 1165 0.735930 0.677058 0.000000
-23.382565 -22.413330 -0.614510 1171 0.735930 0.677058 0.000000
-23.382967 -22.413713 -0.604576 1161 0.735930 0.677058 0.000000
-23.381836 -22.412632 -0.594597 1165 0.735930 0.677058 0.000000
-23.380812 -22.411646 -0.584616 1161 0.735930 0.677058 0.000000
-23.382473 -22.413248 -0.574710 1155 0.735930 0.677058 0.000000
-23.383022 -22.413765 -0.564775 1161 0.735930 0.677058 0.000000
-23.382673 -22.413441 -0.554818 1163 0.735930 0.677058 0.000000
-23.381788 -22.412584 -0.544846 1157 0.735930 0.677058 0.000000
-23.381859 -22.412657 -0.534895 1149 0.735930 0.677058 0.000000
-23.382715 -22.413481 -0.524967 1159 0.735930 0.677058 0.000000
-23.381783 -22.412586 -0.514995 1167 0.735930 0.677058 0.000000
-23.381111 -22.411945 -0.505031 1177 0.735930 0.677058 0.000000
-23.381380 -22.412205 -0.495089 1173 0.735930 0.677058 0.000000
-23.382971 -22.413734 -0.485173 1167 0.735930 0.677058 0.000000
-23.383921 -22.414648 -0.475244 1175 0.735930 0.677058 0.000000
-23.382811 -22.413580 -0.465274 1191 0.735930 0.677058 0.000000
-23.381653 -22.412474 -0.455295 1181 0.735930 0.677058 0.000000
-23.381756 -22.412573 -0.445354 1171 0.735930 0.677058 0.000000
-23.381857 -22.412672 -0.435403 1159 0.735930 0.677058 0.000000
-23.381216 -22.412054 -0.425449 1183 0.735930 0.677058 0.000000
-23.382637 -22.413418 -0.415525 1169 0.735930 0.677058 0.000000
-23.383451 -22.414207 -0.405587 1147 0.735930 0.677058 0.000000
-23.382065 -22.412872 -0.395620 1155 0.735930 0.677058 0.000000
-23.381792 -22.412611 -0.385662 1153 0.735930 0.677058 0.000000
-23.381933 -22.412741 -0.375721 1143 0.735930 0.677058 0.000000
-23.383488 -22.414242 -0.365796 1145 0.735930 0.677058 0.000000
-23.385113 -22.415798 -0.355870 1159 0.735930 0.677058 0.000000
-23.384563 -22.415272 -0.345915 1173 0.735930 0.677058 0.000000
-23.383898 -22.414637 -0.335961 1167 0.735930 0.677058 0.000000
-23.383284 -22.414053 -0.325997 1159 0.735930 0.677058 0.000000
-23.382248 -22.413061 -0.316036 1179 0.735930 0.677058 0.000000
-23.382164 -22.412981 -0.306087 1163 0.735930 0.677058 0.000000
-23.383184 -22.413963 -0.296157 1155 0.735930 0.677058 0.000000
-23.382885 -22.413668 -0.286199 1169 0.735930 0.677058 0.000000
-23.382622 -22.413427 -0.276252 1161 0.735930 0.677058 0.000000
-23.382586 -22.413383 -0.266302 1153 0.735930 0.677058 0.000000
-23.383549 -22.414309 -0.256372 1143 0.735930 0.677058 0.000000
-23.389231 -22.404921 -0.624451 1167 0.735930 0.677058 0.000000
-23.388004 -22.403744 -0.614463 1165 0.735930 0.677058 0.000000
-23.388348 -22.404081 -0.604519 1153 0.735930 0.677058 0.000000
-23.389385 -22.405077 -0.594599 1147 0.735930 0.677058 0.000000
-23.389151 -22.404844 -0.584641 1155 0.735930 0.677058 0.000000
-23.388845 -22.404556 -0.574684 1157 0.735930 0.677058 0.000000
-23.389200 -22.404902 -0.564750 1159 0.735930 0.677058 0.000000
-23.389580 -22.405266 -0.554806 1167 0.735930 0.677058 0.000000
-23.389751 -22.405436 -0.544865 1173 0.735930 0.677058 0.000000
-23.389776 -22.405457 -0.534914 1151 0.735930 0.677058 0.000000
-23.389002 -22.404718 -0.524941 1161 0.735930 0.677058 0.000000
-23.388533 -22.404270 -0.514985 1161 0.735930 0.677058 0.000000
-23.389011 -22.404730 -0.505051 1173 0.735930 0.677058 0.000000
-23.389883 -22.405563 -0.495112 1163 0.735930 0.677058 0.000000
-23.389994 -22.405670 -0.485171 1171 0.735930 0.677058 0.000000
-23.390512 -22.406176 -0.475236 1177 0.735930 0.677058 0.000000
-23.390421 -22.406076 -0.465276 1163 0.735930 0.677058 0.000000
-23.388884 -22.404606 -0.455301 1141 0.735930 0.677058 0.000000
-23.389177 -22.404902 -0.445358 1149 0.735930 0.677058 0.000000
-23.389830 -22.405516 -0.435421 1149 0.735930 0.677058 0.000000
-23.390652 -22.406311 -0.425493 1143 0.735930 0.677058 0.000000
-23.391178 -22.406811 -0.415548 1179 0.735930 0.677058 0.000000
-23.389463 -22.405182 -0.405574 1171 0.735930 0.677058 0.000000
-23.389143 -22.404865 -0.395617 1161 0.735930 0.677058 0.000000
-23.389757 -22.405449 -0.385681 1167 0.735930 0.677058 0.000000
-23.389849 -22.405542 -0.375730 1175 0.735930 0.677058 0.000000
-23.389568 -22.405273 -0.365782 1163 0.735930 0.677058 0.000000
-23.388481 -22.404238 -0.355812 1135 0.735930 0.677058 0.000000
-23.388672 -22.404421 -0.345870 1155 0.735930 0.677058 0.000000
-23.390232 -22.405914 -0.335945 1157 0.735930 0.677058 0.000000
-23.391676 -22.407309 -0.326021 1169 0.735930 0.677058 0.000000
-23.391863 -22.407478 -0.316069 1167 0.735930 0.677058 0.000000
-23.391928 -22.407545 -0.306128 1151 0.735930 0.677058 0.000000
-23.391844 -22.407465 -0.296179 1177 0.735930 0.677058 0.000000
-23.391748 -22.407375 -0.286229 1159 0.735930 0.677058 0.000000
-23.391861 -22.407482 -0.276278 1151 0.735930 0.677058 0.000000
-23.390602 -22.406279 -0.266320 1133 0.735930 0.677058 0.000000
-23.389919 -22.405630 -0.256356 1151 0.735930 0.677058 0.000000
-23.396215 -22.397106 -0.624448 1165 0.735930 0.677058 0.000000
-23.396402 -22.397289 -0.614496 1139 0.735930 0.677058 0.000000
-23.396276 -22.397161 -0.604547 1157 0.735930 0.677058 0.000000
-23.396883 -22.397753 -0.594611 1161 0.735930 0.677058 0.000000
-23.395756 -22.396669 -0.584631 1149 0.735930 0.677058 0.000000
-23.395521 -22.396439 -0.574673 1129 0.735930 0.677058 0.000000
-23.397123 -22.397978 -0.564768 1147 0.735930 0.677058 0.000000
-23.396833 -22.397701 -0.554810 1131 0.735930 0.677058 0.000000
-23.395472 -22.396402 -0.544833 1127 0.735930 0.677058 0.000000
-23.397032 -22.397896 -0.534918 1135 0.735930 0.677058 0.000000
-23.397675 -22.398516 -0.524982 1143 0.735930 0.677058 0.000000
-23.396894 -22.397772 -0.515019 1137 0.735930 0.677058 0.000000
-23.397593 -22.398439 -0.505082 1135 0.735930 0.677058 0.000000
-23.398180 -22.399000 -0.495146 1167 0.735930 0.677058 0.000000
-23.397484 -22.398340 -0.485183 1173 0.735930 0.677058 0.000000
-23.397385 -22.398247 -0.475223 1161 0.735930 0.677058 0.000000
-23.396124 -22.397043 -0.465255 1165 0.735930 0.677058 0.000000
-23.394495 -22.395472 -0.455270 1147 0.735930 0.677058 0.000000
-23.395807 -22.396732 -0.445347 1141 0.735930 0.677058 0.000000
-23.396959 -22.397837 -0.435426 1141 0.735930 0.677058 0.000000
-23.396166 -22.397083 -0.425464 1141 0.735930 0.677058 0.000000
-23.395670 -22.396608 -0.415508 1153 0.735930 0.677058 0.000000
-23.397093 -22.397964 -0.405584 1141 0.735930 0.677058 0.000000
-23.398247 -22.399069 -0.395653 1159 0.735930 0.677058 0.000000
-23.398540 -22.399363 -0.385710 1169 0.735930 0.677058 0.000000
-23.398573 -22.399391 -0.375760 1159 0.735930 0.677058 0.000000
-23.397720 -22.398575 -0.365797 1169 0.735930 0.677058 0.000000
-23.397375 -22.398241 -0.355841 1161 0.735930 0.677058 0.000000
-23.397871 -22.398729 -0.345905 1151 0.735930 0.677058 0.000000
-23.397528 -22.398396 -0.335949 1163 0.735930 0.677058 0.000000
-23.397293 -22.398167 -0.326001 1163 0.735930 0.677058 0.000000
-23.397459 -22.398331 -0.316059 1161 0.735930 0.677058 0.000000
-23.397530 -22.398403 -0.306108 1159 0.735930 0.677058 0.000000
-23.398083 -22.398935 -0.296162 1147 0.735930 0.677058 0.000000
-23.399000 -22.399809 -0.286233 1149 0.735930 0.677058 0.000000
-23.398476 -22.399315 -0.276278 1147 0.735930 0.677058 0.000000
-23.397858 -22.398716 -0.266324 1143 0.735930 0.677058 0.000000
-23.398657 -22.399494 -0.256386 1161 0.735930 0.677058 0.000000
-23.404099 -22.390669 -0.624473 1161 0.735930 0.677058 0.000000
-23.404655 -22.391207 -0.614538 1147 0.735930 0.677058 0.000000
-23.403944 -22.390533 -0.604564 1135 0.735930 0.677058 0.000000
-23.402864 -22.389488 -0.594594 1127 0.735930 0.677058 0.000000
-23.403219 -22.389833 -0.584651 1143 0.735930 0.677058 0.000000
-23.404400 -22.390965 -0.574729 1129 0.735930 0.677058 0.000000
-23.404850 -22.391397 -0.564795 1153 0.735930 0.677058 0.000000
-23.404343 -22.390919 -0.554829 1157 0.735930 0.677058 0.000000
-23.404099 -22.390680 -0.544871 1127 0.735930 0.677058 0.000000
-23.404165 -22.390749 -0.534920 1151 0.735930 0.677058 0.000000
-23.402905 -22.389545 -0.524942 1141 0.735930 0.677058 0.000000
-23.402285 -22.388947 -0.514978 1141 0.735930 0.677058 0.000000
-23.402876 -22.389511 -0.505042 1127 0.735930 0.677058 0.000000
-23.403887 -22.390488 -0.495122 1135 0.735930 0.677058 0.000000
-23.403997 -22.390594 -0.485171 1155 0.735930 0.677058 0.000000
-23.403694 -22.390306 -0.475213 1145 0.735930 0.677058 0.000000
-23.403791 -22.390400 -0.465272 1151 0.735930 0.677058 0.000000
-23.403273 -22.389898 -0.455307 1147 0.735930 0.677058 0.000000
-23.403486 -22.390100 -0.445365 1155 0.735930 0.677058 0.000000
-23.403837 -22.390444 -0.435421 1159 0.735930 0.677058 0.000000
-23.404320 -22.390905 -0.425486 1147 0.735930 0.677058 0.000000
-23.404509 -22.391088 -0.415544 1151 0.735930 0.677058 0.000000
-23.404501 -22.391085 -0.405594 1145 0.735930 0.677058 0.000000
-23.404745 -22.391323 -0.395652 1159 0.735930 0.677058 0.000000
-23.405413 -22.391951 -0.385715 1169 0.735930 0.677058 0.000000
-23.405979 -22.392496 -0.375769 1157 0.735930 0.677058 0.000000
-23.405424 -22.391977 -0.365814 1155 0.735930 0.677058 0.000000
-23.403929 -22.390541 -0.355838 1151 0.735930 0.677058 0.000000
-23.405277 -22.391834 -0.345915 1141 0.735930 0.677058 0.000000
-23.405872 -22.392403 -0.335979 1161 0.735930 0.677058 0.000000
-23.404276 -22.390871 -0.326004 1155 0.735930 0.677058 0.000000
-23.404184 -22.390785 -0.316055 1155 0.735930 0.677058 0.000000
-23.403988 -22.390598 -0.306107 1151 0.735930 0.677058 0.000000
-23.405222 -22.391781 -0.296175 1153 0.735930 0.677058 0.000000
-23.405870 -22.392408 -0.286228 1141 0.735930 0.677058 0.000000
-23.405458 -22.392019 -0.276282 1145 0.735930 0.677058 0.000000
-23.405107 -22.391680 -0.266325 1157 0.735930 0.677058 0.000000
-23.404781 -22.391375 -0.256378 1143 0.735930 0.677058 0.000000
-23.411261 -22.383833 -0.624484 1135 0.735930 0.677058 0.000000
-23.411552 -22.384111 -0.614541 1145 0.735930 0.677058 0.000000
-23.410730 -22.383335 -0.604568 1135 0.735930 0.677058 0.000000
-23.411083 -22.383665 -0.594625 1129 0.735930 0.677058 0.000000
-23.410427 -22.383034 -0.584661 1143 0.735930 0.677058 0.000000
-23.410139 -22.382761 -0.574703 1129 0.735930 0.677058 0.000000
-23.410782 -22.383381 -0.564767 1145 0.735930 0.677058 0.000000
-23.410589 -22.383198 -0.554819 1165 0.735930 0.677058 0.000000
-23.410400 -22.383018 -0.544860 1135 0.735930 0.677058 0.000000
-23.409946 -22.382582 -0.534904 1135 0.735930 0.677058 0.000000
-23.410011 -22.382650 -0.524953 1111 0.735930 0.677058 0.000000
-23.410286 -22.382917 -0.515010 1123 0.735930 0.677058 0.000000
-23.410877 -22.383482 -0.505075 1133 0.735930 0.677058 0.000000
-23.411257 -22.383846 -0.495131 1141 0.735930 0.677058 0.000000
-23.411425 -22.384001 -0.485189 1139 0.735930 0.677058 0.000000
-23.411955 -22.384514 -0.475254 1139 0.735930 0.677058 0.000000
-23.410688 -22.383307 -0.465276 1143 0.735930 0.677058 0.000000
-23.409370 -22.382044 -0.455298 1147 0.735930 0.677058 0.000000
-23.410482 -22.383102 -0.445377 1165 0.735930 0.677058 0.000000
-23.411058 -22.383654 -0.435441 1141 0.735930 0.677058 0.000000
-23.411512 -22.384094 -0.425497 1133 0.735930 0.677058 0.000000
-23.412722 -22.385258 -0.415575 1149 0.735930 0.677058 0.000000
-23.412127 -22.384680 -0.405611 1145 0.735930 0.677058 0.000000
-23.412003 -22.384565 -0.395661 1135 0.735930 0.677058 0.000000
-23.411619 -22.384199 -0.385705 1129 0.735930 0.677058 0.000000
-23.411074 -22.383688 -0.375750 1137 0.735930 0.677058 0.000000
-23.410988 -22.383606 -0.365800 1121 0.735930 0.677058 0.000000
-23.410816 -22.383440 -0.355842 1143 0.735930 0.677058 0.000000
-23.410637 -22.383268 -0.345893 1121 0.735930 0.677058 0.000000
-23.411612 -22.384201 -0.335964 1111 0.735930 0.677058 0.000000
-23.413799 -22.386299 -0.326043 1151 0.735930 0.677058 0.000000
-23.413406 -22.385914 -0.316096 1127 0.735930 0.677058 0.000000
-23.412251 -22.384823 -0.306127 1127 0.735930 0.677058 0.000000
-23.412064 -22.384644 -0.296178 1137 0.735930 0.677058 0.000000
-23.412134 -22.384703 -0.286228 1129 0.735930 0.677058 0.000000
-23.413200 -22.385723 -0.276297 1143 0.735930 0.677058 0.000000
-23.412365 -22.384933 -0.266335 1135 0.735930 0.677058 0.000000
-23.411417 -22.384027 -0.256374 1133 0.735930 0.677058 0.000000
