749
-10.045547 -10.213869 -0.356963 1293 0.721096 0.692835 0.000000
-10.044755 -10.213058 -0.352541 1285 0.721096 0.692835 0.000000
-10.044821 -10.213134 -0.348140 1291 0.721096 0.692835 0.000000
-10.044993 -10.213303 -0.343738 1297 0.721096 0.692835 0.000000
-10.045274 -10.213589 -0.339355 1293 0.721096 0.692835 0.000000
-10.045595 -10.213923 -0.334962 1293 0.721096 0.692835 0.000000
-10.045614 -10.213947 -0.330562 1293 0.721096 0.692835 0.000000
-10.045679 -10.214009 -0.326161 1291 0.721096 0.692835 0.000000
-10.045287 -10.213605 -0.321745 1297 0.721096 0.692835 0.000000
-10.045252 -10.213570 -0.317345 1309 0.721096 0.692835 0.000000
-10.045156 -10.213482 -0.312936 1303 0.721096 0.692835 0.000000
-10.045584 -10.213921 -0.308552 1299 0.721096 0.692835 0.000000
-10.045950 -10.214293 -0.304158 1307 0.721096 0.692835 0.000000
-10.045188 -10.213522 -0.299735 1301 0.721096 0.692835 0.000000
-10.048729 -10.210793 -0.687372 1289 0.721096 0.692835 0.000000
-10.049088 -10.211159 -0.682988 1293 0.721096 0.692835 0.000000
-10.049082 -10.211149 -0.678578 1305 0.721096 0.692835 0.000000
-10.049117 -10.211186 -0.674168 1303 0.721096 0.692835 0.000000
-10.049057 -10.211118 -0.669758 1303 0.721096 0.692835 0.000000
-10.048777 -10.210847 -0.665331 1297 0.721096 0.692835 0.000000
-10.048979 -10.211040 -0.660929 1301 0.721096 0.692835 0.000000
-10.049168 -10.211235 -0.656537 1297 0.721096 0.692835 0.000000
-10.049503 -10.211581 -0.652144 1301 0.721096 0.692835 0.000000
-10.049645 -10.211722 -0.647752 1303 0.721096 0.692835 0.000000
-10.049464 -10.211551 -0.643324 1307 0.721096 0.692835 0.000000
-10.049042 -10.211121 -0.638898 1297 0.721096 0.692835 0.000000
-10.049129 -10.211203 -0.634487 1299 0.721096 0.692835 0.000000
-10.049418 -10.211496 -0.630104 1309 0.721096 0.692835 0.000000
-10.049182 -10.211264 -0.625676 1305 0.721096 0.692835 0.000000
-10.049270 -10.211347 -0.621275 1303 0.721096 0.692835 0.000000
-10.049397 -10.211475 -0.616874 1295 0.721096 0.692835 0.000000
-10.049215 -10.211303 -0.612455 1313 0.721096 0.692835 0.000000
-10.048832 -10.210905 -0.608029 1307 0.721096 0.692835 0.000000
-10.048904 -10.210988 -0.603628 1299 0.721096 0.692835 0.000000
-10.049595 -10.211689 -0.599261 1303 0.721096 0.692835 0.000000
-10.049876 -10.211976 -0.594869 1311 0.721096 0.692835 0.000000
-10.049285 -10.211375 -0.590424 1303 0.721096 0.692835 0.000000
-10.049150 -10.211241 -0.586015 1293 0.721096 0.692835 0.000000
-10.049583 -10.211672 -0.581631 1303 0.721096 0.692835 0.000000
-10.049650 -10.211748 -0.577230 1301 0.721096 0.692835 0.000000
-10.049420 -10.211509 -0.572802 1301 0.721096 0.692835 0.000000
-10.049230 -10.211315 -0.568384 1307 0.721096 0.692835 0.000000
-10.049349 -10.211438 -0.563993 1301 0.721096 0.692835 0.000000
-10.049314 -10.211402 -0.559583 1299 0.721096 0.692835 0.000000
-10.049070 -10.211164 -0.555165 1293 0.721096 0.692835 0.000000
-10.049181 -10.211280 -0.550764 1299 0.721096 0.692835 0.000000
-10.049045 -10.211132 -0.546346 1293 0.721096 0.692835 0.000000
-10.049357 -10.211458 -0.541962 1297 0.721096 0.692835 0.000000
-10.049624 -10.211733 -0.537570 1301 0.721096 0.692835 0.000000
-10.049069 -10.211164 -0.533135 1297 0.721096 0.692835 0.000000
-10.048872 -10.210964 -0.528717 1303 0.721096 0.692835 0.000000
-10.048830 -10.210923 -0.524307 1301 0.721096 0.692835 0.000000
-10.048995 -10.211098 -0.519915 1303 0.721096 0.692835 0.000000
-10.049259 -10.211358 -0.515523 1295 0.721096 0.692835 0.000000
-10.049720 -10.211836 -0.511138 1285 0.721096 0.692835 0.000000
-10.049769 -10.211886 -0.506737 1297 0.721096 0.692835 0.000000
-10.049624 -10.211731 -0.502319 1297 0.721096 0.692835 0.000000
-10.049574 -10.211683 -0.497919 1283 0.721096 0.692835 0.000000
-10.049477 -10.211581 -0.493510 1295 0.721096 0.692835 0.000000
-10.049581 -10.211691 -0.489109 1303 0.721096 0.692835 0.000000
-10.049375 -10.211485 -0.484691 1295 0.721096 0.692835 0.000000
-10.048745 -10.210852 -0.480257 1291 0.721096 0.692835 0.000000
-10.048446 -10.210540 -0.475840 1291 0.721096 0.692835 0.000000
-10.049006 -10.211116 -0.471464 1301 0.721096 0.692835 0.000000
-10.049303 -10.211416 -0.467071 1299 0.721096 0.692835 0.000000
-10.048533 -10.210637 -0.462628 1297 0.721096 0.692835 0.000000
-10.048265 -10.210365 -0.458221 1293 0.721096 0.692835 0.000000
-10.048979 -10.211085 -0.453844 1295 0.721096 0.692835 0.000000
-10.049640 -10.211761 -0.449467 1297 0.721096 0.692835 0.000000
-10.049009 -10.211127 -0.445033 1291 0.721096 0.692835 0.000000
-10.048077 -10.210171 -0.440592 1285 0.721096 0.692835 0.000000
-10.047756 -10.209854 -0.436175 1285 0.721096 0.692835 0.000000
-10.047945 -10.210048 -0.431783 1297 0.721096 0.692835 0.000000
-10.048241 -10.210348 -0.427390 1299 0.721096 0.692835 0.000000
-10.048175 -10.210286 -0.422991 1297 0.721096 0.692835 0.000000
-10.048263 -10.210369 -0.418590 1295 0.721096 0.692835 0.000000
-10.048345 -10.210459 -0.414189 1297 0.721096 0.692835 0.000000
-10.048849 -10.210962 -0.409804 1307 0.721096 0.692835 0.000000
-10.048882 -10.210999 -0.405404 1305 0.721096 0.692835 0.000000
-10.048964 -10.211089 -0.401003 1295 0.721096 0.692835 0.000000
-10.049098 -10.211224 -0.396601 1291 0.721096 0.692835 0.000000
-10.049186 -10.211307 -0.392210 1285 0.721096 0.692835 0.000000
-10.049104 -10.211232 -0.387801 1293 0.721096 0.692835 0.000000
-10.048520 -10.210638 -0.383377 1295 0.721096 0.692835 0.000000
-10.048594 -10.210722 -0.378976 1299 0.721096 0.692835 0.000000
-10.048780 -10.210903 -0.374584 1297 0.721096 0.692835 0.000000
-10.048807 -10.210933 -0.370183 1297 0.721096 0.692835 0.000000
-10.048564 -10.210694 -0.365766 1295 0.721096 0.692835 0.000000
-10.048644 -10.210771 -0.361365 1289 0.721096 0.692835 0.000000
-10.048723 -10.210847 -0.356974 1297 0.721096 0.692835 0.000000
-10.048326 -10.210450 -0.352558 1285 0.721096 0.692835 0.000000
-10.048870 -10.210999 -0.348172 1291 0.721096 0.692835 0.000000
-10.049445 -10.211588 -0.343787 1311 0.721096 0.692835 0.000000
-10.048961 -10.211093 -0.339371 1307 0.721096 0.692835 0.000000
-10.048980 -10.211117 -0.334971 1293 0.721096 0.692835 0.000000
-10.049354 -10.211495 -0.330577 1301 0.721096 0.692835 0.000000
-10.048694 -10.210836 -0.326153 1297 0.721096 0.692835 0.000000
-10.047992 -10.210116 -0.321730 1301 0.721096 0.692835 0.000000
-10.048165 -10.210299 -0.317338 1295 0.721096 0.692835 0.000000
-10.048493 -10.210624 -0.312945 1295 0.721096 0.692835 0.000000
-10.048187 -10.210320 -0.308538 1291 0.721096 0.692835 0.000000
-10.048252 -10.210382 -0.304137 1299 0.721096 0.692835 0.000000
-10.048009 -10.210144 -0.299729 1293 0.721096 0.692835 0.000000
-10.051977 -10.207609 -0.687373 1305 0.721096 0.692835 0.000000
-10.051561 -10.207185 -0.682937 1297 0.721096 0.692835 0.000000
-10.051542 -10.207177 -0.678527 1295 0.721096 0.692835 0.000000
-10.051886 -10.207529 -0.674134 1305 0.721096 0.692835 0.000000
-10.051874 -10.207514 -0.669724 1301 0.721096 0.692835 0.000000
-10.051505 -10.207143 -0.665297 1295 0.721096 0.692835 0.000000
-10.051647 -10.207284 -0.660896 1299 0.721096 0.692835 0.000000
-10.052354 -10.207998 -0.656529 1293 0.721096 0.692835 0.000000
-10.052589 -10.208246 -0.652136 1303 0.721096 0.692835 0.000000
-10.051966 -10.207605 -0.647692 1305 0.721096 0.692835 0.000000
-10.051946 -10.207582 -0.643282 1299 0.721096 0.692835 0.000000
-10.052073 -10.207726 -0.638881 1301 0.721096 0.692835 0.000000
-10.052416 -10.208064 -0.634498 1297 0.721096 0.692835 0.000000
-10.052550 -10.208200 -0.630096 1299 0.721096 0.692835 0.000000
-10.051959 -10.207613 -0.625652 1301 0.721096 0.692835 0.000000
-10.051521 -10.207170 -0.621216 1297 0.721096 0.692835 0.000000
-10.051918 -10.207568 -0.616832 1295 0.721096 0.692835 0.000000
-10.052300 -10.207953 -0.612448 1303 0.721096 0.692835 0.000000
-10.052374 -10.208036 -0.608047 1309 0.721096 0.692835 0.000000
-10.052501 -10.208166 -0.603646 1291 0.721096 0.692835 0.000000
-10.052781 -10.208452 -0.599253 1291 0.721096 0.692835 0.000000
-10.052599 -10.208265 -0.594835 1309 0.721096 0.692835 0.000000
-10.052525 -10.208183 -0.590426 1303 0.721096 0.692835 0.000000
-10.052590 -10.208261 -0.586025 1301 0.721096 0.692835 0.000000
-10.052662 -10.208330 -0.581624 1303 0.721096 0.692835 0.000000
-10.052534 -10.208202 -0.577205 1295 0.721096 0.692835 0.000000
-10.052135 -10.207793 -0.572779 1289 0.721096 0.692835 0.000000
-10.052007 -10.207664 -0.568360 1299 0.721096 0.692835 0.000000
-10.052165 -10.207834 -0.563968 1303 0.721096 0.692835 0.000000
-10.052601 -10.208264 -0.559584 1299 0.721096 0.692835 0.000000
-10.052410 -10.208072 -0.555166 1291 0.721096 0.692835 0.000000
-10.051810 -10.207463 -0.550732 1291 0.721096 0.692835 0.000000
-10.051767 -10.207421 -0.546322 1295 0.721096 0.692835 0.000000
-10.051879 -10.207538 -0.541921 1295 0.721096 0.692835 0.000000
-10.052346 -10.208022 -0.537546 1305 0.721096 0.692835 0.000000
-10.052511 -10.208184 -0.533144 1291 0.721096 0.692835 0.000000
-10.052167 -10.207832 -0.528718 1295 0.721096 0.692835 0.000000
-10.052016 -10.207686 -0.524309 1301 0.721096 0.692835 0.000000
-10.052127 -10.207802 -0.519908 1297 0.721096 0.692835 0.000000
-10.052238 -10.207904 -0.515507 1293 0.721096 0.692835 0.000000
-10.052496 -10.208171 -0.511114 1291 0.721096 0.692835 0.000000
-10.052299 -10.207972 -0.506706 1293 0.721096 0.692835 0.000000
-10.051628 -10.207292 -0.502262 1285 0.721096 0.692835 0.000000
-10.051578 -10.207243 -0.497863 1285 0.721096 0.692835 0.000000
-10.052710 -10.208398 -0.493511 1291 0.721096 0.692835 0.000000
-10.053277 -10.208966 -0.489126 1291 0.721096 0.692835 0.000000
-10.052770 -10.208451 -0.484701 1293 0.721096 0.692835 0.000000
-10.052448 -10.208133 -0.480284 1301 0.721096 0.692835 0.000000
-10.052390 -10.208079 -0.475874 1297 0.721096 0.692835 0.000000
-10.052345 -10.208022 -0.471464 1289 0.721096 0.692835 0.000000
-10.052342 -10.208028 -0.467064 1297 0.721096 0.692835 0.000000
-10.052284 -10.207973 -0.462655 1297 0.721096 0.692835 0.000000
-10.052426 -10.208115 -0.458263 1295 0.721096 0.692835 0.000000
-10.052213 -10.207902 -0.453845 1291 0.721096 0.692835 0.000000
-10.051845 -10.207532 -0.449429 1287 0.721096 0.692835 0.000000
-10.052444 -10.208140 -0.445053 1299 0.721096 0.692835 0.000000
-10.052493 -10.208191 -0.440642 1299 0.721096 0.692835 0.000000
-10.051868 -10.207549 -0.436218 1295 0.721096 0.692835 0.000000
-10.051448 -10.207120 -0.431792 1303 0.721096 0.692835 0.000000
-10.051583 -10.207270 -0.427401 1293 0.721096 0.692835 0.000000
-10.051979 -10.207666 -0.423007 1299 0.721096 0.692835 0.000000
-10.051604 -10.207290 -0.418590 1295 0.721096 0.692835 0.000000
-10.051639 -10.207327 -0.414190 1297 0.721096 0.692835 0.000000
-10.052082 -10.207778 -0.409805 1307 0.721096 0.692835 0.000000
-10.052123 -10.207821 -0.405405 1307 0.721096 0.692835 0.000000
-10.051902 -10.207588 -0.400997 1303 0.721096 0.692835 0.000000
-10.052439 -10.208145 -0.396612 1301 0.721096 0.692835 0.000000
-10.052318 -10.208011 -0.392203 1295 0.721096 0.692835 0.000000
-10.051726 -10.207423 -0.387778 1285 0.721096 0.692835 0.000000
-10.051652 -10.207342 -0.383369 1295 0.721096 0.692835 0.000000
-10.051733 -10.207432 -0.378978 1295 0.721096 0.692835 0.000000
-10.051558 -10.207253 -0.374570 1291 0.721096 0.692835 0.000000
-10.051268 -10.206960 -0.370152 1289 0.721096 0.692835 0.000000
-10.051502 -10.207194 -0.365760 1285 0.721096 0.692835 0.000000
-10.051986 -10.207691 -0.361375 1291 0.721096 0.692835 0.000000
-10.051803 -10.207505 -0.356967 1289 0.721096 0.692835 0.000000
-10.051426 -10.207114 -0.352550 1295 0.721096 0.692835 0.000000
-10.051593 -10.207289 -0.348159 1291 0.721096 0.692835 0.000000
-10.051612 -10.207314 -0.343758 1289 0.721096 0.692835 0.000000
-10.051266 -10.206962 -0.339342 1289 0.721096 0.692835 0.000000
-10.051339 -10.207032 -0.334941 1295 0.721096 0.692835 0.000000
-10.051048 -10.206739 -0.330534 1289 0.721096 0.692835 0.000000
-10.051431 -10.207125 -0.326140 1295 0.721096 0.692835 0.000000
-10.051750 -10.207458 -0.321746 1299 0.721096 0.692835 0.000000
-10.051251 -10.206949 -0.317331 1305 0.721096 0.692835 0.000000
-10.051417 -10.207125 -0.312940 1311 0.721096 0.692835 0.000000
-10.051791 -10.207503 -0.308546 1303 0.721096 0.692835 0.000000
-10.051646 -10.207349 -0.304137 1307 0.721096 0.692835 0.000000
-10.050884 -10.206577 -0.299714 1297 0.721096 0.692835 0.000000
-10.055484 -10.204566 -0.687383 1307 0.721096 0.692835 0.000000
-10.055371 -10.204452 -0.682974 1301 0.721096 0.692835 0.000000
-10.055412 -10.204495 -0.678563 1297 0.721096 0.692835 0.000000
-10.055454 -10.204538 -0.674153 1301 0.721096 0.692835 0.000000
-10.054978 -10.204050 -0.669717 1299 0.721096 0.692835 0.000000
-10.054966 -10.204047 -0.665307 1307 0.721096 0.692835 0.000000
-10.055255 -10.204341 -0.660914 1305 0.721096 0.692835 0.000000
-10.055298 -10.204384 -0.656514 1293 0.721096 0.692835 0.000000
-10.055587 -10.204678 -0.652121 1295 0.721096 0.692835 0.000000
-10.055829 -10.204917 -0.647728 1301 0.721096 0.692835 0.000000
-10.055963 -10.205053 -0.643327 1313 0.721096 0.692835 0.000000
-10.055696 -10.204781 -0.638899 1301 0.721096 0.692835 0.000000
-10.055050 -10.204134 -0.634456 1297 0.721096 0.692835 0.000000
-10.054675 -10.203757 -0.630029 1297 0.721096 0.692835 0.000000
-10.054655 -10.203735 -0.625619 1289 0.721096 0.692835 0.000000
-10.055191 -10.204278 -0.621244 1305 0.721096 0.692835 0.000000
-10.055424 -10.204511 -0.616852 1293 0.721096 0.692835 0.000000
-10.055559 -10.204647 -0.612450 1299 0.721096 0.692835 0.000000
-10.055578 -10.204671 -0.608040 1297 0.721096 0.692835 0.000000
-10.055195 -10.204287 -0.603613 1297 0.721096 0.692835 0.000000
-10.055067 -10.204161 -0.599195 1287 0.721096 0.692835 0.000000
-10.055549 -10.204643 -0.594820 1299 0.721096 0.692835 0.000000
-10.056031 -10.205141 -0.590435 1303 0.721096 0.692835 0.000000
-10.056105 -10.205210 -0.586034 1307 0.721096 0.692835 0.000000
-10.055659 -10.204762 -0.581608 1301 0.721096 0.692835 0.000000
-10.055167 -10.204259 -0.577173 1289 0.721096 0.692835 0.000000
-10.055139 -10.204230 -0.572763 1293 0.721096 0.692835 0.000000
-10.055667 -10.204765 -0.568388 1311 0.721096 0.692835 0.000000
-10.055988 -10.205099 -0.563995 1309 0.721096 0.692835 0.000000
-10.055906 -10.205010 -0.559585 1299 0.721096 0.692835 0.000000
-10.055910 -10.205023 -0.555175 1299 0.721096 0.692835 0.000000
-10.055928 -10.205046 -0.550775 1301 0.721096 0.692835 0.000000
-10.055738 -10.204852 -0.546357 1299 0.721096 0.692835 0.000000
-10.055387 -10.204495 -0.541930 1301 0.721096 0.692835 0.000000
-10.055497 -10.204611 -0.537539 1309 0.721096 0.692835 0.000000
-10.055508 -10.204615 -0.533129 1303 0.721096 0.692835 0.000000
-10.055411 -10.204527 -0.528719 1301 0.721096 0.692835 0.000000
-10.055530 -10.204636 -0.524318 1295 0.721096 0.692835 0.000000
-10.055478 -10.204587 -0.519909 1297 0.721096 0.692835 0.000000
-10.055490 -10.204605 -0.515508 1295 0.721096 0.692835 0.000000
-10.055539 -10.204655 -0.511108 1295 0.721096 0.692835 0.000000
-10.055294 -10.204403 -0.506690 1291 0.721096 0.692835 0.000000
-10.055446 -10.204565 -0.502288 1281 0.721096 0.692835 0.000000
-10.055395 -10.204515 -0.497879 1283 0.721096 0.692835 0.000000
-10.055198 -10.204317 -0.493471 1295 0.721096 0.692835 0.000000
-10.055655 -10.204781 -0.489086 1303 0.721096 0.692835 0.000000
-10.056114 -10.205244 -0.484702 1301 0.721096 0.692835 0.000000
-10.056017 -10.205143 -0.480292 1303 0.721096 0.692835 0.000000
-10.055959 -10.205089 -0.475883 1307 0.721096 0.692835 0.000000
-10.055900 -10.205032 -0.471483 1297 0.721096 0.692835 0.000000
-10.055640 -10.204768 -0.467066 1295 0.721096 0.692835 0.000000
-10.055481 -10.204600 -0.462657 1297 0.721096 0.692835 0.000000
-10.055013 -10.204132 -0.458232 1289 0.721096 0.692835 0.000000
-10.055008 -10.204123 -0.453822 1293 0.721096 0.692835 0.000000
-10.055143 -10.204272 -0.449430 1295 0.721096 0.692835 0.000000
-10.055347 -10.204479 -0.445028 1301 0.721096 0.692835 0.000000
-10.055287 -10.204411 -0.440629 1291 0.721096 0.692835 0.000000
-10.054967 -10.204093 -0.436211 1295 0.721096 0.692835 0.000000
-10.054592 -10.203715 -0.431795 1297 0.721096 0.692835 0.000000
-10.054889 -10.204016 -0.427402 1291 0.721096 0.692835 0.000000
-10.055177 -10.204309 -0.423009 1301 0.721096 0.692835 0.000000
-10.054910 -10.204037 -0.418592 1305 0.721096 0.692835 0.000000
-10.054944 -10.204074 -0.414191 1303 0.721096 0.692835 0.000000
-10.055079 -10.204209 -0.409800 1301 0.721096 0.692835 0.000000
-10.055275 -10.204411 -0.405398 1301 0.721096 0.692835 0.000000
-10.055509 -10.204644 -0.401005 1295 0.721096 0.692835 0.000000
-10.055489 -10.204621 -0.396605 1293 0.721096 0.692835 0.000000
-10.055307 -10.204449 -0.392197 1295 0.721096 0.692835 0.000000
-10.054986 -10.204118 -0.387780 1305 0.721096 0.692835 0.000000
-10.055266 -10.204404 -0.383387 1295 0.721096 0.692835 0.000000
-10.055394 -10.204533 -0.378986 1289 0.721096 0.692835 0.000000
-10.055011 -10.204150 -0.374570 1299 0.721096 0.692835 0.000000
-10.055145 -10.204286 -0.370178 1291 0.721096 0.692835 0.000000
-10.055264 -10.204408 -0.365777 1291 0.721096 0.692835 0.000000
-10.055244 -10.204385 -0.361377 1297 0.721096 0.692835 0.000000
-10.055216 -10.204356 -0.356967 1285 0.721096 0.692835 0.000000
-10.055544 -10.204696 -0.352584 1295 0.721096 0.692835 0.000000
-10.055099 -10.204247 -0.348168 1291 0.721096 0.692835 0.000000
-10.054655 -10.203797 -0.343742 1295 0.721096 0.692835 0.000000
-10.054525 -10.203655 -0.339343 1293 0.721096 0.692835 0.000000
-10.054490 -10.203620 -0.334934 1295 0.721096 0.692835 0.000000
-10.054771 -10.203907 -0.330551 1301 0.721096 0.692835 0.000000
-10.054736 -10.203872 -0.326141 1303 0.721096 0.692835 0.000000
-10.054948 -10.204100 -0.321749 1297 0.721096 0.692835 0.000000
-10.055060 -10.204216 -0.317348 1301 0.721096 0.692835 0.000000
-10.055124 -10.204278 -0.312947 1299 0.721096 0.692835 0.000000
-10.055143 -10.204303 -0.308547 1301 0.721096 0.692835 0.000000
-10.054543 -10.203681 -0.304132 1295 0.721096 0.692835 0.000000
-10.054399 -10.203542 -0.299724 1295 0.721096 0.692835 0.000000
-10.058208 -10.201055 -0.687358 1299 0.721096 0.692835 0.000000
-10.058305 -10.201158 -0.682957 1303 0.721096 0.692835 0.000000
-10.058184 -10.201037 -0.678538 1301 0.721096 0.692835 0.000000
-10.058945 -10.201810 -0.674180 1311 0.721096 0.692835 0.000000
-10.058979 -10.201847 -0.669770 1311 0.721096 0.692835 0.000000
-10.058202 -10.201062 -0.665317 1293 0.721096 0.692835 0.000000
-10.058235 -10.201098 -0.660907 1295 0.721096 0.692835 0.000000
-10.058679 -10.201550 -0.656533 1297 0.721096 0.692835 0.000000
-10.058667 -10.201534 -0.652123 1297 0.721096 0.692835 0.000000
-10.058554 -10.201420 -0.647704 1307 0.721096 0.692835 0.000000
-10.058379 -10.201240 -0.643285 1309 0.721096 0.692835 0.000000
-10.058607 -10.201481 -0.638893 1299 0.721096 0.692835 0.000000
-10.058803 -10.201668 -0.634491 1307 0.721096 0.692835 0.000000
-10.058165 -10.201029 -0.630047 1297 0.721096 0.692835 0.000000
-10.058298 -10.201163 -0.625646 1299 0.721096 0.692835 0.000000
-10.058372 -10.201247 -0.621245 1301 0.721096 0.692835 0.000000
-10.058506 -10.201383 -0.616843 1303 0.721096 0.692835 0.000000
-10.058532 -10.201400 -0.612443 1299 0.721096 0.692835 0.000000
-10.058613 -10.201488 -0.608042 1309 0.721096 0.692835 0.000000
-10.058275 -10.201144 -0.603615 1303 0.721096 0.692835 0.000000
-10.058040 -10.200912 -0.599187 1289 0.721096 0.692835 0.000000
-10.058475 -10.201356 -0.594813 1301 0.721096 0.692835 0.000000
-10.059005 -10.201893 -0.590428 1313 0.721096 0.692835 0.000000
-10.059239 -10.202127 -0.586035 1315 0.721096 0.692835 0.000000
-10.058484 -10.201362 -0.581593 1299 0.721096 0.692835 0.000000
-10.058047 -10.200918 -0.577157 1299 0.721096 0.692835 0.000000
-10.058113 -10.200995 -0.572756 1301 0.721096 0.692835 0.000000
-10.058440 -10.201322 -0.568363 1301 0.721096 0.692835 0.000000
-10.058761 -10.201654 -0.563979 1301 0.721096 0.692835 0.000000
-10.058416 -10.201303 -0.559553 1293 0.721096 0.692835 0.000000
-10.058125 -10.201012 -0.555135 1301 0.721096 0.692835 0.000000
-10.057880 -10.200760 -0.550718 1297 0.721096 0.692835 0.000000
-10.058449 -10.201342 -0.546342 1303 0.721096 0.692835 0.000000
-10.058569 -10.201465 -0.541941 1301 0.721096 0.692835 0.000000
-10.058323 -10.201212 -0.537523 1301 0.721096 0.692835 0.000000
-10.058589 -10.201486 -0.533130 1291 0.721096 0.692835 0.000000
-10.058607 -10.201495 -0.528720 1291 0.721096 0.692835 0.000000
-10.058811 -10.201704 -0.524328 1303 0.721096 0.692835 0.000000
-10.058668 -10.201563 -0.519919 1299 0.721096 0.692835 0.000000
-10.058562 -10.201456 -0.515510 1293 0.721096 0.692835 0.000000
-10.059131 -10.202038 -0.511125 1295 0.721096 0.692835 0.000000
-10.059088 -10.201997 -0.506725 1297 0.721096 0.692835 0.000000
-10.058572 -10.201474 -0.502290 1299 0.721096 0.692835 0.000000
-10.057919 -10.200808 -0.497856 1287 0.721096 0.692835 0.000000
-10.058014 -10.200912 -0.493455 1299 0.721096 0.692835 0.000000
-10.058937 -10.201849 -0.489096 1299 0.721096 0.692835 0.000000
-10.058987 -10.201899 -0.484695 1299 0.721096 0.692835 0.000000
-10.058271 -10.201165 -0.480252 1291 0.721096 0.692835 0.000000
-10.058065 -10.200960 -0.475844 1303 0.721096 0.692835 0.000000
-10.057798 -10.200701 -0.471427 1289 0.721096 0.692835 0.000000
-10.058104 -10.201008 -0.467034 1279 0.721096 0.692835 0.000000
-10.058508 -10.201412 -0.462649 1297 0.721096 0.692835 0.000000
-10.058194 -10.201101 -0.458232 1295 0.721096 0.692835 0.000000
-10.058283 -10.201198 -0.453831 1303 0.721096 0.692835 0.000000
-10.058124 -10.201031 -0.449423 1289 0.721096 0.692835 0.000000
-10.058058 -10.200969 -0.445013 1287 0.721096 0.692835 0.000000
-10.058409 -10.201328 -0.440630 1295 0.721096 0.692835 0.000000
-10.058249 -10.201160 -0.436221 1295 0.721096 0.692835 0.000000
-10.057827 -10.200730 -0.431795 1283 0.721096 0.692835 0.000000
-10.058580 -10.201497 -0.427428 1291 0.721096 0.692835 0.000000
-10.058815 -10.201746 -0.423035 1299 0.721096 0.692835 0.000000
-10.058139 -10.201059 -0.418602 1305 0.721096 0.692835 0.000000
-10.057662 -10.200569 -0.414177 1303 0.721096 0.692835 0.000000
-10.057433 -10.200344 -0.409769 1287 0.721096 0.692835 0.000000
-10.057730 -10.200644 -0.405376 1287 0.721096 0.692835 0.000000
-10.058329 -10.201253 -0.401000 1299 0.721096 0.692835 0.000000
-10.058657 -10.201591 -0.396606 1291 0.721096 0.692835 0.000000
-10.058644 -10.201576 -0.392206 1295 0.721096 0.692835 0.000000
-10.058577 -10.201501 -0.387797 1295 0.721096 0.692835 0.000000
-10.058141 -10.201073 -0.383381 1293 0.721096 0.692835 0.000000
-10.057959 -10.200886 -0.378973 1305 0.721096 0.692835 0.000000
-10.058239 -10.201173 -0.374580 1305 0.721096 0.692835 0.000000
-10.058421 -10.201361 -0.370178 1295 0.721096 0.692835 0.000000
-10.058500 -10.201436 -0.365787 1297 0.721096 0.692835 0.000000
-10.058218 -10.201151 -0.361370 1291 0.721096 0.692835 0.000000
-10.058183 -10.201117 -0.356970 1295 0.721096 0.692835 0.000000
-10.058054 -10.200989 -0.352561 1285 0.721096 0.692835 0.000000
-10.057864 -10.200795 -0.348153 1285 0.721096 0.692835 0.000000
-10.058508 -10.201443 -0.343777 1291 0.721096 0.692835 0.000000
-10.058264 -10.201204 -0.339359 1293 0.721096 0.692835 0.000000
-10.057518 -10.200446 -0.334936 1291 0.721096 0.692835 0.000000
-10.058249 -10.201193 -0.330559 1299 0.721096 0.692835 0.000000
-10.058522 -10.201473 -0.326166 1301 0.721096 0.692835 0.000000
-10.058586 -10.201535 -0.321765 1295 0.721096 0.692835 0.000000
-10.058404 -10.201349 -0.317357 1301 0.721096 0.692835 0.000000
-10.057789 -10.200729 -0.312943 1297 0.721096 0.692835 0.000000
-10.057801 -10.200747 -0.308542 1295 0.721096 0.692835 0.000000
-10.057408 -10.200343 -0.304126 1301 0.721096 0.692835 0.000000
-10.057266 -10.200203 -0.299718 1295 0.721096 0.692835 0.000000
-10.061217 -10.199229 -0.687403 1303 0.721096 0.692835 0.000000
-10.061145 -10.199162 -0.682984 1317 0.721096 0.692835 0.000000
-10.061139 -10.199153 -0.678574 1313 0.721096 0.692835 0.000000
-10.060973 -10.198993 -0.674155 1305 0.721096 0.692835 0.000000
-10.060759 -10.198766 -0.669728 1299 0.721096 0.692835 0.000000
-10.060283 -10.198290 -0.665292 1291 0.721096 0.692835 0.000000
-10.060579 -10.198589 -0.660899 1309 0.721096 0.692835 0.000000
-10.061278 -10.199297 -0.656542 1313 0.721096 0.692835 0.000000
-10.061313 -10.199335 -0.652132 1307 0.721096 0.692835 0.000000
-10.061238 -10.199266 -0.647722 1305 0.721096 0.692835 0.000000
-10.061179 -10.199197 -0.643313 1299 0.721096 0.692835 0.000000
-10.060951 -10.198972 -0.638885 1303 0.721096 0.692835 0.000000
-10.061093 -10.199113 -0.634483 1309 0.721096 0.692835 0.000000
-10.060757 -10.198784 -0.630057 1305 0.721096 0.692835 0.000000
-10.060837 -10.198859 -0.625656 1301 0.721096 0.692835 0.000000
-10.061226 -10.199251 -0.621272 1301 0.721096 0.692835 0.000000
-10.060951 -10.198972 -0.616844 1297 0.721096 0.692835 0.000000
-10.060917 -10.198950 -0.612434 1293 0.721096 0.692835 0.000000
-10.061359 -10.199388 -0.608060 1299 0.721096 0.692835 0.000000
-10.061333 -10.199373 -0.603650 1309 0.721096 0.692835 0.000000
-10.060638 -10.198660 -0.599197 1303 0.721096 0.692835 0.000000
-10.060503 -10.198525 -0.594788 1297 0.721096 0.692835 0.000000
-10.061302 -10.199331 -0.590420 1301 0.721096 0.692835 0.000000
-10.061368 -10.199408 -0.586019 1297 0.721096 0.692835 0.000000
-10.060822 -10.198861 -0.581585 1297 0.721096 0.692835 0.000000
-10.060640 -10.198674 -0.577166 1299 0.721096 0.692835 0.000000
-10.060914 -10.198955 -0.572774 1299 0.721096 0.692835 0.000000
-10.061387 -10.199430 -0.568399 1305 0.721096 0.692835 0.000000
-10.061560 -10.199598 -0.563997 1305 0.721096 0.692835 0.000000
-10.061007 -10.199044 -0.559562 1293 0.721096 0.692835 0.000000
-10.061079 -10.199113 -0.555162 1295 0.721096 0.692835 0.000000
-10.060836 -10.198875 -0.550744 1285 0.721096 0.692835 0.000000
-10.060538 -10.198577 -0.546317 1295 0.721096 0.692835 0.000000
-10.060650 -10.198693 -0.541925 1299 0.721096 0.692835 0.000000
-10.061076 -10.199117 -0.537541 1307 0.721096 0.692835 0.000000
-10.061382 -10.199437 -0.533148 1307 0.721096 0.692835 0.000000
-10.061447 -10.199500 -0.528747 1307 0.721096 0.692835 0.000000
-10.061249 -10.199301 -0.524329 1299 0.721096 0.692835 0.000000
-10.061159 -10.199205 -0.519920 1303 0.721096 0.692835 0.000000
-10.061155 -10.199210 -0.515520 1305 0.721096 0.692835 0.000000
-10.061019 -10.199062 -0.511101 1289 0.721096 0.692835 0.000000
-10.061378 -10.199429 -0.506717 1295 0.721096 0.692835 0.000000
-10.061434 -10.199484 -0.502317 1299 0.721096 0.692835 0.000000
-10.060665 -10.198706 -0.497874 1297 0.721096 0.692835 0.000000
-10.060660 -10.198710 -0.493464 1299 0.721096 0.692835 0.000000
-10.061080 -10.199128 -0.489080 1295 0.721096 0.692835 0.000000
-10.061331 -10.199389 -0.484687 1291 0.721096 0.692835 0.000000
-10.061374 -10.199432 -0.480287 1303 0.721096 0.692835 0.000000
-10.061330 -10.199390 -0.475877 1301 0.721096 0.692835 0.000000
-10.061062 -10.199118 -0.471460 1299 0.721096 0.692835 0.000000
-10.060749 -10.198808 -0.467043 1289 0.721096 0.692835 0.000000
-10.060698 -10.198745 -0.462643 1285 0.721096 0.692835 0.000000
-10.060841 -10.198902 -0.458241 1283 0.721096 0.692835 0.000000
-10.061291 -10.199358 -0.453857 1289 0.721096 0.692835 0.000000
-10.060985 -10.199040 -0.449440 1289 0.721096 0.692835 0.000000
-10.060657 -10.198716 -0.445023 1281 0.721096 0.692835 0.000000
-10.060543 -10.198601 -0.440614 1283 0.721096 0.692835 0.000000
-10.059921 -10.197975 -0.436190 1287 0.721096 0.692835 0.000000
-10.060171 -10.198221 -0.431797 1285 0.721096 0.692835 0.000000
-10.060507 -10.198568 -0.427404 1291 0.721096 0.692835 0.000000
-10.059977 -10.198033 -0.422979 1285 0.721096 0.692835 0.000000
-10.060173 -10.198235 -0.418587 1293 0.721096 0.692835 0.000000
-10.060462 -10.198527 -0.414194 1305 0.721096 0.692835 0.000000
-10.060394 -10.198452 -0.409785 1299 0.721096 0.692835 0.000000
-10.060274 -10.198331 -0.405376 1295 0.721096 0.692835 0.000000
-10.060154 -10.198211 -0.400977 1293 0.721096 0.692835 0.000000
-10.060344 -10.198405 -0.396575 1293 0.721096 0.692835 0.000000
-10.060369 -10.198436 -0.392174 1285 0.721096 0.692835 0.000000
-10.060551 -10.198625 -0.387783 1295 0.721096 0.692835 0.000000
-10.060731 -10.198799 -0.383381 1299 0.721096 0.692835 0.000000
-10.060248 -10.198317 -0.378965 1301 0.721096 0.692835 0.000000
-10.059772 -10.197827 -0.374550 1293 0.721096 0.692835 0.000000
-10.059845 -10.197911 -0.370149 1287 0.721096 0.692835 0.000000
-10.060172 -10.198236 -0.365756 1289 0.721096 0.692835 0.000000
-10.060353 -10.198425 -0.361364 1291 0.721096 0.692835 0.000000
-10.060626 -10.198706 -0.356971 1303 0.721096 0.692835 0.000000
-10.061063 -10.199150 -0.352577 1299 0.721096 0.692835 0.000000
-10.061190 -10.199279 -0.348185 1297 0.721096 0.692835 0.000000
-10.061000 -10.199085 -0.343777 1295 0.721096 0.692835 0.000000
-10.060809 -10.198893 -0.339369 1297 0.721096 0.692835 0.000000
-10.060674 -10.198759 -0.334960 1301 0.721096 0.692835 0.000000
-10.060437 -10.198512 -0.330552 1297 0.721096 0.692835 0.000000
-10.060819 -10.198897 -0.326158 1305 0.721096 0.692835 0.000000
-10.060675 -10.198756 -0.321760 1305 0.721096 0.692835 0.000000
-10.060639 -10.198722 -0.317350 1297 0.721096 0.692835 0.000000
-10.060759 -10.198844 -0.312959 1305 0.721096 0.692835 0.000000
-10.060251 -10.198329 -0.308544 1295 0.721096 0.692835 0.000000
-10.060108 -10.198189 -0.304135 1295 0.721096 0.692835 0.000000
-10.059911 -10.197989 -0.299727 1305 0.721096 0.692835 0.000000
-10.064886 -10.194670 -0.687370 1299 0.721096 0.692835 0.000000
-10.064828 -10.194614 -0.682960 1309 0.721096 0.692835 0.000000
-10.064822 -10.194606 -0.678550 1311 0.721096 0.692835 0.000000
-10.065012 -10.194800 -0.674148 1311 0.721096 0.692835 0.000000
-10.065201 -10.194995 -0.669756 1313 0.721096 0.692835 0.000000
-10.065243 -10.195038 -0.665346 1305 0.721096 0.692835 0.000000
-10.064920 -10.194708 -0.660919 1305 0.721096 0.692835 0.000000
-10.064954 -10.194744 -0.656508 1307 0.721096 0.692835 0.000000
-10.065506 -10.195300 -0.652143 1309 0.721096 0.692835 0.000000
-10.065540 -10.195337 -0.647732 1313 0.721096 0.692835 0.000000
-10.065372 -10.195162 -0.643314 1309 0.721096 0.692835 0.000000
-10.065299 -10.195095 -0.638905 1311 0.721096 0.692835 0.000000
-10.065016 -10.194810 -0.634477 1313 0.721096 0.692835 0.000000
-10.064788 -10.194585 -0.630049 1303 0.721096 0.692835 0.000000
-10.065392 -10.195186 -0.625683 1309 0.721096 0.692835 0.000000
-10.065211 -10.195013 -0.621265 1295 0.721096 0.692835 0.000000
-10.064364 -10.194156 -0.616803 1291 0.721096 0.692835 0.000000
-10.064244 -10.194035 -0.612394 1295 0.721096 0.692835 0.000000
-10.064927 -10.194730 -0.608027 1301 0.721096 0.692835 0.000000
-10.064860 -10.194654 -0.603618 1295 0.721096 0.692835 0.000000
-10.065033 -10.194836 -0.599216 1303 0.721096 0.692835 0.000000
-10.065670 -10.195477 -0.594850 1303 0.721096 0.692835 0.000000
-10.065851 -10.195665 -0.590448 1305 0.721096 0.692835 0.000000
-10.065407 -10.195215 -0.586022 1297 0.721096 0.692835 0.000000
-10.065168 -10.194970 -0.581594 1297 0.721096 0.692835 0.000000
-10.065034 -10.194837 -0.577186 1299 0.721096 0.692835 0.000000
-10.065261 -10.195064 -0.572793 1301 0.721096 0.692835 0.000000
-10.065481 -10.195298 -0.568391 1299 0.721096 0.692835 0.000000
-10.064874 -10.194684 -0.563957 1299 0.721096 0.692835 0.000000
-10.064993 -10.194807 -0.559556 1293 0.721096 0.692835 0.000000
-10.065064 -10.194876 -0.555155 1293 0.721096 0.692835 0.000000
-10.064720 -10.194526 -0.550728 1285 0.721096 0.692835 0.000000
-10.065503 -10.195318 -0.546370 1309 0.721096 0.692835 0.000000
-10.065723 -10.195539 -0.541968 1307 0.721096 0.692835 0.000000
-10.065370 -10.195181 -0.537551 1297 0.721096 0.692835 0.000000
-10.065273 -10.195094 -0.533132 1299 0.721096 0.692835 0.000000
-10.065331 -10.195149 -0.528732 1289 0.721096 0.692835 0.000000
-10.065551 -10.195371 -0.524339 1295 0.721096 0.692835 0.000000
-10.065042 -10.194855 -0.519904 1301 0.721096 0.692835 0.000000
-10.064837 -10.194650 -0.515496 1303 0.721096 0.692835 0.000000
-10.064903 -10.194713 -0.511095 1307 0.721096 0.692835 0.000000
-10.064443 -10.194250 -0.506660 1289 0.721096 0.692835 0.000000
-10.064955 -10.194773 -0.502285 1293 0.721096 0.692835 0.000000
-10.065684 -10.195507 -0.497917 1297 0.721096 0.692835 0.000000
-10.065209 -10.195031 -0.493492 1295 0.721096 0.692835 0.000000
-10.064810 -10.194620 -0.489066 1287 0.721096 0.692835 0.000000
-10.064853 -10.194678 -0.484665 1295 0.721096 0.692835 0.000000
-10.064554 -10.194366 -0.480248 1297 0.721096 0.692835 0.000000
-10.065207 -10.195035 -0.475871 1295 0.721096 0.692835 0.000000
-10.065565 -10.195399 -0.471478 1285 0.721096 0.692835 0.000000
-10.065150 -10.194977 -0.467062 1289 0.721096 0.692835 0.000000
-10.065045 -10.194868 -0.462653 1291 0.721096 0.692835 0.000000
-10.064979 -10.194808 -0.458243 1295 0.721096 0.692835 0.000000
-10.064874 -10.194699 -0.453834 1285 0.721096 0.692835 0.000000
-10.064661 -10.194488 -0.449426 1283 0.721096 0.692835 0.000000
-10.064803 -10.194629 -0.445025 1297 0.721096 0.692835 0.000000
-10.065261 -10.195093 -0.440640 1293 0.721096 0.692835 0.000000
-10.065088 -10.194926 -0.436232 1299 0.721096 0.692835 0.000000
-10.064404 -10.194233 -0.431798 1305 0.721096 0.692835 0.000000
-10.064034 -10.193850 -0.427382 1301 0.721096 0.692835 0.000000
-10.064279 -10.194103 -0.422989 1293 0.721096 0.692835 0.000000
-10.064265 -10.194088 -0.418579 1289 0.721096 0.692835 0.000000
-10.063890 -10.193710 -0.414163 1295 0.721096 0.692835 0.000000
-10.063816 -10.193644 -0.409763 1293 0.721096 0.692835 0.000000
-10.064058 -10.193883 -0.405371 1295 0.721096 0.692835 0.000000
-10.064657 -10.194492 -0.400985 1299 0.721096 0.692835 0.000000
-10.064792 -10.194627 -0.396594 1287 0.721096 0.692835 0.000000
-10.064972 -10.194816 -0.392192 1295 0.721096 0.692835 0.000000
-10.065214 -10.195056 -0.387799 1305 0.721096 0.692835 0.000000
-10.064623 -10.194455 -0.383375 1301 0.721096 0.692835 0.000000
-10.063931 -10.193756 -0.378952 1289 0.721096 0.692835 0.000000
-10.063957 -10.193787 -0.374551 1291 0.721096 0.692835 0.000000
-10.063984 -10.193817 -0.370151 1295 0.721096 0.692835 0.000000
-10.064420 -10.194263 -0.365766 1293 0.721096 0.692835 0.000000
-10.064693 -10.194542 -0.361374 1297 0.721096 0.692835 0.000000
-10.064464 -10.194302 -0.356956 1289 0.721096 0.692835 0.000000
-10.064845 -10.194687 -0.352572 1303 0.721096 0.692835 0.000000
-10.064818 -10.194659 -0.348172 1297 0.721096 0.692835 0.000000
-10.064528 -10.194366 -0.343755 1293 0.721096 0.692835 0.000000
-10.064438 -10.194285 -0.339356 1301 0.721096 0.692835 0.000000
-10.064464 -10.194303 -0.334955 1297 0.721096 0.692835 0.000000
-10.064328 -10.194168 -0.330546 1287 0.721096 0.692835 0.000000
-10.063775 -10.193615 -0.326122 1281 0.721096 0.692835 0.000000
-10.063740 -10.193580 -0.321722 1287 0.721096 0.692835 0.000000
-10.064115 -10.193958 -0.317338 1297 0.721096 0.692835 0.000000
-10.064797 -10.194652 -0.312951 1299 0.721096 0.692835 0.000000
-10.064862 -10.194715 -0.308551 1299 0.721096 0.692835 0.000000
-10.064255 -10.194101 -0.304137 1289 0.721096 0.692835 0.000000
-10.064158 -10.194015 -0.299727 1293 0.721096 0.692835 0.000000
-10.068049 -10.191754 -0.687380 1297 0.721096 0.692835 0.000000
-10.067736 -10.191443 -0.682943 1299 0.721096 0.692835 0.000000
-10.068187 -10.191901 -0.678568 1305 0.721096 0.692835 0.000000
-10.068477 -10.192194 -0.674176 1299 0.721096 0.692835 0.000000
-10.068363 -10.192080 -0.669767 1307 0.721096 0.692835 0.000000
-10.068196 -10.191906 -0.665338 1305 0.721096 0.692835 0.000000
-10.068028 -10.191732 -0.660920 1307 0.721096 0.692835 0.000000
-10.068582 -10.192302 -0.656554 1313 0.721096 0.692835 0.000000
-10.068871 -10.192595 -0.652161 1309 0.721096 0.692835 0.000000
-10.068548 -10.192264 -0.647734 1303 0.721096 0.692835 0.000000
-10.068328 -10.192044 -0.643306 1303 0.721096 0.692835 0.000000
-10.067945 -10.191661 -0.638880 1307 0.721096 0.692835 0.000000
-10.067777 -10.191487 -0.634461 1303 0.721096 0.692835 0.000000
-10.068314 -10.192030 -0.630086 1307 0.721096 0.692835 0.000000
-10.068448 -10.192165 -0.625685 1307 0.721096 0.692835 0.000000
-10.068428 -10.192143 -0.621275 1299 0.721096 0.692835 0.000000
-10.068561 -10.192278 -0.616873 1299 0.721096 0.692835 0.000000
-10.068272 -10.192000 -0.612446 1305 0.721096 0.692835 0.000000
-10.067888 -10.191603 -0.608020 1301 0.721096 0.692835 0.000000
-10.068170 -10.191890 -0.603627 1297 0.721096 0.692835 0.000000
-10.068713 -10.192439 -0.599251 1303 0.721096 0.692835 0.000000
-10.068833 -10.192562 -0.594850 1303 0.721096 0.692835 0.000000
-10.068597 -10.192329 -0.590432 1293 0.721096 0.692835 0.000000
-10.068213 -10.191932 -0.586006 1303 0.721096 0.692835 0.000000
-10.067869 -10.191595 -0.581579 1291 0.721096 0.692835 0.000000
-10.068089 -10.191815 -0.577187 1301 0.721096 0.692835 0.000000
-10.068362 -10.192096 -0.572794 1303 0.721096 0.692835 0.000000
-10.067924 -10.191652 -0.568358 1295 0.721096 0.692835 0.000000
-10.067997 -10.191722 -0.563958 1299 0.721096 0.692835 0.000000
-10.068311 -10.192049 -0.559574 1289 0.721096 0.692835 0.000000
-10.068590 -10.192322 -0.555182 1299 0.721096 0.692835 0.000000
-10.068547 -10.192280 -0.550772 1301 0.721096 0.692835 0.000000
-10.067994 -10.191725 -0.546337 1293 0.721096 0.692835 0.000000
-10.067952 -10.191684 -0.541927 1293 0.721096 0.692835 0.000000
-10.068278 -10.192009 -0.537544 1291 0.721096 0.692835 0.000000
-10.068234 -10.191967 -0.533134 1291 0.721096 0.692835 0.000000
-10.068139 -10.191879 -0.528725 1299 0.721096 0.692835 0.000000
-10.067894 -10.191628 -0.524308 1301 0.721096 0.692835 0.000000
-10.068253 -10.191993 -0.519914 1295 0.721096 0.692835 0.000000
-10.068827 -10.192569 -0.515538 1293 0.721096 0.692835 0.000000
-10.068622 -10.192362 -0.511130 1293 0.721096 0.692835 0.000000
-10.068424 -10.192163 -0.506712 1297 0.721096 0.692835 0.000000
-10.068583 -10.192331 -0.502310 1295 0.721096 0.692835 0.000000
-10.068532 -10.192284 -0.497911 1299 0.721096 0.692835 0.000000
-10.067553 -10.191288 -0.493460 1289 0.721096 0.692835 0.000000
-10.067348 -10.191081 -0.489042 1297 0.721096 0.692835 0.000000
-10.067753 -10.191501 -0.484658 1289 0.721096 0.692835 0.000000
-10.067709 -10.191443 -0.480248 1293 0.721096 0.692835 0.000000
-10.067442 -10.191186 -0.475831 1289 0.721096 0.692835 0.000000
-10.067747 -10.191492 -0.471448 1295 0.721096 0.692835 0.000000
-10.067849 -10.191587 -0.467047 1295 0.721096 0.692835 0.000000
-10.067482 -10.191216 -0.462620 1291 0.721096 0.692835 0.000000
-10.067423 -10.191162 -0.458221 1289 0.721096 0.692835 0.000000
-10.067929 -10.191679 -0.453835 1291 0.721096 0.692835 0.000000
-10.068380 -10.192137 -0.449451 1293 0.721096 0.692835 0.000000
-10.068430 -10.192186 -0.445050 1299 0.721096 0.692835 0.000000
-10.067946 -10.191705 -0.440625 1289 0.721096 0.692835 0.000000
-10.067679 -10.191433 -0.436208 1303 0.721096 0.692835 0.000000
-10.067311 -10.191062 -0.431791 1301 0.721096 0.692835 0.000000
-10.067398 -10.191145 -0.427390 1299 0.721096 0.692835 0.000000
-10.067857 -10.191607 -0.423005 1311 0.721096 0.692835 0.000000
-10.068093 -10.191856 -0.418613 1305 0.721096 0.692835 0.000000
-10.068181 -10.191938 -0.414212 1297 0.721096 0.692835 0.000000
-10.068061 -10.191818 -0.409813 1283 0.721096 0.692835 0.000000
-10.068048 -10.191801 -0.405403 1291 0.721096 0.692835 0.000000
-10.067866 -10.191629 -0.400995 1303 0.721096 0.692835 0.000000
-10.067800 -10.191553 -0.396595 1303 0.721096 0.692835 0.000000
-10.067980 -10.191742 -0.392193 1307 0.721096 0.692835 0.000000
-10.067490 -10.191254 -0.387778 1301 0.721096 0.692835 0.000000
-10.067268 -10.191021 -0.383360 1287 0.721096 0.692835 0.000000
-10.067760 -10.191525 -0.378975 1303 0.721096 0.692835 0.000000
-10.067784 -10.191556 -0.374575 1299 0.721096 0.692835 0.000000
-10.067865 -10.191631 -0.370174 1291 0.721096 0.692835 0.000000
-10.067629 -10.191400 -0.365766 1297 0.721096 0.692835 0.000000
-10.067655 -10.191416 -0.361366 1295 0.721096 0.692835 0.000000
-10.067518 -10.191281 -0.356957 1291 0.721096 0.692835 0.000000
-10.067081 -10.190839 -0.352541 1291 0.721096 0.692835 0.000000
-10.067511 -10.191277 -0.348157 1291 0.721096 0.692835 0.000000
-10.067784 -10.191557 -0.343764 1291 0.721096 0.692835 0.000000
-10.067648 -10.191423 -0.339355 1293 0.721096 0.692835 0.000000
-10.067620 -10.191395 -0.334956 1293 0.721096 0.692835 0.000000
-10.067693 -10.191463 -0.330555 1297 0.721096 0.692835 0.000000
-10.067093 -10.190857 -0.326141 1297 0.721096 0.692835 0.000000
-10.066795 -10.190558 -0.321723 1295 0.721096 0.692835 0.000000
-10.067277 -10.191043 -0.317339 1297 0.721096 0.692835 0.000000
-10.067496 -10.191263 -0.312946 1305 0.721096 0.692835 0.000000
-10.067762 -10.191537 -0.308554 1309 0.721096 0.692835 0.000000
-10.067356 -10.191133 -0.304137 1293 0.721096 0.692835 0.000000
-10.066710 -10.190475 -0.299724 1285 0.721096 0.692835 0.000000
-10.071093 -10.188856 -0.687381 1305 0.721096 0.692835 0.000000
-10.070880 -10.188643 -0.682963 1301 0.721096 0.692835 0.000000
-10.071021 -10.188785 -0.678561 1307 0.721096 0.692835 0.000000
-10.071211 -10.188979 -0.674159 1311 0.721096 0.692835 0.000000
-10.071152 -10.188925 -0.669750 1311 0.721096 0.692835 0.000000
-10.070829 -10.188593 -0.665323 1311 0.721096 0.692835 0.000000
-10.070501 -10.188269 -0.660896 1297 0.721096 0.692835 0.000000
-10.070690 -10.188464 -0.656494 1299 0.721096 0.692835 0.000000
-10.071040 -10.188808 -0.652110 1305 0.721096 0.692835 0.000000
-10.071181 -10.188951 -0.647709 1307 0.721096 0.692835 0.000000
-10.070947 -10.188718 -0.643291 1299 0.721096 0.692835 0.000000
-10.070625 -10.188401 -0.638854 1305 0.721096 0.692835 0.000000
-10.070759 -10.188536 -0.634463 1305 0.721096 0.692835 0.000000
-10.071202 -10.188973 -0.630078 1299 0.721096 0.692835 0.000000
-10.071237 -10.189011 -0.625668 1295 0.721096 0.692835 0.000000
-10.071773 -10.189553 -0.621293 1303 0.721096 0.692835 0.000000
-10.071652 -10.189432 -0.616884 1301 0.721096 0.692835 0.000000
-10.071161 -10.188945 -0.612448 1303 0.721096 0.692835 0.000000
-10.071087 -10.188862 -0.608029 1299 0.721096 0.692835 0.000000
-10.070997 -10.188781 -0.603620 1297 0.721096 0.692835 0.000000
-10.071341 -10.189120 -0.599236 1309 0.721096 0.692835 0.000000
-10.071513 -10.189301 -0.594834 1315 0.721096 0.692835 0.000000
-10.071231 -10.189016 -0.590417 1293 0.721096 0.692835 0.000000
-10.071148 -10.188928 -0.585998 1299 0.721096 0.692835 0.000000
-10.071369 -10.189163 -0.581605 1303 0.721096 0.692835 0.000000
-10.071334 -10.189128 -0.577196 1311 0.721096 0.692835 0.000000
-10.071043 -10.188836 -0.572778 1311 0.721096 0.692835 0.000000
-10.071378 -10.189168 -0.568385 1319 0.721096 0.692835 0.000000
-10.071589 -10.189383 -0.563993 1305 0.721096 0.692835 0.000000
-10.071153 -10.188939 -0.559567 1293 0.721096 0.692835 0.000000
-10.071055 -10.188851 -0.555158 1309 0.721096 0.692835 0.000000
-10.071020 -10.188817 -0.550748 1303 0.721096 0.692835 0.000000
-10.070728 -10.188511 -0.546321 1299 0.721096 0.692835 0.000000
-10.071304 -10.189101 -0.541945 1293 0.721096 0.692835 0.000000
-10.071468 -10.189261 -0.537553 1301 0.721096 0.692835 0.000000
-10.071063 -10.188859 -0.533127 1289 0.721096 0.692835 0.000000
-10.070711 -10.188501 -0.528701 1301 0.721096 0.692835 0.000000
-10.070722 -10.188519 -0.524300 1299 0.721096 0.692835 0.000000
-10.070879 -10.188674 -0.519899 1303 0.721096 0.692835 0.000000
-10.070789 -10.188579 -0.515490 1301 0.721096 0.692835 0.000000
-10.070685 -10.188485 -0.511080 1301 0.721096 0.692835 0.000000
-10.070540 -10.188331 -0.506672 1297 0.721096 0.692835 0.000000
-10.071100 -10.188907 -0.502296 1307 0.721096 0.692835 0.000000
-10.071305 -10.189115 -0.497894 1295 0.721096 0.692835 0.000000
-10.070751 -10.188547 -0.493469 1301 0.721096 0.692835 0.000000
-10.070330 -10.188130 -0.489043 1299 0.721096 0.692835 0.000000
-10.070125 -10.187925 -0.484625 1289 0.721096 0.692835 0.000000
-10.070436 -10.188237 -0.480242 1293 0.721096 0.692835 0.000000
-10.070895 -10.188702 -0.475857 1297 0.721096 0.692835 0.000000
-10.071306 -10.189112 -0.471473 1295 0.721096 0.692835 0.000000
-10.071450 -10.189268 -0.467072 1289 0.721096 0.692835 0.000000
-10.070426 -10.188220 -0.462622 1285 0.721096 0.692835 0.000000
-10.070151 -10.187955 -0.458204 1295 0.721096 0.692835 0.000000
-10.070610 -10.188419 -0.453820 1297 0.721096 0.692835 0.000000
-10.070234 -10.188042 -0.449403 1291 0.721096 0.692835 0.000000
-10.070283 -10.188092 -0.445003 1291 0.721096 0.692835 0.000000
-10.071090 -10.188905 -0.440635 1293 0.721096 0.692835 0.000000
-10.071394 -10.189210 -0.436242 1297 0.721096 0.692835 0.000000
-10.071119 -10.188931 -0.431824 1301 0.721096 0.692835 0.000000
-10.070644 -10.188457 -0.427409 1293 0.721096 0.692835 0.000000
-10.070940 -10.188756 -0.423016 1311 0.721096 0.692835 0.000000
-10.071284 -10.189109 -0.418622 1307 0.721096 0.692835 0.000000
-10.071681 -10.189507 -0.414238 1303 0.721096 0.692835 0.000000
-10.071152 -10.188972 -0.409813 1295 0.721096 0.692835 0.000000
-10.070721 -10.188535 -0.405398 1289 0.721096 0.692835 0.000000
-10.070346 -10.188159 -0.400981 1299 0.721096 0.692835 0.000000
-10.069654 -10.187460 -0.396548 1297 0.721096 0.692835 0.000000
-10.070197 -10.188009 -0.392162 1301 0.721096 0.692835 0.000000
-10.070895 -10.188716 -0.387795 1297 0.721096 0.692835 0.000000
-10.070514 -10.188334 -0.383379 1297 0.721096 0.692835 0.000000
-10.070076 -10.187890 -0.378953 1301 0.721096 0.692835 0.000000
-10.070564 -10.188380 -0.374568 1301 0.721096 0.692835 0.000000
-10.070793 -10.188621 -0.370176 1297 0.721096 0.692835 0.000000
-10.070356 -10.188178 -0.365760 1297 0.721096 0.692835 0.000000
-10.070229 -10.188051 -0.361351 1291 0.721096 0.692835 0.000000
-10.070261 -10.188073 -0.356951 1289 0.721096 0.692835 0.000000
-10.069871 -10.187684 -0.352535 1279 0.721096 0.692835 0.000000
-10.069989 -10.187806 -0.348143 1283 0.721096 0.692835 0.000000
-10.070216 -10.188033 -0.343751 1287 0.721096 0.692835 0.000000
-10.070390 -10.188215 -0.339349 1305 0.721096 0.692835 0.000000
-10.070045 -10.187865 -0.334942 1299 0.721096 0.692835 0.000000
-10.070018 -10.187836 -0.330533 1285 0.721096 0.692835 0.000000
-10.070384 -10.188208 -0.326149 1297 0.721096 0.692835 0.000000
-10.069993 -10.187818 -0.321733 1297 0.721096 0.692835 0.000000
-10.069950 -10.187777 -0.317333 1289 0.721096 0.692835 0.000000
-10.070177 -10.188003 -0.312940 1297 0.721096 0.692835 0.000000
-10.070133 -10.187962 -0.308531 1295 0.721096 0.692835 0.000000
-10.069889 -10.187709 -0.304123 1295 0.721096 0.692835 0.000000
-10.069793 -10.187621 -0.299724 1299 0.721096 0.692835 0.000000
-10.074402 -10.186091 -0.687400 1303 0.721096 0.692835 0.000000
-10.074854 -10.186549 -0.683025 1305 0.721096 0.692835 0.000000
-10.074588 -10.186292 -0.678598 1309 0.721096 0.692835 0.000000
-10.074003 -10.185697 -0.674143 1309 0.721096 0.692835 0.000000
-10.074362 -10.186063 -0.669760 1309 0.721096 0.692835 0.000000
-10.074704 -10.186400 -0.665376 1315 0.721096 0.692835 0.000000
-10.074121 -10.185821 -0.660932 1297 0.721096 0.692835 0.000000
-10.074116 -10.185811 -0.656522 1305 0.721096 0.692835 0.000000
-10.073787 -10.185487 -0.652095 1307 0.721096 0.692835 0.000000
-10.073974 -10.185668 -0.647693 1309 0.721096 0.692835 0.000000
-10.074418 -10.186119 -0.643318 1307 0.721096 0.692835 0.000000
-10.074345 -10.186051 -0.638899 1299 0.721096 0.692835 0.000000
-10.074224 -10.185929 -0.634490 1299 0.721096 0.692835 0.000000
-10.074049 -10.185750 -0.630072 1299 0.721096 0.692835 0.000000
-10.073976 -10.185681 -0.625652 1301 0.721096 0.692835 0.000000
-10.074210 -10.185916 -0.621260 1299 0.721096 0.692835 0.000000
-10.074189 -10.185893 -0.616850 1307 0.721096 0.692835 0.000000
-10.073652 -10.185351 -0.612415 1301 0.721096 0.692835 0.000000
-10.073564 -10.185271 -0.608006 1297 0.721096 0.692835 0.000000
-10.073797 -10.185504 -0.603603 1297 0.721096 0.692835 0.000000
-10.074033 -10.185739 -0.599211 1305 0.721096 0.692835 0.000000
-10.073790 -10.185500 -0.594793 1303 0.721096 0.692835 0.000000
-10.073977 -10.185681 -0.590401 1305 0.721096 0.692835 0.000000
