280
-22.150408 -20.759958 -0.636489 863 0.746707 0.665153 0.000000
-22.150335 -20.759901 -0.627159 851 0.746707 0.665153 0.000000
-22.149240 -20.758877 -0.617799 827 0.746707 0.665153 0.000000
-22.148464 -20.758163 -0.608456 845 0.746707 0.665153 0.000000
-22.148445 -20.758150 -0.599126 857 0.746707 0.665153 0.000000
-22.149685 -20.759317 -0.589835 889 0.746707 0.665153 0.000000
-22.148916 -20.758595 -0.580492 883 0.746707 0.665153 0.000000
-22.148880 -20.758570 -0.571162 865 0.746707 0.665153 0.000000
-22.149969 -20.759602 -0.561861 887 0.746707 0.665153 0.000000
-22.149769 -20.759417 -0.552533 877 0.746707 0.665153 0.000000
-22.149775 -20.759424 -0.543203 865 0.746707 0.665153 0.000000
-22.150801 -20.760393 -0.533903 863 0.746707 0.665153 0.000000
-22.150440 -20.760067 -0.524576 867 0.746707 0.665153 0.000000
-22.149324 -20.759026 -0.515216 867 0.746707 0.665153 0.000000
-22.148529 -20.758284 -0.505873 861 0.746707 0.665153 0.000000
-22.147039 -20.756893 -0.496517 867 0.746707 0.665153 0.000000
-22.148314 -20.758099 -0.487225 877 0.746707 0.665153 0.000000
-22.149652 -20.759348 -0.477932 881 0.746707 0.665153 0.000000
-22.147619 -20.757452 -0.468561 857 0.746707 0.665153 0.000000
-22.146748 -20.756647 -0.459218 849 0.746707 0.665153 0.000000
-22.147978 -20.757795 -0.449917 845 0.746707 0.665153 0.000000
-22.148348 -20.758160 -0.440603 825 0.746707 0.665153 0.000000
-22.148701 -20.758484 -0.431290 863 0.746707 0.665153 0.000000
-22.150507 -20.760187 -0.421993 889 0.746707 0.665153 0.000000
-22.151188 -20.760839 -0.412686 887 0.746707 0.665153 0.000000
-22.150425 -20.760122 -0.403343 865 0.746707 0.665153 0.000000
-22.150183 -20.759905 -0.394015 843 0.746707 0.665153 0.000000
-22.149580 -20.759340 -0.384680 873 0.746707 0.665153 0.000000
-22.150568 -20.760279 -0.375381 841 0.746707 0.665153 0.000000
-22.149521 -20.759296 -0.366030 823 0.746707 0.665153 0.000000
-22.148956 -20.758778 -0.356705 847 0.746707 0.665153 0.000000
-22.149364 -20.759161 -0.347381 831 0.746707 0.665153 0.000000
-22.148785 -20.758633 -0.338056 833 0.746707 0.665153 0.000000
-22.149883 -20.759657 -0.328746 843 0.746707 0.665153 0.000000
-22.150433 -20.760181 -0.319430 827 0.746707 0.665153 0.000000
-22.151356 -20.761055 -0.310122 805 0.746707 0.665153 0.000000
-22.151043 -20.760765 -0.300794 793 0.746707 0.665153 0.000000
-22.150949 -20.760691 -0.291465 813 0.746707 0.665153 0.000000
-22.149721 -20.759548 -0.282126 823 0.746707 0.665153 0.000000
-22.147266 -20.757248 -0.272769 799 0.746707 0.665153 0.000000
-22.156504 -20.751411 -0.636463 879 0.746707 0.665153 0.000000
-22.157196 -20.752048 -0.627157 861 0.746707 0.665153 0.000000
-22.158348 -20.753132 -0.617856 857 0.746707 0.665153 0.000000
-22.157238 -20.752098 -0.608506 853 0.746707 0.665153 0.000000
-22.156958 -20.751835 -0.599168 879 0.746707 0.665153 0.000000
-22.158590 -20.753359 -0.589883 853 0.746707 0.665153 0.000000
-22.158815 -20.753567 -0.580560 845 0.746707 0.665153 0.000000
-22.157406 -20.752253 -0.571203 847 0.746707 0.665153 0.000000
-22.156092 -20.751024 -0.561845 851 0.746707 0.665153 0.000000
-22.156490 -20.751387 -0.552531 873 0.746707 0.665153 0.000000
-22.155270 -20.750250 -0.543173 873 0.746707 0.665153 0.000000
-22.154215 -20.749258 -0.533822 869 0.746707 0.665153 0.000000
-22.155138 -20.750134 -0.524523 857 0.746707 0.665153 0.000000
-22.155529 -20.750488 -0.515200 871 0.746707 0.665153 0.000000
-22.155478 -20.750450 -0.505880 847 0.746707 0.665153 0.000000
-22.156496 -20.751400 -0.496580 857 0.746707 0.665153 0.000000
-22.157566 -20.752405 -0.487270 879 0.746707 0.665153 0.000000
-22.158321 -20.753107 -0.477963 885 0.746707 0.665153 0.000000
-22.156818 -20.751703 -0.468606 871 0.746707 0.665153 0.000000
-22.155210 -20.750202 -0.459251 839 0.746707 0.665153 0.000000
-22.154837 -20.749849 -0.449914 837 0.746707 0.665153 0.000000
-22.154129 -20.749191 -0.440581 823 0.746707 0.665153 0.000000
-22.153917 -20.748983 -0.431253 831 0.746707 0.665153 0.000000
-22.153576 -20.748672 -0.421926 845 0.746707 0.665153 0.000000
-22.154900 -20.749907 -0.412623 845 0.746707 0.665153 0.000000
-22.157761 -20.752588 -0.403356 839 0.746707 0.665153 0.000000
-22.159084 -20.753824 -0.394054 873 0.746707 0.665153 0.000000
-22.156929 -20.751806 -0.384693 861 0.746707 0.665153 0.000000
-22.156273 -20.751186 -0.375359 833 0.746707 0.665153 0.000000
-22.157362 -20.752220 -0.366049 851 0.746707 0.665153 0.000000
-22.158730 -20.753494 -0.356746 837 0.746707 0.665153 0.000000
-22.159067 -20.753819 -0.347433 841 0.746707 0.665153 0.000000
-22.158354 -20.753141 -0.338089 831 0.746707 0.665153 0.000000
-22.157307 -20.752155 -0.328749 807 0.746707 0.665153 0.000000
-22.153582 -20.748678 -0.319373 795 0.746707 0.665153 0.000000
-22.155743 -20.750694 -0.310083 803 0.746707 0.665153 0.000000
-22.158798 -20.753557 -0.300804 817 0.746707 0.665153 0.000000
-22.156252 -20.751169 -0.291448 827 0.746707 0.665153 0.000000
-22.153910 -20.748985 -0.282089 825 0.746707 0.665153 0.000000
-22.154608 -20.749641 -0.272782 839 0.746707 0.665153 0.000000
-22.164343 -20.746042 -0.636513 857 0.746707 0.665153 0.000000
-22.165558 -20.747177 -0.627212 859 0.746707 0.665153 0.000000
-22.164131 -20.745850 -0.617845 831 0.746707 0.665153 0.000000
-22.161621 -20.743492 -0.608448 859 0.746707 0.665153 0.000000
-22.161640 -20.743509 -0.599128 867 0.746707 0.665153 0.000000
-22.163481 -20.745237 -0.589850 837 0.746707 0.665153 0.000000
-22.162277 -20.744116 -0.580491 869 0.746707 0.665153 0.000000
-22.161610 -20.743486 -0.571147 841 0.746707 0.665153 0.000000
-22.163660 -20.745399 -0.561878 825 0.746707 0.665153 0.000000
-22.163033 -20.744820 -0.552534 841 0.746707 0.665153 0.000000
-22.162943 -20.744736 -0.543204 847 0.746707 0.665153 0.000000
-22.163502 -20.745249 -0.533899 849 0.746707 0.665153 0.000000
-22.164036 -20.745760 -0.524584 845 0.746707 0.665153 0.000000
-22.164686 -20.746365 -0.515277 843 0.746707 0.665153 0.000000
-22.164860 -20.746531 -0.505956 863 0.746707 0.665153 0.000000
-22.163584 -20.745337 -0.496597 851 0.746707 0.665153 0.000000
-22.161446 -20.743328 -0.487227 861 0.746707 0.665153 0.000000
-22.163322 -20.745090 -0.477939 857 0.746707 0.665153 0.000000
-22.161770 -20.743633 -0.468584 853 0.746707 0.665153 0.000000
-22.160810 -20.742731 -0.459242 857 0.746707 0.665153 0.000000
-22.161283 -20.743179 -0.449928 881 0.746707 0.665153 0.000000
-22.162022 -20.743866 -0.440621 857 0.746707 0.665153 0.000000
-22.163237 -20.745014 -0.431319 829 0.746707 0.665153 0.000000
-22.162537 -20.744362 -0.421975 863 0.746707 0.665153 0.000000
-22.160906 -20.742828 -0.412620 821 0.746707 0.665153 0.000000
-22.161329 -20.743223 -0.403306 843 0.746707 0.665153 0.000000
-22.162542 -20.744358 -0.394005 823 0.746707 0.665153 0.000000
-22.162737 -20.744541 -0.384683 827 0.746707 0.665153 0.000000
-22.162016 -20.743872 -0.375349 835 0.746707 0.665153 0.000000
-22.159958 -20.741943 -0.365988 831 0.746707 0.665153 0.000000
-22.159883 -20.741871 -0.356669 793 0.746707 0.665153 0.000000
-22.164881 -20.746546 -0.347422 839 0.746707 0.665153 0.000000
-22.166183 -20.747765 -0.338119 817 0.746707 0.665153 0.000000
-22.162893 -20.744686 -0.328750 837 0.746707 0.665153 0.000000
-22.163609 -20.745358 -0.319433 813 0.746707 0.665153 0.000000
-22.163898 -20.745632 -0.310110 829 0.746707 0.665153 0.000000
-22.163324 -20.745092 -0.300785 821 0.746707 0.665153 0.000000
-22.162643 -20.744453 -0.291451 825 0.746707 0.665153 0.000000
-22.160357 -20.742313 -0.282092 813 0.746707 0.665153 0.000000
-22.159712 -20.741720 -0.272768 791 0.746707 0.665153 0.000000
-22.171978 -20.740225 -0.636547 819 0.746707 0.665153 0.000000
-22.170465 -20.738815 -0.627181 839 0.746707 0.665153 0.000000
-22.169695 -20.738091 -0.617828 813 0.746707 0.665153 0.000000
-22.172134 -20.740383 -0.608565 801 0.746707 0.665153 0.000000
-22.171196 -20.739500 -0.599213 833 0.746707 0.665153 0.000000
-22.169037 -20.737488 -0.589833 835 0.746707 0.665153 0.000000
-22.167032 -20.735605 -0.580452 787 0.746707 0.665153 0.000000
-22.169031 -20.737474 -0.571183 821 0.746707 0.665153 0.000000
-22.171619 -20.739897 -0.561918 847 0.746707 0.665153 0.000000
-22.169388 -20.737816 -0.552539 827 0.746707 0.665153 0.000000
-22.167967 -20.736479 -0.543182 841 0.746707 0.665153 0.000000
-22.168188 -20.736683 -0.533860 847 0.746707 0.665153 0.000000
-22.170010 -20.738400 -0.524573 847 0.746707 0.665153 0.000000
-22.171469 -20.739758 -0.515289 857 0.746707 0.665153 0.000000
-22.170517 -20.738863 -0.505937 851 0.746707 0.665153 0.000000
-22.170950 -20.739277 -0.496623 873 0.746707 0.665153 0.000000
-22.170534 -20.738878 -0.487287 873 0.746707 0.665153 0.000000
-22.168705 -20.737175 -0.477924 841 0.746707 0.665153 0.000000
-22.170202 -20.738577 -0.468630 839 0.746707 0.665153 0.000000
-22.169188 -20.737631 -0.459279 825 0.746707 0.665153 0.000000
-22.167692 -20.736233 -0.449932 815 0.746707 0.665153 0.000000
-22.168005 -20.736525 -0.440609 837 0.746707 0.665153 0.000000
-22.167133 -20.735708 -0.431267 861 0.746707 0.665153 0.000000
-22.167711 -20.736242 -0.421962 817 0.746707 0.665153 0.000000
-22.169561 -20.737978 -0.412664 863 0.746707 0.665153 0.000000
-22.170095 -20.738474 -0.403359 827 0.746707 0.665153 0.000000
-22.170012 -20.738396 -0.394030 815 0.746707 0.665153 0.000000
-22.169464 -20.737890 -0.384694 813 0.746707 0.665153 0.000000
-22.168962 -20.737425 -0.375359 837 0.746707 0.665153 0.000000
-22.170223 -20.738596 -0.366057 841 0.746707 0.665153 0.000000
-22.168806 -20.737274 -0.356710 863 0.746707 0.665153 0.000000
-22.167284 -20.735842 -0.347364 835 0.746707 0.665153 0.000000
-22.169226 -20.737669 -0.338075 817 0.746707 0.665153 0.000000
-22.168663 -20.737135 -0.328741 835 0.746707 0.665153 0.000000
-22.167070 -20.735649 -0.319395 831 0.746707 0.665153 0.000000
-22.168425 -20.736910 -0.310092 829 0.746707 0.665153 0.000000
-22.170635 -20.738989 -0.300801 813 0.746707 0.665153 0.000000
-22.168888 -20.737349 -0.291448 833 0.746707 0.665153 0.000000
-22.169382 -20.737816 -0.282133 825 0.746707 0.665153 0.000000
-22.170666 -20.739019 -0.272831 807 0.746707 0.665153 0.000000
-22.178099 -20.732521 -0.636537 837 0.746707 0.665153 0.000000
-22.177275 -20.731756 -0.627184 839 0.746707 0.665153 0.000000
-22.177151 -20.731632 -0.617855 807 0.746707 0.665153 0.000000
-22.178570 -20.732958 -0.608562 823 0.746707 0.665153 0.000000
-22.177271 -20.731745 -0.599204 857 0.746707 0.665153 0.000000
-22.175797 -20.730364 -0.589837 827 0.746707 0.665153 0.000000
-22.178064 -20.732489 -0.580576 837 0.746707 0.665153 0.000000
-22.178890 -20.733261 -0.571268 845 0.746707 0.665153 0.000000
-22.177244 -20.731728 -0.561893 839 0.746707 0.665153 0.000000
-22.177759 -20.732197 -0.552588 817 0.746707 0.665153 0.000000
-22.176424 -20.730953 -0.543220 819 0.746707 0.665153 0.000000
-22.175053 -20.729670 -0.533863 841 0.746707 0.665153 0.000000
-22.174212 -20.728889 -0.524520 843 0.746707 0.665153 0.000000
-22.172667 -20.727440 -0.515165 841 0.746707 0.665153 0.000000
-22.175611 -20.730202 -0.505907 831 0.746707 0.665153 0.000000
-22.177498 -20.731955 -0.496619 821 0.746707 0.665153 0.000000
-22.177977 -20.732409 -0.487304 853 0.746707 0.665153 0.000000
-22.178991 -20.733356 -0.478005 835 0.746707 0.665153 0.000000
-22.178514 -20.732908 -0.468669 845 0.746707 0.665153 0.000000
-22.176695 -20.731209 -0.459306 849 0.746707 0.665153 0.000000
-22.175568 -20.730148 -0.449956 835 0.746707 0.665153 0.000000
-22.174973 -20.729593 -0.440621 833 0.746707 0.665153 0.000000
-22.175917 -20.730484 -0.431312 809 0.746707 0.665153 0.000000
-22.175755 -20.730331 -0.421984 825 0.746707 0.665153 0.000000
-22.175579 -20.730165 -0.412665 811 0.746707 0.665153 0.000000
-22.176588 -20.731106 -0.403355 831 0.746707 0.665153 0.000000
-22.177145 -20.731636 -0.394040 833 0.746707 0.665153 0.000000
-22.177345 -20.731813 -0.384718 823 0.746707 0.665153 0.000000
-22.176144 -20.730688 -0.375379 839 0.746707 0.665153 0.000000
-22.175049 -20.729668 -0.366029 801 0.746707 0.665153 0.000000
-22.176357 -20.730890 -0.356726 805 0.746707 0.665153 0.000000
-22.175589 -20.730181 -0.347393 803 0.746707 0.665153 0.000000
-22.175079 -20.729696 -0.338068 831 0.746707 0.665153 0.000000
-22.174620 -20.729273 -0.328732 819 0.746707 0.665153 0.000000
-22.174212 -20.728882 -0.319406 821 0.746707 0.665153 0.000000
-22.176579 -20.731102 -0.310113 827 0.746707 0.665153 0.000000
-22.175682 -20.730265 -0.300781 811 0.746707 0.665153 0.000000
-22.174406 -20.729071 -0.291443 825 0.746707 0.665153 0.000000
-22.173195 -20.727938 -0.282104 797 0.746707 0.665153 0.000000
-22.174164 -20.728851 -0.272795 805 0.746707 0.665153 0.000000
-22.184772 -20.725058 -0.636533 831 0.746707 0.665153 0.000000
-22.182724 -20.723150 -0.627152 837 0.746707 0.665153 0.000000
-22.181370 -20.721876 -0.617784 819 0.746707 0.665153 0.000000
-22.183372 -20.723753 -0.608515 827 0.746707 0.665153 0.000000
-22.184198 -20.724524 -0.599207 821 0.746707 0.665153 0.000000
-22.184395 -20.724707 -0.589885 805 0.746707 0.665153 0.000000
-22.183823 -20.724171 -0.580550 829 0.746707 0.665153 0.000000
-22.182728 -20.723148 -0.571190 841 0.746707 0.665153 0.000000
-22.182377 -20.722815 -0.561863 833 0.746707 0.665153 0.000000
-22.181536 -20.722036 -0.552511 833 0.746707 0.665153 0.000000
-22.180481 -20.721045 -0.543161 805 0.746707 0.665153 0.000000
-22.181831 -20.722315 -0.533868 815 0.746707 0.665153 0.000000
-22.183502 -20.723869 -0.524582 829 0.746707 0.665153 0.000000
-22.183727 -20.724079 -0.515260 831 0.746707 0.665153 0.000000
-22.183464 -20.723843 -0.505932 855 0.746707 0.665153 0.000000
-22.183359 -20.723745 -0.496603 835 0.746707 0.665153 0.000000
-22.182249 -20.722696 -0.487253 845 0.746707 0.665153 0.000000
-22.181282 -20.721804 -0.477912 827 0.746707 0.665153 0.000000
-22.182344 -20.722792 -0.468612 823 0.746707 0.665153 0.000000
-22.184492 -20.724792 -0.459331 835 0.746707 0.665153 0.000000
-22.183367 -20.723745 -0.449982 835 0.746707 0.665153 0.000000
-22.181166 -20.721689 -0.440612 827 0.746707 0.665153 0.000000
-22.181953 -20.722429 -0.431304 819 0.746707 0.665153 0.000000
-22.182098 -20.722563 -0.421983 811 0.746707 0.665153 0.000000
-22.182949 -20.723351 -0.412675 831 0.746707 0.665153 0.000000
-22.183887 -20.724237 -0.403366 825 0.746707 0.665153 0.000000
-22.182699 -20.723125 -0.394027 807 0.746707 0.665153 0.000000
-22.183636 -20.724001 -0.384718 817 0.746707 0.665153 0.000000
-22.184589 -20.724884 -0.375408 849 0.746707 0.665153 0.000000
-22.183117 -20.723518 -0.366062 825 0.746707 0.665153 0.000000
-22.181911 -20.722393 -0.356713 813 0.746707 0.665153 0.000000
-22.181671 -20.722162 -0.347385 823 0.746707 0.665153 0.000000
-22.182812 -20.723227 -0.338084 819 0.746707 0.665153 0.000000
-22.183798 -20.724150 -0.328775 835 0.746707 0.665153 0.000000
-22.183180 -20.723577 -0.319440 797 0.746707 0.665153 0.000000
-22.183144 -20.723537 -0.310120 819 0.746707 0.665153 0.000000
-22.184010 -20.724352 -0.300802 801 0.746707 0.665153 0.000000
-22.182743 -20.723166 -0.291464 771 0.746707 0.665153 0.000000
-22.179169 -20.719833 -0.282097 767 0.746707 0.665153 0.000000
-22.178871 -20.719543 -0.272769 773 0.746707 0.665153 0.000000
-22.192383 -20.718733 -0.636569 843 0.746707 0.665153 0.000000
-22.189802 -20.716320 -0.627163 811 0.746707 0.665153 0.000000
-22.188913 -20.715487 -0.617811 801 0.746707 0.665153 0.000000
-22.189377 -20.715927 -0.608496 801 0.746707 0.665153 0.000000
-22.188395 -20.715010 -0.599145 791 0.746707 0.665153 0.000000
-22.186714 -20.713436 -0.589781 807 0.746707 0.665153 0.000000
-22.188179 -20.714800 -0.580487 795 0.746707 0.665153 0.000000
-22.188684 -20.715273 -0.571182 815 0.746707 0.665153 0.000000
-22.186825 -20.713541 -0.561809 805 0.746707 0.665153 0.000000
-22.188559 -20.715162 -0.552523 811 0.746707 0.665153 0.000000
-22.189266 -20.715822 -0.543216 835 0.746707 0.665153 0.000000
-22.188261 -20.714884 -0.533865 805 0.746707 0.665153 0.000000
-22.188162 -20.714794 -0.524546 827 0.746707 0.665153 0.000000
-22.189146 -20.715704 -0.515236 793 0.746707 0.665153 0.000000
-22.191126 -20.717560 -0.505958 797 0.746707 0.665153 0.000000
-22.189583 -20.716110 -0.496602 811 0.746707 0.665153 0.000000
-22.188150 -20.714775 -0.487245 793 0.746707 0.665153 0.000000
-22.187670 -20.714327 -0.477909 793 0.746707 0.665153 0.000000
-22.187454 -20.714130 -0.468581 797 0.746707 0.665153 0.000000
-22.188675 -20.715269 -0.459279 811 0.746707 0.665153 0.000000
-22.188721 -20.715307 -0.449959 817 0.746707 0.665153 0.000000
-22.188608 -20.715206 -0.440630 811 0.746707 0.665153 0.000000
-22.189085 -20.715656 -0.431315 815 0.746707 0.665153 0.000000
-22.189081 -20.715641 -0.421995 791 0.746707 0.665153 0.000000
-22.188154 -20.714777 -0.412653 789 0.746707 0.665153 0.000000
-22.187330 -20.714012 -0.403311 801 0.746707 0.665153 0.000000
-22.187050 -20.713751 -0.393983 801 0.746707 0.665153 0.000000
-22.188475 -20.715080 -0.384689 815 0.746707 0.665153 0.000000
-22.189199 -20.715757 -0.375372 815 0.746707 0.665153 0.000000
-22.188005 -20.714640 -0.366033 817 0.746707 0.665153 0.000000
-22.186373 -20.713120 -0.356678 793 0.746707 0.665153 0.000000
-22.186615 -20.713343 -0.347366 789 0.746707 0.665153 0.000000
-22.188398 -20.715014 -0.338069 819 0.746707 0.665153 0.000000
-22.188259 -20.714876 -0.328740 793 0.746707 0.665153 0.000000
-22.187420 -20.714098 -0.319408 817 0.746707 0.665153 0.000000
-22.185995 -20.712769 -0.310071 811 0.746707 0.665153 0.000000
-22.188684 -20.715275 -0.300786 777 0.746707 0.665153 0.000000
-22.190413 -20.716888 -0.291479 783 0.746707 0.665153 0.000000
-22.188545 -20.715155 -0.282136 789 0.746707 0.665153 0.000000
-22.187702 -20.714359 -0.272804 793 0.746707 0.665153 0.000000
