520
-17.842373 -16.593174 -0.659675 319 0.731248 0.682111 0.000000
-17.839897 -16.590872 -0.652098 305 0.731248 0.682111 0.000000
-17.842987 -16.593742 -0.644729 335 0.731248 0.682111 0.000000
-17.843136 -16.593878 -0.637248 303 0.731248 0.682111 0.000000
-17.845194 -16.595800 -0.629828 349 0.731248 0.682111 0.000000
-17.846256 -16.596777 -0.622378 323 0.731248 0.682111 0.000000
-17.845638 -16.596205 -0.614864 351 0.731248 0.682111 0.000000
-17.842619 -16.593397 -0.607272 317 0.731248 0.682111 0.000000
-17.841257 -16.592136 -0.599744 349 0.731248 0.682111 0.000000
-17.842037 -16.592859 -0.592277 353 0.731248 0.682111 0.000000
-17.842112 -16.592922 -0.584796 357 0.731248 0.682111 0.000000
-17.842030 -16.592848 -0.577306 317 0.731248 0.682111 0.000000
-17.840179 -16.591127 -0.569764 343 0.731248 0.682111 0.000000
-17.841534 -16.592392 -0.562321 369 0.731248 0.682111 0.000000
-17.843267 -16.594002 -0.554884 337 0.731248 0.682111 0.000000
-17.842848 -16.593613 -0.547388 345 0.731248 0.682111 0.000000
-17.842718 -16.593487 -0.539899 363 0.731248 0.682111 0.000000
-17.844332 -16.594986 -0.532454 383 0.731248 0.682111 0.000000
-17.843746 -16.594452 -0.524949 375 0.731248 0.682111 0.000000
-17.841730 -16.592571 -0.517408 381 0.731248 0.682111 0.000000
-17.842752 -16.593517 -0.509948 335 0.731248 0.682111 0.000000
-17.842007 -16.592829 -0.502445 337 0.731248 0.682111 0.000000
-17.841150 -16.592039 -0.494933 335 0.731248 0.682111 0.000000
-17.842184 -16.592993 -0.487483 359 0.731248 0.682111 0.000000
-17.840523 -16.591450 -0.479948 389 0.731248 0.682111 0.000000
-17.843029 -16.593784 -0.472535 421 0.731248 0.682111 0.000000
-17.843784 -16.594488 -0.465067 361 0.731248 0.682111 0.000000
-17.842867 -16.593636 -0.457556 355 0.731248 0.682111 0.000000
-17.841749 -16.592581 -0.450036 343 0.731248 0.682111 0.000000
-17.840296 -16.591232 -0.442520 355 0.731248 0.682111 0.000000
-17.843441 -16.594162 -0.435110 375 0.731248 0.682111 0.000000
-17.844767 -16.595402 -0.427657 367 0.731248 0.682111 0.000000
-17.843744 -16.594439 -0.420147 377 0.731248 0.682111 0.000000
-17.841633 -16.592482 -0.412616 339 0.731248 0.682111 0.000000
-17.841837 -16.592674 -0.405134 343 0.731248 0.682111 0.000000
-17.844555 -16.595196 -0.397709 359 0.731248 0.682111 0.000000
-17.845549 -16.596128 -0.390249 331 0.731248 0.682111 0.000000
-17.844994 -16.595608 -0.382754 339 0.731248 0.682111 0.000000
-17.845352 -16.595940 -0.375271 357 0.731248 0.682111 0.000000
-17.843290 -16.594019 -0.367740 333 0.731248 0.682111 0.000000
-17.844067 -16.594742 -0.360272 333 0.731248 0.682111 0.000000
-17.846937 -16.597410 -0.352845 337 0.731248 0.682111 0.000000
-17.845144 -16.595745 -0.345322 351 0.731248 0.682111 0.000000
-17.844784 -16.595409 -0.337835 335 0.731248 0.682111 0.000000
-17.845453 -16.596029 -0.330359 315 0.731248 0.682111 0.000000
-17.845301 -16.595898 -0.322870 359 0.731248 0.682111 0.000000
-17.843340 -16.594074 -0.315358 329 0.731248 0.682111 0.000000
-17.842293 -16.593092 -0.307848 323 0.731248 0.682111 0.000000
-17.846111 -16.596642 -0.300432 343 0.731248 0.682111 0.000000
-17.848959 -16.599289 -0.292995 337 0.731248 0.682111 0.000000
-17.846825 -16.597313 -0.285475 333 0.731248 0.682111 0.000000
-17.844809 -16.595434 -0.277953 351 0.731248 0.682111 0.000000
-17.849482 -16.589827 -0.659759 333 0.731248 0.682111 0.000000
-17.846296 -16.586874 -0.652158 319 0.731248 0.682111 0.000000
-17.844471 -16.585173 -0.644605 323 0.731248 0.682111 0.000000
-17.846542 -16.587093 -0.637196 295 0.731248 0.682111 0.000000
-17.845396 -16.586029 -0.629666 307 0.731248 0.682111 0.000000
-17.844894 -16.585564 -0.622161 315 0.731248 0.682111 0.000000
-17.847174 -16.587692 -0.614749 331 0.731248 0.682111 0.000000
-17.849350 -16.589706 -0.607339 315 0.731248 0.682111 0.000000
-17.849056 -16.589436 -0.599841 313 0.731248 0.682111 0.000000
-17.847204 -16.587715 -0.592288 327 0.731248 0.682111 0.000000
-17.847132 -16.587645 -0.584799 347 0.731248 0.682111 0.000000
-17.849621 -16.589956 -0.577395 361 0.731248 0.682111 0.000000
-17.851830 -16.592010 -0.569975 317 0.731248 0.682111 0.000000
-17.847942 -16.588402 -0.562371 371 0.731248 0.682111 0.000000
-17.849140 -16.589514 -0.554919 327 0.731248 0.682111 0.000000
-17.850605 -16.590864 -0.547475 353 0.731248 0.682111 0.000000
-17.846869 -16.587402 -0.539870 391 0.731248 0.682111 0.000000
-17.848595 -16.589008 -0.532444 351 0.731248 0.682111 0.000000
-17.849895 -16.590214 -0.524992 365 0.731248 0.682111 0.000000
-17.846369 -16.586935 -0.517404 351 0.731248 0.682111 0.000000
-17.844984 -16.585653 -0.509877 299 0.731248 0.682111 0.000000
-17.847080 -16.587595 -0.502447 359 0.731248 0.682111 0.000000
-17.847252 -16.587748 -0.494966 331 0.731248 0.682111 0.000000
-17.848694 -16.589096 -0.487522 331 0.731248 0.682111 0.000000
-17.848431 -16.588850 -0.480034 345 0.731248 0.682111 0.000000
-17.850677 -16.590937 -0.472603 371 0.731248 0.682111 0.000000
-17.852333 -16.592482 -0.465157 357 0.731248 0.682111 0.000000
-17.851162 -16.591385 -0.457638 341 0.731248 0.682111 0.000000
-17.849541 -16.589890 -0.450113 371 0.731248 0.682111 0.000000
-17.847612 -16.588091 -0.442581 383 0.731248 0.682111 0.000000
-17.848776 -16.589176 -0.435120 341 0.731248 0.682111 0.000000
-17.850004 -16.590313 -0.427668 351 0.731248 0.682111 0.000000
-17.847794 -16.588261 -0.420129 349 0.731248 0.682111 0.000000
-17.848324 -16.588745 -0.412654 359 0.731248 0.682111 0.000000
-17.851837 -16.592020 -0.405251 321 0.731248 0.682111 0.000000
-17.849945 -16.590254 -0.397728 371 0.731248 0.682111 0.000000
-17.846066 -16.586651 -0.390154 357 0.731248 0.682111 0.000000
-17.845621 -16.586243 -0.382658 357 0.731248 0.682111 0.000000
-17.848223 -16.588655 -0.375234 335 0.731248 0.682111 0.000000
-17.849436 -16.589779 -0.367772 331 0.731248 0.682111 0.000000
-17.849678 -16.590006 -0.360290 329 0.731248 0.682111 0.000000
-17.852760 -16.592871 -0.352871 323 0.731248 0.682111 0.000000
-17.852997 -16.593090 -0.345388 327 0.731248 0.682111 0.000000
-17.852369 -16.592510 -0.337884 351 0.731248 0.682111 0.000000
-17.851749 -16.591936 -0.330390 329 0.731248 0.682111 0.000000
-17.850325 -16.590612 -0.322873 349 0.731248 0.682111 0.000000
-17.850340 -16.590626 -0.315392 349 0.731248 0.682111 0.000000
-17.851063 -16.591290 -0.307916 329 0.731248 0.682111 0.000000
-17.851871 -16.592051 -0.300448 339 0.731248 0.682111 0.000000
-17.849108 -16.589474 -0.292913 329 0.731248 0.682111 0.000000
-17.848312 -16.588736 -0.285421 327 0.731248 0.682111 0.000000
-17.851967 -16.592138 -0.277996 319 0.731248 0.682111 0.000000
-17.850359 -16.580280 -0.659612 315 0.731248 0.682111 0.000000
-17.850672 -16.580563 -0.652129 287 0.731248 0.682111 0.000000
-17.850119 -16.580053 -0.644624 307 0.731248 0.682111 0.000000
-17.852560 -16.582327 -0.637221 331 0.731248 0.682111 0.000000
-17.852440 -16.582205 -0.629732 321 0.731248 0.682111 0.000000
-17.851940 -16.581739 -0.622227 307 0.731248 0.682111 0.000000
-17.854818 -16.584415 -0.614840 339 0.731248 0.682111 0.000000
-17.855108 -16.584692 -0.607367 335 0.731248 0.682111 0.000000
-17.852776 -16.582516 -0.599798 331 0.731248 0.682111 0.000000
-17.856617 -16.586084 -0.592432 293 0.731248 0.682111 0.000000
-17.857491 -16.586897 -0.584974 327 0.731248 0.682111 0.000000
-17.854036 -16.583689 -0.577376 305 0.731248 0.682111 0.000000
-17.855991 -16.585501 -0.569948 343 0.731248 0.682111 0.000000
-17.854452 -16.584080 -0.562412 355 0.731248 0.682111 0.000000
-17.849813 -16.579762 -0.554785 337 0.731248 0.682111 0.000000
-17.849558 -16.579535 -0.547287 319 0.731248 0.682111 0.000000
-17.851395 -16.581240 -0.539860 343 0.731248 0.682111 0.000000
-17.854195 -16.583838 -0.532453 341 0.731248 0.682111 0.000000
-17.853724 -16.583397 -0.524958 365 0.731248 0.682111 0.000000
-17.851755 -16.581566 -0.517416 369 0.731248 0.682111 0.000000
-17.855085 -16.584658 -0.510025 345 0.731248 0.682111 0.000000
-17.856960 -16.586405 -0.502587 353 0.731248 0.682111 0.000000
-17.853809 -16.583479 -0.495016 329 0.731248 0.682111 0.000000
-17.848879 -16.578899 -0.487392 355 0.731248 0.682111 0.000000
-17.849207 -16.579208 -0.479919 337 0.731248 0.682111 0.000000
-17.852470 -16.582232 -0.472518 369 0.731248 0.682111 0.000000
-17.853218 -16.582930 -0.465051 387 0.731248 0.682111 0.000000
-17.855310 -16.584877 -0.457621 351 0.731248 0.682111 0.000000
-17.854879 -16.584471 -0.450125 395 0.731248 0.682111 0.000000
-17.856377 -16.585861 -0.442671 345 0.731248 0.682111 0.000000
-17.857328 -16.586748 -0.435212 395 0.731248 0.682111 0.000000
-17.856031 -16.585539 -0.427694 347 0.731248 0.682111 0.000000
-17.855530 -16.585073 -0.420198 375 0.731248 0.682111 0.000000
-17.854824 -16.584417 -0.412695 375 0.731248 0.682111 0.000000
-17.854862 -16.584452 -0.405204 367 0.731248 0.682111 0.000000
-17.852814 -16.582558 -0.397673 331 0.731248 0.682111 0.000000
-17.853704 -16.583382 -0.390215 341 0.731248 0.682111 0.000000
-17.854868 -16.584455 -0.382754 363 0.731248 0.682111 0.000000
-17.854731 -16.584335 -0.375265 335 0.731248 0.682111 0.000000
-17.854183 -16.583818 -0.367770 351 0.731248 0.682111 0.000000
-17.851906 -16.581703 -0.360231 343 0.731248 0.682111 0.000000
-17.853317 -16.583025 -0.352777 347 0.731248 0.682111 0.000000
-17.853075 -16.582796 -0.345290 315 0.731248 0.682111 0.000000
-17.852940 -16.582664 -0.337801 337 0.731248 0.682111 0.000000
-17.851139 -16.580994 -0.330287 327 0.731248 0.682111 0.000000
-17.851694 -16.581511 -0.322812 353 0.731248 0.682111 0.000000
-17.855412 -16.584965 -0.315397 333 0.731248 0.682111 0.000000
-17.854191 -16.583830 -0.307888 299 0.731248 0.682111 0.000000
-17.855436 -16.584993 -0.300426 383 0.731248 0.682111 0.000000
-17.857170 -16.586601 -0.292970 309 0.731248 0.682111 0.000000
-17.857767 -16.587151 -0.285494 353 0.731248 0.682111 0.000000
-17.858480 -16.587809 -0.278017 325 0.731248 0.682111 0.000000
-17.854620 -16.574080 -0.659583 327 0.731248 0.682111 0.000000
-17.858145 -16.577354 -0.652220 273 0.731248 0.682111 0.000000
-17.856785 -16.576092 -0.644683 303 0.731248 0.682111 0.000000
-17.856449 -16.575775 -0.637186 303 0.731248 0.682111 0.000000
-17.857124 -16.576401 -0.629719 331 0.731248 0.682111 0.000000
-17.857542 -16.576792 -0.622255 351 0.731248 0.682111 0.000000
-17.855808 -16.575178 -0.614701 355 0.731248 0.682111 0.000000
-17.857283 -16.576551 -0.607267 353 0.731248 0.682111 0.000000
-17.859461 -16.578569 -0.599857 317 0.731248 0.682111 0.000000
-17.859638 -16.578743 -0.592375 329 0.731248 0.682111 0.000000
-17.860954 -16.579962 -0.584922 357 0.731248 0.682111 0.000000
-17.861891 -16.580824 -0.577464 325 0.731248 0.682111 0.000000
-17.860142 -16.579199 -0.569920 329 0.731248 0.682111 0.000000
-17.856255 -16.575588 -0.562316 331 0.731248 0.682111 0.000000
-17.857878 -16.577097 -0.554880 321 0.731248 0.682111 0.000000
-17.857409 -16.576672 -0.547375 337 0.731248 0.682111 0.000000
-17.856617 -16.575932 -0.539872 347 0.731248 0.682111 0.000000
-17.857553 -16.576796 -0.532413 339 0.731248 0.682111 0.000000
-17.859539 -16.578646 -0.524984 355 0.731248 0.682111 0.000000
-17.859221 -16.578352 -0.517487 379 0.731248 0.682111 0.000000
-17.856928 -16.576223 -0.509928 351 0.731248 0.682111 0.000000
-17.859034 -16.578171 -0.502508 363 0.731248 0.682111 0.000000
-17.862139 -16.581055 -0.495109 323 0.731248 0.682111 0.000000
-17.860643 -16.579672 -0.487573 365 0.731248 0.682111 0.000000
-17.858835 -16.577982 -0.480040 361 0.731248 0.682111 0.000000
-17.858294 -16.577486 -0.472545 351 0.731248 0.682111 0.000000
-17.858236 -16.577431 -0.465055 349 0.731248 0.682111 0.000000
-17.858023 -16.577234 -0.457567 385 0.731248 0.682111 0.000000
-17.856510 -16.575825 -0.450041 349 0.731248 0.682111 0.000000
-17.857622 -16.576868 -0.442580 323 0.731248 0.682111 0.000000
-17.859062 -16.578201 -0.435137 351 0.731248 0.682111 0.000000
-17.860344 -16.579382 -0.427674 369 0.731248 0.682111 0.000000
-17.861992 -16.580921 -0.420229 379 0.731248 0.682111 0.000000
-17.865036 -16.583742 -0.412810 319 0.731248 0.682111 0.000000
-17.864756 -16.583481 -0.405323 361 0.731248 0.682111 0.000000
-17.858675 -16.577845 -0.397699 347 0.731248 0.682111 0.000000
-17.858713 -16.577877 -0.390209 335 0.731248 0.682111 0.000000
-17.859869 -16.578943 -0.382758 371 0.731248 0.682111 0.000000
-17.860491 -16.579525 -0.375282 363 0.731248 0.682111 0.000000
-17.861176 -16.580158 -0.367805 337 0.731248 0.682111 0.000000
-17.860121 -16.579184 -0.360305 371 0.731248 0.682111 0.000000
-17.859667 -16.578756 -0.352809 319 0.731248 0.682111 0.000000
-17.862215 -16.581127 -0.345375 317 0.731248 0.682111 0.000000
-17.863789 -16.582581 -0.337920 335 0.731248 0.682111 0.000000
-17.861822 -16.580763 -0.330388 325 0.731248 0.682111 0.000000
-17.861471 -16.580435 -0.322901 375 0.731248 0.682111 0.000000
-17.863640 -16.582445 -0.315451 335 0.731248 0.682111 0.000000
-17.863281 -16.582106 -0.307964 285 0.731248 0.682111 0.000000
-17.860458 -16.579487 -0.300430 281 0.731248 0.682111 0.000000
-17.859118 -16.578251 -0.292923 319 0.731248 0.682111 0.000000
-17.859457 -16.578556 -0.285439 347 0.731248 0.682111 0.000000
-17.859472 -16.578573 -0.277959 331 0.731248 0.682111 0.000000
-17.862614 -16.570946 -0.659692 311 0.731248 0.682111 0.000000
-17.863565 -16.571835 -0.652232 311 0.731248 0.682111 0.000000
-17.864351 -16.572563 -0.644775 327 0.731248 0.682111 0.000000
-17.866804 -16.574841 -0.637372 335 0.731248 0.682111 0.000000
-17.865767 -16.573877 -0.629851 345 0.731248 0.682111 0.000000
-17.864138 -16.572363 -0.622296 327 0.731248 0.682111 0.000000
-17.863203 -16.571495 -0.614785 325 0.731248 0.682111 0.000000
-17.860832 -16.569290 -0.607217 303 0.731248 0.682111 0.000000
-17.858603 -16.567223 -0.599648 325 0.731248 0.682111 0.000000
-17.858419 -16.567053 -0.592159 327 0.731248 0.682111 0.000000
-17.861708 -16.570110 -0.584778 317 0.731248 0.682111 0.000000
-17.860394 -16.568886 -0.577250 315 0.731248 0.682111 0.000000
-17.861063 -16.569508 -0.569784 341 0.731248 0.682111 0.000000
-17.862099 -16.570463 -0.562334 315 0.731248 0.682111 0.000000
-17.862768 -16.571083 -0.554868 365 0.731248 0.682111 0.000000
-17.863745 -16.571991 -0.547418 341 0.731248 0.682111 0.000000
-17.861774 -16.570162 -0.539867 333 0.731248 0.682111 0.000000
-17.860825 -16.569283 -0.532355 331 0.731248 0.682111 0.000000
-17.858906 -16.567505 -0.524813 333 0.731248 0.682111 0.000000
-17.861435 -16.569845 -0.517399 357 0.731248 0.682111 0.000000
-17.863747 -16.571999 -0.509977 331 0.731248 0.682111 0.000000
-17.863695 -16.571949 -0.502498 363 0.731248 0.682111 0.000000
-17.864725 -16.572899 -0.495038 391 0.731248 0.682111 0.000000
-17.863499 -16.571760 -0.487519 347 0.731248 0.682111 0.000000
-17.866877 -16.574900 -0.480118 355 0.731248 0.682111 0.000000
-17.868483 -16.576393 -0.472672 337 0.731248 0.682111 0.000000
-17.865788 -16.573887 -0.465117 359 0.731248 0.682111 0.000000
-17.861450 -16.569864 -0.457518 343 0.731248 0.682111 0.000000
-17.862576 -16.570904 -0.450067 333 0.731248 0.682111 0.000000
-17.863743 -16.571991 -0.442606 339 0.731248 0.682111 0.000000
-17.863581 -16.571838 -0.435117 359 0.731248 0.682111 0.000000
-17.864485 -16.572676 -0.427659 367 0.731248 0.682111 0.000000
-17.866455 -16.574499 -0.420220 339 0.731248 0.682111 0.000000
-17.867456 -16.575441 -0.412750 335 0.731248 0.682111 0.000000
-17.868620 -16.576511 -0.405289 367 0.731248 0.682111 0.000000
-17.869787 -16.577597 -0.397828 333 0.731248 0.682111 0.000000
-17.868214 -16.576139 -0.390313 341 0.731248 0.682111 0.000000
-17.864223 -16.572435 -0.382740 329 0.731248 0.682111 0.000000
-17.864038 -16.572264 -0.375252 367 0.731248 0.682111 0.000000
-17.868250 -16.576168 -0.367852 345 0.731248 0.682111 0.000000
-17.868439 -16.576349 -0.360370 337 0.731248 0.682111 0.000000
-17.867826 -16.575781 -0.352866 369 0.731248 0.682111 0.000000
-17.863346 -16.571617 -0.345297 349 0.731248 0.682111 0.000000
-17.864277 -16.572487 -0.337828 343 0.731248 0.682111 0.000000
-17.867580 -16.575541 -0.330407 367 0.731248 0.682111 0.000000
-17.865927 -16.574020 -0.322893 381 0.731248 0.682111 0.000000
-17.866810 -16.574839 -0.315424 349 0.731248 0.682111 0.000000
-17.864519 -16.572708 -0.307895 351 0.731248 0.682111 0.000000
-17.865768 -16.573864 -0.300434 367 0.731248 0.682111 0.000000
-17.870399 -16.578157 -0.293020 335 0.731248 0.682111 0.000000
-17.868906 -16.576777 -0.285514 333 0.731248 0.682111 0.000000
-17.863983 -16.572203 -0.277950 331 0.731248 0.682111 0.000000
-17.870123 -16.567356 -0.659774 339 0.731248 0.682111 0.000000
-17.869362 -16.566656 -0.652261 307 0.731248 0.682111 0.000000
-17.869297 -16.566593 -0.644762 303 0.731248 0.682111 0.000000
-17.874054 -16.571003 -0.637447 357 0.731248 0.682111 0.000000
-17.873608 -16.570583 -0.629941 369 0.731248 0.682111 0.000000
-17.869028 -16.566334 -0.622294 367 0.731248 0.682111 0.000000
-17.866814 -16.564283 -0.614724 337 0.731248 0.682111 0.000000
-17.868444 -16.565796 -0.607299 325 0.731248 0.682111 0.000000
-17.871632 -16.568758 -0.599919 373 0.731248 0.682111 0.000000
-17.873919 -16.570877 -0.592507 339 0.731248 0.682111 0.000000
-17.875547 -16.572390 -0.585072 323 0.731248 0.682111 0.000000
-17.875246 -16.572109 -0.577564 367 0.731248 0.682111 0.000000
-17.874468 -16.571384 -0.570052 365 0.731248 0.682111 0.000000
-17.873850 -16.570812 -0.562547 359 0.731248 0.682111 0.000000
-17.872253 -16.569334 -0.555002 363 0.731248 0.682111 0.000000
-17.868359 -16.565718 -0.547398 315 0.731248 0.682111 0.000000
-17.866287 -16.563791 -0.539847 341 0.731248 0.682111 0.000000
-17.868494 -16.565847 -0.532426 341 0.731248 0.682111 0.000000
-17.870014 -16.567245 -0.524982 319 0.731248 0.682111 0.000000
-17.869268 -16.566557 -0.517479 353 0.731248 0.682111 0.000000
-17.869869 -16.567122 -0.510013 355 0.731248 0.682111 0.000000
-17.868591 -16.565928 -0.502485 327 0.731248 0.682111 0.000000
-17.868647 -16.565989 -0.495004 315 0.731248 0.682111 0.000000
-17.870157 -16.567379 -0.487560 351 0.731248 0.682111 0.000000
-17.871544 -16.568668 -0.480107 371 0.731248 0.682111 0.000000
-17.870365 -16.567581 -0.472588 343 0.731248 0.682111 0.000000
-17.869406 -16.566681 -0.465076 379 0.731248 0.682111 0.000000
-17.868704 -16.566040 -0.457573 357 0.731248 0.682111 0.000000
-17.867624 -16.565031 -0.450063 347 0.731248 0.682111 0.000000
-17.870827 -16.568007 -0.442653 333 0.731248 0.682111 0.000000
-17.876299 -16.573071 -0.435301 323 0.731248 0.682111 0.000000
-17.875540 -16.572371 -0.427798 387 0.731248 0.682111 0.000000
-17.872625 -16.569674 -0.420245 379 0.731248 0.682111 0.000000
-17.872511 -16.569561 -0.412756 355 0.731248 0.682111 0.000000
-17.873779 -16.570742 -0.405294 389 0.731248 0.682111 0.000000
-17.876663 -16.573410 -0.397867 385 0.731248 0.682111 0.000000
-17.876324 -16.573097 -0.390380 345 0.731248 0.682111 0.000000
-17.874537 -16.571442 -0.382847 375 0.731248 0.682111 0.000000
-17.873167 -16.570173 -0.375329 391 0.731248 0.682111 0.000000
-17.872549 -16.569601 -0.367835 363 0.731248 0.682111 0.000000
-17.870871 -16.568045 -0.360310 327 0.731248 0.682111 0.000000
-17.869173 -16.566471 -0.352796 377 0.731248 0.682111 0.000000
-17.869204 -16.566498 -0.345315 373 0.731248 0.682111 0.000000
-17.872221 -16.569300 -0.337887 371 0.731248 0.682111 0.000000
-17.874830 -16.571703 -0.330443 337 0.731248 0.682111 0.000000
-17.872002 -16.569092 -0.322909 337 0.731248 0.682111 0.000000
-17.872068 -16.569149 -0.315428 345 0.731248 0.682111 0.000000
-17.874506 -16.571417 -0.307985 367 0.731248 0.682111 0.000000
-17.872267 -16.569330 -0.300456 331 0.731248 0.682111 0.000000
-17.873884 -16.570831 -0.293001 347 0.731248 0.682111 0.000000
-17.872183 -16.569256 -0.285486 335 0.731248 0.682111 0.000000
-17.872402 -16.569462 -0.278004 347 0.731248 0.682111 0.000000
-17.874714 -16.561655 -0.659761 299 0.731248 0.682111 0.000000
-17.874979 -16.561897 -0.652289 291 0.731248 0.682111 0.000000
-17.873137 -16.560183 -0.644726 317 0.731248 0.682111 0.000000
-17.870869 -16.558086 -0.637157 323 0.731248 0.682111 0.000000
-17.871593 -16.558764 -0.629700 319 0.731248 0.682111 0.000000
-17.875977 -16.562822 -0.622369 341 0.731248 0.682111 0.000000
-17.876495 -16.563293 -0.614894 293 0.731248 0.682111 0.000000
-17.878242 -16.564917 -0.607467 313 0.731248 0.682111 0.000000
-17.876600 -16.563400 -0.599922 339 0.731248 0.682111 0.000000
-17.875017 -16.561934 -0.592377 347 0.731248 0.682111 0.000000
-17.874512 -16.561462 -0.584871 321 0.731248 0.682111 0.000000
-17.874647 -16.561592 -0.577390 347 0.731248 0.682111 0.000000
-17.876698 -16.563494 -0.569971 359 0.731248 0.682111 0.000000
-17.876884 -16.563662 -0.562489 333 0.731248 0.682111 0.000000
-17.879211 -16.565811 -0.555067 361 0.731248 0.682111 0.000000
-17.876871 -16.563643 -0.547509 371 0.731248 0.682111 0.000000
-17.874956 -16.561871 -0.539966 331 0.731248 0.682111 0.000000
-17.875450 -16.562326 -0.532492 349 0.731248 0.682111 0.000000
-17.876104 -16.562933 -0.525025 373 0.731248 0.682111 0.000000
-17.875477 -16.562353 -0.517521 363 0.731248 0.682111 0.000000
-17.875206 -16.562101 -0.510023 361 0.731248 0.682111 0.000000
-17.875967 -16.562809 -0.502556 343 0.731248 0.682111 0.000000
-17.875492 -16.562365 -0.495060 349 0.731248 0.682111 0.000000
-17.876562 -16.563360 -0.487600 337 0.731248 0.682111 0.000000
-17.876457 -16.563265 -0.480111 363 0.731248 0.682111 0.000000
-17.877638 -16.564352 -0.472660 387 0.731248 0.682111 0.000000
-17.876348 -16.563160 -0.465131 387 0.731248 0.682111 0.000000
-17.876297 -16.563108 -0.457642 377 0.731248 0.682111 0.000000
-17.877787 -16.564497 -0.450198 379 0.731248 0.682111 0.000000
-17.876181 -16.562998 -0.442673 351 0.731248 0.682111 0.000000
-17.873755 -16.560760 -0.435125 343 0.731248 0.682111 0.000000
-17.873468 -16.560493 -0.427637 387 0.731248 0.682111 0.000000
-17.874325 -16.561279 -0.420169 353 0.731248 0.682111 0.000000
-17.875868 -16.562710 -0.412715 381 0.731248 0.682111 0.000000
-17.877626 -16.564337 -0.405268 379 0.731248 0.682111 0.000000
-17.877821 -16.564524 -0.397786 327 0.731248 0.682111 0.000000
-17.876942 -16.563702 -0.390284 349 0.731248 0.682111 0.000000
-17.876814 -16.563589 -0.382795 369 0.731248 0.682111 0.000000
-17.878181 -16.564852 -0.375342 337 0.731248 0.682111 0.000000
-17.878376 -16.565041 -0.367860 355 0.731248 0.682111 0.000000
-17.876211 -16.563025 -0.360320 345 0.731248 0.682111 0.000000
-17.877092 -16.563841 -0.352862 353 0.731248 0.682111 0.000000
-17.877657 -16.564367 -0.345386 317 0.731248 0.682111 0.000000
-17.876541 -16.563341 -0.337877 373 0.731248 0.682111 0.000000
-17.875711 -16.562571 -0.330374 327 0.731248 0.682111 0.000000
-17.875462 -16.562336 -0.322886 343 0.731248 0.682111 0.000000
-17.877197 -16.563946 -0.315430 353 0.731248 0.682111 0.000000
-17.878717 -16.565355 -0.307976 343 0.731248 0.682111 0.000000
-17.877386 -16.564119 -0.300458 359 0.731248 0.682111 0.000000
-17.875902 -16.562744 -0.292952 353 0.731248 0.682111 0.000000
-17.876774 -16.563555 -0.285483 369 0.731248 0.682111 0.000000
-17.877268 -16.564009 -0.278009 365 0.731248 0.682111 0.000000
-17.881876 -16.558338 -0.659844 335 0.731248 0.682111 0.000000
-17.881907 -16.558378 -0.652364 287 0.731248 0.682111 0.000000
-17.877934 -16.554686 -0.644731 299 0.731248 0.682111 0.000000
-17.880693 -16.557253 -0.637335 309 0.731248 0.682111 0.000000
-17.885300 -16.561514 -0.630012 311 0.731248 0.682111 0.000000
-17.883827 -16.560148 -0.622465 317 0.731248 0.682111 0.000000
-17.884401 -16.560680 -0.615000 303 0.731248 0.682111 0.000000
-17.880886 -16.557421 -0.607392 307 0.731248 0.682111 0.000000
-17.876842 -16.553686 -0.599770 319 0.731248 0.682111 0.000000
-17.874504 -16.551519 -0.592201 323 0.731248 0.682111 0.000000
-17.875984 -16.552885 -0.584767 343 0.731248 0.682111 0.000000
-17.880297 -16.556887 -0.577417 359 0.731248 0.682111 0.000000
-17.879141 -16.555801 -0.569888 341 0.731248 0.682111 0.000000
-17.880442 -16.557007 -0.562445 343 0.731248 0.682111 0.000000
-17.881645 -16.558126 -0.554994 345 0.731248 0.682111 0.000000
-17.880484 -16.557049 -0.547475 343 0.731248 0.682111 0.000000
-17.880550 -16.557108 -0.539984 345 0.731248 0.682111 0.000000
-17.880936 -16.557474 -0.532510 333 0.731248 0.682111 0.000000
-17.879290 -16.555944 -0.524975 341 0.731248 0.682111 0.000000
-17.879295 -16.555950 -0.517485 367 0.731248 0.682111 0.000000
-17.878233 -16.554972 -0.509975 327 0.731248 0.682111 0.000000
-17.880281 -16.556858 -0.502545 349 0.731248 0.682111 0.000000
-17.884140 -16.560440 -0.495159 359 0.731248 0.682111 0.000000
-17.880072 -16.556671 -0.487567 367 0.731248 0.682111 0.000000
-17.879107 -16.555780 -0.480056 351 0.731248 0.682111 0.000000
-17.881575 -16.558058 -0.472633 363 0.731248 0.682111 0.000000
-17.880821 -16.557364 -0.465130 331 0.731248 0.682111 0.000000
-17.880762 -16.557306 -0.457640 369 0.731248 0.682111 0.000000
-17.882853 -16.559242 -0.450200 369 0.731248 0.682111 0.000000
-17.882689 -16.559088 -0.442712 339 0.731248 0.682111 0.000000
-17.878124 -16.554855 -0.435114 321 0.731248 0.682111 0.000000
-17.877192 -16.554001 -0.427602 347 0.731248 0.682111 0.000000
-17.881805 -16.558270 -0.420229 407 0.731248 0.682111 0.000000
-17.883831 -16.560141 -0.412790 361 0.731248 0.682111 0.000000
-17.882366 -16.558783 -0.405274 369 0.731248 0.682111 0.000000
-17.882349 -16.558771 -0.397784 333 0.731248 0.682111 0.000000
-17.882542 -16.558958 -0.390302 355 0.731248 0.682111 0.000000
-17.883541 -16.559870 -0.382832 375 0.731248 0.682111 0.000000
-17.883411 -16.559755 -0.375343 399 0.731248 0.682111 0.000000
-17.882904 -16.559288 -0.367848 355 0.731248 0.682111 0.000000
-17.881750 -16.558216 -0.360338 341 0.731248 0.682111 0.000000
-17.882370 -16.558784 -0.352863 359 0.731248 0.682111 0.000000
-17.884222 -16.560501 -0.345415 359 0.731248 0.682111 0.000000
-17.882261 -16.558693 -0.337893 369 0.731248 0.682111 0.000000
-17.882275 -16.558706 -0.330403 339 0.731248 0.682111 0.000000
-17.882296 -16.558727 -0.322922 349 0.731248 0.682111 0.000000
-17.879311 -16.555962 -0.315380 341 0.731248 0.682111 0.000000
-17.880939 -16.557459 -0.307925 359 0.731248 0.682111 0.000000
-17.883421 -16.559763 -0.300481 343 0.731248 0.682111 0.000000
-17.880438 -16.556997 -0.292949 347 0.731248 0.682111 0.000000
-17.880014 -16.556608 -0.285463 347 0.731248 0.682111 0.000000
-17.882277 -16.558710 -0.278012 343 0.731248 0.682111 0.000000
-17.882578 -16.548649 -0.659690 319 0.731248 0.682111 0.000000
-17.880789 -16.546989 -0.652136 307 0.731248 0.682111 0.000000
-17.883194 -16.549217 -0.644733 327 0.731248 0.682111 0.000000
-17.885157 -16.551037 -0.637315 321 0.731248 0.682111 0.000000
-17.883535 -16.549540 -0.629770 299 0.731248 0.682111 0.000000
-17.883890 -16.549866 -0.622296 305 0.731248 0.682111 0.000000
-17.887035 -16.552769 -0.614917 301 0.731248 0.682111 0.000000
-17.887281 -16.552999 -0.607434 333 0.731248 0.682111 0.000000
-17.884361 -16.550297 -0.599851 317 0.731248 0.682111 0.000000
-17.883261 -16.549271 -0.592322 327 0.731248 0.682111 0.000000
-17.884253 -16.550190 -0.584872 333 0.731248 0.682111 0.000000
-17.885180 -16.551062 -0.577413 339 0.731248 0.682111 0.000000
-17.883543 -16.549536 -0.569868 369 0.731248 0.682111 0.000000
-17.883076 -16.549110 -0.562373 369 0.731248 0.682111 0.000000
-17.885841 -16.551670 -0.554967 323 0.731248 0.682111 0.000000
-17.886604 -16.552364 -0.547509 341 0.731248 0.682111 0.000000
-17.881899 -16.548018 -0.539873 331 0.731248 0.682111 0.000000
-17.882069 -16.548170 -0.532391 359 0.731248 0.682111 0.000000
-17.885782 -16.551609 -0.525016 357 0.731248 0.682111 0.000000
-17.886120 -16.551926 -0.517543 321 0.731248 0.682111 0.000000
-17.886290 -16.552078 -0.510061 303 0.731248 0.682111 0.000000
-17.885433 -16.551289 -0.502549 303 0.731248 0.682111 0.000000
-17.884153 -16.550102 -0.495021 345 0.731248 0.682111 0.000000
-17.887062 -16.552790 -0.487614 355 0.731248 0.682111 0.000000
-17.890442 -16.555922 -0.480222 361 0.731248 0.682111 0.000000
-17.887064 -16.552786 -0.472643 357 0.731248 0.682111 0.000000
-17.883934 -16.549892 -0.465072 349 0.731248 0.682111 0.000000
-17.886726 -16.552481 -0.457666 373 0.731248 0.682111 0.000000
-17.885712 -16.551540 -0.450145 359 0.731248 0.682111 0.000000
-17.882854 -16.548903 -0.442592 335 0.731248 0.682111 0.000000
-17.886284 -16.552073 -0.435190 313 0.731248 0.682111 0.000000
-17.888094 -16.553743 -0.427753 349 0.731248 0.682111 0.000000
-17.885836 -16.551653 -0.420204 373 0.731248 0.682111 0.000000
-17.885809 -16.551636 -0.412724 347 0.731248 0.682111 0.000000
-17.884195 -16.550131 -0.405198 339 0.731248 0.682111 0.000000
-17.884018 -16.549967 -0.397710 335 0.731248 0.682111 0.000000
-17.886358 -16.552141 -0.390278 363 0.731248 0.682111 0.000000
-17.887030 -16.552763 -0.382802 347 0.731248 0.682111 0.000000
-17.889969 -16.555473 -0.375384 361 0.731248 0.682111 0.000000
-17.890856 -16.556299 -0.367915 361 0.731248 0.682111 0.000000
-17.888092 -16.553736 -0.360371 331 0.731248 0.682111 0.000000
-17.884579 -16.550491 -0.352814 351 0.731248 0.682111 0.000000
-17.885189 -16.551052 -0.345338 349 0.731248 0.682111 0.000000
-17.889881 -16.555397 -0.337944 319 0.731248 0.682111 0.000000
-17.889862 -16.555372 -0.330454 335 0.731248 0.682111 0.000000
-17.889450 -16.554991 -0.322958 371 0.731248 0.682111 0.000000
-17.890108 -16.555605 -0.315491 383 0.731248 0.682111 0.000000
-17.886255 -16.552034 -0.307937 383 0.731248 0.682111 0.000000
-17.886812 -16.552553 -0.300462 349 0.731248 0.682111 0.000000
-17.889351 -16.554901 -0.293018 355 0.731248 0.682111 0.000000
-17.888441 -16.554066 -0.285516 339 0.731248 0.682111 0.000000
-17.888674 -16.554272 -0.278034 337 0.731248 0.682111 0.000000
-17.892565 -16.547546 -0.659868 275 0.731248 0.682111 0.000000
-17.892286 -16.547285 -0.652371 317 0.731248 0.682111 0.000000
-17.890862 -16.545975 -0.644824 293 0.731248 0.682111 0.000000
-17.887251 -16.542627 -0.637207 307 0.731248 0.682111 0.000000
-17.886431 -16.541878 -0.629695 279 0.731248 0.682111 0.000000
-17.890167 -16.545336 -0.622340 279 0.731248 0.682111 0.000000
-17.893156 -16.548098 -0.614952 277 0.731248 0.682111 0.000000
-17.891573 -16.546631 -0.607406 283 0.731248 0.682111 0.000000
-17.890055 -16.545218 -0.599870 299 0.731248 0.682111 0.000000
-17.894590 -16.549419 -0.592528 305 0.731248 0.682111 0.000000
-17.892685 -16.547655 -0.584975 353 0.731248 0.682111 0.000000
-17.889162 -16.544392 -0.577378 307 0.731248 0.682111 0.000000
-17.894068 -16.548933 -0.570042 361 0.731248 0.682111 0.000000
-17.894569 -16.549393 -0.562577 325 0.731248 0.682111 0.000000
-17.888262 -16.543558 -0.554886 341 0.731248 0.682111 0.000000
-17.886980 -16.542376 -0.547368 383 0.731248 0.682111 0.000000
-17.894144 -16.548996 -0.540091 361 0.731248 0.682111 0.000000
-17.895330 -16.550098 -0.532639 351 0.731248 0.682111 0.000000
-17.889496 -16.544701 -0.524984 345 0.731248 0.682111 0.000000
-17.889179 -16.544407 -0.517486 357 0.731248 0.682111 0.000000
-17.888597 -16.543867 -0.509982 347 0.731248 0.682111 0.000000
-17.890324 -16.545469 -0.502545 305 0.731248 0.682111 0.000000
-17.893280 -16.548206 -0.495138 325 0.731248 0.682111 0.000000
-17.889853 -16.545033 -0.487559 331 0.731248 0.682111 0.000000
-17.892105 -16.547110 -0.480128 361 0.731248 0.682111 0.000000
-17.893826 -16.548708 -0.472692 365 0.731248 0.682111 0.000000
-17.893339 -16.548256 -0.465186 309 0.731248 0.682111 0.000000
-17.892105 -16.547108 -0.457668 379 0.731248 0.682111 0.000000
-17.891130 -16.546211 -0.450157 341 0.731248 0.682111 0.000000
-17.894182 -16.549036 -0.442748 303 0.731248 0.682111 0.000000
-17.894827 -16.549625 -0.435272 343 0.731248 0.682111 0.000000
-17.892715 -16.547682 -0.427741 391 0.731248 0.682111 0.000000
-17.893353 -16.548262 -0.420265 411 0.731248 0.682111 0.000000
-17.894409 -16.549248 -0.412805 361 0.731248 0.682111 0.000000
-17.895903 -16.550625 -0.405351 383 0.731248 0.682111 0.000000
-17.896477 -16.551155 -0.397876 373 0.731248 0.682111 0.000000
-17.893719 -16.548599 -0.390331 335 0.731248 0.682111 0.000000
-17.890907 -16.546000 -0.382777 313 0.731248 0.682111 0.000000
-17.890184 -16.545330 -0.375284 329 0.731248 0.682111 0.000000
-17.891882 -16.546907 -0.367828 369 0.731248 0.682111 0.000000
-17.895292 -16.550051 -0.360416 333 0.731248 0.682111 0.000000
-17.894297 -16.549135 -0.352905 343 0.731248 0.682111 0.000000
-17.894863 -16.549660 -0.345429 365 0.731248 0.682111 0.000000
-17.895798 -16.550522 -0.337961 345 0.731248 0.682111 0.000000
-17.896030 -16.550741 -0.330478 341 0.731248 0.682111 0.000000
-17.894491 -16.549320 -0.322962 373 0.731248 0.682111 0.000000
-17.890478 -16.545610 -0.315410 369 0.731248 0.682111 0.000000
-17.891478 -16.546520 -0.307940 373 0.731248 0.682111 0.000000
-17.891592 -16.546633 -0.300459 347 0.731248 0.682111 0.000000
-17.890266 -16.545410 -0.292951 365 0.731248 0.682111 0.000000
-17.890545 -16.545664 -0.285468 347 0.731248 0.682111 0.000000
-17.893232 -16.548147 -0.278023 395 0.731248 0.682111 0.000000
