786
-1.737452 -1.445122 -0.387424 649 0.724237 0.689551 0.000000
-1.736659 -1.444454 -0.386541 653 0.724237 0.689551 0.000000
-1.735581 -1.443567 -0.385590 653 0.724237 0.689551 0.000000
-1.735725 -1.443683 -0.384909 645 0.724237 0.689551 0.000000
-1.736594 -1.444399 -0.384381 647 0.724237 0.689551 0.000000
-1.737629 -1.445262 -0.383892 651 0.724237 0.689551 0.000000
-1.737719 -1.445334 -0.383201 653 0.724237 0.689551 0.000000
-1.737974 -1.445552 -0.382539 669 0.724237 0.689551 0.000000
-1.738563 -1.446041 -0.381954 671 0.724237 0.689551 0.000000
-1.737429 -1.445096 -0.380994 665 0.724237 0.689551 0.000000
-1.736747 -1.444530 -0.380130 663 0.724237 0.689551 0.000000
-1.736438 -1.444267 -0.379353 663 0.724237 0.689551 0.000000
-1.735974 -1.443878 -0.378547 657 0.724237 0.689551 0.000000
-1.736400 -1.444235 -0.377923 661 0.724237 0.689551 0.000000
-1.736702 -1.444491 -0.377270 653 0.724237 0.689551 0.000000
-1.736526 -1.444335 -0.376522 647 0.724237 0.689551 0.000000
-1.736773 -1.444547 -0.375859 637 0.724237 0.689551 0.000000
-1.736972 -1.444707 -0.375198 653 0.724237 0.689551 0.000000
-1.737219 -1.444919 -0.374535 659 0.724237 0.689551 0.000000
-1.737480 -1.445130 -0.373873 659 0.724237 0.689551 0.000000
-1.736408 -1.444235 -0.372933 637 0.724237 0.689551 0.000000
-1.735765 -1.443701 -0.372088 623 0.724237 0.689551 0.000000
-1.736970 -1.444702 -0.371628 643 0.724237 0.689551 0.000000
-1.737498 -1.445141 -0.371033 661 0.724237 0.689551 0.000000
-1.736979 -1.444708 -0.370208 653 0.724237 0.689551 0.000000
-1.736898 -1.444641 -0.369478 653 0.724237 0.689551 0.000000
-1.737582 -1.445220 -0.368912 663 0.724237 0.689551 0.000000
-1.738234 -1.445760 -0.368336 675 0.724237 0.689551 0.000000
-1.738254 -1.445775 -0.367626 675 0.724237 0.689551 0.000000
-1.737516 -1.445151 -0.366763 663 0.724237 0.689551 0.000000
-1.737592 -1.445225 -0.366062 657 0.724237 0.689551 0.000000
-1.738016 -1.445568 -0.365438 657 0.724237 0.689551 0.000000
-1.738100 -1.445648 -0.364747 665 0.724237 0.689551 0.000000
-1.738744 -1.446181 -0.364172 671 0.724237 0.689551 0.000000
-1.739161 -1.446518 -0.363538 669 0.724237 0.689551 0.000000
-1.738417 -1.445902 -0.362675 659 0.724237 0.689551 0.000000
-1.737383 -1.445039 -0.361754 671 0.724237 0.689551 0.000000
-1.736858 -1.444613 -0.360928 661 0.724237 0.689551 0.000000
-1.737611 -1.445234 -0.360372 659 0.724237 0.689551 0.000000
-1.738030 -1.445585 -0.359748 669 0.724237 0.689551 0.000000
-1.738112 -1.445651 -0.359057 685 0.724237 0.689551 0.000000
-1.737866 -1.445438 -0.358289 687 0.724237 0.689551 0.000000
-1.736834 -1.444589 -0.357369 671 0.724237 0.689551 0.000000
-1.737033 -1.444749 -0.356697 659 0.724237 0.689551 0.000000
-1.737785 -1.445371 -0.356140 669 0.724237 0.689551 0.000000
-1.737696 -1.445298 -0.355411 679 0.724237 0.689551 0.000000
-1.736836 -1.444587 -0.354528 667 0.724237 0.689551 0.000000
-1.736138 -1.444009 -0.353675 649 0.724237 0.689551 0.000000
-1.736774 -1.444536 -0.353099 651 0.724237 0.689551 0.000000
-1.737910 -1.445481 -0.352619 675 0.724237 0.689551 0.000000
-1.737781 -1.445362 -0.351880 677 0.724237 0.689551 0.000000
-1.737248 -1.444930 -0.351065 669 0.724237 0.689551 0.000000
-1.737494 -1.445128 -0.350403 661 0.724237 0.689551 0.000000
-1.736796 -1.444550 -0.349549 669 0.724237 0.689551 0.000000
-1.736879 -1.444616 -0.348858 667 0.724237 0.689551 0.000000
-1.737180 -1.444872 -0.348205 663 0.724237 0.689551 0.000000
-1.737550 -1.445171 -0.347572 671 0.724237 0.689551 0.000000
-1.738343 -1.445838 -0.347015 665 0.724237 0.689551 0.000000
-1.737489 -1.445120 -0.346133 649 0.724237 0.689551 0.000000
-1.736900 -1.444630 -0.345308 623 0.724237 0.689551 0.000000
-1.738036 -1.445574 -0.344828 631 0.724237 0.689551 0.000000
-1.738283 -1.445786 -0.344165 645 0.724237 0.689551 0.000000
-1.737640 -1.445252 -0.343331 657 0.724237 0.689551 0.000000
-1.738494 -1.445956 -0.342783 653 0.724237 0.689551 0.000000
-1.738693 -1.446116 -0.342112 641 0.724237 0.689551 0.000000
-1.738713 -1.446131 -0.341402 625 0.724237 0.689551 0.000000
-1.738906 -1.446299 -0.340730 635 0.724237 0.689551 0.000000
-1.738309 -1.445803 -0.339905 653 0.724237 0.689551 0.000000
-1.736949 -1.444675 -0.338937 649 0.724237 0.689551 0.000000
-1.736415 -1.444229 -0.338122 651 0.724237 0.689551 0.000000
-1.736552 -1.444339 -0.337441 649 0.724237 0.689551 0.000000
-1.737134 -1.444822 -0.336845 651 0.724237 0.689551 0.000000
-1.737317 -1.444970 -0.336174 639 0.724237 0.689551 0.000000
-1.737228 -1.444897 -0.335445 639 0.724237 0.689551 0.000000
-1.737701 -1.445292 -0.334820 643 0.724237 0.689551 0.000000
-1.737837 -1.445401 -0.334139 639 0.724237 0.689551 0.000000
-1.738363 -1.444985 -0.411141 689 0.724237 0.689551 0.000000
-1.738569 -1.445151 -0.410469 675 0.724237 0.689551 0.000000
-1.738004 -1.444680 -0.409624 659 0.724237 0.689551 0.000000
-1.736994 -1.443835 -0.408673 649 0.724237 0.689551 0.000000
-1.736423 -1.443372 -0.407818 633 0.724237 0.689551 0.000000
-1.737409 -1.444183 -0.407339 633 0.724237 0.689551 0.000000
-1.737773 -1.444489 -0.406706 649 0.724237 0.689551 0.000000
-1.737488 -1.444245 -0.405918 661 0.724237 0.689551 0.000000
-1.737626 -1.444369 -0.405237 661 0.724237 0.689551 0.000000
-1.737341 -1.444124 -0.404459 657 0.724237 0.689551 0.000000
-1.736939 -1.443785 -0.403643 663 0.724237 0.689551 0.000000
-1.736476 -1.443410 -0.402827 677 0.724237 0.689551 0.000000
-1.737408 -1.444177 -0.402319 675 0.724237 0.689551 0.000000
-1.738326 -1.444945 -0.401821 675 0.724237 0.689551 0.000000
-1.738144 -1.444796 -0.401062 679 0.724237 0.689551 0.000000
-1.738288 -1.444913 -0.400381 683 0.724237 0.689551 0.000000
-1.738386 -1.444991 -0.399680 691 0.724237 0.689551 0.000000
-1.737486 -1.444249 -0.398768 679 0.724237 0.689551 0.000000
-1.736694 -1.443581 -0.397875 665 0.724237 0.689551 0.000000
-1.737557 -1.444305 -0.397347 663 0.724237 0.689551 0.000000
-1.737935 -1.444610 -0.396724 685 0.724237 0.689551 0.000000
-1.736856 -1.443723 -0.395764 683 0.724237 0.689551 0.000000
-1.736892 -1.443751 -0.395063 675 0.724237 0.689551 0.000000
-1.737427 -1.444196 -0.394469 665 0.724237 0.689551 0.000000
-1.737859 -1.444545 -0.393845 659 0.724237 0.689551 0.000000
-1.738613 -1.445181 -0.393298 665 0.724237 0.689551 0.000000
-1.738929 -1.445436 -0.392655 669 0.724237 0.689551 0.000000
-1.738630 -1.445193 -0.391878 669 0.724237 0.689551 0.000000
-1.737948 -1.444627 -0.391004 663 0.724237 0.689551 0.000000
-1.737709 -1.444420 -0.390236 653 0.724237 0.689551 0.000000
-1.737020 -1.443848 -0.389372 647 0.724237 0.689551 0.000000
-1.736556 -1.443459 -0.388556 653 0.724237 0.689551 0.000000
-1.736694 -1.443583 -0.387875 665 0.724237 0.689551 0.000000
-1.736784 -1.443655 -0.387184 655 0.724237 0.689551 0.000000
-1.737045 -1.443866 -0.386522 653 0.724237 0.689551 0.000000
-1.736863 -1.443717 -0.385773 647 0.724237 0.689551 0.000000
-1.736890 -1.443739 -0.385063 635 0.724237 0.689551 0.000000
-1.736988 -1.443817 -0.384372 635 0.724237 0.689551 0.000000
-1.737523 -1.444263 -0.383777 645 0.724237 0.689551 0.000000
-1.737559 -1.444290 -0.383067 651 0.724237 0.689551 0.000000
-1.737868 -1.444553 -0.382424 645 0.724237 0.689551 0.000000
-1.737513 -1.444252 -0.381628 653 0.724237 0.689551 0.000000
-1.736153 -1.443124 -0.380620 655 0.724237 0.689551 0.000000
-1.736359 -1.443290 -0.379958 657 0.724237 0.689551 0.000000
-1.737386 -1.444147 -0.379469 655 0.724237 0.689551 0.000000
-1.737812 -1.444504 -0.378845 649 0.724237 0.689551 0.000000
-1.737620 -1.444335 -0.378087 655 0.724237 0.689551 0.000000
-1.737267 -1.444048 -0.377300 651 0.724237 0.689551 0.000000
-1.737856 -1.444537 -0.376714 649 0.724237 0.689551 0.000000
-1.738212 -1.444837 -0.376081 641 0.724237 0.689551 0.000000
-1.737865 -1.444543 -0.375284 641 0.724237 0.689551 0.000000
-1.737901 -1.444571 -0.374584 657 0.724237 0.689551 0.000000
-1.737702 -1.444410 -0.373826 655 0.724237 0.689551 0.000000
-1.737239 -1.444020 -0.373020 641 0.724237 0.689551 0.000000
-1.736829 -1.443675 -0.372213 639 0.724237 0.689551 0.000000
-1.735859 -1.442876 -0.371302 637 0.724237 0.689551 0.000000
-1.736284 -1.443219 -0.370678 649 0.724237 0.689551 0.000000
-1.737522 -1.444260 -0.370227 659 0.724237 0.689551 0.000000
-1.737612 -1.444332 -0.369536 665 0.724237 0.689551 0.000000
-1.737428 -1.444169 -0.368788 675 0.724237 0.689551 0.000000
-1.737230 -1.444008 -0.368030 673 0.724237 0.689551 0.000000
-1.737266 -1.444036 -0.367329 653 0.724237 0.689551 0.000000
-1.737684 -1.444387 -0.366706 655 0.724237 0.689551 0.000000
-1.738375 -1.444958 -0.366140 673 0.724237 0.689551 0.000000
-1.738692 -1.445227 -0.365487 685 0.724237 0.689551 0.000000
-1.738500 -1.445058 -0.364738 677 0.724237 0.689551 0.000000
-1.738528 -1.445080 -0.364028 663 0.724237 0.689551 0.000000
-1.738229 -1.444837 -0.363251 661 0.724237 0.689551 0.000000
-1.737976 -1.444632 -0.362493 661 0.724237 0.689551 0.000000
-1.737497 -1.444230 -0.361687 667 0.724237 0.689551 0.000000
-1.737641 -1.444346 -0.361006 653 0.724237 0.689551 0.000000
-1.737888 -1.444558 -0.360344 661 0.724237 0.689551 0.000000
-1.737362 -1.444118 -0.359518 673 0.724237 0.689551 0.000000
-1.738232 -1.444834 -0.358991 695 0.724237 0.689551 0.000000
-1.738479 -1.445047 -0.358328 687 0.724237 0.689551 0.000000
-1.737999 -1.444645 -0.357523 671 0.724237 0.689551 0.000000
-1.737980 -1.444629 -0.356803 665 0.724237 0.689551 0.000000
-1.737563 -1.444277 -0.356007 671 0.724237 0.689551 0.000000
-1.737256 -1.444028 -0.355239 683 0.724237 0.689551 0.000000
-1.737338 -1.444094 -0.354539 667 0.724237 0.689551 0.000000
-1.737257 -1.444027 -0.353809 659 0.724237 0.689551 0.000000
-1.737777 -1.444460 -0.353205 655 0.724237 0.689551 0.000000
-1.738358 -1.444943 -0.352619 667 0.724237 0.689551 0.000000
-1.738058 -1.444686 -0.351842 675 0.724237 0.689551 0.000000
-1.737969 -1.444613 -0.351113 679 0.724237 0.689551 0.000000
-1.737833 -1.444502 -0.350374 675 0.724237 0.689551 0.000000
-1.737915 -1.444568 -0.349683 671 0.724237 0.689551 0.000000
-1.738606 -1.445139 -0.349107 673 0.724237 0.689551 0.000000
-1.738188 -1.444788 -0.348321 675 0.724237 0.689551 0.000000
-1.737545 -1.444254 -0.347477 665 0.724237 0.689551 0.000000
-1.738634 -1.445160 -0.346987 655 0.724237 0.689551 0.000000
-1.738928 -1.445410 -0.346334 647 0.724237 0.689551 0.000000
-1.738019 -1.444648 -0.345442 641 0.724237 0.689551 0.000000
-1.738150 -1.444765 -0.344761 643 0.724237 0.689551 0.000000
-1.738621 -1.445146 -0.344137 643 0.724237 0.689551 0.000000
-1.738751 -1.445264 -0.343456 649 0.724237 0.689551 0.000000
-1.738006 -1.444634 -0.342602 641 0.724237 0.689551 0.000000
-1.738587 -1.445117 -0.342007 631 0.724237 0.689551 0.000000
-1.739052 -1.445505 -0.341383 633 0.724237 0.689551 0.000000
-1.738464 -1.445015 -0.340558 647 0.724237 0.689551 0.000000
-1.737650 -1.444342 -0.339695 649 0.724237 0.689551 0.000000
-1.737615 -1.444314 -0.338976 647 0.724237 0.689551 0.000000
-1.737978 -1.444606 -0.338343 651 0.724237 0.689551 0.000000
-1.737780 -1.444445 -0.337594 653 0.724237 0.689551 0.000000
-1.737683 -1.444366 -0.336865 655 0.724237 0.689551 0.000000
-1.737765 -1.444432 -0.336174 657 0.724237 0.689551 0.000000
-1.737958 -1.444600 -0.335503 651 0.724237 0.689551 0.000000
-1.738086 -1.444703 -0.334811 643 0.724237 0.689551 0.000000
-1.737943 -1.444587 -0.334083 637 0.724237 0.689551 0.000000
-1.735986 -1.441850 -0.409737 659 0.724237 0.689551 0.000000
-1.736692 -1.442434 -0.409181 653 0.724237 0.689551 0.000000
-1.737391 -1.443012 -0.408635 647 0.724237 0.689551 0.000000
-1.736771 -1.442496 -0.407770 633 0.724237 0.689551 0.000000
-1.736760 -1.442486 -0.407050 625 0.724237 0.689551 0.000000
-1.737903 -1.443437 -0.406600 655 0.724237 0.689551 0.000000
-1.738712 -1.444117 -0.406073 677 0.724237 0.689551 0.000000
-1.738810 -1.444195 -0.405382 675 0.724237 0.689551 0.000000
-1.738579 -1.443995 -0.404614 661 0.724237 0.689551 0.000000
-1.738717 -1.444119 -0.403923 669 0.724237 0.689551 0.000000
-1.739204 -1.444512 -0.403319 673 0.724237 0.689551 0.000000
-1.739022 -1.444364 -0.402560 681 0.724237 0.689551 0.000000
-1.739003 -1.444347 -0.401840 689 0.724237 0.689551 0.000000
-1.738766 -1.444155 -0.401073 689 0.724237 0.689551 0.000000
-1.737701 -1.443266 -0.400112 693 0.724237 0.689551 0.000000
-1.736739 -1.442474 -0.399180 687 0.724237 0.689551 0.000000
-1.736384 -1.442173 -0.398384 673 0.724237 0.689551 0.000000
-1.736927 -1.442624 -0.397799 659 0.724237 0.689551 0.000000
-1.737625 -1.443202 -0.397243 657 0.724237 0.689551 0.000000
-1.738106 -1.443603 -0.396628 679 0.724237 0.689551 0.000000
-1.737923 -1.443454 -0.395880 679 0.724237 0.689551 0.000000
-1.737967 -1.443489 -0.395169 671 0.724237 0.689551 0.000000
-1.738111 -1.443605 -0.394488 673 0.724237 0.689551 0.000000
-1.738038 -1.443545 -0.393759 659 0.724237 0.689551 0.000000
-1.737847 -1.443390 -0.393000 647 0.724237 0.689551 0.000000
-1.737500 -1.443095 -0.392214 657 0.724237 0.689551 0.000000
-1.737255 -1.442896 -0.391446 653 0.724237 0.689551 0.000000
-1.736900 -1.442595 -0.390649 639 0.724237 0.689551 0.000000
-1.736998 -1.442673 -0.389958 633 0.724237 0.689551 0.000000
-1.736917 -1.442607 -0.389229 633 0.724237 0.689551 0.000000
-1.736563 -1.442320 -0.388432 637 0.724237 0.689551 0.000000
-1.737604 -1.443174 -0.387953 665 0.724237 0.689551 0.000000
-1.738358 -1.443810 -0.387406 679 0.724237 0.689551 0.000000
-1.737894 -1.443421 -0.386590 669 0.724237 0.689551 0.000000
-1.737096 -1.442761 -0.385697 649 0.724237 0.689551 0.000000
-1.737411 -1.443016 -0.385054 641 0.724237 0.689551 0.000000
-1.738329 -1.443784 -0.384536 637 0.724237 0.689551 0.000000
-1.738145 -1.443621 -0.383788 651 0.724237 0.689551 0.000000
-1.737067 -1.442734 -0.382837 645 0.724237 0.689551 0.000000
-1.736274 -1.442066 -0.381954 639 0.724237 0.689551 0.000000
-1.737021 -1.442695 -0.381398 641 0.724237 0.689551 0.000000
-1.737945 -1.443456 -0.380889 651 0.724237 0.689551 0.000000
-1.738145 -1.443630 -0.380218 657 0.724237 0.689551 0.000000
-1.738461 -1.443885 -0.379575 647 0.724237 0.689551 0.000000
-1.738098 -1.443577 -0.378778 653 0.724237 0.689551 0.000000
-1.737799 -1.443334 -0.378001 655 0.724237 0.689551 0.000000
-1.738443 -1.443868 -0.377435 641 0.724237 0.689551 0.000000
-1.738752 -1.444130 -0.376782 639 0.724237 0.689551 0.000000
-1.738343 -1.443785 -0.375986 643 0.724237 0.689551 0.000000
-1.737762 -1.443301 -0.375151 639 0.724237 0.689551 0.000000
-1.737634 -1.443197 -0.374402 641 0.724237 0.689551 0.000000
-1.737888 -1.443401 -0.373750 659 0.724237 0.689551 0.000000
-1.738243 -1.443702 -0.373117 659 0.724237 0.689551 0.000000
-1.738170 -1.443641 -0.372387 661 0.724237 0.689551 0.000000
-1.738034 -1.443531 -0.371638 655 0.724237 0.689551 0.000000
-1.738070 -1.443559 -0.370938 653 0.724237 0.689551 0.000000
-1.738589 -1.443991 -0.370333 671 0.724237 0.689551 0.000000
-1.738679 -1.444063 -0.369643 677 0.724237 0.689551 0.000000
-1.738106 -1.443586 -0.368808 677 0.724237 0.689551 0.000000
-1.737908 -1.443425 -0.368059 661 0.724237 0.689551 0.000000
-1.738053 -1.443541 -0.367378 645 0.724237 0.689551 0.000000
-1.738252 -1.443701 -0.366706 653 0.724237 0.689551 0.000000
-1.739224 -1.444513 -0.366198 675 0.724237 0.689551 0.000000
-1.739197 -1.444491 -0.365478 685 0.724237 0.689551 0.000000
-1.738226 -1.443678 -0.364567 673 0.724237 0.689551 0.000000
-1.738145 -1.443612 -0.363837 657 0.724237 0.689551 0.000000
-1.738680 -1.444057 -0.363232 653 0.724237 0.689551 0.000000
-1.738653 -1.444034 -0.362513 663 0.724237 0.689551 0.000000
-1.738510 -1.443918 -0.361774 669 0.724237 0.689551 0.000000
-1.738154 -1.443616 -0.360987 661 0.724237 0.689551 0.000000
-1.737738 -1.443279 -0.360191 665 0.724237 0.689551 0.000000
-1.738264 -1.443704 -0.359586 681 0.724237 0.689551 0.000000
-1.738402 -1.443828 -0.358905 687 0.724237 0.689551 0.000000
-1.738430 -1.443849 -0.358205 683 0.724237 0.689551 0.000000
-1.738075 -1.443548 -0.357418 683 0.724237 0.689551 0.000000
-1.737378 -1.442970 -0.356564 673 0.724237 0.689551 0.000000
-1.737742 -1.443277 -0.355931 671 0.724237 0.689551 0.000000
-1.738213 -1.443657 -0.355317 667 0.724237 0.689551 0.000000
-1.738077 -1.443547 -0.354578 673 0.724237 0.689551 0.000000
-1.737372 -1.442962 -0.353724 669 0.724237 0.689551 0.000000
-1.738179 -1.443628 -0.353177 661 0.724237 0.689551 0.000000
-1.738598 -1.443979 -0.352553 667 0.724237 0.689551 0.000000
-1.737791 -1.443312 -0.351680 675 0.724237 0.689551 0.000000
-1.737483 -1.443049 -0.350903 677 0.724237 0.689551 0.000000
-1.738783 -1.444139 -0.350451 677 0.724237 0.689551 0.000000
-1.739933 -1.445082 -0.349971 681 0.724237 0.689551 0.000000
-1.739401 -1.444651 -0.349156 675 0.724237 0.689551 0.000000
-1.739092 -1.444387 -0.348379 665 0.724237 0.689551 0.000000
-1.737895 -1.443392 -0.347439 647 0.724237 0.689551 0.000000
-1.736808 -1.442485 -0.346509 639 0.724237 0.689551 0.000000
-1.738053 -1.443531 -0.346048 657 0.724237 0.689551 0.000000
-1.738299 -1.443729 -0.345385 663 0.724237 0.689551 0.000000
-1.738772 -1.444124 -0.344771 663 0.724237 0.689551 0.000000
-1.739688 -1.444878 -0.344243 655 0.724237 0.689551 0.000000
-1.738874 -1.444205 -0.343370 655 0.724237 0.689551 0.000000
-1.738456 -1.443854 -0.342574 651 0.724237 0.689551 0.000000
-1.739483 -1.444710 -0.342065 649 0.724237 0.689551 0.000000
-1.739558 -1.444769 -0.341374 651 0.724237 0.689551 0.000000
-1.738526 -1.443920 -0.340463 657 0.724237 0.689551 0.000000
-1.737438 -1.443013 -0.339543 657 0.724237 0.689551 0.000000
-1.737965 -1.443452 -0.338938 657 0.724237 0.689551 0.000000
-1.738881 -1.444206 -0.338400 667 0.724237 0.689551 0.000000
-1.738347 -1.443760 -0.337595 667 0.724237 0.689551 0.000000
-1.737813 -1.443314 -0.336780 673 0.724237 0.689551 0.000000
-1.737390 -1.442970 -0.335993 677 0.724237 0.689551 0.000000
-1.736910 -1.442568 -0.335188 663 0.724237 0.689551 0.000000
-1.737164 -1.442773 -0.334525 653 0.724237 0.689551 0.000000
-1.738299 -1.443717 -0.334035 651 0.724237 0.689551 0.000000
-1.737895 -1.442483 -0.410075 677 0.724237 0.689551 0.000000
-1.736933 -1.441690 -0.409134 661 0.724237 0.689551 0.000000
-1.737140 -1.441857 -0.408462 653 0.724237 0.689551 0.000000
-1.737457 -1.442125 -0.407819 637 0.724237 0.689551 0.000000
-1.737773 -1.442380 -0.407186 641 0.724237 0.689551 0.000000
-1.738035 -1.442605 -0.406524 653 0.724237 0.689551 0.000000
-1.737908 -1.442500 -0.405785 665 0.724237 0.689551 0.000000
-1.738169 -1.442711 -0.405123 659 0.724237 0.689551 0.000000
-1.738649 -1.443112 -0.404518 661 0.724237 0.689551 0.000000
-1.739573 -1.443873 -0.404020 671 0.724237 0.689551 0.000000
-1.739999 -1.444230 -0.403396 673 0.724237 0.689551 0.000000
-1.740268 -1.444447 -0.402744 683 0.724237 0.689551 0.000000
-1.739915 -1.444159 -0.401947 691 0.724237 0.689551 0.000000
-1.739342 -1.443682 -0.401102 687 0.724237 0.689551 0.000000
-1.739050 -1.443445 -0.400315 681 0.724237 0.689551 0.000000
-1.738812 -1.443239 -0.399547 673 0.724237 0.689551 0.000000
-1.738684 -1.443134 -0.398808 665 0.724237 0.689551 0.000000
-1.737777 -1.442386 -0.397886 659 0.724237 0.689551 0.000000
-1.738537 -1.443014 -0.397339 663 0.724237 0.689551 0.000000
-1.738682 -1.443130 -0.396658 665 0.724237 0.689551 0.000000
-1.738336 -1.442849 -0.395871 663 0.724237 0.689551 0.000000
-1.739089 -1.443471 -0.395324 667 0.724237 0.689551 0.000000
-1.739241 -1.443593 -0.394643 677 0.724237 0.689551 0.000000
-1.738333 -1.442845 -0.393721 675 0.724237 0.689551 0.000000
-1.737261 -1.441950 -0.392770 677 0.724237 0.689551 0.000000
-1.736688 -1.441473 -0.391925 671 0.724237 0.689551 0.000000
-1.737223 -1.441918 -0.391331 673 0.724237 0.689551 0.000000
-1.738538 -1.443007 -0.390909 661 0.724237 0.689551 0.000000
-1.739400 -1.443717 -0.390391 649 0.724237 0.689551 0.000000
-1.738437 -1.442924 -0.389460 649 0.724237 0.689551 0.000000
-1.738090 -1.442629 -0.388663 661 0.724237 0.689551 0.000000
-1.738399 -1.442892 -0.388020 673 0.724237 0.689551 0.000000
-1.738326 -1.442832 -0.387291 675 0.724237 0.689551 0.000000
-1.739133 -1.443497 -0.386754 675 0.724237 0.689551 0.000000
-1.739340 -1.443664 -0.386092 665 0.724237 0.689551 0.000000
-1.738979 -1.443371 -0.385295 653 0.724237 0.689551 0.000000
-1.738851 -1.443266 -0.384556 653 0.724237 0.689551 0.000000
-1.738612 -1.443060 -0.383788 661 0.724237 0.689551 0.000000
-1.738422 -1.442905 -0.383030 653 0.724237 0.689551 0.000000
-1.739012 -1.443394 -0.382445 649 0.724237 0.689551 0.000000
-1.739375 -1.443701 -0.381811 657 0.724237 0.689551 0.000000
-1.739520 -1.443817 -0.381130 663 0.724237 0.689551 0.000000
-1.739890 -1.444116 -0.380497 663 0.724237 0.689551 0.000000
-1.739645 -1.443917 -0.379729 663 0.724237 0.689551 0.000000
-1.739900 -1.444135 -0.379067 659 0.724237 0.689551 0.000000
-1.739553 -1.443841 -0.378280 661 0.724237 0.689551 0.000000
-1.738972 -1.443357 -0.377445 659 0.724237 0.689551 0.000000
-1.739562 -1.443846 -0.376860 653 0.724237 0.689551 0.000000
-1.739364 -1.443685 -0.376101 653 0.724237 0.689551 0.000000
-1.738900 -1.443296 -0.375286 649 0.724237 0.689551 0.000000
-1.739318 -1.443647 -0.374672 655 0.724237 0.689551 0.000000
-1.739845 -1.444086 -0.374067 671 0.724237 0.689551 0.000000
-1.739210 -1.443558 -0.373223 665 0.724237 0.689551 0.000000
-1.738972 -1.443351 -0.372455 657 0.724237 0.689551 0.000000
-1.738891 -1.443285 -0.371726 665 0.724237 0.689551 0.000000
-1.739200 -1.443547 -0.371083 655 0.724237 0.689551 0.000000
-1.739562 -1.443840 -0.370440 659 0.724237 0.689551 0.000000
-1.738592 -1.443041 -0.369528 671 0.724237 0.689551 0.000000
-1.737574 -1.442190 -0.368597 669 0.724237 0.689551 0.000000
-1.737493 -1.442124 -0.367868 659 0.724237 0.689551 0.000000
-1.738800 -1.443207 -0.367436 659 0.724237 0.689551 0.000000
-1.739327 -1.443645 -0.366832 683 0.724237 0.689551 0.000000
-1.739526 -1.443806 -0.366160 697 0.724237 0.689551 0.000000
-1.739165 -1.443512 -0.365373 687 0.724237 0.689551 0.000000
-1.737750 -1.442341 -0.364365 671 0.724237 0.689551 0.000000
-1.738441 -1.442912 -0.363799 663 0.724237 0.689551 0.000000
-1.740418 -1.444551 -0.363492 669 0.724237 0.689551 0.000000
-1.740228 -1.444396 -0.362743 675 0.724237 0.689551 0.000000
-1.739148 -1.443495 -0.361813 671 0.724237 0.689551 0.000000
-1.737897 -1.442455 -0.360844 663 0.724237 0.689551 0.000000
-1.737589 -1.442206 -0.360067 671 0.724237 0.689551 0.000000
-1.738731 -1.443142 -0.359587 673 0.724237 0.689551 0.000000
-1.738869 -1.443266 -0.358905 667 0.724237 0.689551 0.000000
-1.738343 -1.442827 -0.358090 673 0.724237 0.689551 0.000000
-1.738262 -1.442760 -0.357361 691 0.724237 0.689551 0.000000
-1.738679 -1.443097 -0.356737 683 0.724237 0.689551 0.000000
-1.738926 -1.443309 -0.356075 681 0.724237 0.689551 0.000000
-1.739125 -1.443469 -0.355403 677 0.724237 0.689551 0.000000
-1.740322 -1.444464 -0.354932 675 0.724237 0.689551 0.000000
-1.740514 -1.444618 -0.354261 671 0.724237 0.689551 0.000000
-1.740036 -1.444230 -0.353455 675 0.724237 0.689551 0.000000
-1.739619 -1.443879 -0.352659 683 0.724237 0.689551 0.000000
-1.738976 -1.443345 -0.351824 687 0.724237 0.689551 0.000000
-1.738669 -1.443095 -0.351047 679 0.724237 0.689551 0.000000
-1.739709 -1.443950 -0.350548 677 0.724237 0.689551 0.000000
-1.739941 -1.444149 -0.349886 689 0.724237 0.689551 0.000000
-1.740140 -1.444310 -0.349214 699 0.724237 0.689551 0.000000
-1.739505 -1.443782 -0.348370 689 0.724237 0.689551 0.000000
-1.737801 -1.442363 -0.347325 667 0.724237 0.689551 0.000000
-1.737883 -1.442429 -0.346634 643 0.724237 0.689551 0.000000
-1.739354 -1.443658 -0.346211 649 0.724237 0.689551 0.000000
-1.739662 -1.443906 -0.345558 669 0.724237 0.689551 0.000000
-1.739573 -1.443834 -0.344839 673 0.724237 0.689551 0.000000
-1.739984 -1.444178 -0.344205 661 0.724237 0.689551 0.000000
-1.739731 -1.443973 -0.343447 665 0.724237 0.689551 0.000000
-1.739711 -1.443943 -0.342728 679 0.724237 0.689551 0.000000
-1.739787 -1.444016 -0.342037 679 0.724237 0.689551 0.000000
-1.739033 -1.443380 -0.341184 661 0.724237 0.689551 0.000000
-1.738103 -1.442613 -0.340292 661 0.724237 0.689551 0.000000
-1.738130 -1.442634 -0.339592 659 0.724237 0.689551 0.000000
-1.739492 -1.443761 -0.339139 665 0.724237 0.689551 0.000000
-1.739403 -1.443689 -0.338410 673 0.724237 0.689551 0.000000
-1.739033 -1.443389 -0.337633 679 0.724237 0.689551 0.000000
-1.739670 -1.443916 -0.337048 679 0.724237 0.689551 0.000000
-1.739027 -1.443382 -0.336214 679 0.724237 0.689551 0.000000
-1.738048 -1.442563 -0.335322 659 0.724237 0.689551 0.000000
-1.738738 -1.443134 -0.334746 661 0.724237 0.689551 0.000000
-1.738978 -1.443340 -0.334084 667 0.724237 0.689551 0.000000
-1.738214 -1.441826 -0.409327 667 0.724237 0.689551 0.000000
-1.737929 -1.441582 -0.408539 649 0.724237 0.689551 0.000000
-1.738246 -1.441851 -0.407907 655 0.724237 0.689551 0.000000
-1.739287 -1.442705 -0.407427 655 0.724237 0.689551 0.000000
-1.739713 -1.443063 -0.406814 673 0.724237 0.689551 0.000000
-1.739694 -1.443046 -0.406084 671 0.724237 0.689551 0.000000
-1.739738 -1.443081 -0.405383 669 0.724237 0.689551 0.000000
-1.740101 -1.443387 -0.404750 667 0.724237 0.689551 0.000000
-1.740534 -1.443737 -0.404136 669 0.724237 0.689551 0.000000
-1.740522 -1.443727 -0.403416 675 0.724237 0.689551 0.000000
-1.740278 -1.443528 -0.402638 681 0.724237 0.689551 0.000000
-1.740430 -1.443650 -0.401957 683 0.724237 0.689551 0.000000
-1.740356 -1.443590 -0.401228 687 0.724237 0.689551 0.000000
-1.739900 -1.443207 -0.400412 675 0.724237 0.689551 0.000000
-1.739273 -1.442685 -0.399547 665 0.724237 0.689551 0.000000
-1.738974 -1.442442 -0.398770 657 0.724237 0.689551 0.000000
-1.739843 -1.443158 -0.398252 655 0.724237 0.689551 0.000000
-1.739770 -1.443098 -0.397513 659 0.724237 0.689551 0.000000
-1.739307 -1.442723 -0.396697 663 0.724237 0.689551 0.000000
-1.739288 -1.442707 -0.395977 669 0.724237 0.689551 0.000000
-1.738496 -1.442039 -0.395084 671 0.724237 0.689551 0.000000
-1.737425 -1.441158 -0.394134 671 0.724237 0.689551 0.000000
-1.738411 -1.441969 -0.393635 685 0.724237 0.689551 0.000000
-1.739493 -1.442869 -0.393165 703 0.724237 0.689551 0.000000
-1.740027 -1.443314 -0.392570 703 0.724237 0.689551 0.000000
-1.739783 -1.443115 -0.391803 695 0.724237 0.689551 0.000000
-1.739210 -1.442638 -0.390958 681 0.724237 0.689551 0.000000
-1.739362 -1.442760 -0.390276 673 0.724237 0.689551 0.000000
-1.739289 -1.442700 -0.389547 671 0.724237 0.689551 0.000000
-1.738428 -1.441989 -0.388645 673 0.724237 0.689551 0.000000
-1.738689 -1.442200 -0.387982 671 0.724237 0.689551 0.000000
-1.739333 -1.442733 -0.387416 671 0.724237 0.689551 0.000000
-1.739485 -1.442856 -0.386735 667 0.724237 0.689551 0.000000
-1.739911 -1.443213 -0.386111 663 0.724237 0.689551 0.000000
-1.739556 -1.442912 -0.385324 673 0.724237 0.689551 0.000000
-1.739428 -1.442807 -0.384576 675 0.724237 0.689551 0.000000
-1.739573 -1.442924 -0.383894 673 0.724237 0.689551 0.000000
-1.738986 -1.442448 -0.383060 665 0.724237 0.689551 0.000000
-1.739801 -1.443120 -0.382522 665 0.724237 0.689551 0.000000
-1.740054 -1.443324 -0.381860 669 0.724237 0.689551 0.000000
-1.739926 -1.443220 -0.381121 667 0.724237 0.689551 0.000000
-1.739790 -1.443109 -0.380372 657 0.724237 0.689551 0.000000
-1.739381 -1.442764 -0.379576 661 0.724237 0.689551 0.000000
-1.739581 -1.442938 -0.378904 675 0.724237 0.689551 0.000000
-1.740115 -1.443369 -0.378309 675 0.724237 0.689551 0.000000
-1.739761 -1.443082 -0.377512 669 0.724237 0.689551 0.000000
-1.739516 -1.442883 -0.376755 663 0.724237 0.689551 0.000000
-1.740269 -1.443505 -0.376198 651 0.724237 0.689551 0.000000
-1.740188 -1.443438 -0.375469 653 0.724237 0.689551 0.000000
-1.739888 -1.443182 -0.374691 663 0.724237 0.689551 0.000000
-1.740306 -1.443532 -0.374068 663 0.724237 0.689551 0.000000
-1.741012 -1.444116 -0.373501 657 0.724237 0.689551 0.000000
-1.741102 -1.444188 -0.372810 667 0.724237 0.689551 0.000000
-1.740350 -1.443566 -0.371937 673 0.724237 0.689551 0.000000
-1.739832 -1.443132 -0.371112 671 0.724237 0.689551 0.000000
-1.739859 -1.443154 -0.370412 675 0.724237 0.689551 0.000000
-1.739935 -1.443227 -0.369711 691 0.724237 0.689551 0.000000
-1.739417 -1.442794 -0.368895 681 0.724237 0.689551 0.000000
-1.738836 -1.442310 -0.368061 671 0.724237 0.689551 0.000000
-1.739980 -1.443261 -0.367580 671 0.724237 0.689551 0.000000
-1.741012 -1.444109 -0.367081 697 0.724237 0.689551 0.000000
-1.739981 -1.443260 -0.366160 713 0.724237 0.689551 0.000000
-1.738846 -1.442315 -0.365210 697 0.724237 0.689551 0.000000
-1.738094 -1.441693 -0.364347 679 0.724237 0.689551 0.000000
-1.738464 -1.441992 -0.363714 673 0.724237 0.689551 0.000000
-1.740325 -1.443536 -0.363387 675 0.724237 0.689551 0.000000
-1.740298 -1.443513 -0.362667 663 0.724237 0.689551 0.000000
-1.739608 -1.442941 -0.361814 653 0.724237 0.689551 0.000000
-1.739801 -1.443110 -0.361142 667 0.724237 0.689551 0.000000
-1.739829 -1.443131 -0.360432 687 0.724237 0.689551 0.000000
-1.739411 -1.442780 -0.359635 685 0.724237 0.689551 0.000000
-1.739002 -1.442435 -0.358839 657 0.724237 0.689551 0.000000
-1.739803 -1.443108 -0.358292 667 0.724237 0.689551 0.000000
-1.740111 -1.443356 -0.357649 687 0.724237 0.689551 0.000000
-1.738860 -1.442317 -0.356680 683 0.724237 0.689551 0.000000
-1.738833 -1.442294 -0.355960 675 0.724237 0.689551 0.000000
-1.739360 -1.442733 -0.355356 673 0.724237 0.689551 0.000000
-1.739100 -1.442522 -0.354598 673 0.724237 0.689551 0.000000
-1.739587 -1.442915 -0.353984 673 0.724237 0.689551 0.000000
-1.740887 -1.444006 -0.353532 675 0.724237 0.689551 0.000000
-1.740299 -1.443516 -0.352707 685 0.724237 0.689551 0.000000
-1.739547 -1.442893 -0.351844 699 0.724237 0.689551 0.000000
-1.740354 -1.443559 -0.351297 687 0.724237 0.689551 0.000000
-1.741107 -1.444181 -0.350730 679 0.724237 0.689551 0.000000
-1.741189 -1.444246 -0.350039 687 0.724237 0.689551 0.000000
-1.740772 -1.443895 -0.349243 701 0.724237 0.689551 0.000000
-1.740012 -1.443266 -0.348380 705 0.724237 0.689551 0.000000
-1.739035 -1.442461 -0.347478 673 0.724237 0.689551 0.000000
-1.738454 -1.441978 -0.346653 649 0.724237 0.689551 0.000000
-1.738419 -1.441949 -0.345944 655 0.724237 0.689551 0.000000
-1.739726 -1.443032 -0.345482 675 0.724237 0.689551 0.000000
-1.740144 -1.443383 -0.344858 669 0.724237 0.689551 0.000000
-1.739891 -1.443163 -0.344101 663 0.724237 0.689551 0.000000
-1.741634 -1.444613 -0.343725 691 0.724237 0.689551 0.000000
-1.742607 -1.445425 -0.343206 707 0.724237 0.689551 0.000000
-1.740520 -1.443683 -0.342095 691 0.724237 0.689551 0.000000
-1.738872 -1.442323 -0.341060 661 0.724237 0.689551 0.000000
-1.738618 -1.442104 -0.340302 661 0.724237 0.689551 0.000000
-1.739481 -1.442827 -0.339764 665 0.724237 0.689551 0.000000
-1.740718 -1.443853 -0.339293 661 0.724237 0.689551 0.000000
-1.740691 -1.443831 -0.338573 669 0.724237 0.689551 0.000000
-1.739603 -1.442924 -0.337653 673 0.724237 0.689551 0.000000
-1.738844 -1.442295 -0.336800 665 0.724237 0.689551 0.000000
-1.739035 -1.442449 -0.336128 669 0.724237 0.689551 0.000000
-1.739117 -1.442515 -0.335437 665 0.724237 0.689551 0.000000
-1.739644 -1.442954 -0.334823 681 0.724237 0.689551 0.000000
-1.739664 -1.442969 -0.334122 677 0.724237 0.689551 0.000000
-1.739313 -1.441854 -0.409482 693 0.724237 0.689551 0.000000
-1.739411 -1.441932 -0.408791 685 0.724237 0.689551 0.000000
-1.740179 -1.442566 -0.408244 693 0.724237 0.689551 0.000000
-1.739934 -1.442367 -0.407476 701 0.724237 0.689551 0.000000
-1.739861 -1.442307 -0.406747 703 0.724237 0.689551 0.000000
-1.740458 -1.442803 -0.406161 693 0.724237 0.689551 0.000000
-1.740939 -1.443204 -0.405557 681 0.724237 0.689551 0.000000
-1.740982 -1.443238 -0.404857 679 0.724237 0.689551 0.000000
-1.741025 -1.443272 -0.404146 677 0.724237 0.689551 0.000000
-1.741341 -1.443527 -0.403503 687 0.724237 0.689551 0.000000
-1.739996 -1.442412 -0.402475 679 0.724237 0.689551 0.000000
-1.739369 -1.441890 -0.401621 671 0.724237 0.689551 0.000000
-1.739561 -1.442058 -0.400949 675 0.724237 0.689551 0.000000
-1.739159 -1.441719 -0.400143 675 0.724237 0.689551 0.000000
-1.739477 -1.441988 -0.399500 677 0.724237 0.689551 0.000000
-1.739745 -1.442205 -0.398847 669 0.724237 0.689551 0.000000
-1.739172 -1.441728 -0.398003 653 0.724237 0.689551 0.000000
-1.738545 -1.441206 -0.397138 659 0.724237 0.689551 0.000000
-1.738518 -1.441183 -0.396418 669 0.724237 0.689551 0.000000
-1.738944 -1.441540 -0.395804 677 0.724237 0.689551 0.000000
-1.738816 -1.441436 -0.395066 679 0.724237 0.689551 0.000000
-1.738681 -1.441325 -0.394317 669 0.724237 0.689551 0.000000
-1.739776 -1.442224 -0.393847 679 0.724237 0.689551 0.000000
-1.740373 -1.442720 -0.393262 685 0.724237 0.689551 0.000000
-1.740346 -1.442697 -0.392542 695 0.724237 0.689551 0.000000
-1.740772 -1.443054 -0.391928 687 0.724237 0.689551 0.000000
-1.740425 -1.442760 -0.391131 675 0.724237 0.689551 0.000000
-1.740071 -1.442473 -0.390334 673 0.724237 0.689551 0.000000
-1.740333 -1.442683 -0.389682 677 0.724237 0.689551 0.000000
-1.740142 -1.442528 -0.388924 669 0.724237 0.689551 0.000000
-1.740124 -1.442512 -0.388204 659 0.724237 0.689551 0.000000
-1.739933 -1.442358 -0.387455 651 0.724237 0.689551 0.000000
-1.740523 -1.442847 -0.386870 655 0.724237 0.689551 0.000000
-1.740667 -1.442963 -0.386189 665 0.724237 0.689551 0.000000
-1.740602 -1.442909 -0.385460 669 0.724237 0.689551 0.000000
-1.740192 -1.442564 -0.384653 679 0.724237 0.689551 0.000000
-1.740548 -1.442864 -0.384020 687 0.724237 0.689551 0.000000
-1.740475 -1.442804 -0.383291 685 0.724237 0.689551 0.000000
-1.740510 -1.442832 -0.382580 681 0.724237 0.689551 0.000000
-1.741051 -1.443269 -0.381986 679 0.724237 0.689551 0.000000
-1.740519 -1.442837 -0.381150 665 0.724237 0.689551 0.000000
-1.740609 -1.442909 -0.380459 665 0.724237 0.689551 0.000000
-1.740098 -1.442482 -0.379634 677 0.724237 0.689551 0.000000
-1.739955 -1.442365 -0.378895 685 0.724237 0.689551 0.000000
-1.740270 -1.442620 -0.378242 679 0.724237 0.689551 0.000000
-1.739300 -1.441821 -0.377331 659 0.724237 0.689551 0.000000
-1.738945 -1.441520 -0.376534 647 0.724237 0.689551 0.000000
-1.740089 -1.442471 -0.376064 649 0.724237 0.689551 0.000000
-1.740795 -1.443055 -0.375508 663 0.724237 0.689551 0.000000
-1.741377 -1.443538 -0.374912 683 0.724237 0.689551 0.000000
-1.741015 -1.443244 -0.374126 679 0.724237 0.689551 0.000000
-1.740326 -1.442673 -0.373262 667 0.724237 0.689551 0.000000
-1.740025 -1.442416 -0.372494 673 0.724237 0.689551 0.000000
-1.739781 -1.442217 -0.371727 679 0.724237 0.689551 0.000000
-1.740650 -1.442933 -0.371199 683 0.724237 0.689551 0.000000
-1.740678 -1.442954 -0.370489 683 0.724237 0.689551 0.000000
-1.739934 -1.442338 -0.369625 693 0.724237 0.689551 0.000000
-1.739565 -1.442039 -0.368828 685 0.724237 0.689551 0.000000
-1.740208 -1.442572 -0.368253 665 0.724237 0.689551 0.000000
-1.741016 -1.443238 -0.367715 665 0.724237 0.689551 0.000000
-1.741722 -1.443822 -0.367149 691 0.724237 0.689551 0.000000
-1.741250 -1.443426 -0.366333 699 0.724237 0.689551 0.000000
-1.739999 -1.442387 -0.365365 693 0.724237 0.689551 0.000000
-1.739700 -1.442144 -0.364587 681 0.724237 0.689551 0.000000
-1.740172 -1.442538 -0.363973 677 0.724237 0.689551 0.000000
-1.740699 -1.442977 -0.363368 669 0.724237 0.689551 0.000000
-1.739736 -1.442171 -0.362457 659 0.724237 0.689551 0.000000
-1.739264 -1.441775 -0.361651 659 0.724237 0.689551 0.000000
-1.740563 -1.442852 -0.361209 679 0.724237 0.689551 0.000000
-1.740490 -1.442792 -0.360480 681 0.724237 0.689551 0.000000
-1.739909 -1.442308 -0.359645 671 0.724237 0.689551 0.000000
-1.740491 -1.442791 -0.359060 683 0.724237 0.689551 0.000000
-1.740738 -1.443003 -0.358398 693 0.724237 0.689551 0.000000
-1.739821 -1.442234 -0.357496 699 0.724237 0.689551 0.000000
-1.739124 -1.441656 -0.356642 687 0.724237 0.689551 0.000000
-1.739433 -1.441918 -0.355999 681 0.724237 0.689551 0.000000
-1.739228 -1.441751 -0.355251 685 0.724237 0.689551 0.000000
-1.738428 -1.441077 -0.354378 679 0.724237 0.689551 0.000000
-1.739845 -1.442262 -0.353946 673 0.724237 0.689551 0.000000
-1.740878 -1.443110 -0.353446 675 0.724237 0.689551 0.000000
-1.740672 -1.442943 -0.352698 695 0.724237 0.689551 0.000000
-1.740262 -1.442598 -0.351902 703 0.724237 0.689551 0.000000
-1.739893 -1.442298 -0.351115 683 0.724237 0.689551 0.000000
-1.740366 -1.442693 -0.350501 675 0.724237 0.689551 0.000000
-1.740674 -1.442942 -0.349848 685 0.724237 0.689551 0.000000
-1.741201 -1.443380 -0.349243 695 0.724237 0.689551 0.000000
-1.740613 -1.442890 -0.348419 683 0.724237 0.689551 0.000000
-1.739587 -1.442034 -0.347508 671 0.724237 0.689551 0.000000
-1.740278 -1.442605 -0.346932 675 0.724237 0.689551 0.000000
-1.740750 -1.443000 -0.346317 679 0.724237 0.689551 0.000000
-1.740381 -1.442700 -0.345531 667 0.724237 0.689551 0.000000
-1.739684 -1.442122 -0.344687 653 0.724237 0.689551 0.000000
-1.740491 -1.442787 -0.344130 657 0.724237 0.689551 0.000000
-1.741681 -1.443776 -0.343649 679 0.724237 0.689551 0.000000
-1.740867 -1.443103 -0.342786 697 0.724237 0.689551 0.000000
-1.740005 -1.442379 -0.341904 677 0.724237 0.689551 0.000000
-1.739581 -1.442035 -0.341118 663 0.724237 0.689551 0.000000
-1.739609 -1.442057 -0.340417 663 0.724237 0.689551 0.000000
-1.740579 -1.442854 -0.339889 657 0.724237 0.689551 0.000000
-1.740716 -1.442964 -0.339208 653 0.724237 0.689551 0.000000
-1.740019 -1.442386 -0.338364 651 0.724237 0.689551 0.000000
-1.739479 -1.441948 -0.337548 657 0.724237 0.689551 0.000000
-1.739553 -1.442008 -0.336858 661 0.724237 0.689551 0.000000
-1.739519 -1.441979 -0.336138 661 0.724237 0.689551 0.000000
-1.739717 -1.442139 -0.335466 677 0.724237 0.689551 0.000000
-1.739846 -1.442243 -0.334785 693 0.724237 0.689551 0.000000
-1.738807 -1.441387 -0.333884 679 0.724237 0.689551 0.000000
-1.740900 -1.442288 -0.409032 699 0.724237 0.689551 0.000000
-1.741934 -1.443151 -0.408563 707 0.724237 0.689551 0.000000
-1.741587 -1.442856 -0.407756 713 0.724237 0.689551 0.000000
-1.741801 -1.443029 -0.407094 711 0.724237 0.689551 0.000000
-1.742945 -1.443980 -0.406644 705 0.724237 0.689551 0.000000
-1.742426 -1.443546 -0.405808 697 0.724237 0.689551 0.000000
-1.741800 -1.443039 -0.404944 693 0.724237 0.689551 0.000000
-1.741898 -1.443117 -0.404253 691 0.724237 0.689551 0.000000
-1.740771 -1.442178 -0.403273 689 0.724237 0.689551 0.000000
-1.739426 -1.441063 -0.402255 675 0.724237 0.689551 0.000000
-1.739570 -1.441179 -0.401563 673 0.724237 0.689551 0.000000
-1.740285 -1.441769 -0.401017 683 0.724237 0.689551 0.000000
-1.740157 -1.441665 -0.400268 679 0.724237 0.689551 0.000000
-1.739686 -1.441283 -0.399452 675 0.724237 0.689551 0.000000
-1.739339 -1.440988 -0.398655 665 0.724237 0.689551 0.000000
-1.738883 -1.440605 -0.397839 657 0.724237 0.689551 0.000000
-1.738912 -1.440641 -0.397129 669 0.724237 0.689551 0.000000
-1.739236 -1.440902 -0.396486 677 0.724237 0.689551 0.000000
-1.739497 -1.441113 -0.395834 683 0.724237 0.689551 0.000000
-1.739689 -1.441281 -0.395162 681 0.724237 0.689551 0.000000
-1.739451 -1.441074 -0.394394 667 0.724237 0.689551 0.000000
-1.739206 -1.440875 -0.393626 659 0.724237 0.689551 0.000000
-1.740692 -1.442103 -0.393243 655 0.724237 0.689551 0.000000
-1.741173 -1.442504 -0.392629 665 0.724237 0.689551 0.000000
-1.740928 -1.442305 -0.391861 661 0.724237 0.689551 0.000000
-1.741681 -1.442927 -0.391314 669 0.724237 0.689551 0.000000
-1.741607 -1.442867 -0.390585 675 0.724237 0.689551 0.000000
-1.740925 -1.442301 -0.389721 677 0.724237 0.689551 0.000000
-1.740516 -1.441956 -0.388915 669 0.724237 0.689551 0.000000
-1.740217 -1.441713 -0.388137 663 0.724237 0.689551 0.000000
-1.739815 -1.441374 -0.387331 659 0.724237 0.689551 0.000000
-1.739851 -1.441402 -0.386621 655 0.724237 0.689551 0.000000
-1.739941 -1.441474 -0.385930 653 0.724237 0.689551 0.000000
-1.739976 -1.441502 -0.385229 665 0.724237 0.689551 0.000000
-1.740456 -1.441903 -0.384615 679 0.724237 0.689551 0.000000
-1.741264 -1.442569 -0.384078 685 0.724237 0.689551 0.000000
-1.741190 -1.442508 -0.383349 685 0.724237 0.689551 0.000000
-1.740658 -1.442077 -0.382523 671 0.724237 0.689551 0.000000
-1.740482 -1.441920 -0.381765 661 0.724237 0.689551 0.000000
-1.740674 -1.442088 -0.381093 659 0.724237 0.689551 0.000000
-1.740710 -1.442116 -0.380393 665 0.724237 0.689551 0.000000
-1.740075 -1.441589 -0.379538 673 0.724237 0.689551 0.000000
-1.740001 -1.441528 -0.378809 681 0.724237 0.689551 0.000000
-1.740037 -1.441556 -0.378099 691 0.724237 0.689551 0.000000
-1.739674 -1.441249 -0.377312 671 0.724237 0.689551 0.000000
-1.739991 -1.441518 -0.376669 649 0.724237 0.689551 0.000000
-1.741024 -1.442366 -0.376180 665 0.724237 0.689551 0.000000
-1.741224 -1.442540 -0.375508 685 0.724237 0.689551 0.000000
-1.740916 -1.442277 -0.374731 691 0.724237 0.689551 0.000000
-1.740734 -1.442129 -0.373972 687 0.724237 0.689551 0.000000
-1.740098 -1.441601 -0.373128 677 0.724237 0.689551 0.000000
-1.739846 -1.441396 -0.372360 681 0.724237 0.689551 0.000000
-1.740208 -1.441688 -0.371727 679 0.724237 0.689551 0.000000
-1.740073 -1.441577 -0.370988 667 0.724237 0.689551 0.000000
-1.739554 -1.441144 -0.370163 655 0.724237 0.689551 0.000000
-1.739692 -1.441268 -0.369482 675 0.724237 0.689551 0.000000
-1.740445 -1.441890 -0.368925 677 0.724237 0.689551 0.000000
-1.740706 -1.442100 -0.368273 659 0.724237 0.689551 0.000000
-1.740337 -1.441801 -0.367476 655 0.724237 0.689551 0.000000
-1.739990 -1.441506 -0.366699 659 0.724237 0.689551 0.000000
-1.740906 -1.442260 -0.366171 671 0.724237 0.689551 0.000000
-1.741324 -1.442610 -0.365547 683 0.724237 0.689551 0.000000
-1.740852 -1.442215 -0.364741 683 0.724237 0.689551 0.000000
-1.740936 -1.442295 -0.364040 677 0.724237 0.689551 0.000000
-1.741135 -1.442455 -0.363369 683 0.724237 0.689551 0.000000
-1.741217 -1.442521 -0.362678 677 0.724237 0.689551 0.000000
-1.740248 -1.441722 -0.361767 667 0.724237 0.689551 0.000000
-1.739939 -1.441459 -0.360989 669 0.724237 0.689551 0.000000
-1.740754 -1.442131 -0.360442 669 0.724237 0.689551 0.000000
-1.741390 -1.442658 -0.359866 681 0.724237 0.689551 0.000000
-1.740920 -1.442276 -0.359061 699 0.724237 0.689551 0.000000
-1.740386 -1.441830 -0.358235 695 0.724237 0.689551 0.000000
-1.741194 -1.442496 -0.357688 695 0.724237 0.689551 0.000000
-1.740333 -1.441785 -0.356806 687 0.724237 0.689551 0.000000
-1.738739 -1.440469 -0.355770 679 0.724237 0.689551 0.000000
-1.739226 -1.440862 -0.355156 673 0.724237 0.689551 0.000000
-1.739246 -1.440878 -0.354455 671 0.724237 0.689551 0.000000
-1.739165 -1.440811 -0.353726 679 0.724237 0.689551 0.000000
-1.740082 -1.441579 -0.353198 685 0.724237 0.689551 0.000000
-1.740835 -1.442200 -0.352641 697 0.724237 0.689551 0.000000
-1.740076 -1.441572 -0.351778 689 0.724237 0.689551 0.000000
-1.739487 -1.441082 -0.350953 675 0.724237 0.689551 0.000000
-1.740077 -1.441571 -0.350358 671 0.724237 0.689551 0.000000
-1.741164 -1.442463 -0.349858 671 0.724237 0.689551 0.000000
-1.741349 -1.442625 -0.349186 663 0.724237 0.689551 0.000000
-1.740706 -1.442091 -0.348352 661 0.724237 0.689551 0.000000
-1.740351 -1.441790 -0.347575 663 0.724237 0.689551 0.000000
-1.741595 -1.442822 -0.347104 681 0.724237 0.689551 0.000000
-1.741842 -1.443034 -0.346442 685 0.724237 0.689551 0.000000
-1.739804 -1.441345 -0.345330 665 0.724237 0.689551 0.000000
-1.739948 -1.441461 -0.344649 657 0.724237 0.689551 0.000000
-1.740872 -1.442221 -0.344121 665 0.724237 0.689551 0.000000
-1.741104 -1.442421 -0.343459 671 0.724237 0.689551 0.000000
-1.740358 -1.441790 -0.342605 667 0.724237 0.689551 0.000000
-1.739210 -1.440847 -0.341675 657 0.724237 0.689551 0.000000
-1.738847 -1.440540 -0.340889 659 0.724237 0.689551 0.000000
-1.739592 -1.441155 -0.340322 659 0.724237 0.689551 0.000000
-1.739955 -1.441461 -0.339689 649 0.724237 0.689551 0.000000
-1.739530 -1.441104 -0.338892 649 0.724237 0.689551 0.000000
-1.739941 -1.441448 -0.338269 643 0.724237 0.689551 0.000000
-1.740460 -1.441881 -0.337654 649 0.724237 0.689551 0.000000
-1.740371 -1.441808 -0.336935 649 0.724237 0.689551 0.000000
-1.740625 -1.442012 -0.336273 655 0.724237 0.689551 0.000000
-1.741152 -1.442451 -0.335658 665 0.724237 0.689551 0.000000
-1.740509 -1.441917 -0.334824 671 0.724237 0.689551 0.000000
-1.739524 -1.441106 -0.333932 667 0.724237 0.689551 0.000000
-1.741251 -1.441647 -0.409013 695 0.724237 0.689551 0.000000
-1.741396 -1.441763 -0.408322 701 0.724237 0.689551 0.000000
-1.741713 -1.442032 -0.407679 709 0.724237 0.689551 0.000000
-1.742474 -1.442660 -0.407142 705 0.724237 0.689551 0.000000
-1.742626 -1.442782 -0.406461 699 0.724237 0.689551 0.000000
-1.742053 -1.442305 -0.405616 693 0.724237 0.689551 0.000000
-1.741871 -1.442156 -0.404858 697 0.724237 0.689551 0.000000
-1.742133 -1.442381 -0.404195 695 0.724237 0.689551 0.000000
-1.741342 -1.441727 -0.403302 693 0.724237 0.689551 0.000000
-1.741370 -1.441748 -0.402592 681 0.724237 0.689551 0.000000
-1.741974 -1.442236 -0.402017 679 0.724237 0.689551 0.000000
-1.741674 -1.441993 -0.401229 683 0.724237 0.689551 0.000000
-1.741827 -1.442116 -0.400548 667 0.724237 0.689551 0.000000
-1.740085 -1.440679 -0.399433 659 0.724237 0.689551 0.000000
-1.739574 -1.440252 -0.398608 657 0.724237 0.689551 0.000000
-1.740164 -1.440741 -0.398023 661 0.724237 0.689551 0.000000
-1.739264 -1.439999 -0.397101 659 0.724237 0.689551 0.000000
-1.738348 -1.439245 -0.396189 683 0.724237 0.689551 0.000000
-1.739553 -1.440232 -0.395738 693 0.724237 0.689551 0.000000
-1.740813 -1.441277 -0.395307 677 0.724237 0.689551 0.000000
-1.740521 -1.441040 -0.394529 659 0.724237 0.689551 0.000000
-1.739941 -1.440557 -0.393685 645 0.724237 0.689551 0.000000
-1.739922 -1.440540 -0.392965 643 0.724237 0.689551 0.000000
-1.740737 -1.441212 -0.392437 649 0.724237 0.689551 0.000000
-1.740609 -1.441108 -0.391689 645 0.724237 0.689551 0.000000
-1.740925 -1.441363 -0.391046 665 0.724237 0.689551 0.000000
-1.741514 -1.441852 -0.390460 671 0.724237 0.689551 0.000000
-1.741604 -1.441924 -0.389770 665 0.724237 0.689551 0.000000
-1.742310 -1.442508 -0.389213 667 0.724237 0.689551 0.000000
-1.741957 -1.442221 -0.388417 679 0.724237 0.689551 0.000000
-1.739708 -1.440361 -0.387206 669 0.724237 0.689551 0.000000
-1.739135 -1.439883 -0.386372 657 0.724237 0.689551 0.000000
-1.740113 -1.440688 -0.385873 663 0.724237 0.689551 0.000000
-1.740765 -1.441227 -0.385297 655 0.724237 0.689551 0.000000
-1.740629 -1.441117 -0.384558 669 0.724237 0.689551 0.000000
-1.740447 -1.440968 -0.383800 675 0.724237 0.689551 0.000000
-1.741091 -1.441502 -0.383224 675 0.724237 0.689551 0.000000
-1.741290 -1.441662 -0.382552 669 0.724237 0.689551 0.000000
-1.740382 -1.440913 -0.381650 663 0.724237 0.689551 0.000000
-1.740027 -1.440612 -0.380854 661 0.724237 0.689551 0.000000
-1.740828 -1.441286 -0.380316 671 0.724237 0.689551 0.000000
-1.740535 -1.441035 -0.379539 677 0.724237 0.689551 0.000000
-1.740291 -1.440836 -0.378771 687 0.724237 0.689551 0.000000
-1.740935 -1.441370 -0.378195 685 0.724237 0.689551 0.000000
-1.740689 -1.441157 -0.377438 669 0.724237 0.689551 0.000000
-1.739610 -1.440270 -0.376487 659 0.724237 0.689551 0.000000
-1.740028 -1.440620 -0.375863 651 0.724237 0.689551 0.000000
-1.740781 -1.441242 -0.375317 667 0.724237 0.689551 0.000000
-1.740871 -1.441314 -0.374616 683 0.724237 0.689551 0.000000
-1.740961 -1.441386 -0.373925 687 0.724237 0.689551 0.000000
-1.741214 -1.441591 -0.373263 677 0.724237 0.689551 0.000000
-1.741133 -1.441524 -0.372534 681 0.724237 0.689551 0.000000
-1.740397 -1.440914 -0.371670 675 0.724237 0.689551 0.000000
-1.739528 -1.440197 -0.370778 663 0.724237 0.689551 0.000000
-1.739618 -1.440269 -0.370077 667 0.724237 0.689551 0.000000
-1.739428 -1.440115 -0.369329 673 0.724237 0.689551 0.000000
-1.739292 -1.440004 -0.368590 675 0.724237 0.689551 0.000000
-1.740325 -1.440853 -0.368091 653 0.724237 0.689551 0.000000
-1.741132 -1.441518 -0.367553 655 0.724237 0.689551 0.000000
-1.740997 -1.441408 -0.366815 665 0.724237 0.689551 0.000000
-1.739910 -1.440514 -0.365874 681 0.724237 0.689551 0.000000
-1.739501 -1.440169 -0.365078 675 0.724237 0.689551 0.000000
-1.740425 -1.440929 -0.364550 685 0.724237 0.689551 0.000000
-1.740672 -1.441141 -0.363897 685 0.724237 0.689551 0.000000
-1.740420 -1.440936 -0.363130 687 0.724237 0.689551 0.000000
