774
-1.673896 -1.508801 -0.378461 1097 0.724237 0.689551 0.000000
-1.673601 -1.508536 -0.377684 1089 0.724237 0.689551 0.000000
-1.673158 -1.508137 -0.376878 1077 0.724237 0.689551 0.000000
-1.672753 -1.507771 -0.376072 1061 0.724237 0.689551 0.000000
-1.672947 -1.507953 -0.375410 1061 0.724237 0.689551 0.000000
-1.673729 -1.508649 -0.374873 1071 0.724237 0.689551 0.000000
-1.673868 -1.508773 -0.374192 1079 0.724237 0.689551 0.000000
-1.673691 -1.508617 -0.373443 1091 0.724237 0.689551 0.000000
-1.673665 -1.508595 -0.372723 1097 0.724237 0.689551 0.000000
-1.673535 -1.508476 -0.371985 1093 0.724237 0.689551 0.000000
-1.673131 -1.508109 -0.371188 1091 0.724237 0.689551 0.000000
-1.672947 -1.507947 -0.370440 1089 0.724237 0.689551 0.000000
-1.673085 -1.508071 -0.369759 1087 0.724237 0.689551 0.000000
-1.673388 -1.508341 -0.369116 1087 0.724237 0.689551 0.000000
-1.673629 -1.508561 -0.368454 1095 0.724237 0.689551 0.000000
-1.674089 -1.508971 -0.367839 1093 0.724237 0.689551 0.000000
-1.674330 -1.509191 -0.367187 1091 0.724237 0.689551 0.000000
-1.673657 -1.508582 -0.366333 1083 0.724237 0.689551 0.000000
-1.673898 -1.508802 -0.365671 1083 0.724237 0.689551 0.000000
-1.673934 -1.508830 -0.364971 1077 0.724237 0.689551 0.000000
-1.673207 -1.508176 -0.364107 1061 0.724237 0.689551 0.000000
-1.673448 -1.508396 -0.363445 1073 0.724237 0.689551 0.000000
-1.674018 -1.508909 -0.362860 1089 0.724237 0.689551 0.000000
-1.675014 -1.509804 -0.362361 1103 0.724237 0.689551 0.000000
-1.675467 -1.510222 -0.361746 1107 0.724237 0.689551 0.000000
-1.674858 -1.509663 -0.360912 1083 0.724237 0.689551 0.000000
-1.674391 -1.509245 -0.360096 1073 0.724237 0.689551 0.000000
-1.673569 -1.508502 -0.359214 1073 0.724237 0.689551 0.000000
-1.673000 -1.507989 -0.358389 1079 0.724237 0.689551 0.000000
-1.673303 -1.508259 -0.357746 1085 0.724237 0.689551 0.000000
-1.673543 -1.508479 -0.357084 1087 0.724237 0.689551 0.000000
-1.673509 -1.508451 -0.356364 1087 0.724237 0.689551 0.000000
-1.673160 -1.508142 -0.355588 1081 0.724237 0.689551 0.000000
-1.672763 -1.507781 -0.354791 1081 0.724237 0.689551 0.000000
-1.673270 -1.508229 -0.354197 1087 0.724237 0.689551 0.000000
-1.674368 -1.509220 -0.353716 1099 0.724237 0.689551 0.000000
-1.674498 -1.509338 -0.353035 1109 0.724237 0.689551 0.000000
-1.673779 -1.508691 -0.352172 1117 0.724237 0.689551 0.000000
-1.672840 -1.507839 -0.351271 1105 0.724237 0.689551 0.000000
-1.673505 -1.508441 -0.350694 1101 0.724237 0.689551 0.000000
-1.674343 -1.509196 -0.350167 1105 0.724237 0.689551 0.000000
-1.673554 -1.508492 -0.349294 1093 0.724237 0.689551 0.000000
-1.673252 -1.508222 -0.348527 1087 0.724237 0.689551 0.000000
-1.673869 -1.508772 -0.347941 1089 0.724237 0.689551 0.000000
-1.674172 -1.509042 -0.347298 1089 0.724237 0.689551 0.000000
-1.673492 -1.508427 -0.346444 1079 0.724237 0.689551 0.000000
-1.673033 -1.508016 -0.345649 1075 0.724237 0.689551 0.000000
-1.673220 -1.508191 -0.344977 1075 0.724237 0.689551 0.000000
-1.673837 -1.508742 -0.344391 1073 0.724237 0.689551 0.000000
-1.674400 -1.509248 -0.343796 1075 0.724237 0.689551 0.000000
-1.674522 -1.509359 -0.343115 1073 0.724237 0.689551 0.000000
-1.674495 -1.509337 -0.342405 1075 0.724237 0.689551 0.000000
-1.674956 -1.509747 -0.341791 1089 0.724237 0.689551 0.000000
-1.674756 -1.509572 -0.341043 1087 0.724237 0.689551 0.000000
-1.673762 -1.508677 -0.340132 1093 0.724237 0.689551 0.000000
-1.673082 -1.508061 -0.339288 1091 0.724237 0.689551 0.000000
-1.673267 -1.508223 -0.338616 1069 0.724237 0.689551 0.000000
-1.673775 -1.508685 -0.338012 1067 0.724237 0.689551 0.000000
-1.673693 -1.508604 -0.337292 1093 0.724237 0.689551 0.000000
-1.673226 -1.508187 -0.336487 1103 0.724237 0.689551 0.000000
-1.673356 -1.508304 -0.335805 1085 0.724237 0.689551 0.000000
-1.673322 -1.508276 -0.335096 1071 0.724237 0.689551 0.000000
-1.673397 -1.508349 -0.334405 1075 0.724237 0.689551 0.000000
-1.673425 -1.508371 -0.333705 1081 0.724237 0.689551 0.000000
-1.673846 -1.507893 -0.432607 1111 0.724237 0.689551 0.000000
-1.674164 -1.508176 -0.431974 1109 0.724237 0.689551 0.000000
-1.674797 -1.508739 -0.431419 1111 0.724237 0.689551 0.000000
-1.675156 -1.509068 -0.430795 1127 0.724237 0.689551 0.000000
-1.674398 -1.508389 -0.429882 1131 0.724237 0.689551 0.000000
-1.673749 -1.507798 -0.429008 1125 0.724237 0.689551 0.000000
-1.674060 -1.508075 -0.428365 1121 0.724237 0.689551 0.000000
-1.674427 -1.508410 -0.427742 1107 0.724237 0.689551 0.000000
-1.674518 -1.508496 -0.427051 1099 0.724237 0.689551 0.000000
-1.674994 -1.508919 -0.426447 1087 0.724237 0.689551 0.000000
-1.675353 -1.509247 -0.425823 1091 0.724237 0.689551 0.000000
-1.675177 -1.509091 -0.425065 1085 0.724237 0.689551 0.000000
-1.675118 -1.509029 -0.424335 1095 0.724237 0.689551 0.000000
-1.674736 -1.508681 -0.423519 1099 0.724237 0.689551 0.000000
-1.674300 -1.508289 -0.422693 1091 0.724237 0.689551 0.000000
-1.673967 -1.507993 -0.421896 1079 0.724237 0.689551 0.000000
-1.674216 -1.508219 -0.421244 1081 0.724237 0.689551 0.000000
-1.675062 -1.508980 -0.420736 1103 0.724237 0.689551 0.000000
-1.675694 -1.509543 -0.420180 1125 0.724237 0.689551 0.000000
-1.675629 -1.509489 -0.419441 1119 0.724237 0.689551 0.000000
-1.675775 -1.509619 -0.418769 1109 0.724237 0.689551 0.000000
-1.675496 -1.509367 -0.417982 1105 0.724237 0.689551 0.000000
-1.675163 -1.509071 -0.417185 1121 0.724237 0.689551 0.000000
-1.675419 -1.509303 -0.416533 1123 0.724237 0.689551 0.000000
-1.675195 -1.509095 -0.415755 1107 0.724237 0.689551 0.000000
-1.674751 -1.508697 -0.414939 1099 0.724237 0.689551 0.000000
-1.674253 -1.508254 -0.414093 1095 0.724237 0.689551 0.000000
-1.674131 -1.508142 -0.413354 1101 0.724237 0.689551 0.000000
-1.674969 -1.508897 -0.412847 1105 0.724237 0.689551 0.000000
-1.675178 -1.509077 -0.412175 1101 0.724237 0.689551 0.000000
-1.674412 -1.508392 -0.411282 1105 0.724237 0.689551 0.000000
-1.673811 -1.507854 -0.410417 1103 0.724237 0.689551 0.000000
-1.673587 -1.507646 -0.409649 1107 0.724237 0.689551 0.000000
-1.673725 -1.507770 -0.408968 1101 0.724237 0.689551 0.000000
-1.674138 -1.508142 -0.408354 1103 0.724237 0.689551 0.000000
-1.674498 -1.508471 -0.407731 1105 0.724237 0.689551 0.000000
-1.674438 -1.508409 -0.406991 1103 0.724237 0.689551 0.000000
-1.673829 -1.507864 -0.406137 1113 0.724237 0.689551 0.000000
-1.674346 -1.508332 -0.405542 1119 0.724237 0.689551 0.000000
-1.674327 -1.508317 -0.404832 1109 0.724237 0.689551 0.000000
-1.674110 -1.508115 -0.404064 1111 0.724237 0.689551 0.000000
-1.674783 -1.508723 -0.403508 1115 0.724237 0.689551 0.000000
-1.674984 -1.508898 -0.402846 1101 0.724237 0.689551 0.000000
-1.674218 -1.508212 -0.401943 1095 0.724237 0.689551 0.000000
-1.673932 -1.507954 -0.401166 1087 0.724237 0.689551 0.000000
-1.674242 -1.508231 -0.400523 1079 0.724237 0.689551 0.000000
-1.674916 -1.508839 -0.399967 1093 0.724237 0.689551 0.000000
-1.675329 -1.509212 -0.399353 1109 0.724237 0.689551 0.000000
-1.674720 -1.508667 -0.398499 1107 0.724237 0.689551 0.000000
-1.674969 -1.508893 -0.397846 1107 0.724237 0.689551 0.000000
-1.675870 -1.509699 -0.397338 1109 0.724237 0.689551 0.000000
-1.676173 -1.509969 -0.396695 1119 0.724237 0.689551 0.000000
-1.675454 -1.509322 -0.395812 1127 0.724237 0.689551 0.000000
-1.674640 -1.508585 -0.394909 1135 0.724237 0.689551 0.000000
-1.673921 -1.507937 -0.394026 1125 0.724237 0.689551 0.000000
-1.673258 -1.507348 -0.393162 1111 0.724237 0.689551 0.000000
-1.673780 -1.507809 -0.392567 1101 0.724237 0.689551 0.000000
-1.674502 -1.508470 -0.392030 1095 0.724237 0.689551 0.000000
-1.674483 -1.508454 -0.391311 1099 0.724237 0.689551 0.000000
-1.674045 -1.508047 -0.390495 1099 0.724237 0.689551 0.000000
-1.673326 -1.507400 -0.389621 1091 0.724237 0.689551 0.000000
-1.673891 -1.507920 -0.389036 1089 0.724237 0.689551 0.000000
-1.674783 -1.508720 -0.388528 1101 0.724237 0.689551 0.000000
-1.674394 -1.508365 -0.387731 1105 0.724237 0.689551 0.000000
-1.674156 -1.508158 -0.386963 1103 0.724237 0.689551 0.000000
-1.674403 -1.508371 -0.386311 1099 0.724237 0.689551 0.000000
-1.675022 -1.508935 -0.385736 1097 0.724237 0.689551 0.000000
-1.675703 -1.509550 -0.385179 1093 0.724237 0.689551 0.000000
-1.675841 -1.509674 -0.384498 1101 0.724237 0.689551 0.000000
-1.675287 -1.509173 -0.383663 1099 0.724237 0.689551 0.000000
-1.674677 -1.508614 -0.382809 1103 0.724237 0.689551 0.000000
-1.674501 -1.508458 -0.382060 1111 0.724237 0.689551 0.000000
-1.674803 -1.508728 -0.381407 1105 0.724237 0.689551 0.000000
-1.674887 -1.508808 -0.380717 1103 0.724237 0.689551 0.000000
-1.674160 -1.508155 -0.379843 1097 0.724237 0.689551 0.000000
-1.673984 -1.507998 -0.379095 1099 0.724237 0.689551 0.000000
-1.674177 -1.508167 -0.378423 1095 0.724237 0.689551 0.000000
-1.673726 -1.507762 -0.377617 1087 0.724237 0.689551 0.000000
-1.673220 -1.507313 -0.376792 1081 0.724237 0.689551 0.000000
-1.673632 -1.507671 -0.376168 1079 0.724237 0.689551 0.000000
-1.674408 -1.508376 -0.375631 1083 0.724237 0.689551 0.000000
-1.674916 -1.508838 -0.375036 1091 0.724237 0.689551 0.000000
-1.674416 -1.508381 -0.374211 1087 0.724237 0.689551 0.000000
-1.674720 -1.508652 -0.373568 1099 0.724237 0.689551 0.000000
-1.674906 -1.508827 -0.372906 1107 0.724237 0.689551 0.000000
-1.673652 -1.507696 -0.371918 1099 0.724237 0.689551 0.000000
-1.673255 -1.507335 -0.371122 1097 0.724237 0.689551 0.000000
-1.673661 -1.507701 -0.370498 1101 0.724237 0.689551 0.000000
-1.674004 -1.508017 -0.369865 1097 0.724237 0.689551 0.000000
-1.673826 -1.507847 -0.369116 1083 0.724237 0.689551 0.000000
-1.673848 -1.507876 -0.368406 1083 0.724237 0.689551 0.000000
-1.674095 -1.508088 -0.367754 1081 0.724237 0.689551 0.000000
-1.674076 -1.508072 -0.367034 1087 0.724237 0.689551 0.000000
-1.674152 -1.508146 -0.366343 1091 0.724237 0.689551 0.000000
-1.674612 -1.508556 -0.365729 1095 0.724237 0.689551 0.000000
-1.675128 -1.509025 -0.365134 1095 0.724237 0.689551 0.000000
-1.675313 -1.509186 -0.364462 1087 0.724237 0.689551 0.000000
-1.674649 -1.508584 -0.363608 1087 0.724237 0.689551 0.000000
-1.675054 -1.508950 -0.362985 1105 0.724237 0.689551 0.000000
-1.675933 -1.509750 -0.362467 1121 0.724237 0.689551 0.000000
-1.675590 -1.509434 -0.361680 1107 0.724237 0.689551 0.000000
-1.674864 -1.508780 -0.360816 1089 0.724237 0.689551 0.000000
-1.673925 -1.507943 -0.359905 1071 0.724237 0.689551 0.000000
-1.674275 -1.508251 -0.359272 1075 0.724237 0.689551 0.000000
-1.675381 -1.509248 -0.358802 1097 0.724237 0.689551 0.000000
-1.675346 -1.509219 -0.358082 1091 0.724237 0.689551 0.000000
-1.674517 -1.508470 -0.357200 1079 0.724237 0.689551 0.000000
-1.673468 -1.507530 -0.356269 1081 0.724237 0.689551 0.000000
-1.673496 -1.507552 -0.355569 1083 0.724237 0.689551 0.000000
-1.674224 -1.508204 -0.355012 1087 0.724237 0.689551 0.000000
-1.674354 -1.508322 -0.354331 1085 0.724237 0.689551 0.000000
-1.674438 -1.508402 -0.353630 1093 0.724237 0.689551 0.000000
-1.674465 -1.508423 -0.352930 1103 0.724237 0.689551 0.000000
-1.674226 -1.508203 -0.352172 1101 0.724237 0.689551 0.000000
-1.674302 -1.508276 -0.351481 1097 0.724237 0.689551 0.000000
-1.674535 -1.508490 -0.350819 1099 0.724237 0.689551 0.000000
-1.674562 -1.508512 -0.350119 1091 0.724237 0.689551 0.000000
-1.675022 -1.508922 -0.349505 1095 0.724237 0.689551 0.000000
-1.674556 -1.508505 -0.348699 1091 0.724237 0.689551 0.000000
-1.673513 -1.507557 -0.347779 1085 0.724237 0.689551 0.000000
-1.673424 -1.507484 -0.347049 1071 0.724237 0.689551 0.000000
-1.673719 -1.507748 -0.346407 1053 0.724237 0.689551 0.000000
-1.674337 -1.508299 -0.345821 1051 0.724237 0.689551 0.000000
-1.674734 -1.508659 -0.345197 1059 0.724237 0.689551 0.000000
-1.675140 -1.509025 -0.344563 1077 0.724237 0.689551 0.000000
-1.675216 -1.509098 -0.343873 1081 0.724237 0.689551 0.000000
-1.675291 -1.509158 -0.343182 1081 0.724237 0.689551 0.000000
-1.675696 -1.509524 -0.342558 1085 0.724237 0.689551 0.000000
-1.675875 -1.509694 -0.341887 1091 0.724237 0.689551 0.000000
-1.675470 -1.509327 -0.341090 1083 0.724237 0.689551 0.000000
-1.675017 -1.508908 -0.340295 1083 0.724237 0.689551 0.000000
-1.674707 -1.508631 -0.339527 1081 0.724237 0.689551 0.000000
-1.674618 -1.508558 -0.338798 1069 0.724237 0.689551 0.000000
-1.674592 -1.508535 -0.338088 1077 0.724237 0.689551 0.000000
-1.674674 -1.508601 -0.337398 1097 0.724237 0.689551 0.000000
-1.674372 -1.508330 -0.336630 1093 0.724237 0.689551 0.000000
-1.673637 -1.507670 -0.335777 1077 0.724237 0.689551 0.000000
-1.673500 -1.507546 -0.335048 1063 0.724237 0.689551 0.000000
-1.673741 -1.507766 -0.334386 1073 0.724237 0.689551 0.000000
-1.674131 -1.508119 -0.333753 1083 0.724237 0.689551 0.000000
-1.674669 -1.507736 -0.432714 1105 0.724237 0.689551 0.000000
-1.674390 -1.507483 -0.431917 1107 0.724237 0.689551 0.000000
-1.674010 -1.507149 -0.431110 1111 0.724237 0.689551 0.000000
-1.674532 -1.507610 -0.430525 1123 0.724237 0.689551 0.000000
-1.674412 -1.507512 -0.429777 1119 0.724237 0.689551 0.000000
-1.673709 -1.506878 -0.428883 1117 0.724237 0.689551 0.000000
-1.674177 -1.507294 -0.428289 1109 0.724237 0.689551 0.000000
-1.674968 -1.508011 -0.427771 1109 0.724237 0.689551 0.000000
-1.674965 -1.508008 -0.427051 1101 0.724237 0.689551 0.000000
-1.675111 -1.508138 -0.426370 1091 0.724237 0.689551 0.000000
-1.675484 -1.508465 -0.425747 1093 0.724237 0.689551 0.000000
-1.675835 -1.508787 -0.425123 1097 0.724237 0.689551 0.000000
-1.675510 -1.508497 -0.424316 1103 0.724237 0.689551 0.000000
-1.674750 -1.507805 -0.423413 1099 0.724237 0.689551 0.000000
-1.673992 -1.507126 -0.422510 1093 0.724237 0.689551 0.000000
-1.673234 -1.506447 -0.421607 1079 0.724237 0.689551 0.000000
-1.674449 -1.507533 -0.421186 1087 0.724237 0.689551 0.000000
-1.675925 -1.508868 -0.420842 1113 0.724237 0.689551 0.000000
-1.676133 -1.509049 -0.420180 1119 0.724237 0.689551 0.000000
-1.676602 -1.509480 -0.419576 1115 0.724237 0.689551 0.000000
-1.677284 -1.510095 -0.419030 1113 0.724237 0.689551 0.000000
-1.677649 -1.510415 -0.418406 1131 0.724237 0.689551 0.000000
-1.677692 -1.510450 -0.417696 1139 0.724237 0.689551 0.000000
-1.677461 -1.510249 -0.416928 1137 0.724237 0.689551 0.000000
-1.677293 -1.510099 -0.416170 1119 0.724237 0.689551 0.000000
-1.676636 -1.509502 -0.415286 1105 0.724237 0.689551 0.000000
-1.676035 -1.508964 -0.414421 1105 0.724237 0.689551 0.000000
-1.675757 -1.508712 -0.413644 1105 0.724237 0.689551 0.000000
-1.675518 -1.508505 -0.412866 1107 0.724237 0.689551 0.000000
-1.675513 -1.508487 -0.412156 1115 0.724237 0.689551 0.000000
-1.675283 -1.508287 -0.411378 1123 0.724237 0.689551 0.000000
-1.674901 -1.507939 -0.410572 1119 0.724237 0.689551 0.000000
-1.675088 -1.508115 -0.409910 1111 0.724237 0.689551 0.000000
-1.675777 -1.508736 -0.409353 1099 0.724237 0.689551 0.000000
-1.675174 -1.508183 -0.408499 1097 0.724237 0.689551 0.000000
-1.674401 -1.507492 -0.407596 1105 0.724237 0.689551 0.000000
-1.674760 -1.507820 -0.406973 1115 0.724237 0.689551 0.000000
-1.674968 -1.508001 -0.406301 1123 0.724237 0.689551 0.000000
-1.674360 -1.507456 -0.405446 1125 0.724237 0.689551 0.000000
-1.674300 -1.507394 -0.404717 1125 0.724237 0.689551 0.000000
-1.674863 -1.507901 -0.404132 1123 0.724237 0.689551 0.000000
-1.675017 -1.508037 -0.403460 1109 0.724237 0.689551 0.000000
-1.674833 -1.507875 -0.402702 1087 0.724237 0.689551 0.000000
-1.674870 -1.507917 -0.401992 1083 0.724237 0.689551 0.000000
-1.674637 -1.507702 -0.401224 1079 0.724237 0.689551 0.000000
-1.674729 -1.507788 -0.400533 1087 0.724237 0.689551 0.000000
-1.675409 -1.508389 -0.399987 1105 0.724237 0.689551 0.000000
-1.675822 -1.508762 -0.399363 1117 0.724237 0.689551 0.000000
-1.676181 -1.509090 -0.398740 1119 0.724237 0.689551 0.000000
-1.676752 -1.509603 -0.398154 1125 0.724237 0.689551 0.000000
-1.676952 -1.509777 -0.397492 1115 0.724237 0.689551 0.000000
-1.676454 -1.509334 -0.396657 1109 0.724237 0.689551 0.000000
-1.675846 -1.508790 -0.395802 1119 0.724237 0.689551 0.000000
-1.674867 -1.507906 -0.394862 1125 0.724237 0.689551 0.000000
-1.673455 -1.506634 -0.393825 1105 0.724237 0.689551 0.000000
-1.673374 -1.506568 -0.393095 1091 0.724237 0.689551 0.000000
-1.673999 -1.507125 -0.392520 1093 0.724237 0.689551 0.000000
-1.674673 -1.507733 -0.391963 1101 0.724237 0.689551 0.000000
-1.674921 -1.507959 -0.391311 1105 0.724237 0.689551 0.000000
-1.674540 -1.507611 -0.390514 1103 0.724237 0.689551 0.000000
-1.673759 -1.506914 -0.389622 1089 0.724237 0.689551 0.000000
-1.674124 -1.507234 -0.388988 1095 0.724237 0.689551 0.000000
-1.675175 -1.508188 -0.388519 1107 0.724237 0.689551 0.000000
-1.675265 -1.508260 -0.387828 1111 0.724237 0.689551 0.000000
-1.675293 -1.508281 -0.387118 1107 0.724237 0.689551 0.000000
-1.675762 -1.508712 -0.386513 1099 0.724237 0.689551 0.000000
-1.676112 -1.509020 -0.385880 1091 0.724237 0.689551 0.000000
-1.675668 -1.508622 -0.385064 1085 0.724237 0.689551 0.000000
-1.675052 -1.508070 -0.384220 1087 0.724237 0.689551 0.000000
-1.674930 -1.507958 -0.383481 1099 0.724237 0.689551 0.000000
-1.674801 -1.507840 -0.382732 1099 0.724237 0.689551 0.000000
-1.674782 -1.507824 -0.382022 1101 0.724237 0.689551 0.000000
-1.674701 -1.507757 -0.381293 1093 0.724237 0.689551 0.000000
-1.674736 -1.507785 -0.380592 1091 0.724237 0.689551 0.000000
-1.674669 -1.507717 -0.379863 1093 0.724237 0.689551 0.000000
-1.674526 -1.507600 -0.379114 1105 0.724237 0.689551 0.000000
-1.674129 -1.507239 -0.378318 1097 0.724237 0.689551 0.000000
-1.673953 -1.507083 -0.377570 1085 0.724237 0.689551 0.000000
-1.674248 -1.507347 -0.376927 1077 0.724237 0.689551 0.000000
-1.674551 -1.507618 -0.376284 1083 0.724237 0.689551 0.000000
-1.674957 -1.507984 -0.375660 1093 0.724237 0.689551 0.000000
-1.675039 -1.508050 -0.374970 1089 0.724237 0.689551 0.000000
-1.674801 -1.507843 -0.374202 1095 0.724237 0.689551 0.000000
-1.675001 -1.508017 -0.373530 1101 0.724237 0.689551 0.000000
-1.674872 -1.507899 -0.372791 1099 0.724237 0.689551 0.000000
-1.674468 -1.507546 -0.371995 1093 0.724237 0.689551 0.000000
-1.674880 -1.507905 -0.371381 1095 0.724237 0.689551 0.000000
-1.675011 -1.508022 -0.370700 1113 0.724237 0.689551 0.000000
-1.674670 -1.507720 -0.369913 1105 0.724237 0.689551 0.000000
-1.674430 -1.507499 -0.369145 1087 0.724237 0.689551 0.000000
-1.674143 -1.507241 -0.368378 1073 0.724237 0.689551 0.000000
-1.674274 -1.507358 -0.367696 1083 0.724237 0.689551 0.000000
-1.674782 -1.507820 -0.367092 1087 0.724237 0.689551 0.000000
-1.675510 -1.508473 -0.366545 1091 0.724237 0.689551 0.000000
-1.676183 -1.509082 -0.365979 1097 0.724237 0.689551 0.000000
-1.676808 -1.509638 -0.365403 1107 0.724237 0.689551 0.000000
-1.676562 -1.509426 -0.364635 1109 0.724237 0.689551 0.000000
-1.675575 -1.508536 -0.363714 1101 0.724237 0.689551 0.000000
-1.675760 -1.508698 -0.363043 1105 0.724237 0.689551 0.000000
-1.676276 -1.509166 -0.362448 1103 0.724237 0.689551 0.000000
-1.675982 -1.508902 -0.361670 1099 0.724237 0.689551 0.000000
-1.674775 -1.507808 -0.360702 1093 0.724237 0.689551 0.000000
-1.673829 -1.506964 -0.359790 1079 0.724237 0.689551 0.000000
-1.674399 -1.507476 -0.359205 1079 0.724237 0.689551 0.000000
-1.675606 -1.508556 -0.358754 1083 0.724237 0.689551 0.000000
-1.675368 -1.508349 -0.357996 1083 0.724237 0.689551 0.000000
-1.674366 -1.507447 -0.357075 1071 0.724237 0.689551 0.000000
-1.674504 -1.507571 -0.356394 1083 0.724237 0.689551 0.000000
-1.674264 -1.507350 -0.355636 1081 0.724237 0.689551 0.000000
-1.674284 -1.507366 -0.354926 1081 0.724237 0.689551 0.000000
-1.674587 -1.507636 -0.354283 1071 0.724237 0.689551 0.000000
-1.675198 -1.508194 -0.353698 1095 0.724237 0.689551 0.000000
-1.675439 -1.508414 -0.353045 1107 0.724237 0.689551 0.000000
-1.674664 -1.507709 -0.352172 1087 0.724237 0.689551 0.000000
-1.674473 -1.507540 -0.351424 1079 0.724237 0.689551 0.000000
-1.674706 -1.507753 -0.350762 1089 0.724237 0.689551 0.000000
-1.675117 -1.508112 -0.350138 1097 0.724237 0.689551 0.000000
-1.675680 -1.508618 -0.349543 1099 0.724237 0.689551 0.000000
-1.674899 -1.507921 -0.348680 1093 0.724237 0.689551 0.000000
-1.674110 -1.507217 -0.347807 1079 0.724237 0.689551 0.000000
-1.674357 -1.507429 -0.347155 1065 0.724237 0.689551 0.000000
-1.674755 -1.507789 -0.346521 1053 0.724237 0.689551 0.000000
-1.675531 -1.508494 -0.345974 1053 0.724237 0.689551 0.000000
-1.675291 -1.508273 -0.345217 1053 0.724237 0.689551 0.000000
-1.674879 -1.507900 -0.344430 1067 0.724237 0.689551 0.000000
-1.675222 -1.508216 -0.343787 1065 0.724237 0.689551 0.000000
-1.675304 -1.508281 -0.343096 1069 0.724237 0.689551 0.000000
-1.675813 -1.508744 -0.342492 1081 0.724237 0.689551 0.000000
-1.675935 -1.508855 -0.341810 1081 0.724237 0.689551 0.000000
-1.675216 -1.508208 -0.340957 1069 0.724237 0.689551 0.000000
-1.674858 -1.507879 -0.340180 1067 0.724237 0.689551 0.000000
-1.674029 -1.507129 -0.339298 1067 0.724237 0.689551 0.000000
-1.674043 -1.507152 -0.338598 1065 0.724237 0.689551 0.000000
-1.674928 -1.507945 -0.338070 1081 0.724237 0.689551 0.000000
-1.675050 -1.508057 -0.337389 1085 0.724237 0.689551 0.000000
-1.674818 -1.507842 -0.336631 1079 0.724237 0.689551 0.000000
-1.673973 -1.507080 -0.335759 1063 0.724237 0.689551 0.000000
-1.673460 -1.506625 -0.334943 1065 0.724237 0.689551 0.000000
-1.674399 -1.507462 -0.334425 1077 0.724237 0.689551 0.000000
-1.675002 -1.508014 -0.333839 1089 0.724237 0.689551 0.000000
-1.675153 -1.507408 -0.432734 1109 0.724237 0.689551 0.000000
-1.674985 -1.507258 -0.431975 1109 0.724237 0.689551 0.000000
-1.674493 -1.506807 -0.431130 1109 0.724237 0.689551 0.000000
-1.674216 -1.506569 -0.430352 1115 0.724237 0.689551 0.000000
-1.675013 -1.507279 -0.429835 1123 0.724237 0.689551 0.000000
-1.675537 -1.507753 -0.429250 1121 0.724237 0.689551 0.000000
-1.675629 -1.507840 -0.428559 1117 0.724237 0.689551 0.000000
-1.675569 -1.507778 -0.427820 1111 0.724237 0.689551 0.000000
-1.675504 -1.507724 -0.427090 1103 0.724237 0.689551 0.000000
-1.675382 -1.507612 -0.426341 1093 0.724237 0.689551 0.000000
-1.675803 -1.507990 -0.425727 1093 0.724237 0.689551 0.000000
-1.676122 -1.508273 -0.425094 1109 0.724237 0.689551 0.000000
-1.676316 -1.508456 -0.424423 1113 0.724237 0.689551 0.000000
-1.675872 -1.508057 -0.423597 1115 0.724237 0.689551 0.000000
-1.674634 -1.506938 -0.422578 1115 0.724237 0.689551 0.000000
-1.674143 -1.506501 -0.421733 1107 0.724237 0.689551 0.000000
-1.675146 -1.507403 -0.421273 1111 0.724237 0.689551 0.000000
-1.675992 -1.508164 -0.420766 1119 0.724237 0.689551 0.000000
-1.676625 -1.508727 -0.420210 1113 0.724237 0.689551 0.000000
-1.677629 -1.509629 -0.419740 1115 0.724237 0.689551 0.000000
-1.677939 -1.509905 -0.419098 1129 0.724237 0.689551 0.000000
-1.677441 -1.509462 -0.418262 1151 0.724237 0.689551 0.000000
-1.677217 -1.509254 -0.417484 1145 0.724237 0.689551 0.000000
-1.677041 -1.509098 -0.416726 1127 0.724237 0.689551 0.000000
-1.677132 -1.509184 -0.416035 1115 0.724237 0.689551 0.000000
-1.677340 -1.509365 -0.415363 1109 0.724237 0.689551 0.000000
-1.676472 -1.508584 -0.414441 1101 0.724237 0.689551 0.000000
-1.675863 -1.508039 -0.413577 1099 0.724237 0.689551 0.000000
-1.675695 -1.507889 -0.412818 1101 0.724237 0.689551 0.000000
-1.675786 -1.507975 -0.412127 1117 0.724237 0.689551 0.000000
-1.675397 -1.507621 -0.411321 1127 0.724237 0.689551 0.000000
-1.674953 -1.507222 -0.410495 1121 0.724237 0.689551 0.000000
-1.674942 -1.507212 -0.409775 1111 0.724237 0.689551 0.000000
-1.675356 -1.507585 -0.409161 1095 0.724237 0.689551 0.000000
-1.675604 -1.507811 -0.408509 1093 0.724237 0.689551 0.000000
-1.676340 -1.508470 -0.407972 1117 0.724237 0.689551 0.000000
-1.676281 -1.508408 -0.407243 1127 0.724237 0.689551 0.000000
-1.675939 -1.508105 -0.406446 1125 0.724237 0.689551 0.000000
-1.675866 -1.508045 -0.405716 1121 0.724237 0.689551 0.000000
-1.675745 -1.507933 -0.404967 1133 0.724237 0.689551 0.000000
-1.675993 -1.508159 -0.404315 1133 0.724237 0.689551 0.000000
-1.676680 -1.508767 -0.403759 1109 0.724237 0.689551 0.000000
-1.676607 -1.508706 -0.403029 1089 0.724237 0.689551 0.000000
-1.676320 -1.508448 -0.402252 1091 0.724237 0.689551 0.000000
-1.675822 -1.508005 -0.401417 1089 0.724237 0.689551 0.000000
-1.675166 -1.507408 -0.400553 1093 0.724237 0.689551 0.000000
-1.675366 -1.507583 -0.399881 1107 0.724237 0.689551 0.000000
-1.675615 -1.507809 -0.399229 1101 0.724237 0.689551 0.000000
-1.676131 -1.508277 -0.398634 1107 0.724237 0.689551 0.000000
-1.676544 -1.508650 -0.398020 1101 0.724237 0.689551 0.000000
-1.676258 -1.508391 -0.397243 1097 0.724237 0.689551 0.000000
-1.675444 -1.507655 -0.396330 1093 0.724237 0.689551 0.000000
-1.675095 -1.507346 -0.395543 1099 0.724237 0.689551 0.000000
-1.674651 -1.506947 -0.394727 1097 0.724237 0.689551 0.000000
-1.674097 -1.506446 -0.393882 1085 0.724237 0.689551 0.000000
-1.673921 -1.506290 -0.393124 1081 0.724237 0.689551 0.000000
-1.674335 -1.506663 -0.392510 1087 0.724237 0.689551 0.000000
-1.674960 -1.507219 -0.391944 1099 0.724237 0.689551 0.000000
-1.675365 -1.507586 -0.391331 1099 0.724237 0.689551 0.000000
-1.675401 -1.507614 -0.390620 1097 0.724237 0.689551 0.000000
-1.674949 -1.507209 -0.389804 1085 0.724237 0.689551 0.000000
-1.675308 -1.507537 -0.389171 1095 0.724237 0.689551 0.000000
-1.675768 -1.507948 -0.388567 1093 0.724237 0.689551 0.000000
-1.676182 -1.508320 -0.387953 1103 0.724237 0.689551 0.000000
-1.676375 -1.508488 -0.387281 1109 0.724237 0.689551 0.000000
-1.676356 -1.508472 -0.386561 1103 0.724237 0.689551 0.000000
-1.675912 -1.508074 -0.385746 1089 0.724237 0.689551 0.000000
-1.675398 -1.507618 -0.384920 1083 0.724237 0.689551 0.000000
-1.675764 -1.507939 -0.384287 1099 0.724237 0.689551 0.000000
-1.675737 -1.507916 -0.383577 1103 0.724237 0.689551 0.000000
-1.675074 -1.507328 -0.382713 1101 0.724237 0.689551 0.000000
-1.674512 -1.506820 -0.381878 1091 0.724237 0.689551 0.000000
-1.674815 -1.507091 -0.381236 1081 0.724237 0.689551 0.000000
-1.674796 -1.507075 -0.380516 1087 0.724237 0.689551 0.000000
-1.675146 -1.507383 -0.379882 1103 0.724237 0.689551 0.000000
-1.675230 -1.507463 -0.379192 1103 0.724237 0.689551 0.000000
-1.674675 -1.506962 -0.378357 1091 0.724237 0.689551 0.000000
-1.674759 -1.507042 -0.377666 1085 0.724237 0.689551 0.000000
-1.674897 -1.507166 -0.376985 1087 0.724237 0.689551 0.000000
-1.674768 -1.507047 -0.376246 1089 0.724237 0.689551 0.000000
-1.675125 -1.507362 -0.375613 1085 0.724237 0.689551 0.000000
-1.675579 -1.507780 -0.374998 1091 0.724237 0.689551 0.000000
-1.675450 -1.507661 -0.374259 1097 0.724237 0.689551 0.000000
-1.674999 -1.507256 -0.373454 1101 0.724237 0.689551 0.000000
-1.674396 -1.506704 -0.372609 1097 0.724237 0.689551 0.000000
-1.674150 -1.506491 -0.371841 1085 0.724237 0.689551 0.000000
-1.674445 -1.506755 -0.371199 1085 0.724237 0.689551 0.000000
-1.674269 -1.506599 -0.370450 1105 0.724237 0.689551 0.000000
-1.674289 -1.506614 -0.369750 1103 0.724237 0.689551 0.000000
-1.674538 -1.506840 -0.369088 1091 0.724237 0.689551 0.000000
-1.674354 -1.506678 -0.368339 1081 0.724237 0.689551 0.000000
-1.674382 -1.506700 -0.367639 1071 0.724237 0.689551 0.000000
-1.674945 -1.507206 -0.367044 1081 0.724237 0.689551 0.000000
-1.675240 -1.507470 -0.366401 1087 0.724237 0.689551 0.000000
-1.676132 -1.508269 -0.365883 1097 0.724237 0.689551 0.000000
-1.676648 -1.508737 -0.365288 1105 0.724237 0.689551 0.000000
-1.676032 -1.508186 -0.364444 1107 0.724237 0.689551 0.000000
-1.675525 -1.507723 -0.363619 1095 0.724237 0.689551 0.000000
-1.675553 -1.507745 -0.362918 1089 0.724237 0.689551 0.000000
-1.675896 -1.508061 -0.362285 1091 0.724237 0.689551 0.000000
-1.675397 -1.507604 -0.361470 1101 0.724237 0.689551 0.000000
-1.674780 -1.507053 -0.360625 1107 0.724237 0.689551 0.000000
-1.674486 -1.506788 -0.359848 1097 0.724237 0.689551 0.000000
-1.674184 -1.506517 -0.359081 1083 0.724237 0.689551 0.000000
-1.674644 -1.506927 -0.358467 1077 0.724237 0.689551 0.000000
-1.675420 -1.507632 -0.357919 1079 0.724237 0.689551 0.000000
-1.675345 -1.507558 -0.357200 1079 0.724237 0.689551 0.000000
-1.674989 -1.507243 -0.356413 1079 0.724237 0.689551 0.000000
-1.675346 -1.507557 -0.355780 1079 0.724237 0.689551 0.000000
-1.675052 -1.507292 -0.355013 1079 0.724237 0.689551 0.000000
-1.675182 -1.507410 -0.354332 1079 0.724237 0.689551 0.000000
-1.675848 -1.508012 -0.353755 1097 0.724237 0.689551 0.000000
-1.675224 -1.507455 -0.352921 1101 0.724237 0.689551 0.000000
-1.674559 -1.506852 -0.352077 1087 0.724237 0.689551 0.000000
-1.675657 -1.507843 -0.351597 1083 0.724237 0.689551 0.000000
-1.676487 -1.508591 -0.351059 1095 0.724237 0.689551 0.000000
-1.676247 -1.508371 -0.350292 1097 0.724237 0.689551 0.000000
-1.676165 -1.508290 -0.349572 1105 0.724237 0.689551 0.000000
-1.675438 -1.507637 -0.348709 1089 0.724237 0.689551 0.000000
-1.675246 -1.507468 -0.347961 1079 0.724237 0.689551 0.000000
-1.675699 -1.507872 -0.347347 1077 0.724237 0.689551 0.000000
-1.676002 -1.508142 -0.346704 1061 0.724237 0.689551 0.000000
-1.676132 -1.508260 -0.346023 1063 0.724237 0.689551 0.000000
-1.676420 -1.508518 -0.345370 1063 0.724237 0.689551 0.000000
-1.675639 -1.507820 -0.344507 1055 0.724237 0.689551 0.000000
-1.675125 -1.507365 -0.343692 1065 0.724237 0.689551 0.000000
-1.675413 -1.507623 -0.343039 1071 0.724237 0.689551 0.000000
-1.675008 -1.507256 -0.342253 1077 0.724237 0.689551 0.000000
-1.674815 -1.507073 -0.341505 1063 0.724237 0.689551 0.000000
-1.676023 -1.508166 -0.341043 1063 0.724237 0.689551 0.000000
-1.676310 -1.508424 -0.340391 1073 0.724237 0.689551 0.000000
-1.675316 -1.507528 -0.339480 1069 0.724237 0.689551 0.000000
-1.675714 -1.507888 -0.338856 1073 0.724237 0.689551 0.000000
-1.676002 -1.508146 -0.338204 1081 0.724237 0.689551 0.000000
-1.675543 -1.507735 -0.337408 1077 0.724237 0.689551 0.000000
-1.674870 -1.507125 -0.336564 1075 0.724237 0.689551 0.000000
-1.674561 -1.506848 -0.335797 1067 0.724237 0.689551 0.000000
-1.674801 -1.507068 -0.335135 1069 0.724237 0.689551 0.000000
-1.675364 -1.507574 -0.334539 1081 0.724237 0.689551 0.000000
-1.675652 -1.507832 -0.333887 1091 0.724237 0.689551 0.000000
-1.675530 -1.506671 -0.432695 1115 0.724237 0.689551 0.000000
-1.676006 -1.507094 -0.432101 1121 0.724237 0.689551 0.000000
-1.675940 -1.507040 -0.431372 1125 0.724237 0.689551 0.000000
-1.675559 -1.506692 -0.430555 1123 0.724237 0.689551 0.000000
-1.675980 -1.507071 -0.429941 1125 0.724237 0.689551 0.000000
-1.676770 -1.507774 -0.429424 1123 0.724237 0.689551 0.000000
-1.676061 -1.507147 -0.428530 1113 0.724237 0.689551 0.000000
-1.675033 -1.506212 -0.427550 1101 0.724237 0.689551 0.000000
-1.675078 -1.506260 -0.426849 1099 0.724237 0.689551 0.000000
-1.675609 -1.506727 -0.426265 1099 0.724237 0.689551 0.000000
-1.676022 -1.507100 -0.425651 1101 0.724237 0.689551 0.000000
-1.676059 -1.507142 -0.424950 1103 0.724237 0.689551 0.000000
-1.676370 -1.507418 -0.424307 1113 0.724237 0.689551 0.000000
-1.676421 -1.507459 -0.423597 1125 0.724237 0.689551 0.000000
-1.675333 -1.506487 -0.422617 1123 0.724237 0.689551 0.000000
-1.675000 -1.506191 -0.421820 1121 0.724237 0.689551 0.000000
-1.675633 -1.506754 -0.421254 1123 0.724237 0.689551 0.000000
-1.676054 -1.507133 -0.420650 1115 0.724237 0.689551 0.000000
-1.676522 -1.507550 -0.420046 1101 0.724237 0.689551 0.000000
-1.677100 -1.508069 -0.419471 1103 0.724237 0.689551 0.000000
-1.677679 -1.508588 -0.418895 1117 0.724237 0.689551 0.000000
-1.677660 -1.508572 -0.418175 1139 0.724237 0.689551 0.000000
-1.677546 -1.508466 -0.417436 1133 0.724237 0.689551 0.000000
-1.677150 -1.508119 -0.416620 1109 0.724237 0.689551 0.000000
-1.676817 -1.507823 -0.415823 1103 0.724237 0.689551 0.000000
-1.676860 -1.507857 -0.415123 1103 0.724237 0.689551 0.000000
-1.676417 -1.507458 -0.414297 1099 0.724237 0.689551 0.000000
-1.675981 -1.507066 -0.413471 1105 0.724237 0.689551 0.000000
-1.676229 -1.507292 -0.412818 1117 0.724237 0.689551 0.000000
-1.676492 -1.507517 -0.412166 1121 0.724237 0.689551 0.000000
-1.675932 -1.507024 -0.411321 1127 0.724237 0.689551 0.000000
-1.675385 -1.506529 -0.410466 1113 0.724237 0.689551 0.000000
-1.675909 -1.507004 -0.409881 1091 0.724237 0.689551 0.000000
-1.676754 -1.507751 -0.409374 1095 0.724237 0.689551 0.000000
-1.677702 -1.508609 -0.408885 1111 0.724237 0.689551 0.000000
-1.677951 -1.508835 -0.408233 1119 0.724237 0.689551 0.000000
-1.676918 -1.507907 -0.407262 1117 0.724237 0.689551 0.000000
-1.676309 -1.507362 -0.406408 1115 0.724237 0.689551 0.000000
-1.676463 -1.507499 -0.405726 1125 0.724237 0.689551 0.000000
-1.675963 -1.507042 -0.404891 1127 0.724237 0.689551 0.000000
-1.675733 -1.506842 -0.404123 1111 0.724237 0.689551 0.000000
-1.676522 -1.507545 -0.403596 1103 0.724237 0.689551 0.000000
-1.677463 -1.508396 -0.403107 1105 0.724237 0.689551 0.000000
-1.677342 -1.508284 -0.402368 1107 0.724237 0.689551 0.000000
-1.676693 -1.507693 -0.401494 1097 0.724237 0.689551 0.000000
-1.676398 -1.507429 -0.400717 1097 0.724237 0.689551 0.000000
-1.676435 -1.507470 -0.400006 1107 0.724237 0.689551 0.000000
-1.676416 -1.507454 -0.399287 1105 0.724237 0.689551 0.000000
-1.676357 -1.507393 -0.398557 1099 0.724237 0.689551 0.000000
-1.677030 -1.508001 -0.398011 1103 0.724237 0.689551 0.000000
-1.676957 -1.507941 -0.397271 1099 0.724237 0.689551 0.000000
-1.675978 -1.507058 -0.396330 1093 0.724237 0.689551 0.000000
-1.675054 -1.506219 -0.395399 1093 0.724237 0.689551 0.000000
-1.674761 -1.505968 -0.394622 1087 0.724237 0.689551 0.000000
-1.675605 -1.506715 -0.394104 1083 0.724237 0.689551 0.000000
-1.675964 -1.507044 -0.393481 1091 0.724237 0.689551 0.000000
-1.675670 -1.506779 -0.392693 1095 0.724237 0.689551 0.000000
-1.676138 -1.507196 -0.392089 1095 0.724237 0.689551 0.000000
-1.676174 -1.507223 -0.391389 1097 0.724237 0.689551 0.000000
-1.676257 -1.507303 -0.390698 1095 0.724237 0.689551 0.000000
-1.676616 -1.507632 -0.390064 1089 0.724237 0.689551 0.000000
-1.676439 -1.507462 -0.389306 1089 0.724237 0.689551 0.000000
-1.676311 -1.507357 -0.388567 1093 0.724237 0.689551 0.000000
-1.676881 -1.507870 -0.387982 1101 0.724237 0.689551 0.000000
-1.677561 -1.508471 -0.387426 1101 0.724237 0.689551 0.000000
-1.677966 -1.508837 -0.386812 1107 0.724237 0.689551 0.000000
-1.677412 -1.508336 -0.385967 1109 0.724237 0.689551 0.000000
-1.676309 -1.507352 -0.385007 1101 0.724237 0.689551 0.000000
-1.676510 -1.507526 -0.384335 1105 0.724237 0.689551 0.000000
-1.676169 -1.507224 -0.383548 1109 0.724237 0.689551 0.000000
-1.675615 -1.506723 -0.382714 1099 0.724237 0.689551 0.000000
-1.675376 -1.506517 -0.381946 1083 0.724237 0.689551 0.000000
-1.675569 -1.506685 -0.381284 1069 0.724237 0.689551 0.000000
-1.676729 -1.507726 -0.380833 1093 0.724237 0.689551 0.000000
-1.676867 -1.507850 -0.380152 1095 0.724237 0.689551 0.000000
-1.676305 -1.507343 -0.379307 1083 0.724237 0.689551 0.000000
-1.676232 -1.507283 -0.378588 1083 0.724237 0.689551 0.000000
-1.676378 -1.507413 -0.377906 1089 0.724237 0.689551 0.000000
-1.676838 -1.507823 -0.377292 1093 0.724237 0.689551 0.000000
-1.676441 -1.507462 -0.376496 1093 0.724237 0.689551 0.000000
-1.675825 -1.506911 -0.375651 1089 0.724237 0.689551 0.000000
-1.676285 -1.507321 -0.375037 1099 0.724237 0.689551 0.000000
-1.676266 -1.507306 -0.374327 1103 0.724237 0.689551 0.000000
-1.675704 -1.506798 -0.373493 1097 0.724237 0.689551 0.000000
-1.675142 -1.506291 -0.372658 1089 0.724237 0.689551 0.000000
-1.675391 -1.506517 -0.371995 1079 0.724237 0.689551 0.000000
-1.675467 -1.506591 -0.371305 1085 0.724237 0.689551 0.000000
-1.675070 -1.506230 -0.370508 1093 0.724237 0.689551 0.000000
-1.675319 -1.506457 -0.369856 1095 0.724237 0.689551 0.000000
-1.675559 -1.506676 -0.369194 1085 0.724237 0.689551 0.000000
-1.675114 -1.506264 -0.368388 1077 0.724237 0.689551 0.000000
-1.674923 -1.506095 -0.367640 1071 0.724237 0.689551 0.000000
-1.675061 -1.506219 -0.366958 1069 0.724237 0.689551 0.000000
-1.675247 -1.506395 -0.366287 1081 0.724237 0.689551 0.000000
-1.675864 -1.506945 -0.365711 1087 0.724237 0.689551 0.000000
-1.676167 -1.507215 -0.365068 1097 0.724237 0.689551 0.000000
-1.675708 -1.506804 -0.364252 1093 0.724237 0.689551 0.000000
-1.675476 -1.506590 -0.363494 1089 0.724237 0.689551 0.000000
-1.675771 -1.506854 -0.362852 1081 0.724237 0.689551 0.000000
-1.676437 -1.507456 -0.362285 1087 0.724237 0.689551 0.000000
-1.676905 -1.507873 -0.361671 1103 0.724237 0.689551 0.000000
-1.676013 -1.507073 -0.360769 1103 0.724237 0.689551 0.000000
-1.674375 -1.505605 -0.359715 1087 0.724237 0.689551 0.000000
-1.674300 -1.505530 -0.358995 1073 0.724237 0.689551 0.000000
-1.674698 -1.505890 -0.358371 1069 0.724237 0.689551 0.000000
-1.675693 -1.506785 -0.357872 1087 0.724237 0.689551 0.000000
-1.675879 -1.506961 -0.357201 1085 0.724237 0.689551 0.000000
-1.674720 -1.505919 -0.356241 1075 0.724237 0.689551 0.000000
-1.674859 -1.506043 -0.355570 1069 0.724237 0.689551 0.000000
-1.676443 -1.507467 -0.355185 1069 0.724237 0.689551 0.000000
-1.676739 -1.507731 -0.354542 1077 0.724237 0.689551 0.000000
-1.676012 -1.507077 -0.353679 1085 0.724237 0.689551 0.000000
-1.675985 -1.507055 -0.352969 1091 0.724237 0.689551 0.000000
-1.676224 -1.507261 -0.352307 1099 0.724237 0.689551 0.000000
-1.676465 -1.507481 -0.351645 1105 0.724237 0.689551 0.000000
-1.676383 -1.507400 -0.350926 1099 0.724237 0.689551 0.000000
-1.676623 -1.507620 -0.350264 1095 0.724237 0.689551 0.000000
-1.676110 -1.507165 -0.349448 1095 0.724237 0.689551 0.000000
-1.675335 -1.506459 -0.348575 1075 0.724237 0.689551 0.000000
-1.675362 -1.506481 -0.347875 1063 0.724237 0.689551 0.000000
-1.675603 -1.506701 -0.347223 1067 0.724237 0.689551 0.000000
-1.675994 -1.507055 -0.346589 1073 0.724237 0.689551 0.000000
-1.676454 -1.507465 -0.345975 1073 0.724237 0.689551 0.000000
-1.677229 -1.508169 -0.345428 1069 0.724237 0.689551 0.000000
-1.677249 -1.508185 -0.344718 1067 0.724237 0.689551 0.000000
-1.676907 -1.507868 -0.343941 1073 0.724237 0.689551 0.000000
-1.676764 -1.507751 -0.343202 1083 0.724237 0.689551 0.000000
-1.675659 -1.506753 -0.342272 1077 0.724237 0.689551 0.000000
-1.674719 -1.505902 -0.341381 1055 0.724237 0.689551 0.000000
-1.675487 -1.506600 -0.340824 1061 0.724237 0.689551 0.000000
-1.676215 -1.507253 -0.340267 1071 0.724237 0.689551 0.000000
-1.676605 -1.507606 -0.339633 1079 0.724237 0.689551 0.000000
-1.677490 -1.508399 -0.339105 1087 0.724237 0.689551 0.000000
-1.677147 -1.508082 -0.338328 1087 0.724237 0.689551 0.000000
-1.676083 -1.507130 -0.337408 1079 0.724237 0.689551 0.000000
-1.676049 -1.507101 -0.336689 1073 0.724237 0.689551 0.000000
-1.676344 -1.507365 -0.336046 1071 0.724237 0.689551 0.000000
-1.676309 -1.507337 -0.335326 1067 0.724237 0.689551 0.000000
-1.675967 -1.507020 -0.334549 1071 0.724237 0.689551 0.000000
-1.675233 -1.506361 -0.333706 1077 0.724237 0.689551 0.000000
-1.676255 -1.506396 -0.432763 1113 0.724237 0.689551 0.000000
-1.676306 -1.506436 -0.432063 1113 0.724237 0.689551 0.000000
-1.675808 -1.505994 -0.431217 1115 0.724237 0.689551 0.000000
-1.676181 -1.506321 -0.430594 1121 0.724237 0.689551 0.000000
-1.677233 -1.507274 -0.430144 1123 0.724237 0.689551 0.000000
-1.676694 -1.506786 -0.429289 1113 0.724237 0.689551 0.000000
-1.676093 -1.506247 -0.428425 1107 0.724237 0.689551 0.000000
-1.676042 -1.506191 -0.427685 1109 0.724237 0.689551 0.000000
-1.676338 -1.506469 -0.427052 1101 0.724237 0.689551 0.000000
-1.677136 -1.507179 -0.426535 1099 0.724237 0.689551 0.000000
-1.676378 -1.506500 -0.425622 1105 0.724237 0.689551 0.000000
-1.675934 -1.506102 -0.424796 1109 0.724237 0.689551 0.000000
-1.676294 -1.506430 -0.424173 1113 0.724237 0.689551 0.000000
-1.676290 -1.506427 -0.423453 1117 0.724237 0.689551 0.000000
-1.676326 -1.506454 -0.422752 1109 0.724237 0.689551 0.000000
-1.676266 -1.506393 -0.422013 1119 0.724237 0.689551 0.000000
-1.675933 -1.506096 -0.421216 1125 0.724237 0.689551 0.000000
-1.676032 -1.506189 -0.420525 1121 0.724237 0.689551 0.000000
-1.676500 -1.506606 -0.419931 1103 0.724237 0.689551 0.000000
-1.676646 -1.506736 -0.419249 1103 0.724237 0.689551 0.000000
-1.677060 -1.507108 -0.418636 1113 0.724237 0.689551 0.000000
-1.676678 -1.506760 -0.417819 1125 0.724237 0.689551 0.000000
-1.676077 -1.506222 -0.416955 1129 0.724237 0.689551 0.000000
-1.676382 -1.506506 -0.416322 1107 0.724237 0.689551 0.000000
-1.676645 -1.506731 -0.415669 1097 0.724237 0.689551 0.000000
-1.676509 -1.506620 -0.414921 1085 0.724237 0.689551 0.000000
-1.676230 -1.506368 -0.414143 1095 0.724237 0.689551 0.000000
-1.676493 -1.506593 -0.413481 1105 0.724237 0.689551 0.000000
-1.676530 -1.506634 -0.412780 1117 0.724237 0.689551 0.000000
-1.676086 -1.506236 -0.411954 1117 0.724237 0.689551 0.000000
-1.676554 -1.506653 -0.411360 1113 0.724237 0.689551 0.000000
-1.676645 -1.506739 -0.410669 1107 0.724237 0.689551 0.000000
-1.675934 -1.506098 -0.409776 1093 0.724237 0.689551 0.000000
-1.676080 -1.506228 -0.409094 1097 0.724237 0.689551 0.000000
-1.676604 -1.506703 -0.408510 1105 0.724237 0.689551 0.000000
-1.677024 -1.507068 -0.407896 1113 0.724237 0.689551 0.000000
-1.677218 -1.507250 -0.407224 1117 0.724237 0.689551 0.000000
-1.677529 -1.507526 -0.406591 1119 0.724237 0.689551 0.000000
-1.677139 -1.507172 -0.405775 1129 0.724237 0.689551 0.000000
-1.676263 -1.506385 -0.404853 1127 0.724237 0.689551 0.000000
-1.676244 -1.506369 -0.404133 1107 0.724237 0.689551 0.000000
-1.676555 -1.506645 -0.403500 1095 0.724237 0.689551 0.000000
-1.677339 -1.507356 -0.402973 1103 0.724237 0.689551 0.000000
-1.677855 -1.507825 -0.402378 1109 0.724237 0.689551 0.000000
-1.677685 -1.507661 -0.401619 1105 0.724237 0.689551 0.000000
-1.676920 -1.506976 -0.400726 1107 0.724237 0.689551 0.000000
-1.676736 -1.506813 -0.399968 1115 0.724237 0.689551 0.000000
-1.676346 -1.506459 -0.399162 1111 0.724237 0.689551 0.000000
-1.676273 -1.506398 -0.398432 1107 0.724237 0.689551 0.000000
-1.677111 -1.507153 -0.397915 1105 0.724237 0.689551 0.000000
-1.676668 -1.506755 -0.397099 1105 0.724237 0.689551 0.000000
-1.675743 -1.505916 -0.396167 1099 0.724237 0.689551 0.000000
-1.675348 -1.505569 -0.395371 1101 0.724237 0.689551 0.000000
-1.675862 -1.506023 -0.394776 1099 0.724237 0.689551 0.000000
-1.676811 -1.506881 -0.394277 1105 0.724237 0.689551 0.000000
-1.676792 -1.506865 -0.393568 1113 0.724237 0.689551 0.000000
-1.676513 -1.506612 -0.392790 1103 0.724237 0.689551 0.000000
-1.676651 -1.506736 -0.392109 1087 0.724237 0.689551 0.000000
-1.677112 -1.507147 -0.391495 1089 0.724237 0.689551 0.000000
-1.676825 -1.506888 -0.390717 1089 0.724237 0.689551 0.000000
-1.677176 -1.507210 -0.390084 1099 0.724237 0.689551 0.000000
-1.677487 -1.507487 -0.389451 1103 0.724237 0.689551 0.000000
-1.676603 -1.506693 -0.388529 1099 0.724237 0.689551 0.000000
-1.675947 -1.506097 -0.387665 1097 0.724237 0.689551 0.000000
-1.676950 -1.506998 -0.387186 1105 0.724237 0.689551 0.000000
-1.677725 -1.507703 -0.386649 1109 0.724237 0.689551 0.000000
-1.677123 -1.507150 -0.385794 1117 0.724237 0.689551 0.000000
-1.676398 -1.506510 -0.384921 1113 0.724237 0.689551 0.000000
-1.676858 -1.506921 -0.384317 1109 0.724237 0.689551 0.000000
-1.677169 -1.507197 -0.383674 1105 0.724237 0.689551 0.000000
-1.676772 -1.506837 -0.382867 1097 0.724237 0.689551 0.000000
-1.676210 -1.506330 -0.382033 1087 0.724237 0.689551 0.000000
-1.675815 -1.505983 -0.381236 1077 0.724237 0.689551 0.000000
-1.675953 -1.506107 -0.380555 1075 0.724237 0.689551 0.000000
-1.675934 -1.506091 -0.379835 1077 0.724237 0.689551 0.000000
-1.675483 -1.505686 -0.379029 1069 0.724237 0.689551 0.000000
-1.675778 -1.505950 -0.378376 1075 0.724237 0.689551 0.000000
-1.676622 -1.506697 -0.377859 1075 0.724237 0.689551 0.000000
-1.676919 -1.506975 -0.377216 1087 0.724237 0.689551 0.000000
-1.676947 -1.506997 -0.376506 1091 0.724237 0.689551 0.000000
-1.676982 -1.507025 -0.375805 1107 0.724237 0.689551 0.000000
-1.676798 -1.506862 -0.375047 1111 0.724237 0.689551 0.000000
-1.676614 -1.506700 -0.374299 1105 0.724237 0.689551 0.000000
-1.675950 -1.506097 -0.373445 1097 0.724237 0.689551 0.000000
-1.675436 -1.505641 -0.372620 1083 0.724237 0.689551 0.000000
-1.675361 -1.505567 -0.371890 1079 0.724237 0.689551 0.000000
-1.675335 -1.505545 -0.371180 1079 0.724237 0.689551 0.000000
-1.675205 -1.505426 -0.370442 1079 0.724237 0.689551 0.000000
-1.675351 -1.505557 -0.369760 1087 0.724237 0.689551 0.000000
-1.674892 -1.505146 -0.368945 1093 0.724237 0.689551 0.000000
-1.674441 -1.504741 -0.368139 1095 0.724237 0.689551 0.000000
-1.675058 -1.505291 -0.367563 1091 0.724237 0.689551 0.000000
-1.675244 -1.505467 -0.366901 1081 0.724237 0.689551 0.000000
-1.675767 -1.505928 -0.366296 1083 0.724237 0.689551 0.000000
-1.676329 -1.506434 -0.365711 1091 0.724237 0.689551 0.000000
-1.676200 -1.506316 -0.364972 1099 0.724237 0.689551 0.000000
-1.675851 -1.506007 -0.364186 1087 0.724237 0.689551 0.000000
-1.675776 -1.505932 -0.363466 1089 0.724237 0.689551 0.000000
-1.676182 -1.506299 -0.362842 1087 0.724237 0.689551 0.000000
-1.676572 -1.506652 -0.362219 1087 0.724237 0.689551 0.000000
-1.676388 -1.506490 -0.361470 1099 0.724237 0.689551 0.000000
-1.675827 -1.505983 -0.360636 1095 0.724237 0.689551 0.000000
-1.675321 -1.505534 -0.359820 1085 0.724237 0.689551 0.000000
-1.675019 -1.505263 -0.359043 1073 0.724237 0.689551 0.000000
-1.675958 -1.506100 -0.358534 1081 0.724237 0.689551 0.000000
-1.677386 -1.507383 -0.358131 1101 0.724237 0.689551 0.000000
-1.677421 -1.507411 -0.357421 1097 0.724237 0.689551 0.000000
-1.675830 -1.505981 -0.356386 1085 0.724237 0.689551 0.000000
-1.675159 -1.505386 -0.355532 1063 0.724237 0.689551 0.000000
-1.675611 -1.505790 -0.354918 1049 0.724237 0.689551 0.000000
-1.676228 -1.506340 -0.354342 1059 0.724237 0.689551 0.000000
-1.675982 -1.506127 -0.353584 1075 0.724237 0.689551 0.000000
-1.675853 -1.506009 -0.352845 1085 0.724237 0.689551 0.000000
-1.676635 -1.506705 -0.352298 1107 0.724237 0.689551 0.000000
-1.676286 -1.506397 -0.351511 1109 0.724237 0.689551 0.000000
-1.675819 -1.505979 -0.350716 1093 0.724237 0.689551 0.000000
-1.676169 -1.506287 -0.350072 1085 0.724237 0.689551 0.000000
-1.676245 -1.506361 -0.349382 1083 0.724237 0.689551 0.000000
-1.676438 -1.506529 -0.348710 1077 0.724237 0.689551 0.000000
-1.676514 -1.506602 -0.348019 1073 0.724237 0.689551 0.000000
-1.676485 -1.506566 -0.347309 1075 0.724237 0.689551 0.000000
-1.676726 -1.506786 -0.346647 1083 0.724237 0.689551 0.000000
-1.676802 -1.506859 -0.345956 1083 0.724237 0.689551 0.000000
-1.676397 -1.506492 -0.345160 1073 0.724237 0.689551 0.000000
-1.676371 -1.506470 -0.344450 1071 0.724237 0.689551 0.000000
-1.676926 -1.506970 -0.343855 1073 0.724237 0.689551 0.000000
-1.676953 -1.506992 -0.343155 1077 0.724237 0.689551 0.000000
-1.676549 -1.506625 -0.342359 1073 0.724237 0.689551 0.000000
-1.675870 -1.506023 -0.341515 1061 0.724237 0.689551 0.000000
-1.675788 -1.505943 -0.340796 1063 0.724237 0.689551 0.000000
-1.676720 -1.506787 -0.340277 1073 0.724237 0.689551 0.000000
-1.677660 -1.507624 -0.339758 1087 0.724237 0.689551 0.000000
-1.677523 -1.507499 -0.339020 1089 0.724237 0.689551 0.000000
-1.676576 -1.506655 -0.338118 1079 0.724237 0.689551 0.000000
-1.676267 -1.506378 -0.337351 1081 0.724237 0.689551 0.000000
-1.676781 -1.506833 -0.336746 1075 0.724237 0.689551 0.000000
-1.676534 -1.506606 -0.335989 1073 0.724237 0.689551 0.000000
-1.676398 -1.506495 -0.335260 1079 0.724237 0.689551 0.000000
-1.676040 -1.506166 -0.334483 1073 0.724237 0.689551 0.000000
-1.675903 -1.506041 -0.333744 1079 0.724237 0.689551 0.000000
-1.677655 -1.506783 -0.433015 1117 0.724237 0.689551 0.000000
-1.676739 -1.505950 -0.432063 1111 0.724237 0.689551 0.000000
-1.676454 -1.505705 -0.431266 1115 0.724237 0.689551 0.000000
-1.676937 -1.506135 -0.430671 1123 0.724237 0.689551 0.000000
-1.677727 -1.506838 -0.430154 1123 0.724237 0.689551 0.000000
-1.678149 -1.507217 -0.429550 1119 0.724237 0.689551 0.000000
-1.677540 -1.506672 -0.428676 1119 0.724237 0.689551 0.000000
-1.677214 -1.506382 -0.427879 1117 0.724237 0.689551 0.000000
-1.677471 -1.506614 -0.427226 1109 0.724237 0.689551 0.000000
-1.677679 -1.506795 -0.426564 1097 0.724237 0.689551 0.000000
