774
-6.754624 -6.371909 -0.321492 1633 0.733220 0.679992 0.000000
-6.754790 -6.372072 -0.318650 1635 0.733220 0.679992 0.000000
-6.755392 -6.372635 -0.315824 1641 0.733220 0.679992 0.000000
-6.755354 -6.372602 -0.312965 1645 0.733220 0.679992 0.000000
-6.755520 -6.372765 -0.310113 1647 0.733220 0.679992 0.000000
-6.757657 -6.370620 -0.699172 1631 0.733220 0.679992 0.000000
-6.757124 -6.370115 -0.696247 1633 0.733220 0.679992 0.000000
-6.757167 -6.370158 -0.693387 1635 0.733220 0.679992 0.000000
-6.757957 -6.370904 -0.690599 1641 0.733220 0.679992 0.000000
-6.757846 -6.370803 -0.687720 1637 0.733220 0.679992 0.000000
-6.757087 -6.370086 -0.684777 1633 0.733220 0.679992 0.000000
-6.756814 -6.369834 -0.681880 1621 0.733220 0.679992 0.000000
-6.756701 -6.369719 -0.679001 1625 0.733220 0.679992 0.000000
-6.756372 -6.369410 -0.676104 1635 0.733220 0.679992 0.000000
-6.756838 -6.369855 -0.673279 1623 0.733220 0.679992 0.000000
-6.757197 -6.370193 -0.670456 1637 0.733220 0.679992 0.000000
-6.757401 -6.370387 -0.667604 1643 0.733220 0.679992 0.000000
-6.757486 -6.370474 -0.664743 1633 0.733220 0.679992 0.000000
-6.756888 -6.369907 -0.661828 1627 0.733220 0.679992 0.000000
-6.756672 -6.369699 -0.658940 1633 0.733220 0.679992 0.000000
-6.756812 -6.369829 -0.656089 1635 0.733220 0.679992 0.000000
-6.756792 -6.369823 -0.653219 1623 0.733220 0.679992 0.000000
-6.756995 -6.370002 -0.650367 1635 0.733220 0.679992 0.000000
-6.757129 -6.370141 -0.647516 1637 0.733220 0.679992 0.000000
-6.756482 -6.369523 -0.644592 1633 0.733220 0.679992 0.000000
-6.756778 -6.369812 -0.641759 1629 0.733220 0.679992 0.000000
-6.757453 -6.370444 -0.638953 1631 0.733220 0.679992 0.000000
-6.757536 -6.370519 -0.636092 1633 0.733220 0.679992 0.000000
-6.757256 -6.370260 -0.633204 1637 0.733220 0.679992 0.000000
-6.756966 -6.369982 -0.630317 1629 0.733220 0.679992 0.000000
-6.757163 -6.370170 -0.627465 1637 0.733220 0.679992 0.000000
-6.757083 -6.370092 -0.624596 1635 0.733220 0.679992 0.000000
-6.757169 -6.370180 -0.621735 1625 0.733220 0.679992 0.000000
-6.757090 -6.370103 -0.618866 1623 0.733220 0.679992 0.000000
-6.757013 -6.370040 -0.615996 1633 0.733220 0.679992 0.000000
-6.757046 -6.370063 -0.613136 1629 0.733220 0.679992 0.000000
-6.756693 -6.369737 -0.610239 1633 0.733220 0.679992 0.000000
-6.756460 -6.369515 -0.607351 1633 0.733220 0.679992 0.000000
-6.756325 -6.369395 -0.604482 1627 0.733220 0.679992 0.000000
-6.756521 -6.369568 -0.601631 1627 0.733220 0.679992 0.000000
-6.756492 -6.369543 -0.598771 1631 0.733220 0.679992 0.000000
-6.756406 -6.369473 -0.595901 1629 0.733220 0.679992 0.000000
-6.756221 -6.369289 -0.593023 1627 0.733220 0.679992 0.000000
-6.756030 -6.369112 -0.590135 1625 0.733220 0.679992 0.000000
-6.756478 -6.369532 -0.587321 1625 0.733220 0.679992 0.000000
-6.756813 -6.369851 -0.584477 1627 0.733220 0.679992 0.000000
-6.756621 -6.369674 -0.581599 1637 0.733220 0.679992 0.000000
-6.756269 -6.369347 -0.578712 1627 0.733220 0.679992 0.000000
-6.756343 -6.369415 -0.575852 1621 0.733220 0.679992 0.000000
-6.756792 -6.369834 -0.573027 1635 0.733220 0.679992 0.000000
-6.756803 -6.369852 -0.570167 1631 0.733220 0.679992 0.000000
-6.756991 -6.370019 -0.567325 1627 0.733220 0.679992 0.000000
-6.756890 -6.369938 -0.564456 1631 0.733220 0.679992 0.000000
-6.756600 -6.369660 -0.561569 1629 0.733220 0.679992 0.000000
-6.756513 -6.369577 -0.558699 1627 0.733220 0.679992 0.000000
-6.756314 -6.369394 -0.555821 1635 0.733220 0.679992 0.000000
-6.756049 -6.369149 -0.552934 1631 0.733220 0.679992 0.000000
-6.756179 -6.369259 -0.550082 1627 0.733220 0.679992 0.000000
-6.756191 -6.369277 -0.547222 1635 0.733220 0.679992 0.000000
-6.756209 -6.369288 -0.544362 1633 0.733220 0.679992 0.000000
-6.756861 -6.369903 -0.541556 1629 0.733220 0.679992 0.000000
-6.757083 -6.370122 -0.538714 1629 0.733220 0.679992 0.000000
-6.756770 -6.369826 -0.535827 1625 0.733220 0.679992 0.000000
-6.756788 -6.369837 -0.532966 1629 0.733220 0.679992 0.000000
-6.756954 -6.369999 -0.530125 1639 0.733220 0.679992 0.000000
-6.756858 -6.369910 -0.527255 1643 0.733220 0.679992 0.000000
-6.756651 -6.369721 -0.524377 1643 0.733220 0.679992 0.000000
-6.756718 -6.369783 -0.521517 1631 0.733220 0.679992 0.000000
-6.757200 -6.370240 -0.518692 1627 0.733220 0.679992 0.000000
-6.757314 -6.370338 -0.515841 1633 0.733220 0.679992 0.000000
-6.756896 -6.369949 -0.512955 1629 0.733220 0.679992 0.000000
-6.756421 -6.369502 -0.510059 1629 0.733220 0.679992 0.000000
-6.756586 -6.369664 -0.507208 1627 0.733220 0.679992 0.000000
-6.757073 -6.370114 -0.504383 1625 0.733220 0.679992 0.000000
-6.757344 -6.370371 -0.501540 1629 0.733220 0.679992 0.000000
-6.756861 -6.369917 -0.498655 1617 0.733220 0.679992 0.000000
-6.756920 -6.369973 -0.495794 1629 0.733220 0.679992 0.000000
-6.757028 -6.370079 -0.492943 1631 0.733220 0.679992 0.000000
-6.756602 -6.369683 -0.490057 1623 0.733220 0.679992 0.000000
-6.756920 -6.369976 -0.487214 1625 0.733220 0.679992 0.000000
-6.756979 -6.370031 -0.484363 1635 0.733220 0.679992 0.000000
-6.756917 -6.369981 -0.481494 1631 0.733220 0.679992 0.000000
-6.756920 -6.369979 -0.478634 1629 0.733220 0.679992 0.000000
-6.756809 -6.369878 -0.475775 1631 0.733220 0.679992 0.000000
-6.756592 -6.369668 -0.472897 1637 0.733220 0.679992 0.000000
-6.756279 -6.369372 -0.470020 1623 0.733220 0.679992 0.000000
-6.756744 -6.369817 -0.467195 1625 0.733220 0.679992 0.000000
-6.756957 -6.370017 -0.464343 1633 0.733220 0.679992 0.000000
-6.756628 -6.369709 -0.461466 1635 0.733220 0.679992 0.000000
-6.756680 -6.369758 -0.458615 1635 0.733220 0.679992 0.000000
-6.756561 -6.369650 -0.455746 1635 0.733220 0.679992 0.000000
-6.756604 -6.369693 -0.452886 1627 0.733220 0.679992 0.000000
-6.756866 -6.369944 -0.450053 1633 0.733220 0.679992 0.000000
-6.756753 -6.369828 -0.447184 1631 0.733220 0.679992 0.000000
-6.756369 -6.369477 -0.444298 1625 0.733220 0.679992 0.000000
-6.756355 -6.369462 -0.441438 1631 0.733220 0.679992 0.000000
-6.756561 -6.369657 -0.438596 1629 0.733220 0.679992 0.000000
-6.756443 -6.369549 -0.435737 1629 0.733220 0.679992 0.000000
-6.756591 -6.369686 -0.432886 1637 0.733220 0.679992 0.000000
-6.756689 -6.369772 -0.430035 1633 0.733220 0.679992 0.000000
-6.756458 -6.369564 -0.427157 1625 0.733220 0.679992 0.000000
-6.756452 -6.369556 -0.424307 1627 0.733220 0.679992 0.000000
-6.756853 -6.369939 -0.421473 1629 0.733220 0.679992 0.000000
-6.757050 -6.370126 -0.418621 1631 0.733220 0.679992 0.000000
-6.756776 -6.369860 -0.415753 1623 0.733220 0.679992 0.000000
-6.756699 -6.369798 -0.412894 1637 0.733220 0.679992 0.000000
-6.756529 -6.369626 -0.410026 1631 0.733220 0.679992 0.000000
-6.756833 -6.369920 -0.407183 1635 0.733220 0.679992 0.000000
-6.756860 -6.369951 -0.404332 1625 0.733220 0.679992 0.000000
-6.756846 -6.369937 -0.401472 1625 0.733220 0.679992 0.000000
-6.756775 -6.369866 -0.398613 1627 0.733220 0.679992 0.000000
-6.756860 -6.369954 -0.395752 1633 0.733220 0.679992 0.000000
-6.756943 -6.370028 -0.392901 1637 0.733220 0.679992 0.000000
-6.757034 -6.370107 -0.390050 1637 0.733220 0.679992 0.000000
-6.757323 -6.370390 -0.387218 1639 0.733220 0.679992 0.000000
-6.756878 -6.369968 -0.384332 1639 0.733220 0.679992 0.000000
-6.756646 -6.369747 -0.381464 1635 0.733220 0.679992 0.000000
-6.757362 -6.370424 -0.378647 1641 0.733220 0.679992 0.000000
-6.757390 -6.370455 -0.375787 1633 0.733220 0.679992 0.000000
-6.756833 -6.369933 -0.372902 1631 0.733220 0.679992 0.000000
-6.756859 -6.369949 -0.370052 1633 0.733220 0.679992 0.000000
-6.757259 -6.370332 -0.367218 1635 0.733220 0.679992 0.000000
-6.756808 -6.369904 -0.364332 1627 0.733220 0.679992 0.000000
-6.756463 -6.369582 -0.361465 1627 0.733220 0.679992 0.000000
-6.756701 -6.369814 -0.358613 1637 0.733220 0.679992 0.000000
-6.756938 -6.370033 -0.355770 1641 0.733220 0.679992 0.000000
-6.756851 -6.369949 -0.352911 1631 0.733220 0.679992 0.000000
-6.756287 -6.369421 -0.350026 1631 0.733220 0.679992 0.000000
-6.756257 -6.369395 -0.347177 1625 0.733220 0.679992 0.000000
-6.756867 -6.369965 -0.344351 1627 0.733220 0.679992 0.000000
-6.756838 -6.369939 -0.341491 1633 0.733220 0.679992 0.000000
-6.756266 -6.369404 -0.338606 1625 0.733220 0.679992 0.000000
-6.756447 -6.369579 -0.335765 1625 0.733220 0.679992 0.000000
-6.756733 -6.369848 -0.332922 1621 0.733220 0.679992 0.000000
-6.757011 -6.370111 -0.330079 1623 0.733220 0.679992 0.000000
-6.757193 -6.370286 -0.327227 1631 0.733220 0.679992 0.000000
-6.756837 -6.369945 -0.324361 1629 0.733220 0.679992 0.000000
-6.756646 -6.369769 -0.321492 1633 0.733220 0.679992 0.000000
-6.756875 -6.369980 -0.318650 1633 0.733220 0.679992 0.000000
-6.756780 -6.369891 -0.315791 1639 0.733220 0.679992 0.000000
-6.756743 -6.369859 -0.312931 1637 0.733220 0.679992 0.000000
-6.757175 -6.370266 -0.310097 1633 0.733220 0.679992 0.000000
-6.759553 -6.368281 -0.699154 1635 0.733220 0.679992 0.000000
-6.759921 -6.368625 -0.696321 1631 0.733220 0.679992 0.000000
-6.759810 -6.368524 -0.693442 1631 0.733220 0.679992 0.000000
-6.759326 -6.368071 -0.690526 1629 0.733220 0.679992 0.000000
-6.758736 -6.367509 -0.687602 1633 0.733220 0.679992 0.000000
-6.758140 -6.366957 -0.684677 1619 0.733220 0.679992 0.000000
-6.758078 -6.366892 -0.681798 1623 0.733220 0.679992 0.000000
-6.758444 -6.367236 -0.678974 1627 0.733220 0.679992 0.000000
-6.759113 -6.367877 -0.676168 1631 0.733220 0.679992 0.000000
-6.759164 -6.367926 -0.673307 1623 0.733220 0.679992 0.000000
-6.758827 -6.367611 -0.670410 1623 0.733220 0.679992 0.000000
-6.758876 -6.367645 -0.667550 1631 0.733220 0.679992 0.000000
-6.758645 -6.367438 -0.664662 1631 0.733220 0.679992 0.000000
-6.758688 -6.367482 -0.661802 1627 0.733220 0.679992 0.000000
-6.758780 -6.367561 -0.658941 1627 0.733220 0.679992 0.000000
-6.758554 -6.367346 -0.656053 1633 0.733220 0.679992 0.000000
-6.758647 -6.367440 -0.653202 1629 0.733220 0.679992 0.000000
-6.758837 -6.367621 -0.650350 1629 0.733220 0.679992 0.000000
-6.759188 -6.367953 -0.647517 1631 0.733220 0.679992 0.000000
-6.759012 -6.367788 -0.644638 1627 0.733220 0.679992 0.000000
-6.758844 -6.367630 -0.641760 1627 0.733220 0.679992 0.000000
-6.758717 -6.367503 -0.638881 1633 0.733220 0.679992 0.000000
-6.758905 -6.367684 -0.636029 1633 0.733220 0.679992 0.000000
-6.758415 -6.367225 -0.633123 1629 0.733220 0.679992 0.000000
-6.758230 -6.367054 -0.630245 1627 0.733220 0.679992 0.000000
-6.758743 -6.367536 -0.627420 1623 0.733220 0.679992 0.000000
-6.758876 -6.367661 -0.624569 1631 0.733220 0.679992 0.000000
-6.758904 -6.367691 -0.621709 1629 0.733220 0.679992 0.000000
-6.758621 -6.367419 -0.618821 1625 0.733220 0.679992 0.000000
-6.758860 -6.367651 -0.615979 1625 0.733220 0.679992 0.000000
-6.759050 -6.367833 -0.613127 1633 0.733220 0.679992 0.000000
-6.758548 -6.367353 -0.610222 1623 0.733220 0.679992 0.000000
-6.758154 -6.366982 -0.607325 1623 0.733220 0.679992 0.000000
-6.758012 -6.366856 -0.604447 1619 0.733220 0.679992 0.000000
-6.758143 -6.366980 -0.601595 1627 0.733220 0.679992 0.000000
-6.758333 -6.367161 -0.598753 1631 0.733220 0.679992 0.000000
-6.758197 -6.367028 -0.595875 1633 0.733220 0.679992 0.000000
-6.758436 -6.367260 -0.593032 1633 0.733220 0.679992 0.000000
-6.758412 -6.367226 -0.590172 1635 0.733220 0.679992 0.000000
-6.758537 -6.367344 -0.587321 1627 0.733220 0.679992 0.000000
-6.759034 -6.367814 -0.584496 1629 0.733220 0.679992 0.000000
-6.759110 -6.367895 -0.581636 1625 0.733220 0.679992 0.000000
-6.759178 -6.367957 -0.578785 1621 0.733220 0.679992 0.000000
-6.759043 -6.367837 -0.575906 1631 0.733220 0.679992 0.000000
-6.758858 -6.367652 -0.573028 1627 0.733220 0.679992 0.000000
-6.758546 -6.367370 -0.570141 1627 0.733220 0.679992 0.000000
-6.758677 -6.367480 -0.567289 1625 0.733220 0.679992 0.000000
-6.758801 -6.367598 -0.564438 1633 0.733220 0.679992 0.000000
-6.758708 -6.367523 -0.561569 1629 0.733220 0.679992 0.000000
-6.758783 -6.367591 -0.558718 1633 0.733220 0.679992 0.000000
-6.758793 -6.367596 -0.555858 1625 0.733220 0.679992 0.000000
-6.758862 -6.367671 -0.552997 1631 0.733220 0.679992 0.000000
-6.759245 -6.368027 -0.550164 1633 0.733220 0.679992 0.000000
-6.759207 -6.367994 -0.547304 1631 0.733220 0.679992 0.000000
-6.758860 -6.367660 -0.544417 1627 0.733220 0.679992 0.000000
-6.758652 -6.367471 -0.541539 1633 0.733220 0.679992 0.000000
-6.758663 -6.367476 -0.538679 1631 0.733220 0.679992 0.000000
-6.758828 -6.367638 -0.535827 1627 0.733220 0.679992 0.000000
-6.759107 -6.367900 -0.532984 1633 0.733220 0.679992 0.000000
-6.759223 -6.368012 -0.530133 1641 0.733220 0.679992 0.000000
-6.759024 -6.367830 -0.527265 1633 0.733220 0.679992 0.000000
-6.759195 -6.367985 -0.524413 1631 0.733220 0.679992 0.000000
-6.759466 -6.368241 -0.521571 1633 0.733220 0.679992 0.000000
-6.759258 -6.368052 -0.518693 1633 0.733220 0.679992 0.000000
-6.758895 -6.367706 -0.515806 1625 0.733220 0.679992 0.000000
-6.759004 -6.367812 -0.512955 1617 0.733220 0.679992 0.000000
-6.758909 -6.367722 -0.510086 1621 0.733220 0.679992 0.000000
-6.758749 -6.367570 -0.507217 1625 0.733220 0.679992 0.000000
-6.758857 -6.367676 -0.504366 1631 0.733220 0.679992 0.000000
-6.759241 -6.368032 -0.501532 1641 0.733220 0.679992 0.000000
-6.759081 -6.367880 -0.498664 1635 0.733220 0.679992 0.000000
-6.758712 -6.367541 -0.495777 1617 0.733220 0.679992 0.000000
-6.759037 -6.367840 -0.492944 1615 0.733220 0.679992 0.000000
-6.759398 -6.368192 -0.490111 1629 0.733220 0.679992 0.000000
-6.759458 -6.368247 -0.487250 1625 0.733220 0.679992 0.000000
-6.759249 -6.368044 -0.484372 1629 0.733220 0.679992 0.000000
-6.758927 -6.367743 -0.481495 1625 0.733220 0.679992 0.000000
-6.759246 -6.368049 -0.478662 1633 0.733220 0.679992 0.000000
-6.759614 -6.368393 -0.475828 1631 0.733220 0.679992 0.000000
-6.759615 -6.368392 -0.472968 1627 0.733220 0.679992 0.000000
-6.759393 -6.368191 -0.470090 1633 0.733220 0.679992 0.000000
-6.759127 -6.367931 -0.467213 1637 0.733220 0.679992 0.000000
-6.758642 -6.367477 -0.464317 1629 0.733220 0.679992 0.000000
-6.758209 -6.367076 -0.461431 1627 0.733220 0.679992 0.000000
-6.758372 -6.367224 -0.458590 1631 0.733220 0.679992 0.000000
-6.758781 -6.367613 -0.455756 1629 0.733220 0.679992 0.000000
-6.758410 -6.367260 -0.452869 1625 0.733220 0.679992 0.000000
-6.758552 -6.367404 -0.450028 1633 0.733220 0.679992 0.000000
-6.759024 -6.367842 -0.447193 1627 0.733220 0.679992 0.000000
-6.758751 -6.367590 -0.444326 1625 0.733220 0.679992 0.000000
-6.758365 -6.367224 -0.441439 1623 0.733220 0.679992 0.000000
-6.758204 -6.367072 -0.438571 1631 0.733220 0.679992 0.000000
-6.758240 -6.367109 -0.435720 1633 0.733220 0.679992 0.000000
-6.758235 -6.367101 -0.432860 1635 0.733220 0.679992 0.000000
-6.758327 -6.367195 -0.430009 1625 0.733220 0.679992 0.000000
-6.758199 -6.367067 -0.427140 1627 0.733220 0.679992 0.000000
-6.758511 -6.367368 -0.424307 1625 0.733220 0.679992 0.000000
-6.758975 -6.367800 -0.421473 1627 0.733220 0.679992 0.000000
-6.758636 -6.367485 -0.418596 1625 0.733220 0.679992 0.000000
-6.758779 -6.367630 -0.415745 1627 0.733220 0.679992 0.000000
-6.759404 -6.368211 -0.412929 1631 0.733220 0.679992 0.000000
-6.758963 -6.367803 -0.410043 1629 0.733220 0.679992 0.000000
-6.758785 -6.367625 -0.407174 1627 0.733220 0.679992 0.000000
-6.758919 -6.367763 -0.404333 1617 0.733220 0.679992 0.000000
-6.759067 -6.367900 -0.401482 1623 0.733220 0.679992 0.000000
-6.758996 -6.367829 -0.398622 1619 0.733220 0.679992 0.000000
-6.758812 -6.367659 -0.395754 1629 0.733220 0.679992 0.000000
-6.758742 -6.367588 -0.392895 1633 0.733220 0.679992 0.000000
-6.758559 -6.367418 -0.390026 1631 0.733220 0.679992 0.000000
-6.758805 -6.367656 -0.387184 1633 0.733220 0.679992 0.000000
-6.759148 -6.367981 -0.384340 1635 0.733220 0.679992 0.000000
-6.758754 -6.367610 -0.381464 1627 0.733220 0.679992 0.000000
-6.758836 -6.367683 -0.378613 1635 0.733220 0.679992 0.000000
-6.758970 -6.367822 -0.375762 1635 0.733220 0.679992 0.000000
-6.759215 -6.368045 -0.372920 1629 0.733220 0.679992 0.000000
-6.759559 -6.368371 -0.370086 1627 0.733220 0.679992 0.000000
-6.758580 -6.367446 -0.367175 1633 0.733220 0.679992 0.000000
-6.758285 -6.367177 -0.364308 1633 0.733220 0.679992 0.000000
-6.758683 -6.367545 -0.361474 1633 0.733220 0.679992 0.000000
-6.758379 -6.367269 -0.358597 1631 0.733220 0.679992 0.000000
-6.758300 -6.367192 -0.355738 1619 0.733220 0.679992 0.000000
-6.758537 -6.367410 -0.352895 1617 0.733220 0.679992 0.000000
-6.758830 -6.367684 -0.350053 1627 0.733220 0.679992 0.000000
-6.758851 -6.367709 -0.347202 1629 0.733220 0.679992 0.000000
-6.758764 -6.367626 -0.344343 1627 0.733220 0.679992 0.000000
-6.759058 -6.367901 -0.341500 1625 0.733220 0.679992 0.000000
-6.759020 -6.367869 -0.338641 1629 0.733220 0.679992 0.000000
-6.758610 -6.367486 -0.335764 1625 0.733220 0.679992 0.000000
-6.758742 -6.367609 -0.332923 1625 0.733220 0.679992 0.000000
-6.759338 -6.368181 -0.330087 1637 0.733220 0.679992 0.000000
-6.758983 -6.367840 -0.327221 1629 0.733220 0.679992 0.000000
-6.758735 -6.367607 -0.324353 1631 0.733220 0.679992 0.000000
-6.758964 -6.367818 -0.321511 1631 0.733220 0.679992 0.000000
-6.759194 -6.368044 -0.318668 1629 0.733220 0.679992 0.000000
-6.758847 -6.367709 -0.315792 1631 0.733220 0.679992 0.000000
-6.758105 -6.367019 -0.312908 1619 0.733220 0.679992 0.000000
-6.757856 -6.366785 -0.310041 1623 0.733220 0.679992 0.000000
-6.761104 -6.365687 -0.699109 1623 0.733220 0.679992 0.000000
-6.761197 -6.365781 -0.696249 1621 0.733220 0.679992 0.000000
-6.761199 -6.365779 -0.693378 1621 0.733220 0.679992 0.000000
-6.761137 -6.365729 -0.690509 1623 0.733220 0.679992 0.000000
-6.761124 -6.365715 -0.687639 1629 0.733220 0.679992 0.000000
-6.761280 -6.365858 -0.684787 1633 0.733220 0.679992 0.000000
-6.761218 -6.365807 -0.681918 1637 0.733220 0.679992 0.000000
-6.761415 -6.365994 -0.679066 1639 0.733220 0.679992 0.000000
-6.761619 -6.366174 -0.676224 1629 0.733220 0.679992 0.000000
-6.761396 -6.365973 -0.673336 1627 0.733220 0.679992 0.000000
-6.761277 -6.365865 -0.670457 1637 0.733220 0.679992 0.000000
-6.761053 -6.365650 -0.667569 1627 0.733220 0.679992 0.000000
-6.760624 -6.365240 -0.664653 1627 0.733220 0.679992 0.000000
-6.760498 -6.365126 -0.661784 1635 0.733220 0.679992 0.000000
-6.760702 -6.365319 -0.658932 1629 0.733220 0.679992 0.000000
-6.760308 -6.364948 -0.656026 1631 0.733220 0.679992 0.000000
-6.760667 -6.365285 -0.653202 1625 0.733220 0.679992 0.000000
-6.760865 -6.365473 -0.650351 1629 0.733220 0.679992 0.000000
-6.760260 -6.364914 -0.647426 1627 0.733220 0.679992 0.000000
-6.760505 -6.365138 -0.644584 1619 0.733220 0.679992 0.000000
-6.761125 -6.365727 -0.641778 1633 0.733220 0.679992 0.000000
-6.761158 -6.365750 -0.638918 1637 0.733220 0.679992 0.000000
-6.760991 -6.365592 -0.636039 1633 0.733220 0.679992 0.000000
-6.760533 -6.365171 -0.633133 1633 0.733220 0.679992 0.000000
-6.760462 -6.365101 -0.630264 1635 0.733220 0.679992 0.000000
-6.760286 -6.364936 -0.627385 1625 0.733220 0.679992 0.000000
-6.760102 -6.364766 -0.624497 1627 0.733220 0.679992 0.000000
-6.760446 -6.365092 -0.621664 1625 0.733220 0.679992 0.000000
-6.760643 -6.365279 -0.618822 1623 0.733220 0.679992 0.000000
-6.760776 -6.365404 -0.615970 1631 0.733220 0.679992 0.000000
-6.760753 -6.365383 -0.613101 1629 0.733220 0.679992 0.000000
-6.760464 -6.365105 -0.610213 1623 0.733220 0.679992 0.000000
-6.760329 -6.364985 -0.607334 1619 0.733220 0.679992 0.000000
-6.760510 -6.365160 -0.604493 1627 0.733220 0.679992 0.000000
-6.760432 -6.365084 -0.601623 1633 0.733220 0.679992 0.000000
-6.760141 -6.364806 -0.598736 1621 0.733220 0.679992 0.000000
-6.760331 -6.364987 -0.595884 1623 0.733220 0.679992 0.000000
-6.760780 -6.365407 -0.593060 1633 0.733220 0.679992 0.000000
-6.760750 -6.365380 -0.590200 1635 0.733220 0.679992 0.000000
-6.760185 -6.364851 -0.587285 1621 0.733220 0.679992 0.000000
-6.759832 -6.364525 -0.584389 1619 0.733220 0.679992 0.000000
-6.759964 -6.364649 -0.581537 1617 0.733220 0.679992 0.000000
-6.760250 -6.364917 -0.578705 1615 0.733220 0.679992 0.000000
-6.760318 -6.364979 -0.575844 1617 0.733220 0.679992 0.000000
-6.760554 -6.365197 -0.573002 1621 0.733220 0.679992 0.000000
-6.760363 -6.365021 -0.570123 1623 0.733220 0.679992 0.000000
-6.760487 -6.365139 -0.567272 1627 0.733220 0.679992 0.000000
-6.760872 -6.365509 -0.564448 1639 0.733220 0.679992 0.000000
-6.760574 -6.365225 -0.561561 1631 0.733220 0.679992 0.000000
-6.760852 -6.365487 -0.558718 1623 0.733220 0.679992 0.000000
-6.761301 -6.365906 -0.555894 1629 0.733220 0.679992 0.000000
-6.761093 -6.365717 -0.553016 1631 0.733220 0.679992 0.000000
-6.760957 -6.365584 -0.550147 1635 0.733220 0.679992 0.000000
-6.760862 -6.365495 -0.547278 1631 0.733220 0.679992 0.000000
-6.760712 -6.365363 -0.544399 1621 0.733220 0.679992 0.000000
-6.760990 -6.365625 -0.541567 1623 0.733220 0.679992 0.000000
-6.760846 -6.365485 -0.538688 1625 0.733220 0.679992 0.000000
-6.760428 -6.365096 -0.535792 1635 0.733220 0.679992 0.000000
-6.760284 -6.364955 -0.532923 1625 0.733220 0.679992 0.000000
-6.760822 -6.365470 -0.530108 1619 0.733220 0.679992 0.000000
-6.761579 -6.366178 -0.527301 1631 0.733220 0.679992 0.000000
-6.761209 -6.365839 -0.524414 1635 0.733220 0.679992 0.000000
-6.760586 -6.365239 -0.521500 1629 0.733220 0.679992 0.000000
-6.760590 -6.365252 -0.518650 1635 0.733220 0.679992 0.000000
-6.760868 -6.365515 -0.515807 1627 0.733220 0.679992 0.000000
-6.760820 -6.365462 -0.512938 1627 0.733220 0.679992 0.000000
-6.760128 -6.364822 -0.510034 1613 0.733220 0.679992 0.000000
-6.760300 -6.364977 -0.507182 1615 0.733220 0.679992 0.000000
-6.760942 -6.365584 -0.504366 1625 0.733220 0.679992 0.000000
-6.760890 -6.365541 -0.501507 1631 0.733220 0.679992 0.000000
-6.760681 -6.365338 -0.498628 1627 0.733220 0.679992 0.000000
-6.760838 -6.365494 -0.495787 1621 0.733220 0.679992 0.000000
-6.761424 -6.366045 -0.492971 1623 0.733220 0.679992 0.000000
-6.761377 -6.365993 -0.490102 1629 0.733220 0.679992 0.000000
-6.761162 -6.365798 -0.487234 1619 0.733220 0.679992 0.000000
-6.761107 -6.365740 -0.484364 1619 0.733220 0.679992 0.000000
-6.760787 -6.365451 -0.481487 1611 0.733220 0.679992 0.000000
-6.761105 -6.365745 -0.478644 1633 0.733220 0.679992 0.000000
-6.761261 -6.365887 -0.475803 1625 0.733220 0.679992 0.000000
-6.761045 -6.365693 -0.472924 1619 0.733220 0.679992 0.000000
-6.761048 -6.365691 -0.470064 1619 0.733220 0.679992 0.000000
-6.760938 -6.365589 -0.467195 1623 0.733220 0.679992 0.000000
-6.760931 -6.365582 -0.464345 1625 0.733220 0.679992 0.000000
-6.760983 -6.365630 -0.461485 1623 0.733220 0.679992 0.000000
-6.761083 -6.365730 -0.458634 1639 0.733220 0.679992 0.000000
-6.761069 -6.365716 -0.455774 1633 0.733220 0.679992 0.000000
-6.761064 -6.365709 -0.452914 1625 0.733220 0.679992 0.000000
-6.761051 -6.365709 -0.450054 1625 0.733220 0.679992 0.000000
-6.760835 -6.365500 -0.447186 1621 0.733220 0.679992 0.000000
-6.760821 -6.365487 -0.444326 1627 0.733220 0.679992 0.000000
-6.760914 -6.365580 -0.441475 1633 0.733220 0.679992 0.000000
-6.760373 -6.365070 -0.438580 1617 0.733220 0.679992 0.000000
-6.760098 -6.364804 -0.435702 1615 0.733220 0.679992 0.000000
-6.760410 -6.365105 -0.432869 1621 0.733220 0.679992 0.000000
-6.760446 -6.365142 -0.430009 1615 0.733220 0.679992 0.000000
-6.760172 -6.364876 -0.427142 1613 0.733220 0.679992 0.000000
-6.760791 -6.365466 -0.424316 1629 0.733220 0.679992 0.000000
-6.760890 -6.365552 -0.421465 1625 0.733220 0.679992 0.000000
-6.760497 -6.365194 -0.418588 1617 0.733220 0.679992 0.000000
-6.760483 -6.365180 -0.415728 1619 0.733220 0.679992 0.000000
-6.760574 -6.365261 -0.412877 1621 0.733220 0.679992 0.000000
-6.760764 -6.365441 -0.410036 1629 0.733220 0.679992 0.000000
-6.760701 -6.365377 -0.407176 1623 0.733220 0.679992 0.000000
-6.760843 -6.365522 -0.404325 1631 0.733220 0.679992 0.000000
-6.760659 -6.365351 -0.401456 1631 0.733220 0.679992 0.000000
-6.760539 -6.365230 -0.398587 1631 0.733220 0.679992 0.000000
-6.760413 -6.365116 -0.395728 1633 0.733220 0.679992 0.000000
-6.760552 -6.365247 -0.392877 1637 0.733220 0.679992 0.000000
-6.760743 -6.365428 -0.390035 1629 0.733220 0.679992 0.000000
-6.760874 -6.365552 -0.387184 1633 0.733220 0.679992 0.000000
-6.760853 -6.365532 -0.384324 1635 0.733220 0.679992 0.000000
-6.760612 -6.365305 -0.381456 1631 0.733220 0.679992 0.000000
-6.760697 -6.365393 -0.378605 1631 0.733220 0.679992 0.000000
-6.761210 -6.365875 -0.375780 1625 0.733220 0.679992 0.000000
-6.761180 -6.365849 -0.372921 1625 0.733220 0.679992 0.000000
-6.760996 -6.365678 -0.370052 1625 0.733220 0.679992 0.000000
-6.760756 -6.365451 -0.367185 1629 0.733220 0.679992 0.000000
-6.760191 -6.364923 -0.364300 1627 0.733220 0.679992 0.000000
-6.759852 -6.364594 -0.361423 1625 0.733220 0.679992 0.000000
-6.760519 -6.365220 -0.358607 1623 0.733220 0.679992 0.000000
-6.761074 -6.365747 -0.355781 1625 0.733220 0.679992 0.000000
-6.760825 -6.365514 -0.352914 1623 0.733220 0.679992 0.000000
-6.760746 -6.365437 -0.350054 1623 0.733220 0.679992 0.000000
-6.760767 -6.365461 -0.347194 1611 0.733220 0.679992 0.000000
-6.760623 -6.365322 -0.344335 1621 0.733220 0.679992 0.000000
-6.760699 -6.365403 -0.341484 1621 0.733220 0.679992 0.000000
-6.760620 -6.365326 -0.338625 1619 0.733220 0.679992 0.000000
-6.760476 -6.365187 -0.335756 1611 0.733220 0.679992 0.000000
-6.760764 -6.365469 -0.332924 1623 0.733220 0.679992 0.000000
-6.760612 -6.365323 -0.330055 1617 0.733220 0.679992 0.000000
-6.760525 -6.365240 -0.327196 1631 0.733220 0.679992 0.000000
-6.760601 -6.365308 -0.324345 1629 0.733220 0.679992 0.000000
-6.761196 -6.365879 -0.321519 1637 0.733220 0.679992 0.000000
-6.761060 -6.365746 -0.318660 1631 0.733220 0.679992 0.000000
-6.760172 -6.364917 -0.315759 1625 0.733220 0.679992 0.000000
-6.759809 -6.364569 -0.312892 1619 0.733220 0.679992 0.000000
-6.760411 -6.365133 -0.310066 1633 0.733220 0.679992 0.000000
-6.763186 -6.363682 -0.699119 1619 0.733220 0.679992 0.000000
-6.763188 -6.363680 -0.696249 1619 0.733220 0.679992 0.000000
-6.763443 -6.363925 -0.693407 1629 0.733220 0.679992 0.000000
-6.763064 -6.363565 -0.690500 1629 0.733220 0.679992 0.000000
-6.762629 -6.363163 -0.687594 1629 0.733220 0.679992 0.000000
-6.763150 -6.363650 -0.684779 1631 0.733220 0.679992 0.000000
-6.763566 -6.364046 -0.681955 1633 0.733220 0.679992 0.000000
-6.763616 -6.364081 -0.679085 1627 0.733220 0.679992 0.000000
-6.763920 -6.364376 -0.676252 1637 0.733220 0.679992 0.000000
-6.763647 -6.364123 -0.673354 1635 0.733220 0.679992 0.000000
-6.763316 -6.363801 -0.670457 1631 0.733220 0.679992 0.000000
-6.763304 -6.363801 -0.667587 1631 0.733220 0.679992 0.000000
-6.763021 -6.363529 -0.664700 1627 0.733220 0.679992 0.000000
-6.762846 -6.363365 -0.661811 1621 0.733220 0.679992 0.000000
-6.763051 -6.363558 -0.658969 1633 0.733220 0.679992 0.000000
-6.762826 -6.363343 -0.656082 1631 0.733220 0.679992 0.000000
-6.762700 -6.363229 -0.653203 1627 0.733220 0.679992 0.000000
-6.762897 -6.363417 -0.650361 1631 0.733220 0.679992 0.000000
-6.762982 -6.363504 -0.647500 1639 0.733220 0.679992 0.000000
-6.763023 -6.363533 -0.644639 1637 0.733220 0.679992 0.000000
-6.762686 -6.363219 -0.641742 1629 0.733220 0.679992 0.000000
-6.762510 -6.363054 -0.638864 1637 0.733220 0.679992 0.000000
-6.762376 -6.362934 -0.635985 1629 0.733220 0.679992 0.000000
-6.762516 -6.363065 -0.633134 1629 0.733220 0.679992 0.000000
-6.762453 -6.363000 -0.630264 1631 0.733220 0.679992 0.000000
-6.762368 -6.362931 -0.627395 1625 0.733220 0.679992 0.000000
-6.762563 -6.363104 -0.624543 1619 0.733220 0.679992 0.000000
-6.762430 -6.362985 -0.621664 1615 0.733220 0.679992 0.000000
-6.762359 -6.362915 -0.618795 1619 0.733220 0.679992 0.000000
-6.762547 -6.363095 -0.615953 1627 0.733220 0.679992 0.000000
-6.762737 -6.363276 -0.613101 1629 0.733220 0.679992 0.000000
-6.762601 -6.363143 -0.610233 1623 0.733220 0.679992 0.000000
-6.762362 -6.362929 -0.607345 1627 0.733220 0.679992 0.000000
-6.762185 -6.362751 -0.604466 1621 0.733220 0.679992 0.000000
-6.762311 -6.362884 -0.601615 1623 0.733220 0.679992 0.000000
-6.762759 -6.363302 -0.598791 1631 0.733220 0.679992 0.000000
-6.763321 -6.363836 -0.595975 1629 0.733220 0.679992 0.000000
-6.763388 -6.363897 -0.593115 1627 0.733220 0.679992 0.000000
-6.762944 -6.363474 -0.590219 1631 0.733220 0.679992 0.000000
-6.762703 -6.363247 -0.587331 1631 0.733220 0.679992 0.000000
-6.762666 -6.363215 -0.584461 1635 0.733220 0.679992 0.000000
-6.762798 -6.363339 -0.581610 1629 0.733220 0.679992 0.000000
-6.762761 -6.363307 -0.578750 1625 0.733220 0.679992 0.000000
-6.762520 -6.363079 -0.575862 1625 0.733220 0.679992 0.000000
-6.762694 -6.363248 -0.573021 1625 0.733220 0.679992 0.000000
-6.762768 -6.363316 -0.570160 1625 0.733220 0.679992 0.000000
-6.762731 -6.363284 -0.567300 1621 0.733220 0.679992 0.000000
-6.762798 -6.363345 -0.564440 1627 0.733220 0.679992 0.000000
-6.762396 -6.362967 -0.561543 1619 0.733220 0.679992 0.000000
-6.762885 -6.363431 -0.558729 1623 0.733220 0.679992 0.000000
-6.763122 -6.363649 -0.555876 1629 0.733220 0.679992 0.000000
-6.762818 -6.363373 -0.552999 1635 0.733220 0.679992 0.000000
-6.762715 -6.363277 -0.550130 1635 0.733220 0.679992 0.000000
-6.762466 -6.363044 -0.547242 1629 0.733220 0.679992 0.000000
-6.762800 -6.363349 -0.544409 1627 0.733220 0.679992 0.000000
-6.763022 -6.363569 -0.541567 1631 0.733220 0.679992 0.000000
-6.762668 -6.363228 -0.538680 1623 0.733220 0.679992 0.000000
-6.762679 -6.363246 -0.535820 1625 0.733220 0.679992 0.000000
-6.762690 -6.363251 -0.532960 1629 0.733220 0.679992 0.000000
-6.762855 -6.363414 -0.530108 1627 0.733220 0.679992 0.000000
-6.763035 -6.363575 -0.527266 1633 0.733220 0.679992 0.000000
-6.762665 -6.363235 -0.524370 1633 0.733220 0.679992 0.000000
-6.762780 -6.363334 -0.521519 1635 0.733220 0.679992 0.000000
-6.763157 -6.363698 -0.518685 1631 0.733220 0.679992 0.000000
-6.763378 -6.363904 -0.515843 1629 0.733220 0.679992 0.000000
-6.763171 -6.363715 -0.512975 1629 0.733220 0.679992 0.000000
-6.762638 -6.363211 -0.510070 1619 0.733220 0.679992 0.000000
-6.762544 -6.363122 -0.507200 1615 0.733220 0.679992 0.000000
-6.762926 -6.363478 -0.504367 1623 0.733220 0.679992 0.000000
-6.762816 -6.363377 -0.501508 1629 0.733220 0.679992 0.000000
-6.762609 -6.363188 -0.498630 1629 0.733220 0.679992 0.000000
-6.762822 -6.363387 -0.495788 1623 0.733220 0.679992 0.000000
-6.763140 -6.363680 -0.492945 1621 0.733220 0.679992 0.000000
-6.762932 -6.363492 -0.490076 1613 0.733220 0.679992 0.000000
-6.762773 -6.363340 -0.487208 1619 0.733220 0.679992 0.000000
-6.762881 -6.363446 -0.484347 1621 0.733220 0.679992 0.000000
-6.762664 -6.363237 -0.481479 1621 0.733220 0.679992 0.000000
-6.762885 -6.363443 -0.478637 1625 0.733220 0.679992 0.000000
-6.763238 -6.363789 -0.475803 1635 0.733220 0.679992 0.000000
-6.763191 -6.363736 -0.472934 1627 0.733220 0.679992 0.000000
-6.763031 -6.363584 -0.470065 1625 0.733220 0.679992 0.000000
-6.762920 -6.363482 -0.467196 1623 0.733220 0.679992 0.000000
-6.762541 -6.363123 -0.464319 1617 0.733220 0.679992 0.000000
-6.762269 -6.362871 -0.461442 1611 0.733220 0.679992 0.000000
-6.762685 -6.363266 -0.458608 1623 0.733220 0.679992 0.000000
-6.763159 -6.363717 -0.455783 1621 0.733220 0.679992 0.000000
-6.763315 -6.363860 -0.452932 1633 0.733220 0.679992 0.000000
-6.763140 -6.363696 -0.450064 1627 0.733220 0.679992 0.000000
-6.762818 -6.363393 -0.447186 1625 0.733220 0.679992 0.000000
-6.762593 -6.363178 -0.444309 1615 0.733220 0.679992 0.000000
-6.762425 -6.363020 -0.441440 1623 0.733220 0.679992 0.000000
-6.762202 -6.362819 -0.438572 1631 0.733220 0.679992 0.000000
-6.762674 -6.363256 -0.435748 1633 0.733220 0.679992 0.000000
-6.762978 -6.363552 -0.432905 1627 0.733220 0.679992 0.000000
-6.762866 -6.363436 -0.430046 1625 0.733220 0.679992 0.000000
-6.762424 -6.363028 -0.427160 1629 0.733220 0.679992 0.000000
-6.762037 -6.362662 -0.424273 1615 0.733220 0.679992 0.000000
-6.762177 -6.362792 -0.421422 1621 0.733220 0.679992 0.000000
-6.762543 -6.363136 -0.418588 1635 0.733220 0.679992 0.000000
-6.762896 -6.363468 -0.415755 1629 0.733220 0.679992 0.000000
-6.762876 -6.363462 -0.412895 1629 0.733220 0.679992 0.000000
-6.762544 -6.363140 -0.410018 1613 0.733220 0.679992 0.000000
-6.762629 -6.363227 -0.407167 1615 0.733220 0.679992 0.000000
-6.762825 -6.363414 -0.404325 1627 0.733220 0.679992 0.000000
-6.762958 -6.363539 -0.401474 1635 0.733220 0.679992 0.000000
-6.763156 -6.363726 -0.398632 1627 0.733220 0.679992 0.000000
-6.763134 -6.363706 -0.395772 1631 0.733220 0.679992 0.000000
-6.762528 -6.363133 -0.392878 1633 0.733220 0.679992 0.000000
-6.761875 -6.362524 -0.389984 1627 0.733220 0.679992 0.000000
-6.762380 -6.363000 -0.387159 1625 0.733220 0.679992 0.000000
-6.762943 -6.363533 -0.384334 1641 0.733220 0.679992 0.000000
-6.763025 -6.363606 -0.381483 1635 0.733220 0.679992 0.000000
-6.763215 -6.363788 -0.378631 1627 0.733220 0.679992 0.000000
-6.763031 -6.363617 -0.375773 1633 0.733220 0.679992 0.000000
-6.762629 -6.363240 -0.372896 1629 0.733220 0.679992 0.000000
-6.762761 -6.363364 -0.370045 1623 0.733220 0.679992 0.000000
-6.762416 -6.363043 -0.367168 1623 0.733220 0.679992 0.000000
-6.762175 -6.362816 -0.364300 1625 0.733220 0.679992 0.000000
-6.762208 -6.362838 -0.361450 1617 0.733220 0.679992 0.000000
-6.762544 -6.363158 -0.358607 1627 0.733220 0.679992 0.000000
-6.762733 -6.363339 -0.355765 1627 0.733220 0.679992 0.000000
-6.762493 -6.363111 -0.352897 1627 0.733220 0.679992 0.000000
-6.762455 -6.363080 -0.350037 1629 0.733220 0.679992 0.000000
-6.762475 -6.363104 -0.347187 1621 0.733220 0.679992 0.000000
-6.762608 -6.363229 -0.344336 1625 0.733220 0.679992 0.000000
-6.763321 -6.363892 -0.341509 1629 0.733220 0.679992 0.000000
-6.763341 -6.363917 -0.338659 1629 0.733220 0.679992 0.000000
-6.762517 -6.363137 -0.335767 1609 0.733220 0.679992 0.000000
-6.762367 -6.363005 -0.332898 1625 0.733220 0.679992 0.000000
-6.762392 -6.363021 -0.330048 1625 0.733220 0.679992 0.000000
-6.762404 -6.363040 -0.327197 1625 0.733220 0.679992 0.000000
-6.762965 -6.363559 -0.324362 1625 0.733220 0.679992 0.000000
-6.763341 -6.363923 -0.321528 1627 0.733220 0.679992 0.000000
-6.762882 -6.363488 -0.318653 1631 0.733220 0.679992 0.000000
-6.762738 -6.363348 -0.315794 1623 0.733220 0.679992 0.000000
-6.762960 -6.363568 -0.312942 1631 0.733220 0.679992 0.000000
-6.762825 -6.363435 -0.310083 1641 0.733220 0.679992 0.000000
-6.765790 -6.362081 -0.699174 1631 0.733220 0.679992 0.000000
-6.765364 -6.361684 -0.696268 1631 0.733220 0.679992 0.000000
-6.765674 -6.361971 -0.693425 1637 0.733220 0.679992 0.000000
-6.765661 -6.361971 -0.690565 1635 0.733220 0.679992 0.000000
-6.764966 -6.361317 -0.687622 1627 0.733220 0.679992 0.000000
-6.764960 -6.361309 -0.684752 1631 0.733220 0.679992 0.000000
-6.764687 -6.361043 -0.681864 1621 0.733220 0.679992 0.000000
-6.764617 -6.360987 -0.678985 1627 0.733220 0.679992 0.000000
-6.764935 -6.361280 -0.676152 1631 0.733220 0.679992 0.000000
-6.765028 -6.361374 -0.673301 1631 0.733220 0.679992 0.000000
-6.765127 -6.361460 -0.670440 1623 0.733220 0.679992 0.000000
-6.764473 -6.360850 -0.667506 1625 0.733220 0.679992 0.000000
-6.764347 -6.360736 -0.664637 1631 0.733220 0.679992 0.000000
-6.764495 -6.360873 -0.661786 1627 0.733220 0.679992 0.000000
-6.764215 -6.360615 -0.658888 1631 0.733220 0.679992 0.000000
-6.764524 -6.360902 -0.656055 1625 0.733220 0.679992 0.000000
-6.765200 -6.361535 -0.653249 1635 0.733220 0.679992 0.000000
-6.765235 -6.361571 -0.650388 1635 0.733220 0.679992 0.000000
-6.764736 -6.361106 -0.647473 1629 0.733220 0.679992 0.000000
-6.764511 -6.360891 -0.644585 1623 0.733220 0.679992 0.000000
-6.764974 -6.361322 -0.641771 1625 0.733220 0.679992 0.000000
-6.765109 -6.361461 -0.638919 1623 0.733220 0.679992 0.000000
-6.764461 -6.360843 -0.635995 1627 0.733220 0.679992 0.000000
-6.764277 -6.360672 -0.633107 1637 0.733220 0.679992 0.000000
-6.764881 -6.361250 -0.630301 1629 0.733220 0.679992 0.000000
-6.765565 -6.361889 -0.627495 1631 0.733220 0.679992 0.000000
-6.764846 -6.361216 -0.624571 1629 0.733220 0.679992 0.000000
-6.764297 -6.360700 -0.621656 1625 0.733220 0.679992 0.000000
-6.764534 -6.360918 -0.618814 1629 0.733220 0.679992 0.000000
-6.764836 -6.361199 -0.615971 1631 0.733220 0.679992 0.000000
-6.765180 -6.361525 -0.613138 1641 0.733220 0.679992 0.000000
-6.765150 -6.361498 -0.610278 1635 0.733220 0.679992 0.000000
-6.764593 -6.360976 -0.607363 1627 0.733220 0.679992 0.000000
-6.764410 -6.360806 -0.604485 1623 0.733220 0.679992 0.000000
-6.764437 -6.360837 -0.601625 1625 0.733220 0.679992 0.000000
-6.764520 -6.360910 -0.598764 1625 0.733220 0.679992 0.000000
-6.764807 -6.361179 -0.595931 1629 0.733220 0.679992 0.000000
-6.764565 -6.360952 -0.593043 1629 0.733220 0.679992 0.000000
-6.764212 -6.360624 -0.590146 1629 0.733220 0.679992 0.000000
-6.764287 -6.360692 -0.587296 1633 0.733220 0.679992 0.000000
-6.764363 -6.360773 -0.584435 1635 0.733220 0.679992 0.000000
-6.764390 -6.360790 -0.581575 1631 0.733220 0.679992 0.000000
-6.764352 -6.360757 -0.578715 1631 0.733220 0.679992 0.000000
-6.764583 -6.360983 -0.575873 1629 0.733220 0.679992 0.000000
-6.764820 -6.361201 -0.573030 1631 0.733220 0.679992 0.000000
-6.764360 -6.360767 -0.570125 1625 0.733220 0.679992 0.000000
-6.763957 -6.360389 -0.567228 1621 0.733220 0.679992 0.000000
-6.764398 -6.360802 -0.564404 1627 0.733220 0.679992 0.000000
-6.764571 -6.360971 -0.561562 1621 0.733220 0.679992 0.000000
-6.764484 -6.360888 -0.558693 1621 0.733220 0.679992 0.000000
-6.764608 -6.361006 -0.555842 1623 0.733220 0.679992 0.000000
-6.764563 -6.360968 -0.552972 1623 0.733220 0.679992 0.000000
-6.764801 -6.361186 -0.550130 1637 0.733220 0.679992 0.000000
-6.764917 -6.361299 -0.547279 1641 0.733220 0.679992 0.000000
-6.764976 -6.361353 -0.544428 1635 0.733220 0.679992 0.000000
-6.764727 -6.361120 -0.541541 1629 0.733220 0.679992 0.000000
-6.764583 -6.360980 -0.538672 1629 0.733220 0.679992 0.000000
-6.764433 -6.360848 -0.535793 1623 0.733220 0.679992 0.000000
-6.764119 -6.360551 -0.532916 1621 0.733220 0.679992 0.000000
-6.764455 -6.360871 -0.530083 1623 0.733220 0.679992 0.000000
-6.765098 -6.361479 -0.527267 1625 0.733220 0.679992 0.000000
-6.765003 -6.361390 -0.524397 1633 0.733220 0.679992 0.000000
-6.764640 -6.361043 -0.521511 1635 0.733220 0.679992 0.000000
-6.765016 -6.361393 -0.518677 1625 0.733220 0.679992 0.000000
-6.765131 -6.361505 -0.515826 1633 0.733220 0.679992 0.000000
-6.764867 -6.361259 -0.512948 1629 0.733220 0.679992 0.000000
-6.764660 -6.361070 -0.510070 1627 0.733220 0.679992 0.000000
-6.764240 -6.360667 -0.507184 1621 0.733220 0.679992 0.000000
-6.764510 -6.360923 -0.504342 1625 0.733220 0.679992 0.000000
-6.764569 -6.360978 -0.501481 1631 0.733220 0.679992 0.000000
-6.764573 -6.360991 -0.498631 1633 0.733220 0.679992 0.000000
-6.765110 -6.361491 -0.495806 1627 0.733220 0.679992 0.000000
-6.764627 -6.361038 -0.492910 1621 0.733220 0.679992 0.000000
-6.764524 -6.360943 -0.490041 1615 0.733220 0.679992 0.000000
-6.765060 -6.361444 -0.487226 1623 0.733220 0.679992 0.000000
-6.764788 -6.361192 -0.484349 1621 0.733220 0.679992 0.000000
-6.764313 -6.360745 -0.481453 1615 0.733220 0.679992 0.000000
-6.764624 -6.361045 -0.478620 1617 0.733220 0.679992 0.000000
-6.764999 -6.361396 -0.475786 1627 0.733220 0.679992 0.000000
-6.764628 -6.361042 -0.472900 1627 0.733220 0.679992 0.000000
-6.764298 -6.360734 -0.470013 1631 0.733220 0.679992 0.000000
-6.764083 -6.360539 -0.467145 1621 0.733220 0.679992 0.000000
-6.764240 -6.360682 -0.464293 1615 0.733220 0.679992 0.000000
-6.764818 -6.361227 -0.461478 1623 0.733220 0.679992 0.000000
-6.764974 -6.361369 -0.458626 1619 0.733220 0.679992 0.000000
-6.764589 -6.361018 -0.455740 1623 0.733220 0.679992 0.000000
-6.763788 -6.360256 -0.452837 1619 0.733220 0.679992 0.000000
-6.763782 -6.360249 -0.449977 1615 0.733220 0.679992 0.000000
-6.764198 -6.360642 -0.447143 1625 0.733220 0.679992 0.000000
-6.764452 -6.360887 -0.444301 1625 0.733220 0.679992 0.000000
-6.764546 -6.360981 -0.441450 1631 0.733220 0.679992 0.000000
-6.764328 -6.360772 -0.438582 1635 0.733220 0.679992 0.000000
-6.763731 -6.360205 -0.435687 1629 0.733220 0.679992 0.000000
-6.763500 -6.359998 -0.432809 1625 0.733220 0.679992 0.000000
-6.764287 -6.360730 -0.430002 1627 0.733220 0.679992 0.000000
-6.764865 -6.361276 -0.427186 1631 0.733220 0.679992 0.000000
-6.764796 -6.361219 -0.424317 1627 0.733220 0.679992 0.000000
-6.765098 -6.361500 -0.421484 1637 0.733220 0.679992 0.000000
-6.764769 -6.361191 -0.418607 1635 0.733220 0.679992 0.000000
-6.764423 -6.360870 -0.415730 1627 0.733220 0.679992 0.000000
-6.764093 -6.360562 -0.412853 1633 0.733220 0.679992 0.000000
-6.763820 -6.360296 -0.409976 1625 0.733220 0.679992 0.000000
-6.764325 -6.360772 -0.407151 1627 0.733220 0.679992 0.000000
-6.764733 -6.361160 -0.404317 1633 0.733220 0.679992 0.000000
-6.764818 -6.361248 -0.401466 1627 0.733220 0.679992 0.000000
-6.765120 -6.361529 -0.398623 1623 0.733220 0.679992 0.000000
-6.765049 -6.361458 -0.395764 1623 0.733220 0.679992 0.000000
-6.764501 -6.360943 -0.392879 1619 0.733220 0.679992 0.000000
-6.764520 -6.360967 -0.390019 1623 0.733220 0.679992 0.000000
-6.764718 -6.361155 -0.387177 1627 0.733220 0.679992 0.000000
-6.764907 -6.361336 -0.384335 1627 0.733220 0.679992 0.000000
-6.764885 -6.361316 -0.381475 1631 0.733220 0.679992 0.000000
-6.764483 -6.360939 -0.378599 1627 0.733220 0.679992 0.000000
-6.764039 -6.360516 -0.375713 1621 0.733220 0.679992 0.000000
-6.764067 -6.360546 -0.372862 1617 0.733220 0.679992 0.000000
-6.763931 -6.360413 -0.369994 1621 0.733220 0.679992 0.000000
-6.764120 -6.360594 -0.367152 1615 0.733220 0.679992 0.000000
-6.764787 -6.361220 -0.364336 1625 0.733220 0.679992 0.000000
-6.764807 -6.361245 -0.361475 1623 0.733220 0.679992 0.000000
-6.764516 -6.360967 -0.358608 1633 0.733220 0.679992 0.000000
-6.764114 -6.360590 -0.355732 1621 0.733220 0.679992 0.000000
-6.764345 -6.360815 -0.352889 1631 0.733220 0.679992 0.000000
-6.764793 -6.361234 -0.350055 1631 0.733220 0.679992 0.000000
-6.764447 -6.360913 -0.347178 1617 0.733220 0.679992 0.000000
-6.764951 -6.361375 -0.344354 1639 0.733220 0.679992 0.000000
-6.765295 -6.361701 -0.341510 1647 0.733220 0.679992 0.000000
-6.764933 -6.361368 -0.338644 1633 0.733220 0.679992 0.000000
-6.764369 -6.360840 -0.335759 1633 0.733220 0.679992 0.000000
-6.764386 -6.360850 -0.332899 1627 0.733220 0.679992 0.000000
-6.764729 -6.361176 -0.330065 1627 0.733220 0.679992 0.000000
-6.764270 -6.360742 -0.327189 1619 0.733220 0.679992 0.000000
-6.763909 -6.360408 -0.324313 1623 0.733220 0.679992 0.000000
-6.764300 -6.360771 -0.321479 1615 0.733220 0.679992 0.000000
-6.764798 -6.361240 -0.318644 1619 0.733220 0.679992 0.000000
-6.764858 -6.361310 -0.315794 1621 0.733220 0.679992 0.000000
-6.764665 -6.361119 -0.312935 1623 0.733220 0.679992 0.000000
-6.764084 -6.360579 -0.310051 1627 0.733220 0.679992 0.000000
-6.767804 -6.359934 -0.699175 1629 0.733220 0.679992 0.000000
-6.767757 -6.359882 -0.696305 1627 0.733220 0.679992 0.000000
-6.767534 -6.359681 -0.693417 1631 0.733220 0.679992 0.000000
-6.767259 -6.359415 -0.690520 1633 0.733220 0.679992 0.000000
-6.767100 -6.359262 -0.687631 1625 0.733220 0.679992 0.000000
-6.766926 -6.359112 -0.684753 1627 0.733220 0.679992 0.000000
-6.767236 -6.359399 -0.681920 1625 0.733220 0.679992 0.000000
-6.767229 -6.359391 -0.679050 1631 0.733220 0.679992 0.000000
-6.767111 -6.359284 -0.676171 1633 0.733220 0.679992 0.000000
-6.767147 -6.359321 -0.673311 1625 0.733220 0.679992 0.000000
-6.766825 -6.359018 -0.670414 1625 0.733220 0.679992 0.000000
-6.766543 -6.358747 -0.667516 1629 0.733220 0.679992 0.000000
-6.766529 -6.358733 -0.664646 1621 0.733220 0.679992 0.000000
-6.766783 -6.358977 -0.661804 1629 0.733220 0.679992 0.000000
-6.767093 -6.359263 -0.658971 1633 0.733220 0.679992 0.000000
-6.766917 -6.359099 -0.656092 1627 0.733220 0.679992 0.000000
-6.766686 -6.358891 -0.653204 1629 0.733220 0.679992 0.000000
-6.766510 -6.358727 -0.650316 1631 0.733220 0.679992 0.000000
-6.766335 -6.358563 -0.647438 1627 0.733220 0.679992 0.000000
-6.766207 -6.358435 -0.644559 1625 0.733220 0.679992 0.000000
-6.766615 -6.358824 -0.641735 1619 0.733220 0.679992 0.000000
-6.767128 -6.359306 -0.638920 1629 0.733220 0.679992 0.000000
-6.767318 -6.359488 -0.636068 1629 0.733220 0.679992 0.000000
-6.767570 -6.359717 -0.633226 1629 0.733220 0.679992 0.000000
-6.767022 -6.359202 -0.630311 1629 0.733220 0.679992 0.000000
-6.766459 -6.358687 -0.627396 1633 0.733220 0.679992 0.000000
-6.766438 -6.358667 -0.624526 1625 0.733220 0.679992 0.000000
-6.766633 -6.358840 -0.621684 1627 0.733220 0.679992 0.000000
-6.766766 -6.358965 -0.618833 1629 0.733220 0.679992 0.000000
-6.766638 -6.358851 -0.615954 1621 0.733220 0.679992 0.000000
-6.766666 -6.358882 -0.613094 1629 0.733220 0.679992 0.000000
-6.767122 -6.359307 -0.610269 1629 0.733220 0.679992 0.000000
-6.767206 -6.359381 -0.607419 1625 0.733220 0.679992 0.000000
-6.766901 -6.359105 -0.604521 1629 0.733220 0.679992 0.000000
-6.766619 -6.358833 -0.601634 1627 0.733220 0.679992 0.000000
-6.766265 -6.358505 -0.598747 1631 0.733220 0.679992 0.000000
-6.766187 -6.358429 -0.595878 1619 0.733220 0.679992 0.000000
-6.766368 -6.358604 -0.593026 1619 0.733220 0.679992 0.000000
-6.766613 -6.358828 -0.590184 1633 0.733220 0.679992 0.000000
-6.766583 -6.358802 -0.587324 1627 0.733220 0.679992 0.000000
-6.766595 -6.358820 -0.584454 1629 0.733220 0.679992 0.000000
-6.766890 -6.359096 -0.581621 1631 0.733220 0.679992 0.000000
-6.766803 -6.359012 -0.578752 1631 0.733220 0.679992 0.000000
-6.766562 -6.358785 -0.575864 1629 0.733220 0.679992 0.000000
-6.766467 -6.358696 -0.572995 1629 0.733220 0.679992 0.000000
-6.766325 -6.358570 -0.570126 1631 0.733220 0.679992 0.000000
-6.766295 -6.358544 -0.567256 1623 0.733220 0.679992 0.000000
-6.766517 -6.358750 -0.564414 1627 0.733220 0.679992 0.000000
-6.766859 -6.359075 -0.561581 1629 0.733220 0.679992 0.000000
-6.766877 -6.359086 -0.558720 1625 0.733220 0.679992 0.000000
-6.766736 -6.358960 -0.555852 1619 0.733220 0.679992 0.000000
-6.766795 -6.359015 -0.552991 1627 0.733220 0.679992 0.000000
-6.766976 -6.359190 -0.550149 1633 0.733220 0.679992 0.000000
-6.766832 -6.359050 -0.547270 1635 0.733220 0.679992 0.000000
-6.766737 -6.358961 -0.544401 1629 0.733220 0.679992 0.000000
-6.766593 -6.358821 -0.541533 1629 0.733220 0.679992 0.000000
-6.766337 -6.358582 -0.538645 1633 0.733220 0.679992 0.000000
-6.766242 -6.358493 -0.535786 1621 0.733220 0.679992 0.000000
-6.766408 -6.358655 -0.532934 1625 0.733220 0.679992 0.000000
-6.766579 -6.358810 -0.530082 1623 0.733220 0.679992 0.000000
-6.766591 -6.358829 -0.527222 1631 0.733220 0.679992 0.000000
-6.766601 -6.358833 -0.524362 1633 0.733220 0.679992 0.000000
-6.766660 -6.358889 -0.521511 1629 0.733220 0.679992 0.000000
-6.766827 -6.359052 -0.518660 1627 0.733220 0.679992 0.000000
-6.766829 -6.359050 -0.515800 1627 0.733220 0.679992 0.000000
-6.766944 -6.359161 -0.512949 1633 0.733220 0.679992 0.000000
-6.767215 -6.359418 -0.510116 1627 0.733220 0.679992 0.000000
-6.767323 -6.359524 -0.507255 1625 0.733220 0.679992 0.000000
-6.767059 -6.359279 -0.504377 1617 0.733220 0.679992 0.000000
-6.767231 -6.359433 -0.501536 1619 0.733220 0.679992 0.000000
-6.767712 -6.359891 -0.498711 1627 0.733220 0.679992 0.000000
-6.767876 -6.360040 -0.495859 1631 0.733220 0.679992 0.000000
-6.767822 -6.359995 -0.493000 1631 0.733220 0.679992 0.000000
-6.767347 -6.359549 -0.490104 1627 0.733220 0.679992 0.000000
-6.767025 -6.359246 -0.487217 1631 0.733220 0.679992 0.000000
-6.767126 -6.359346 -0.484366 1623 0.733220 0.679992 0.000000
-6.767185 -6.359401 -0.481516 1619 0.733220 0.679992 0.000000
-6.767130 -6.359343 -0.478646 1623 0.733220 0.679992 0.000000
-6.766915 -6.359148 -0.475778 1625 0.733220 0.679992 0.000000
-6.766755 -6.358995 -0.472909 1617 0.733220 0.679992 0.000000
-6.766376 -6.358636 -0.470023 1617 0.733220 0.679992 0.000000
-6.766209 -6.358479 -0.467154 1627 0.733220 0.679992 0.000000
-6.766578 -6.358836 -0.464321 1623 0.733220 0.679992 0.000000
-6.766945 -6.359180 -0.461487 1625 0.733220 0.679992 0.000000
