774
-4.516578 -4.360380 -0.411028 1819 0.749660 0.661824 0.000000
-4.516512 -4.360313 -0.409089 1819 0.749660 0.661823 0.000000
-4.516335 -4.360146 -0.407140 1815 0.749660 0.661824 0.000000
-4.516381 -4.360179 -0.405210 1817 0.749660 0.661824 0.000000
-4.516565 -4.360361 -0.403288 1823 0.749660 0.661824 0.000000
-4.516548 -4.360345 -0.401348 1825 0.749660 0.661823 0.000000
-4.516322 -4.360126 -0.399400 1823 0.749660 0.661824 0.000000
-4.516250 -4.360067 -0.397451 1821 0.749660 0.661824 0.000000
-4.516448 -4.360247 -0.395539 1823 0.749660 0.661824 0.000000
-4.516680 -4.360479 -0.393617 1825 0.749660 0.661823 0.000000
-4.516823 -4.360616 -0.391695 1821 0.749660 0.661824 0.000000
-4.516590 -4.360390 -0.389738 1819 0.749660 0.661824 0.000000
-4.516043 -4.359866 -0.387763 1815 0.749660 0.661824 0.000000
-4.516179 -4.359996 -0.385841 1825 0.749660 0.661824 0.000000
-4.516683 -4.360483 -0.383947 1827 0.749660 0.661824 0.000000
-4.517236 -4.361021 -0.382051 1829 0.749660 0.661823 0.000000
-4.517426 -4.361194 -0.380139 1835 0.749660 0.661823 0.000000
-4.516880 -4.360670 -0.378155 1823 0.749660 0.661824 0.000000
-4.516744 -4.360547 -0.376206 1821 0.749660 0.661824 0.000000
-4.517039 -4.360830 -0.374303 1825 0.749660 0.661824 0.000000
-4.517069 -4.360851 -0.372363 1827 0.749660 0.661824 0.000000
-4.516523 -4.360327 -0.370388 1825 0.749660 0.661824 0.000000
-4.516232 -4.360044 -0.368430 1821 0.749660 0.661824 0.000000
-4.516465 -4.360277 -0.366518 1825 0.749660 0.661823 0.000000
-4.516495 -4.360299 -0.364588 1823 0.749660 0.661824 0.000000
-4.516777 -4.360583 -0.362675 1823 0.749660 0.661824 0.000000
-4.517127 -4.360909 -0.360762 1819 0.749660 0.661823 0.000000
-4.517094 -4.360881 -0.358832 1825 0.749660 0.661823 0.000000
-4.516548 -4.360357 -0.356847 1825 0.749660 0.661824 0.000000
-4.516041 -4.359864 -0.354882 1825 0.749660 0.661824 0.000000
-4.516224 -4.360046 -0.352960 1827 0.749660 0.661824 0.000000
-4.516401 -4.360221 -0.351038 1825 0.749660 0.661823 0.000000
-4.516536 -4.360352 -0.349117 1827 0.749660 0.661824 0.000000
-4.516607 -4.360418 -0.347186 1827 0.749660 0.661824 0.000000
-4.516783 -4.360593 -0.345265 1829 0.749660 0.661824 0.000000
-4.517126 -4.360913 -0.343361 1829 0.749660 0.661824 0.000000
-4.517044 -4.360834 -0.341422 1827 0.749660 0.661823 0.000000
-4.516748 -4.360559 -0.339465 1821 0.749660 0.661824 0.000000
-4.516762 -4.360568 -0.337535 1821 0.749660 0.661824 0.000000
-4.516786 -4.360597 -0.335594 1821 0.749660 0.661823 0.000000
-4.516696 -4.360511 -0.333655 1825 0.749660 0.661824 0.000000
-4.516566 -4.360380 -0.331716 1825 0.749660 0.661823 0.000000
-4.516526 -4.360345 -0.329777 1821 0.749660 0.661823 0.000000
-4.516813 -4.360622 -0.327864 1823 0.749660 0.661824 0.000000
-4.516773 -4.360588 -0.325934 1825 0.749660 0.661824 0.000000
-4.516578 -4.360393 -0.323986 1825 0.749660 0.661824 0.000000
-4.516866 -4.360670 -0.322073 1827 0.749660 0.661824 0.000000
-4.516874 -4.360686 -0.320143 1823 0.749660 0.661824 0.000000
-4.516576 -4.360397 -0.318186 1817 0.749660 0.661824 0.000000
-4.516389 -4.360209 -0.316238 1823 0.749660 0.661824 0.000000
-4.516614 -4.360436 -0.314325 1823 0.749660 0.661824 0.000000
-4.517255 -4.361056 -0.312439 1831 0.749660 0.661824 0.000000
-4.516851 -4.360657 -0.310473 1829 0.749660 0.661823 0.000000
-4.516499 -4.360325 -0.308516 1829 0.749660 0.661824 0.000000
-4.516665 -4.360480 -0.306595 1833 0.749660 0.661824 0.000000
-4.516312 -4.360147 -0.304638 1827 0.749660 0.661823 0.000000
-4.518178 -4.359149 -0.694733 1823 0.749660 0.661824 0.000000
-4.518483 -4.359452 -0.692830 1829 0.749660 0.661823 0.000000
-4.518481 -4.359448 -0.690880 1825 0.749660 0.661823 0.000000
-4.518833 -4.359788 -0.688987 1823 0.749660 0.661824 0.000000
-4.519353 -4.360287 -0.687112 1831 0.749660 0.661824 0.000000
-4.519191 -4.360131 -0.685133 1831 0.749660 0.661824 0.000000
-4.518508 -4.359473 -0.683080 1831 0.749660 0.661824 0.000000
-4.517977 -4.358961 -0.681055 1825 0.749660 0.661823 0.000000
-4.518379 -4.359353 -0.679161 1833 0.749660 0.661823 0.000000
-4.518369 -4.359344 -0.677211 1825 0.749660 0.661824 0.000000
-4.518110 -4.359085 -0.675224 1823 0.749660 0.661824 0.000000
-4.518247 -4.359229 -0.673292 1827 0.749660 0.661824 0.000000
-4.518501 -4.359467 -0.671380 1829 0.749660 0.661824 0.000000
-4.518598 -4.359566 -0.669439 1831 0.749660 0.661824 0.000000
-4.518635 -4.359593 -0.667498 1833 0.749660 0.661824 0.000000
-4.518571 -4.359540 -0.665539 1829 0.749660 0.661824 0.000000
-4.518464 -4.359428 -0.663570 1825 0.749660 0.661824 0.000000
-4.518343 -4.359317 -0.661611 1825 0.749660 0.661824 0.000000
-4.518592 -4.359563 -0.659698 1831 0.749660 0.661824 0.000000
-4.519151 -4.360093 -0.657823 1839 0.749660 0.661824 0.000000
-4.518878 -4.359836 -0.655836 1827 0.749660 0.661824 0.000000
-4.518130 -4.359114 -0.653783 1821 0.749660 0.661824 0.000000
-4.517904 -4.358894 -0.651805 1825 0.749660 0.661824 0.000000
-4.518152 -4.359139 -0.649892 1825 0.749660 0.661824 0.000000
-4.518247 -4.359225 -0.647952 1829 0.749660 0.661824 0.000000
-4.518695 -4.359654 -0.646067 1833 0.749660 0.661824 0.000000
-4.518783 -4.359747 -0.644136 1835 0.749660 0.661824 0.000000
-4.518516 -4.359482 -0.642149 1837 0.749660 0.661824 0.000000
-4.518227 -4.359213 -0.640161 1833 0.749660 0.661824 0.000000
-4.518162 -4.359146 -0.638202 1831 0.749660 0.661824 0.000000
-4.518345 -4.359327 -0.636280 1825 0.749660 0.661824 0.000000
-4.518231 -4.359209 -0.634311 1825 0.749660 0.661824 0.000000
-4.518311 -4.359296 -0.632381 1833 0.749660 0.661824 0.000000
-4.518134 -4.359128 -0.630412 1829 0.749660 0.661824 0.000000
-4.518060 -4.359054 -0.628453 1825 0.749660 0.661824 0.000000
-4.518516 -4.359489 -0.626568 1825 0.749660 0.661824 0.000000
-4.518442 -4.359416 -0.624609 1827 0.749660 0.661824 0.000000
-4.518530 -4.359509 -0.622678 1837 0.749660 0.661823 0.000000
-4.518560 -4.359530 -0.620728 1841 0.749660 0.661823 0.000000
-4.518013 -4.359006 -0.618713 1831 0.749660 0.661824 0.000000
-4.517877 -4.358883 -0.616744 1827 0.749660 0.661824 0.000000
-4.518534 -4.359515 -0.614888 1833 0.749660 0.661824 0.000000
-4.518517 -4.359499 -0.612938 1829 0.749660 0.661824 0.000000
-4.518074 -4.359070 -0.610932 1823 0.749660 0.661824 0.000000
-4.517895 -4.358888 -0.608964 1819 0.749660 0.661824 0.000000
-4.518136 -4.359127 -0.607052 1823 0.749660 0.661824 0.000000
-4.518584 -4.359556 -0.605167 1839 0.749660 0.661824 0.000000
-4.518919 -4.359883 -0.603264 1845 0.749660 0.661824 0.000000
-4.518637 -4.359607 -0.601277 1831 0.749660 0.661824 0.000000
-4.518235 -4.359222 -0.599280 1825 0.749660 0.661824 0.000000
-4.518322 -4.359301 -0.597350 1827 0.749660 0.661824 0.000000
-4.518289 -4.359273 -0.595400 1827 0.749660 0.661824 0.000000
-4.517895 -4.358895 -0.593404 1829 0.749660 0.661824 0.000000
-4.517919 -4.358924 -0.591463 1827 0.749660 0.661824 0.000000
-4.518318 -4.359302 -0.589569 1833 0.749660 0.661824 0.000000
-4.518236 -4.359222 -0.587610 1829 0.749660 0.661824 0.000000
-4.518092 -4.359093 -0.585651 1825 0.749660 0.661824 0.000000
-4.518171 -4.359165 -0.583711 1829 0.749660 0.661824 0.000000
-4.518409 -4.359391 -0.581798 1833 0.749660 0.661824 0.000000
-4.518265 -4.359261 -0.579840 1835 0.749660 0.661824 0.000000
-4.517926 -4.358927 -0.577853 1825 0.749660 0.661823 0.000000
-4.517997 -4.358994 -0.575912 1829 0.749660 0.661824 0.000000
-4.518382 -4.359373 -0.574018 1831 0.749660 0.661824 0.000000
-4.518251 -4.359241 -0.572060 1831 0.749660 0.661824 0.000000
-4.518114 -4.359104 -0.570101 1825 0.749660 0.661824 0.000000
-4.518290 -4.359280 -0.568179 1827 0.749660 0.661823 0.000000
-4.518257 -4.359251 -0.566229 1825 0.749660 0.661824 0.000000
-4.518271 -4.359261 -0.564289 1823 0.749660 0.661824 0.000000
-4.518342 -4.359327 -0.562359 1831 0.749660 0.661823 0.000000
-4.518037 -4.359046 -0.560371 1825 0.749660 0.661824 0.000000
-4.518317 -4.359316 -0.558469 1819 0.749660 0.661824 0.000000
-4.518652 -4.359629 -0.556565 1821 0.749660 0.661824 0.000000
-4.518410 -4.359398 -0.554588 1819 0.749660 0.661824 0.000000
-4.518369 -4.359363 -0.552638 1817 0.749660 0.661824 0.000000
-4.518552 -4.359531 -0.550716 1821 0.749660 0.661823 0.000000
-4.518720 -4.359700 -0.548795 1819 0.749660 0.661824 0.000000
-4.518574 -4.359556 -0.546836 1823 0.749660 0.661824 0.000000
-4.518485 -4.359471 -0.544887 1825 0.749660 0.661824 0.000000
-4.518604 -4.359589 -0.542956 1823 0.749660 0.661823 0.000000
-4.518619 -4.359598 -0.541015 1825 0.749660 0.661824 0.000000
-4.518627 -4.359614 -0.539075 1827 0.749660 0.661824 0.000000
-4.518850 -4.359827 -0.537163 1831 0.749660 0.661824 0.000000
-4.518704 -4.359684 -0.535204 1829 0.749660 0.661824 0.000000
-4.518663 -4.359650 -0.533255 1829 0.749660 0.661824 0.000000
-4.518936 -4.359914 -0.531342 1829 0.749660 0.661823 0.000000
-4.518901 -4.359871 -0.529392 1831 0.749660 0.661824 0.000000
-4.518589 -4.359583 -0.527415 1833 0.749660 0.661824 0.000000
-4.518603 -4.359592 -0.525475 1835 0.749660 0.661824 0.000000
-4.518610 -4.359595 -0.523535 1835 0.749660 0.661824 0.000000
-4.518352 -4.359351 -0.521567 1829 0.749660 0.661824 0.000000
-4.518518 -4.359506 -0.519646 1829 0.749660 0.661824 0.000000
-4.518896 -4.359879 -0.517752 1827 0.749660 0.661824 0.000000
-4.519168 -4.360143 -0.515840 1829 0.749660 0.661824 0.000000
-4.519013 -4.359993 -0.513881 1829 0.749660 0.661824 0.000000
-4.518763 -4.359741 -0.511913 1823 0.749660 0.661824 0.000000
-4.518771 -4.359758 -0.509973 1823 0.749660 0.661824 0.000000
-4.518666 -4.359660 -0.508014 1825 0.749660 0.661824 0.000000
-4.518463 -4.359459 -0.506056 1827 0.749660 0.661824 0.000000
-4.518358 -4.359361 -0.504107 1823 0.749660 0.661824 0.000000
-4.517947 -4.358957 -0.502121 1823 0.749660 0.661824 0.000000
-4.517955 -4.358974 -0.500181 1819 0.749660 0.661824 0.000000
-4.518435 -4.359427 -0.498286 1817 0.749660 0.661823 0.000000
-4.518586 -4.359584 -0.496365 1823 0.749660 0.661824 0.000000
-4.518850 -4.359841 -0.494452 1829 0.749660 0.661823 0.000000
-4.518808 -4.359793 -0.492512 1823 0.749660 0.661824 0.000000
-4.518438 -4.359434 -0.490536 1821 0.749660 0.661824 0.000000
-4.518230 -4.359241 -0.488568 1823 0.749660 0.661824 0.000000
-4.518179 -4.359186 -0.486628 1825 0.749660 0.661824 0.000000
-4.518340 -4.359349 -0.484707 1827 0.749660 0.661824 0.000000
-4.518602 -4.359592 -0.482794 1827 0.749660 0.661824 0.000000
-4.518964 -4.359953 -0.480891 1825 0.749660 0.661824 0.000000
-4.518970 -4.359956 -0.478951 1827 0.749660 0.661824 0.000000
-4.518600 -4.359597 -0.476974 1827 0.749660 0.661824 0.000000
-4.518069 -4.359085 -0.474979 1821 0.749660 0.661823 0.000000
-4.518125 -4.359139 -0.473048 1815 0.749660 0.661824 0.000000
-4.518589 -4.359594 -0.471154 1817 0.749660 0.661824 0.000000
-4.518539 -4.359540 -0.469214 1819 0.749660 0.661824 0.000000
-4.518266 -4.359283 -0.467247 1823 0.749660 0.661824 0.000000
-4.518327 -4.359329 -0.465316 1821 0.749660 0.661824 0.000000
-4.518111 -4.359130 -0.463348 1815 0.749660 0.661824 0.000000
-4.517573 -4.358613 -0.461363 1817 0.749660 0.661824 0.000000
-4.517467 -4.358514 -0.459414 1817 0.749660 0.661824 0.000000
-4.517939 -4.358961 -0.457520 1825 0.749660 0.661824 0.000000
-4.518451 -4.359454 -0.455635 1821 0.749660 0.661824 0.000000
-4.518867 -4.359858 -0.453741 1821 0.749660 0.661824 0.000000
-4.518649 -4.359644 -0.451773 1811 0.749660 0.661824 0.000000
-4.518273 -4.359293 -0.449806 1807 0.749660 0.661824 0.000000
-4.518215 -4.359232 -0.447857 1813 0.749660 0.661824 0.000000
-4.517948 -4.358968 -0.445889 1815 0.749660 0.661824 0.000000
-4.518092 -4.359118 -0.443968 1821 0.749660 0.661824 0.000000
-4.518814 -4.359814 -0.442101 1829 0.749660 0.661824 0.000000
-4.519022 -4.360015 -0.440189 1829 0.749660 0.661824 0.000000
-4.518594 -4.359598 -0.438203 1825 0.749660 0.661823 0.000000
-4.518007 -4.359029 -0.436219 1827 0.749660 0.661824 0.000000
-4.517677 -4.358715 -0.434242 1821 0.749660 0.661824 0.000000
-4.517877 -4.358909 -0.432330 1821 0.749660 0.661824 0.000000
-4.518180 -4.359197 -0.430417 1821 0.749660 0.661824 0.000000
-4.518645 -4.359653 -0.428522 1821 0.749660 0.661824 0.000000
-4.518949 -4.359941 -0.426619 1823 0.749660 0.661824 0.000000
-4.518514 -4.359519 -0.424644 1823 0.749660 0.661824 0.000000
-4.517864 -4.358900 -0.422640 1825 0.749660 0.661824 0.000000
-4.517798 -4.358832 -0.420700 1821 0.749660 0.661824 0.000000
-4.518263 -4.359288 -0.418806 1817 0.749660 0.661824 0.000000
-4.518246 -4.359272 -0.416866 1823 0.749660 0.661824 0.000000
-4.517972 -4.359001 -0.414908 1817 0.749660 0.661824 0.000000
-4.518163 -4.359189 -0.412987 1817 0.749660 0.661824 0.000000
-4.517785 -4.358823 -0.411020 1821 0.749660 0.661823 0.000000
-4.517663 -4.358699 -0.409071 1821 0.749660 0.661824 0.000000
-4.517903 -4.358938 -0.407159 1813 0.749660 0.661824 0.000000
-4.518046 -4.359075 -0.405237 1819 0.749660 0.661824 0.000000
-4.518398 -4.359415 -0.403334 1827 0.749660 0.661824 0.000000
-4.518534 -4.359545 -0.401403 1823 0.749660 0.661824 0.000000
-4.518099 -4.359122 -0.399437 1819 0.749660 0.661824 0.000000
-4.517721 -4.358757 -0.397460 1817 0.749660 0.661824 0.000000
-4.517641 -4.358691 -0.395521 1823 0.749660 0.661823 0.000000
-4.518040 -4.359068 -0.393617 1821 0.749660 0.661824 0.000000
-4.518280 -4.359308 -0.391705 1821 0.749660 0.661824 0.000000
-4.517838 -4.358878 -0.389729 1825 0.749660 0.661824 0.000000
-4.517563 -4.358607 -0.387772 1819 0.749660 0.661823 0.000000
-4.517484 -4.358542 -0.385832 1819 0.749660 0.661823 0.000000
-4.517722 -4.358767 -0.383920 1821 0.749660 0.661824 0.000000
-4.518017 -4.359050 -0.382007 1825 0.749660 0.661824 0.000000
-4.518312 -4.359333 -0.380094 1829 0.749660 0.661824 0.000000
-4.518448 -4.359463 -0.378173 1823 0.749660 0.661824 0.000000
-4.518263 -4.359289 -0.376225 1823 0.749660 0.661823 0.000000
-4.517926 -4.358968 -0.374258 1823 0.749660 0.661824 0.000000
-4.518053 -4.359092 -0.372337 1819 0.749660 0.661824 0.000000
-4.518140 -4.359171 -0.370406 1819 0.749660 0.661823 0.000000
-4.517849 -4.358888 -0.368448 1819 0.749660 0.661824 0.000000
-4.518090 -4.359127 -0.366536 1823 0.749660 0.661823 0.000000
-4.518274 -4.359309 -0.364614 1823 0.749660 0.661824 0.000000
-4.518136 -4.359172 -0.362676 1821 0.749660 0.661824 0.000000
-4.518111 -4.359150 -0.360736 1821 0.749660 0.661824 0.000000
-4.518287 -4.359325 -0.358814 1825 0.749660 0.661824 0.000000
-4.518116 -4.359149 -0.356866 1823 0.749660 0.661824 0.000000
-4.517874 -4.358918 -0.354918 1821 0.749660 0.661824 0.000000
-4.518162 -4.359194 -0.353005 1827 0.749660 0.661824 0.000000
-4.518387 -4.359420 -0.351083 1825 0.749660 0.661824 0.000000
-4.518577 -4.359594 -0.349171 1823 0.749660 0.661824 0.000000
-4.518433 -4.359465 -0.347222 1823 0.749660 0.661824 0.000000
-4.518143 -4.359182 -0.345265 1823 0.749660 0.661824 0.000000
-4.517957 -4.359008 -0.343317 1821 0.749660 0.661824 0.000000
-4.517771 -4.358819 -0.341369 1823 0.749660 0.661824 0.000000
-4.517996 -4.359046 -0.339456 1823 0.749660 0.661824 0.000000
-4.518121 -4.359157 -0.337535 1827 0.749660 0.661824 0.000000
-4.518145 -4.359186 -0.335595 1829 0.749660 0.661824 0.000000
-4.518425 -4.359456 -0.333682 1833 0.749660 0.661824 0.000000
-4.518191 -4.359231 -0.331734 1829 0.749660 0.661824 0.000000
-4.518102 -4.359144 -0.329795 1823 0.749660 0.661824 0.000000
-4.518694 -4.359713 -0.327909 1837 0.749660 0.661824 0.000000
-4.518612 -4.359634 -0.325970 1831 0.749660 0.661824 0.000000
-4.518091 -4.359142 -0.323995 1823 0.749660 0.661824 0.000000
-4.518114 -4.359158 -0.322065 1825 0.749660 0.661824 0.000000
-4.518130 -4.359181 -0.320135 1825 0.749660 0.661824 0.000000
-4.517886 -4.358935 -0.318187 1821 0.749660 0.661824 0.000000
-4.517951 -4.359009 -0.316256 1829 0.749660 0.661824 0.000000
-4.518494 -4.359527 -0.314361 1833 0.749660 0.661824 0.000000
-4.518879 -4.359906 -0.312457 1835 0.749660 0.661824 0.000000
-4.518476 -4.359507 -0.310491 1829 0.749660 0.661824 0.000000
-4.518178 -4.359218 -0.308544 1831 0.749660 0.661824 0.000000
-4.518178 -4.359229 -0.306604 1839 0.749660 0.661824 0.000000
-4.517992 -4.359041 -0.304666 1831 0.749660 0.661824 0.000000
-4.518960 -4.357192 -0.694649 1823 0.749660 0.661824 0.000000
-4.519425 -4.357647 -0.692775 1829 0.749660 0.661824 0.000000
-4.519311 -4.357529 -0.690806 1821 0.749660 0.661824 0.000000
-4.519198 -4.357424 -0.688837 1815 0.749660 0.661824 0.000000
-4.519615 -4.357828 -0.686943 1825 0.749660 0.661824 0.000000
-4.519765 -4.357971 -0.685021 1829 0.749660 0.661824 0.000000
-4.519346 -4.357560 -0.683005 1829 0.749660 0.661824 0.000000
-4.519065 -4.357297 -0.681008 1825 0.749660 0.661823 0.000000
-4.519376 -4.357592 -0.679105 1829 0.749660 0.661824 0.000000
-4.519047 -4.357278 -0.677108 1825 0.749660 0.661823 0.000000
-4.518941 -4.357179 -0.675139 1821 0.749660 0.661824 0.000000
-4.519188 -4.357410 -0.673227 1829 0.749660 0.661824 0.000000
-4.519548 -4.357757 -0.671333 1827 0.749660 0.661824 0.000000
-4.520109 -4.358301 -0.669468 1833 0.749660 0.661823 0.000000
-4.519885 -4.358095 -0.667480 1831 0.749660 0.661824 0.000000
-4.519826 -4.358035 -0.665530 1825 0.749660 0.661824 0.000000
-4.520227 -4.358426 -0.663636 1831 0.749660 0.661824 0.000000
-4.520064 -4.358256 -0.661658 1833 0.749660 0.661824 0.000000
-4.519526 -4.357738 -0.659633 1837 0.749660 0.661824 0.000000
-4.519461 -4.357685 -0.657674 1837 0.749660 0.661824 0.000000
-4.519499 -4.357713 -0.655733 1831 0.749660 0.661824 0.000000
-4.519435 -4.357660 -0.653774 1823 0.749660 0.661824 0.000000
-4.519320 -4.357541 -0.651805 1821 0.749660 0.661824 0.000000
-4.519457 -4.357685 -0.649883 1821 0.749660 0.661824 0.000000
-4.519495 -4.357713 -0.647943 1827 0.749660 0.661824 0.000000
-4.519429 -4.357646 -0.645984 1829 0.749660 0.661824 0.000000
-4.519509 -4.357732 -0.644043 1833 0.749660 0.661824 0.000000
-4.519187 -4.357424 -0.642046 1831 0.749660 0.661824 0.000000
-4.518905 -4.357148 -0.640068 1829 0.749660 0.661824 0.000000
-4.519048 -4.357284 -0.638137 1827 0.749660 0.661824 0.000000
-4.519392 -4.357618 -0.636234 1829 0.749660 0.661823 0.000000
-4.519527 -4.357748 -0.634312 1827 0.749660 0.661823 0.000000
-4.519358 -4.357586 -0.632334 1827 0.749660 0.661824 0.000000
-4.519235 -4.357461 -0.630375 1827 0.749660 0.661824 0.000000
-4.519164 -4.357402 -0.628416 1825 0.749660 0.661824 0.000000
-4.519299 -4.357533 -0.626484 1827 0.749660 0.661824 0.000000
-4.519643 -4.357866 -0.624591 1833 0.749660 0.661824 0.000000
-4.519569 -4.357793 -0.622632 1831 0.749660 0.661824 0.000000
-4.519287 -4.357516 -0.620644 1831 0.749660 0.661824 0.000000
-4.518797 -4.357049 -0.618629 1823 0.749660 0.661823 0.000000
-4.518457 -4.356715 -0.616642 1825 0.749660 0.661824 0.000000
-4.518962 -4.357201 -0.614767 1831 0.749660 0.661824 0.000000
-4.519145 -4.357382 -0.612846 1837 0.749660 0.661824 0.000000
-4.518961 -4.357208 -0.610867 1825 0.749660 0.661824 0.000000
-4.519305 -4.357542 -0.608974 1825 0.749660 0.661823 0.000000
-4.519544 -4.357768 -0.607062 1827 0.749660 0.661824 0.000000
-4.519727 -4.357949 -0.605140 1837 0.749660 0.661824 0.000000
-4.519917 -4.358123 -0.603218 1839 0.749660 0.661824 0.000000
-4.519678 -4.357905 -0.601240 1829 0.749660 0.661823 0.000000
-4.519339 -4.357571 -0.599253 1825 0.749660 0.661824 0.000000
-4.519724 -4.357949 -0.597350 1835 0.749660 0.661824 0.000000
-4.520171 -4.358378 -0.595465 1833 0.749660 0.661824 0.000000
-4.519938 -4.358152 -0.593488 1827 0.749660 0.661824 0.000000
-4.519590 -4.357811 -0.591501 1823 0.749660 0.661824 0.000000
-4.519726 -4.357942 -0.589569 1829 0.749660 0.661824 0.000000
-4.519853 -4.358066 -0.587648 1823 0.749660 0.661824 0.000000
-4.519507 -4.357739 -0.585661 1825 0.749660 0.661824 0.000000
-4.519322 -4.357565 -0.583693 1823 0.749660 0.661824 0.000000
-4.519296 -4.357529 -0.581743 1827 0.749660 0.661824 0.000000
-4.519263 -4.357501 -0.579794 1827 0.749660 0.661824 0.000000
-4.519125 -4.357364 -0.577835 1823 0.749660 0.661824 0.000000
-4.519454 -4.357685 -0.575932 1827 0.749660 0.661824 0.000000
-4.519958 -4.358171 -0.574047 1833 0.749660 0.661824 0.000000
-4.519820 -4.358034 -0.572088 1831 0.749660 0.661824 0.000000
-4.519578 -4.357802 -0.570110 1829 0.749660 0.661824 0.000000
-4.519698 -4.357920 -0.568189 1829 0.749660 0.661824 0.000000
-4.519922 -4.358147 -0.566267 1831 0.749660 0.661824 0.000000
-4.519945 -4.358162 -0.564327 1833 0.749660 0.661824 0.000000
-4.519598 -4.357821 -0.562340 1827 0.749660 0.661824 0.000000
-4.519196 -4.357437 -0.560354 1821 0.749660 0.661824 0.000000
-4.519106 -4.357351 -0.558395 1817 0.749660 0.661823 0.000000
-4.519114 -4.357368 -0.556454 1819 0.749660 0.661824 0.000000
-4.519289 -4.357530 -0.554533 1819 0.749660 0.661824 0.000000
-4.519625 -4.357857 -0.552629 1823 0.749660 0.661824 0.000000
-4.519639 -4.357866 -0.550689 1823 0.749660 0.661824 0.000000
-4.519550 -4.357780 -0.548740 1823 0.749660 0.661824 0.000000
-4.519406 -4.357652 -0.546771 1823 0.749660 0.661824 0.000000
-4.519524 -4.357755 -0.544850 1823 0.749660 0.661824 0.000000
-4.519700 -4.357931 -0.542929 1823 0.749660 0.661824 0.000000
-4.519819 -4.358048 -0.540997 1827 0.749660 0.661824 0.000000
-4.520035 -4.358255 -0.539085 1825 0.749660 0.661824 0.000000
-4.520307 -4.358519 -0.537173 1829 0.749660 0.661824 0.000000
-4.520426 -4.358637 -0.535241 1829 0.749660 0.661824 0.000000
-4.520128 -4.358347 -0.533264 1833 0.749660 0.661823 0.000000
-4.519773 -4.358000 -0.531288 1829 0.749660 0.661824 0.000000
-4.519676 -4.357909 -0.529328 1827 0.749660 0.661823 0.000000
-4.519843 -4.358064 -0.527407 1831 0.749660 0.661824 0.000000
-4.520067 -4.358290 -0.525495 1835 0.749660 0.661824 0.000000
-4.520025 -4.358242 -0.523545 1837 0.749660 0.661824 0.000000
-4.519871 -4.358093 -0.521586 1833 0.749660 0.661824 0.000000
-4.519622 -4.357854 -0.519619 1827 0.749660 0.661824 0.000000
-4.519413 -4.357661 -0.517651 1819 0.749660 0.661824 0.000000
-4.519740 -4.357969 -0.515747 1827 0.749660 0.661824 0.000000
-4.520164 -4.358378 -0.513853 1831 0.749660 0.661824 0.000000
-4.520116 -4.358338 -0.511914 1827 0.749660 0.661824 0.000000
-4.519810 -4.358043 -0.509937 1825 0.749660 0.661823 0.000000
-4.519921 -4.358154 -0.508005 1827 0.749660 0.661824 0.000000
-4.519719 -4.357953 -0.506047 1833 0.749660 0.661824 0.000000
-4.519622 -4.357861 -0.504088 1833 0.749660 0.661824 0.000000
-4.520095 -4.358323 -0.502204 1831 0.749660 0.661824 0.000000
-4.519996 -4.358217 -0.500255 1827 0.749660 0.661824 0.000000
-4.519731 -4.357966 -0.498287 1825 0.749660 0.661824 0.000000
-4.519785 -4.358020 -0.496347 1823 0.749660 0.661824 0.000000
-4.520001 -4.358227 -0.494434 1831 0.749660 0.661824 0.000000
-4.520056 -4.358281 -0.492504 1831 0.749660 0.661824 0.000000
-4.520000 -4.358234 -0.490554 1831 0.749660 0.661824 0.000000
-4.519540 -4.357778 -0.488569 1821 0.749660 0.661824 0.000000
-4.519379 -4.357623 -0.486610 1823 0.749660 0.661824 0.000000
-4.519748 -4.357989 -0.484707 1829 0.749660 0.661824 0.000000
-4.520115 -4.358342 -0.482803 1831 0.749660 0.661824 0.000000
-4.519850 -4.358091 -0.480836 1829 0.749660 0.661824 0.000000
-4.519543 -4.357782 -0.478868 1829 0.749660 0.661823 0.000000
-4.519799 -4.358033 -0.476956 1827 0.749660 0.661824 0.000000
-4.519742 -4.357986 -0.475016 1823 0.749660 0.661824 0.000000
-4.519581 -4.357831 -0.473058 1827 0.749660 0.661824 0.000000
-4.520060 -4.358284 -0.471163 1831 0.749660 0.661824 0.000000
-4.519898 -4.358129 -0.469215 1827 0.749660 0.661824 0.000000
-4.519424 -4.357675 -0.467219 1821 0.749660 0.661824 0.000000
-4.519575 -4.357817 -0.465298 1819 0.749660 0.661824 0.000000
-4.519880 -4.358120 -0.463395 1825 0.749660 0.661824 0.000000
-4.519567 -4.357819 -0.461428 1819 0.749660 0.661824 0.000000
-4.519452 -4.357700 -0.459479 1819 0.749660 0.661824 0.000000
-4.519659 -4.357900 -0.457557 1825 0.749660 0.661824 0.000000
-4.519443 -4.357701 -0.455599 1827 0.749660 0.661824 0.000000
-4.519064 -4.357336 -0.453622 1817 0.749660 0.661824 0.000000
-4.519223 -4.357484 -0.451701 1815 0.749660 0.661824 0.000000
-4.519479 -4.357736 -0.449788 1817 0.749660 0.661824 0.000000
-4.519262 -4.357523 -0.447830 1821 0.749660 0.661824 0.000000
-4.519454 -4.357711 -0.445908 1823 0.749660 0.661824 0.000000
-4.519821 -4.358063 -0.444005 1825 0.749660 0.661823 0.000000
-4.519909 -4.358156 -0.442084 1829 0.749660 0.661824 0.000000
-4.519851 -4.358095 -0.440135 1829 0.749660 0.661824 0.000000
-4.519739 -4.357991 -0.438186 1823 0.749660 0.661824 0.000000
-4.519472 -4.357727 -0.436228 1823 0.749660 0.661824 0.000000
-4.518885 -4.357158 -0.434234 1825 0.749660 0.661824 0.000000
-4.518660 -4.356952 -0.432276 1821 0.749660 0.661824 0.000000
-4.519116 -4.357387 -0.430381 1827 0.749660 0.661823 0.000000
-4.519267 -4.357530 -0.428460 1829 0.749660 0.661824 0.000000
-4.519570 -4.357819 -0.426547 1825 0.749660 0.661824 0.000000
-4.519714 -4.357969 -0.424626 1819 0.749660 0.661824 0.000000
-4.519329 -4.357597 -0.422659 1823 0.749660 0.661824 0.000000
-4.518853 -4.357129 -0.420674 1825 0.749660 0.661824 0.000000
-4.518836 -4.357113 -0.418734 1825 0.749660 0.661824 0.000000
-4.518979 -4.357250 -0.416812 1821 0.749660 0.661824 0.000000
-4.519059 -4.357337 -0.414881 1819 0.749660 0.661824 0.000000
-4.519050 -4.357327 -0.412952 1823 0.749660 0.661824 0.000000
-4.518607 -4.356898 -0.410976 1823 0.749660 0.661824 0.000000
-4.518438 -4.356736 -0.409017 1813 0.749660 0.661824 0.000000
-4.518533 -4.356822 -0.407096 1811 0.749660 0.661824 0.000000
-4.518933 -4.357213 -0.405192 1823 0.749660 0.661824 0.000000
-4.519013 -4.357300 -0.403262 1827 0.749660 0.661824 0.000000
-4.518948 -4.357233 -0.401322 1825 0.749660 0.661824 0.000000
-4.519243 -4.357515 -0.399419 1823 0.749660 0.661824 0.000000
-4.519435 -4.357703 -0.397497 1823 0.749660 0.661824 0.000000
-4.519160 -4.357432 -0.395540 1825 0.749660 0.661824 0.000000
-4.519295 -4.357563 -0.393609 1821 0.749660 0.661824 0.000000
-4.519270 -4.357541 -0.391679 1817 0.749660 0.661824 0.000000
-4.519037 -4.357315 -0.389721 1819 0.749660 0.661823 0.000000
-4.518971 -4.357248 -0.387782 1819 0.749660 0.661824 0.000000
-4.519043 -4.357328 -0.385851 1819 0.749660 0.661824 0.000000
-4.519130 -4.357408 -0.383920 1825 0.749660 0.661824 0.000000
-4.519064 -4.357340 -0.381981 1831 0.749660 0.661824 0.000000
-4.519039 -4.357318 -0.380051 1829 0.749660 0.661824 0.000000
-4.519383 -4.357653 -0.378137 1823 0.749660 0.661824 0.000000
-4.519359 -4.357631 -0.376208 1823 0.749660 0.661824 0.000000
-4.519125 -4.357405 -0.374250 1819 0.749660 0.661824 0.000000
-4.519211 -4.357483 -0.372319 1821 0.749660 0.661824 0.000000
-4.519075 -4.357361 -0.370380 1823 0.749660 0.661824 0.000000
-4.519105 -4.357382 -0.368440 1817 0.749660 0.661824 0.000000
-4.519658 -4.357920 -0.366555 1823 0.749660 0.661824 0.000000
-4.519842 -4.358102 -0.364633 1825 0.749660 0.661824 0.000000
-4.519335 -4.357609 -0.362658 1819 0.749660 0.661824 0.000000
-4.518998 -4.357288 -0.360701 1823 0.749660 0.661824 0.000000
-4.519027 -4.357310 -0.358770 1825 0.749660 0.661824 0.000000
-4.519260 -4.357543 -0.356848 1823 0.749660 0.661824 0.000000
-4.519548 -4.357819 -0.354935 1827 0.749660 0.661824 0.000000
-4.519515 -4.357791 -0.353006 1831 0.749660 0.661823 0.000000
-4.519225 -4.357508 -0.351048 1827 0.749660 0.661823 0.000000
-4.519248 -4.357537 -0.349118 1827 0.749660 0.661824 0.000000
-4.519327 -4.357610 -0.347187 1825 0.749660 0.661824 0.000000
-4.519286 -4.357575 -0.345248 1825 0.749660 0.661824 0.000000
-4.519260 -4.357540 -0.343318 1827 0.749660 0.661824 0.000000
-4.519075 -4.357365 -0.341370 1823 0.749660 0.661823 0.000000
-4.518986 -4.357279 -0.339430 1827 0.749660 0.661824 0.000000
-4.519225 -4.357504 -0.337508 1823 0.749660 0.661824 0.000000
-4.519553 -4.357826 -0.335605 1831 0.749660 0.661824 0.000000
-4.519841 -4.358102 -0.333692 1831 0.749660 0.661824 0.000000
-4.519695 -4.357959 -0.331743 1827 0.749660 0.661824 0.000000
-4.519350 -4.357633 -0.329787 1827 0.749660 0.661823 0.000000
-4.519372 -4.357648 -0.327856 1833 0.749660 0.661824 0.000000
-4.519540 -4.357817 -0.325935 1831 0.749660 0.661824 0.000000
-4.519090 -4.357382 -0.323969 1823 0.749660 0.661824 0.000000
-4.518631 -4.356940 -0.322003 1817 0.749660 0.661824 0.000000
-4.519071 -4.357363 -0.320109 1819 0.749660 0.661823 0.000000
-4.519294 -4.357575 -0.318187 1825 0.749660 0.661823 0.000000
-4.519262 -4.357547 -0.316257 1831 0.749660 0.661824 0.000000
-4.519430 -4.357716 -0.314335 1831 0.749660 0.661824 0.000000
-4.519341 -4.357631 -0.312396 1827 0.749660 0.661824 0.000000
-4.519612 -4.357894 -0.310484 1835 0.749660 0.661824 0.000000
-4.519795 -4.358062 -0.308562 1841 0.749660 0.661824 0.000000
-4.519907 -4.358173 -0.306631 1835 0.749660 0.661824 0.000000
-4.519874 -4.358145 -0.304701 1829 0.749660 0.661824 0.000000
-4.520708 -4.356113 -0.694706 1825 0.749660 0.661823 0.000000
-4.521325 -4.356715 -0.692850 1827 0.749660 0.661824 0.000000
-4.521219 -4.356602 -0.690881 1825 0.749660 0.661824 0.000000
-4.520633 -4.356047 -0.688847 1821 0.749660 0.661824 0.000000
-4.520735 -4.356138 -0.686906 1827 0.749660 0.661824 0.000000
-4.521415 -4.356790 -0.685059 1837 0.749660 0.661824 0.000000
-4.521245 -4.356627 -0.683081 1827 0.749660 0.661824 0.000000
-4.521021 -4.356422 -0.681103 1827 0.749660 0.661824 0.000000
-4.521068 -4.356470 -0.679152 1827 0.749660 0.661824 0.000000
-4.520851 -4.356256 -0.677174 1825 0.749660 0.661824 0.000000
-4.520528 -4.355949 -0.675178 1827 0.749660 0.661824 0.000000
-4.520359 -4.355787 -0.673199 1829 0.749660 0.661824 0.000000
-4.520662 -4.356075 -0.671296 1825 0.749660 0.661824 0.000000
-4.521286 -4.356669 -0.669440 1831 0.749660 0.661824 0.000000
-4.521374 -4.356762 -0.667499 1833 0.749660 0.661824 0.000000
-4.521107 -4.356497 -0.665512 1827 0.749660 0.661824 0.000000
-4.521090 -4.356482 -0.663562 1833 0.749660 0.661824 0.000000
-4.520920 -4.356319 -0.661583 1829 0.749660 0.661824 0.000000
-4.520696 -4.356114 -0.659606 1829 0.749660 0.661824 0.000000
-4.521054 -4.356446 -0.657702 1833 0.749660 0.661824 0.000000
-4.521512 -4.356895 -0.655828 1837 0.749660 0.661824 0.000000
-4.521286 -4.356676 -0.653840 1839 0.749660 0.661824 0.000000
-4.521011 -4.356405 -0.651852 1837 0.749660 0.661824 0.000000
-4.520473 -4.355887 -0.649827 1823 0.749660 0.661824 0.000000
-4.520671 -4.356081 -0.647906 1827 0.749660 0.661824 0.000000
-4.521176 -4.356567 -0.646031 1833 0.749660 0.661824 0.000000
-4.520999 -4.356399 -0.644062 1831 0.749660 0.661824 0.000000
-4.520878 -4.356288 -0.642093 1831 0.749660 0.661824 0.000000
-4.520916 -4.356317 -0.640153 1831 0.749660 0.661824 0.000000
-4.520899 -4.356300 -0.638203 1827 0.749660 0.661823 0.000000
-4.520930 -4.356336 -0.636263 1825 0.749660 0.661824 0.000000
-4.520864 -4.356268 -0.634303 1827 0.749660 0.661824 0.000000
-4.520888 -4.356298 -0.632363 1831 0.749660 0.661824 0.000000
-4.520768 -4.356187 -0.630394 1831 0.749660 0.661824 0.000000
-4.520645 -4.356062 -0.628435 1825 0.749660 0.661823 0.000000
-4.521046 -4.356454 -0.626541 1831 0.749660 0.661824 0.000000
-4.521132 -4.356533 -0.624601 1827 0.749660 0.661823 0.000000
-4.521050 -4.356453 -0.622641 1829 0.749660 0.661824 0.000000
-4.521034 -4.356438 -0.620691 1831 0.749660 0.661824 0.000000
-4.520647 -4.356065 -0.618695 1829 0.749660 0.661823 0.000000
-4.520462 -4.355891 -0.616727 1827 0.749660 0.661824 0.000000
-4.520758 -4.356174 -0.614824 1833 0.749660 0.661824 0.000000
-4.520684 -4.356101 -0.612864 1837 0.749660 0.661824 0.000000
-4.520499 -4.355926 -0.610896 1825 0.749660 0.661824 0.000000
-4.520425 -4.355853 -0.608937 1821 0.749660 0.661824 0.000000
-4.520351 -4.355780 -0.606978 1827 0.749660 0.661824 0.000000
-4.520737 -4.356158 -0.605084 1825 0.749660 0.661824 0.000000
-4.520983 -4.356390 -0.603171 1825 0.749660 0.661824 0.000000
-4.520901 -4.356310 -0.601222 1827 0.749660 0.661824 0.000000
-4.520980 -4.356383 -0.599281 1829 0.749660 0.661824 0.000000
-4.521324 -4.356717 -0.597378 1831 0.749660 0.661824 0.000000
-4.521188 -4.356594 -0.595419 1829 0.749660 0.661824 0.000000
-4.521001 -4.356405 -0.593451 1825 0.749660 0.661824 0.000000
-4.520607 -4.356028 -0.591455 1825 0.749660 0.661824 0.000000
-4.520262 -4.355700 -0.589468 1831 0.749660 0.661824 0.000000
-4.520606 -4.356034 -0.587565 1825 0.749660 0.661824 0.000000
-4.520894 -4.356311 -0.585662 1823 0.749660 0.661824 0.000000
-4.520706 -4.356122 -0.583694 1825 0.749660 0.661824 0.000000
-4.520834 -4.356246 -0.581762 1823 0.749660 0.661824 0.000000
-4.521323 -4.356720 -0.579878 1827 0.749660 0.661824 0.000000
-4.521338 -4.356744 -0.577937 1825 0.749660 0.661824 0.000000
-4.521369 -4.356765 -0.575997 1827 0.749660 0.661824 0.000000
-4.521496 -4.356889 -0.574066 1827 0.749660 0.661824 0.000000
-4.520934 -4.356353 -0.572051 1829 0.749660 0.661824 0.000000
-4.520747 -4.356164 -0.570083 1823 0.749660 0.661824 0.000000
-4.520875 -4.356288 -0.568162 1821 0.749660 0.661824 0.000000
-4.520722 -4.356153 -0.566203 1829 0.749660 0.661824 0.000000
-4.520856 -4.356269 -0.564272 1831 0.749660 0.661823 0.000000
-4.520872 -4.356292 -0.562331 1821 0.749660 0.661824 0.000000
-4.521047 -4.356453 -0.560410 1827 0.749660 0.661824 0.000000
-4.521174 -4.356577 -0.558479 1827 0.749660 0.661824 0.000000
-4.521454 -4.356848 -0.556566 1823 0.749660 0.661824 0.000000
-4.521621 -4.357017 -0.554644 1825 0.749660 0.661824 0.000000
-4.521212 -4.356627 -0.552658 1829 0.749660 0.661824 0.000000
-4.521122 -4.356541 -0.550699 1829 0.749660 0.661824 0.000000
-4.521186 -4.356601 -0.548768 1823 0.749660 0.661824 0.000000
-4.521055 -4.356470 -0.546809 1821 0.749660 0.661824 0.000000
-4.521271 -4.356677 -0.544887 1827 0.749660 0.661824 0.000000
-4.521132 -4.356540 -0.542929 1827 0.749660 0.661823 0.000000
-4.521043 -4.356454 -0.540979 1821 0.749660 0.661823 0.000000
-4.521163 -4.356572 -0.539048 1819 0.749660 0.661824 0.000000
-4.521274 -4.356683 -0.537127 1823 0.749660 0.661824 0.000000
-4.521178 -4.356591 -0.535168 1823 0.749660 0.661824 0.000000
-4.520831 -4.356251 -0.533191 1825 0.749660 0.661824 0.000000
-4.520733 -4.356158 -0.531232 1823 0.749660 0.661824 0.000000
-4.520741 -4.356175 -0.529292 1823 0.749660 0.661824 0.000000
-4.520797 -4.356229 -0.527361 1825 0.749660 0.661824 0.000000
-4.521228 -4.356646 -0.525467 1823 0.749660 0.661824 0.000000
-4.521140 -4.356561 -0.523518 1823 0.749660 0.661823 0.000000
-4.521042 -4.356468 -0.521569 1827 0.749660 0.661824 0.000000
-4.521209 -4.356623 -0.519637 1825 0.749660 0.661824 0.000000
-4.520951 -4.356379 -0.517670 1825 0.749660 0.661824 0.000000
-4.521118 -4.356534 -0.515748 1825 0.749660 0.661824 0.000000
-4.521446 -4.356855 -0.513845 1831 0.749660 0.661824 0.000000
-4.521244 -4.356655 -0.511877 1825 0.749660 0.661824 0.000000
-4.521451 -4.356855 -0.509965 1821 0.749660 0.661824 0.000000
-4.521780 -4.357176 -0.508062 1829 0.749660 0.661824 0.000000
-4.521578 -4.356976 -0.506093 1833 0.749660 0.661824 0.000000
-4.521264 -4.356674 -0.504116 1835 0.749660 0.661823 0.000000
-4.521110 -4.356524 -0.502168 1829 0.749660 0.661823 0.000000
-4.521471 -4.356885 -0.500264 1829 0.749660 0.661823 0.000000
-4.521694 -4.357098 -0.498352 1831 0.749660 0.661824 0.000000
-4.521123 -4.356541 -0.496348 1825 0.749660 0.661823 0.000000
-4.520866 -4.356296 -0.494380 1825 0.749660 0.661824 0.000000
-4.520815 -4.356242 -0.492430 1823 0.749660 0.661824 0.000000
-4.521128 -4.356551 -0.490527 1827 0.749660 0.661823 0.000000
-4.521078 -4.356496 -0.488578 1823 0.749660 0.661824 0.000000
-4.520916 -4.356340 -0.486629 1829 0.749660 0.661824 0.000000
-4.520917 -4.356351 -0.484689 1831 0.749660 0.661824 0.000000
-4.520706 -4.356144 -0.482721 1823 0.749660 0.661824 0.000000
-4.520609 -4.356052 -0.480772 1823 0.749660 0.661824 0.000000
-4.520344 -4.355802 -0.478804 1827 0.749660 0.661824 0.000000
-4.520599 -4.356039 -0.476892 1825 0.749660 0.661824 0.000000
-4.521071 -4.356501 -0.475007 1819 0.749660 0.661824 0.000000
-4.520758 -4.356199 -0.473040 1809 0.749660 0.661824 0.000000
-4.520965 -4.356399 -0.471118 1815 0.749660 0.661823 0.000000
-4.520861 -4.356301 -0.469169 1819 0.749660 0.661824 0.000000
-4.520384 -4.355833 -0.467184 1817 0.749660 0.661824 0.000000
-4.520375 -4.355823 -0.465244 1819 0.749660 0.661824 0.000000
-4.521008 -4.356437 -0.463368 1823 0.749660 0.661824 0.000000
-4.521265 -4.356688 -0.461455 1823 0.749660 0.661824 0.000000
-4.520734 -4.356177 -0.459460 1819 0.749660 0.661824 0.000000
-4.520885 -4.356320 -0.457539 1821 0.749660 0.661824 0.000000
-4.521196 -4.356615 -0.455636 1829 0.749660 0.661824 0.000000
-4.520972 -4.356410 -0.453678 1825 0.749660 0.661824 0.000000
-4.520705 -4.356145 -0.451710 1819 0.749660 0.661824 0.000000
-4.520641 -4.356091 -0.449771 1817 0.749660 0.661824 0.000000
-4.520688 -4.356140 -0.447830 1819 0.749660 0.661824 0.000000
-4.520951 -4.356383 -0.445918 1823 0.749660 0.661824 0.000000
-4.521248 -4.356680 -0.444015 1827 0.749660 0.661824 0.000000
-4.521246 -4.356677 -0.442075 1825 0.749660 0.661823 0.000000
-4.521237 -4.356667 -0.440135 1827 0.749660 0.661824 0.000000
-4.520915 -4.356359 -0.438168 1829 0.749660 0.661824 0.000000
-4.520953 -4.356387 -0.436238 1829 0.749660 0.661824 0.000000
-4.520680 -4.356130 -0.434270 1827 0.749660 0.661824 0.000000
-4.519884 -4.355357 -0.432258 1819 0.749660 0.661824 0.000000
-4.519867 -4.355341 -0.430318 1813 0.749660 0.661824 0.000000
-4.520018 -4.355484 -0.428396 1819 0.749660 0.661824 0.000000
-4.520419 -4.355876 -0.426503 1819 0.749660 0.661824 0.000000
-4.520827 -4.356273 -0.424599 1821 0.749660 0.661824 0.000000
-4.520560 -4.356009 -0.422641 1819 0.749660 0.661824 0.000000
-4.520280 -4.355746 -0.420684 1827 0.749660 0.661824 0.000000
-4.520534 -4.355984 -0.418761 1821 0.749660 0.661824 0.000000
-4.520517 -4.355968 -0.416831 1825 0.749660 0.661823 0.000000
-4.520556 -4.356010 -0.414891 1825 0.749660 0.661824 0.000000
-4.520692 -4.356140 -0.412970 1821 0.749660 0.661824 0.000000
-4.520571 -4.356029 -0.411021 1823 0.749660 0.661824 0.000000
-4.520554 -4.356013 -0.409091 1821 0.749660 0.661824 0.000000
-4.521114 -4.356557 -0.407205 1817 0.749660 0.661824 0.000000
-4.520840 -4.356286 -0.405238 1817 0.749660 0.661823 0.000000
-4.520454 -4.355915 -0.403272 1817 0.749660 0.661824 0.000000
-4.520541 -4.355994 -0.401341 1821 0.749660 0.661824 0.000000
-4.520621 -4.356081 -0.399420 1817 0.749660 0.661824 0.000000
-4.520820 -4.356275 -0.397498 1829 0.749660 0.661823 0.000000
-4.520795 -4.356253 -0.395558 1823 0.749660 0.661823 0.000000
-4.520931 -4.356383 -0.393637 1821 0.749660 0.661824 0.000000
-4.520968 -4.356411 -0.391706 1823 0.749660 0.661824 0.000000
-4.520639 -4.356097 -0.389740 1825 0.749660 0.661824 0.000000
-4.520454 -4.355923 -0.387791 1819 0.749660 0.661824 0.000000
-4.520541 -4.356001 -0.385860 1825 0.749660 0.661824 0.000000
-4.520724 -4.356183 -0.383939 1827 0.749660 0.661824 0.000000
-4.520860 -4.356313 -0.382017 1831 0.749660 0.661824 0.000000
-4.520626 -4.356087 -0.380059 1831 0.749660 0.661824 0.000000
-4.520761 -4.356218 -0.378138 1829 0.749660 0.661824 0.000000
-4.520897 -4.356349 -0.376217 1825 0.749660 0.661824 0.000000
-4.520350 -4.355824 -0.374242 1819 0.749660 0.661824 0.000000
-4.520429 -4.355897 -0.372311 1821 0.749660 0.661824 0.000000
-4.520717 -4.356173 -0.370398 1821 0.749660 0.661824 0.000000
-4.521110 -4.356559 -0.368495 1823 0.749660 0.661824 0.000000
-4.521461 -4.356899 -0.366591 1833 0.749660 0.661824 0.000000
-4.521171 -4.356616 -0.364634 1827 0.749660 0.661824 0.000000
-4.520937 -4.356390 -0.362676 1829 0.749660 0.661824 0.000000
-4.520696 -4.356158 -0.360728 1825 0.749660 0.661824 0.000000
-4.520253 -4.355729 -0.358752 1825 0.749660 0.661824 0.000000
-4.520220 -4.355701 -0.356823 1827 0.749660 0.661824 0.000000
-4.520459 -4.355926 -0.354900 1823 0.749660 0.661824 0.000000
-4.520579 -4.356044 -0.352979 1825 0.749660 0.661824 0.000000
-4.520972 -4.356429 -0.351075 1829 0.749660 0.661824 0.000000
-4.521162 -4.356603 -0.349154 1831 0.749660 0.661824 0.000000
-4.520865 -4.356328 -0.347196 1827 0.749660 0.661824 0.000000
-4.520679 -4.356140 -0.345248 1831 0.749660 0.661824 0.000000
-4.520743 -4.356214 -0.343327 1829 0.749660 0.661823 0.000000
-4.520822 -4.356287 -0.341397 1825 0.749660 0.661824 0.000000
-4.520733 -4.356201 -0.339457 1831 0.749660 0.661824 0.000000
-4.520394 -4.355866 -0.337501 1829 0.749660 0.661823 0.000000
-4.520312 -4.355787 -0.335561 1825 0.749660 0.661824 0.000000
-4.520537 -4.356013 -0.333639 1827 0.749660 0.661824 0.000000
-4.520928 -4.356385 -0.331735 1831 0.749660 0.661824 0.000000
-4.520999 -4.356452 -0.329805 1833 0.749660 0.661824 0.000000
-4.520701 -4.356162 -0.327857 1827 0.749660 0.661824 0.000000
-4.520556 -4.356033 -0.325909 1829 0.749660 0.661824 0.000000
-4.520467 -4.355947 -0.323969 1829 0.749660 0.661824 0.000000
-4.520699 -4.356166 -0.322057 1831 0.749660 0.661824 0.000000
-4.520715 -4.356189 -0.320127 1833 0.749660 0.661824 0.000000
-4.520360 -4.355843 -0.318170 1827 0.749660 0.661824 0.000000
-4.520647 -4.356119 -0.316258 1833 0.749660 0.661824 0.000000
-4.520759 -4.356230 -0.314327 1829 0.749660 0.661824 0.000000
-4.520934 -4.356391 -0.312405 1829 0.749660 0.661824 0.000000
-4.521214 -4.356662 -0.310492 1833 0.749660 0.661824 0.000000
-4.521012 -4.356475 -0.308544 1833 0.749660 0.661824 0.000000
-4.520980 -4.356447 -0.306614 1831 0.749660 0.661824 0.000000
-4.520883 -4.356355 -0.304675 1837 0.749660 0.661823 0.000000
-4.522662 -4.355225 -0.694791 1833 0.749660 0.661824 0.000000
-4.522766 -4.355330 -0.692860 1833 0.749660 0.661824 0.000000
-4.522651 -4.355211 -0.690891 1829 0.749660 0.661823 0.000000
-4.522386 -4.354961 -0.688894 1823 0.749660 0.661824 0.000000
-4.522481 -4.355060 -0.686963 1827 0.749660 0.661824 0.000000
-4.522945 -4.355501 -0.685078 1831 0.749660 0.661824 0.000000
-4.522632 -4.355199 -0.683081 1823 0.749660 0.661824 0.000000
-4.522357 -4.354928 -0.681094 1823 0.749660 0.661824 0.000000
-4.522773 -4.355332 -0.679200 1827 0.749660 0.661824 0.000000
-4.522916 -4.355469 -0.677279 1839 0.749660 0.661824 0.000000
-4.522385 -4.354957 -0.675244 1833 0.749660 0.661824 0.000000
-4.522008 -4.354605 -0.673237 1829 0.749660 0.661824 0.000000
-4.522206 -4.354785 -0.671315 1819 0.749660 0.661824 0.000000
-4.522511 -4.355088 -0.669412 1827 0.749660 0.661824 0.000000
-4.522293 -4.354875 -0.667434 1827 0.749660 0.661823 0.000000
-4.522124 -4.354713 -0.665456 1827 0.749660 0.661824 0.000000
-4.522587 -4.355154 -0.663571 1831 0.749660 0.661824 0.000000
-4.522828 -4.355393 -0.661659 1829 0.749660 0.661824 0.000000
-4.522810 -4.355377 -0.659709 1831 0.749660 0.661824 0.000000
-4.522801 -4.355368 -0.657759 1823 0.749660 0.661824 0.000000
-4.522575 -4.355148 -0.655781 1819 0.749660 0.661824 0.000000
-4.522462 -4.355044 -0.653812 1829 0.749660 0.661824 0.000000
-4.522654 -4.355231 -0.651890 1833 0.749660 0.661824 0.000000
-4.522637 -4.355216 -0.649940 1829 0.749660 0.661824 0.000000
-4.522675 -4.355244 -0.648000 1829 0.749660 0.661824 0.000000
-4.522554 -4.355133 -0.646031 1827 0.749660 0.661824 0.000000
-4.522385 -4.354971 -0.644063 1827 0.749660 0.661824 0.000000
-4.522479 -4.355056 -0.642122 1827 0.749660 0.661824 0.000000
-4.522502 -4.355085 -0.640182 1829 0.749660 0.661824 0.000000
-4.522179 -4.354763 -0.638185 1827 0.749660 0.661824 0.000000
-4.522058 -4.354652 -0.636226 1833 0.749660 0.661824 0.000000
-4.522297 -4.354877 -0.634313 1831 0.749660 0.661823 0.000000
-4.522803 -4.355378 -0.632428 1829 0.749660 0.661824 0.000000
-4.523153 -4.355704 -0.630535 1833 0.749660 0.661824 0.000000
-4.522865 -4.355435 -0.628548 1827 0.749660 0.661824 0.000000
-4.522535 -4.355121 -0.626551 1829 0.749660 0.661824 0.000000
-4.522565 -4.355142 -0.624611 1831 0.749660 0.661824 0.000000
-4.522597 -4.355177 -0.622670 1831 0.749660 0.661824 0.000000
-4.522258 -4.354843 -0.620673 1823 0.749660 0.661824 0.000000
-4.522137 -4.354732 -0.618715 1823 0.749660 0.661824 0.000000
-4.522633 -4.355212 -0.616830 1831 0.749660 0.661824 0.000000
-4.522511 -4.355087 -0.614871 1833 0.749660 0.661824 0.000000
-4.522062 -4.354666 -0.612865 1831 0.749660 0.661824 0.000000
-4.522197 -4.354796 -0.610934 1827 0.749660 0.661824 0.000000
-4.522387 -4.354970 -0.609012 1825 0.749660 0.661824 0.000000
-4.522362 -4.354948 -0.607062 1821 0.749660 0.661823 0.000000
-4.522128 -4.354722 -0.605084 1817 0.749660 0.661824 0.000000
-4.521791 -4.354402 -0.603097 1823 0.749660 0.661823 0.000000
-4.521660 -4.354271 -0.601139 1821 0.749660 0.661824 0.000000
-4.521893 -4.354504 -0.599226 1827 0.749660 0.661824 0.000000
-4.522494 -4.355079 -0.597351 1835 0.749660 0.661824 0.000000
-4.522621 -4.355203 -0.595429 1831 0.749660 0.661824 0.000000
-4.522178 -4.354774 -0.593423 1825 0.749660 0.661823 0.000000
-4.521945 -4.354548 -0.591446 1827 0.749660 0.661824 0.000000
-4.522120 -4.354723 -0.589524 1825 0.749660 0.661824 0.000000
-4.522302 -4.354891 -0.587602 1815 0.749660 0.661824 0.000000
-4.522166 -4.354767 -0.585643 1819 0.749660 0.661823 0.000000
-4.522133 -4.354739 -0.583694 1823 0.749660 0.661824 0.000000
-4.522052 -4.354660 -0.581744 1823 0.749660 0.661824 0.000000
-4.522027 -4.354638 -0.579795 1825 0.749660 0.661824 0.000000
-4.522250 -4.354850 -0.577882 1819 0.749660 0.661824 0.000000
-4.522440 -4.355024 -0.575961 1821 0.749660 0.661824 0.000000
-4.522609 -4.355193 -0.574039 1827 0.749660 0.661824 0.000000
-4.522527 -4.355114 -0.572080 1823 0.749660 0.661824 0.000000
-4.522229 -4.354824 -0.570103 1819 0.749660 0.661824 0.000000
-4.522252 -4.354854 -0.568162 1825 0.749660 0.661824 0.000000
-4.522427 -4.355015 -0.566241 1823 0.749660 0.661824 0.000000
-4.522346 -4.354936 -0.564281 1823 0.749660 0.661824 0.000000
-4.522408 -4.354996 -0.562351 1821 0.749660 0.661824 0.000000
-4.522842 -4.355426 -0.560456 1831 0.749660 0.661824 0.000000
-4.523184 -4.355746 -0.558553 1831 0.749660 0.661824 0.000000
-4.522831 -4.355413 -0.556566 1829 0.749660 0.661823 0.000000
-4.522525 -4.355118 -0.554589 1831 0.749660 0.661823 0.000000
-4.522178 -4.354777 -0.552603 1821 0.749660 0.661824 0.000000
-4.522355 -4.354952 -0.550681 1819 0.749660 0.661824 0.000000
-4.522787 -4.355369 -0.548797 1825 0.749660 0.661824 0.000000
-4.522697 -4.355283 -0.546837 1825 0.749660 0.661824 0.000000
-4.522399 -4.354993 -0.544860 1819 0.749660 0.661824 0.000000
-4.522567 -4.355163 -0.542939 1823 0.749660 0.661824 0.000000
-4.522894 -4.355470 -0.541035 1823 0.749660 0.661824 0.000000
-4.522805 -4.355384 -0.539086 1827 0.749660 0.661824 0.000000
-4.522444 -4.355045 -0.537100 1823 0.749660 0.661824 0.000000
-4.522409 -4.355003 -0.535150 1815 0.749660 0.661824 0.000000
-4.522521 -4.355114 -0.533229 1821 0.749660 0.661824 0.000000
-4.522633 -4.355226 -0.531298 1825 0.749660 0.661824 0.000000
-4.522543 -4.355140 -0.529338 1825 0.749660 0.661823 0.000000
-4.522341 -4.354940 -0.527380 1825 0.749660 0.661823 0.000000
-4.522517 -4.355115 -0.525459 1827 0.749660 0.661824 0.000000
-4.522684 -4.355270 -0.523537 1819 0.749660 0.661824 0.000000
-4.523059 -4.355629 -0.521633 1827 0.749660 0.661824 0.000000
-4.522962 -4.355537 -0.519684 1829 0.749660 0.661824 0.000000
-4.522336 -4.354937 -0.517670 1821 0.749660 0.661824 0.000000
-4.522135 -4.354750 -0.515712 1819 0.749660 0.661824 0.000000
-4.522774 -4.355356 -0.513836 1823 0.749660 0.661824 0.000000
-4.523247 -4.355817 -0.511951 1827 0.749660 0.661823 0.000000
-4.523101 -4.355674 -0.509993 1827 0.749660 0.661823 0.000000
-4.523212 -4.355785 -0.508062 1835 0.749660 0.661823 0.000000
-4.523276 -4.355846 -0.506131 1831 0.749660 0.661824 0.000000
-4.523010 -4.355596 -0.504163 1833 0.749660 0.661824 0.000000
-4.522905 -4.355497 -0.502214 1823 0.749660 0.661824 0.000000
-4.523024 -4.355601 -0.500283 1827 0.749660 0.661824 0.000000
-4.523127 -4.355707 -0.498352 1825 0.749660 0.661824 0.000000
-4.522870 -4.355462 -0.496385 1825 0.749660 0.661824 0.000000
-4.522250 -4.354854 -0.494380 1823 0.749660 0.661824 0.000000
-4.522513 -4.355112 -0.492468 1825 0.749660 0.661824 0.000000
-4.523034 -4.355610 -0.490583 1831 0.749660 0.661824 0.000000
-4.523034 -4.355621 -0.488643 1837 0.749660 0.661824 0.000000
-4.522880 -4.355472 -0.486684 1833 0.749660 0.661824 0.000000
-4.522406 -4.355018 -0.484699 1825 0.749660 0.661824 0.000000
-4.522565 -4.355166 -0.482777 1829 0.749660 0.661824 0.000000
-4.522989 -4.355577 -0.480883 1823 0.749660 0.661824 0.000000
-4.522987 -4.355574 -0.478943 1819 0.749660 0.661824 0.000000
