786
-9.657126 -9.157796 -0.365555 811 0.722667 0.691196 0.000000
-9.657266 -9.157929 -0.361473 811 0.722667 0.691196 0.000000
-9.657389 -9.158051 -0.357392 809 0.722667 0.691196 0.000000
-9.657205 -9.157869 -0.353294 799 0.722667 0.691196 0.000000
-9.657178 -9.157844 -0.349204 793 0.722667 0.691196 0.000000
-9.657512 -9.158165 -0.345120 795 0.722667 0.691196 0.000000
-9.657328 -9.157983 -0.341022 801 0.722667 0.691196 0.000000
-9.657389 -9.158054 -0.336941 803 0.722667 0.691196 0.000000
-9.658106 -9.158729 -0.332875 813 0.722667 0.691196 0.000000
-9.656472 -9.157175 -0.328730 785 0.722667 0.691196 0.000000
-9.656015 -9.156743 -0.324624 785 0.722667 0.691196 0.000000
-9.657305 -9.157966 -0.320582 813 0.722667 0.691196 0.000000
-9.657106 -9.157784 -0.316484 809 0.722667 0.691196 0.000000
-9.656116 -9.156837 -0.312363 785 0.722667 0.691196 0.000000
-9.656763 -9.157454 -0.308297 813 0.722667 0.691196 0.000000
-9.657192 -9.157866 -0.304222 823 0.722667 0.691196 0.000000
-9.656358 -9.157072 -0.300100 835 0.722667 0.691196 0.000000
-9.660543 -9.155318 -0.688989 819 0.722667 0.691196 0.000000
-9.660478 -9.155260 -0.684879 815 0.722667 0.691196 0.000000
-9.660255 -9.155046 -0.680771 825 0.722667 0.691196 0.000000
-9.660613 -9.155387 -0.676698 821 0.722667 0.691196 0.000000
-9.661080 -9.155829 -0.672633 825 0.722667 0.691196 0.000000
-9.660803 -9.155572 -0.668516 817 0.722667 0.691196 0.000000
-9.661057 -9.155802 -0.664433 829 0.722667 0.691196 0.000000
-9.661039 -9.155795 -0.660333 817 0.722667 0.691196 0.000000
-9.660651 -9.155419 -0.656217 809 0.722667 0.691196 0.000000
-9.661119 -9.155864 -0.652142 809 0.722667 0.691196 0.000000
-9.662002 -9.156700 -0.648104 827 0.722667 0.691196 0.000000
-9.662038 -9.156737 -0.644014 845 0.722667 0.691196 0.000000
-9.661165 -9.155912 -0.639862 837 0.722667 0.691196 0.000000
-9.661468 -9.156195 -0.635779 831 0.722667 0.691196 0.000000
-9.661708 -9.156426 -0.631696 827 0.722667 0.691196 0.000000
-9.660104 -9.154897 -0.627501 813 0.722667 0.691196 0.000000
-9.659866 -9.154672 -0.623394 827 0.722667 0.691196 0.000000
-9.661008 -9.155759 -0.619363 821 0.722667 0.691196 0.000000
-9.661083 -9.155828 -0.615272 839 0.722667 0.691196 0.000000
-9.661010 -9.155764 -0.611172 831 0.722667 0.691196 0.000000
-9.660873 -9.155634 -0.607074 811 0.722667 0.691196 0.000000
-9.659570 -9.154404 -0.602896 801 0.722667 0.691196 0.000000
-9.660076 -9.154879 -0.598831 819 0.722667 0.691196 0.000000
-9.661053 -9.155806 -0.594792 829 0.722667 0.691196 0.000000
-9.660227 -9.155019 -0.590649 821 0.722667 0.691196 0.000000
-9.659886 -9.154695 -0.586532 803 0.722667 0.691196 0.000000
-9.661183 -9.155924 -0.582520 831 0.722667 0.691196 0.000000
-9.661197 -9.155944 -0.578420 823 0.722667 0.691196 0.000000
-9.660418 -9.155194 -0.574277 813 0.722667 0.691196 0.000000
-9.661018 -9.155774 -0.570221 849 0.722667 0.691196 0.000000
-9.660513 -9.155290 -0.566096 855 0.722667 0.691196 0.000000
-9.659727 -9.154548 -0.561963 835 0.722667 0.691196 0.000000
-9.659582 -9.154412 -0.557855 827 0.722667 0.691196 0.000000
-9.659760 -9.154578 -0.553773 809 0.722667 0.691196 0.000000
-9.660359 -9.155144 -0.549717 821 0.722667 0.691196 0.000000
-9.659948 -9.154751 -0.545591 821 0.722667 0.691196 0.000000
-9.660015 -9.154813 -0.541510 827 0.722667 0.691196 0.000000
-9.660657 -9.155425 -0.537444 827 0.722667 0.691196 0.000000
-9.661202 -9.155946 -0.533379 827 0.722667 0.691196 0.000000
-9.661473 -9.156202 -0.529306 835 0.722667 0.691196 0.000000
-9.661274 -9.156008 -0.525198 835 0.722667 0.691196 0.000000
-9.660268 -9.155061 -0.521047 815 0.722667 0.691196 0.000000
-9.659269 -9.154106 -0.516907 817 0.722667 0.691196 0.000000
-9.659650 -9.154466 -0.512833 807 0.722667 0.691196 0.000000
-9.660760 -9.155528 -0.508802 827 0.722667 0.691196 0.000000
-9.661141 -9.155888 -0.504729 829 0.722667 0.691196 0.000000
-9.660824 -9.155583 -0.500612 835 0.722667 0.691196 0.000000
-9.659921 -9.154733 -0.496480 825 0.722667 0.691196 0.000000
-9.659981 -9.154790 -0.492389 815 0.722667 0.691196 0.000000
-9.659718 -9.154531 -0.488282 823 0.722667 0.691196 0.000000
-9.659074 -9.153932 -0.484158 809 0.722667 0.691196 0.000000
-9.659711 -9.154529 -0.480102 817 0.722667 0.691196 0.000000
-9.659443 -9.154277 -0.475994 813 0.722667 0.691196 0.000000
-9.659173 -9.154025 -0.471886 821 0.722667 0.691196 0.000000
-9.659491 -9.154320 -0.467813 815 0.722667 0.691196 0.000000
-9.659801 -9.154609 -0.463730 835 0.722667 0.691196 0.000000
-9.660065 -9.154860 -0.459658 827 0.722667 0.691196 0.000000
-9.659678 -9.154497 -0.455541 817 0.722667 0.691196 0.000000
-9.659840 -9.154652 -0.451460 827 0.722667 0.691196 0.000000
-9.660259 -9.155043 -0.447386 827 0.722667 0.691196 0.000000
-9.660351 -9.155139 -0.443305 823 0.722667 0.691196 0.000000
-9.659588 -9.154417 -0.439172 811 0.722667 0.691196 0.000000
-9.658895 -9.153752 -0.435058 807 0.722667 0.691196 0.000000
-9.659401 -9.154242 -0.430983 827 0.722667 0.691196 0.000000
-9.659868 -9.154685 -0.426919 821 0.722667 0.691196 0.000000
-9.660390 -9.155172 -0.422844 827 0.722667 0.691196 0.000000
-9.660850 -9.155610 -0.418769 825 0.722667 0.691196 0.000000
-9.661419 -9.156151 -0.414704 813 0.722667 0.691196 0.000000
-9.660607 -9.155375 -0.410582 787 0.722667 0.691196 0.000000
-9.659900 -9.154712 -0.406458 793 0.722667 0.691196 0.000000
-9.659874 -9.154686 -0.402368 817 0.722667 0.691196 0.000000
-9.659431 -9.154265 -0.398262 801 0.722667 0.691196 0.000000
-9.659469 -9.154305 -0.394172 807 0.722667 0.691196 0.000000
-9.660726 -9.155488 -0.390130 819 0.722667 0.691196 0.000000
-9.660645 -9.155416 -0.386041 827 0.722667 0.691196 0.000000
-9.659451 -9.154288 -0.381902 819 0.722667 0.691196 0.000000
-9.659376 -9.154209 -0.377812 797 0.722667 0.691196 0.000000
-9.659296 -9.154138 -0.373713 795 0.722667 0.691196 0.000000
-9.659277 -9.154118 -0.369623 781 0.722667 0.691196 0.000000
-9.659611 -9.154440 -0.365550 799 0.722667 0.691196 0.000000
-9.659372 -9.154213 -0.361452 809 0.722667 0.691196 0.000000
-9.659447 -9.154283 -0.357361 819 0.722667 0.691196 0.000000
-9.658787 -9.153657 -0.353247 797 0.722667 0.691196 0.000000
-9.658594 -9.153469 -0.349149 775 0.722667 0.691196 0.000000
-9.659729 -9.154550 -0.345098 805 0.722667 0.691196 0.000000
-9.659749 -9.154562 -0.341018 815 0.722667 0.691196 0.000000
-9.660036 -9.154845 -0.336935 813 0.722667 0.691196 0.000000
-9.660056 -9.154857 -0.332845 803 0.722667 0.691196 0.000000
-9.659481 -9.154314 -0.328740 787 0.722667 0.691196 0.000000
-9.659297 -9.154133 -0.324642 793 0.722667 0.691196 0.000000
-9.659092 -9.153946 -0.320544 781 0.722667 0.691196 0.000000
-9.659801 -9.154614 -0.316477 783 0.722667 0.691196 0.000000
-9.659915 -9.154730 -0.312396 803 0.722667 0.691196 0.000000
-9.659239 -9.154092 -0.308282 787 0.722667 0.691196 0.000000
-9.659362 -9.154200 -0.304201 787 0.722667 0.691196 0.000000
-9.659218 -9.154063 -0.300102 795 0.722667 0.691196 0.000000
-9.665550 -9.154706 -0.689148 827 0.722667 0.691196 0.000000
-9.665431 -9.154604 -0.685039 817 0.722667 0.691196 0.000000
-9.664204 -9.153437 -0.680861 821 0.722667 0.691196 0.000000
-9.663237 -9.152521 -0.676700 813 0.722667 0.691196 0.000000
-9.662584 -9.151902 -0.672556 797 0.722667 0.691196 0.000000
-9.663098 -9.152398 -0.668491 815 0.722667 0.691196 0.000000
-9.663989 -9.153240 -0.664452 815 0.722667 0.691196 0.000000
-9.663820 -9.153071 -0.660344 807 0.722667 0.691196 0.000000
-9.663590 -9.152864 -0.656236 793 0.722667 0.691196 0.000000
-9.664104 -9.153346 -0.652171 807 0.722667 0.691196 0.000000
-9.664244 -9.153481 -0.648080 829 0.722667 0.691196 0.000000
-9.663800 -9.153062 -0.643954 821 0.722667 0.691196 0.000000
-9.663734 -9.152988 -0.639854 819 0.722667 0.691196 0.000000
-9.663771 -9.153027 -0.635764 827 0.722667 0.691196 0.000000
-9.663430 -9.152703 -0.631637 835 0.722667 0.691196 0.000000
-9.663623 -9.152883 -0.627555 809 0.722667 0.691196 0.000000
-9.663864 -9.153113 -0.623473 839 0.722667 0.691196 0.000000
-9.663727 -9.152985 -0.619374 837 0.722667 0.691196 0.000000
-9.664186 -9.153420 -0.615300 837 0.722667 0.691196 0.000000
-9.663674 -9.152945 -0.611174 821 0.722667 0.691196 0.000000
-9.663757 -9.153020 -0.607083 805 0.722667 0.691196 0.000000
-9.663942 -9.153193 -0.603002 815 0.722667 0.691196 0.000000
-9.663274 -9.152561 -0.598868 833 0.722667 0.691196 0.000000
-9.662824 -9.152135 -0.594742 821 0.722667 0.691196 0.000000
-9.663383 -9.152655 -0.590677 807 0.722667 0.691196 0.000000
-9.663342 -9.152630 -0.586587 789 0.722667 0.691196 0.000000
-9.662947 -9.152248 -0.582460 803 0.722667 0.691196 0.000000
-9.663343 -9.152620 -0.578397 817 0.722667 0.691196 0.000000
-9.663622 -9.152884 -0.574314 813 0.722667 0.691196 0.000000
-9.663376 -9.152651 -0.570206 833 0.722667 0.691196 0.000000
-9.662434 -9.151768 -0.566055 801 0.722667 0.691196 0.000000
-9.662352 -9.151683 -0.561955 811 0.722667 0.691196 0.000000
-9.663211 -9.152500 -0.557917 819 0.722667 0.691196 0.000000
-9.663489 -9.152763 -0.553835 825 0.722667 0.691196 0.000000
-9.663447 -9.152723 -0.549735 821 0.722667 0.691196 0.000000
-9.663782 -9.153045 -0.545662 825 0.722667 0.691196 0.000000
-9.663748 -9.153011 -0.541562 849 0.722667 0.691196 0.000000
-9.663861 -9.153113 -0.537481 825 0.722667 0.691196 0.000000
-9.663756 -9.153024 -0.533382 839 0.722667 0.691196 0.000000
-9.663455 -9.152732 -0.529264 851 0.722667 0.691196 0.000000
-9.663734 -9.152995 -0.525192 835 0.722667 0.691196 0.000000
-9.663145 -9.152441 -0.521067 801 0.722667 0.691196 0.000000
-9.662733 -9.152046 -0.516951 817 0.722667 0.691196 0.000000
-9.662739 -9.152059 -0.512861 793 0.722667 0.691196 0.000000
-9.663918 -9.153165 -0.508830 821 0.722667 0.691196 0.000000
-9.664448 -9.153672 -0.504754 841 0.722667 0.691196 0.000000
-9.663231 -9.152526 -0.500606 809 0.722667 0.691196 0.000000
-9.662382 -9.151721 -0.496464 815 0.722667 0.691196 0.000000
-9.663232 -9.152517 -0.492416 821 0.722667 0.691196 0.000000
-9.663762 -9.153025 -0.488351 821 0.722667 0.691196 0.000000
-9.663233 -9.152522 -0.484235 823 0.722667 0.691196 0.000000
-9.663067 -9.152367 -0.480137 827 0.722667 0.691196 0.000000
-9.663173 -9.152462 -0.476046 821 0.722667 0.691196 0.000000
-9.663272 -9.152564 -0.471955 829 0.722667 0.691196 0.000000
-9.662635 -9.151958 -0.467831 831 0.722667 0.691196 0.000000
-9.661886 -9.151249 -0.463708 821 0.722667 0.691196 0.000000
-9.662518 -9.151839 -0.459642 829 0.722667 0.691196 0.000000
-9.663204 -9.152489 -0.455585 837 0.722667 0.691196 0.000000
-9.662928 -9.152231 -0.451477 809 0.722667 0.691196 0.000000
-9.662118 -9.151470 -0.447355 809 0.722667 0.691196 0.000000
-9.661103 -9.150503 -0.443214 803 0.722667 0.691196 0.000000
-9.662472 -9.151804 -0.439191 825 0.722667 0.691196 0.000000
-9.663212 -9.152497 -0.435125 833 0.722667 0.691196 0.000000
-9.662025 -9.151376 -0.430985 815 0.722667 0.691196 0.000000
-9.662807 -9.152116 -0.426928 827 0.722667 0.691196 0.000000
-9.663855 -9.153113 -0.422878 831 0.722667 0.691196 0.000000
-9.663154 -9.152443 -0.418755 813 0.722667 0.691196 0.000000
-9.663511 -9.152783 -0.414681 825 0.722667 0.691196 0.000000
-9.663539 -9.152814 -0.410591 805 0.722667 0.691196 0.000000
-9.662518 -9.151840 -0.406460 801 0.722667 0.691196 0.000000
-9.662225 -9.151570 -0.402363 801 0.722667 0.691196 0.000000
-9.661783 -9.151150 -0.398247 793 0.722667 0.691196 0.000000
-9.662187 -9.151529 -0.394173 803 0.722667 0.691196 0.000000
-9.662702 -9.152025 -0.390108 807 0.722667 0.691196 0.000000
-9.662408 -9.151740 -0.386001 795 0.722667 0.691196 0.000000
-9.662757 -9.152074 -0.381927 821 0.722667 0.691196 0.000000
-9.662840 -9.152149 -0.377837 823 0.722667 0.691196 0.000000
-9.662869 -9.152182 -0.373746 797 0.722667 0.691196 0.000000
-9.662152 -9.151498 -0.369633 789 0.722667 0.691196 0.000000
-9.661702 -9.151072 -0.365527 787 0.722667 0.691196 0.000000
-9.662570 -9.151896 -0.361469 783 0.722667 0.691196 0.000000
-9.662543 -9.151869 -0.357379 793 0.722667 0.691196 0.000000
-9.661552 -9.150934 -0.353258 797 0.722667 0.691196 0.000000
-9.661306 -9.150702 -0.349160 801 0.722667 0.691196 0.000000
-9.662401 -9.151737 -0.345100 813 0.722667 0.691196 0.000000
-9.662846 -9.152162 -0.341026 799 0.722667 0.691196 0.000000
-9.661377 -9.150769 -0.336889 771 0.722667 0.691196 0.000000
-9.661295 -9.150684 -0.332800 785 0.722667 0.691196 0.000000
-9.662263 -9.151604 -0.328741 795 0.722667 0.691196 0.000000
-9.662378 -9.151720 -0.324660 777 0.722667 0.691196 0.000000
-9.662507 -9.151834 -0.320568 789 0.722667 0.691196 0.000000
-9.662098 -9.151454 -0.316472 789 0.722667 0.691196 0.000000
-9.661523 -9.150913 -0.312367 781 0.722667 0.691196 0.000000
-9.660743 -9.150164 -0.308255 777 0.722667 0.691196 0.000000
-9.660913 -9.150324 -0.304163 793 0.722667 0.691196 0.000000
-9.661882 -9.151244 -0.300104 811 0.722667 0.691196 0.000000
-9.667111 -9.150723 -0.689071 807 0.722667 0.691196 0.000000
-9.667149 -9.150761 -0.684981 829 0.722667 0.691196 0.000000
-9.666933 -9.150554 -0.680863 811 0.722667 0.691196 0.000000
-9.666601 -9.150237 -0.676746 819 0.722667 0.691196 0.000000
-9.666386 -9.150029 -0.672628 815 0.722667 0.691196 0.000000
-9.666463 -9.150114 -0.668537 811 0.722667 0.691196 0.000000
-9.666082 -9.149745 -0.664410 807 0.722667 0.691196 0.000000
-9.665859 -9.149531 -0.660302 801 0.722667 0.691196 0.000000
-9.666005 -9.149672 -0.656211 793 0.722667 0.691196 0.000000
-9.666198 -9.149851 -0.652129 801 0.722667 0.691196 0.000000
-9.666289 -9.149947 -0.648038 819 0.722667 0.691196 0.000000
-9.667064 -9.150681 -0.643991 815 0.722667 0.691196 0.000000
-9.667522 -9.151118 -0.639926 821 0.722667 0.691196 0.000000
-9.666554 -9.150188 -0.635765 823 0.722667 0.691196 0.000000
-9.666317 -9.149976 -0.631657 833 0.722667 0.691196 0.000000
-9.666079 -9.149750 -0.627539 789 0.722667 0.691196 0.000000
-9.665895 -9.149568 -0.623431 815 0.722667 0.691196 0.000000
-9.665711 -9.149400 -0.619323 811 0.722667 0.691196 0.000000
-9.665843 -9.149528 -0.615241 807 0.722667 0.691196 0.000000
-9.665824 -9.149508 -0.611141 807 0.722667 0.691196 0.000000
-9.665586 -9.149281 -0.607034 807 0.722667 0.691196 0.000000
-9.666030 -9.149706 -0.602959 799 0.722667 0.691196 0.000000
-9.667444 -9.151044 -0.598956 851 0.722667 0.691196 0.000000
-9.667253 -9.150856 -0.594848 829 0.722667 0.691196 0.000000
-9.667437 -9.151029 -0.590766 819 0.722667 0.691196 0.000000
-9.666715 -9.150352 -0.586622 807 0.722667 0.691196 0.000000
-9.666044 -9.149706 -0.582489 813 0.722667 0.691196 0.000000
-9.666543 -9.150189 -0.578424 819 0.722667 0.691196 0.000000
-9.667253 -9.150857 -0.574367 823 0.722667 0.691196 0.000000
-9.666897 -9.150521 -0.570250 845 0.722667 0.691196 0.000000
-9.665859 -9.149535 -0.566100 823 0.722667 0.691196 0.000000
-9.666138 -9.149798 -0.562017 831 0.722667 0.691196 0.000000
-9.666001 -9.149668 -0.557918 829 0.722667 0.691196 0.000000
-9.665325 -9.149030 -0.553785 835 0.722667 0.691196 0.000000
-9.665009 -9.148740 -0.549678 815 0.722667 0.691196 0.000000
-9.665131 -9.148848 -0.545586 817 0.722667 0.691196 0.000000
-9.664823 -9.148564 -0.541479 809 0.722667 0.691196 0.000000
-9.665266 -9.148975 -0.537405 819 0.722667 0.691196 0.000000
-9.665005 -9.148729 -0.533297 821 0.722667 0.691196 0.000000
-9.665645 -9.149341 -0.529241 837 0.722667 0.691196 0.000000
-9.666245 -9.149905 -0.525175 847 0.722667 0.691196 0.000000
-9.664870 -9.148604 -0.521018 821 0.722667 0.691196 0.000000
-9.664507 -9.148262 -0.516902 821 0.722667 0.691196 0.000000
-9.665413 -9.149117 -0.512853 801 0.722667 0.691196 0.000000
-9.665526 -9.149219 -0.508772 817 0.722667 0.691196 0.000000
-9.665695 -9.149379 -0.504680 825 0.722667 0.691196 0.000000
-9.666225 -9.149888 -0.500615 827 0.722667 0.691196 0.000000
-9.665595 -9.149287 -0.496491 809 0.722667 0.691196 0.000000
-9.664637 -9.148378 -0.492350 821 0.722667 0.691196 0.000000
-9.664635 -9.148385 -0.488260 817 0.722667 0.691196 0.000000
-9.665642 -9.149336 -0.484220 829 0.722667 0.691196 0.000000
-9.665373 -9.149085 -0.480113 819 0.722667 0.691196 0.000000
-9.664686 -9.148426 -0.475989 825 0.722667 0.691196 0.000000
-9.665476 -9.149172 -0.471931 823 0.722667 0.691196 0.000000
-9.666852 -9.150479 -0.467908 855 0.722667 0.691196 0.000000
-9.666746 -9.150374 -0.463809 845 0.722667 0.691196 0.000000
-9.666627 -9.150271 -0.459710 849 0.722667 0.691196 0.000000
-9.666035 -9.149703 -0.455596 823 0.722667 0.691196 0.000000
-9.665336 -9.149046 -0.451472 811 0.722667 0.691196 0.000000
-9.665011 -9.148736 -0.447365 811 0.722667 0.691196 0.000000
-9.664154 -9.147923 -0.443233 813 0.722667 0.691196 0.000000
-9.664567 -9.148322 -0.439159 819 0.722667 0.691196 0.000000
-9.665457 -9.149165 -0.435111 813 0.722667 0.691196 0.000000
-9.665234 -9.148951 -0.431003 809 0.722667 0.691196 0.000000
-9.664894 -9.148629 -0.426906 795 0.722667 0.691196 0.000000
-9.664991 -9.148717 -0.422815 831 0.722667 0.691196 0.000000
-9.665350 -9.149057 -0.418741 813 0.722667 0.691196 0.000000
-9.665276 -9.148992 -0.414642 829 0.722667 0.691196 0.000000
-9.664724 -9.148471 -0.410527 821 0.722667 0.691196 0.000000
-9.664290 -9.148057 -0.406421 813 0.722667 0.691196 0.000000
-9.664162 -9.147934 -0.402332 807 0.722667 0.691196 0.000000
-9.664943 -9.148672 -0.398265 793 0.722667 0.691196 0.000000
-9.665395 -9.149104 -0.394200 805 0.722667 0.691196 0.000000
-9.665054 -9.148780 -0.390093 827 0.722667 0.691196 0.000000
-9.664762 -9.148510 -0.385996 813 0.722667 0.691196 0.000000
-9.665753 -9.149449 -0.381937 811 0.722667 0.691196 0.000000
-9.666158 -9.149827 -0.377863 797 0.722667 0.691196 0.000000
-9.665442 -9.149144 -0.373749 789 0.722667 0.691196 0.000000
-9.665414 -9.149117 -0.369660 785 0.722667 0.691196 0.000000
-9.665215 -9.148936 -0.365561 785 0.722667 0.691196 0.000000
-9.664556 -9.148311 -0.361447 799 0.722667 0.691196 0.000000
-9.664795 -9.148542 -0.357365 769 0.722667 0.691196 0.000000
-9.665880 -9.149557 -0.353315 787 0.722667 0.691196 0.000000
-9.665689 -9.149384 -0.349217 811 0.722667 0.691196 0.000000
-9.665021 -9.148751 -0.345103 803 0.722667 0.691196 0.000000
-9.664564 -9.148319 -0.340997 797 0.722667 0.691196 0.000000
-9.664420 -9.148183 -0.336908 781 0.722667 0.691196 0.000000
-9.664542 -9.148305 -0.332817 783 0.722667 0.691196 0.000000
-9.665361 -9.149076 -0.328759 803 0.722667 0.691196 0.000000
-9.665490 -9.149191 -0.324668 797 0.722667 0.691196 0.000000
-9.665975 -9.149661 -0.320593 795 0.722667 0.691196 0.000000
-9.666206 -9.149871 -0.316511 779 0.722667 0.691196 0.000000
-9.664840 -9.148577 -0.312384 813 0.722667 0.691196 0.000000
-9.664695 -9.148440 -0.308285 819 0.722667 0.691196 0.000000
-9.664756 -9.148498 -0.304204 811 0.722667 0.691196 0.000000
-9.663914 -9.147712 -0.300092 791 0.722667 0.691196 0.000000
-9.669709 -9.147214 -0.689047 805 0.722667 0.691196 0.000000
-9.670403 -9.147869 -0.685000 821 0.722667 0.691196 0.000000
-9.670070 -9.147553 -0.680873 813 0.722667 0.691196 0.000000
-9.669377 -9.146888 -0.676730 793 0.722667 0.691196 0.000000
-9.669571 -9.147080 -0.672648 809 0.722667 0.691196 0.000000
-9.670037 -9.147524 -0.668583 813 0.722667 0.691196 0.000000
-9.670230 -9.147703 -0.664491 805 0.722667 0.691196 0.000000
-9.669850 -9.147334 -0.660375 817 0.722667 0.691196 0.000000
-9.670257 -9.147728 -0.656301 791 0.722667 0.691196 0.000000
-9.670088 -9.147558 -0.652192 801 0.722667 0.691196 0.000000
-9.668792 -9.146334 -0.648004 801 0.722667 0.691196 0.000000
-9.669141 -9.146668 -0.643931 811 0.722667 0.691196 0.000000
-9.669491 -9.147001 -0.639858 809 0.722667 0.691196 0.000000
-9.669692 -9.147188 -0.635776 827 0.722667 0.691196 0.000000
-9.669509 -9.147019 -0.631667 817 0.722667 0.691196 0.000000
-9.669333 -9.146844 -0.627559 805 0.722667 0.691196 0.000000
-9.669942 -9.147429 -0.623503 813 0.722667 0.691196 0.000000
-9.669874 -9.147357 -0.619404 821 0.722667 0.691196 0.000000
-9.669371 -9.146887 -0.615278 833 0.722667 0.691196 0.000000
-9.668653 -9.146203 -0.611135 809 0.722667 0.691196 0.000000
-9.669317 -9.146832 -0.607078 815 0.722667 0.691196 0.000000
-9.669611 -9.147109 -0.603006 827 0.722667 0.691196 0.000000
-9.668778 -9.146329 -0.598853 815 0.722667 0.691196 0.000000
-9.668908 -9.146444 -0.594772 821 0.722667 0.691196 0.000000
-9.668287 -9.145864 -0.590638 813 0.722667 0.691196 0.000000
-9.668322 -9.145887 -0.586547 809 0.722667 0.691196 0.000000
-9.669188 -9.146711 -0.582499 815 0.722667 0.691196 0.000000
-9.669584 -9.147083 -0.578425 819 0.722667 0.691196 0.000000
-9.669065 -9.146600 -0.574300 805 0.722667 0.691196 0.000000
-9.668874 -9.146413 -0.570202 813 0.722667 0.691196 0.000000
-9.669050 -9.146579 -0.566110 815 0.722667 0.691196 0.000000
-9.668703 -9.146250 -0.561993 831 0.722667 0.691196 0.000000
-9.667706 -9.145308 -0.557852 807 0.722667 0.691196 0.000000
-9.668242 -9.145823 -0.553787 819 0.722667 0.691196 0.000000
-9.668686 -9.146234 -0.549713 819 0.722667 0.691196 0.000000
-9.668753 -9.146297 -0.545622 829 0.722667 0.691196 0.000000
-9.668869 -9.146412 -0.541541 827 0.722667 0.691196 0.000000
-9.669311 -9.146823 -0.537467 821 0.722667 0.691196 0.000000
-9.668736 -9.146281 -0.533342 819 0.722667 0.691196 0.000000
-9.667784 -9.145378 -0.529201 813 0.722667 0.691196 0.000000
-9.668542 -9.146099 -0.525144 811 0.722667 0.691196 0.000000
-9.668861 -9.146408 -0.521071 801 0.722667 0.691196 0.000000
-9.668927 -9.146458 -0.516980 823 0.722667 0.691196 0.000000
-9.668714 -9.146264 -0.512872 817 0.722667 0.691196 0.000000
-9.667818 -9.145420 -0.508740 809 0.722667 0.691196 0.000000
-9.667672 -9.145270 -0.504632 815 0.722667 0.691196 0.000000
-9.667992 -9.145578 -0.500558 811 0.722667 0.691196 0.000000
-9.668036 -9.145623 -0.496468 815 0.722667 0.691196 0.000000
-9.668628 -9.146182 -0.492402 815 0.722667 0.691196 0.000000
-9.669643 -9.147141 -0.488363 827 0.722667 0.691196 0.000000
-9.669695 -9.147191 -0.484272 821 0.722667 0.691196 0.000000
-9.668940 -9.146476 -0.480139 825 0.722667 0.691196 0.000000
-9.669000 -9.146533 -0.476058 835 0.722667 0.691196 0.000000
-9.668573 -9.146126 -0.471942 821 0.722667 0.691196 0.000000
-9.668877 -9.146422 -0.467859 827 0.722667 0.691196 0.000000
-9.669036 -9.146561 -0.463778 817 0.722667 0.691196 0.000000
-9.669128 -9.146658 -0.459687 809 0.722667 0.691196 0.000000
-9.669023 -9.146553 -0.455598 799 0.722667 0.691196 0.000000
-9.669388 -9.146900 -0.451514 797 0.722667 0.691196 0.000000
-9.669002 -9.146539 -0.447408 797 0.722667 0.691196 0.000000
-9.668144 -9.145727 -0.443276 791 0.722667 0.691196 0.000000
-9.668831 -9.146376 -0.439219 797 0.722667 0.691196 0.000000
-9.668545 -9.146098 -0.435112 809 0.722667 0.691196 0.000000
-9.668746 -9.146297 -0.431030 821 0.722667 0.691196 0.000000
-9.668891 -9.146424 -0.426948 825 0.722667 0.691196 0.000000
-9.669203 -9.146726 -0.422865 817 0.722667 0.691196 0.000000
-9.669614 -9.147111 -0.418791 811 0.722667 0.691196 0.000000
-9.669001 -9.146539 -0.414677 819 0.722667 0.691196 0.000000
-9.668880 -9.146421 -0.410578 813 0.722667 0.691196 0.000000
-9.669018 -9.146556 -0.406497 807 0.722667 0.691196 0.000000
-9.668897 -9.146439 -0.402398 801 0.722667 0.691196 0.000000
-9.668455 -9.146018 -0.398292 781 0.722667 0.691196 0.000000
-9.668068 -9.145644 -0.394185 797 0.722667 0.691196 0.000000
-9.668143 -9.145727 -0.390094 801 0.722667 0.691196 0.000000
-9.668438 -9.146003 -0.386022 799 0.722667 0.691196 0.000000
-9.669108 -9.146640 -0.381955 819 0.722667 0.691196 0.000000
-9.668550 -9.146111 -0.377840 801 0.722667 0.691196 0.000000
-9.667738 -9.145336 -0.373718 787 0.722667 0.691196 0.000000
-9.667650 -9.145259 -0.369629 781 0.722667 0.691196 0.000000
-9.668320 -9.145883 -0.365562 797 0.722667 0.691196 0.000000
-9.669352 -9.146867 -0.361512 783 0.722667 0.691196 0.000000
-9.668847 -9.146382 -0.357407 773 0.722667 0.691196 0.000000
-9.667372 -9.144999 -0.353261 781 0.722667 0.691196 0.000000
-9.667086 -9.144720 -0.349163 779 0.722667 0.691196 0.000000
-9.667318 -9.144944 -0.345081 791 0.722667 0.691196 0.000000
-9.667871 -9.145458 -0.341006 783 0.722667 0.691196 0.000000
-9.667836 -9.145425 -0.336916 791 0.722667 0.691196 0.000000
-9.666737 -9.144388 -0.332796 807 0.722667 0.691196 0.000000
-9.666860 -9.144509 -0.328705 797 0.722667 0.691196 0.000000
-9.667146 -9.144779 -0.324632 781 0.722667 0.691196 0.000000
-9.667472 -9.145093 -0.320549 793 0.722667 0.691196 0.000000
-9.667704 -9.145305 -0.316467 795 0.722667 0.691196 0.000000
-9.667607 -9.145221 -0.312378 797 0.722667 0.691196 0.000000
-9.668160 -9.145734 -0.308302 777 0.722667 0.691196 0.000000
-9.668596 -9.146152 -0.304228 787 0.722667 0.691196 0.000000
-9.668977 -9.146511 -0.300155 805 0.722667 0.691196 0.000000
-9.671831 -9.143496 -0.688995 795 0.722667 0.691196 0.000000
-9.672557 -9.144191 -0.684948 803 0.722667 0.691196 0.000000
-9.672396 -9.144027 -0.680840 813 0.722667 0.691196 0.000000
-9.671640 -9.143312 -0.676687 815 0.722667 0.691196 0.000000
-9.672265 -9.143909 -0.672631 831 0.722667 0.691196 0.000000
-9.672144 -9.143793 -0.668532 807 0.722667 0.691196 0.000000
-9.671648 -9.143329 -0.664396 799 0.722667 0.691196 0.000000
-9.671487 -9.143166 -0.660288 807 0.722667 0.691196 0.000000
-9.671939 -9.143597 -0.656224 799 0.722667 0.691196 0.000000
-9.671927 -9.143583 -0.652124 795 0.722667 0.691196 0.000000
-9.671588 -9.143273 -0.648007 795 0.722667 0.691196 0.000000
-9.671631 -9.143305 -0.643916 801 0.722667 0.691196 0.000000
-9.671769 -9.143438 -0.639825 801 0.722667 0.691196 0.000000
-9.672918 -9.144519 -0.635804 809 0.722667 0.691196 0.000000
-9.672735 -9.144351 -0.631696 819 0.722667 0.691196 0.000000
-9.671752 -9.143423 -0.627535 823 0.722667 0.691196 0.000000
-9.672055 -9.143704 -0.623462 821 0.722667 0.691196 0.000000
-9.672569 -9.144187 -0.619397 819 0.722667 0.691196 0.000000
-9.672911 -9.144515 -0.615324 817 0.722667 0.691196 0.000000
-9.672830 -9.144444 -0.611214 811 0.722667 0.691196 0.000000
-9.671902 -9.143559 -0.607063 803 0.722667 0.691196 0.000000
-9.671985 -9.143636 -0.602972 805 0.722667 0.691196 0.000000
-9.672061 -9.143720 -0.598881 821 0.722667 0.691196 0.000000
-9.671446 -9.143131 -0.594747 785 0.722667 0.691196 0.000000
-9.672053 -9.143703 -0.590691 803 0.722667 0.691196 0.000000
-9.672067 -9.143723 -0.586601 805 0.722667 0.691196 0.000000
-9.672314 -9.143946 -0.582518 831 0.722667 0.691196 0.000000
-9.671746 -9.143411 -0.578394 809 0.722667 0.691196 0.000000
-9.671650 -9.143327 -0.574284 813 0.722667 0.691196 0.000000
-9.671677 -9.143345 -0.570194 797 0.722667 0.691196 0.000000
-9.670735 -9.142463 -0.566043 795 0.722667 0.691196 0.000000
-9.670645 -9.142370 -0.561944 801 0.722667 0.691196 0.000000
-9.670720 -9.142441 -0.557863 809 0.722667 0.691196 0.000000
-9.671799 -9.143464 -0.553823 813 0.722667 0.691196 0.000000
-9.672126 -9.143778 -0.549749 801 0.722667 0.691196 0.000000
-9.671080 -9.142786 -0.545599 801 0.722667 0.691196 0.000000
-9.671091 -9.142791 -0.541509 813 0.722667 0.691196 0.000000
-9.671732 -9.143402 -0.537443 817 0.722667 0.691196 0.000000
-9.672011 -9.143664 -0.533370 823 0.722667 0.691196 0.000000
-9.672557 -9.144186 -0.529305 813 0.722667 0.691196 0.000000
-9.672616 -9.144243 -0.525214 809 0.722667 0.691196 0.000000
-9.671719 -9.143385 -0.521073 811 0.722667 0.691196 0.000000
-9.671779 -9.143442 -0.516982 823 0.722667 0.691196 0.000000
-9.671682 -9.143358 -0.512883 825 0.722667 0.691196 0.000000
-9.670997 -9.142699 -0.508749 797 0.722667 0.691196 0.000000
-9.670946 -9.142653 -0.504659 805 0.722667 0.691196 0.000000
-9.670474 -9.142208 -0.500544 791 0.722667 0.691196 0.000000
-9.670948 -9.142658 -0.496469 817 0.722667 0.691196 0.000000
-9.671642 -9.143313 -0.492413 823 0.722667 0.691196 0.000000
-9.671803 -9.143468 -0.488331 811 0.722667 0.691196 0.000000
-9.672069 -9.143719 -0.484248 835 0.722667 0.691196 0.000000
-9.671586 -9.143267 -0.480133 835 0.722667 0.691196 0.000000
-9.671584 -9.143259 -0.476043 833 0.722667 0.691196 0.000000
-9.671682 -9.143348 -0.471952 817 0.722667 0.691196 0.000000
-9.671412 -9.143096 -0.467854 829 0.722667 0.691196 0.000000
-9.670665 -9.142386 -0.463721 819 0.722667 0.691196 0.000000
-9.669488 -9.141286 -0.459582 781 0.722667 0.691196 0.000000
-9.670071 -9.141825 -0.455517 793 0.722667 0.691196 0.000000
-9.670859 -9.142570 -0.451459 811 0.722667 0.691196 0.000000
-9.670583 -9.142312 -0.447352 785 0.722667 0.691196 0.000000
-9.670627 -9.142356 -0.443261 793 0.722667 0.691196 0.000000
-9.670616 -9.142343 -0.439171 807 0.722667 0.691196 0.000000
-9.670448 -9.142187 -0.435072 807 0.722667 0.691196 0.000000
-9.670587 -9.142323 -0.430991 815 0.722667 0.691196 0.000000
-9.670418 -9.142153 -0.426893 803 0.722667 0.691196 0.000000
-9.670666 -9.142390 -0.422810 797 0.722667 0.691196 0.000000
-9.671666 -9.143335 -0.418761 793 0.722667 0.691196 0.000000
-9.671491 -9.143174 -0.414662 801 0.722667 0.691196 0.000000
-9.670297 -9.142047 -0.410523 799 0.722667 0.691196 0.000000
-9.670866 -9.142587 -0.406458 815 0.722667 0.691196 0.000000
-9.671331 -9.143016 -0.402383 789 0.722667 0.691196 0.000000
-9.671307 -9.143003 -0.398293 801 0.722667 0.691196 0.000000
-9.670966 -9.142680 -0.394187 801 0.722667 0.691196 0.000000
-9.670627 -9.142358 -0.390090 787 0.722667 0.691196 0.000000
-9.670341 -9.142093 -0.385982 791 0.722667 0.691196 0.000000
-9.670315 -9.142066 -0.381892 787 0.722667 0.691196 0.000000
-9.670507 -9.142245 -0.377811 787 0.722667 0.691196 0.000000
-9.671123 -9.142824 -0.373745 783 0.722667 0.691196 0.000000
-9.671299 -9.142989 -0.369663 803 0.722667 0.691196 0.000000
-9.670263 -9.142018 -0.365533 783 0.722667 0.691196 0.000000
-9.669383 -9.141186 -0.361411 767 0.722667 0.691196 0.000000
-9.669670 -9.141456 -0.357328 779 0.722667 0.691196 0.000000
-9.670441 -9.142175 -0.353271 787 0.722667 0.691196 0.000000
-9.670416 -9.142162 -0.349181 795 0.722667 0.691196 0.000000
-9.670648 -9.142373 -0.345098 779 0.722667 0.691196 0.000000
-9.670456 -9.142199 -0.341000 799 0.722667 0.691196 0.000000
-9.669951 -9.141714 -0.336895 769 0.722667 0.691196 0.000000
-9.670169 -9.141927 -0.332813 763 0.722667 0.691196 0.000000
-9.670517 -9.142246 -0.328739 781 0.722667 0.691196 0.000000
-9.670898 -9.142620 -0.324656 773 0.722667 0.691196 0.000000
-9.670598 -9.142329 -0.320558 779 0.722667 0.691196 0.000000
-9.670031 -9.141793 -0.316454 765 0.722667 0.691196 0.000000
-9.670513 -9.142250 -0.312379 783 0.722667 0.691196 0.000000
-9.670580 -9.142313 -0.308298 775 0.722667 0.691196 0.000000
-9.670970 -9.142679 -0.304214 795 0.722667 0.691196 0.000000
-9.671029 -9.142735 -0.300134 783 0.722667 0.691196 0.000000
-9.673554 -9.139646 -0.688927 779 0.722667 0.691196 0.000000
-9.674180 -9.140244 -0.684871 789 0.722667 0.691196 0.000000
-9.675022 -9.141033 -0.680833 803 0.722667 0.691196 0.000000
-9.676076 -9.142024 -0.676813 813 0.722667 0.691196 0.000000
-9.676121 -9.142069 -0.672712 805 0.722667 0.691196 0.000000
-9.675044 -9.141050 -0.668542 797 0.722667 0.691196 0.000000
-9.675088 -9.141094 -0.664452 815 0.722667 0.691196 0.000000
-9.675327 -9.141325 -0.660369 825 0.722667 0.691196 0.000000
-9.674785 -9.140809 -0.656234 805 0.722667 0.691196 0.000000
-9.674664 -9.140693 -0.652125 805 0.722667 0.691196 0.000000
-9.674589 -9.140627 -0.648026 807 0.722667 0.691196 0.000000
-9.674837 -9.140865 -0.643944 799 0.722667 0.691196 0.000000
-9.675515 -9.141494 -0.639897 809 0.722667 0.691196 0.000000
-9.674910 -9.140927 -0.635753 785 0.722667 0.691196 0.000000
-9.674780 -9.140803 -0.631654 797 0.722667 0.691196 0.000000
-9.674919 -9.140938 -0.627562 805 0.722667 0.691196 0.000000
-9.674783 -9.140808 -0.623464 795 0.722667 0.691196 0.000000
-9.674443 -9.140486 -0.619347 797 0.722667 0.691196 0.000000
-9.674636 -9.140664 -0.615255 789 0.722667 0.691196 0.000000
-9.675408 -9.141397 -0.611207 803 0.722667 0.691196 0.000000
-9.674911 -9.140919 -0.607082 787 0.722667 0.691196 0.000000
-9.674557 -9.140598 -0.602965 815 0.722667 0.691196 0.000000
-9.674795 -9.140815 -0.598883 807 0.722667 0.691196 0.000000
-9.674495 -9.140537 -0.594776 803 0.722667 0.691196 0.000000
-9.674148 -9.140208 -0.590659 789 0.722667 0.691196 0.000000
-9.675341 -9.141327 -0.586628 805 0.722667 0.691196 0.000000
-9.675362 -9.141352 -0.582537 815 0.722667 0.691196 0.000000
-9.674536 -9.140565 -0.578395 811 0.722667 0.691196 0.000000
-9.673969 -9.140030 -0.574270 805 0.722667 0.691196 0.000000
-9.673928 -9.140004 -0.570170 815 0.722667 0.691196 0.000000
-9.673845 -9.139918 -0.566071 817 0.722667 0.691196 0.000000
-9.674290 -9.140344 -0.561997 801 0.722667 0.691196 0.000000
-9.675525 -9.141508 -0.557975 815 0.722667 0.691196 0.000000
-9.675434 -9.141416 -0.553876 817 0.722667 0.691196 0.000000
-9.675393 -9.141376 -0.549776 827 0.722667 0.691196 0.000000
-9.675147 -9.141144 -0.545668 823 0.722667 0.691196 0.000000
-9.674674 -9.140698 -0.541553 803 0.722667 0.691196 0.000000
-9.674953 -9.140962 -0.537470 813 0.722667 0.691196 0.000000
-9.674856 -9.140877 -0.533371 807 0.722667 0.691196 0.000000
-9.674070 -9.140137 -0.529238 785 0.722667 0.691196 0.000000
-9.673815 -9.139883 -0.525130 803 0.722667 0.691196 0.000000
-9.674728 -9.140745 -0.521082 801 0.722667 0.691196 0.000000
-9.675157 -9.141157 -0.517018 813 0.722667 0.691196 0.000000
-9.674144 -9.140203 -0.512867 801 0.722667 0.691196 0.000000
-9.673841 -9.139912 -0.508760 779 0.722667 0.691196 0.000000
-9.674044 -9.140111 -0.504678 797 0.722667 0.691196 0.000000
-9.674478 -9.140514 -0.500604 797 0.722667 0.691196 0.000000
-9.674326 -9.140372 -0.496505 811 0.722667 0.691196 0.000000
-9.674009 -9.140068 -0.492398 825 0.722667 0.691196 0.000000
-9.673842 -9.139914 -0.488299 799 0.722667 0.691196 0.000000
-9.674106 -9.140163 -0.484217 827 0.722667 0.691196 0.000000
-9.674533 -9.140561 -0.480143 837 0.722667 0.691196 0.000000
-9.673950 -9.140014 -0.476028 829 0.722667 0.691196 0.000000
-9.674637 -9.140663 -0.471971 809 0.722667 0.691196 0.000000
-9.675159 -9.141165 -0.467896 817 0.722667 0.691196 0.000000
-9.674788 -9.140802 -0.463790 811 0.722667 0.691196 0.000000
-9.674299 -9.140346 -0.459674 813 0.722667 0.691196 0.000000
-9.673974 -9.140035 -0.455567 821 0.722667 0.691196 0.000000
-9.673493 -9.139584 -0.451452 819 0.722667 0.691196 0.000000
-9.673162 -9.139267 -0.447345 801 0.722667 0.691196 0.000000
-9.673997 -9.140065 -0.443297 807 0.722667 0.691196 0.000000
-9.673828 -9.139895 -0.439198 811 0.722667 0.691196 0.000000
-9.674131 -9.140192 -0.435115 807 0.722667 0.691196 0.000000
-9.674763 -9.140782 -0.431049 807 0.722667 0.691196 0.000000
-9.673945 -9.140017 -0.426927 787 0.722667 0.691196 0.000000
-9.673886 -9.139950 -0.422837 791 0.722667 0.691196 0.000000
-9.673711 -9.139789 -0.418739 789 0.722667 0.691196 0.000000
-9.674116 -9.140166 -0.414665 799 0.722667 0.691196 0.000000
-9.674152 -9.140204 -0.410575 791 0.722667 0.691196 0.000000
-9.673021 -9.139142 -0.406435 783 0.722667 0.691196 0.000000
-9.672791 -9.138923 -0.402337 793 0.722667 0.691196 0.000000
-9.673516 -9.139604 -0.398270 797 0.722667 0.691196 0.000000
-9.674453 -9.140484 -0.394221 817 0.722667 0.691196 0.000000
-9.673683 -9.139770 -0.390098 801 0.722667 0.691196 0.000000
-9.673445 -9.139544 -0.386001 793 0.722667 0.691196 0.000000
-9.674012 -9.140070 -0.381935 799 0.722667 0.691196 0.000000
-9.673501 -9.139592 -0.377820 793 0.722667 0.691196 0.000000
-9.673482 -9.139572 -0.373730 771 0.722667 0.691196 0.000000
-9.674145 -9.140203 -0.369664 779 0.722667 0.691196 0.000000
-9.673265 -9.139372 -0.365542 767 0.722667 0.691196 0.000000
-9.672173 -9.138340 -0.361412 775 0.722667 0.691196 0.000000
-9.672248 -9.138410 -0.357331 787 0.722667 0.691196 0.000000
-9.673177 -9.139284 -0.353272 787 0.722667 0.691196 0.000000
-9.673362 -9.139457 -0.349191 773 0.722667 0.691196 0.000000
-9.672795 -9.138922 -0.345076 769 0.722667 0.691196 0.000000
-9.673027 -9.139147 -0.341003 787 0.722667 0.691196 0.000000
-9.673587 -9.139666 -0.336928 775 0.722667 0.691196 0.000000
-9.673812 -9.139885 -0.332846 763 0.722667 0.691196 0.000000
-9.673886 -9.139955 -0.328755 781 0.722667 0.691196 0.000000
-9.673532 -9.139619 -0.324658 773 0.722667 0.691196 0.000000
-9.673388 -9.139483 -0.320570 773 0.722667 0.691196 0.000000
-9.673721 -9.139804 -0.316486 769 0.722667 0.691196 0.000000
-9.674376 -9.140414 -0.312420 759 0.722667 0.691196 0.000000
-9.673590 -9.139673 -0.308308 773 0.722667 0.691196 0.000000
-9.672591 -9.138733 -0.304187 769 0.722667 0.691196 0.000000
-9.672817 -9.138950 -0.300104 765 0.722667 0.691196 0.000000
-9.679326 -9.139505 -0.689141 797 0.722667 0.691196 0.000000
-9.678789 -9.138996 -0.685006 793 0.722667 0.691196 0.000000
-9.677228 -9.137527 -0.680800 783 0.722667 0.691196 0.000000
-9.676684 -9.137011 -0.676665 799 0.722667 0.691196 0.000000
-9.677206 -9.137499 -0.672600 791 0.722667 0.691196 0.000000
-9.678267 -9.138495 -0.668570 805 0.722667 0.691196 0.000000
-9.678829 -9.139030 -0.664515 801 0.722667 0.691196 0.000000
-9.678285 -9.138514 -0.660380 791 0.722667 0.691196 0.000000
-9.677467 -9.137746 -0.656227 775 0.722667 0.691196 0.000000
-9.678247 -9.138486 -0.652180 809 0.722667 0.691196 0.000000
-9.678456 -9.138678 -0.648098 805 0.722667 0.691196 0.000000
-9.678273 -9.138510 -0.643989 797 0.722667 0.691196 0.000000
-9.678097 -9.138334 -0.639881 799 0.722667 0.691196 0.000000
-9.677702 -9.137967 -0.635755 795 0.722667 0.691196 0.000000
-9.678005 -9.138248 -0.631682 795 0.722667 0.691196 0.000000
-9.677123 -9.137418 -0.627530 797 0.722667 0.691196 0.000000
-9.676087 -9.136445 -0.623369 793 0.722667 0.691196 0.000000
-9.676656 -9.136985 -0.619304 793 0.722667 0.691196 0.000000
-9.677797 -9.138059 -0.615283 809 0.722667 0.691196 0.000000
-9.678358 -9.138593 -0.611218 823 0.722667 0.691196 0.000000
-9.677055 -9.137362 -0.607050 797 0.722667 0.691196 0.000000
-9.676549 -9.136877 -0.602925 807 0.722667 0.691196 0.000000
-9.677901 -9.138150 -0.598902 811 0.722667 0.691196 0.000000
-9.677773 -9.138027 -0.594803 799 0.722667 0.691196 0.000000
-9.677261 -9.137551 -0.590678 797 0.722667 0.691196 0.000000
-9.677657 -9.137923 -0.586604 805 0.722667 0.691196 0.000000
-9.677944 -9.138192 -0.582531 785 0.722667 0.691196 0.000000
-9.677965 -9.138218 -0.578431 775 0.722667 0.691196 0.000000
-9.678094 -9.138331 -0.574350 791 0.722667 0.691196 0.000000
-9.678531 -9.138750 -0.570275 811 0.722667 0.691196 0.000000
-9.677915 -9.138162 -0.566141 813 0.722667 0.691196 0.000000
-9.677662 -9.137924 -0.562033 809 0.722667 0.691196 0.000000
-9.677838 -9.138089 -0.557952 813 0.722667 0.691196 0.000000
-9.677006 -9.137311 -0.553809 785 0.722667 0.691196 0.000000
-9.677175 -9.137470 -0.549727 795 0.722667 0.691196 0.000000
-9.677086 -9.137380 -0.545628 801 0.722667 0.691196 0.000000
-9.676981 -9.137288 -0.541529 795 0.722667 0.691196 0.000000
-9.677050 -9.137352 -0.537438 809 0.722667 0.691196 0.000000
-9.677218 -9.137512 -0.533357 797 0.722667 0.691196 0.000000
-9.678083 -9.138321 -0.529309 805 0.722667 0.691196 0.000000
-9.678785 -9.138984 -0.525252 819 0.722667 0.691196 0.000000
-9.679536 -9.139698 -0.521195 833 0.722667 0.691196 0.000000
-9.678952 -9.139150 -0.517070 795 0.722667 0.691196 0.000000
-9.678220 -9.138453 -0.512937 811 0.722667 0.691196 0.000000
-9.678218 -9.138459 -0.508847 821 0.722667 0.691196 0.000000
-9.677321 -9.137601 -0.504705 817 0.722667 0.691196 0.000000
-9.676746 -9.137059 -0.500580 803 0.722667 0.691196 0.000000
-9.677542 -9.137812 -0.496533 805 0.722667 0.691196 0.000000
-9.676748 -9.137064 -0.492400 803 0.722667 0.691196 0.000000
-9.676260 -9.136607 -0.488285 797 0.722667 0.691196 0.000000
-9.677008 -9.137306 -0.484228 825 0.722667 0.691196 0.000000
-9.677320 -9.137609 -0.480145 811 0.722667 0.691196 0.000000
-9.677113 -9.137408 -0.476046 813 0.722667 0.691196 0.000000
-9.676844 -9.137156 -0.471939 795 0.722667 0.691196 0.000000
-9.677372 -9.137650 -0.467874 795 0.722667 0.691196 0.000000
-9.677957 -9.138204 -0.463808 807 0.722667 0.691196 0.000000
-9.677625 -9.137887 -0.459701 803 0.722667 0.691196 0.000000
-9.677081 -9.137384 -0.455586 813 0.722667 0.691196 0.000000
-9.676764 -9.137081 -0.451479 793 0.722667 0.691196 0.000000
-9.676480 -9.136816 -0.447372 791 0.722667 0.691196 0.000000
-9.676209 -9.136551 -0.443274 791 0.722667 0.691196 0.000000
-9.676465 -9.136794 -0.439192 791 0.722667 0.691196 0.000000
-9.676665 -9.136980 -0.435110 791 0.722667 0.691196 0.000000
-9.677290 -9.137578 -0.431044 793 0.722667 0.691196 0.000000
-9.676855 -9.137165 -0.426938 795 0.722667 0.691196 0.000000
-9.675459 -9.135845 -0.422781 779 0.722667 0.691196 0.000000
-9.676661 -9.136984 -0.418739 791 0.722667 0.691196 0.000000
-9.677387 -9.137665 -0.414682 801 0.722667 0.691196 0.000000
-9.677156 -9.137444 -0.410584 789 0.722667 0.691196 0.000000
-9.677460 -9.137740 -0.406501 791 0.722667 0.691196 0.000000
-9.676751 -9.137063 -0.402388 779 0.722667 0.691196 0.000000
-9.676569 -9.136895 -0.398290 785 0.722667 0.691196 0.000000
-9.677239 -9.137531 -0.394223 807 0.722667 0.691196 0.000000
-9.676578 -9.136907 -0.390109 811 0.722667 0.691196 0.000000
-9.675125 -9.135527 -0.385963 783 0.722667 0.691196 0.000000
-9.676055 -9.136415 -0.381904 791 0.722667 0.691196 0.000000
-9.676036 -9.136395 -0.377814 795 0.722667 0.691196 0.000000
-9.675421 -9.135807 -0.373700 785 0.722667 0.691196 0.000000
-9.676138 -9.136482 -0.369643 775 0.722667 0.691196 0.000000
-9.677500 -9.137775 -0.365600 791 0.722667 0.691196 0.000000
-9.677629 -9.137890 -0.361509 793 0.722667 0.691196 0.000000
-9.676593 -9.136918 -0.357388 777 0.722667 0.691196 0.000000
-9.676024 -9.136382 -0.353274 767 0.722667 0.691196 0.000000
-9.675999 -9.136356 -0.349184 773 0.722667 0.691196 0.000000
-9.676599 -9.136921 -0.345118 791 0.722667 0.691196 0.000000
-9.676250 -9.136592 -0.341011 773 0.722667 0.691196 0.000000
-9.676326 -9.136662 -0.336931 785 0.722667 0.691196 0.000000
-9.677246 -9.137529 -0.332872 765 0.722667 0.691196 0.000000
-9.676947 -9.137253 -0.328774 773 0.722667 0.691196 0.000000
-9.675738 -9.136113 -0.324646 769 0.722667 0.691196 0.000000
-9.675375 -9.135770 -0.320539 761 0.722667 0.691196 0.000000
-9.676138 -9.136483 -0.316472 759 0.722667 0.691196 0.000000
-9.677006 -9.137307 -0.312414 785 0.722667 0.691196 0.000000
-9.676704 -9.137015 -0.308316 759 0.722667 0.691196 0.000000
-9.677140 -9.137434 -0.304242 765 0.722667 0.691196 0.000000
-9.676408 -9.136737 -0.300129 791 0.722667 0.691196 0.000000
-9.680729 -9.135133 -0.689036 793 0.722667 0.691196 0.000000
-9.681469 -9.135826 -0.684989 797 0.722667 0.691196 0.000000
-9.681834 -9.136173 -0.680915 791 0.722667 0.691196 0.000000
-9.681823 -9.136159 -0.676815 799 0.722667 0.691196 0.000000
-9.681380 -9.135739 -0.672689 797 0.722667 0.691196 0.000000
-9.681315 -9.135681 -0.668590 797 0.722667 0.691196 0.000000
-9.681626 -9.135969 -0.664517 807 0.722667 0.691196 0.000000
-9.681663 -9.136007 -0.660417 787 0.722667 0.691196 0.000000
-9.681699 -9.136045 -0.656326 791 0.722667 0.691196 0.000000
-9.681313 -9.135684 -0.652200 797 0.722667 0.691196 0.000000
-9.680815 -9.135206 -0.648064 797 0.722667 0.691196 0.000000
-9.679730 -9.134181 -0.643904 779 0.722667 0.691196 0.000000
-9.679657 -9.134117 -0.639805 789 0.722667 0.691196 0.000000
-9.680390 -9.134805 -0.635748 797 0.722667 0.691196 0.000000
-9.681000 -9.135389 -0.631692 791 0.722667 0.691196 0.000000
-9.681191 -9.135569 -0.627610 803 0.722667 0.691196 0.000000
-9.680263 -9.134685 -0.623449 781 0.722667 0.691196 0.000000
-9.679869 -9.134317 -0.619332 779 0.722667 0.691196 0.000000
-9.680163 -9.134593 -0.615260 777 0.722667 0.691196 0.000000
-9.681100 -9.135474 -0.611221 797 0.722667 0.691196 0.000000
-9.681442 -9.135802 -0.607147 807 0.722667 0.691196 0.000000
-9.680937 -9.135318 -0.603012 803 0.722667 0.691196 0.000000
-9.680324 -9.134744 -0.598888 805 0.722667 0.691196 0.000000
-9.680509 -9.134917 -0.594796 775 0.722667 0.691196 0.000000
-9.680795 -9.135185 -0.590723 785 0.722667 0.691196 0.000000
-9.680768 -9.135159 -0.586623 801 0.722667 0.691196 0.000000
-9.680522 -9.134926 -0.582515 793 0.722667 0.691196 0.000000
-9.680441 -9.134855 -0.578416 793 0.722667 0.691196 0.000000
-9.680931 -9.135317 -0.574351 803 0.722667 0.691196 0.000000
-9.680051 -9.134487 -0.570200 797 0.722667 0.691196 0.000000
-9.678896 -9.133390 -0.566040 771 0.722667 0.691196 0.000000
-9.679019 -9.133512 -0.561949 771 0.722667 0.691196 0.000000
-9.679619 -9.134078 -0.557893 775 0.722667 0.691196 0.000000
-9.680540 -9.134946 -0.553855 803 0.722667 0.691196 0.000000
-9.680546 -9.134957 -0.549754 801 0.722667 0.691196 0.000000
-9.679869 -9.134320 -0.545631 805 0.722667 0.691196 0.000000
-9.679034 -9.133527 -0.541488 769 0.722667 0.691196 0.000000
-9.679361 -9.133842 -0.537415 785 0.722667 0.691196 0.000000
-9.680337 -9.134754 -0.533366 809 0.722667 0.691196 0.000000
-9.680287 -9.134708 -0.529276 807 0.722667 0.691196 0.000000
-9.680354 -9.134771 -0.525186 805 0.722667 0.691196 0.000000
-9.680625 -9.135029 -0.521103 815 0.722667 0.691196 0.000000
-9.680528 -9.134932 -0.517004 795 0.722667 0.691196 0.000000
-9.681018 -9.135393 -0.512939 823 0.722667 0.691196 0.000000
-9.680646 -9.135045 -0.508823 813 0.722667 0.691196 0.000000
-9.680222 -9.134652 -0.504706 785 0.722667 0.691196 0.000000
-9.680860 -9.135249 -0.500650 779 0.722667 0.691196 0.000000
-9.680653 -9.135048 -0.496542 799 0.722667 0.691196 0.000000
-9.679640 -9.134094 -0.492402 793 0.722667 0.691196 0.000000
-9.679057 -9.133547 -0.488277 783 0.722667 0.691196 0.000000
-9.679163 -9.133642 -0.484196 793 0.722667 0.691196 0.000000
-9.680548 -9.134954 -0.480173 807 0.722667 0.691196 0.000000
-9.681280 -9.135642 -0.476116 807 0.722667 0.691196 0.000000
-9.680917 -9.135300 -0.471999 813 0.722667 0.691196 0.000000
-9.680107 -9.134541 -0.467867 805 0.722667 0.691196 0.000000
-9.680050 -9.134488 -0.463777 795 0.722667 0.691196 0.000000
-9.680843 -9.135226 -0.459720 819 0.722667 0.691196 0.000000
-9.681046 -9.135426 -0.455638 831 0.722667 0.691196 0.000000
-9.680298 -9.134716 -0.451514 785 0.722667 0.691196 0.000000
-9.679701 -9.134155 -0.447390 795 0.722667 0.691196 0.000000
-9.679635 -9.134097 -0.443300 803 0.722667 0.691196 0.000000
-9.680218 -9.134636 -0.439235 791 0.722667 0.691196 0.000000
-9.680521 -9.134932 -0.435152 809 0.722667 0.691196 0.000000
-9.680987 -9.135362 -0.431088 815 0.722667 0.691196 0.000000
-9.680601 -9.135000 -0.426971 801 0.722667 0.691196 0.000000
-9.679524 -9.133982 -0.422841 789 0.722667 0.691196 0.000000
-9.679506 -9.133976 -0.418741 791 0.722667 0.691196 0.000000
-9.679118 -9.133600 -0.414635 785 0.722667 0.691196 0.000000
-9.679099 -9.133580 -0.410545 793 0.722667 0.691196 0.000000
-9.679348 -9.133817 -0.406462 795 0.722667 0.691196 0.000000
-9.680080 -9.134504 -0.402405 785 0.722667 0.691196 0.000000
-9.680641 -9.135038 -0.398340 779 0.722667 0.691196 0.000000
-9.679981 -9.134414 -0.394216 783 0.722667 0.691196 0.000000
-9.679265 -9.133742 -0.390103 795 0.722667 0.691196 0.000000
-9.678441 -9.132971 -0.385980 787 0.722667 0.691196 0.000000
-9.678374 -9.132897 -0.381891 789 0.722667 0.691196 0.000000
-9.678818 -9.133323 -0.377817 787 0.722667 0.691196 0.000000
-9.678267 -9.132799 -0.373702 761 0.722667 0.691196 0.000000
-9.679305 -9.133777 -0.369652 783 0.722667 0.691196 0.000000
-9.680452 -9.134857 -0.365601 775 0.722667 0.691196 0.000000
-9.680215 -9.134630 -0.361503 767 0.722667 0.691196 0.000000
-9.680228 -9.134649 -0.357413 779 0.722667 0.691196 0.000000
-9.679615 -9.134076 -0.353309 775 0.722667 0.691196 0.000000
-9.679110 -9.133592 -0.349193 757 0.722667 0.691196 0.000000
-9.679819 -9.134260 -0.345127 761 0.722667 0.691196 0.000000
-9.680161 -9.134588 -0.341053 761 0.722667 0.691196 0.000000
-9.680017 -9.134453 -0.336954 753 0.722667 0.691196 0.000000
-9.679449 -9.133917 -0.332850 777 0.722667 0.691196 0.000000
-9.678883 -9.133381 -0.328745 775 0.722667 0.691196 0.000000
-9.678950 -9.133446 -0.324654 757 0.722667 0.691196 0.000000
-9.678383 -9.132910 -0.320549 755 0.722667 0.691196 0.000000
-9.678027 -9.132574 -0.316453 759 0.722667 0.691196 0.000000
-9.678574 -9.133096 -0.312377 773 0.722667 0.691196 0.000000
-9.679385 -9.133860 -0.308310 779 0.722667 0.691196 0.000000
-9.679930 -9.134368 -0.304245 779 0.722667 0.691196 0.000000
-9.679464 -9.133928 -0.300139 779 0.722667 0.691196 0.000000
-9.684433 -9.132702 -0.689091 771 0.722667 0.691196 0.000000
