693
-15.026967 -13.717818 -0.689877 331 0.733306 0.679899 0.000000
-15.027326 -13.718147 -0.683633 317 0.733306 0.679899 0.000000
-15.027313 -13.718143 -0.677373 353 0.733306 0.679899 0.000000
-15.026654 -13.717537 -0.671089 323 0.733306 0.679899 0.000000
-15.026427 -13.717338 -0.664831 347 0.733306 0.679899 0.000000
-15.028085 -13.718850 -0.658646 341 0.733306 0.679899 0.000000
-15.027743 -13.718534 -0.652379 335 0.733306 0.679899 0.000000
-15.026647 -13.717530 -0.646079 327 0.733306 0.679899 0.000000
-15.026682 -13.717565 -0.639818 347 0.733306 0.679899 0.000000
-15.025681 -13.716649 -0.633527 353 0.733306 0.679899 0.000000
-15.026796 -13.717668 -0.627317 345 0.733306 0.679899 0.000000
-15.027533 -13.718347 -0.621090 319 0.733306 0.679899 0.000000
-15.026795 -13.717679 -0.614807 333 0.733306 0.679899 0.000000
-15.028069 -13.718836 -0.608605 363 0.733306 0.679899 0.000000
-15.027778 -13.718574 -0.602337 337 0.733306 0.679899 0.000000
-15.025369 -13.716374 -0.595989 311 0.733306 0.679899 0.000000
-15.024194 -13.715308 -0.589700 337 0.733306 0.679899 0.000000
-15.024705 -13.715771 -0.583465 325 0.733306 0.679899 0.000000
-15.026132 -13.717074 -0.577262 317 0.733306 0.679899 0.000000
-15.025664 -13.716646 -0.570996 345 0.733306 0.679899 0.000000
-15.024274 -13.715384 -0.564689 345 0.733306 0.679899 0.000000
-15.027205 -13.718059 -0.558541 351 0.733306 0.679899 0.000000
-15.027764 -13.718574 -0.552316 347 0.733306 0.679899 0.000000
-15.025028 -13.716063 -0.545961 359 0.733306 0.679899 0.000000
-15.026224 -13.717159 -0.539750 355 0.733306 0.679899 0.000000
-15.027907 -13.718704 -0.533554 355 0.733306 0.679899 0.000000
-15.027431 -13.718269 -0.527289 357 0.733306 0.679899 0.000000
-15.025762 -13.716747 -0.520984 379 0.733306 0.679899 0.000000
-15.025988 -13.716945 -0.514732 365 0.733306 0.679899 0.000000
-15.026793 -13.717692 -0.508514 363 0.733306 0.679899 0.000000
-15.025833 -13.716809 -0.502223 381 0.733306 0.679899 0.000000
-15.025667 -13.716658 -0.495974 385 0.733306 0.679899 0.000000
-15.026316 -13.717255 -0.489738 381 0.733306 0.679899 0.000000
-15.026261 -13.717205 -0.483488 389 0.733306 0.679899 0.000000
-15.026423 -13.717352 -0.477237 369 0.733306 0.679899 0.000000
-15.026098 -13.717050 -0.470980 349 0.733306 0.679899 0.000000
-15.025710 -13.716698 -0.464713 395 0.733306 0.679899 0.000000
-15.024997 -13.716048 -0.458439 347 0.733306 0.679899 0.000000
-15.025484 -13.716492 -0.452205 369 0.733306 0.679899 0.000000
-15.026982 -13.717865 -0.446001 395 0.733306 0.679899 0.000000
-15.026166 -13.717121 -0.439728 359 0.733306 0.679899 0.000000
-15.026366 -13.717299 -0.433476 349 0.733306 0.679899 0.000000
-15.025970 -13.716941 -0.427220 367 0.733306 0.679899 0.000000
-15.025098 -13.716152 -0.420948 371 0.733306 0.679899 0.000000
-15.025402 -13.716425 -0.414705 373 0.733306 0.679899 0.000000
-15.026782 -13.717692 -0.408492 355 0.733306 0.679899 0.000000
-15.025631 -13.716645 -0.402212 355 0.733306 0.679899 0.000000
-15.025506 -13.716526 -0.395953 341 0.733306 0.679899 0.000000
-15.026668 -13.717582 -0.389732 339 0.733306 0.679899 0.000000
-15.025302 -13.716339 -0.383445 339 0.733306 0.679899 0.000000
-15.023642 -13.714823 -0.377160 339 0.733306 0.679899 0.000000
-15.022808 -13.714066 -0.370888 349 0.733306 0.679899 0.000000
-15.024354 -13.715478 -0.364683 337 0.733306 0.679899 0.000000
-15.024539 -13.715643 -0.358431 333 0.733306 0.679899 0.000000
-15.023158 -13.714388 -0.352154 321 0.733306 0.679899 0.000000
-15.025389 -13.716431 -0.345953 335 0.733306 0.679899 0.000000
-15.026973 -13.717873 -0.339738 351 0.733306 0.679899 0.000000
-15.026563 -13.717502 -0.333482 321 0.733306 0.679899 0.000000
-15.026095 -13.717073 -0.327216 329 0.733306 0.679899 0.000000
-15.025247 -13.716305 -0.320954 343 0.733306 0.679899 0.000000
-15.025263 -13.716311 -0.314704 335 0.733306 0.679899 0.000000
-15.027112 -13.718001 -0.308496 341 0.733306 0.679899 0.000000
-15.026318 -13.717276 -0.302224 329 0.733306 0.679899 0.000000
-15.031070 -13.712661 -0.689862 301 0.733306 0.679899 0.000000
-15.032032 -13.713533 -0.683643 327 0.733306 0.679899 0.000000
-15.032450 -13.713921 -0.677409 307 0.733306 0.679899 0.000000
-15.031416 -13.712967 -0.671109 321 0.733306 0.679899 0.000000
-15.031993 -13.713507 -0.664883 311 0.733306 0.679899 0.000000
-15.030522 -13.712155 -0.658567 321 0.733306 0.679899 0.000000
-15.029800 -13.711499 -0.652273 307 0.733306 0.679899 0.000000
-15.031029 -13.712621 -0.646072 329 0.733306 0.679899 0.000000
-15.032090 -13.713595 -0.639862 323 0.733306 0.679899 0.000000
-15.033363 -13.714753 -0.633660 323 0.733306 0.679899 0.000000
-15.031512 -13.713060 -0.627327 323 0.733306 0.679899 0.000000
-15.032230 -13.713726 -0.621110 339 0.733306 0.679899 0.000000
-15.033666 -13.715036 -0.614906 363 0.733306 0.679899 0.000000
-15.032458 -13.713932 -0.608607 325 0.733306 0.679899 0.000000
-15.031394 -13.712966 -0.602307 331 0.733306 0.679899 0.000000
-15.031587 -13.713137 -0.596065 345 0.733306 0.679899 0.000000
-15.031923 -13.713449 -0.589822 327 0.733306 0.679899 0.000000
-15.030494 -13.712143 -0.583515 337 0.733306 0.679899 0.000000
-15.030033 -13.711720 -0.577249 335 0.733306 0.679899 0.000000
-15.030425 -13.712074 -0.571005 341 0.733306 0.679899 0.000000
-15.029634 -13.711364 -0.564723 367 0.733306 0.679899 0.000000
-15.030087 -13.711768 -0.558488 355 0.733306 0.679899 0.000000
-15.030529 -13.712174 -0.552254 349 0.733306 0.679899 0.000000
-15.030428 -13.712089 -0.545995 351 0.733306 0.679899 0.000000
-15.031631 -13.713190 -0.539783 369 0.733306 0.679899 0.000000
-15.030942 -13.712561 -0.533510 329 0.733306 0.679899 0.000000
-15.029869 -13.711574 -0.527219 353 0.733306 0.679899 0.000000
-15.030197 -13.711880 -0.520986 341 0.733306 0.679899 0.000000
-15.031339 -13.712918 -0.514766 365 0.733306 0.679899 0.000000
-15.032702 -13.714171 -0.508563 355 0.733306 0.679899 0.000000
-15.032487 -13.713969 -0.502305 343 0.733306 0.679899 0.000000
-15.031567 -13.713130 -0.496023 319 0.733306 0.679899 0.000000
-15.030489 -13.712153 -0.489733 365 0.733306 0.679899 0.000000
-15.030377 -13.712047 -0.483474 363 0.733306 0.679899 0.000000
-15.030914 -13.712542 -0.477249 367 0.733306 0.679899 0.000000
-15.030693 -13.712335 -0.470990 379 0.733306 0.679899 0.000000
-15.031396 -13.712974 -0.464754 357 0.733306 0.679899 0.000000
-15.031922 -13.713462 -0.458519 373 0.733306 0.679899 0.000000
-15.031273 -13.712863 -0.452245 367 0.733306 0.679899 0.000000
-15.031425 -13.713003 -0.446003 341 0.733306 0.679899 0.000000
-15.031682 -13.713240 -0.439761 347 0.733306 0.679899 0.000000
-15.030961 -13.712584 -0.433487 359 0.733306 0.679899 0.000000
-15.030144 -13.711839 -0.427215 329 0.733306 0.679899 0.000000
-15.030330 -13.712018 -0.420973 353 0.733306 0.679899 0.000000
-15.030428 -13.712103 -0.414722 363 0.733306 0.679899 0.000000
-15.031058 -13.712686 -0.408486 367 0.733306 0.679899 0.000000
-15.031099 -13.712712 -0.402235 383 0.733306 0.679899 0.000000
-15.030593 -13.712252 -0.395970 365 0.733306 0.679899 0.000000
-15.028462 -13.710313 -0.389669 319 0.733306 0.679899 0.000000
-15.028059 -13.709949 -0.383413 349 0.733306 0.679899 0.000000
-15.030242 -13.711942 -0.377212 361 0.733306 0.679899 0.000000
-15.030809 -13.712461 -0.370977 369 0.733306 0.679899 0.000000
-15.031105 -13.712728 -0.364734 369 0.733306 0.679899 0.000000
-15.031784 -13.713348 -0.358498 349 0.733306 0.679899 0.000000
-15.030999 -13.712629 -0.352235 353 0.733306 0.679899 0.000000
-15.029886 -13.711613 -0.345955 311 0.733306 0.679899 0.000000
-15.030008 -13.711728 -0.339714 295 0.733306 0.679899 0.000000
-15.031650 -13.713228 -0.333498 311 0.733306 0.679899 0.000000
-15.032415 -13.713932 -0.327261 351 0.733306 0.679899 0.000000
-15.032061 -13.713605 -0.321004 365 0.733306 0.679899 0.000000
-15.030663 -13.712336 -0.314727 357 0.733306 0.679899 0.000000
-15.031278 -13.712893 -0.308491 301 0.733306 0.679899 0.000000
-15.031772 -13.713344 -0.302246 307 0.733306 0.679899 0.000000
-15.038454 -13.710643 -0.689997 321 0.733306 0.679899 0.000000
-15.039092 -13.711219 -0.683771 337 0.733306 0.679899 0.000000
-15.038052 -13.710273 -0.677470 309 0.733306 0.679899 0.000000
-15.036098 -13.708499 -0.671128 307 0.733306 0.679899 0.000000
-15.035806 -13.708235 -0.664860 313 0.733306 0.679899 0.000000
-15.034765 -13.707288 -0.658560 345 0.733306 0.679899 0.000000
-15.035397 -13.707858 -0.652334 315 0.733306 0.679899 0.000000
-15.035438 -13.707897 -0.646083 337 0.733306 0.679899 0.000000
-15.035199 -13.707677 -0.639816 337 0.733306 0.679899 0.000000
-15.035825 -13.708255 -0.633590 375 0.733306 0.679899 0.000000
-15.035636 -13.708086 -0.627321 339 0.733306 0.679899 0.000000
-15.037827 -13.710085 -0.621161 349 0.733306 0.679899 0.000000
-15.037215 -13.709517 -0.614876 319 0.733306 0.679899 0.000000
-15.035778 -13.708217 -0.608569 329 0.733306 0.679899 0.000000
-15.035429 -13.707895 -0.602302 333 0.733306 0.679899 0.000000
-15.035399 -13.707865 -0.596043 337 0.733306 0.679899 0.000000
-15.036445 -13.708829 -0.589833 345 0.733306 0.679899 0.000000
-15.036040 -13.708449 -0.583566 339 0.733306 0.679899 0.000000
-15.036218 -13.708623 -0.577315 321 0.733306 0.679899 0.000000
-15.035153 -13.707643 -0.571024 313 0.733306 0.679899 0.000000
-15.034202 -13.706779 -0.564733 341 0.733306 0.679899 0.000000
-15.034060 -13.706649 -0.558484 343 0.733306 0.679899 0.000000
-15.034722 -13.707256 -0.552248 361 0.733306 0.679899 0.000000
-15.036786 -13.709142 -0.546068 349 0.733306 0.679899 0.000000
-15.035882 -13.708317 -0.539787 345 0.733306 0.679899 0.000000
-15.034754 -13.707288 -0.533497 347 0.733306 0.679899 0.000000
-15.034224 -13.706808 -0.527222 323 0.733306 0.679899 0.000000
-15.034925 -13.707448 -0.520995 353 0.733306 0.679899 0.000000
-15.036130 -13.708549 -0.514784 333 0.733306 0.679899 0.000000
-15.035048 -13.707558 -0.508494 319 0.733306 0.679899 0.000000
-15.034892 -13.707415 -0.502245 333 0.733306 0.679899 0.000000
-15.035110 -13.707620 -0.495993 339 0.733306 0.679899 0.000000
-15.033384 -13.706039 -0.489689 345 0.733306 0.679899 0.000000
-15.033644 -13.706289 -0.483446 337 0.733306 0.679899 0.000000
-15.036183 -13.708603 -0.477272 349 0.733306 0.679899 0.000000
-15.036073 -13.708496 -0.471023 387 0.733306 0.679899 0.000000
-15.035639 -13.708107 -0.464757 367 0.733306 0.679899 0.000000
-15.035958 -13.708392 -0.458514 359 0.733306 0.679899 0.000000
-15.035405 -13.707895 -0.452249 345 0.733306 0.679899 0.000000
-15.035335 -13.707833 -0.445989 345 0.733306 0.679899 0.000000
-15.034518 -13.707089 -0.439717 347 0.733306 0.679899 0.000000
-15.034726 -13.707273 -0.433475 337 0.733306 0.679899 0.000000
-15.035197 -13.707705 -0.427230 357 0.733306 0.679899 0.000000
-15.032696 -13.705432 -0.420913 365 0.733306 0.679899 0.000000
-15.033269 -13.705945 -0.414678 357 0.733306 0.679899 0.000000
-15.035197 -13.707710 -0.408480 343 0.733306 0.679899 0.000000
-15.035286 -13.707788 -0.402239 345 0.733306 0.679899 0.000000
-15.036133 -13.708567 -0.396001 341 0.733306 0.679899 0.000000
-15.034917 -13.707456 -0.389722 329 0.733306 0.679899 0.000000
-15.034139 -13.706742 -0.383459 331 0.733306 0.679899 0.000000
-15.034174 -13.706777 -0.377209 315 0.733306 0.679899 0.000000
-15.034463 -13.707049 -0.370966 299 0.733306 0.679899 0.000000
-15.034822 -13.707367 -0.364722 307 0.733306 0.679899 0.000000
-15.033767 -13.706408 -0.358452 337 0.733306 0.679899 0.000000
-15.033619 -13.706285 -0.352193 343 0.733306 0.679899 0.000000
-15.034615 -13.707181 -0.345964 335 0.733306 0.679899 0.000000
-15.034038 -13.706667 -0.339709 313 0.733306 0.679899 0.000000
-15.034111 -13.706731 -0.333458 329 0.733306 0.679899 0.000000
-15.033915 -13.706555 -0.327210 295 0.733306 0.679899 0.000000
-15.034903 -13.707447 -0.320981 327 0.733306 0.679899 0.000000
-15.034053 -13.706677 -0.314708 313 0.733306 0.679899 0.000000
-15.031257 -13.704134 -0.308404 313 0.733306 0.679899 0.000000
-15.033754 -13.706402 -0.302211 335 0.733306 0.679899 0.000000
-15.039750 -13.703246 -0.689866 349 0.733306 0.679899 0.000000
-15.040985 -13.704372 -0.683665 325 0.733306 0.679899 0.000000
-15.042220 -13.705500 -0.677463 329 0.733306 0.679899 0.000000
-15.041284 -13.704647 -0.671172 299 0.733306 0.679899 0.000000
-15.041102 -13.704484 -0.664903 301 0.733306 0.679899 0.000000
-15.040709 -13.704126 -0.658637 321 0.733306 0.679899 0.000000
-15.041560 -13.704897 -0.652419 287 0.733306 0.679899 0.000000
-15.041325 -13.704692 -0.646151 295 0.733306 0.679899 0.000000
-15.040014 -13.703492 -0.639843 321 0.733306 0.679899 0.000000
-15.038203 -13.701845 -0.633509 315 0.733306 0.679899 0.000000
-15.039533 -13.703059 -0.627317 315 0.733306 0.679899 0.000000
-15.041786 -13.705109 -0.621146 335 0.733306 0.679899 0.000000
-15.041050 -13.704440 -0.614863 317 0.733306 0.679899 0.000000
-15.041575 -13.704915 -0.608628 373 0.733306 0.679899 0.000000
-15.041214 -13.704597 -0.602361 357 0.733306 0.679899 0.000000
-15.040746 -13.704167 -0.596095 375 0.733306 0.679899 0.000000
-15.040875 -13.704289 -0.589844 343 0.733306 0.679899 0.000000
-15.039924 -13.703424 -0.583552 369 0.733306 0.679899 0.000000
-15.039456 -13.702995 -0.577276 333 0.733306 0.679899 0.000000
-15.040454 -13.703909 -0.571067 339 0.733306 0.679899 0.000000
-15.040693 -13.704118 -0.564825 345 0.733306 0.679899 0.000000
-15.039837 -13.703342 -0.558532 363 0.733306 0.679899 0.000000
-15.038717 -13.702319 -0.552243 349 0.733306 0.679899 0.000000
-15.039768 -13.703275 -0.546033 365 0.733306 0.679899 0.000000
-15.041283 -13.704660 -0.539829 355 0.733306 0.679899 0.000000
-15.039996 -13.703494 -0.533530 333 0.733306 0.679899 0.000000
-15.039196 -13.702763 -0.527248 333 0.733306 0.679899 0.000000
-15.038442 -13.702082 -0.520974 341 0.733306 0.679899 0.000000
-15.039097 -13.702670 -0.514748 341 0.733306 0.679899 0.000000
-15.039426 -13.702976 -0.508505 315 0.733306 0.679899 0.000000
-15.039053 -13.702635 -0.502238 353 0.733306 0.679899 0.000000
-15.040026 -13.703528 -0.496019 361 0.733306 0.679899 0.000000
-15.041221 -13.704609 -0.489808 359 0.733306 0.679899 0.000000
-15.040890 -13.704315 -0.483541 347 0.733306 0.679899 0.000000
-15.039651 -13.703185 -0.477252 375 0.733306 0.679899 0.000000
-15.039916 -13.703427 -0.471010 395 0.733306 0.679899 0.000000
-15.038827 -13.702429 -0.464720 387 0.733306 0.679899 0.000000
-15.039571 -13.703115 -0.458492 375 0.733306 0.679899 0.000000
-15.040273 -13.703753 -0.452266 343 0.733306 0.679899 0.000000
-15.038906 -13.702511 -0.445978 347 0.733306 0.679899 0.000000
-15.037978 -13.701666 -0.439697 341 0.733306 0.679899 0.000000
-15.038290 -13.701944 -0.433454 347 0.733306 0.679899 0.000000
-15.039302 -13.702868 -0.427234 319 0.733306 0.679899 0.000000
-15.039178 -13.702763 -0.420975 349 0.733306 0.679899 0.000000
-15.039489 -13.703043 -0.414732 361 0.733306 0.679899 0.000000
-15.040114 -13.703620 -0.408506 359 0.733306 0.679899 0.000000
-15.039391 -13.702950 -0.402233 321 0.733306 0.679899 0.000000
-15.039474 -13.703035 -0.395982 335 0.733306 0.679899 0.000000
-15.040590 -13.704055 -0.389761 325 0.733306 0.679899 0.000000
-15.038085 -13.701767 -0.383454 347 0.733306 0.679899 0.000000
-15.037737 -13.701447 -0.377187 347 0.733306 0.679899 0.000000
-15.038138 -13.701821 -0.370954 355 0.733306 0.679899 0.000000
-15.037576 -13.701305 -0.364689 335 0.733306 0.679899 0.000000
-15.039709 -13.703246 -0.358489 335 0.733306 0.679899 0.000000
-15.038694 -13.702332 -0.352218 317 0.733306 0.679899 0.000000
-15.037534 -13.701265 -0.345939 307 0.733306 0.679899 0.000000
-15.039230 -13.702821 -0.339733 317 0.733306 0.679899 0.000000
-15.040333 -13.703829 -0.333502 323 0.733306 0.679899 0.000000
-15.040078 -13.703595 -0.327245 333 0.733306 0.679899 0.000000
-15.039228 -13.702812 -0.320982 337 0.733306 0.679899 0.000000
-15.037943 -13.701645 -0.314704 329 0.733306 0.679899 0.000000
-15.038447 -13.702102 -0.308469 359 0.733306 0.679899 0.000000
-15.040128 -13.703647 -0.302253 347 0.733306 0.679899 0.000000
-15.043830 -13.698875 -0.689868 311 0.733306 0.679899 0.000000
-15.045607 -13.700495 -0.683692 307 0.733306 0.679899 0.000000
-15.046014 -13.700875 -0.677458 311 0.733306 0.679899 0.000000
-15.046557 -13.701364 -0.671222 309 0.733306 0.679899 0.000000
-15.046480 -13.701297 -0.664963 331 0.733306 0.679899 0.000000
-15.044246 -13.699262 -0.658613 319 0.733306 0.679899 0.000000
-15.044345 -13.699346 -0.652362 319 0.733306 0.679899 0.000000
-15.045252 -13.700174 -0.646144 317 0.733306 0.679899 0.000000
-15.044739 -13.699709 -0.639868 315 0.733306 0.679899 0.000000
-15.045147 -13.700089 -0.633634 323 0.733306 0.679899 0.000000
-15.046534 -13.701350 -0.627432 323 0.733306 0.679899 0.000000
-15.045588 -13.700492 -0.621140 337 0.733306 0.679899 0.000000
-15.044318 -13.699336 -0.614842 325 0.733306 0.679899 0.000000
-15.043049 -13.698182 -0.608533 319 0.733306 0.679899 0.000000
-15.042540 -13.697709 -0.602258 343 0.733306 0.679899 0.000000
-15.044182 -13.699208 -0.596072 329 0.733306 0.679899 0.000000
-15.044254 -13.699272 -0.589822 353 0.733306 0.679899 0.000000
-15.043039 -13.698174 -0.583523 309 0.733306 0.679899 0.000000
-15.043266 -13.698385 -0.577271 329 0.733306 0.679899 0.000000
-15.043832 -13.698891 -0.571045 327 0.733306 0.679899 0.000000
-15.044114 -13.699161 -0.564802 325 0.733306 0.679899 0.000000
-15.043542 -13.698636 -0.558528 367 0.733306 0.679899 0.000000
-15.044419 -13.699428 -0.552309 347 0.733306 0.679899 0.000000
-15.046759 -13.701557 -0.546138 331 0.733306 0.679899 0.000000
-15.044775 -13.699760 -0.539816 343 0.733306 0.679899 0.000000
-15.042072 -13.697303 -0.533471 345 0.733306 0.679899 0.000000
-15.043275 -13.698390 -0.527259 321 0.733306 0.679899 0.000000
-15.044686 -13.699682 -0.521046 351 0.733306 0.679899 0.000000
-15.044377 -13.699392 -0.514789 323 0.733306 0.679899 0.000000
-15.044260 -13.699293 -0.508530 335 0.733306 0.679899 0.000000
-15.044485 -13.699503 -0.502287 325 0.733306 0.679899 0.000000
-15.043946 -13.699005 -0.496022 373 0.733306 0.679899 0.000000
-15.043138 -13.698267 -0.489740 363 0.733306 0.679899 0.000000
-15.042695 -13.697871 -0.483474 353 0.733306 0.679899 0.000000
-15.042482 -13.697684 -0.477215 357 0.733306 0.679899 0.000000
-15.043455 -13.698563 -0.470996 353 0.733306 0.679899 0.000000
-15.044421 -13.699450 -0.464777 343 0.733306 0.679899 0.000000
-15.044033 -13.699098 -0.458511 345 0.733306 0.679899 0.000000
-15.043964 -13.699036 -0.452261 343 0.733306 0.679899 0.000000
-15.044881 -13.699872 -0.446032 345 0.733306 0.679899 0.000000
-15.046059 -13.700940 -0.439811 345 0.733306 0.679899 0.000000
-15.044312 -13.699357 -0.433517 341 0.733306 0.679899 0.000000
-15.043215 -13.698352 -0.427227 335 0.733306 0.679899 0.000000
-15.044402 -13.699428 -0.421016 353 0.733306 0.679899 0.000000
-15.043897 -13.698969 -0.414751 363 0.733306 0.679899 0.000000
-15.044519 -13.699546 -0.408515 349 0.733306 0.679899 0.000000
-15.046065 -13.700956 -0.402300 329 0.733306 0.679899 0.000000
-15.045565 -13.700489 -0.396035 337 0.733306 0.679899 0.000000
-15.044893 -13.699885 -0.389771 339 0.733306 0.679899 0.000000
-15.045244 -13.700209 -0.383528 333 0.733306 0.679899 0.000000
-15.043004 -13.698171 -0.377228 341 0.733306 0.679899 0.000000
-15.040643 -13.696022 -0.370920 343 0.733306 0.679899 0.000000
-15.042674 -13.697869 -0.364721 331 0.733306 0.679899 0.000000
-15.044857 -13.699862 -0.358521 351 0.733306 0.679899 0.000000
-15.043322 -13.698460 -0.352235 341 0.733306 0.679899 0.000000
-15.042426 -13.697639 -0.345963 341 0.733306 0.679899 0.000000
-15.042230 -13.697465 -0.339704 345 0.733306 0.679899 0.000000
-15.042732 -13.697921 -0.333470 353 0.733306 0.679899 0.000000
-15.043238 -13.698391 -0.327235 337 0.733306 0.679899 0.000000
-15.042986 -13.698158 -0.320977 337 0.733306 0.679899 0.000000
-15.043097 -13.698267 -0.314726 321 0.733306 0.679899 0.000000
-15.042146 -13.697390 -0.308464 317 0.733306 0.679899 0.000000
-15.042322 -13.697549 -0.302213 371 0.733306 0.679899 0.000000
-15.047709 -13.694498 -0.689871 313 0.733306 0.679899 0.000000
-15.049002 -13.695683 -0.683679 351 0.733306 0.679899 0.000000
-15.049043 -13.695722 -0.677418 321 0.733306 0.679899 0.000000
-15.047789 -13.694580 -0.671109 329 0.733306 0.679899 0.000000
-15.048149 -13.694910 -0.664866 325 0.733306 0.679899 0.000000
-15.048897 -13.695586 -0.658649 331 0.733306 0.679899 0.000000
-15.046808 -13.693694 -0.652308 275 0.733306 0.679899 0.000000
-15.047177 -13.694030 -0.646065 283 0.733306 0.679899 0.000000
-15.049431 -13.696078 -0.639904 321 0.733306 0.679899 0.000000
-15.050498 -13.697047 -0.633694 333 0.733306 0.679899 0.000000
-15.049282 -13.695934 -0.627385 333 0.733306 0.679899 0.000000
-15.047145 -13.693991 -0.621044 339 0.733306 0.679899 0.000000
-15.046686 -13.693583 -0.614778 343 0.733306 0.679899 0.000000
-15.048552 -13.695285 -0.608601 305 0.733306 0.679899 0.000000
-15.049339 -13.695992 -0.602374 299 0.733306 0.679899 0.000000
-15.049255 -13.695919 -0.596114 329 0.733306 0.679899 0.000000
-15.049488 -13.696135 -0.589872 353 0.733306 0.679899 0.000000
-15.049458 -13.696104 -0.583612 355 0.733306 0.679899 0.000000
-15.049540 -13.696176 -0.577361 317 0.733306 0.679899 0.000000
-15.048962 -13.695660 -0.571086 325 0.733306 0.679899 0.000000
-15.048272 -13.695030 -0.564813 341 0.733306 0.679899 0.000000
-15.048609 -13.695341 -0.558569 361 0.733306 0.679899 0.000000
-15.049007 -13.695703 -0.552335 369 0.733306 0.679899 0.000000
-15.049067 -13.695754 -0.546085 329 0.733306 0.679899 0.000000
-15.049084 -13.695774 -0.539824 361 0.733306 0.679899 0.000000
-15.048068 -13.694847 -0.533544 373 0.733306 0.679899 0.000000
-15.048182 -13.694957 -0.527292 309 0.733306 0.679899 0.000000
-15.049926 -13.696537 -0.521096 337 0.733306 0.679899 0.000000
-15.048902 -13.695603 -0.514805 343 0.733306 0.679899 0.000000
-15.048635 -13.695372 -0.508548 329 0.733306 0.679899 0.000000
-15.049940 -13.696554 -0.502336 313 0.733306 0.679899 0.000000
-15.048693 -13.695418 -0.496047 353 0.733306 0.679899 0.000000
-15.047940 -13.694737 -0.489774 359 0.733306 0.679899 0.000000
-15.047401 -13.694240 -0.483499 363 0.733306 0.679899 0.000000
-15.046736 -13.693642 -0.477225 331 0.733306 0.679899 0.000000
-15.047765 -13.694578 -0.471005 337 0.733306 0.679899 0.000000
-15.048682 -13.695414 -0.464786 355 0.733306 0.679899 0.000000
-15.048343 -13.695113 -0.458519 357 0.733306 0.679899 0.000000
-15.048502 -13.695246 -0.452278 365 0.733306 0.679899 0.000000
-15.049468 -13.696134 -0.446049 353 0.733306 0.679899 0.000000
-15.049510 -13.696173 -0.439798 313 0.733306 0.679899 0.000000
-15.048739 -13.695466 -0.433525 361 0.733306 0.679899 0.000000
-15.047923 -13.694721 -0.427252 341 0.733306 0.679899 0.000000
-15.047687 -13.694514 -0.420995 351 0.733306 0.679899 0.000000
-15.047235 -13.694099 -0.414739 379 0.733306 0.679899 0.000000
-15.047811 -13.694626 -0.408503 355 0.733306 0.679899 0.000000
-15.048816 -13.695543 -0.402274 345 0.733306 0.679899 0.000000
-15.047824 -13.694648 -0.396003 355 0.733306 0.679899 0.000000
-15.047690 -13.694523 -0.389744 359 0.733306 0.679899 0.000000
-15.048751 -13.695485 -0.383524 345 0.733306 0.679899 0.000000
-15.049053 -13.695756 -0.377281 375 0.733306 0.679899 0.000000
-15.048699 -13.695443 -0.371014 353 0.733306 0.679899 0.000000
-15.048288 -13.695073 -0.364758 329 0.733306 0.679899 0.000000
-15.047552 -13.694406 -0.358494 331 0.733306 0.679899 0.000000
-15.047043 -13.693932 -0.352229 331 0.733306 0.679899 0.000000
-15.047929 -13.694742 -0.346000 325 0.733306 0.679899 0.000000
-15.047898 -13.694712 -0.339751 325 0.733306 0.679899 0.000000
-15.047272 -13.694143 -0.333486 315 0.733306 0.679899 0.000000
-15.047712 -13.694551 -0.327242 319 0.733306 0.679899 0.000000
-15.048598 -13.695362 -0.321014 327 0.733306 0.679899 0.000000
-15.048178 -13.694971 -0.314757 337 0.733306 0.679899 0.000000
-15.047648 -13.694493 -0.308492 327 0.733306 0.679899 0.000000
-15.047928 -13.694746 -0.302249 311 0.733306 0.679899 0.000000
-15.053702 -13.691722 -0.689955 301 0.733306 0.679899 0.000000
-15.053427 -13.691470 -0.683688 301 0.733306 0.679899 0.000000
-15.053954 -13.691946 -0.677463 333 0.733306 0.679899 0.000000
-15.052429 -13.690564 -0.671137 333 0.733306 0.679899 0.000000
-15.052137 -13.690300 -0.664869 327 0.733306 0.679899 0.000000
-15.052505 -13.690637 -0.658626 347 0.733306 0.679899 0.000000
-15.052165 -13.690322 -0.652359 301 0.733306 0.679899 0.000000
-15.053336 -13.691384 -0.646158 313 0.733306 0.679899 0.000000
-15.052941 -13.691026 -0.639881 305 0.733306 0.679899 0.000000
-15.052053 -13.690226 -0.633589 303 0.733306 0.679899 0.000000
-15.052738 -13.690839 -0.627363 319 0.733306 0.679899 0.000000
-15.053415 -13.691461 -0.621136 325 0.733306 0.679899 0.000000
-15.053165 -13.691241 -0.614879 349 0.733306 0.679899 0.000000
-15.053246 -13.691313 -0.608618 359 0.733306 0.679899 0.000000
-15.053495 -13.691542 -0.602375 355 0.733306 0.679899 0.000000
-15.052758 -13.690874 -0.596092 317 0.733306 0.679899 0.000000
-15.052354 -13.690495 -0.589826 325 0.733306 0.679899 0.000000
-15.052587 -13.690711 -0.583583 337 0.733306 0.679899 0.000000
-15.053688 -13.691718 -0.577373 323 0.733306 0.679899 0.000000
-15.053388 -13.691448 -0.571106 331 0.733306 0.679899 0.000000
-15.053731 -13.691751 -0.564862 337 0.733306 0.679899 0.000000
-15.054122 -13.692107 -0.558618 327 0.733306 0.679899 0.000000
-15.054294 -13.692274 -0.552377 363 0.733306 0.679899 0.000000
-15.053124 -13.691200 -0.546077 365 0.733306 0.679899 0.000000
-15.051728 -13.689933 -0.539780 333 0.733306 0.679899 0.000000
-15.052819 -13.690932 -0.533560 331 0.733306 0.679899 0.000000
-15.051955 -13.690151 -0.527278 319 0.733306 0.679899 0.000000
-15.050779 -13.689072 -0.520988 327 0.733306 0.679899 0.000000
-15.050895 -13.689181 -0.514737 341 0.733306 0.679899 0.000000
-15.050084 -13.688443 -0.508465 365 0.733306 0.679899 0.000000
-15.051058 -13.689336 -0.502245 341 0.733306 0.679899 0.000000
-15.053875 -13.691895 -0.496079 379 0.733306 0.679899 0.000000
-15.053552 -13.691607 -0.489822 367 0.733306 0.679899 0.000000
-15.051224 -13.689486 -0.483493 335 0.733306 0.679899 0.000000
-15.050294 -13.688640 -0.477212 357 0.733306 0.679899 0.000000
-15.050187 -13.688548 -0.470963 371 0.733306 0.679899 0.000000
-15.050125 -13.688493 -0.464713 347 0.733306 0.679899 0.000000
-15.049953 -13.688335 -0.458455 349 0.733306 0.679899 0.000000
-15.051853 -13.690054 -0.452257 363 0.733306 0.679899 0.000000
-15.052597 -13.690740 -0.446030 357 0.733306 0.679899 0.000000
-15.052479 -13.690627 -0.439771 347 0.733306 0.679899 0.000000
-15.052735 -13.690862 -0.433528 373 0.733306 0.679899 0.000000
-15.052397 -13.690560 -0.427271 351 0.733306 0.679899 0.000000
-15.051785 -13.690006 -0.420997 345 0.733306 0.679899 0.000000
-15.050738 -13.689054 -0.414726 373 0.733306 0.679899 0.000000
-15.051695 -13.689920 -0.408497 379 0.733306 0.679899 0.000000
-15.052652 -13.690787 -0.402268 375 0.733306 0.679899 0.000000
-15.053123 -13.691218 -0.396034 375 0.733306 0.679899 0.000000
-15.052824 -13.690949 -0.389776 363 0.733306 0.679899 0.000000
-15.051173 -13.689454 -0.383482 363 0.733306 0.679899 0.000000
-15.051691 -13.689922 -0.377246 363 0.733306 0.679899 0.000000
-15.052742 -13.690877 -0.371017 361 0.733306 0.679899 0.000000
-15.052818 -13.690956 -0.364766 333 0.733306 0.679899 0.000000
-15.052261 -13.690444 -0.358511 337 0.733306 0.679899 0.000000
-15.051850 -13.690074 -0.352244 323 0.733306 0.679899 0.000000
-15.050621 -13.688951 -0.345966 337 0.733306 0.679899 0.000000
-15.050480 -13.688832 -0.339717 313 0.733306 0.679899 0.000000
-15.051309 -13.689586 -0.333489 309 0.733306 0.679899 0.000000
-15.051867 -13.690086 -0.327244 341 0.733306 0.679899 0.000000
-15.051608 -13.689860 -0.320996 363 0.733306 0.679899 0.000000
-15.051355 -13.689628 -0.314738 319 0.733306 0.679899 0.000000
-15.050450 -13.688801 -0.308466 323 0.733306 0.679899 0.000000
-15.050136 -13.688519 -0.302219 321 0.733306 0.679899 0.000000
-15.058720 -13.688490 -0.690017 293 0.733306 0.679899 0.000000
-15.056056 -13.686065 -0.683642 321 0.733306 0.679899 0.000000
-15.056099 -13.686117 -0.677381 291 0.733306 0.679899 0.000000
-15.057931 -13.687779 -0.671204 305 0.733306 0.679899 0.000000
-15.057425 -13.687321 -0.664928 317 0.733306 0.679899 0.000000
-15.056434 -13.686426 -0.658637 317 0.733306 0.679899 0.000000
-15.056578 -13.686560 -0.652386 333 0.733306 0.679899 0.000000
-15.056828 -13.686790 -0.646143 317 0.733306 0.679899 0.000000
-15.057776 -13.687651 -0.639925 297 0.733306 0.679899 0.000000
-15.058948 -13.688713 -0.633714 317 0.733306 0.679899 0.000000
-15.058600 -13.688406 -0.627447 311 0.733306 0.679899 0.000000
-15.057768 -13.687650 -0.621164 339 0.733306 0.679899 0.000000
-15.058446 -13.688270 -0.614928 335 0.733306 0.679899 0.000000
-15.059609 -13.689326 -0.608727 327 0.733306 0.679899 0.000000
-15.058492 -13.688318 -0.602427 325 0.733306 0.679899 0.000000
-15.056837 -13.686809 -0.596102 347 0.733306 0.679899 0.000000
-15.056053 -13.686103 -0.589819 353 0.733306 0.679899 0.000000
-15.056994 -13.686958 -0.583600 351 0.733306 0.679899 0.000000
-15.057610 -13.687515 -0.577375 351 0.733306 0.679899 0.000000
-15.056222 -13.686268 -0.571067 337 0.733306 0.679899 0.000000
-15.056779 -13.686767 -0.564832 351 0.733306 0.679899 0.000000
-15.057499 -13.687433 -0.558605 355 0.733306 0.679899 0.000000
-15.056848 -13.686847 -0.552331 381 0.733306 0.679899 0.000000
-15.055522 -13.685636 -0.546033 365 0.733306 0.679899 0.000000
-15.055088 -13.685246 -0.539767 349 0.733306 0.679899 0.000000
-15.056618 -13.686644 -0.533563 341 0.733306 0.679899 0.000000
-15.057494 -13.687434 -0.527344 319 0.733306 0.679899 0.000000
-15.057447 -13.687391 -0.521085 325 0.733306 0.679899 0.000000
-15.056314 -13.686370 -0.514795 331 0.733306 0.679899 0.000000
-15.056428 -13.686480 -0.508544 347 0.733306 0.679899 0.000000
-15.057830 -13.687751 -0.502341 347 0.733306 0.679899 0.000000
-15.056432 -13.686482 -0.496043 339 0.733306 0.679899 0.000000
-15.056102 -13.686189 -0.489776 371 0.733306 0.679899 0.000000
-15.055992 -13.686095 -0.483527 361 0.733306 0.679899 0.000000
-15.055605 -13.685742 -0.477260 367 0.733306 0.679899 0.000000
-15.056369 -13.686432 -0.471033 349 0.733306 0.679899 0.000000
-15.054090 -13.684362 -0.464714 341 0.733306 0.679899 0.000000
-15.054023 -13.684315 -0.458465 365 0.733306 0.679899 0.000000
-15.056181 -13.686275 -0.452275 371 0.733306 0.679899 0.000000
-15.054487 -13.684733 -0.445970 355 0.733306 0.679899 0.000000
-15.054530 -13.684773 -0.439719 345 0.733306 0.679899 0.000000
-15.055702 -13.685849 -0.433508 355 0.733306 0.679899 0.000000
-15.056182 -13.686288 -0.427264 391 0.733306 0.679899 0.000000
-15.056493 -13.686567 -0.421021 387 0.733306 0.679899 0.000000
-15.056306 -13.686399 -0.414772 357 0.733306 0.679899 0.000000
-15.056132 -13.686241 -0.408514 367 0.733306 0.679899 0.000000
-15.055521 -13.685687 -0.402249 365 0.733306 0.679899 0.000000
-15.054676 -13.684933 -0.395977 337 0.733306 0.679899 0.000000
-15.053946 -13.684271 -0.389704 331 0.733306 0.679899 0.000000
-15.053870 -13.684203 -0.383454 335 0.733306 0.679899 0.000000
-15.053784 -13.684129 -0.377205 321 0.733306 0.679899 0.000000
-15.054629 -13.684895 -0.370977 329 0.733306 0.679899 0.000000
-15.055300 -13.685510 -0.364740 341 0.733306 0.679899 0.000000
-15.057759 -13.687746 -0.358548 341 0.733306 0.679899 0.000000
-15.058278 -13.688216 -0.352303 341 0.733306 0.679899 0.000000
-15.055261 -13.685483 -0.345990 345 0.733306 0.679899 0.000000
-15.054523 -13.684815 -0.339727 355 0.733306 0.679899 0.000000
-15.056170 -13.686306 -0.333512 341 0.733306 0.679899 0.000000
-15.055536 -13.685734 -0.327247 323 0.733306 0.679899 0.000000
-15.054848 -13.685117 -0.320984 323 0.733306 0.679899 0.000000
-15.055017 -13.685269 -0.314742 333 0.733306 0.679899 0.000000
-15.055569 -13.685778 -0.308496 357 0.733306 0.679899 0.000000
-15.056135 -13.686284 -0.302261 369 0.733306 0.679899 0.000000
-15.061500 -13.681186 -0.689919 309 0.733306 0.679899 0.000000
-15.063227 -13.682754 -0.683743 285 0.733306 0.679899 0.000000
-15.062673 -13.682256 -0.677458 335 0.733306 0.679899 0.000000
-15.061632 -13.681310 -0.671158 315 0.733306 0.679899 0.000000
-15.062098 -13.681736 -0.664923 319 0.733306 0.679899 0.000000
-15.062242 -13.681869 -0.658672 307 0.733306 0.679899 0.000000
-15.062285 -13.681910 -0.652421 313 0.733306 0.679899 0.000000
-15.063249 -13.682782 -0.646202 337 0.733306 0.679899 0.000000
-15.063387 -13.682911 -0.639961 327 0.733306 0.679899 0.000000
-15.062116 -13.681755 -0.633652 311 0.733306 0.679899 0.000000
-15.060146 -13.679970 -0.627310 303 0.733306 0.679899 0.000000
-15.062065 -13.681715 -0.621142 327 0.733306 0.679899 0.000000
-15.063618 -13.683119 -0.614948 315 0.733306 0.679899 0.000000
-15.062888 -13.682457 -0.608665 315 0.733306 0.679899 0.000000
-15.060903 -13.680657 -0.602333 345 0.733306 0.679899 0.000000
-15.060825 -13.680589 -0.596073 319 0.733306 0.679899 0.000000
-15.063069 -13.682618 -0.589902 345 0.733306 0.679899 0.000000
-15.062006 -13.681654 -0.583612 331 0.733306 0.679899 0.000000
-15.061540 -13.681239 -0.577336 327 0.733306 0.679899 0.000000
-15.061717 -13.681398 -0.571094 351 0.733306 0.679899 0.000000
-15.061678 -13.681361 -0.564835 353 0.733306 0.679899 0.000000
-15.061156 -13.680889 -0.558569 311 0.733306 0.679899 0.000000
-15.061708 -13.681397 -0.552334 353 0.733306 0.679899 0.000000
-15.062426 -13.682049 -0.546107 369 0.733306 0.679899 0.000000
-15.061951 -13.681615 -0.539832 329 0.733306 0.679899 0.000000
-15.061635 -13.681332 -0.533574 341 0.733306 0.679899 0.000000
-15.061700 -13.681390 -0.527324 343 0.733306 0.679899 0.000000
-15.062147 -13.681788 -0.521079 347 0.733306 0.679899 0.000000
-15.061179 -13.680912 -0.514798 357 0.733306 0.679899 0.000000
-15.060744 -13.680522 -0.508532 379 0.733306 0.679899 0.000000
-15.061876 -13.681554 -0.502311 353 0.733306 0.679899 0.000000
-15.062268 -13.681909 -0.496078 363 0.733306 0.679899 0.000000
-15.060641 -13.680432 -0.489772 367 0.733306 0.679899 0.000000
-15.059346 -13.679246 -0.483484 363 0.733306 0.679899 0.000000
-15.059014 -13.678951 -0.477217 349 0.733306 0.679899 0.000000
-15.058848 -13.678800 -0.470959 331 0.733306 0.679899 0.000000
-15.060577 -13.680368 -0.464762 367 0.733306 0.679899 0.000000
-15.061708 -13.681399 -0.458542 365 0.733306 0.679899 0.000000
-15.060669 -13.680453 -0.452261 341 0.733306 0.679899 0.000000
-15.061252 -13.680985 -0.446026 361 0.733306 0.679899 0.000000
-15.060159 -13.679996 -0.439746 359 0.733306 0.679899 0.000000
-15.059825 -13.679688 -0.433489 381 0.733306 0.679899 0.000000
-15.062411 -13.682039 -0.427305 357 0.733306 0.679899 0.000000
-15.063528 -13.683058 -0.421084 385 0.733306 0.679899 0.000000
-15.063521 -13.683046 -0.414834 363 0.733306 0.679899 0.000000
-15.060837 -13.680617 -0.408509 355 0.733306 0.679899 0.000000
-15.060391 -13.680206 -0.402253 357 0.733306 0.679899 0.000000
-15.062264 -13.681915 -0.396045 349 0.733306 0.679899 0.000000
-15.061098 -13.680856 -0.389766 349 0.733306 0.679899 0.000000
-15.061734 -13.681430 -0.383530 337 0.733306 0.679899 0.000000
-15.061976 -13.681653 -0.377287 305 0.733306 0.679899 0.000000
-15.061731 -13.681427 -0.371030 367 0.733306 0.679899 0.000000
-15.061916 -13.681592 -0.364778 357 0.733306 0.679899 0.000000
-15.062490 -13.682118 -0.358542 367 0.733306 0.679899 0.000000
-15.061907 -13.681597 -0.352277 333 0.733306 0.679899 0.000000
-15.059769 -13.679652 -0.345987 315 0.733306 0.679899 0.000000
-15.059461 -13.679377 -0.339730 331 0.733306 0.679899 0.000000
-15.060729 -13.680528 -0.333508 343 0.733306 0.679899 0.000000
-15.059769 -13.679658 -0.327237 341 0.733306 0.679899 0.000000
-15.058976 -13.678933 -0.320974 357 0.733306 0.679899 0.000000
-15.060614 -13.680417 -0.314749 339 0.733306 0.679899 0.000000
-15.061333 -13.681070 -0.308522 347 0.733306 0.679899 0.000000
-15.061025 -13.680795 -0.302264 351 0.733306 0.679899 0.000000
-15.069039 -13.678972 -0.690054 301 0.733306 0.679899 0.000000
-15.067036 -13.677146 -0.683712 293 0.733306 0.679899 0.000000
-15.065885 -13.676099 -0.677403 281 0.733306 0.679899 0.000000
-15.064942 -13.675256 -0.671111 289 0.733306 0.679899 0.000000
-15.065746 -13.675976 -0.664894 307 0.733306 0.679899 0.000000
-15.066218 -13.676408 -0.658659 319 0.733306 0.679899 0.000000
-15.067009 -13.677130 -0.652432 313 0.733306 0.679899 0.000000
-15.068353 -13.678343 -0.646229 307 0.733306 0.679899 0.000000
-15.068117 -13.678137 -0.639971 303 0.733306 0.679899 0.000000
-15.067276 -13.677374 -0.633679 331 0.733306 0.679899 0.000000
-15.066444 -13.676617 -0.627386 345 0.733306 0.679899 0.000000
-15.066206 -13.676396 -0.621128 327 0.733306 0.679899 0.000000
-15.066934 -13.677070 -0.614901 319 0.733306 0.679899 0.000000
-15.067882 -13.677930 -0.608683 345 0.733306 0.679899 0.000000
-15.067207 -13.677312 -0.602399 339 0.733306 0.679899 0.000000
-15.067282 -13.677377 -0.596148 333 0.733306 0.679899 0.000000
-15.067150 -13.677265 -0.589889 337 0.733306 0.679899 0.000000
-15.065926 -13.676147 -0.583590 319 0.733306 0.679899 0.000000
-15.065674 -13.675929 -0.577332 305 0.733306 0.679899 0.000000
-15.064667 -13.675007 -0.571041 355 0.733306 0.679899 0.000000
-15.063158 -13.673637 -0.564725 325 0.733306 0.679899 0.000000
-15.065348 -13.675624 -0.558555 329 0.733306 0.679899 0.000000
-15.067369 -13.677463 -0.552376 321 0.733306 0.679899 0.000000
-15.066076 -13.676291 -0.546078 337 0.733306 0.679899 0.000000
-15.064837 -13.675174 -0.539779 335 0.733306 0.679899 0.000000
-15.066214 -13.676412 -0.533576 349 0.733306 0.679899 0.000000
-15.067186 -13.677305 -0.527357 363 0.733306 0.679899 0.000000
-15.066060 -13.676276 -0.521067 315 0.733306 0.679899 0.000000
-15.066556 -13.676727 -0.514833 365 0.733306 0.679899 0.000000
-15.067051 -13.677176 -0.508588 349 0.733306 0.679899 0.000000
-15.066616 -13.676787 -0.502322 357 0.733306 0.679899 0.000000
-15.065863 -13.676106 -0.496049 375 0.733306 0.679899 0.000000
-15.064942 -13.675267 -0.489767 383 0.733306 0.679899 0.000000
-15.065747 -13.676002 -0.483539 371 0.733306 0.679899 0.000000
-15.067912 -13.677968 -0.477359 365 0.733306 0.679899 0.000000
-15.066930 -13.677079 -0.471068 377 0.733306 0.679899 0.000000
-15.065897 -13.676138 -0.464787 369 0.733306 0.679899 0.000000
-15.066869 -13.677018 -0.458568 365 0.733306 0.679899 0.000000
-15.064964 -13.675296 -0.452256 361 0.733306 0.679899 0.000000
-15.065762 -13.676023 -0.446028 379 0.733306 0.679899 0.000000
-15.067266 -13.677390 -0.439824 371 0.733306 0.679899 0.000000
-15.065145 -13.675458 -0.433514 349 0.733306 0.679899 0.000000
-15.065791 -13.676041 -0.427278 341 0.733306 0.679899 0.000000
-15.068045 -13.678089 -0.421087 357 0.733306 0.679899 0.000000
-15.065970 -13.676208 -0.414786 361 0.733306 0.679899 0.000000
-15.064923 -13.675256 -0.408505 325 0.733306 0.679899 0.000000
-15.064568 -13.674942 -0.402238 351 0.733306 0.679899 0.000000
-15.064173 -13.674583 -0.395982 349 0.733306 0.679899 0.000000
-15.064905 -13.675247 -0.389755 329 0.733306 0.679899 0.000000
-15.065267 -13.675578 -0.383511 353 0.733306 0.679899 0.000000
-15.066168 -13.676388 -0.377283 337 0.733306 0.679899 0.000000
-15.066185 -13.676408 -0.371033 353 0.733306 0.679899 0.000000
-15.064859 -13.675210 -0.364745 381 0.733306 0.679899 0.000000
-15.064887 -13.675237 -0.358494 349 0.733306 0.679899 0.000000
-15.066042 -13.676288 -0.352273 361 0.733306 0.679899 0.000000
-15.066616 -13.676800 -0.346038 367 0.733306 0.679899 0.000000
-15.066960 -13.677117 -0.339795 375 0.733306 0.679899 0.000000
-15.067081 -13.677234 -0.333543 357 0.733306 0.679899 0.000000
-15.066774 -13.676957 -0.327286 355 0.733306 0.679899 0.000000
-15.066251 -13.676472 -0.321031 355 0.733306 0.679899 0.000000
-15.064043 -13.674471 -0.314731 335 0.733306 0.679899 0.000000
-15.063790 -13.674237 -0.308483 353 0.733306 0.679899 0.000000
-15.064286 -13.674689 -0.302238 337 0.733306 0.679899 0.000000
-15.072091 -13.673339 -0.690007 337 0.733306 0.679899 0.000000
-15.071855 -13.673131 -0.683739 311 0.733306 0.679899 0.000000
-15.070107 -13.671548 -0.677415 311 0.733306 0.679899 0.000000
-15.069233 -13.670746 -0.671113 293 0.733306 0.679899 0.000000
-15.069865 -13.671329 -0.664887 289 0.733306 0.679899 0.000000
-15.071322 -13.672644 -0.658693 331 0.733306 0.679899 0.000000
-15.070051 -13.671489 -0.652385 315 0.733306 0.679899 0.000000
-15.070419 -13.671825 -0.646151 305 0.733306 0.679899 0.000000
-15.073101 -13.674266 -0.640006 309 0.733306 0.679899 0.000000
-15.071506 -13.672815 -0.633681 321 0.733306 0.679899 0.000000
-15.069481 -13.670985 -0.627349 319 0.733306 0.679899 0.000000
-15.070541 -13.671947 -0.621139 315 0.733306 0.679899 0.000000
-15.072252 -13.673489 -0.614943 321 0.733306 0.679899 0.000000
-15.071847 -13.673123 -0.608677 325 0.733306 0.679899 0.000000
-15.071445 -13.672759 -0.602410 335 0.733306 0.679899 0.000000
-15.072975 -13.674156 -0.596216 345 0.733306 0.679899 0.000000
-15.071760 -13.673047 -0.589907 357 0.733306 0.679899 0.000000
-15.071134 -13.672480 -0.583633 361 0.733306 0.679899 0.000000
-15.070938 -13.672304 -0.577375 339 0.733306 0.679899 0.000000
-15.070026 -13.671485 -0.571083 329 0.733306 0.679899 0.000000
-15.069724 -13.671202 -0.564816 325 0.733306 0.679899 0.000000
-15.070166 -13.671608 -0.558581 347 0.733306 0.679899 0.000000
-15.072505 -13.673738 -0.552409 323 0.733306 0.679899 0.000000
-15.071665 -13.672976 -0.546127 325 0.733306 0.679899 0.000000
-15.067819 -13.669483 -0.539742 321 0.733306 0.679899 0.000000
-15.070001 -13.671463 -0.533562 339 0.733306 0.679899 0.000000
-15.069739 -13.671224 -0.527304 335 0.733306 0.679899 0.000000
-15.068341 -13.669955 -0.521007 321 0.733306 0.679899 0.000000
-15.070570 -13.671985 -0.514826 361 0.733306 0.679899 0.000000
-15.070621 -13.672031 -0.508576 375 0.733306 0.679899 0.000000
-15.070519 -13.671931 -0.502317 339 0.733306 0.679899 0.000000
-15.070633 -13.672039 -0.496065 329 0.733306 0.679899 0.000000
-15.070198 -13.671650 -0.489799 363 0.733306 0.679899 0.000000
-15.069769 -13.671252 -0.483543 367 0.733306 0.679899 0.000000
-15.070679 -13.672082 -0.477315 361 0.733306 0.679899 0.000000
-15.070029 -13.671496 -0.471040 337 0.733306 0.679899 0.000000
-15.069809 -13.671289 -0.464782 347 0.733306 0.679899 0.000000
-15.072341 -13.673598 -0.458609 365 0.733306 0.679899 0.000000
-15.072127 -13.673396 -0.452351 355 0.733306 0.679899 0.000000
-15.071087 -13.672450 -0.446070 333 0.733306 0.679899 0.000000
-15.068896 -13.670475 -0.439750 341 0.733306 0.679899 0.000000
-15.068349 -13.669971 -0.433485 351 0.733306 0.679899 0.000000
-15.070230 -13.671685 -0.427287 367 0.733306 0.679899 0.000000
-15.069729 -13.671231 -0.421022 331 0.733306 0.679899 0.000000
-15.070201 -13.671649 -0.414788 341 0.733306 0.679899 0.000000
-15.069145 -13.670704 -0.408507 323 0.733306 0.679899 0.000000
-15.069290 -13.670838 -0.402256 303 0.733306 0.679899 0.000000
-15.069977 -13.671453 -0.396029 345 0.733306 0.679899 0.000000
-15.070553 -13.671978 -0.389794 355 0.733306 0.679899 0.000000
-15.070689 -13.672106 -0.383542 343 0.733306 0.679899 0.000000
-15.069037 -13.670610 -0.377247 321 0.733306 0.679899 0.000000
-15.069772 -13.671275 -0.371020 333 0.733306 0.679899 0.000000
-15.069361 -13.670905 -0.364754 327 0.733306 0.679899 0.000000
-15.070260 -13.671713 -0.358526 337 0.733306 0.679899 0.000000
-15.070821 -13.672228 -0.352290 307 0.733306 0.679899 0.000000
-15.069867 -13.671363 -0.346019 343 0.733306 0.679899 0.000000
-15.069073 -13.670637 -0.339756 359 0.733306 0.679899 0.000000
-15.071048 -13.672427 -0.333548 337 0.733306 0.679899 0.000000
-15.072038 -13.673333 -0.327318 325 0.733306 0.679899 0.000000
-15.069829 -13.671332 -0.321019 367 0.733306 0.679899 0.000000
-15.070068 -13.671541 -0.314776 351 0.733306 0.679899 0.000000
-15.071161 -13.672542 -0.308546 349 0.733306 0.679899 0.000000
-15.069763 -13.671273 -0.302269 375 0.733306 0.679899 0.000000
