450
-18.001846 -17.851645 -0.647991 1401 0.722007 0.691886 0.000000
-18.001883 -17.851690 -0.640211 1389 0.722007 0.691886 0.000000
-18.001190 -17.851000 -0.632387 1387 0.722007 0.691886 0.000000
-18.000385 -17.850210 -0.624574 1387 0.722007 0.691886 0.000000
-17.999851 -17.849678 -0.616769 1393 0.722007 0.691886 0.000000
-18.000706 -17.850525 -0.609001 1401 0.722007 0.691886 0.000000
-18.000523 -17.850351 -0.601213 1389 0.722007 0.691886 0.000000
-17.999880 -17.849710 -0.593399 1387 0.722007 0.691886 0.000000
-18.000326 -17.850155 -0.585624 1377 0.722007 0.691886 0.000000
-18.001434 -17.851257 -0.577873 1387 0.722007 0.691886 0.000000
-18.001249 -17.851068 -0.570075 1395 0.722007 0.691886 0.000000
-18.000381 -17.850214 -0.562263 1411 0.722007 0.691886 0.000000
-18.000656 -17.850487 -0.554480 1399 0.722007 0.691886 0.000000
-18.000715 -17.850554 -0.546689 1395 0.722007 0.691886 0.000000
-18.000580 -17.850416 -0.538901 1389 0.722007 0.691886 0.000000
-18.000591 -17.850431 -0.531110 1389 0.722007 0.691886 0.000000
-18.000143 -17.849981 -0.523304 1395 0.722007 0.691886 0.000000
-17.999624 -17.849474 -0.515509 1389 0.722007 0.691886 0.000000
-17.999683 -17.849539 -0.507718 1397 0.722007 0.691886 0.000000
-17.999741 -17.849592 -0.499938 1411 0.722007 0.691886 0.000000
-17.999750 -17.849606 -0.492147 1407 0.722007 0.691886 0.000000
-17.999643 -17.849495 -0.484358 1401 0.722007 0.691886 0.000000
-17.999743 -17.849606 -0.476567 1393 0.722007 0.691886 0.000000
-18.000580 -17.850428 -0.468809 1389 0.722007 0.691886 0.000000
-18.000931 -17.850779 -0.461025 1381 0.722007 0.691886 0.000000
-18.000204 -17.850058 -0.453222 1389 0.722007 0.691886 0.000000
-18.000246 -17.850109 -0.445432 1387 0.722007 0.691886 0.000000
-17.999674 -17.849541 -0.437637 1391 0.722007 0.691886 0.000000
-17.999451 -17.849321 -0.429839 1385 0.722007 0.691886 0.000000
-18.000324 -17.850187 -0.422070 1389 0.722007 0.691886 0.000000
-17.999372 -17.849251 -0.414269 1399 0.722007 0.691886 0.000000
-17.998949 -17.848820 -0.406473 1405 0.722007 0.691886 0.000000
-17.999699 -17.849571 -0.398696 1389 0.722007 0.691886 0.000000
-17.999538 -17.849413 -0.390907 1391 0.722007 0.691886 0.000000
-17.998888 -17.848770 -0.383113 1371 0.722007 0.691886 0.000000
-17.998922 -17.848801 -0.375323 1381 0.722007 0.691886 0.000000
-18.000139 -17.850023 -0.367561 1385 0.722007 0.691886 0.000000
-18.000320 -17.850204 -0.359779 1393 0.722007 0.691886 0.000000
-17.999516 -17.849403 -0.351976 1387 0.722007 0.691886 0.000000
-17.999903 -17.849781 -0.344202 1395 0.722007 0.691886 0.000000
-18.000183 -17.850061 -0.336419 1399 0.722007 0.691886 0.000000
-17.999846 -17.849730 -0.328623 1393 0.722007 0.691886 0.000000
-17.999289 -17.849176 -0.320828 1397 0.722007 0.691886 0.000000
-17.999401 -17.849300 -0.313046 1383 0.722007 0.691886 0.000000
-18.000416 -17.850300 -0.305277 1393 0.722007 0.691886 0.000000
-17.999796 -17.849693 -0.297482 1393 0.722007 0.691886 0.000000
-17.999607 -17.849499 -0.289694 1397 0.722007 0.691886 0.000000
-18.005596 -17.844023 -0.647932 1377 0.722007 0.691886 0.000000
-18.005880 -17.844316 -0.640149 1381 0.722007 0.691886 0.000000
-18.006079 -17.844515 -0.632367 1387 0.722007 0.691886 0.000000
-18.005653 -17.844082 -0.624561 1381 0.722007 0.691886 0.000000
-18.004684 -17.843132 -0.616740 1383 0.722007 0.691886 0.000000
-18.004974 -17.843418 -0.608957 1391 0.722007 0.691886 0.000000
-18.005678 -17.844116 -0.601190 1385 0.722007 0.691886 0.000000
-18.005753 -17.844194 -0.593409 1391 0.722007 0.691886 0.000000
-18.006151 -17.844587 -0.585635 1379 0.722007 0.691886 0.000000
-18.005230 -17.843674 -0.577814 1391 0.722007 0.691886 0.000000
-18.004885 -17.843336 -0.570017 1377 0.722007 0.691886 0.000000
-18.006411 -17.844856 -0.562272 1383 0.722007 0.691886 0.000000
-18.006018 -17.844463 -0.554476 1369 0.722007 0.691886 0.000000
-18.005819 -17.844276 -0.546677 1373 0.722007 0.691886 0.000000
-18.005575 -17.844036 -0.538880 1373 0.722007 0.691886 0.000000
-18.005276 -17.843737 -0.531082 1371 0.722007 0.691886 0.000000
-18.006329 -17.844778 -0.523322 1381 0.722007 0.691886 0.000000
-18.004938 -17.843397 -0.515495 1375 0.722007 0.691886 0.000000
-18.004732 -17.843203 -0.507707 1387 0.722007 0.691886 0.000000
-18.005465 -17.843925 -0.499940 1385 0.722007 0.691886 0.000000
-18.004839 -17.843313 -0.492136 1399 0.722007 0.691886 0.000000
-18.004112 -17.842590 -0.484322 1379 0.722007 0.691886 0.000000
-18.004642 -17.843119 -0.476557 1363 0.722007 0.691886 0.000000
-18.005419 -17.843889 -0.468789 1377 0.722007 0.691886 0.000000
-18.005827 -17.844299 -0.461005 1387 0.722007 0.691886 0.000000
-18.005564 -17.844032 -0.453218 1377 0.722007 0.691886 0.000000
-18.004984 -17.843458 -0.445413 1383 0.722007 0.691886 0.000000
-18.004763 -17.843250 -0.437625 1373 0.722007 0.691886 0.000000
-18.004541 -17.843031 -0.429827 1385 0.722007 0.691886 0.000000
-18.004425 -17.842913 -0.422038 1375 0.722007 0.691886 0.000000
-18.004267 -17.842758 -0.414249 1373 0.722007 0.691886 0.000000
-18.004768 -17.843258 -0.406474 1373 0.722007 0.691886 0.000000
-18.005480 -17.843964 -0.398707 1383 0.722007 0.691886 0.000000
-18.005669 -17.844152 -0.390925 1383 0.722007 0.691886 0.000000
-18.005539 -17.844023 -0.383136 1371 0.722007 0.691886 0.000000
-18.005060 -17.843546 -0.375331 1379 0.722007 0.691886 0.000000
-18.005501 -17.843985 -0.367556 1375 0.722007 0.691886 0.000000
-18.005316 -17.843809 -0.359768 1373 0.722007 0.691886 0.000000
-18.004557 -17.843060 -0.351965 1379 0.722007 0.691886 0.000000
-18.005053 -17.843555 -0.344190 1379 0.722007 0.691886 0.000000
-18.004816 -17.843323 -0.336402 1381 0.722007 0.691886 0.000000
-18.004833 -17.843340 -0.328612 1379 0.722007 0.691886 0.000000
-18.004797 -17.843302 -0.320832 1373 0.722007 0.691886 0.000000
-18.004242 -17.842762 -0.313037 1365 0.722007 0.691886 0.000000
-18.004517 -17.843037 -0.305254 1367 0.722007 0.691886 0.000000
-18.004114 -17.842638 -0.297458 1373 0.722007 0.691886 0.000000
-18.004078 -17.842598 -0.289678 1381 0.722007 0.691886 0.000000
-18.010891 -17.838779 -0.647934 1391 0.722007 0.691886 0.000000
-18.010981 -17.838871 -0.640143 1387 0.722007 0.691886 0.000000
-18.010330 -17.838240 -0.632339 1385 0.722007 0.691886 0.000000
-18.009953 -17.837862 -0.624532 1385 0.722007 0.691886 0.000000
-18.010086 -17.837992 -0.616751 1387 0.722007 0.691886 0.000000
-18.010689 -17.838591 -0.608975 1383 0.722007 0.691886 0.000000
-18.010826 -17.838722 -0.601193 1387 0.722007 0.691886 0.000000
-18.010279 -17.838188 -0.593388 1383 0.722007 0.691886 0.000000
-18.010033 -17.837948 -0.585591 1377 0.722007 0.691886 0.000000
-18.010525 -17.838444 -0.577816 1381 0.722007 0.691886 0.000000
-18.010286 -17.838196 -0.570018 1371 0.722007 0.691886 0.000000
-18.010048 -17.837961 -0.562220 1375 0.722007 0.691886 0.000000
-18.010900 -17.838810 -0.554462 1381 0.722007 0.691886 0.000000
-18.010437 -17.838360 -0.546656 1381 0.722007 0.691886 0.000000
-18.010347 -17.838276 -0.538866 1379 0.722007 0.691886 0.000000
-18.010204 -17.838135 -0.531078 1379 0.722007 0.691886 0.000000
-18.009491 -17.837423 -0.523264 1359 0.722007 0.691886 0.000000
-18.009712 -17.837639 -0.515482 1371 0.722007 0.691886 0.000000
-18.010134 -17.838060 -0.507708 1373 0.722007 0.691886 0.000000
-18.009819 -17.837749 -0.499911 1381 0.722007 0.691886 0.000000
-18.009613 -17.837555 -0.492122 1373 0.722007 0.691886 0.000000
-18.010239 -17.838175 -0.484356 1375 0.722007 0.691886 0.000000
-18.010973 -17.838898 -0.476579 1385 0.722007 0.691886 0.000000
-18.011126 -17.839056 -0.468797 1395 0.722007 0.691886 0.000000
-18.011370 -17.839304 -0.461015 1383 0.722007 0.691886 0.000000
-18.010649 -17.838587 -0.453212 1379 0.722007 0.691886 0.000000
-18.009184 -17.837141 -0.445385 1379 0.722007 0.691886 0.000000
-18.009489 -17.837439 -0.437612 1367 0.722007 0.691886 0.000000
-18.010160 -17.838112 -0.429836 1365 0.722007 0.691886 0.000000
-18.010405 -17.838346 -0.422063 1365 0.722007 0.691886 0.000000
-18.010183 -17.838139 -0.414265 1367 0.722007 0.691886 0.000000
-18.009758 -17.837708 -0.406469 1385 0.722007 0.691886 0.000000
-18.009476 -17.837435 -0.398681 1387 0.722007 0.691886 0.000000
-18.009510 -17.837467 -0.390891 1373 0.722007 0.691886 0.000000
-18.009382 -17.837353 -0.383102 1369 0.722007 0.691886 0.000000
-18.009516 -17.837482 -0.375320 1369 0.722007 0.691886 0.000000
-18.010010 -17.837978 -0.367545 1361 0.722007 0.691886 0.000000
-18.010300 -17.838264 -0.359763 1385 0.722007 0.691886 0.000000
-18.010008 -17.837973 -0.351975 1369 0.722007 0.691886 0.000000
-18.010557 -17.838512 -0.344200 1369 0.722007 0.691886 0.000000
-18.010994 -17.838951 -0.336415 1377 0.722007 0.691886 0.000000
-18.010391 -17.838358 -0.328621 1367 0.722007 0.691886 0.000000
-18.010201 -17.838177 -0.320833 1377 0.722007 0.691886 0.000000
-18.010469 -17.838444 -0.313050 1379 0.722007 0.691886 0.000000
-18.010176 -17.838152 -0.305262 1375 0.722007 0.691886 0.000000
-18.009565 -17.837551 -0.297468 1383 0.722007 0.691886 0.000000
-18.010199 -17.838177 -0.289692 1385 0.722007 0.691886 0.000000
-18.016478 -17.833858 -0.647953 1385 0.722007 0.691886 0.000000
-18.016876 -17.834248 -0.640169 1383 0.722007 0.691886 0.000000
-18.016911 -17.834295 -0.632388 1387 0.722007 0.691886 0.000000
-18.016222 -17.833603 -0.624575 1385 0.722007 0.691886 0.000000
-18.015728 -17.833130 -0.616759 1381 0.722007 0.691886 0.000000
-18.015755 -17.833155 -0.608979 1379 0.722007 0.691886 0.000000
-18.016724 -17.834114 -0.601219 1379 0.722007 0.691886 0.000000
-18.016804 -17.834185 -0.593428 1387 0.722007 0.691886 0.000000
-18.015734 -17.833136 -0.585608 1383 0.722007 0.691886 0.000000
-18.015232 -17.832642 -0.577803 1387 0.722007 0.691886 0.000000
-18.015467 -17.832869 -0.570021 1375 0.722007 0.691886 0.000000
-18.015898 -17.833300 -0.562246 1381 0.722007 0.691886 0.000000
-18.015505 -17.832909 -0.554450 1381 0.722007 0.691886 0.000000
-18.015617 -17.833035 -0.546659 1377 0.722007 0.691886 0.000000
-18.016104 -17.833509 -0.538884 1375 0.722007 0.691886 0.000000
-18.016169 -17.833569 -0.531103 1381 0.722007 0.691886 0.000000
-18.016127 -17.833536 -0.523313 1381 0.722007 0.691886 0.000000
-18.014940 -17.832365 -0.515484 1385 0.722007 0.691886 0.000000
-18.014740 -17.832161 -0.507696 1377 0.722007 0.691886 0.000000
-18.015520 -17.832939 -0.499928 1385 0.722007 0.691886 0.000000
-18.014847 -17.832273 -0.492125 1369 0.722007 0.691886 0.000000
-18.014635 -17.832073 -0.484337 1373 0.722007 0.691886 0.000000
-18.015625 -17.833052 -0.476567 1377 0.722007 0.691886 0.000000
-18.015629 -17.833057 -0.468787 1379 0.722007 0.691886 0.000000
-18.015049 -17.832485 -0.460982 1373 0.722007 0.691886 0.000000
-18.015417 -17.832848 -0.453208 1377 0.722007 0.691886 0.000000
-18.015863 -17.833294 -0.445424 1369 0.722007 0.691886 0.000000
-18.016279 -17.833710 -0.437650 1379 0.722007 0.691886 0.000000
-18.015177 -17.832609 -0.429840 1389 0.722007 0.691886 0.000000
-18.014023 -17.831474 -0.422021 1369 0.722007 0.691886 0.000000
-18.014524 -17.831980 -0.414246 1367 0.722007 0.691886 0.000000
-18.014622 -17.832062 -0.406465 1373 0.722007 0.691886 0.000000
-18.013933 -17.831385 -0.398661 1367 0.722007 0.691886 0.000000
-18.014061 -17.831522 -0.390880 1367 0.722007 0.691886 0.000000
-18.014980 -17.832430 -0.383111 1365 0.722007 0.691886 0.000000
-18.014851 -17.832298 -0.375322 1379 0.722007 0.691886 0.000000
-18.014465 -17.831928 -0.367535 1383 0.722007 0.691886 0.000000
-18.015223 -17.832670 -0.359758 1373 0.722007 0.691886 0.000000
-18.015507 -17.832952 -0.351985 1371 0.722007 0.691886 0.000000
-18.015427 -17.832874 -0.344196 1369 0.722007 0.691886 0.000000
-18.015287 -17.832737 -0.336407 1383 0.722007 0.691886 0.000000
-18.015308 -17.832771 -0.328616 1385 0.722007 0.691886 0.000000
-18.014999 -17.832464 -0.320829 1377 0.722007 0.691886 0.000000
-18.015337 -17.832790 -0.313046 1375 0.722007 0.691886 0.000000
-18.015776 -17.833227 -0.305271 1379 0.722007 0.691886 0.000000
-18.015312 -17.832779 -0.297476 1379 0.722007 0.691886 0.000000
-18.015129 -17.832588 -0.289687 1361 0.722007 0.691886 0.000000
-18.020428 -17.826653 -0.647891 1381 0.722007 0.691886 0.000000
-18.020672 -17.826900 -0.640108 1389 0.722007 0.691886 0.000000
-18.021009 -17.827240 -0.632335 1387 0.722007 0.691886 0.000000
-18.021051 -17.827278 -0.624544 1377 0.722007 0.691886 0.000000
-18.020042 -17.826281 -0.616724 1373 0.722007 0.691886 0.000000
-18.020117 -17.826361 -0.608933 1375 0.722007 0.691886 0.000000
-18.020876 -17.827103 -0.601175 1387 0.722007 0.691886 0.000000
-18.021471 -17.827698 -0.593409 1379 0.722007 0.691886 0.000000
-18.022017 -17.828239 -0.585634 1375 0.722007 0.691886 0.000000
-18.021570 -17.827803 -0.577828 1373 0.722007 0.691886 0.000000
-18.021589 -17.827822 -0.570038 1377 0.722007 0.691886 0.000000
-18.021498 -17.827738 -0.562248 1373 0.722007 0.691886 0.000000
-18.021524 -17.827765 -0.554458 1373 0.722007 0.691886 0.000000
-18.021015 -17.827263 -0.546663 1373 0.722007 0.691886 0.000000
-18.020676 -17.826918 -0.538856 1379 0.722007 0.691886 0.000000
-18.020992 -17.827238 -0.531083 1377 0.722007 0.691886 0.000000
-18.020847 -17.827093 -0.523294 1381 0.722007 0.691886 0.000000
-18.021122 -17.827370 -0.515511 1381 0.722007 0.691886 0.000000
-18.021078 -17.827322 -0.507721 1379 0.722007 0.691886 0.000000
-18.020864 -17.827124 -0.499923 1383 0.722007 0.691886 0.000000
-18.021551 -17.827793 -0.492156 1385 0.722007 0.691886 0.000000
-18.022278 -17.828524 -0.484389 1385 0.722007 0.691886 0.000000
-18.022173 -17.828413 -0.476600 1383 0.722007 0.691886 0.000000
-18.021959 -17.828213 -0.468802 1383 0.722007 0.691886 0.000000
-18.021751 -17.828003 -0.461014 1381 0.722007 0.691886 0.000000
-18.021484 -17.827745 -0.453216 1371 0.722007 0.691886 0.000000
-18.021641 -17.827892 -0.445434 1367 0.722007 0.691886 0.000000
-18.021412 -17.827679 -0.437646 1367 0.722007 0.691886 0.000000
-18.020885 -17.827150 -0.429841 1375 0.722007 0.691886 0.000000
-18.020664 -17.826929 -0.422053 1377 0.722007 0.691886 0.000000
-18.020815 -17.827085 -0.414271 1383 0.722007 0.691886 0.000000
-18.020485 -17.826759 -0.406474 1387 0.722007 0.691886 0.000000
-18.020107 -17.826384 -0.398678 1373 0.722007 0.691886 0.000000
-18.020975 -17.827244 -0.390909 1385 0.722007 0.691886 0.000000
-18.021568 -17.827837 -0.383143 1391 0.722007 0.691886 0.000000
-18.021181 -17.827452 -0.375347 1369 0.722007 0.691886 0.000000
-18.021107 -17.827381 -0.367557 1375 0.722007 0.691886 0.000000
-18.021143 -17.827415 -0.359767 1379 0.722007 0.691886 0.000000
-18.020849 -17.827135 -0.351980 1375 0.722007 0.691886 0.000000
-18.020979 -17.827259 -0.344198 1373 0.722007 0.691886 0.000000
-18.020952 -17.827242 -0.336408 1371 0.722007 0.691886 0.000000
-18.020037 -17.826334 -0.328607 1363 0.722007 0.691886 0.000000
-18.020266 -17.826557 -0.320824 1373 0.722007 0.691886 0.000000
-18.020626 -17.826916 -0.313051 1385 0.722007 0.691886 0.000000
-18.021383 -17.827673 -0.305273 1391 0.722007 0.691886 0.000000
-18.021650 -17.827938 -0.297491 1375 0.722007 0.691886 0.000000
-18.021040 -17.827339 -0.289696 1369 0.722007 0.691886 0.000000
-18.026653 -17.821915 -0.647926 1389 0.722007 0.691886 0.000000
-18.026478 -17.821745 -0.640127 1377 0.722007 0.691886 0.000000
-18.027197 -17.822456 -0.632360 1381 0.722007 0.691886 0.000000
-18.027269 -17.822535 -0.624579 1397 0.722007 0.691886 0.000000
-18.027197 -17.822464 -0.616780 1387 0.722007 0.691886 0.000000
-18.027081 -17.822346 -0.608991 1389 0.722007 0.691886 0.000000
-18.027056 -17.822329 -0.601201 1381 0.722007 0.691886 0.000000
-18.027027 -17.822296 -0.593411 1381 0.722007 0.691886 0.000000
-18.025951 -17.821239 -0.585591 1359 0.722007 0.691886 0.000000
-18.025509 -17.820797 -0.577785 1369 0.722007 0.691886 0.000000
-18.026157 -17.821434 -0.570019 1379 0.722007 0.691886 0.000000
-18.026854 -17.822126 -0.562252 1377 0.722007 0.691886 0.000000
-18.026350 -17.821630 -0.554447 1377 0.722007 0.691886 0.000000
-18.026882 -17.822161 -0.546671 1373 0.722007 0.691886 0.000000
-18.027267 -17.822538 -0.538897 1367 0.722007 0.691886 0.000000
-18.026075 -17.821373 -0.531069 1353 0.722007 0.691886 0.000000
-18.025930 -17.821230 -0.523280 1369 0.722007 0.691886 0.000000
-18.026663 -17.821953 -0.515513 1377 0.722007 0.691886 0.000000
-18.027197 -17.822481 -0.507737 1369 0.722007 0.691886 0.000000
-18.027044 -17.822332 -0.499949 1369 0.722007 0.691886 0.000000
-18.026892 -17.822182 -0.492160 1375 0.722007 0.691886 0.000000
-18.026428 -17.821720 -0.484354 1371 0.722007 0.691886 0.000000
-18.026321 -17.821623 -0.476565 1375 0.722007 0.691886 0.000000
-18.026840 -17.822138 -0.468790 1389 0.722007 0.691886 0.000000
-18.026999 -17.822289 -0.461008 1373 0.722007 0.691886 0.000000
-18.026421 -17.821728 -0.453213 1375 0.722007 0.691886 0.000000
-18.025993 -17.821297 -0.445407 1381 0.722007 0.691886 0.000000
-18.026245 -17.821552 -0.437635 1373 0.722007 0.691886 0.000000
-18.026646 -17.821957 -0.429851 1369 0.722007 0.691886 0.000000
-18.026688 -17.821997 -0.422070 1375 0.722007 0.691886 0.000000
-18.025478 -17.820805 -0.414251 1371 0.722007 0.691886 0.000000
-18.025208 -17.820530 -0.406464 1379 0.722007 0.691886 0.000000
-18.025921 -17.821236 -0.398687 1363 0.722007 0.691886 0.000000
-18.026463 -17.821783 -0.390911 1383 0.722007 0.691886 0.000000
-18.026705 -17.822018 -0.383139 1377 0.722007 0.691886 0.000000
-18.026686 -17.822006 -0.375349 1379 0.722007 0.691886 0.000000
-18.026556 -17.821877 -0.367560 1367 0.722007 0.691886 0.000000
-18.026272 -17.821602 -0.359762 1361 0.722007 0.691886 0.000000
-18.025675 -17.821003 -0.351968 1377 0.722007 0.691886 0.000000
-18.025541 -17.820879 -0.344179 1377 0.722007 0.691886 0.000000
-18.025459 -17.820803 -0.336390 1377 0.722007 0.691886 0.000000
-18.025795 -17.821127 -0.328616 1375 0.722007 0.691886 0.000000
-18.026119 -17.821455 -0.320833 1377 0.722007 0.691886 0.000000
-18.025982 -17.821318 -0.313044 1383 0.722007 0.691886 0.000000
-18.026047 -17.821390 -0.305263 1381 0.722007 0.691886 0.000000
-18.026213 -17.821547 -0.297482 1383 0.722007 0.691886 0.000000
-18.026333 -17.821676 -0.289700 1379 0.722007 0.691886 0.000000
-18.032612 -17.816719 -0.647944 1383 0.722007 0.691886 0.000000
-18.032600 -17.816698 -0.640154 1377 0.722007 0.691886 0.000000
-18.032898 -17.816992 -0.632371 1381 0.722007 0.691886 0.000000
-18.032722 -17.816822 -0.624573 1375 0.722007 0.691886 0.000000
-18.032383 -17.816492 -0.616776 1371 0.722007 0.691886 0.000000
-18.032207 -17.816320 -0.608977 1377 0.722007 0.691886 0.000000
-18.032337 -17.816446 -0.601196 1373 0.722007 0.691886 0.000000
-18.032473 -17.816576 -0.593415 1387 0.722007 0.691886 0.000000
-18.031971 -17.816093 -0.585609 1369 0.722007 0.691886 0.000000
-18.032253 -17.816376 -0.577826 1371 0.722007 0.691886 0.000000
-18.032265 -17.816389 -0.570036 1371 0.722007 0.691886 0.000000
-18.032026 -17.816154 -0.562238 1377 0.722007 0.691886 0.000000
-18.031477 -17.815607 -0.554433 1383 0.722007 0.691886 0.000000
-18.031233 -17.815367 -0.546635 1381 0.722007 0.691886 0.000000
-18.032137 -17.816259 -0.538876 1369 0.722007 0.691886 0.000000
-18.032297 -17.816425 -0.531095 1369 0.722007 0.691886 0.000000
-18.031841 -17.815966 -0.523299 1367 0.722007 0.691886 0.000000
-18.031635 -17.815773 -0.515501 1361 0.722007 0.691886 0.000000
-18.032167 -17.816301 -0.507725 1375 0.722007 0.691886 0.000000
-18.032076 -17.816204 -0.499936 1365 0.722007 0.691886 0.000000
-18.031815 -17.815948 -0.492148 1371 0.722007 0.691886 0.000000
-18.032324 -17.816458 -0.484373 1389 0.722007 0.691886 0.000000
-18.032858 -17.816986 -0.476598 1383 0.722007 0.691886 0.000000
-18.032698 -17.816832 -0.468809 1375 0.722007 0.691886 0.000000
-18.032124 -17.816263 -0.461005 1379 0.722007 0.691886 0.000000
-18.031857 -17.816004 -0.453207 1365 0.722007 0.691886 0.000000
-18.031845 -17.815998 -0.445417 1367 0.722007 0.691886 0.000000
-18.031731 -17.815880 -0.437628 1375 0.722007 0.691886 0.000000
-18.031881 -17.816036 -0.429846 1371 0.722007 0.691886 0.000000
-18.031559 -17.815718 -0.422059 1375 0.722007 0.691886 0.000000
-18.031700 -17.815855 -0.414268 1375 0.722007 0.691886 0.000000
-18.032158 -17.816305 -0.406493 1363 0.722007 0.691886 0.000000
-18.031988 -17.816143 -0.398704 1365 0.722007 0.691886 0.000000
-18.031805 -17.815966 -0.390916 1377 0.722007 0.691886 0.000000
-18.032095 -17.816254 -0.383133 1371 0.722007 0.691886 0.000000
-18.031921 -17.816086 -0.375344 1369 0.722007 0.691886 0.000000
-18.031425 -17.815598 -0.367549 1369 0.722007 0.691886 0.000000
-18.032183 -17.816339 -0.359782 1379 0.722007 0.691886 0.000000
-18.031790 -17.815964 -0.351985 1365 0.722007 0.691886 0.000000
-18.031250 -17.815422 -0.344190 1367 0.722007 0.691886 0.000000
-18.031633 -17.815800 -0.336406 1371 0.722007 0.691886 0.000000
-18.031916 -17.816080 -0.328623 1375 0.722007 0.691886 0.000000
-18.031828 -17.815998 -0.320844 1369 0.722007 0.691886 0.000000
-18.031736 -17.815912 -0.313055 1373 0.722007 0.691886 0.000000
-18.031912 -17.816090 -0.305273 1369 0.722007 0.691886 0.000000
-18.031658 -17.815842 -0.297485 1377 0.722007 0.691886 0.000000
-18.030737 -17.814928 -0.289684 1381 0.722007 0.691886 0.000000
-18.038582 -17.811089 -0.647955 1383 0.722007 0.691886 0.000000
-18.038158 -17.810671 -0.640149 1375 0.722007 0.691886 0.000000
-18.038029 -17.810541 -0.632350 1385 0.722007 0.691886 0.000000
-18.038063 -17.810574 -0.624560 1373 0.722007 0.691886 0.000000
-18.038036 -17.810556 -0.616770 1377 0.722007 0.691886 0.000000
-18.037609 -17.810123 -0.608974 1365 0.722007 0.691886 0.000000
-18.038363 -17.810875 -0.601206 1375 0.722007 0.691886 0.000000
-18.038273 -17.810791 -0.593417 1389 0.722007 0.691886 0.000000
-18.037636 -17.810158 -0.585603 1379 0.722007 0.691886 0.000000
-18.037601 -17.810133 -0.577813 1379 0.722007 0.691886 0.000000
-18.037052 -17.809586 -0.570008 1381 0.722007 0.691886 0.000000
-18.036917 -17.809450 -0.562219 1387 0.722007 0.691886 0.000000
-18.038015 -17.810543 -0.554458 1387 0.722007 0.691886 0.000000
-18.038452 -17.810968 -0.546684 1383 0.722007 0.691886 0.000000
-18.038303 -17.810831 -0.538895 1387 0.722007 0.691886 0.000000
-18.037653 -17.810188 -0.531091 1373 0.722007 0.691886 0.000000
-18.037500 -17.810038 -0.523293 1363 0.722007 0.691886 0.000000
-18.038134 -17.810663 -0.515526 1367 0.722007 0.691886 0.000000
-18.038090 -17.810617 -0.507737 1369 0.722007 0.691886 0.000000
-18.037836 -17.810371 -0.499939 1363 0.722007 0.691886 0.000000
-18.037466 -17.810013 -0.492142 1379 0.722007 0.691886 0.000000
-18.037735 -17.810282 -0.484359 1379 0.722007 0.691886 0.000000
-18.037891 -17.810431 -0.476578 1371 0.722007 0.691886 0.000000
-18.037727 -17.810268 -0.468789 1365 0.722007 0.691886 0.000000
-18.037519 -17.810074 -0.460991 1369 0.722007 0.691886 0.000000
-18.037827 -17.810373 -0.453218 1379 0.722007 0.691886 0.000000
-18.037767 -17.810314 -0.445428 1377 0.722007 0.691886 0.000000
-18.037188 -17.809742 -0.437623 1373 0.722007 0.691886 0.000000
-18.037128 -17.809683 -0.429844 1377 0.722007 0.691886 0.000000
-18.037689 -17.810236 -0.422068 1367 0.722007 0.691886 0.000000
-18.038715 -17.811255 -0.414298 1371 0.722007 0.691886 0.000000
-18.038181 -17.810734 -0.406503 1369 0.722007 0.691886 0.000000
-18.036917 -17.809483 -0.398685 1363 0.722007 0.691886 0.000000
-18.038149 -17.810701 -0.390933 1385 0.722007 0.691886 0.000000
-18.038174 -17.810728 -0.383143 1379 0.722007 0.691886 0.000000
-18.037790 -17.810345 -0.375346 1381 0.722007 0.691886 0.000000
-18.038126 -17.810684 -0.367573 1373 0.722007 0.691886 0.000000
-18.038473 -17.811029 -0.359789 1371 0.722007 0.691886 0.000000
-18.037714 -17.810280 -0.351986 1379 0.722007 0.691886 0.000000
-18.037220 -17.809792 -0.344191 1375 0.722007 0.691886 0.000000
-18.038280 -17.810843 -0.336431 1385 0.722007 0.691886 0.000000
-18.037786 -17.810352 -0.328635 1383 0.722007 0.691886 0.000000
-18.036648 -17.809231 -0.320826 1377 0.722007 0.691886 0.000000
-18.036978 -17.809566 -0.313042 1383 0.722007 0.691886 0.000000
-18.037207 -17.809786 -0.305270 1383 0.722007 0.691886 0.000000
-18.036539 -17.809130 -0.297466 1369 0.722007 0.691886 0.000000
-18.036970 -17.809559 -0.289692 1375 0.722007 0.691886 0.000000
-18.044716 -17.805607 -0.647964 1383 0.722007 0.691886 0.000000
-18.044331 -17.805237 -0.640168 1389 0.722007 0.691886 0.000000
-18.044107 -17.805016 -0.632370 1381 0.722007 0.691886 0.000000
-18.043194 -17.804123 -0.624548 1381 0.722007 0.691886 0.000000
-18.043119 -17.804050 -0.616749 1375 0.722007 0.691886 0.000000
-18.043255 -17.804182 -0.608967 1369 0.722007 0.691886 0.000000
-18.043547 -17.804470 -0.601194 1375 0.722007 0.691886 0.000000
-18.044617 -17.805525 -0.593434 1393 0.722007 0.691886 0.000000
-18.044275 -17.805193 -0.585637 1391 0.722007 0.691886 0.000000
-18.044132 -17.805050 -0.577838 1375 0.722007 0.691886 0.000000
-18.044111 -17.805023 -0.570048 1379 0.722007 0.691886 0.000000
-18.043509 -17.804432 -0.562244 1375 0.722007 0.691886 0.000000
-18.044094 -17.805017 -0.554478 1377 0.722007 0.691886 0.000000
-18.044106 -17.805033 -0.546688 1379 0.722007 0.691886 0.000000
-18.042927 -17.803865 -0.538859 1371 0.722007 0.691886 0.000000
-18.042830 -17.803776 -0.531070 1367 0.722007 0.691886 0.000000
-18.043526 -17.804466 -0.523303 1371 0.722007 0.691886 0.000000
-18.043219 -17.804161 -0.515505 1367 0.722007 0.691886 0.000000
-18.042444 -17.803398 -0.507703 1359 0.722007 0.691886 0.000000
-18.042082 -17.803045 -0.499906 1359 0.722007 0.691886 0.000000
-18.042814 -17.803770 -0.492139 1369 0.722007 0.691886 0.000000
-18.043129 -17.804077 -0.484356 1377 0.722007 0.691886 0.000000
-18.043442 -17.804382 -0.476572 1375 0.722007 0.691886 0.000000
-18.043131 -17.804083 -0.468785 1375 0.722007 0.691886 0.000000
-18.043077 -17.804031 -0.460995 1373 0.722007 0.691886 0.000000
-18.043751 -17.804689 -0.453219 1379 0.722007 0.691886 0.000000
-18.043528 -17.804483 -0.445431 1371 0.722007 0.691886 0.000000
-18.043531 -17.804476 -0.437641 1371 0.722007 0.691886 0.000000
-18.043619 -17.804567 -0.429860 1377 0.722007 0.691886 0.000000
-18.043608 -17.804562 -0.422069 1379 0.722007 0.691886 0.000000
-18.043594 -17.804543 -0.414289 1377 0.722007 0.691886 0.000000
-18.043623 -17.804581 -0.406499 1377 0.722007 0.691886 0.000000
-18.043402 -17.804361 -0.398711 1367 0.722007 0.691886 0.000000
-18.042860 -17.803833 -0.390906 1365 0.722007 0.691886 0.000000
-18.042948 -17.803913 -0.383125 1373 0.722007 0.691886 0.000000
-18.043550 -17.804512 -0.375349 1365 0.722007 0.691886 0.000000
-18.043995 -17.804956 -0.367574 1369 0.722007 0.691886 0.000000
-18.042980 -17.803951 -0.359764 1373 0.722007 0.691886 0.000000
-18.042229 -17.803211 -0.351971 1369 0.722007 0.691886 0.000000
-18.042973 -17.803953 -0.344194 1381 0.722007 0.691886 0.000000
-18.043001 -17.803980 -0.336413 1375 0.722007 0.691886 0.000000
-18.042498 -17.803484 -0.328618 1377 0.722007 0.691886 0.000000
-18.042252 -17.803244 -0.320830 1375 0.722007 0.691886 0.000000
-18.042114 -17.803106 -0.313041 1377 0.722007 0.691886 0.000000
-18.042290 -17.803284 -0.305259 1365 0.722007 0.691886 0.000000
-18.042875 -17.803858 -0.297483 1375 0.722007 0.691886 0.000000
-18.043142 -17.804123 -0.289701 1377 0.722007 0.691886 0.000000
-18.049999 -17.799519 -0.647961 1387 0.722007 0.691886 0.000000
-18.049852 -17.799377 -0.609001 1369 0.722007 0.691886 0.000000
-18.050097 -17.799612 -0.601219 1373 0.722007 0.691886 0.000000
-18.049587 -17.799133 -0.523322 1381 0.722007 0.691886 0.000000
-18.049068 -17.798626 -0.515516 1375 0.722007 0.691886 0.000000
-18.049042 -17.798601 -0.468795 1371 0.722007 0.691886 0.000000
-18.050032 -17.799578 -0.461026 1385 0.722007 0.691886 0.000000
-18.050346 -17.799887 -0.453253 1383 0.722007 0.691886 0.000000
-18.049341 -17.798903 -0.445442 1373 0.722007 0.691886 0.000000
-18.048550 -17.798126 -0.437629 1373 0.722007 0.691886 0.000000
-18.048382 -17.797966 -0.429841 1367 0.722007 0.691886 0.000000
-18.049154 -17.798719 -0.422073 1389 0.722007 0.691886 0.000000
-18.048830 -17.798401 -0.414276 1379 0.722007 0.691886 0.000000
-18.048555 -17.798134 -0.406489 1387 0.722007 0.691886 0.000000
-18.048855 -17.798429 -0.398705 1377 0.722007 0.691886 0.000000
-18.048414 -17.797998 -0.390910 1381 0.722007 0.691886 0.000000
-18.048677 -17.798254 -0.375347 1363 0.722007 0.691886 0.000000
-18.048666 -17.798248 -0.367557 1375 0.722007 0.691886 0.000000
-18.048590 -17.798176 -0.359767 1369 0.722007 0.691886 0.000000
-18.048452 -17.798040 -0.351978 1381 0.722007 0.691886 0.000000
-18.048655 -17.798243 -0.336416 1373 0.722007 0.691886 0.000000
-18.049194 -17.798777 -0.328641 1377 0.722007 0.691886 0.000000
-18.048740 -17.798336 -0.320845 1381 0.722007 0.691886 0.000000
-18.048759 -17.798355 -0.313054 1377 0.722007 0.691886 0.000000
-18.049500 -17.799086 -0.305287 1377 0.722007 0.691886 0.000000
-18.049208 -17.798792 -0.297500 1377 0.722007 0.691886 0.000000
-18.048388 -17.797989 -0.289697 1379 0.722007 0.691886 0.000000
