627
-16.394583 -15.203016 -0.666852 291 0.712294 0.701882 0.000000
-16.397396 -15.205620 -0.660095 301 0.712294 0.701882 0.000000
-16.397713 -15.205918 -0.653232 331 0.712294 0.701882 0.000000
-16.397434 -15.205662 -0.646344 343 0.712294 0.701882 0.000000
-16.396723 -15.205004 -0.639441 307 0.712294 0.701882 0.000000
-16.397678 -15.205880 -0.632612 365 0.712294 0.701882 0.000000
-16.400333 -15.208344 -0.625837 341 0.712294 0.701882 0.000000
-16.398918 -15.207031 -0.618910 355 0.712294 0.701882 0.000000
-16.396112 -15.204429 -0.611936 343 0.712294 0.701882 0.000000
-16.394695 -15.203114 -0.605009 321 0.712294 0.701882 0.000000
-16.396915 -15.205177 -0.598218 341 0.712294 0.701882 0.000000
-16.398712 -15.206844 -0.591411 363 0.712294 0.701882 0.000000
-16.396812 -15.205077 -0.584469 353 0.712294 0.701882 0.000000
-16.397366 -15.205592 -0.577614 343 0.712294 0.701882 0.000000
-16.399105 -15.207215 -0.570807 339 0.712294 0.701882 0.000000
-16.397350 -15.205589 -0.563873 335 0.712294 0.701882 0.000000
-16.394962 -15.203362 -0.556916 311 0.712294 0.701882 0.000000
-16.395411 -15.203781 -0.550061 327 0.712294 0.701882 0.000000
-16.394716 -15.203151 -0.543167 329 0.712294 0.701882 0.000000
-16.396769 -15.205052 -0.536368 323 0.712294 0.701882 0.000000
-16.399363 -15.207452 -0.529574 351 0.712294 0.701882 0.000000
-16.395353 -15.203730 -0.522581 385 0.712294 0.701882 0.000000
-16.394398 -15.202848 -0.515680 351 0.712294 0.701882 0.000000
-16.396605 -15.204899 -0.508879 351 0.712294 0.701882 0.000000
-16.397520 -15.205745 -0.502030 367 0.712294 0.701882 0.000000
-16.396990 -15.205259 -0.495145 361 0.712294 0.701882 0.000000
-16.395699 -15.204059 -0.488237 371 0.712294 0.701882 0.000000
-16.397097 -15.205356 -0.481414 357 0.712294 0.701882 0.000000
-16.398499 -15.206655 -0.474580 337 0.712294 0.701882 0.000000
-16.397690 -15.205907 -0.467688 347 0.712294 0.701882 0.000000
-16.398275 -15.206447 -0.460832 343 0.712294 0.701882 0.000000
-16.397894 -15.206094 -0.453946 331 0.712294 0.701882 0.000000
-16.396715 -15.204995 -0.447046 319 0.712294 0.701882 0.000000
-16.396061 -15.204396 -0.440162 347 0.712294 0.701882 0.000000
-16.395784 -15.204140 -0.433285 351 0.712294 0.701882 0.000000
-16.395994 -15.204328 -0.426423 359 0.712294 0.701882 0.000000
-16.395008 -15.203423 -0.419522 381 0.712294 0.701882 0.000000
-16.396975 -15.205243 -0.412703 361 0.712294 0.701882 0.000000
-16.396372 -15.204686 -0.405819 355 0.712294 0.701882 0.000000
-16.396358 -15.204679 -0.398949 377 0.712294 0.701882 0.000000
-16.397676 -15.205899 -0.392116 381 0.712294 0.701882 0.000000
-16.396475 -15.204782 -0.385217 361 0.712294 0.701882 0.000000
-16.398663 -15.206806 -0.378397 373 0.712294 0.701882 0.000000
-16.397186 -15.205442 -0.371490 363 0.712294 0.701882 0.000000
-16.398607 -15.206758 -0.364657 311 0.712294 0.701882 0.000000
-16.400139 -15.208177 -0.357822 341 0.712294 0.701882 0.000000
-16.398495 -15.206666 -0.350917 337 0.712294 0.701882 0.000000
-16.399174 -15.207282 -0.344061 345 0.712294 0.701882 0.000000
-16.399946 -15.207999 -0.337204 347 0.712294 0.701882 0.000000
-16.400396 -15.208418 -0.330339 353 0.712294 0.701882 0.000000
-16.398912 -15.207048 -0.323443 371 0.712294 0.701882 0.000000
-16.397861 -15.206078 -0.316553 327 0.712294 0.701882 0.000000
-16.395941 -15.204292 -0.309650 287 0.712294 0.701882 0.000000
-16.395205 -15.203615 -0.302767 305 0.712294 0.701882 0.000000
-16.395439 -15.203821 -0.295905 323 0.712294 0.701882 0.000000
-16.397692 -15.205924 -0.289073 337 0.712294 0.701882 0.000000
-16.398087 -15.206285 -0.282210 311 0.712294 0.701882 0.000000
-16.400860 -15.199146 -0.666911 335 0.712294 0.701882 0.000000
-16.403854 -15.201922 -0.660163 339 0.712294 0.701882 0.000000
-16.403782 -15.201858 -0.653283 339 0.712294 0.701882 0.000000
-16.400713 -15.199007 -0.646292 323 0.712294 0.701882 0.000000
-16.400429 -15.198744 -0.639404 327 0.712294 0.701882 0.000000
-16.402018 -15.200220 -0.632589 293 0.712294 0.701882 0.000000
-16.402586 -15.200747 -0.625744 303 0.712294 0.701882 0.000000
-16.402948 -15.201082 -0.618880 311 0.712294 0.701882 0.000000
-16.403564 -15.201648 -0.612034 325 0.712294 0.701882 0.000000
-16.402845 -15.200983 -0.605131 345 0.712294 0.701882 0.000000
-16.403090 -15.201210 -0.598269 351 0.712294 0.701882 0.000000
-16.403486 -15.201586 -0.591415 337 0.712294 0.701882 0.000000
-16.403561 -15.201653 -0.584544 355 0.712294 0.701882 0.000000
-16.402470 -15.200639 -0.577624 353 0.712294 0.701882 0.000000
-16.401577 -15.199808 -0.570722 357 0.712294 0.701882 0.000000
-16.399508 -15.197888 -0.563781 347 0.712294 0.701882 0.000000
-16.399521 -15.197906 -0.556911 361 0.712294 0.701882 0.000000
-16.403292 -15.201409 -0.550165 365 0.712294 0.701882 0.000000
-16.404762 -15.202764 -0.543342 367 0.712294 0.701882 0.000000
-16.405630 -15.203571 -0.536503 367 0.712294 0.701882 0.000000
-16.403383 -15.201485 -0.529554 357 0.712294 0.701882 0.000000
-16.400610 -15.198923 -0.522600 343 0.712294 0.701882 0.000000
-16.400618 -15.198934 -0.515730 341 0.712294 0.701882 0.000000
-16.401644 -15.199882 -0.508890 327 0.712294 0.701882 0.000000
-16.404703 -15.202722 -0.502111 355 0.712294 0.701882 0.000000
-16.404228 -15.202280 -0.495225 335 0.712294 0.701882 0.000000
-16.402142 -15.200347 -0.488285 325 0.712294 0.701882 0.000000
-16.400908 -15.199205 -0.481386 353 0.712294 0.701882 0.000000
-16.402147 -15.200351 -0.474544 377 0.712294 0.701882 0.000000
-16.405151 -15.203133 -0.467766 369 0.712294 0.701882 0.000000
-16.403433 -15.201536 -0.460842 343 0.712294 0.701882 0.000000
-16.402676 -15.200842 -0.453949 373 0.712294 0.701882 0.000000
-16.404335 -15.202375 -0.447123 375 0.712294 0.701882 0.000000
-16.404484 -15.202513 -0.440262 381 0.712294 0.701882 0.000000
-16.401632 -15.199875 -0.433308 369 0.712294 0.701882 0.000000
-16.399637 -15.198031 -0.426387 343 0.712294 0.701882 0.000000
-16.402302 -15.200500 -0.419592 331 0.712294 0.701882 0.000000
-16.402939 -15.201085 -0.412735 385 0.712294 0.701882 0.000000
-16.401201 -15.199471 -0.405822 409 0.712294 0.701882 0.000000
-16.401400 -15.199661 -0.398960 387 0.712294 0.701882 0.000000
-16.403688 -15.201780 -0.392148 365 0.712294 0.701882 0.000000
-16.403992 -15.202066 -0.385285 373 0.712294 0.701882 0.000000
-16.402788 -15.200949 -0.378386 333 0.712294 0.701882 0.000000
-16.402874 -15.201023 -0.371515 319 0.712294 0.701882 0.000000
-16.401508 -15.199759 -0.364618 313 0.712294 0.701882 0.000000
-16.401587 -15.199841 -0.357747 339 0.712294 0.701882 0.000000
-16.404945 -15.202949 -0.350955 377 0.712294 0.701882 0.000000
-16.403734 -15.201825 -0.344056 343 0.712294 0.701882 0.000000
-16.403860 -15.201943 -0.337185 371 0.712294 0.701882 0.000000
-16.405067 -15.203064 -0.330344 351 0.712294 0.701882 0.000000
-16.405027 -15.203023 -0.323474 325 0.712294 0.701882 0.000000
-16.404665 -15.202697 -0.316597 315 0.712294 0.701882 0.000000
-16.404482 -15.202516 -0.309719 323 0.712294 0.701882 0.000000
-16.404173 -15.202234 -0.302841 339 0.712294 0.701882 0.000000
-16.404562 -15.202602 -0.295988 297 0.712294 0.701882 0.000000
-16.405052 -15.203053 -0.289123 301 0.712294 0.701882 0.000000
-16.405111 -15.203109 -0.282252 297 0.712294 0.701882 0.000000
-16.407860 -15.196322 -0.667012 299 0.712294 0.701882 0.000000
-16.408916 -15.197295 -0.660182 321 0.712294 0.701882 0.000000
-16.407621 -15.196101 -0.653254 291 0.712294 0.701882 0.000000
-16.407127 -15.195634 -0.646358 309 0.712294 0.701882 0.000000
-16.407539 -15.196021 -0.639504 303 0.712294 0.701882 0.000000
-16.406393 -15.194962 -0.632585 313 0.712294 0.701882 0.000000
-16.404551 -15.193252 -0.625642 321 0.712294 0.701882 0.000000
-16.403831 -15.192589 -0.618738 323 0.712294 0.701882 0.000000
-16.408365 -15.196783 -0.612036 339 0.712294 0.701882 0.000000
-16.408770 -15.197165 -0.605182 333 0.712294 0.701882 0.000000
-16.404831 -15.193511 -0.598168 327 0.712294 0.701882 0.000000
-16.405289 -15.193936 -0.591314 331 0.712294 0.701882 0.000000
-16.408049 -15.196498 -0.584538 329 0.712294 0.701882 0.000000
-16.409311 -15.197659 -0.577706 349 0.712294 0.701882 0.000000
-16.407076 -15.195595 -0.570757 341 0.712294 0.701882 0.000000
-16.406342 -15.194919 -0.563864 311 0.712294 0.701882 0.000000
-16.408567 -15.196973 -0.557063 321 0.712294 0.701882 0.000000
-16.410780 -15.199029 -0.550262 345 0.712294 0.701882 0.000000
-16.410259 -15.198549 -0.543376 339 0.712294 0.701882 0.000000
-16.407587 -15.196069 -0.536411 361 0.712294 0.701882 0.000000
-16.406424 -15.194998 -0.529502 363 0.712294 0.701882 0.000000
-16.406384 -15.194958 -0.522632 365 0.712294 0.701882 0.000000
-16.407568 -15.196058 -0.515801 367 0.712294 0.701882 0.000000
-16.408976 -15.197362 -0.508968 341 0.712294 0.701882 0.000000
-16.409727 -15.198061 -0.502120 321 0.712294 0.701882 0.000000
-16.409901 -15.198219 -0.495259 347 0.712294 0.701882 0.000000
-16.406414 -15.194994 -0.488281 339 0.712294 0.701882 0.000000
-16.405439 -15.194086 -0.481380 321 0.712294 0.701882 0.000000
-16.405014 -15.193696 -0.474504 339 0.712294 0.701882 0.000000
-16.406307 -15.194884 -0.467662 349 0.712294 0.701882 0.000000
-16.408449 -15.196870 -0.460851 367 0.712294 0.701882 0.000000
-16.407532 -15.196021 -0.453960 379 0.712294 0.701882 0.000000
-16.407579 -15.196065 -0.447089 365 0.712294 0.701882 0.000000
-16.408535 -15.196955 -0.440250 371 0.712294 0.701882 0.000000
-16.408316 -15.196756 -0.433372 359 0.712294 0.701882 0.000000
-16.404867 -15.193563 -0.426404 347 0.712294 0.701882 0.000000
-16.405720 -15.194343 -0.419566 331 0.712294 0.701882 0.000000
-16.407095 -15.195623 -0.412723 353 0.712294 0.701882 0.000000
-16.406223 -15.194811 -0.405831 381 0.712294 0.701882 0.000000
-16.406626 -15.195191 -0.398977 359 0.712294 0.701882 0.000000
-16.405544 -15.194183 -0.392077 341 0.712294 0.701882 0.000000
-16.406919 -15.195462 -0.385244 367 0.712294 0.701882 0.000000
-16.409155 -15.197536 -0.378423 329 0.712294 0.701882 0.000000
-16.408966 -15.197363 -0.371554 331 0.712294 0.701882 0.000000
-16.407440 -15.195948 -0.364649 341 0.712294 0.701882 0.000000
-16.407629 -15.196117 -0.357777 353 0.712294 0.701882 0.000000
-16.408188 -15.196638 -0.350921 319 0.712294 0.701882 0.000000
-16.407137 -15.195667 -0.344031 309 0.712294 0.701882 0.000000
-16.407270 -15.195793 -0.337169 339 0.712294 0.701882 0.000000
-16.408472 -15.196907 -0.330318 337 0.712294 0.701882 0.000000
-16.411127 -15.199357 -0.323503 329 0.712294 0.701882 0.000000
-16.409260 -15.197628 -0.316600 313 0.712294 0.701882 0.000000
-16.408148 -15.196609 -0.309711 303 0.712294 0.701882 0.000000
-16.410152 -15.198461 -0.302872 303 0.712294 0.701882 0.000000
-16.408936 -15.197330 -0.295983 339 0.712294 0.701882 0.000000
-16.407330 -15.195851 -0.289088 363 0.712294 0.701882 0.000000
-16.408157 -15.196612 -0.282230 321 0.712294 0.701882 0.000000
-16.409267 -15.188124 -0.666876 349 0.712294 0.701882 0.000000
-16.410004 -15.188812 -0.660039 363 0.712294 0.701882 0.000000
-16.411180 -15.189892 -0.653208 353 0.712294 0.701882 0.000000
-16.411158 -15.189878 -0.646338 325 0.712294 0.701882 0.000000
-16.409262 -15.188125 -0.639385 327 0.712294 0.701882 0.000000
-16.412462 -15.191092 -0.632635 341 0.712294 0.701882 0.000000
-16.412292 -15.190923 -0.625757 337 0.712294 0.701882 0.000000
-16.410011 -15.188820 -0.618798 335 0.712294 0.701882 0.000000
-16.410894 -15.189639 -0.611959 307 0.712294 0.701882 0.000000
-16.413509 -15.192059 -0.605185 367 0.712294 0.701882 0.000000
-16.413698 -15.192227 -0.598323 337 0.712294 0.701882 0.000000
-16.410070 -15.188877 -0.591316 341 0.712294 0.701882 0.000000
-16.409880 -15.188702 -0.584438 347 0.712294 0.701882 0.000000
-16.412266 -15.190911 -0.577646 323 0.712294 0.701882 0.000000
-16.412394 -15.191031 -0.570784 329 0.712294 0.701882 0.000000
-16.412746 -15.191345 -0.563921 351 0.712294 0.701882 0.000000
-16.412550 -15.191166 -0.557043 365 0.712294 0.701882 0.000000
-16.412138 -15.190788 -0.550156 335 0.712294 0.701882 0.000000
-16.411877 -15.190544 -0.543278 367 0.712294 0.701882 0.000000
-16.412155 -15.190812 -0.536416 349 0.712294 0.701882 0.000000
-16.412823 -15.191420 -0.529559 363 0.712294 0.701882 0.000000
-16.411865 -15.190538 -0.522658 383 0.712294 0.701882 0.000000
-16.413225 -15.191792 -0.515835 349 0.712294 0.701882 0.000000
-16.415154 -15.193580 -0.509017 347 0.712294 0.701882 0.000000
-16.413225 -15.191802 -0.502085 361 0.712294 0.701882 0.000000
-16.411360 -15.190073 -0.495162 355 0.712294 0.701882 0.000000
-16.411091 -15.189822 -0.488285 315 0.712294 0.701882 0.000000
-16.411581 -15.190274 -0.481430 349 0.712294 0.701882 0.000000
-16.413246 -15.191813 -0.474604 353 0.712294 0.701882 0.000000
-16.412588 -15.191212 -0.467710 345 0.712294 0.701882 0.000000
-16.411783 -15.190465 -0.460817 339 0.712294 0.701882 0.000000
-16.412960 -15.191560 -0.453986 299 0.712294 0.701882 0.000000
-16.413008 -15.191603 -0.447116 351 0.712294 0.701882 0.000000
-16.412840 -15.191447 -0.440237 351 0.712294 0.701882 0.000000
-16.412619 -15.191235 -0.433359 345 0.712294 0.701882 0.000000
-16.413086 -15.191681 -0.426504 351 0.712294 0.701882 0.000000
-16.413670 -15.192220 -0.419649 339 0.712294 0.701882 0.000000
-16.412521 -15.191160 -0.412749 365 0.712294 0.701882 0.000000
-16.411755 -15.190444 -0.405856 361 0.712294 0.701882 0.000000
-16.410995 -15.189734 -0.398973 379 0.712294 0.701882 0.000000
-16.412102 -15.190759 -0.392123 335 0.712294 0.701882 0.000000
-16.413738 -15.192287 -0.385297 329 0.712294 0.701882 0.000000
-16.414148 -15.192660 -0.378433 345 0.712294 0.701882 0.000000
-16.411982 -15.190651 -0.371513 327 0.712294 0.701882 0.000000
-16.407776 -15.186757 -0.364553 325 0.712294 0.701882 0.000000
-16.408764 -15.187673 -0.357703 341 0.712294 0.701882 0.000000
-16.412281 -15.190934 -0.350910 353 0.712294 0.701882 0.000000
-16.413490 -15.192053 -0.344069 365 0.712294 0.701882 0.000000
-16.413670 -15.192216 -0.337207 359 0.712294 0.701882 0.000000
-16.411324 -15.190048 -0.330289 337 0.712294 0.701882 0.000000
-16.411402 -15.190117 -0.323418 333 0.712294 0.701882 0.000000
-16.413410 -15.191982 -0.316589 325 0.712294 0.701882 0.000000
-16.410200 -15.189005 -0.309659 329 0.712294 0.701882 0.000000
-16.410049 -15.188876 -0.302790 339 0.712294 0.701882 0.000000
-16.410442 -15.189237 -0.295926 319 0.712294 0.701882 0.000000
-16.411903 -15.190585 -0.289082 355 0.712294 0.701882 0.000000
-16.413904 -15.192444 -0.282253 329 0.712294 0.701882 0.000000
-16.416882 -15.185496 -0.666993 309 0.712294 0.701882 0.000000
-16.417183 -15.185783 -0.660130 339 0.712294 0.701882 0.000000
-16.417070 -15.185672 -0.653251 321 0.712294 0.701882 0.000000
-16.417431 -15.186007 -0.646397 295 0.712294 0.701882 0.000000
-16.418541 -15.187032 -0.639567 317 0.712294 0.701882 0.000000
-16.417006 -15.185622 -0.632631 345 0.712294 0.701882 0.000000
-16.416254 -15.184919 -0.625728 329 0.712294 0.701882 0.000000
-16.418324 -15.186835 -0.618938 299 0.712294 0.701882 0.000000
-16.419106 -15.187559 -0.612091 299 0.712294 0.701882 0.000000
-16.417580 -15.186143 -0.605165 315 0.712294 0.701882 0.000000
-16.418789 -15.187263 -0.598333 337 0.712294 0.701882 0.000000
-16.418282 -15.186795 -0.591438 355 0.712294 0.701882 0.000000
-16.414915 -15.183692 -0.584449 309 0.712294 0.701882 0.000000
-16.415199 -15.183951 -0.577586 297 0.712294 0.701882 0.000000
-16.416306 -15.184976 -0.570756 307 0.712294 0.701882 0.000000
-16.418098 -15.186629 -0.563939 317 0.712294 0.701882 0.000000
-16.418921 -15.187399 -0.557101 331 0.712294 0.701882 0.000000
-16.419527 -15.187957 -0.550245 337 0.712294 0.701882 0.000000
-16.417830 -15.186388 -0.543321 377 0.712294 0.701882 0.000000
-16.416929 -15.185553 -0.536419 375 0.712294 0.701882 0.000000
-16.418396 -15.186906 -0.529585 375 0.712294 0.701882 0.000000
-16.418396 -15.186913 -0.522715 363 0.712294 0.701882 0.000000
-16.418354 -15.186871 -0.515845 373 0.712294 0.701882 0.000000
-16.418465 -15.186977 -0.508974 349 0.712294 0.701882 0.000000
-16.417248 -15.185848 -0.502065 361 0.712294 0.701882 0.000000
-16.417517 -15.186094 -0.495203 359 0.712294 0.701882 0.000000
-16.417952 -15.186502 -0.488348 317 0.712294 0.701882 0.000000
-16.418329 -15.186850 -0.481485 351 0.712294 0.701882 0.000000
-16.418756 -15.187248 -0.474631 353 0.712294 0.701882 0.000000
-16.416874 -15.185508 -0.467698 357 0.712294 0.701882 0.000000
-16.417465 -15.186053 -0.460842 369 0.712294 0.701882 0.000000
-16.417624 -15.186198 -0.453981 361 0.712294 0.701882 0.000000
-16.415688 -15.184400 -0.447059 335 0.712294 0.701882 0.000000
-16.417126 -15.185742 -0.440225 331 0.712294 0.701882 0.000000
-16.418514 -15.187020 -0.433392 331 0.712294 0.701882 0.000000
-16.417803 -15.186362 -0.426498 357 0.712294 0.701882 0.000000
-16.419037 -15.187502 -0.419667 347 0.712294 0.701882 0.000000
-16.419447 -15.187888 -0.412803 335 0.712294 0.701882 0.000000
-16.418940 -15.187422 -0.405917 369 0.712294 0.701882 0.000000
-16.417265 -15.185872 -0.399013 367 0.712294 0.701882 0.000000
-16.415737 -15.184455 -0.392097 333 0.712294 0.701882 0.000000
-16.416750 -15.185390 -0.385257 347 0.712294 0.701882 0.000000
-16.417419 -15.186012 -0.378401 319 0.712294 0.701882 0.000000
-16.417452 -15.186042 -0.371530 327 0.712294 0.701882 0.000000
-16.417427 -15.186015 -0.364660 331 0.712294 0.701882 0.000000
-16.417618 -15.186198 -0.357798 357 0.712294 0.701882 0.000000
-16.416296 -15.184974 -0.350901 349 0.712294 0.701882 0.000000
-16.415894 -15.184603 -0.344024 343 0.712294 0.701882 0.000000
-16.417906 -15.186460 -0.337195 355 0.712294 0.701882 0.000000
-16.418562 -15.187070 -0.330339 327 0.712294 0.701882 0.000000
-16.417305 -15.185909 -0.323441 317 0.712294 0.701882 0.000000
-16.416943 -15.185570 -0.316564 337 0.712294 0.701882 0.000000
-16.419857 -15.188269 -0.309756 343 0.712294 0.701882 0.000000
-16.418102 -15.186642 -0.302853 337 0.712294 0.701882 0.000000
-16.417629 -15.186214 -0.295977 339 0.712294 0.701882 0.000000
-16.418877 -15.187365 -0.289125 355 0.712294 0.701882 0.000000
-16.418993 -15.187477 -0.282254 347 0.712294 0.701882 0.000000
-16.422537 -15.181423 -0.667036 309 0.712294 0.701882 0.000000
-16.420599 -15.179624 -0.660084 291 0.712294 0.701882 0.000000
-16.421818 -15.180750 -0.653263 289 0.712294 0.701882 0.000000
-16.421909 -15.180844 -0.646391 311 0.712294 0.701882 0.000000
-16.421364 -15.180332 -0.639496 311 0.712294 0.701882 0.000000
-16.422895 -15.181751 -0.632682 343 0.712294 0.701882 0.000000
-16.421537 -15.180494 -0.625754 319 0.712294 0.701882 0.000000
-16.418882 -15.178041 -0.618789 305 0.712294 0.701882 0.000000
-16.418430 -15.177631 -0.611893 319 0.712294 0.701882 0.000000
-16.421473 -15.180430 -0.605135 311 0.712294 0.701882 0.000000
-16.421495 -15.180454 -0.598264 339 0.712294 0.701882 0.000000
-16.421780 -15.180728 -0.591401 337 0.712294 0.701882 0.000000
-16.424513 -15.183241 -0.584626 329 0.712294 0.701882 0.000000
-16.424417 -15.183156 -0.577746 349 0.712294 0.701882 0.000000
-16.420734 -15.179761 -0.570751 393 0.712294 0.701882 0.000000
-16.421185 -15.180180 -0.563896 327 0.712294 0.701882 0.000000
-16.420719 -15.179744 -0.557000 353 0.712294 0.701882 0.000000
-16.419556 -15.178672 -0.550091 357 0.712294 0.701882 0.000000
-16.421831 -15.180764 -0.543300 323 0.712294 0.701882 0.000000
-16.421846 -15.180782 -0.536429 357 0.712294 0.701882 0.000000
-16.421963 -15.180895 -0.529558 375 0.712294 0.701882 0.000000
-16.421703 -15.180652 -0.522680 369 0.712294 0.701882 0.000000
-16.424175 -15.182943 -0.515887 357 0.712294 0.701882 0.000000
-16.423431 -15.182260 -0.508994 345 0.712294 0.701882 0.000000
-16.423122 -15.181964 -0.502107 329 0.712294 0.701882 0.000000
-16.423824 -15.182611 -0.495260 331 0.712294 0.701882 0.000000
-16.421518 -15.180489 -0.488321 337 0.712294 0.701882 0.000000
-16.421101 -15.180093 -0.481435 329 0.712294 0.701882 0.000000
-16.420767 -15.179792 -0.474558 343 0.712294 0.701882 0.000000
-16.419683 -15.178797 -0.467648 375 0.712294 0.701882 0.000000
-16.420765 -15.179788 -0.460808 369 0.712294 0.701882 0.000000
-16.423018 -15.181876 -0.454006 361 0.712294 0.701882 0.000000
-16.423126 -15.181968 -0.447135 337 0.712294 0.701882 0.000000
-16.423870 -15.182661 -0.440288 331 0.712294 0.701882 0.000000
-16.423964 -15.182755 -0.433417 335 0.712294 0.701882 0.000000
-16.422012 -15.180944 -0.426495 365 0.712294 0.701882 0.000000
-16.420549 -15.179592 -0.419589 327 0.712294 0.701882 0.000000
-16.420218 -15.179292 -0.412712 367 0.712294 0.701882 0.000000
-16.421598 -15.180563 -0.405869 353 0.712294 0.701882 0.000000
-16.422333 -15.181249 -0.399022 335 0.712294 0.701882 0.000000
-16.422743 -15.181623 -0.392158 345 0.712294 0.701882 0.000000
-16.422184 -15.181113 -0.385273 369 0.712294 0.701882 0.000000
-16.420713 -15.179754 -0.378376 353 0.712294 0.701882 0.000000
-16.421446 -15.180426 -0.371519 305 0.712294 0.701882 0.000000
-16.423944 -15.182737 -0.364706 331 0.712294 0.701882 0.000000
-16.425903 -15.184550 -0.357877 335 0.712294 0.701882 0.000000
-16.424480 -15.183229 -0.350980 355 0.712294 0.701882 0.000000
-16.424559 -15.183298 -0.344110 359 0.712294 0.701882 0.000000
-16.424580 -15.183322 -0.337239 315 0.712294 0.701882 0.000000
-16.424770 -15.183505 -0.330367 321 0.712294 0.701882 0.000000
-16.425219 -15.183909 -0.323513 341 0.712294 0.701882 0.000000
-16.423458 -15.182291 -0.316609 337 0.712294 0.701882 0.000000
-16.423048 -15.181914 -0.309733 295 0.712294 0.701882 0.000000
-16.420919 -15.179935 -0.302823 323 0.712294 0.701882 0.000000
-16.421139 -15.180144 -0.295950 321 0.712294 0.701882 0.000000
-16.420942 -15.179966 -0.289082 329 0.712294 0.701882 0.000000
-16.418800 -15.177990 -0.282182 335 0.712294 0.701882 0.000000
-16.425770 -15.175463 -0.666990 305 0.712294 0.701882 0.000000
-16.427895 -15.177437 -0.660200 301 0.712294 0.701882 0.000000
-16.428797 -15.178268 -0.653362 319 0.712294 0.701882 0.000000
-16.425560 -15.175272 -0.646362 315 0.712294 0.701882 0.000000
-16.427048 -15.176654 -0.639548 329 0.712294 0.701882 0.000000
-16.428642 -15.178123 -0.632733 351 0.712294 0.701882 0.000000
-16.425024 -15.174777 -0.625726 329 0.712294 0.701882 0.000000
-16.424999 -15.174762 -0.618846 309 0.712294 0.701882 0.000000
-16.427244 -15.176831 -0.612065 281 0.712294 0.701882 0.000000
-16.429684 -15.179083 -0.605272 347 0.712294 0.701882 0.000000
-16.428640 -15.178120 -0.598362 325 0.712294 0.701882 0.000000
-16.426840 -15.176455 -0.591429 321 0.712294 0.701882 0.000000
-16.426971 -15.176581 -0.584557 319 0.712294 0.701882 0.000000
-16.426403 -15.176064 -0.577662 337 0.712294 0.701882 0.000000
-16.426693 -15.176329 -0.570799 359 0.712294 0.701882 0.000000
-16.426874 -15.176492 -0.563938 383 0.712294 0.701882 0.000000
-16.427538 -15.177109 -0.557091 357 0.712294 0.701882 0.000000
-16.426481 -15.176133 -0.550181 331 0.712294 0.701882 0.000000
-16.424885 -15.174659 -0.543256 327 0.712294 0.701882 0.000000
-16.426937 -15.176549 -0.536446 345 0.712294 0.701882 0.000000
-16.426359 -15.176025 -0.529561 375 0.712294 0.701882 0.000000
-16.426588 -15.176227 -0.522699 361 0.712294 0.701882 0.000000
-16.429607 -15.179022 -0.515921 349 0.712294 0.701882 0.000000
-16.428379 -15.177885 -0.509012 345 0.712294 0.701882 0.000000
-16.426617 -15.176252 -0.502078 323 0.712294 0.701882 0.000000
-16.428499 -15.178004 -0.495271 337 0.712294 0.701882 0.000000
-16.427210 -15.176804 -0.488353 359 0.712294 0.701882 0.000000
-16.426838 -15.176457 -0.481476 345 0.712294 0.701882 0.000000
-16.427265 -15.176857 -0.474612 339 0.712294 0.701882 0.000000
-16.425327 -15.175072 -0.467690 381 0.712294 0.701882 0.000000
-16.425549 -15.175267 -0.460827 373 0.712294 0.701882 0.000000
-16.426882 -15.176501 -0.453995 365 0.712294 0.701882 0.000000
-16.425959 -15.175660 -0.447093 327 0.712294 0.701882 0.000000
-16.423595 -15.173466 -0.440165 319 0.712294 0.701882 0.000000
-16.423309 -15.173203 -0.433288 315 0.712294 0.701882 0.000000
-16.424274 -15.174100 -0.426439 351 0.712294 0.701882 0.000000
-16.426138 -15.175824 -0.419621 341 0.712294 0.701882 0.000000
-16.426657 -15.176299 -0.412766 355 0.712294 0.701882 0.000000
-16.426483 -15.176138 -0.405887 325 0.712294 0.701882 0.000000
-16.427645 -15.177220 -0.399046 351 0.712294 0.701882 0.000000
-16.428112 -15.177651 -0.392182 343 0.712294 0.701882 0.000000
-16.429008 -15.178469 -0.385333 351 0.712294 0.701882 0.000000
-16.428829 -15.178303 -0.378465 349 0.712294 0.701882 0.000000
-16.425415 -15.175161 -0.371517 327 0.712294 0.701882 0.000000
-16.424965 -15.174740 -0.364631 317 0.712294 0.701882 0.000000
-16.427090 -15.176699 -0.357811 353 0.712294 0.701882 0.000000
-16.426519 -15.176182 -0.350926 355 0.712294 0.701882 0.000000
-16.427513 -15.177089 -0.344076 347 0.712294 0.701882 0.000000
-16.428295 -15.177814 -0.337229 325 0.712294 0.701882 0.000000
-16.430832 -15.180169 -0.330405 327 0.712294 0.701882 0.000000
-16.431391 -15.180676 -0.323550 343 0.712294 0.701882 0.000000
-16.428720 -15.178209 -0.316624 395 0.712294 0.701882 0.000000
-16.429117 -15.178585 -0.309760 337 0.712294 0.701882 0.000000
-16.428167 -15.177696 -0.302869 323 0.712294 0.701882 0.000000
-16.427370 -15.176970 -0.295986 297 0.712294 0.701882 0.000000
-16.429644 -15.179061 -0.289155 341 0.712294 0.701882 0.000000
-16.429327 -15.178773 -0.282288 337 0.712294 0.701882 0.000000
-16.431620 -15.171930 -0.667050 291 0.712294 0.701882 0.000000
-16.431484 -15.171813 -0.660171 293 0.712294 0.701882 0.000000
-16.432447 -15.172697 -0.653332 279 0.712294 0.701882 0.000000
-16.432108 -15.172390 -0.646445 301 0.712294 0.701882 0.000000
-16.431822 -15.172127 -0.639567 333 0.712294 0.701882 0.000000
-16.431488 -15.171812 -0.632680 337 0.712294 0.701882 0.000000
-16.431845 -15.172142 -0.625817 323 0.712294 0.701882 0.000000
-16.432791 -15.173012 -0.618978 303 0.712294 0.701882 0.000000
-16.431046 -15.171406 -0.612044 307 0.712294 0.701882 0.000000
-16.431511 -15.171837 -0.605180 335 0.712294 0.701882 0.000000
-16.431589 -15.171905 -0.598309 359 0.712294 0.701882 0.000000
-16.430807 -15.171189 -0.591416 331 0.712294 0.701882 0.000000
-16.429274 -15.169767 -0.584480 319 0.712294 0.701882 0.000000
-16.430166 -15.170595 -0.577642 349 0.712294 0.701882 0.000000
-16.431847 -15.172146 -0.570826 353 0.712294 0.701882 0.000000
-16.430956 -15.171329 -0.563924 369 0.712294 0.701882 0.000000
-16.433655 -15.173818 -0.557148 377 0.712294 0.701882 0.000000
-16.431309 -15.171651 -0.550190 351 0.712294 0.701882 0.000000
-16.428473 -15.169038 -0.543226 323 0.712294 0.701882 0.000000
-16.431395 -15.171729 -0.536449 325 0.712294 0.701882 0.000000
-16.431086 -15.171447 -0.529572 347 0.712294 0.701882 0.000000
-16.430935 -15.171305 -0.522693 357 0.712294 0.701882 0.000000
-16.432343 -15.172609 -0.515870 321 0.712294 0.701882 0.000000
-16.431923 -15.172226 -0.508983 311 0.712294 0.701882 0.000000
-16.432459 -15.172713 -0.502128 327 0.712294 0.701882 0.000000
-16.432570 -15.172821 -0.495257 363 0.712294 0.701882 0.000000
-16.429457 -15.169946 -0.488296 385 0.712294 0.701882 0.000000
-16.429518 -15.170001 -0.481425 379 0.712294 0.701882 0.000000
-16.433659 -15.173827 -0.474676 351 0.712294 0.701882 0.000000
-16.433121 -15.173322 -0.467781 343 0.712294 0.701882 0.000000
-16.430534 -15.170938 -0.460845 355 0.712294 0.701882 0.000000
-16.431602 -15.171931 -0.454005 359 0.712294 0.701882 0.000000
-16.430250 -15.170680 -0.447098 353 0.712294 0.701882 0.000000
-16.430952 -15.171328 -0.440241 351 0.712294 0.701882 0.000000
-16.432446 -15.172701 -0.433407 365 0.712294 0.701882 0.000000
-16.430819 -15.171203 -0.426502 387 0.712294 0.701882 0.000000
-16.432634 -15.172875 -0.419675 355 0.712294 0.701882 0.000000
-16.434395 -15.174503 -0.412848 359 0.712294 0.701882 0.000000
-16.432442 -15.172707 -0.405926 343 0.712294 0.701882 0.000000
-16.432909 -15.173140 -0.399072 353 0.712294 0.701882 0.000000
-16.434401 -15.174512 -0.392228 347 0.712294 0.701882 0.000000
-16.432016 -15.172314 -0.385310 303 0.712294 0.701882 0.000000
-16.431501 -15.171841 -0.378424 307 0.712294 0.701882 0.000000
-16.431595 -15.171920 -0.371553 343 0.712294 0.701882 0.000000
-16.431137 -15.171505 -0.364677 379 0.712294 0.701882 0.000000
-16.431700 -15.172027 -0.357822 345 0.712294 0.701882 0.000000
-16.433023 -15.173239 -0.350979 353 0.712294 0.701882 0.000000
-16.431110 -15.171473 -0.344067 329 0.712294 0.701882 0.000000
-16.429996 -15.170453 -0.337177 349 0.712294 0.701882 0.000000
-16.430992 -15.171376 -0.330328 345 0.712294 0.701882 0.000000
-16.432674 -15.172928 -0.323492 377 0.712294 0.701882 0.000000
-16.435219 -15.175276 -0.316668 397 0.712294 0.701882 0.000000
-16.433416 -15.173612 -0.309765 337 0.712294 0.701882 0.000000
-16.433264 -15.173469 -0.302886 371 0.712294 0.701882 0.000000
-16.434948 -15.175020 -0.296050 369 0.712294 0.701882 0.000000
-16.431833 -15.172148 -0.289119 361 0.712294 0.701882 0.000000
-16.428625 -15.169184 -0.282199 367 0.712294 0.701882 0.000000
-16.435993 -15.166862 -0.667044 299 0.712294 0.701882 0.000000
-16.437588 -15.168332 -0.660239 321 0.712294 0.701882 0.000000
-16.435921 -15.166789 -0.653295 319 0.712294 0.701882 0.000000
-16.432783 -15.163896 -0.646294 309 0.712294 0.701882 0.000000
-16.435776 -15.166656 -0.639546 309 0.712294 0.701882 0.000000
-16.437149 -15.167923 -0.632723 323 0.712294 0.701882 0.000000
-16.435957 -15.166826 -0.625804 309 0.712294 0.701882 0.000000
-16.437330 -15.168091 -0.618981 309 0.712294 0.701882 0.000000
-16.436445 -15.167281 -0.612079 315 0.712294 0.701882 0.000000
-16.435135 -15.166062 -0.605151 317 0.712294 0.701882 0.000000
-16.436880 -15.167678 -0.598345 297 0.712294 0.701882 0.000000
-16.436325 -15.167160 -0.591450 329 0.712294 0.701882 0.000000
-16.435322 -15.166243 -0.584539 335 0.712294 0.701882 0.000000
-16.435558 -15.166464 -0.577676 321 0.712294 0.701882 0.000000
-16.436174 -15.167027 -0.570831 345 0.712294 0.701882 0.000000
-16.438503 -15.169178 -0.564029 347 0.712294 0.701882 0.000000
-16.437880 -15.168604 -0.557134 345 0.712294 0.701882 0.000000
-16.435850 -15.166730 -0.550193 341 0.712294 0.701882 0.000000
-16.433130 -15.164224 -0.543238 329 0.712294 0.701882 0.000000
-16.434544 -15.165522 -0.536415 329 0.712294 0.701882 0.000000
-16.437342 -15.168113 -0.529629 343 0.712294 0.701882 0.000000
-16.436762 -15.167575 -0.522734 361 0.712294 0.701882 0.000000
-16.435696 -15.166593 -0.515834 359 0.712294 0.701882 0.000000
-16.433239 -15.164324 -0.508886 319 0.712294 0.701882 0.000000
-16.433729 -15.164774 -0.502032 297 0.712294 0.701882 0.000000
-16.436634 -15.167454 -0.495244 347 0.712294 0.701882 0.000000
-16.434856 -15.165820 -0.488321 327 0.712294 0.701882 0.000000
-16.435678 -15.166578 -0.481473 347 0.712294 0.701882 0.000000
-16.436214 -15.167065 -0.474618 359 0.712294 0.701882 0.000000
-16.433899 -15.164937 -0.467679 345 0.712294 0.701882 0.000000
-16.436749 -15.167558 -0.460893 359 0.712294 0.701882 0.000000
-16.437120 -15.167900 -0.454029 365 0.712294 0.701882 0.000000
-16.435549 -15.166460 -0.447113 407 0.712294 0.701882 0.000000
-16.436188 -15.167043 -0.440267 357 0.712294 0.701882 0.000000
-16.435484 -15.166391 -0.433374 353 0.712294 0.701882 0.000000
-16.435633 -15.166529 -0.426502 369 0.712294 0.701882 0.000000
-16.435886 -15.166764 -0.419640 351 0.712294 0.701882 0.000000
-16.436897 -15.167698 -0.412800 377 0.712294 0.701882 0.000000
-16.437899 -15.168626 -0.405950 337 0.712294 0.701882 0.000000
-16.438475 -15.169159 -0.399095 369 0.712294 0.701882 0.000000
-16.437811 -15.168553 -0.392211 343 0.712294 0.701882 0.000000
-16.438377 -15.169065 -0.385346 339 0.712294 0.701882 0.000000
-16.440945 -15.171432 -0.378541 299 0.712294 0.701882 0.000000
-16.441452 -15.171909 -0.371676 333 0.712294 0.701882 0.000000
-16.441435 -15.171888 -0.364807 353 0.712294 0.701882 0.000000
-16.440708 -15.171217 -0.357913 355 0.712294 0.701882 0.000000
-16.437399 -15.168173 -0.350974 311 0.712294 0.701882 0.000000
-16.436882 -15.167699 -0.344098 345 0.712294 0.701882 0.000000
-16.439173 -15.169806 -0.337267 323 0.712294 0.701882 0.000000
-16.439512 -15.170122 -0.330404 349 0.712294 0.701882 0.000000
-16.435665 -15.166566 -0.323459 379 0.712294 0.701882 0.000000
-16.435949 -15.166825 -0.316597 345 0.712294 0.701882 0.000000
-16.438437 -15.169129 -0.309773 361 0.712294 0.701882 0.000000
-16.437866 -15.168598 -0.302888 391 0.712294 0.701882 0.000000
-16.439005 -15.169647 -0.296038 353 0.712294 0.701882 0.000000
-16.439556 -15.170160 -0.289182 365 0.712294 0.701882 0.000000
-16.438444 -15.169127 -0.282292 351 0.712294 0.701882 0.000000
-16.440090 -15.160802 -0.667015 345 0.712294 0.701882 0.000000
-16.438627 -15.159450 -0.660089 319 0.712294 0.701882 0.000000
-16.439640 -15.160384 -0.653249 309 0.712294 0.701882 0.000000
-16.442522 -15.163044 -0.646492 309 0.712294 0.701882 0.000000
-16.441216 -15.161832 -0.639564 345 0.712294 0.701882 0.000000
-16.440016 -15.160729 -0.632645 317 0.712294 0.701882 0.000000
-16.440155 -15.160860 -0.625784 301 0.712294 0.701882 0.000000
-16.441538 -15.162132 -0.618960 303 0.712294 0.701882 0.000000
-16.441782 -15.162359 -0.612098 325 0.712294 0.701882 0.000000
-16.441704 -15.162288 -0.605219 349 0.712294 0.701882 0.000000
-16.440393 -15.161083 -0.598291 329 0.712294 0.701882 0.000000
-16.441385 -15.161990 -0.591461 311 0.712294 0.701882 0.000000
-16.441679 -15.162270 -0.584598 303 0.712294 0.701882 0.000000
-16.441486 -15.162096 -0.577720 305 0.712294 0.701882 0.000000
-16.441780 -15.162361 -0.570857 335 0.712294 0.701882 0.000000
-16.440237 -15.160932 -0.563931 311 0.712294 0.701882 0.000000
-16.442671 -15.163179 -0.557138 343 0.712294 0.701882 0.000000
-16.443880 -15.164298 -0.550307 353 0.712294 0.701882 0.000000
-16.442387 -15.162921 -0.543381 335 0.712294 0.701882 0.000000
-16.441059 -15.161689 -0.536463 331 0.712294 0.701882 0.000000
-16.439619 -15.160370 -0.529546 331 0.712294 0.701882 0.000000
-16.442211 -15.162756 -0.522762 335 0.712294 0.701882 0.000000
-16.444809 -15.165149 -0.515968 357 0.712294 0.701882 0.000000
-16.442225 -15.162778 -0.509011 379 0.712294 0.701882 0.000000
-16.440351 -15.161043 -0.502089 325 0.712294 0.701882 0.000000
-16.440243 -15.160947 -0.495210 335 0.712294 0.701882 0.000000
-16.440367 -15.161052 -0.488338 353 0.712294 0.701882 0.000000
-16.440960 -15.161598 -0.481493 341 0.712294 0.701882 0.000000
-16.441710 -15.162297 -0.474635 351 0.712294 0.701882 0.000000
-16.442245 -15.162784 -0.467780 363 0.712294 0.701882 0.000000
-16.441645 -15.162244 -0.460896 357 0.712294 0.701882 0.000000
-16.440727 -15.161394 -0.453994 333 0.712294 0.701882 0.000000
-16.442440 -15.162971 -0.447178 367 0.712294 0.701882 0.000000
-16.443247 -15.163714 -0.440320 373 0.712294 0.701882 0.000000
-16.441729 -15.162317 -0.433414 369 0.712294 0.701882 0.000000
-16.439194 -15.159972 -0.426478 357 0.712294 0.701882 0.000000
-16.439928 -15.160659 -0.419621 325 0.712294 0.701882 0.000000
-16.444540 -15.164917 -0.412867 373 0.712294 0.701882 0.000000
-16.446033 -15.166291 -0.406033 357 0.712294 0.701882 0.000000
-16.443964 -15.164386 -0.399113 333 0.712294 0.701882 0.000000
-16.443525 -15.163975 -0.392226 371 0.712294 0.701882 0.000000
-16.444584 -15.164947 -0.385386 343 0.712294 0.701882 0.000000
-16.445097 -15.165430 -0.378521 359 0.712294 0.701882 0.000000
-16.445122 -15.165454 -0.371651 361 0.712294 0.701882 0.000000
-16.444559 -15.164929 -0.364766 359 0.712294 0.701882 0.000000
-16.442553 -15.163074 -0.357855 331 0.712294 0.701882 0.000000
-16.440695 -15.161366 -0.350942 321 0.712294 0.701882 0.000000
-16.440607 -15.161287 -0.344073 355 0.712294 0.701882 0.000000
-16.441973 -15.162547 -0.337230 317 0.712294 0.701882 0.000000
-16.443285 -15.163762 -0.330387 317 0.712294 0.701882 0.000000
-16.441427 -15.162039 -0.323474 359 0.712294 0.701882 0.000000
-16.442146 -15.162700 -0.316628 353 0.712294 0.701882 0.000000
-16.444475 -15.164850 -0.309796 325 0.712294 0.701882 0.000000
-16.443031 -15.163526 -0.302899 325 0.712294 0.701882 0.000000
-16.444239 -15.164631 -0.296048 373 0.712294 0.701882 0.000000
-16.445156 -15.165489 -0.289199 385 0.712294 0.701882 0.000000
-16.443123 -15.163614 -0.282288 341 0.712294 0.701882 0.000000
-16.445232 -15.155339 -0.667028 291 0.712294 0.701882 0.000000
-16.444790 -15.154923 -0.660132 305 0.712294 0.701882 0.000000
-16.444828 -15.154959 -0.653261 327 0.712294 0.701882 0.000000
-16.446375 -15.156390 -0.646447 321 0.712294 0.701882 0.000000
-16.449312 -15.159095 -0.639689 333 0.712294 0.701882 0.000000
-16.450592 -15.160271 -0.632857 325 0.712294 0.701882 0.000000
-16.449762 -15.159504 -0.625955 311 0.712294 0.701882 0.000000
-16.446943 -15.156919 -0.618971 325 0.712294 0.701882 0.000000
-16.446602 -15.156598 -0.612084 315 0.712294 0.701882 0.000000
-16.446728 -15.156717 -0.605222 327 0.712294 0.701882 0.000000
-16.446924 -15.156892 -0.598350 327 0.712294 0.701882 0.000000
-16.447382 -15.157318 -0.591496 327 0.712294 0.701882 0.000000
-16.445627 -15.155705 -0.584562 319 0.712294 0.701882 0.000000
-16.447420 -15.157359 -0.577745 355 0.712294 0.701882 0.000000
-16.449072 -15.158873 -0.570930 337 0.712294 0.701882 0.000000
-16.449512 -15.159286 -0.564075 359 0.712294 0.701882 0.000000
-16.446257 -15.156283 -0.557086 331 0.712294 0.701882 0.000000
-16.445200 -15.155309 -0.550185 335 0.712294 0.701882 0.000000
-16.446880 -15.156859 -0.543369 377 0.712294 0.701882 0.000000
-16.447109 -15.157061 -0.536497 355 0.712294 0.701882 0.000000
-16.446697 -15.156682 -0.529611 357 0.712294 0.701882 0.000000
-16.446642 -15.156645 -0.522741 329 0.712294 0.701882 0.000000
-16.446341 -15.156355 -0.515864 331 0.712294 0.701882 0.000000
-16.446552 -15.156557 -0.508992 355 0.712294 0.701882 0.000000
-16.445486 -15.155575 -0.502092 337 0.712294 0.701882 0.000000
-16.444847 -15.154986 -0.495197 333 0.712294 0.701882 0.000000
-16.446798 -15.156781 -0.488389 363 0.712294 0.701882 0.000000
-16.447279 -15.157225 -0.481524 343 0.712294 0.701882 0.000000
-16.446085 -15.156127 -0.474625 311 0.712294 0.701882 0.000000
-16.445444 -15.155540 -0.467731 327 0.712294 0.701882 0.000000
-16.445877 -15.155932 -0.460877 325 0.712294 0.701882 0.000000
-16.445766 -15.155835 -0.453998 339 0.712294 0.701882 0.000000
-16.445213 -15.155331 -0.447113 367 0.712294 0.701882 0.000000
-16.445805 -15.155863 -0.440257 359 0.712294 0.701882 0.000000
-16.446169 -15.156199 -0.433394 341 0.712294 0.701882 0.000000
-16.444977 -15.155102 -0.426495 361 0.712294 0.701882 0.000000
-16.445284 -15.155394 -0.419631 331 0.712294 0.701882 0.000000
-16.446404 -15.156416 -0.412791 349 0.712294 0.701882 0.000000
-16.446283 -15.156312 -0.405922 373 0.712294 0.701882 0.000000
-16.448582 -15.158424 -0.399100 375 0.712294 0.701882 0.000000
-16.449623 -15.159384 -0.392260 349 0.712294 0.701882 0.000000
-16.446711 -15.156709 -0.385317 367 0.712294 0.701882 0.000000
-16.445667 -15.155746 -0.378427 337 0.712294 0.701882 0.000000
-16.447254 -15.157207 -0.371592 361 0.712294 0.701882 0.000000
-16.447016 -15.156982 -0.364714 323 0.712294 0.701882 0.000000
-16.446123 -15.156166 -0.357822 331 0.712294 0.701882 0.000000
-16.447285 -15.157233 -0.350981 327 0.712294 0.701882 0.000000
-16.444351 -15.154532 -0.344048 319 0.712294 0.701882 0.000000
-16.444107 -15.154301 -0.337171 311 0.712294 0.701882 0.000000
-16.446547 -15.156554 -0.330358 333 0.712294 0.701882 0.000000
-16.448071 -15.157966 -0.323513 355 0.712294 0.701882 0.000000
-16.447178 -15.157136 -0.316621 369 0.712294 0.701882 0.000000
-16.444715 -15.154875 -0.309714 337 0.712294 0.701882 0.000000
-16.446783 -15.156776 -0.302875 329 0.712294 0.701882 0.000000
-16.446529 -15.156538 -0.296007 331 0.712294 0.701882 0.000000
-16.447384 -15.157332 -0.289149 383 0.712294 0.701882 0.000000
-16.450100 -15.159833 -0.282323 319 0.712294 0.701882 0.000000
