257
-26.380100 -23.600969 -0.658039 311 0.748867 0.662720 0.000000
-26.377132 -23.598305 -0.647096 319 0.748867 0.662720 0.000000
-26.377668 -23.598797 -0.636231 307 0.748867 0.662720 0.000000
-26.380201 -23.601061 -0.625417 327 0.748867 0.662720 0.000000
-26.382256 -23.602892 -0.614598 347 0.748867 0.662720 0.000000
-26.381416 -23.602140 -0.603706 363 0.748867 0.662720 0.000000
-26.379032 -23.600018 -0.592777 331 0.748867 0.662720 0.000000
-26.377958 -23.599060 -0.581877 371 0.748867 0.662720 0.000000
-26.378487 -23.599533 -0.571022 317 0.748867 0.662720 0.000000
-26.383358 -23.603884 -0.560247 337 0.748867 0.662720 0.000000
-26.383211 -23.603758 -0.549368 339 0.748867 0.662720 0.000000
-26.381809 -23.602507 -0.538471 357 0.748867 0.662720 0.000000
-26.384596 -23.604992 -0.527655 335 0.748867 0.662720 0.000000
-26.380522 -23.601347 -0.516702 355 0.748867 0.662720 0.000000
-26.378452 -23.599504 -0.505791 355 0.748867 0.662720 0.000000
-26.377031 -23.598228 -0.494884 307 0.748867 0.662720 0.000000
-26.378242 -23.599316 -0.484042 351 0.748867 0.662720 0.000000
-26.382763 -23.603361 -0.473250 353 0.748867 0.662720 0.000000
-26.382378 -23.603012 -0.462373 365 0.748867 0.662720 0.000000
-26.384054 -23.604523 -0.451528 347 0.748867 0.662720 0.000000
-26.375748 -23.597095 -0.429644 337 0.748867 0.662720 0.000000
-26.374434 -23.595913 -0.418756 323 0.748867 0.662720 0.000000
-26.377512 -23.598663 -0.407927 317 0.748867 0.662720 0.000000
-26.373028 -23.594662 -0.396998 343 0.748867 0.662720 0.000000
-26.372566 -23.594240 -0.386122 325 0.748867 0.662720 0.000000
-26.381552 -23.602282 -0.375379 371 0.748867 0.662720 0.000000
-26.381031 -23.601816 -0.364494 319 0.748867 0.662720 0.000000
-26.378881 -23.599899 -0.353603 339 0.748867 0.662720 0.000000
-26.380051 -23.600945 -0.342742 295 0.748867 0.662720 0.000000
-26.378056 -23.599159 -0.331850 303 0.748867 0.662720 0.000000
-26.379112 -23.600103 -0.320990 361 0.748867 0.662720 0.000000
-26.381628 -23.602354 -0.310147 365 0.748867 0.662720 0.000000
-26.383265 -23.603823 -0.299291 323 0.748867 0.662720 0.000000
-26.380610 -23.601452 -0.288396 321 0.748867 0.662720 0.000000
-26.383848 -23.604349 -0.277555 321 0.748867 0.662720 0.000000
-26.386095 -23.606358 -0.266704 321 0.748867 0.662720 0.000000
-26.386457 -23.592653 -0.658029 277 0.748867 0.662720 0.000000
-26.389496 -23.595358 -0.647231 301 0.748867 0.662720 0.000000
-26.389599 -23.595449 -0.636360 265 0.748867 0.662720 0.000000
-26.386127 -23.592358 -0.625402 239 0.748867 0.662720 0.000000
-26.388409 -23.594389 -0.614580 335 0.748867 0.662720 0.000000
-26.392677 -23.598211 -0.603801 303 0.748867 0.662720 0.000000
-26.389328 -23.595213 -0.592851 305 0.748867 0.662720 0.000000
-26.384497 -23.590893 -0.581876 319 0.748867 0.662720 0.000000
-26.387249 -23.593353 -0.571060 343 0.748867 0.662720 0.000000
-26.386292 -23.592497 -0.560169 349 0.748867 0.662720 0.000000
-26.384872 -23.591234 -0.549271 283 0.748867 0.662720 0.000000
-26.387669 -23.593727 -0.538455 353 0.748867 0.662720 0.000000
-26.388020 -23.594049 -0.527582 319 0.748867 0.662720 0.000000
-26.387798 -23.593853 -0.516714 315 0.748867 0.662720 0.000000
-26.388472 -23.594450 -0.505847 321 0.748867 0.662720 0.000000
-26.389505 -23.595375 -0.494997 323 0.748867 0.662720 0.000000
-26.390974 -23.596691 -0.484154 341 0.748867 0.662720 0.000000
-26.393110 -23.598598 -0.473314 319 0.748867 0.662720 0.000000
-26.397366 -23.602409 -0.462514 323 0.748867 0.662720 0.000000
-26.396532 -23.601664 -0.451622 373 0.748867 0.662720 0.000000
-26.394228 -23.599602 -0.440713 305 0.748867 0.662720 0.000000
-26.390581 -23.596334 -0.429776 329 0.748867 0.662720 0.000000
-26.387014 -23.593159 -0.418848 305 0.748867 0.662720 0.000000
-26.388311 -23.594315 -0.407996 297 0.748867 0.662720 0.000000
-26.390144 -23.595947 -0.397149 361 0.748867 0.662720 0.000000
-26.390987 -23.596712 -0.386291 387 0.748867 0.662720 0.000000
-26.387203 -23.593328 -0.375366 379 0.748867 0.662720 0.000000
-26.389135 -23.595053 -0.364518 353 0.748867 0.662720 0.000000
-26.387363 -23.593466 -0.353624 305 0.748867 0.662720 0.000000
-26.379263 -23.586235 -0.342648 301 0.748867 0.662720 0.000000
-26.385452 -23.591759 -0.331861 329 0.748867 0.662720 0.000000
-26.392172 -23.597769 -0.321069 313 0.748867 0.662720 0.000000
-26.388702 -23.594666 -0.310150 289 0.748867 0.662720 0.000000
-26.386093 -23.592342 -0.299254 327 0.748867 0.662720 0.000000
-26.390417 -23.596209 -0.288434 343 0.748867 0.662720 0.000000
-26.391516 -23.597187 -0.277564 329 0.748867 0.662720 0.000000
-26.391569 -23.597240 -0.266693 301 0.748867 0.662720 0.000000
-26.392103 -23.583477 -0.657997 295 0.748867 0.662720 0.000000
-26.384281 -23.576488 -0.646939 277 0.748867 0.662720 0.000000
-26.393110 -23.584372 -0.636277 313 0.748867 0.662720 0.000000
-26.397894 -23.588642 -0.625513 303 0.748867 0.662720 0.000000
-26.390554 -23.582088 -0.614470 307 0.748867 0.662720 0.000000
-26.389818 -23.581429 -0.603587 299 0.748867 0.662720 0.000000
-26.394096 -23.585260 -0.592807 291 0.748867 0.662720 0.000000
-26.394005 -23.585178 -0.581938 303 0.748867 0.662720 0.000000
-26.396536 -23.587440 -0.571114 305 0.748867 0.662720 0.000000
-26.398365 -23.589069 -0.560277 371 0.748867 0.662720 0.000000
-26.397179 -23.588013 -0.549378 287 0.748867 0.662720 0.000000
-26.400635 -23.591093 -0.538576 315 0.748867 0.662720 0.000000
-26.395138 -23.586193 -0.527596 339 0.748867 0.662720 0.000000
-26.393133 -23.584400 -0.516684 333 0.748867 0.662720 0.000000
-26.395323 -23.586348 -0.505854 345 0.748867 0.662720 0.000000
-26.392700 -23.584013 -0.494928 299 0.748867 0.662720 0.000000
-26.397947 -23.588697 -0.484149 321 0.748867 0.662720 0.000000
-26.396690 -23.587572 -0.473260 349 0.748867 0.662720 0.000000
-26.395914 -23.586884 -0.462367 345 0.748867 0.662720 0.000000
-26.398802 -23.589470 -0.451550 345 0.748867 0.662720 0.000000
-26.399616 -23.590191 -0.440683 343 0.748867 0.662720 0.000000
-26.397966 -23.588724 -0.429788 273 0.748867 0.662720 0.000000
-26.397293 -23.588114 -0.418904 317 0.748867 0.662720 0.000000
-26.399187 -23.589808 -0.408056 367 0.748867 0.662720 0.000000
-26.396660 -23.587561 -0.397149 319 0.748867 0.662720 0.000000
-26.391781 -23.583191 -0.386204 321 0.748867 0.662720 0.000000
-26.393122 -23.584393 -0.375351 319 0.748867 0.662720 0.000000
-26.391235 -23.582705 -0.364458 321 0.748867 0.662720 0.000000
-26.388382 -23.580156 -0.353544 337 0.748867 0.662720 0.000000
-26.391954 -23.583349 -0.342721 301 0.748867 0.662720 0.000000
-26.394365 -23.585505 -0.331888 353 0.748867 0.662720 0.000000
-26.392485 -23.583822 -0.320995 261 0.748867 0.662720 0.000000
-26.395006 -23.586077 -0.310152 321 0.748867 0.662720 0.000000
-26.400911 -23.591356 -0.299347 317 0.748867 0.662720 0.000000
-26.399561 -23.590149 -0.288459 355 0.748867 0.662720 0.000000
-26.392368 -23.583719 -0.277506 325 0.748867 0.662720 0.000000
-26.394070 -23.585239 -0.266660 293 0.748867 0.662720 0.000000
-26.407541 -23.582212 -0.658199 257 0.748867 0.662720 0.000000
-26.406393 -23.581186 -0.647299 281 0.748867 0.662720 0.000000
-26.403864 -23.578924 -0.636362 291 0.748867 0.662720 0.000000
-26.403667 -23.578745 -0.625484 273 0.748867 0.662720 0.000000
-26.403658 -23.578737 -0.614603 313 0.748867 0.662720 0.000000
-26.401014 -23.576376 -0.603678 303 0.748867 0.662720 0.000000
-26.403330 -23.578445 -0.592856 311 0.748867 0.662720 0.000000
-26.401869 -23.577139 -0.581949 305 0.748867 0.662720 0.000000
-26.399105 -23.574671 -0.571014 291 0.748867 0.662720 0.000000
-26.400166 -23.575619 -0.560164 303 0.748867 0.662720 0.000000
-26.402859 -23.578032 -0.549349 319 0.748867 0.662720 0.000000
-26.399977 -23.575459 -0.538415 321 0.748867 0.662720 0.000000
-26.399393 -23.574930 -0.527531 311 0.748867 0.662720 0.000000
-26.400829 -23.576220 -0.516687 341 0.748867 0.662720 0.000000
-26.400560 -23.575974 -0.505809 333 0.748867 0.662720 0.000000
-26.403622 -23.578709 -0.495001 325 0.748867 0.662720 0.000000
-26.403948 -23.579000 -0.484128 301 0.748867 0.662720 0.000000
-26.404926 -23.579872 -0.473278 295 0.748867 0.662720 0.000000
-26.404970 -23.579920 -0.462398 331 0.748867 0.662720 0.000000
-26.402515 -23.577728 -0.451490 309 0.748867 0.662720 0.000000
-26.402727 -23.577917 -0.440618 293 0.748867 0.662720 0.000000
-26.402668 -23.577858 -0.429748 309 0.748867 0.662720 0.000000
-26.407177 -23.581892 -0.418946 329 0.748867 0.662720 0.000000
-26.408413 -23.582987 -0.408085 333 0.748867 0.662720 0.000000
-26.400270 -23.575724 -0.397089 317 0.748867 0.662720 0.000000
-26.396267 -23.572144 -0.386166 353 0.748867 0.662720 0.000000
-26.405571 -23.580460 -0.375430 365 0.748867 0.662720 0.000000
-26.404902 -23.579851 -0.364546 319 0.748867 0.662720 0.000000
-26.398640 -23.574272 -0.353593 395 0.748867 0.662720 0.000000
-26.399811 -23.575317 -0.342732 339 0.748867 0.662720 0.000000
-26.400764 -23.576170 -0.331873 317 0.748867 0.662720 0.000000
-26.403181 -23.578318 -0.321031 299 0.748867 0.662720 0.000000
-26.401831 -23.577120 -0.310143 277 0.748867 0.662720 0.000000
-26.403097 -23.578253 -0.299291 349 0.748867 0.662720 0.000000
-26.404366 -23.579386 -0.288429 283 0.748867 0.662720 0.000000
-26.404263 -23.579294 -0.277560 309 0.748867 0.662720 0.000000
-26.404871 -23.579842 -0.266694 279 0.748867 0.662720 0.000000
-26.410156 -23.569176 -0.658080 343 0.748867 0.662720 0.000000
-26.410685 -23.569649 -0.647225 297 0.748867 0.662720 0.000000
-26.413134 -23.571835 -0.636402 269 0.748867 0.662720 0.000000
-26.417912 -23.576099 -0.625638 281 0.748867 0.662720 0.000000
-26.415871 -23.574282 -0.614716 273 0.748867 0.662720 0.000000
-26.409306 -23.568415 -0.603696 291 0.748867 0.662720 0.000000
-26.410692 -23.569654 -0.592853 307 0.748867 0.662720 0.000000
-26.412796 -23.571533 -0.582024 359 0.748867 0.662720 0.000000
-26.409990 -23.569033 -0.560219 349 0.748867 0.662720 0.000000
-26.413774 -23.572405 -0.549424 375 0.748867 0.662720 0.000000
-26.415703 -23.574127 -0.538586 349 0.748867 0.662720 0.000000
-26.413963 -23.572575 -0.527672 341 0.748867 0.662720 0.000000
-26.414618 -23.573160 -0.516816 309 0.748867 0.662720 0.000000
-26.413916 -23.572542 -0.505922 343 0.748867 0.662720 0.000000
-26.408949 -23.568100 -0.494957 337 0.748867 0.662720 0.000000
-26.409067 -23.568205 -0.484086 339 0.748867 0.662720 0.000000
-26.407543 -23.566849 -0.473190 353 0.748867 0.662720 0.000000
-26.408892 -23.568056 -0.462347 349 0.748867 0.662720 0.000000
-26.412226 -23.571030 -0.451526 371 0.748867 0.662720 0.000000
-26.409382 -23.568487 -0.440612 361 0.748867 0.662720 0.000000
-26.412317 -23.571112 -0.429785 355 0.748867 0.662720 0.000000
-26.409731 -23.568808 -0.418868 309 0.748867 0.662720 0.000000
-26.403662 -23.563389 -0.407904 375 0.748867 0.662720 0.000000
-26.410898 -23.569851 -0.397147 357 0.748867 0.662720 0.000000
-26.413671 -23.572325 -0.386311 315 0.748867 0.662720 0.000000
-26.407682 -23.566982 -0.375356 363 0.748867 0.662720 0.000000
-26.410776 -23.569744 -0.364527 337 0.748867 0.662720 0.000000
-26.412720 -23.571474 -0.353679 355 0.748867 0.662720 0.000000
-26.412521 -23.571297 -0.342801 359 0.748867 0.662720 0.000000
-26.415752 -23.574188 -0.331971 333 0.748867 0.662720 0.000000
-26.410202 -23.569235 -0.321031 317 0.748867 0.662720 0.000000
-26.409409 -23.568520 -0.310148 319 0.748867 0.662720 0.000000
-26.407015 -23.566389 -0.299250 351 0.748867 0.662720 0.000000
-26.403635 -23.563368 -0.288351 349 0.748867 0.662720 0.000000
-26.408186 -23.567434 -0.277529 321 0.748867 0.662720 0.000000
-26.412725 -23.571480 -0.266697 359 0.748867 0.662720 0.000000
-26.413467 -23.556791 -0.657985 293 0.748867 0.662720 0.000000
-26.418694 -23.561457 -0.647236 321 0.748867 0.662720 0.000000
-26.417088 -23.560024 -0.636321 307 0.748867 0.662720 0.000000
-26.418663 -23.561434 -0.625486 273 0.748867 0.662720 0.000000
-26.421852 -23.564268 -0.614686 277 0.748867 0.662720 0.000000
-26.419912 -23.562551 -0.603764 295 0.748867 0.662720 0.000000
-26.419466 -23.562141 -0.592878 295 0.748867 0.662720 0.000000
-26.421223 -23.563717 -0.582041 289 0.748867 0.662720 0.000000
-26.417751 -23.560614 -0.571093 361 0.748867 0.662720 0.000000
-26.415361 -23.558485 -0.560175 349 0.748867 0.662720 0.000000
-26.417078 -23.560015 -0.549339 303 0.748867 0.662720 0.000000
-26.413691 -23.557003 -0.538400 351 0.748867 0.662720 0.000000
-26.416550 -23.559544 -0.527583 339 0.748867 0.662720 0.000000
-26.425467 -23.567495 -0.516881 345 0.748867 0.662720 0.000000
-26.423178 -23.565458 -0.505962 361 0.748867 0.662720 0.000000
-26.420938 -23.563459 -0.495042 315 0.748867 0.662720 0.000000
-26.417067 -23.560007 -0.484097 363 0.748867 0.662720 0.000000
-26.412682 -23.556107 -0.473147 335 0.748867 0.662720 0.000000
-26.417013 -23.559965 -0.462357 311 0.748867 0.662720 0.000000
-26.419891 -23.562534 -0.451531 341 0.748867 0.662720 0.000000
-26.416218 -23.559259 -0.440604 341 0.748867 0.662720 0.000000
-26.422728 -23.565058 -0.429834 355 0.748867 0.662720 0.000000
-26.425049 -23.567135 -0.418992 351 0.748867 0.662720 0.000000
-26.419806 -23.562454 -0.408040 357 0.748867 0.662720 0.000000
-26.421358 -23.563833 -0.397186 343 0.748867 0.662720 0.000000
-26.420185 -23.562799 -0.386296 317 0.748867 0.662720 0.000000
-26.418468 -23.561268 -0.375402 315 0.748867 0.662720 0.000000
-26.419823 -23.562468 -0.364549 309 0.748867 0.662720 0.000000
-26.417488 -23.560396 -0.353650 311 0.748867 0.662720 0.000000
-26.421829 -23.564260 -0.342830 319 0.748867 0.662720 0.000000
-26.424316 -23.566477 -0.331987 341 0.748867 0.662720 0.000000
-26.417604 -23.560499 -0.321038 297 0.748867 0.662720 0.000000
-26.416380 -23.559399 -0.310150 349 0.748867 0.662720 0.000000
-26.421900 -23.564329 -0.299338 335 0.748867 0.662720 0.000000
-26.422895 -23.565214 -0.288479 323 0.748867 0.662720 0.000000
-26.421822 -23.564259 -0.277589 345 0.748867 0.662720 0.000000
-26.424055 -23.566252 -0.266738 357 0.748867 0.662720 0.000000
-26.430902 -23.557261 -0.658228 321 0.748867 0.662720 0.000000
-26.427937 -23.554625 -0.647285 275 0.748867 0.662720 0.000000
-26.421581 -23.548958 -0.636253 277 0.748867 0.662720 0.000000
-26.424507 -23.551565 -0.625456 277 0.748867 0.662720 0.000000
-26.420168 -23.547699 -0.614476 311 0.748867 0.662720 0.000000
-26.421942 -23.549276 -0.603649 297 0.748867 0.662720 0.000000
-26.424141 -23.551245 -0.592829 285 0.748867 0.662720 0.000000
-26.426744 -23.553562 -0.582005 303 0.748867 0.662720 0.000000
-26.431187 -23.557520 -0.571234 309 0.748867 0.662720 0.000000
-26.429192 -23.555748 -0.560312 321 0.748867 0.662720 0.000000
-26.424669 -23.551716 -0.549343 351 0.748867 0.662720 0.000000
-26.423113 -23.550322 -0.538437 353 0.748867 0.662720 0.000000
-26.426067 -23.552963 -0.527629 329 0.748867 0.662720 0.000000
-26.426016 -23.552910 -0.516750 331 0.748867 0.662720 0.000000
-26.425596 -23.552534 -0.505873 305 0.748867 0.662720 0.000000
-26.429636 -23.556143 -0.495076 345 0.748867 0.662720 0.000000
-26.427784 -23.554495 -0.484163 331 0.748867 0.662720 0.000000
-26.427341 -23.554100 -0.473287 325 0.748867 0.662720 0.000000
-26.428541 -23.555168 -0.462435 363 0.748867 0.662720 0.000000
-26.429304 -23.555847 -0.451568 379 0.748867 0.662720 0.000000
-26.429171 -23.555733 -0.440699 267 0.748867 0.662720 0.000000
-26.426329 -23.553190 -0.429775 331 0.748867 0.662720 0.000000
-26.425922 -23.552837 -0.418898 367 0.748867 0.662720 0.000000
-26.430233 -23.556679 -0.408088 379 0.748867 0.662720 0.000000
-26.424751 -23.551792 -0.397139 373 0.748867 0.662720 0.000000
-26.418781 -23.546474 -0.386173 313 0.748867 0.662720 0.000000
-26.422237 -23.549555 -0.375361 349 0.748867 0.662720 0.000000
-26.426317 -23.553194 -0.364543 291 0.748867 0.662720 0.000000
-26.426355 -23.553223 -0.353673 289 0.748867 0.662720 0.000000
-26.424509 -23.551579 -0.342779 345 0.748867 0.662720 0.000000
-26.425415 -23.552382 -0.331911 287 0.748867 0.662720 0.000000
-26.424721 -23.551767 -0.321037 315 0.748867 0.662720 0.000000
-26.422112 -23.549444 -0.310131 345 0.748867 0.662720 0.000000
-26.421858 -23.549210 -0.299263 327 0.748867 0.662720 0.000000
-26.426229 -23.553112 -0.288442 375 0.748867 0.662720 0.000000
-26.430891 -23.557266 -0.277619 351 0.748867 0.662720 0.000000
-26.433901 -23.559950 -0.266771 313 0.748867 0.662720 0.000000
