259
-26.152700 -23.857904 -0.657967 1429 0.748867 0.662720 0.000000
-26.151930 -23.857208 -0.647074 1425 0.748867 0.662720 0.000000
-26.151966 -23.857235 -0.636204 1423 0.748867 0.662720 0.000000
-26.152157 -23.857409 -0.625332 1429 0.748867 0.662720 0.000000
-26.151878 -23.857155 -0.614454 1421 0.748867 0.662720 0.000000
-26.152391 -23.857628 -0.603589 1419 0.748867 0.662720 0.000000
-26.153004 -23.858189 -0.592723 1419 0.748867 0.662720 0.000000
-26.152548 -23.857775 -0.581847 1423 0.748867 0.662720 0.000000
-26.152617 -23.857840 -0.570966 1417 0.748867 0.662720 0.000000
-26.153122 -23.858307 -0.560111 1419 0.748867 0.662720 0.000000
-26.152819 -23.858021 -0.549224 1425 0.748867 0.662720 0.000000
-26.152775 -23.857988 -0.538354 1427 0.748867 0.662720 0.000000
-26.152830 -23.858044 -0.527483 1435 0.748867 0.662720 0.000000
-26.152576 -23.857809 -0.516605 1427 0.748867 0.662720 0.000000
-26.153120 -23.858305 -0.505740 1419 0.748867 0.662720 0.000000
-26.154045 -23.859148 -0.494881 1427 0.748867 0.662720 0.000000
-26.154139 -23.859247 -0.484010 1421 0.748867 0.662720 0.000000
-26.153992 -23.859106 -0.473131 1413 0.748867 0.662720 0.000000
-26.153553 -23.858704 -0.462255 1419 0.748867 0.662720 0.000000
-26.153824 -23.858952 -0.451382 1443 0.748867 0.662720 0.000000
-26.153700 -23.858845 -0.440503 1439 0.748867 0.662720 0.000000
-26.153206 -23.858397 -0.429627 1425 0.748867 0.662720 0.000000
-26.152330 -23.857594 -0.418735 1429 0.748867 0.662720 0.000000
-26.151814 -23.857130 -0.407860 1447 0.748867 0.662720 0.000000
-26.152397 -23.857656 -0.396994 1441 0.748867 0.662720 0.000000
-26.152969 -23.858187 -0.386128 1427 0.748867 0.662720 0.000000
-26.153915 -23.859047 -0.375269 1427 0.748867 0.662720 0.000000
-26.153034 -23.858252 -0.364387 1423 0.748867 0.662720 0.000000
-26.152086 -23.857391 -0.353506 1425 0.748867 0.662720 0.000000
-26.152967 -23.858187 -0.342647 1439 0.748867 0.662720 0.000000
-26.153425 -23.858604 -0.331773 1431 0.748867 0.662720 0.000000
-26.154188 -23.859310 -0.320915 1435 0.748867 0.662720 0.000000
-26.153736 -23.858894 -0.310039 1427 0.748867 0.662720 0.000000
-26.152498 -23.857773 -0.299150 1423 0.748867 0.662720 0.000000
-26.153578 -23.858759 -0.288290 1425 0.748867 0.662720 0.000000
-26.153692 -23.858862 -0.277419 1433 0.748867 0.662720 0.000000
-26.153168 -23.858379 -0.266544 1425 0.748867 0.662720 0.000000
-26.161621 -23.850836 -0.658009 1421 0.748867 0.662720 0.000000
-26.161568 -23.850782 -0.647129 1425 0.748867 0.662720 0.000000
-26.161051 -23.850319 -0.636244 1413 0.748867 0.662720 0.000000
-26.159786 -23.849165 -0.625335 1407 0.748867 0.662720 0.000000
-26.158577 -23.848063 -0.614436 1409 0.748867 0.662720 0.000000
-26.159040 -23.848484 -0.603572 1415 0.748867 0.662720 0.000000
-26.160902 -23.850191 -0.592734 1415 0.748867 0.662720 0.000000
-26.159904 -23.849281 -0.581843 1411 0.748867 0.662720 0.000000
-26.158998 -23.848454 -0.570951 1407 0.748867 0.662720 0.000000
-26.159670 -23.849060 -0.560085 1405 0.748867 0.662720 0.000000
-26.159943 -23.849321 -0.549222 1403 0.748867 0.662720 0.000000
-26.160126 -23.849489 -0.538350 1405 0.748867 0.662720 0.000000
-26.160292 -23.849644 -0.527478 1419 0.748867 0.662720 0.000000
-26.159990 -23.849358 -0.516601 1421 0.748867 0.662720 0.000000
-26.160101 -23.849468 -0.505729 1421 0.748867 0.662720 0.000000
-26.159937 -23.849316 -0.494851 1417 0.748867 0.662720 0.000000
-26.159836 -23.849226 -0.483981 1423 0.748867 0.662720 0.000000
-26.160534 -23.849869 -0.473115 1429 0.748867 0.662720 0.000000
-26.160532 -23.849867 -0.462244 1405 0.748867 0.662720 0.000000
-26.160591 -23.849913 -0.451374 1399 0.748867 0.662720 0.000000
-26.161268 -23.850538 -0.440507 1413 0.748867 0.662720 0.000000
-26.161757 -23.850979 -0.429642 1405 0.748867 0.662720 0.000000
-26.160551 -23.849882 -0.418753 1403 0.748867 0.662720 0.000000
-26.159824 -23.849230 -0.407870 1399 0.748867 0.662720 0.000000
-26.160835 -23.850151 -0.397010 1409 0.748867 0.662720 0.000000
-26.160374 -23.849731 -0.386134 1403 0.748867 0.662720 0.000000
-26.160788 -23.850101 -0.375270 1411 0.748867 0.662720 0.000000
-26.160646 -23.849981 -0.364391 1397 0.748867 0.662720 0.000000
-26.159168 -23.848635 -0.353504 1407 0.748867 0.662720 0.000000
-26.159941 -23.849346 -0.342637 1403 0.748867 0.662720 0.000000
-26.160776 -23.850105 -0.331779 1403 0.748867 0.662720 0.000000
-26.161062 -23.850367 -0.320906 1419 0.748867 0.662720 0.000000
-26.161728 -23.850969 -0.310040 1427 0.748867 0.662720 0.000000
-26.162001 -23.851231 -0.299177 1421 0.748867 0.662720 0.000000
-26.161709 -23.850952 -0.288299 1409 0.748867 0.662720 0.000000
-26.161011 -23.850325 -0.277415 1415 0.748867 0.662720 0.000000
-26.160145 -23.849541 -0.266543 1407 0.748867 0.662720 0.000000
-26.169210 -23.841967 -0.658006 1427 0.748867 0.662720 0.000000
-26.169142 -23.841913 -0.647126 1419 0.748867 0.662720 0.000000
-26.168695 -23.841503 -0.636240 1409 0.748867 0.662720 0.000000
-26.168192 -23.841053 -0.625354 1413 0.748867 0.662720 0.000000
-26.167995 -23.840874 -0.614476 1419 0.748867 0.662720 0.000000
-26.167370 -23.840302 -0.603582 1409 0.748867 0.662720 0.000000
-26.168367 -23.841211 -0.592732 1419 0.748867 0.662720 0.000000
-26.169212 -23.841980 -0.581874 1421 0.748867 0.662720 0.000000
-26.168789 -23.841602 -0.570998 1425 0.748867 0.662720 0.000000
-26.167841 -23.840729 -0.560096 1421 0.748867 0.662720 0.000000
-26.168137 -23.841009 -0.549233 1425 0.748867 0.662720 0.000000
-26.168467 -23.841312 -0.538370 1413 0.748867 0.662720 0.000000
-26.168211 -23.841078 -0.527482 1403 0.748867 0.662720 0.000000
-26.169136 -23.841919 -0.516633 1407 0.748867 0.662720 0.000000
-26.168930 -23.841736 -0.505755 1403 0.748867 0.662720 0.000000
-26.167526 -23.840458 -0.494857 1409 0.748867 0.662720 0.000000
-26.167368 -23.840311 -0.483979 1405 0.748867 0.662720 0.000000
-26.168882 -23.841700 -0.473134 1405 0.748867 0.662720 0.000000
-26.169088 -23.841885 -0.462262 1421 0.748867 0.662720 0.000000
-26.167997 -23.840887 -0.451372 1409 0.748867 0.662720 0.000000
-26.168203 -23.841085 -0.440500 1399 0.748867 0.662720 0.000000
-26.168959 -23.841772 -0.429643 1395 0.748867 0.662720 0.000000
-26.168077 -23.840975 -0.418750 1403 0.748867 0.662720 0.000000
-26.167023 -23.840008 -0.407860 1419 0.748867 0.662720 0.000000
-26.167116 -23.840092 -0.396989 1419 0.748867 0.662720 0.000000
-26.167412 -23.840372 -0.386126 1411 0.748867 0.662720 0.000000
-26.167667 -23.840595 -0.375253 1419 0.748867 0.662720 0.000000
-26.167374 -23.840330 -0.364386 1407 0.748867 0.662720 0.000000
-26.167936 -23.840853 -0.353520 1409 0.748867 0.662720 0.000000
-26.168447 -23.841312 -0.342655 1403 0.748867 0.662720 0.000000
-26.168148 -23.841042 -0.331778 1413 0.748867 0.662720 0.000000
-26.168489 -23.841356 -0.320904 1413 0.748867 0.662720 0.000000
-26.168230 -23.841118 -0.310036 1395 0.748867 0.662720 0.000000
-26.168354 -23.841240 -0.299165 1401 0.748867 0.662720 0.000000
-26.169134 -23.841944 -0.288298 1425 0.748867 0.662720 0.000000
-26.168541 -23.841410 -0.277423 1423 0.748867 0.662720 0.000000
-26.167839 -23.840776 -0.266539 1427 0.748867 0.662720 0.000000
-26.176853 -23.833151 -0.658002 1417 0.748867 0.662720 0.000000
-26.176130 -23.832491 -0.647109 1427 0.748867 0.662720 0.000000
-26.175461 -23.831882 -0.636215 1417 0.748867 0.662720 0.000000
-26.176149 -23.832504 -0.625358 1421 0.748867 0.662720 0.000000
-26.176712 -23.833027 -0.614502 1415 0.748867 0.662720 0.000000
-26.176048 -23.832424 -0.603608 1415 0.748867 0.662720 0.000000
-26.176126 -23.832497 -0.592737 1419 0.748867 0.662720 0.000000
-26.175726 -23.832125 -0.581851 1417 0.748867 0.662720 0.000000
-26.175579 -23.831999 -0.570972 1411 0.748867 0.662720 0.000000
-26.175753 -23.832159 -0.560110 1409 0.748867 0.662720 0.000000
-26.175993 -23.832382 -0.549237 1421 0.748867 0.662720 0.000000
-26.175247 -23.831703 -0.538344 1419 0.748867 0.662720 0.000000
-26.174829 -23.831318 -0.527468 1415 0.748867 0.662720 0.000000
-26.176071 -23.832455 -0.516616 1399 0.748867 0.662720 0.000000
-26.176075 -23.832458 -0.505746 1421 0.748867 0.662720 0.000000
-26.175049 -23.831524 -0.494855 1409 0.748867 0.662720 0.000000
-26.174625 -23.831133 -0.483969 1393 0.748867 0.662720 0.000000
-26.175156 -23.831619 -0.473103 1401 0.748867 0.662720 0.000000
-26.175440 -23.831879 -0.462241 1397 0.748867 0.662720 0.000000
-26.175198 -23.831665 -0.451362 1393 0.748867 0.662720 0.000000
-26.175694 -23.832113 -0.440498 1393 0.748867 0.662720 0.000000
-26.176167 -23.832554 -0.429633 1387 0.748867 0.662720 0.000000
-26.175615 -23.832052 -0.418748 1395 0.748867 0.662720 0.000000
-26.175323 -23.831787 -0.407880 1403 0.748867 0.662720 0.000000
-26.175842 -23.832266 -0.397015 1423 0.748867 0.662720 0.000000
-26.175880 -23.832294 -0.386135 1409 0.748867 0.662720 0.000000
-26.174885 -23.831385 -0.375254 1391 0.748867 0.662720 0.000000
-26.175066 -23.831564 -0.364382 1393 0.748867 0.662720 0.000000
-26.175797 -23.832230 -0.353525 1403 0.748867 0.662720 0.000000
-26.175882 -23.832296 -0.342654 1407 0.748867 0.662720 0.000000
-26.176163 -23.832563 -0.331781 1393 0.748867 0.662720 0.000000
-26.176672 -23.833021 -0.320916 1407 0.748867 0.662720 0.000000
-26.176907 -23.833241 -0.310043 1409 0.748867 0.662720 0.000000
-26.176483 -23.832863 -0.299167 1411 0.748867 0.662720 0.000000
-26.176336 -23.832722 -0.288298 1411 0.748867 0.662720 0.000000
-26.176502 -23.832876 -0.277426 1411 0.748867 0.662720 0.000000
-26.176176 -23.832586 -0.266549 1419 0.748867 0.662720 0.000000
-26.184532 -23.824930 -0.658005 1415 0.748867 0.662720 0.000000
-26.183651 -23.824135 -0.647113 1411 0.748867 0.662720 0.000000
-26.183147 -23.823668 -0.636228 1399 0.748867 0.662720 0.000000
-26.183506 -23.823997 -0.625354 1421 0.748867 0.662720 0.000000
-26.182882 -23.823437 -0.614470 1413 0.748867 0.662720 0.000000
-26.183073 -23.823610 -0.603598 1413 0.748867 0.662720 0.000000
-26.183588 -23.824085 -0.592732 1417 0.748867 0.662720 0.000000
-26.182480 -23.823076 -0.581843 1407 0.748867 0.662720 0.000000
-26.182499 -23.823092 -0.570962 1407 0.748867 0.662720 0.000000
-26.183760 -23.824244 -0.560120 1401 0.748867 0.662720 0.000000
-26.184147 -23.824593 -0.549256 1407 0.748867 0.662720 0.000000
-26.183731 -23.824221 -0.538370 1421 0.748867 0.662720 0.000000
-26.183960 -23.824425 -0.527498 1405 0.748867 0.662720 0.000000
-26.184023 -23.824486 -0.516627 1407 0.748867 0.662720 0.000000
-26.184250 -23.824686 -0.505764 1419 0.748867 0.662720 0.000000
-26.183937 -23.824406 -0.494877 1415 0.748867 0.662720 0.000000
-26.183764 -23.824261 -0.484008 1421 0.748867 0.662720 0.000000
-26.183712 -23.824207 -0.473128 1419 0.748867 0.662720 0.000000
-26.182247 -23.822872 -0.462232 1401 0.748867 0.662720 0.000000
-26.182247 -23.822870 -0.451362 1383 0.748867 0.662720 0.000000
-26.182713 -23.823307 -0.440497 1395 0.748867 0.662720 0.000000
-26.182814 -23.823397 -0.429626 1395 0.748867 0.662720 0.000000
-26.182213 -23.822844 -0.418741 1403 0.748867 0.662720 0.000000
-26.182457 -23.823072 -0.407869 1401 0.748867 0.662720 0.000000
-26.183199 -23.823746 -0.397011 1407 0.748867 0.662720 0.000000
-26.182903 -23.823481 -0.386134 1409 0.748867 0.662720 0.000000
-26.183466 -23.824003 -0.375268 1415 0.748867 0.662720 0.000000
-26.183987 -23.824469 -0.364403 1411 0.748867 0.662720 0.000000
-26.183636 -23.824146 -0.353526 1399 0.748867 0.662720 0.000000
-26.182955 -23.823532 -0.342652 1405 0.748867 0.662720 0.000000
-26.182268 -23.822910 -0.331768 1393 0.748867 0.662720 0.000000
-26.182676 -23.823278 -0.320904 1399 0.748867 0.662720 0.000000
-26.183327 -23.823881 -0.310038 1411 0.748867 0.662720 0.000000
-26.183571 -23.824097 -0.299166 1403 0.748867 0.662720 0.000000
-26.183369 -23.823914 -0.288297 1401 0.748867 0.662720 0.000000
-26.182768 -23.823374 -0.277413 1403 0.748867 0.662720 0.000000
-26.182774 -23.823378 -0.266542 1405 0.748867 0.662720 0.000000
-26.190832 -23.816591 -0.657996 1397 0.748867 0.662720 0.000000
-26.189468 -23.815359 -0.647088 1397 0.748867 0.662720 0.000000
-26.189617 -23.815489 -0.636217 1397 0.748867 0.662720 0.000000
-26.190725 -23.816498 -0.625366 1413 0.748867 0.662720 0.000000
-26.190369 -23.816183 -0.614489 1415 0.748867 0.662720 0.000000
-26.189640 -23.815517 -0.603596 1409 0.748867 0.662720 0.000000
-26.189671 -23.815540 -0.592725 1421 0.748867 0.662720 0.000000
-26.189795 -23.815662 -0.581854 1417 0.748867 0.662720 0.000000
-26.189701 -23.815578 -0.570974 1395 0.748867 0.662720 0.000000
-26.188976 -23.814915 -0.560081 1409 0.748867 0.662720 0.000000
-26.189575 -23.815468 -0.549225 1413 0.748867 0.662720 0.000000
-26.190838 -23.816622 -0.538373 1413 0.748867 0.662720 0.000000
-26.190044 -23.815893 -0.527490 1405 0.748867 0.662720 0.000000
-26.189840 -23.815710 -0.516612 1407 0.748867 0.662720 0.000000
-26.189894 -23.815763 -0.505741 1413 0.748867 0.662720 0.000000
-26.190004 -23.815861 -0.494870 1409 0.748867 0.662720 0.000000
-26.190014 -23.815870 -0.483989 1403 0.748867 0.662720 0.000000
-26.190119 -23.815977 -0.473128 1393 0.748867 0.662720 0.000000
-26.189463 -23.815382 -0.462234 1395 0.748867 0.662720 0.000000
-26.189348 -23.815279 -0.451365 1403 0.748867 0.662720 0.000000
-26.190027 -23.815893 -0.440508 1395 0.748867 0.662720 0.000000
-26.190245 -23.816086 -0.429636 1401 0.748867 0.662720 0.000000
-26.190609 -23.816420 -0.418772 1391 0.748867 0.662720 0.000000
-26.190317 -23.816154 -0.407895 1405 0.748867 0.662720 0.000000
-26.190685 -23.816490 -0.397021 1397 0.748867 0.662720 0.000000
-26.191248 -23.817015 -0.386155 1417 0.748867 0.662720 0.000000
-26.190203 -23.816053 -0.375275 1407 0.748867 0.662720 0.000000
-26.188885 -23.814856 -0.364377 1403 0.748867 0.662720 0.000000
-26.189337 -23.815281 -0.353512 1399 0.748867 0.662720 0.000000
-26.190491 -23.816328 -0.342661 1401 0.748867 0.662720 0.000000
-26.190958 -23.816751 -0.331797 1397 0.748867 0.662720 0.000000
-26.190218 -23.816078 -0.320913 1401 0.748867 0.662720 0.000000
-26.189024 -23.815001 -0.310024 1393 0.748867 0.662720 0.000000
-26.188997 -23.814981 -0.299154 1395 0.748867 0.662720 0.000000
-26.189880 -23.815777 -0.288296 1401 0.748867 0.662720 0.000000
-26.190159 -23.816031 -0.277423 1395 0.748867 0.662720 0.000000
-26.191133 -23.816927 -0.266564 1403 0.748867 0.662720 0.000000
-26.197382 -23.808523 -0.657984 1427 0.748867 0.662720 0.000000
-26.197361 -23.808508 -0.647114 1433 0.748867 0.662720 0.000000
-26.197012 -23.808186 -0.636227 1421 0.748867 0.662720 0.000000
-26.197105 -23.808271 -0.625356 1417 0.748867 0.662720 0.000000
-26.197346 -23.808495 -0.614493 1411 0.748867 0.662720 0.000000
-26.197010 -23.808184 -0.603606 1415 0.748867 0.662720 0.000000
-26.197563 -23.808689 -0.592740 1415 0.748867 0.662720 0.000000
-26.197914 -23.809011 -0.581877 1401 0.748867 0.662720 0.000000
-26.197290 -23.808453 -0.570992 1401 0.748867 0.662720 0.000000
-26.196718 -23.807934 -0.560108 1397 0.748867 0.662720 0.000000
-26.196777 -23.807991 -0.549237 1401 0.748867 0.662720 0.000000
-26.196695 -23.807915 -0.538357 1397 0.748867 0.662720 0.000000
-26.195345 -23.806694 -0.527459 1393 0.748867 0.662720 0.000000
-26.195198 -23.806553 -0.516581 1395 0.748867 0.662720 0.000000
-26.197369 -23.808525 -0.505750 1409 0.748867 0.662720 0.000000
-26.197426 -23.808580 -0.494879 1403 0.748867 0.662720 0.000000
-26.196823 -23.808039 -0.483995 1401 0.748867 0.662720 0.000000
-26.195843 -23.807140 -0.473104 1399 0.748867 0.662720 0.000000
-26.194754 -23.806158 -0.462213 1391 0.748867 0.662720 0.000000
-26.196001 -23.807289 -0.451362 1401 0.748867 0.662720 0.000000
-26.196915 -23.808123 -0.440503 1415 0.748867 0.662720 0.000000
-26.197067 -23.808266 -0.429631 1397 0.748867 0.662720 0.000000
-26.197313 -23.808495 -0.418769 1395 0.748867 0.662720 0.000000
-26.197414 -23.808586 -0.407897 1399 0.748867 0.662720 0.000000
-26.198208 -23.809301 -0.397040 1401 0.748867 0.662720 0.000000
-26.197588 -23.808744 -0.386155 1401 0.748867 0.662720 0.000000
-26.196486 -23.807739 -0.375265 1391 0.748867 0.662720 0.000000
-26.196037 -23.807329 -0.364389 1393 0.748867 0.662720 0.000000
-26.195841 -23.807152 -0.353511 1399 0.748867 0.662720 0.000000
-26.196396 -23.807671 -0.342645 1389 0.748867 0.662720 0.000000
-26.196806 -23.808037 -0.331781 1397 0.748867 0.662720 0.000000
-26.196983 -23.808201 -0.320909 1399 0.748867 0.662720 0.000000
-26.197046 -23.808262 -0.310038 1399 0.748867 0.662720 0.000000
-26.198254 -23.809361 -0.299187 1401 0.748867 0.662720 0.000000
-26.198542 -23.809622 -0.288314 1407 0.748867 0.662720 0.000000
-26.197458 -23.808643 -0.277434 1407 0.748867 0.662720 0.000000
-26.197075 -23.808296 -0.266557 1407 0.748867 0.662720 0.000000
