774
-0.807254 -0.975299 -0.337121 1709 0.746816 0.665031 0.000000
-0.807684 -0.975819 -0.336886 1715 0.746816 0.665031 0.000000
-0.807613 -0.975726 -0.336437 1711 0.746816 0.665031 0.000000
-0.807536 -0.975641 -0.335987 1707 0.746816 0.665031 0.000000
-0.807609 -0.975722 -0.335597 1705 0.746816 0.665031 0.000000
-0.807810 -0.975965 -0.335265 1709 0.746816 0.665031 0.000000
-0.807962 -0.976158 -0.334913 1715 0.746816 0.665031 0.000000
-0.807621 -0.975743 -0.334357 1717 0.746816 0.665031 0.000000
-0.807274 -0.975335 -0.333800 1715 0.746816 0.665031 0.000000
-0.806932 -0.974920 -0.333244 1713 0.746816 0.665030 0.000000
-0.806777 -0.974724 -0.332755 1713 0.746816 0.665031 0.000000
-0.807199 -0.975238 -0.332521 1711 0.746816 0.665030 0.000000
-0.807350 -0.975431 -0.332169 1707 0.746816 0.665030 0.000000
-0.807467 -0.975570 -0.331798 1703 0.746816 0.665030 0.000000
-0.807439 -0.975536 -0.331368 1705 0.746816 0.665031 0.000000
-0.807283 -0.975340 -0.330890 1709 0.746816 0.665031 0.000000
-0.807206 -0.975254 -0.330441 1713 0.746816 0.665031 0.000000
-0.807230 -0.975285 -0.330041 1715 0.746816 0.665030 0.000000
-0.807431 -0.975528 -0.329708 1713 0.746816 0.665031 0.000000
-0.807403 -0.975494 -0.329279 1715 0.746816 0.665031 0.000000
-0.807275 -0.975344 -0.328810 1715 0.746816 0.665030 0.000000
-0.807305 -0.975366 -0.328410 1715 0.746816 0.665031 0.000000
-0.807364 -0.975449 -0.328019 1715 0.746816 0.665031 0.000000
-0.807478 -0.975575 -0.327648 1711 0.746816 0.665031 0.000000
-0.807224 -0.975277 -0.327131 1711 0.746816 0.665031 0.000000
-0.807289 -0.975352 -0.326740 1707 0.746816 0.665031 0.000000
-0.807354 -0.975427 -0.326349 1709 0.746816 0.665031 0.000000
-0.807233 -0.975283 -0.325890 1713 0.746816 0.665031 0.000000
-0.807121 -0.975146 -0.325422 1709 0.746816 0.665031 0.000000
-0.806858 -0.974842 -0.324904 1709 0.746816 0.665031 0.000000
-0.806967 -0.974975 -0.324533 1715 0.746816 0.665031 0.000000
-0.807081 -0.975101 -0.324162 1717 0.746816 0.665030 0.000000
-0.807326 -0.975403 -0.323849 1719 0.746816 0.665030 0.000000
-0.807298 -0.975368 -0.323430 1723 0.746816 0.665030 0.000000
-0.807271 -0.975334 -0.323000 1723 0.746816 0.665031 0.000000
-0.807464 -0.975571 -0.322668 1723 0.746816 0.665031 0.000000
-0.807302 -0.975383 -0.322190 1721 0.746816 0.665030 0.000000
-0.807416 -0.975508 -0.321818 1721 0.746816 0.665031 0.000000
-0.807560 -0.975695 -0.321457 1723 0.746816 0.665031 0.000000
-0.807625 -0.975770 -0.321076 1721 0.746816 0.665030 0.000000
-0.807690 -0.975845 -0.320685 1721 0.746816 0.665031 0.000000
-0.807578 -0.975707 -0.320227 1725 0.746816 0.665030 0.000000
-0.807365 -0.975454 -0.319729 1729 0.746816 0.665031 0.000000
-0.807288 -0.975369 -0.319280 1727 0.746816 0.665031 0.000000
-0.807666 -0.975825 -0.319016 1727 0.746816 0.665031 0.000000
-0.807917 -0.976119 -0.318703 1723 0.746816 0.665031 0.000000
-0.807568 -0.975697 -0.318147 1723 0.746816 0.665031 0.000000
-0.807584 -0.975722 -0.317746 1725 0.746816 0.665031 0.000000
-0.807735 -0.975914 -0.317395 1723 0.746816 0.665031 0.000000
-0.807664 -0.975821 -0.316946 1721 0.746816 0.665030 0.000000
-0.807587 -0.975736 -0.316506 1719 0.746816 0.665031 0.000000
-0.807424 -0.975533 -0.316028 1723 0.746816 0.665031 0.000000
-0.807211 -0.975280 -0.315530 1725 0.746816 0.665031 0.000000
-0.807276 -0.975355 -0.315140 1727 0.746816 0.665031 0.000000
-0.807240 -0.975314 -0.314720 1727 0.746816 0.665031 0.000000
-0.806934 -0.974952 -0.314183 1729 0.746816 0.665030 0.000000
-0.806956 -0.974968 -0.313783 1729 0.746816 0.665031 0.000000
-0.807242 -0.975315 -0.313480 1723 0.746816 0.665031 0.000000
-0.807536 -0.975667 -0.313177 1719 0.746816 0.665031 0.000000
-0.807323 -0.975414 -0.312679 1719 0.746816 0.665031 0.000000
-0.807202 -0.975270 -0.312220 1719 0.746816 0.665031 0.000000
-0.807352 -0.975448 -0.311869 1719 0.746816 0.665031 0.000000
-0.807368 -0.975473 -0.311459 1721 0.746816 0.665031 0.000000
-0.807332 -0.975432 -0.311039 1719 0.746816 0.665031 0.000000
-0.807169 -0.975230 -0.310561 1719 0.746816 0.665031 0.000000
-0.807326 -0.975414 -0.310209 1723 0.746816 0.665031 0.000000
-0.807427 -0.975542 -0.309838 1729 0.746816 0.665031 0.000000
-0.807265 -0.975353 -0.309360 1729 0.746816 0.665031 0.000000
-0.807322 -0.975422 -0.308969 1731 0.746816 0.665030 0.000000
-0.807701 -0.975878 -0.308705 1731 0.746816 0.665031 0.000000
-0.808172 -0.976444 -0.308470 1729 0.746816 0.665030 0.000000
-0.808052 -0.976300 -0.308011 1729 0.746816 0.665031 0.000000
-0.807517 -0.975660 -0.307397 1723 0.746816 0.665030 0.000000
-0.807310 -0.975398 -0.306899 1719 0.746816 0.665031 0.000000
-0.807275 -0.975358 -0.306479 1717 0.746816 0.665030 0.000000
-0.807561 -0.975704 -0.306176 1723 0.746816 0.665030 0.000000
-0.807848 -0.976065 -0.305873 1727 0.746816 0.665030 0.000000
-0.807906 -0.976134 -0.305483 1725 0.746816 0.665031 0.000000
-0.807835 -0.976041 -0.305043 1723 0.746816 0.665031 0.000000
-0.807750 -0.975950 -0.304604 1721 0.746816 0.665031 0.000000
-0.807764 -0.975960 -0.304194 1727 0.746816 0.665031 0.000000
-0.807921 -0.976144 -0.303842 1733 0.746816 0.665031 0.000000
-0.807886 -0.976104 -0.303423 1731 0.746816 0.665031 0.000000
-0.807673 -0.975851 -0.302925 1727 0.746816 0.665031 0.000000
-0.807594 -0.975751 -0.302486 1725 0.746816 0.665031 0.000000
-0.807923 -0.976156 -0.302202 1729 0.746816 0.665031 0.000000
-0.808124 -0.976400 -0.301860 1731 0.746816 0.665030 0.000000
-0.807909 -0.976132 -0.301373 1727 0.746816 0.665031 0.000000
-0.807876 -0.976106 -0.300953 1725 0.746816 0.665031 0.000000
-0.807661 -0.975839 -0.300455 1721 0.746816 0.665030 0.000000
-0.807540 -0.975695 -0.299996 1723 0.746816 0.665031 0.000000
-0.807690 -0.975873 -0.299645 1729 0.746816 0.665031 0.000000
-0.807791 -0.976001 -0.299274 1733 0.746816 0.665030 0.000000
-0.807848 -0.976070 -0.298883 1739 0.746816 0.665031 0.000000
-0.807913 -0.976145 -0.298492 1737 0.746816 0.665031 0.000000
-0.807834 -0.976046 -0.298053 1733 0.746816 0.665031 0.000000
-0.807842 -0.976064 -0.297643 1733 0.746816 0.665031 0.000000
-0.808350 -0.975990 -0.359232 1701 0.746816 0.665031 0.000000
-0.808153 -0.975749 -0.358724 1701 0.746816 0.665030 0.000000
-0.807770 -0.975289 -0.358129 1699 0.746816 0.665031 0.000000
-0.807344 -0.974770 -0.357523 1693 0.746816 0.665031 0.000000
-0.807368 -0.974801 -0.357113 1689 0.746816 0.665030 0.000000
-0.807661 -0.975154 -0.356820 1695 0.746816 0.665030 0.000000
-0.807592 -0.975074 -0.356370 1701 0.746816 0.665031 0.000000
-0.807801 -0.975324 -0.356048 1705 0.746816 0.665031 0.000000
-0.808190 -0.975800 -0.355794 1709 0.746816 0.665031 0.000000
-0.808121 -0.975721 -0.355345 1703 0.746816 0.665030 0.000000
-0.807923 -0.975480 -0.354837 1701 0.746816 0.665031 0.000000
-0.808438 -0.976104 -0.354651 1703 0.746816 0.665031 0.000000
-0.808647 -0.976353 -0.354319 1703 0.746816 0.665031 0.000000
-0.808221 -0.975834 -0.353714 1707 0.746816 0.665031 0.000000
-0.808152 -0.975755 -0.353264 1711 0.746816 0.665031 0.000000
-0.808404 -0.976063 -0.352952 1711 0.746816 0.665031 0.000000
-0.808199 -0.975816 -0.352444 1709 0.746816 0.665030 0.000000
-0.807816 -0.975356 -0.351858 1703 0.746816 0.665031 0.000000
-0.807704 -0.975218 -0.351389 1699 0.746816 0.665030 0.000000
-0.807769 -0.975293 -0.350998 1701 0.746816 0.665030 0.000000
-0.807751 -0.975279 -0.350569 1699 0.746816 0.665030 0.000000
-0.807767 -0.975303 -0.350158 1701 0.746816 0.665030 0.000000
-0.808112 -0.975721 -0.349895 1697 0.746816 0.665031 0.000000
-0.808185 -0.975802 -0.349504 1699 0.746816 0.665030 0.000000
-0.808343 -0.975986 -0.349152 1703 0.746816 0.665030 0.000000
-0.808325 -0.975972 -0.348722 1703 0.746816 0.665031 0.000000
-0.807934 -0.975506 -0.348136 1699 0.746816 0.665031 0.000000
-0.807814 -0.975362 -0.347668 1699 0.746816 0.665031 0.000000
-0.808208 -0.975830 -0.347424 1697 0.746816 0.665031 0.000000
-0.808589 -0.976300 -0.347169 1705 0.746816 0.665031 0.000000
-0.808476 -0.976163 -0.346701 1709 0.746816 0.665030 0.000000
-0.808456 -0.976134 -0.346271 1711 0.746816 0.665031 0.000000
-0.808159 -0.975778 -0.345724 1707 0.746816 0.665031 0.000000
-0.807953 -0.975531 -0.345216 1703 0.746816 0.665031 0.000000
-0.807934 -0.975502 -0.344786 1703 0.746816 0.665031 0.000000
-0.807728 -0.975255 -0.344289 1703 0.746816 0.665030 0.000000
-0.807703 -0.975235 -0.343859 1701 0.746816 0.665031 0.000000
-0.807953 -0.975529 -0.343546 1703 0.746816 0.665030 0.000000
-0.807756 -0.975287 -0.343038 1701 0.746816 0.665031 0.000000
-0.807957 -0.975531 -0.342706 1701 0.746816 0.665031 0.000000
-0.807981 -0.975561 -0.342306 1701 0.746816 0.665031 0.000000
-0.807860 -0.975417 -0.341837 1701 0.746816 0.665031 0.000000
-0.807655 -0.975170 -0.341329 1705 0.746816 0.665031 0.000000
-0.807357 -0.974814 -0.340792 1707 0.746816 0.665031 0.000000
-0.807381 -0.974844 -0.340382 1705 0.746816 0.665031 0.000000
-0.807582 -0.975087 -0.340050 1711 0.746816 0.665031 0.000000
-0.807826 -0.975389 -0.339737 1713 0.746816 0.665031 0.000000
-0.808085 -0.975689 -0.339425 1713 0.746816 0.665031 0.000000
-0.808286 -0.975932 -0.339092 1719 0.746816 0.665031 0.000000
-0.808394 -0.976066 -0.338721 1715 0.746816 0.665031 0.000000
-0.808148 -0.975774 -0.338204 1709 0.746816 0.665031 0.000000
-0.807662 -0.975184 -0.337579 1707 0.746816 0.665031 0.000000
-0.807500 -0.974996 -0.337101 1711 0.746816 0.665031 0.000000
-0.807887 -0.975458 -0.336847 1717 0.746816 0.665030 0.000000
-0.808181 -0.975811 -0.336554 1715 0.746816 0.665031 0.000000
-0.807883 -0.975454 -0.336007 1709 0.746816 0.665031 0.000000
-0.807763 -0.975310 -0.335538 1709 0.746816 0.665031 0.000000
-0.808151 -0.975786 -0.335284 1711 0.746816 0.665031 0.000000
-0.808309 -0.975971 -0.334932 1713 0.746816 0.665031 0.000000
-0.807832 -0.975387 -0.334317 1713 0.746816 0.665030 0.000000
-0.807484 -0.974980 -0.333761 1713 0.746816 0.665031 0.000000
-0.807321 -0.974777 -0.333273 1713 0.746816 0.665031 0.000000
-0.807251 -0.974698 -0.332833 1709 0.746816 0.665031 0.000000
-0.807494 -0.974986 -0.332521 1709 0.746816 0.665031 0.000000
-0.807476 -0.974972 -0.332091 1707 0.746816 0.665031 0.000000
-0.807313 -0.974769 -0.331613 1703 0.746816 0.665031 0.000000
-0.807285 -0.974735 -0.331183 1705 0.746816 0.665031 0.000000
-0.807486 -0.974978 -0.330851 1711 0.746816 0.665031 0.000000
-0.807823 -0.975389 -0.330577 1715 0.746816 0.665031 0.000000
-0.807839 -0.975414 -0.330167 1715 0.746816 0.665031 0.000000
-0.807683 -0.975217 -0.329679 1713 0.746816 0.665031 0.000000
-0.807377 -0.974855 -0.329142 1717 0.746816 0.665030 0.000000
-0.807265 -0.974717 -0.328683 1717 0.746816 0.665031 0.000000
-0.807466 -0.974960 -0.328351 1717 0.746816 0.665031 0.000000
-0.807574 -0.975094 -0.327980 1715 0.746816 0.665031 0.000000
-0.807639 -0.975169 -0.327589 1713 0.746816 0.665031 0.000000
-0.807748 -0.975303 -0.327218 1713 0.746816 0.665030 0.000000
-0.807627 -0.975159 -0.326759 1711 0.746816 0.665031 0.000000
-0.807330 -0.974802 -0.326222 1713 0.746816 0.665031 0.000000
-0.807166 -0.974600 -0.325734 1715 0.746816 0.665031 0.000000
-0.807318 -0.974792 -0.325382 1713 0.746816 0.665030 0.000000
-0.807519 -0.975035 -0.325050 1713 0.746816 0.665031 0.000000
-0.807540 -0.975051 -0.324650 1719 0.746816 0.665030 0.000000
-0.807785 -0.975353 -0.324327 1721 0.746816 0.665031 0.000000
-0.808035 -0.975647 -0.324015 1727 0.746816 0.665031 0.000000
-0.807915 -0.975503 -0.323556 1731 0.746816 0.665030 0.000000
-0.807653 -0.975199 -0.323039 1729 0.746816 0.665031 0.000000
-0.807589 -0.975112 -0.322589 1731 0.746816 0.665031 0.000000
-0.807376 -0.974859 -0.322092 1727 0.746816 0.665031 0.000000
-0.807662 -0.975206 -0.321799 1723 0.746816 0.665031 0.000000
-0.807999 -0.975617 -0.321515 1723 0.746816 0.665031 0.000000
-0.808157 -0.975801 -0.321163 1723 0.746816 0.665031 0.000000
-0.808402 -0.976103 -0.320851 1729 0.746816 0.665031 0.000000
-0.808009 -0.975623 -0.320275 1731 0.746816 0.665031 0.000000
-0.807390 -0.974880 -0.319621 1727 0.746816 0.665030 0.000000
-0.807313 -0.974795 -0.319172 1719 0.746816 0.665031 0.000000
-0.807648 -0.975192 -0.318889 1725 0.746816 0.665031 0.000000
-0.807798 -0.975370 -0.318537 1729 0.746816 0.665031 0.000000
-0.807950 -0.975562 -0.318185 1729 0.746816 0.665030 0.000000
-0.807922 -0.975528 -0.317756 1729 0.746816 0.665030 0.000000
-0.807766 -0.975332 -0.317287 1727 0.746816 0.665031 0.000000
-0.807825 -0.975415 -0.316897 1721 0.746816 0.665030 0.000000
-0.807611 -0.975147 -0.316399 1717 0.746816 0.665030 0.000000
-0.807585 -0.975127 -0.315969 1723 0.746816 0.665031 0.000000
-0.807827 -0.975415 -0.315657 1729 0.746816 0.665031 0.000000
-0.807656 -0.975206 -0.315179 1729 0.746816 0.665031 0.000000
-0.807350 -0.974844 -0.314642 1729 0.746816 0.665030 0.000000
-0.807330 -0.974815 -0.314222 1731 0.746816 0.665031 0.000000
-0.807523 -0.975052 -0.313890 1731 0.746816 0.665031 0.000000
-0.807673 -0.975231 -0.313528 1729 0.746816 0.665031 0.000000
-0.807825 -0.975423 -0.313177 1725 0.746816 0.665030 0.000000
-0.807618 -0.975162 -0.312679 1723 0.746816 0.665030 0.000000
-0.807362 -0.974850 -0.312172 1721 0.746816 0.665031 0.000000
-0.807413 -0.974927 -0.311781 1719 0.746816 0.665031 0.000000
-0.807435 -0.974943 -0.311371 1721 0.746816 0.665031 0.000000
-0.807450 -0.974968 -0.310971 1721 0.746816 0.665031 0.000000
-0.807515 -0.975043 -0.310580 1725 0.746816 0.665031 0.000000
-0.807716 -0.975286 -0.310248 1725 0.746816 0.665031 0.000000
-0.807681 -0.975245 -0.309818 1727 0.746816 0.665031 0.000000
-0.807509 -0.975037 -0.309340 1729 0.746816 0.665030 0.000000
-0.807574 -0.975112 -0.308949 1733 0.746816 0.665031 0.000000
-0.807955 -0.975582 -0.308685 1733 0.746816 0.665030 0.000000
-0.808061 -0.975701 -0.308314 1731 0.746816 0.665031 0.000000
-0.807799 -0.975397 -0.307807 1725 0.746816 0.665030 0.000000
-0.807499 -0.975027 -0.307280 1725 0.746816 0.665031 0.000000
-0.807328 -0.974818 -0.306802 1727 0.746816 0.665030 0.000000
-0.807706 -0.975274 -0.306528 1721 0.746816 0.665031 0.000000
-0.807951 -0.975576 -0.306215 1723 0.746816 0.665031 0.000000
-0.807822 -0.975426 -0.305756 1723 0.746816 0.665031 0.000000
-0.807844 -0.975442 -0.305346 1723 0.746816 0.665030 0.000000
-0.807860 -0.975467 -0.304946 1721 0.746816 0.665030 0.000000
-0.807874 -0.975477 -0.304536 1723 0.746816 0.665031 0.000000
-0.807840 -0.975450 -0.304116 1727 0.746816 0.665031 0.000000
-0.807804 -0.975410 -0.303686 1729 0.746816 0.665031 0.000000
-0.807826 -0.975426 -0.303286 1729 0.746816 0.665031 0.000000
-0.807791 -0.975386 -0.302857 1729 0.746816 0.665031 0.000000
-0.807526 -0.975068 -0.302349 1727 0.746816 0.665031 0.000000
-0.807913 -0.975530 -0.302085 1731 0.746816 0.665031 0.000000
-0.808335 -0.976044 -0.301831 1731 0.746816 0.665030 0.000000
-0.808349 -0.976054 -0.301421 1729 0.746816 0.665031 0.000000
-0.808035 -0.975686 -0.300894 1725 0.746816 0.665030 0.000000
-0.807822 -0.975433 -0.300406 1725 0.746816 0.665031 0.000000
-0.807879 -0.975501 -0.300016 1725 0.746816 0.665030 0.000000
-0.807800 -0.975402 -0.299577 1729 0.746816 0.665031 0.000000
-0.807723 -0.975317 -0.299137 1729 0.746816 0.665030 0.000000
-0.807923 -0.975546 -0.298795 1731 0.746816 0.665031 0.000000
-0.808066 -0.975733 -0.298444 1733 0.746816 0.665031 0.000000
-0.807859 -0.975471 -0.297956 1731 0.746816 0.665031 0.000000
-0.807960 -0.975599 -0.297575 1735 0.746816 0.665031 0.000000
-0.808547 -0.975637 -0.359193 1705 0.746816 0.665030 0.000000
-0.808442 -0.975505 -0.358724 1703 0.746816 0.665030 0.000000
-0.807923 -0.974877 -0.358070 1697 0.746816 0.665031 0.000000
-0.807947 -0.974907 -0.357660 1699 0.746816 0.665031 0.000000
-0.807971 -0.974938 -0.357249 1695 0.746816 0.665031 0.000000
-0.807773 -0.974697 -0.356741 1691 0.746816 0.665030 0.000000
-0.808018 -0.974998 -0.356429 1697 0.746816 0.665031 0.000000
-0.808227 -0.975248 -0.356107 1701 0.746816 0.665031 0.000000
-0.808386 -0.975446 -0.355755 1705 0.746816 0.665030 0.000000
-0.808503 -0.975586 -0.355384 1707 0.746816 0.665031 0.000000
-0.808262 -0.975286 -0.354856 1703 0.746816 0.665031 0.000000
-0.808193 -0.975207 -0.354407 1701 0.746816 0.665031 0.000000
-0.808217 -0.975238 -0.353997 1701 0.746816 0.665030 0.000000
-0.807834 -0.974778 -0.353411 1705 0.746816 0.665031 0.000000
-0.807765 -0.974699 -0.352961 1707 0.746816 0.665031 0.000000
-0.808102 -0.975110 -0.352698 1709 0.746816 0.665031 0.000000
-0.808445 -0.975513 -0.352424 1707 0.746816 0.665031 0.000000
-0.808569 -0.975659 -0.352053 1703 0.746816 0.665031 0.000000
-0.808129 -0.975142 -0.351447 1699 0.746816 0.665031 0.000000
-0.807981 -0.974952 -0.350959 1701 0.746816 0.665031 0.000000
-0.808040 -0.975035 -0.350568 1701 0.746816 0.665031 0.000000
-0.808021 -0.975007 -0.350139 1699 0.746816 0.665031 0.000000
-0.808129 -0.975140 -0.349767 1695 0.746816 0.665031 0.000000
-0.808431 -0.975499 -0.349484 1697 0.746816 0.665031 0.000000
-0.808683 -0.975807 -0.349171 1705 0.746816 0.665031 0.000000
-0.808521 -0.975619 -0.348683 1707 0.746816 0.665031 0.000000
-0.808223 -0.975262 -0.348136 1703 0.746816 0.665031 0.000000
-0.807975 -0.974956 -0.347609 1701 0.746816 0.665031 0.000000
-0.807906 -0.974877 -0.347160 1699 0.746816 0.665031 0.000000
-0.807979 -0.974958 -0.346779 1705 0.746816 0.665031 0.000000
-0.808180 -0.975201 -0.346447 1711 0.746816 0.665031 0.000000
-0.808296 -0.975341 -0.346075 1711 0.746816 0.665031 0.000000
-0.808184 -0.975203 -0.345607 1709 0.746816 0.665030 0.000000
-0.808065 -0.975074 -0.345138 1705 0.746816 0.665031 0.000000
-0.808138 -0.975155 -0.344757 1709 0.746816 0.665031 0.000000
-0.808205 -0.975244 -0.344366 1707 0.746816 0.665031 0.000000
-0.808270 -0.975319 -0.343976 1707 0.746816 0.665030 0.000000
-0.808250 -0.975291 -0.343546 1703 0.746816 0.665031 0.000000
-0.807860 -0.974825 -0.342960 1699 0.746816 0.665031 0.000000
-0.807925 -0.974900 -0.342579 1697 0.746816 0.665031 0.000000
-0.808084 -0.975098 -0.342228 1697 0.746816 0.665031 0.000000
-0.807929 -0.974902 -0.341739 1695 0.746816 0.665031 0.000000
-0.807767 -0.974713 -0.341251 1699 0.746816 0.665030 0.000000
-0.807747 -0.974685 -0.340831 1703 0.746816 0.665030 0.000000
-0.807627 -0.974541 -0.340362 1703 0.746816 0.665031 0.000000
-0.807786 -0.974740 -0.340011 1705 0.746816 0.665031 0.000000
-0.807759 -0.974705 -0.339581 1709 0.746816 0.665031 0.000000
-0.807646 -0.974567 -0.339122 1711 0.746816 0.665031 0.000000
-0.808076 -0.975088 -0.338888 1717 0.746816 0.665031 0.000000
-0.808321 -0.975390 -0.338565 1721 0.746816 0.665031 0.000000
-0.808293 -0.975356 -0.338145 1715 0.746816 0.665031 0.000000
-0.807910 -0.974896 -0.337559 1711 0.746816 0.665030 0.000000
-0.807847 -0.974809 -0.337120 1711 0.746816 0.665031 0.000000
-0.808362 -0.975433 -0.336914 1713 0.746816 0.665031 0.000000
-0.808336 -0.975412 -0.336495 1713 0.746816 0.665031 0.000000
-0.807809 -0.974778 -0.335860 1713 0.746816 0.665030 0.000000
-0.807689 -0.974634 -0.335392 1711 0.746816 0.665031 0.000000
-0.807890 -0.974877 -0.335059 1711 0.746816 0.665031 0.000000
-0.808006 -0.975017 -0.334688 1713 0.746816 0.665031 0.000000
-0.808071 -0.975092 -0.334297 1717 0.746816 0.665031 0.000000
-0.807916 -0.974896 -0.333819 1717 0.746816 0.665030 0.000000
-0.807882 -0.974869 -0.333389 1713 0.746816 0.665030 0.000000
-0.807862 -0.974841 -0.332960 1713 0.746816 0.665031 0.000000
-0.807791 -0.974748 -0.332520 1715 0.746816 0.665031 0.000000
-0.807673 -0.974618 -0.332052 1715 0.746816 0.665030 0.000000
-0.807560 -0.974481 -0.331593 1713 0.746816 0.665031 0.000000
-0.807440 -0.974337 -0.331124 1713 0.746816 0.665030 0.000000
-0.807505 -0.974412 -0.330733 1711 0.746816 0.665031 0.000000
-0.807842 -0.974823 -0.330460 1713 0.746816 0.665030 0.000000
-0.808093 -0.975117 -0.330147 1715 0.746816 0.665030 0.000000
-0.807795 -0.974760 -0.329610 1713 0.746816 0.665031 0.000000
-0.807489 -0.974398 -0.329074 1711 0.746816 0.665031 0.000000
-0.807461 -0.974363 -0.328644 1715 0.746816 0.665030 0.000000
-0.807526 -0.974438 -0.328253 1721 0.746816 0.665030 0.000000
-0.807550 -0.974469 -0.327853 1719 0.746816 0.665031 0.000000
-0.807430 -0.974325 -0.327384 1715 0.746816 0.665031 0.000000
-0.807266 -0.974122 -0.326906 1713 0.746816 0.665031 0.000000
-0.807510 -0.974424 -0.326593 1715 0.746816 0.665031 0.000000
-0.807990 -0.974996 -0.326368 1721 0.746816 0.665031 0.000000
-0.808141 -0.975188 -0.326017 1721 0.746816 0.665030 0.000000
-0.807978 -0.974986 -0.325538 1717 0.746816 0.665030 0.000000
-0.807808 -0.974791 -0.325050 1717 0.746816 0.665031 0.000000
-0.807737 -0.974698 -0.324611 1717 0.746816 0.665031 0.000000
-0.808216 -0.975269 -0.324386 1725 0.746816 0.665031 0.000000
-0.808638 -0.975784 -0.324141 1733 0.746816 0.665031 0.000000
-0.808340 -0.975427 -0.323604 1731 0.746816 0.665031 0.000000
-0.808178 -0.975239 -0.323126 1729 0.746816 0.665030 0.000000
-0.808143 -0.975198 -0.322706 1731 0.746816 0.665031 0.000000
-0.807802 -0.974783 -0.322150 1727 0.746816 0.665030 0.000000
-0.807824 -0.974800 -0.321740 1721 0.746816 0.665031 0.000000
-0.808204 -0.975269 -0.321476 1725 0.746816 0.665031 0.000000
-0.808397 -0.975507 -0.321144 1731 0.746816 0.665031 0.000000
-0.808555 -0.975691 -0.320792 1735 0.746816 0.665031 0.000000
-0.808342 -0.975438 -0.320294 1735 0.746816 0.665031 0.000000
-0.807815 -0.974804 -0.319670 1725 0.746816 0.665031 0.000000
-0.807788 -0.974769 -0.319240 1721 0.746816 0.665030 0.000000
-0.807945 -0.974954 -0.318888 1723 0.746816 0.665031 0.000000
-0.808139 -0.975191 -0.318556 1725 0.746816 0.665031 0.000000
-0.808204 -0.975266 -0.318166 1727 0.746816 0.665031 0.000000
-0.808211 -0.975284 -0.317755 1729 0.746816 0.665031 0.000000
-0.808141 -0.975191 -0.317316 1731 0.746816 0.665030 0.000000
-0.807935 -0.974944 -0.316818 1723 0.746816 0.665031 0.000000
-0.807986 -0.975021 -0.316428 1721 0.746816 0.665031 0.000000
-0.808144 -0.975205 -0.316076 1725 0.746816 0.665031 0.000000
-0.808024 -0.975061 -0.315617 1729 0.746816 0.665031 0.000000
-0.807811 -0.974808 -0.315120 1729 0.746816 0.665031 0.000000
-0.807783 -0.974774 -0.314700 1729 0.746816 0.665031 0.000000
-0.807712 -0.974681 -0.314251 1729 0.746816 0.665031 0.000000
-0.807592 -0.974537 -0.313792 1727 0.746816 0.665031 0.000000
-0.807750 -0.974721 -0.313440 1729 0.746816 0.665030 0.000000
-0.808028 -0.975062 -0.313137 1725 0.746816 0.665030 0.000000
-0.808043 -0.975086 -0.312737 1725 0.746816 0.665031 0.000000
-0.807838 -0.974839 -0.312239 1725 0.746816 0.665031 0.000000
-0.807710 -0.974689 -0.311781 1721 0.746816 0.665030 0.000000
-0.807767 -0.974758 -0.311390 1723 0.746816 0.665031 0.000000
-0.807611 -0.974561 -0.310912 1723 0.746816 0.665031 0.000000
-0.807712 -0.974689 -0.310541 1729 0.746816 0.665031 0.000000
-0.807812 -0.974817 -0.310169 1731 0.746816 0.665031 0.000000
-0.807657 -0.974620 -0.309701 1727 0.746816 0.665031 0.000000
-0.807806 -0.974799 -0.309340 1727 0.746816 0.665031 0.000000
-0.807958 -0.974991 -0.308988 1729 0.746816 0.665031 0.000000
-0.808015 -0.975060 -0.308597 1731 0.746816 0.665031 0.000000
-0.807944 -0.974967 -0.308158 1735 0.746816 0.665030 0.000000
-0.808045 -0.975094 -0.307787 1729 0.746816 0.665031 0.000000
-0.808110 -0.975170 -0.307396 1725 0.746816 0.665031 0.000000
-0.808025 -0.975078 -0.306957 1725 0.746816 0.665031 0.000000
-0.807861 -0.974876 -0.306479 1727 0.746816 0.665031 0.000000
-0.808011 -0.975054 -0.306127 1727 0.746816 0.665031 0.000000
-0.807891 -0.974910 -0.305668 1725 0.746816 0.665030 0.000000
-0.807670 -0.974651 -0.305171 1719 0.746816 0.665031 0.000000
-0.808013 -0.975054 -0.304887 1719 0.746816 0.665031 0.000000
-0.808250 -0.975350 -0.304565 1729 0.746816 0.665030 0.000000
-0.808179 -0.975257 -0.304125 1731 0.746816 0.665031 0.000000
-0.808058 -0.975113 -0.303667 1731 0.746816 0.665030 0.000000
-0.807887 -0.974905 -0.303199 1727 0.746816 0.665031 0.000000
-0.807759 -0.974755 -0.302740 1727 0.746816 0.665031 0.000000
-0.807816 -0.974824 -0.302349 1727 0.746816 0.665030 0.000000
-0.808474 -0.975622 -0.302182 1731 0.746816 0.665031 0.000000
-0.808989 -0.976246 -0.301967 1733 0.746816 0.665030 0.000000
-0.808689 -0.975875 -0.301440 1727 0.746816 0.665031 0.000000
-0.808324 -0.975442 -0.300894 1723 0.746816 0.665031 0.000000
-0.808340 -0.975466 -0.300494 1727 0.746816 0.665031 0.000000
-0.808590 -0.975760 -0.300171 1733 0.746816 0.665030 0.000000
-0.808419 -0.975551 -0.299693 1737 0.746816 0.665030 0.000000
-0.808247 -0.975343 -0.299225 1735 0.746816 0.665031 0.000000
-0.808255 -0.975361 -0.298814 1735 0.746816 0.665030 0.000000
-0.808228 -0.975326 -0.298395 1733 0.746816 0.665030 0.000000
-0.808149 -0.975227 -0.297956 1731 0.746816 0.665031 0.000000
-0.808113 -0.975187 -0.297526 1731 0.746816 0.665031 0.000000
-0.808728 -0.975259 -0.359564 1703 0.746816 0.665031 0.000000
-0.808886 -0.975443 -0.359212 1701 0.746816 0.665030 0.000000
-0.808595 -0.975093 -0.358656 1701 0.746816 0.665031 0.000000
-0.808307 -0.974756 -0.358109 1701 0.746816 0.665031 0.000000
-0.808558 -0.975050 -0.357806 1701 0.746816 0.665031 0.000000
-0.808674 -0.975190 -0.357435 1699 0.746816 0.665031 0.000000
-0.808469 -0.974943 -0.356927 1697 0.746816 0.665031 0.000000
-0.808587 -0.975097 -0.356555 1697 0.746816 0.665031 0.000000
-0.808838 -0.975391 -0.356243 1699 0.746816 0.665031 0.000000
-0.808818 -0.975362 -0.355813 1701 0.746816 0.665031 0.000000
-0.808614 -0.975129 -0.355305 1703 0.746816 0.665031 0.000000
-0.808687 -0.975210 -0.354914 1705 0.746816 0.665030 0.000000
-0.808847 -0.975409 -0.354573 1705 0.746816 0.665031 0.000000
-0.808642 -0.975162 -0.354065 1705 0.746816 0.665031 0.000000
-0.808529 -0.975024 -0.353586 1705 0.746816 0.665031 0.000000
-0.808425 -0.974892 -0.353127 1703 0.746816 0.665031 0.000000
-0.808762 -0.975304 -0.352854 1709 0.746816 0.665031 0.000000
-0.809141 -0.975760 -0.352600 1713 0.746816 0.665031 0.000000
-0.808937 -0.975526 -0.352092 1709 0.746816 0.665031 0.000000
-0.808697 -0.975227 -0.351564 1703 0.746816 0.665031 0.000000
-0.808628 -0.975148 -0.351115 1697 0.746816 0.665030 0.000000
-0.808651 -0.975178 -0.350705 1701 0.746816 0.665030 0.000000
-0.808495 -0.974981 -0.350216 1701 0.746816 0.665031 0.000000
-0.808426 -0.974902 -0.349767 1701 0.746816 0.665030 0.000000
-0.808771 -0.975320 -0.349503 1701 0.746816 0.665031 0.000000
-0.809150 -0.975776 -0.349249 1707 0.746816 0.665031 0.000000
-0.809266 -0.975916 -0.348878 1707 0.746816 0.665030 0.000000
-0.808884 -0.975456 -0.348292 1707 0.746816 0.665031 0.000000
-0.808400 -0.974880 -0.347667 1703 0.746816 0.665031 0.000000
-0.808017 -0.974420 -0.347091 1699 0.746816 0.665031 0.000000
-0.808134 -0.974560 -0.346720 1703 0.746816 0.665031 0.000000
-0.808698 -0.975235 -0.346544 1707 0.746816 0.665031 0.000000
-0.808721 -0.975265 -0.346134 1709 0.746816 0.665031 0.000000
-0.808524 -0.975024 -0.345626 1707 0.746816 0.665031 0.000000
-0.808676 -0.975216 -0.345274 1709 0.746816 0.665031 0.000000
-0.808792 -0.975356 -0.344913 1713 0.746816 0.665030 0.000000
-0.808443 -0.974935 -0.344347 1711 0.746816 0.665031 0.000000
-0.808196 -0.974643 -0.343819 1707 0.746816 0.665030 0.000000
-0.808177 -0.974615 -0.343390 1703 0.746816 0.665031 0.000000
-0.808470 -0.974967 -0.343096 1695 0.746816 0.665031 0.000000
-0.808443 -0.974933 -0.342667 1693 0.746816 0.665031 0.000000
-0.808060 -0.974473 -0.342091 1693 0.746816 0.665031 0.000000
-0.807719 -0.974058 -0.341524 1695 0.746816 0.665030 0.000000
-0.807743 -0.974088 -0.341124 1697 0.746816 0.665031 0.000000
-0.807851 -0.974222 -0.340753 1697 0.746816 0.665031 0.000000
-0.807689 -0.974033 -0.340265 1697 0.746816 0.665030 0.000000
-0.807983 -0.974386 -0.339971 1701 0.746816 0.665031 0.000000
-0.808369 -0.974848 -0.339717 1705 0.746816 0.665031 0.000000
-0.808385 -0.974872 -0.339307 1709 0.746816 0.665031 0.000000
-0.808501 -0.975012 -0.338936 1715 0.746816 0.665031 0.000000
-0.808432 -0.974933 -0.338497 1719 0.746816 0.665030 0.000000
-0.808083 -0.974512 -0.337930 1713 0.746816 0.665031 0.000000
-0.808014 -0.974433 -0.337491 1709 0.746816 0.665030 0.000000
-0.808308 -0.974785 -0.337188 1709 0.746816 0.665031 0.000000
-0.808651 -0.975189 -0.336914 1713 0.746816 0.665031 0.000000
-0.808533 -0.975059 -0.336455 1713 0.746816 0.665031 0.000000
-0.808241 -0.974694 -0.335909 1711 0.746816 0.665031 0.000000
-0.807943 -0.974338 -0.335372 1711 0.746816 0.665030 0.000000
-0.807915 -0.974303 -0.334942 1713 0.746816 0.665031 0.000000
-0.808296 -0.974773 -0.334688 1713 0.746816 0.665031 0.000000
-0.808682 -0.975235 -0.334434 1715 0.746816 0.665030 0.000000
-0.808570 -0.975097 -0.333965 1717 0.746816 0.665031 0.000000
-0.808400 -0.974903 -0.333487 1715 0.746816 0.665031 0.000000
-0.808430 -0.974925 -0.333076 1715 0.746816 0.665030 0.000000
-0.808396 -0.974899 -0.332647 1717 0.746816 0.665031 0.000000
-0.808104 -0.974534 -0.332110 1717 0.746816 0.665031 0.000000
-0.807986 -0.974405 -0.331651 1719 0.746816 0.665031 0.000000
-0.808051 -0.974480 -0.331260 1715 0.746816 0.665030 0.000000
-0.808023 -0.974445 -0.330831 1709 0.746816 0.665031 0.000000
-0.808088 -0.974520 -0.330440 1713 0.746816 0.665031 0.000000
-0.808289 -0.974763 -0.330108 1715 0.746816 0.665031 0.000000
-0.808262 -0.974729 -0.329678 1711 0.746816 0.665031 0.000000
-0.807964 -0.974372 -0.329141 1707 0.746816 0.665031 0.000000
-0.807751 -0.974119 -0.328644 1709 0.746816 0.665030 0.000000
-0.807859 -0.974253 -0.328272 1717 0.746816 0.665030 0.000000
-0.808118 -0.974553 -0.327960 1723 0.746816 0.665031 0.000000
-0.808084 -0.974526 -0.327530 1723 0.746816 0.665031 0.000000
-0.807835 -0.974221 -0.327013 1719 0.746816 0.665031 0.000000
-0.807985 -0.974399 -0.326661 1719 0.746816 0.665030 0.000000
-0.808186 -0.974642 -0.326329 1723 0.746816 0.665030 0.000000
-0.808202 -0.974666 -0.325919 1721 0.746816 0.665031 0.000000
-0.807997 -0.974419 -0.325421 1717 0.746816 0.665031 0.000000
-0.807740 -0.974107 -0.324904 1715 0.746816 0.665030 0.000000
-0.807892 -0.974300 -0.324552 1715 0.746816 0.665031 0.000000
-0.808363 -0.974865 -0.324327 1721 0.746816 0.665031 0.000000
-0.808750 -0.975327 -0.324073 1727 0.746816 0.665030 0.000000
-0.808580 -0.975132 -0.323585 1729 0.746816 0.665031 0.000000
-0.808375 -0.974885 -0.323087 1731 0.746816 0.665030 0.000000
-0.808347 -0.974851 -0.322667 1733 0.746816 0.665031 0.000000
-0.808276 -0.974758 -0.322218 1727 0.746816 0.665030 0.000000
-0.808478 -0.975001 -0.321886 1725 0.746816 0.665031 0.000000
-0.808493 -0.975025 -0.321475 1725 0.746816 0.665030 0.000000
-0.808466 -0.974991 -0.321056 1729 0.746816 0.665031 0.000000
-0.808710 -0.975293 -0.320743 1731 0.746816 0.665031 0.000000
-0.808682 -0.975258 -0.320313 1731 0.746816 0.665031 0.000000
-0.808333 -0.974837 -0.319757 1723 0.746816 0.665031 0.000000
-0.808213 -0.974693 -0.319298 1719 0.746816 0.665031 0.000000
-0.808235 -0.974710 -0.318888 1723 0.746816 0.665031 0.000000
-0.808343 -0.974843 -0.318517 1723 0.746816 0.665030 0.000000
-0.808359 -0.974868 -0.318117 1723 0.746816 0.665031 0.000000
-0.808195 -0.974665 -0.317639 1727 0.746816 0.665031 0.000000
-0.808252 -0.974734 -0.317248 1725 0.746816 0.665030 0.000000
-0.808175 -0.974649 -0.316809 1721 0.746816 0.665031 0.000000
-0.808197 -0.974665 -0.316399 1721 0.746816 0.665031 0.000000
-0.808349 -0.974858 -0.316047 1723 0.746816 0.665030 0.000000
-0.808177 -0.974649 -0.315569 1721 0.746816 0.665031 0.000000
-0.808013 -0.974447 -0.315090 1725 0.746816 0.665030 0.000000
-0.808029 -0.974471 -0.314680 1725 0.746816 0.665031 0.000000
-0.807952 -0.974386 -0.314241 1725 0.746816 0.665031 0.000000
-0.807974 -0.974402 -0.313831 1723 0.746816 0.665031 0.000000
-0.808033 -0.974485 -0.313440 1725 0.746816 0.665031 0.000000
-0.808183 -0.974663 -0.313089 1725 0.746816 0.665031 0.000000
-0.808376 -0.974900 -0.312756 1725 0.746816 0.665031 0.000000
-0.808305 -0.974807 -0.312307 1721 0.746816 0.665031 0.000000
-0.808092 -0.974554 -0.311819 1719 0.746816 0.665031 0.000000
-0.808386 -0.974907 -0.311516 1723 0.746816 0.665031 0.000000
-0.808544 -0.975091 -0.311165 1727 0.746816 0.665030 0.000000
-0.808508 -0.975051 -0.310735 1731 0.746816 0.665031 0.000000
-0.808709 -0.975294 -0.310403 1735 0.746816 0.665031 0.000000
-0.808674 -0.975253 -0.309973 1731 0.746816 0.665031 0.000000
-0.808461 -0.975000 -0.309485 1731 0.746816 0.665031 0.000000
-0.808297 -0.974798 -0.309007 1731 0.746816 0.665031 0.000000
-0.808305 -0.974816 -0.308597 1731 0.746816 0.665030 0.000000
-0.808598 -0.975168 -0.308294 1737 0.746816 0.665030 0.000000
-0.808792 -0.975405 -0.307962 1735 0.746816 0.665031 0.000000
-0.808721 -0.975312 -0.307523 1727 0.746816 0.665031 0.000000
-0.808728 -0.975330 -0.307112 1727 0.746816 0.665030 0.000000
-0.808657 -0.975237 -0.306673 1733 0.746816 0.665030 0.000000
-0.808630 -0.975203 -0.306244 1735 0.746816 0.665031 0.000000
-0.808273 -0.974776 -0.305697 1725 0.746816 0.665031 0.000000
-0.807782 -0.974194 -0.305102 1717 0.746816 0.665031 0.000000
-0.807940 -0.974379 -0.304751 1721 0.746816 0.665030 0.000000
-0.808361 -0.974893 -0.304496 1723 0.746816 0.665031 0.000000
-0.808511 -0.975071 -0.304145 1725 0.746816 0.665031 0.000000
-0.808432 -0.974972 -0.303706 1731 0.746816 0.665030 0.000000
-0.807991 -0.974442 -0.303130 1729 0.746816 0.665030 0.000000
-0.808006 -0.974466 -0.302720 1727 0.746816 0.665031 0.000000
-0.808377 -0.974916 -0.302446 1727 0.746816 0.665031 0.000000
-0.808671 -0.975268 -0.302143 1725 0.746816 0.665031 0.000000
-0.808870 -0.975497 -0.301811 1727 0.746816 0.665031 0.000000
-0.808785 -0.975406 -0.301372 1725 0.746816 0.665031 0.000000
-0.808622 -0.975204 -0.300893 1725 0.746816 0.665031 0.000000
-0.808730 -0.975337 -0.300522 1731 0.746816 0.665030 0.000000
-0.808965 -0.975619 -0.300200 1735 0.746816 0.665031 0.000000
-0.808708 -0.975307 -0.299693 1735 0.746816 0.665031 0.000000
-0.808302 -0.974829 -0.299137 1733 0.746816 0.665030 0.000000
-0.808596 -0.975182 -0.298834 1733 0.746816 0.665031 0.000000
-0.808838 -0.975469 -0.298511 1733 0.746816 0.665030 0.000000
-0.808710 -0.975319 -0.298052 1735 0.746816 0.665031 0.000000
-0.808639 -0.975226 -0.297613 1735 0.746816 0.665031 0.000000
-0.808346 -0.974194 -0.359251 1695 0.746816 0.665030 0.000000
-0.808327 -0.974166 -0.358821 1695 0.746816 0.665031 0.000000
-0.808443 -0.974306 -0.358460 1699 0.746816 0.665031 0.000000
-0.808780 -0.974717 -0.358186 1703 0.746816 0.665031 0.000000
-0.809032 -0.975025 -0.357884 1707 0.746816 0.665030 0.000000
-0.808879 -0.974843 -0.357395 1699 0.746816 0.665031 0.000000
-0.809036 -0.975027 -0.357044 1699 0.746816 0.665031 0.000000
-0.809060 -0.975057 -0.356633 1701 0.746816 0.665031 0.000000
-0.809040 -0.975029 -0.356204 1701 0.746816 0.665031 0.000000
-0.808979 -0.974956 -0.355754 1703 0.746816 0.665031 0.000000
-0.808681 -0.974599 -0.355207 1705 0.746816 0.665031 0.000000
-0.808805 -0.974746 -0.354836 1707 0.746816 0.665031 0.000000
-0.808914 -0.974879 -0.354465 1707 0.746816 0.665030 0.000000
-0.808981 -0.974968 -0.354074 1707 0.746816 0.665030 0.000000
-0.808961 -0.974940 -0.353644 1701 0.746816 0.665031 0.000000
-0.808586 -0.974486 -0.353058 1703 0.746816 0.665030 0.000000
-0.808466 -0.974342 -0.352590 1707 0.746816 0.665030 0.000000
-0.808896 -0.974863 -0.352365 1713 0.746816 0.665031 0.000000
-0.809012 -0.975003 -0.351994 1713 0.746816 0.665031 0.000000
-0.808943 -0.974924 -0.351544 1707 0.746816 0.665031 0.000000
-0.808874 -0.974845 -0.351095 1699 0.746816 0.665031 0.000000
-0.808676 -0.974604 -0.350587 1699 0.746816 0.665031 0.000000
-0.808428 -0.974298 -0.350060 1701 0.746816 0.665030 0.000000
-0.808402 -0.974277 -0.349640 1701 0.746816 0.665030 0.000000
-0.808652 -0.974571 -0.349328 1703 0.746816 0.665031 0.000000
-0.809041 -0.975047 -0.349073 1703 0.746816 0.665031 0.000000
-0.809021 -0.975019 -0.348644 1705 0.746816 0.665031 0.000000
-0.808723 -0.974662 -0.348097 1705 0.746816 0.665031 0.000000
-0.808832 -0.974796 -0.347726 1705 0.746816 0.665031 0.000000
-0.808820 -0.974774 -0.347306 1707 0.746816 0.665031 0.000000
-0.808751 -0.974695 -0.346856 1709 0.746816 0.665030 0.000000
-0.808682 -0.974616 -0.346407 1707 0.746816 0.665030 0.000000
-0.808561 -0.974472 -0.345938 1705 0.746816 0.665030 0.000000
-0.808457 -0.974340 -0.345469 1707 0.746816 0.665031 0.000000
-0.808429 -0.974306 -0.345040 1709 0.746816 0.665030 0.000000
-0.808545 -0.974446 -0.344679 1711 0.746816 0.665031 0.000000
-0.808519 -0.974425 -0.344249 1709 0.746816 0.665031 0.000000
-0.808364 -0.974229 -0.343760 1703 0.746816 0.665031 0.000000
-0.808379 -0.974253 -0.343350 1701 0.746816 0.665031 0.000000
-0.808580 -0.974496 -0.343018 1695 0.746816 0.665031 0.000000
-0.808604 -0.974527 -0.342618 1695 0.746816 0.665031 0.000000
-0.808584 -0.974499 -0.342188 1693 0.746816 0.665030 0.000000
-0.808202 -0.974039 -0.341602 1695 0.746816 0.665031 0.000000
-0.808217 -0.974063 -0.341192 1695 0.746816 0.665031 0.000000
-0.808282 -0.974138 -0.340811 1695 0.746816 0.665031 0.000000
-0.807949 -0.973729 -0.340245 1695 0.746816 0.665031 0.000000
-0.808057 -0.973862 -0.339874 1701 0.746816 0.665030 0.000000
-0.808487 -0.974383 -0.339639 1707 0.746816 0.665031 0.000000
-0.808868 -0.974853 -0.339385 1711 0.746816 0.665031 0.000000
-0.808982 -0.974979 -0.339014 1711 0.746816 0.665031 0.000000
-0.808600 -0.974519 -0.338438 1713 0.746816 0.665031 0.000000
-0.808209 -0.974053 -0.337852 1711 0.746816 0.665031 0.000000
-0.807953 -0.973741 -0.337335 1707 0.746816 0.665031 0.000000
-0.807976 -0.973771 -0.336924 1709 0.746816 0.665031 0.000000
-0.808313 -0.974183 -0.336651 1711 0.746816 0.665031 0.000000
-0.808378 -0.974258 -0.336260 1713 0.746816 0.665031 0.000000
-0.808124 -0.973960 -0.335743 1709 0.746816 0.665031 0.000000
-0.807826 -0.973603 -0.335206 1715 0.746816 0.665030 0.000000
-0.808120 -0.973956 -0.334913 1717 0.746816 0.665031 0.000000
-0.808506 -0.974418 -0.334649 1713 0.746816 0.665031 0.000000
-0.808615 -0.974551 -0.334277 1715 0.746816 0.665030 0.000000
-0.808630 -0.974576 -0.333877 1717 0.746816 0.665031 0.000000
-0.808660 -0.974598 -0.333467 1719 0.746816 0.665030 0.000000
-0.808540 -0.974454 -0.332998 1721 0.746816 0.665031 0.000000
-0.808471 -0.974375 -0.332559 1717 0.746816 0.665030 0.000000
-0.808443 -0.974341 -0.332129 1717 0.746816 0.665031 0.000000
-0.808366 -0.974256 -0.331680 1719 0.746816 0.665031 0.000000
-0.808161 -0.974009 -0.331182 1715 0.746816 0.665031 0.000000
-0.808277 -0.974149 -0.330811 1711 0.746816 0.665031 0.000000
-0.808705 -0.974655 -0.330576 1711 0.746816 0.665031 0.000000
-0.808628 -0.974570 -0.330127 1711 0.746816 0.665031 0.000000
-0.808245 -0.974110 -0.329551 1709 0.746816 0.665031 0.000000
-0.808024 -0.973851 -0.329054 1707 0.746816 0.665030 0.000000
-0.808097 -0.973932 -0.328663 1709 0.746816 0.665031 0.000000
-0.808298 -0.974175 -0.328331 1715 0.746816 0.665031 0.000000
-0.808584 -0.974522 -0.328038 1725 0.746816 0.665031 0.000000
-0.808565 -0.974493 -0.327608 1727 0.746816 0.665031 0.000000
-0.808537 -0.974459 -0.327178 1723 0.746816 0.665031 0.000000
-0.808375 -0.974270 -0.326700 1723 0.746816 0.665031 0.000000
-0.808162 -0.974017 -0.326202 1721 0.746816 0.665031 0.000000
-0.808320 -0.974202 -0.325850 1717 0.746816 0.665031 0.000000
-0.808022 -0.973845 -0.325313 1713 0.746816 0.665031 0.000000
-0.807766 -0.973533 -0.324796 1711 0.746816 0.665031 0.000000
-0.807917 -0.973725 -0.324445 1715 0.746816 0.665031 0.000000
-0.808353 -0.974238 -0.324200 1719 0.746816 0.665030 0.000000
-0.808546 -0.974475 -0.323868 1723 0.746816 0.665031 0.000000
-0.808605 -0.974558 -0.323477 1727 0.746816 0.665031 0.000000
-0.808491 -0.974407 -0.323018 1729 0.746816 0.665031 0.000000
-0.808414 -0.974321 -0.322569 1731 0.746816 0.665031 0.000000
-0.808209 -0.974074 -0.322071 1727 0.746816 0.665031 0.000000
-0.808089 -0.973930 -0.321613 1725 0.746816 0.665031 0.000000
-0.808290 -0.974174 -0.321280 1723 0.746816 0.665031 0.000000
-0.808390 -0.974301 -0.320909 1721 0.746816 0.665031 0.000000
-0.808420 -0.974324 -0.320499 1721 0.746816 0.665031 0.000000
-0.808428 -0.974342 -0.320089 1725 0.746816 0.665031 0.000000
-0.808266 -0.974153 -0.319621 1725 0.746816 0.665031 0.000000
-0.808051 -0.973886 -0.319113 1721 0.746816 0.665031 0.000000
-0.808167 -0.974026 -0.318752 1723 0.746816 0.665031 0.000000
-0.808268 -0.974153 -0.318381 1727 0.746816 0.665031 0.000000
-0.808155 -0.974016 -0.317912 1725 0.746816 0.665031 0.000000
-0.808120 -0.973975 -0.317492 1723 0.746816 0.665030 0.000000
-0.808228 -0.974109 -0.317121 1723 0.746816 0.665030 0.000000
-0.808157 -0.974016 -0.316682 1721 0.746816 0.665030 0.000000
-0.808037 -0.973872 -0.316213 1721 0.746816 0.665031 0.000000
-0.808415 -0.974328 -0.315949 1719 0.746816 0.665031 0.000000
-0.808338 -0.974243 -0.315510 1721 0.746816 0.665031 0.000000
-0.808125 -0.973990 -0.315012 1723 0.746816 0.665031 0.000000
-0.808240 -0.974115 -0.314641 1723 0.746816 0.665031 0.000000
-0.808206 -0.974089 -0.314221 1721 0.746816 0.665031 0.000000
-0.808220 -0.974099 -0.313811 1721 0.746816 0.665031 0.000000
-0.808236 -0.974124 -0.313411 1723 0.746816 0.665031 0.000000
-0.808257 -0.974140 -0.313001 1723 0.746816 0.665031 0.000000
-0.808316 -0.974223 -0.312610 1723 0.746816 0.665031 0.000000
-0.808381 -0.974298 -0.312219 1725 0.746816 0.665031 0.000000
-0.808395 -0.974308 -0.311819 1725 0.746816 0.665031 0.000000
-0.808318 -0.974223 -0.311370 1723 0.746816 0.665031 0.000000
-0.808147 -0.974014 -0.310892 1721 0.746816 0.665030 0.000000
-0.808255 -0.974148 -0.310531 1725 0.746816 0.665031 0.000000
-0.808498 -0.974436 -0.310208 1731 0.746816 0.665031 0.000000
-0.808421 -0.974351 -0.309769 1729 0.746816 0.665031 0.000000
-0.808393 -0.974316 -0.309339 1729 0.746816 0.665031 0.000000
-0.808543 -0.974495 -0.308987 1729 0.746816 0.665031 0.000000
-0.808701 -0.974679 -0.308636 1729 0.746816 0.665031 0.000000
-0.809079 -0.975135 -0.308362 1733 0.746816 0.665031 0.000000
-0.809188 -0.975269 -0.308001 1731 0.746816 0.665031 0.000000
-0.808746 -0.974738 -0.307415 1727 0.746816 0.665031 0.000000
-0.808482 -0.974420 -0.306898 1725 0.746816 0.665031 0.000000
-0.808547 -0.974495 -0.306517 1731 0.746816 0.665030 0.000000
-0.808791 -0.974797 -0.306195 1733 0.746816 0.665031 0.000000
-0.808620 -0.974588 -0.305717 1727 0.746816 0.665031 0.000000
-0.808407 -0.974335 -0.305229 1721 0.746816 0.665031 0.000000
-0.808320 -0.974230 -0.304780 1721 0.746816 0.665031 0.000000
-0.808385 -0.974305 -0.304399 1723 0.746816 0.665031 0.000000
-0.808722 -0.974716 -0.304115 1723 0.746816 0.665031 0.000000
-0.808594 -0.974566 -0.303657 1727 0.746816 0.665031 0.000000
-0.808152 -0.974035 -0.303071 1727 0.746816 0.665031 0.000000
-0.808116 -0.973995 -0.302652 1725 0.746816 0.665031 0.000000
-0.808231 -0.974121 -0.302281 1725 0.746816 0.665030 0.000000
-0.808288 -0.974190 -0.301890 1727 0.746816 0.665031 0.000000
-0.808432 -0.974376 -0.301538 1723 0.746816 0.665031 0.000000
-0.808546 -0.974502 -0.301167 1725 0.746816 0.665031 0.000000
-0.808917 -0.974952 -0.300893 1731 0.746816 0.665031 0.000000
-0.808974 -0.975021 -0.300503 1737 0.746816 0.665031 0.000000
-0.808812 -0.974832 -0.300034 1735 0.746816 0.665031 0.000000
-0.808641 -0.974623 -0.299556 1733 0.746816 0.665031 0.000000
-0.808420 -0.974364 -0.299068 1731 0.746816 0.665031 0.000000
-0.808434 -0.974374 -0.298658 1733 0.746816 0.665030 0.000000
-0.808591 -0.974559 -0.298307 1733 0.746816 0.665031 0.000000
-0.808735 -0.974745 -0.297955 1735 0.746816 0.665031 0.000000
-0.808613 -0.974587 -0.297496 1739 0.746816 0.665031 0.000000
-0.809210 -0.974621 -0.359925 1699 0.746816 0.665031 0.000000
-0.809234 -0.974651 -0.359515 1697 0.746816 0.665030 0.000000
-0.809115 -0.974522 -0.359046 1701 0.746816 0.665031 0.000000
-0.809052 -0.974435 -0.358596 1701 0.746816 0.665031 0.000000
-0.809220 -0.974639 -0.358245 1703 0.746816 0.665031 0.000000
-0.809650 -0.975160 -0.358020 1707 0.746816 0.665031 0.000000
-0.809488 -0.974971 -0.357532 1705 0.746816 0.665031 0.000000
-0.809198 -0.974621 -0.356985 1701 0.746816 0.665031 0.000000
-0.809271 -0.974702 -0.356594 1701 0.746816 0.665030 0.000000
-0.809201 -0.974623 -0.356145 1703 0.746816 0.665030 0.000000
-0.809326 -0.974769 -0.355773 1705 0.746816 0.665031 0.000000
-0.809527 -0.975012 -0.355451 1709 0.746816 0.665031 0.000000
-0.809501 -0.974992 -0.355011 1709 0.746816 0.665031 0.000000
-0.809667 -0.975182 -0.354670 1709 0.746816 0.665031 0.000000
-0.809690 -0.975213 -0.354259 1707 0.746816 0.665031 0.000000
-0.809264 -0.974694 -0.353644 1701 0.746816 0.665030 0.000000
-0.809018 -0.974402 -0.353127 1699 0.746816 0.665031 0.000000
-0.809175 -0.974587 -0.352775 1705 0.746816 0.665031 0.000000
-0.809428 -0.974895 -0.352462 1707 0.746816 0.665031 0.000000
-0.809451 -0.974925 -0.352052 1711 0.746816 0.665031 0.000000
-0.809339 -0.974787 -0.351583 1707 0.746816 0.665031 0.000000
-0.809270 -0.974708 -0.351134 1703 0.746816 0.665031 0.000000
-0.809064 -0.974461 -0.350626 1705 0.746816 0.665030 0.000000
-0.809039 -0.974441 -0.350196 1701 0.746816 0.665030 0.000000
-0.808934 -0.974309 -0.349737 1701 0.746816 0.665030 0.000000
-0.808950 -0.974333 -0.349327 1699 0.746816 0.665031 0.000000
-0.809023 -0.974414 -0.348936 1699 0.746816 0.665030 0.000000
-0.808861 -0.974226 -0.348448 1699 0.746816 0.665031 0.000000
-0.808926 -0.974301 -0.348057 1705 0.746816 0.665031 0.000000
-0.808999 -0.974382 -0.347667 1703 0.746816 0.665031 0.000000
-0.809295 -0.974749 -0.347373 1707 0.746816 0.665031 0.000000
-0.809139 -0.974552 -0.346895 1713 0.746816 0.665031 0.000000
-0.808563 -0.973867 -0.346231 1709 0.746816 0.665031 0.000000
-0.808458 -0.973736 -0.345762 1705 0.746816 0.665030 0.000000
-0.808474 -0.973760 -0.345352 1705 0.746816 0.665031 0.000000
-0.808590 -0.973900 -0.344991 1705 0.746816 0.665031 0.000000
-0.808428 -0.973711 -0.344503 1703 0.746816 0.665031 0.000000
-0.808409 -0.973683 -0.344073 1701 0.746816 0.665031 0.000000
-0.808746 -0.974094 -0.343799 1703 0.746816 0.665031 0.000000
-0.808811 -0.974169 -0.343409 1703 0.746816 0.665031 0.000000
-0.808834 -0.974200 -0.342998 1701 0.746816 0.665031 0.000000
-0.808858 -0.974230 -0.342598 1697 0.746816 0.665031 0.000000
-0.808838 -0.974202 -0.342168 1697 0.746816 0.665030 0.000000
-0.808633 -0.973955 -0.341660 1701 0.746816 0.665031 0.000000
-0.808513 -0.973811 -0.341192 1699 0.746816 0.665031 0.000000
-0.808629 -0.973951 -0.340830 1699 0.746816 0.665031 0.000000
-0.808509 -0.973807 -0.340362 1699 0.746816 0.665031 0.000000
-0.808532 -0.973837 -0.339951 1705 0.746816 0.665030 0.000000
-0.808919 -0.974299 -0.339697 1707 0.746816 0.665031 0.000000
-0.809213 -0.974652 -0.339404 1707 0.746816 0.665031 0.000000
-0.809143 -0.974573 -0.338955 1707 0.746816 0.665031 0.000000
-0.808802 -0.974158 -0.338399 1707 0.746816 0.665031 0.000000
-0.808504 -0.973801 -0.337852 1705 0.746816 0.665031 0.000000
-0.807978 -0.973167 -0.337217 1707 0.746816 0.665031 0.000000
-0.807909 -0.973088 -0.336778 1709 0.746816 0.665031 0.000000
-0.808295 -0.973550 -0.336524 1713 0.746816 0.665031 0.000000
-0.808447 -0.973742 -0.336162 1711 0.746816 0.665031 0.000000
-0.808512 -0.973817 -0.335781 1711 0.746816 0.665030 0.000000
-0.808443 -0.973738 -0.335332 1711 0.746816 0.665030 0.000000
-0.808466 -0.973769 -0.334922 1717 0.746816 0.665030 0.000000
-0.808802 -0.974166 -0.334648 1719 0.746816 0.665031 0.000000
-0.809003 -0.974409 -0.334316 1719 0.746816 0.665031 0.000000
-0.809162 -0.974607 -0.333964 1715 0.746816 0.665031 0.000000
-0.809178 -0.974632 -0.333564 1717 0.746816 0.665031 0.000000
-0.808794 -0.974158 -0.332978 1719 0.746816 0.665031 0.000000
-0.808446 -0.973750 -0.332422 1719 0.746816 0.665030 0.000000
-0.808511 -0.973825 -0.332031 1717 0.746816 0.665031 0.000000
-0.808584 -0.973907 -0.331651 1717 0.746816 0.665030 0.000000
-0.808557 -0.973872 -0.331221 1715 0.746816 0.665031 0.000000
-0.808793 -0.974168 -0.330908 1719 0.746816 0.665031 0.000000
-0.808730 -0.974081 -0.330459 1721 0.746816 0.665031 0.000000
-0.808525 -0.973834 -0.329961 1717 0.746816 0.665031 0.000000
-0.808497 -0.973799 -0.329532 1709 0.746816 0.665031 0.000000
-0.808556 -0.973882 -0.329141 1713 0.746816 0.665030 0.000000
-0.808444 -0.973745 -0.328682 1709 0.746816 0.665030 0.000000
-0.808637 -0.973982 -0.328350 1711 0.746816 0.665031 0.000000
-0.808980 -0.974385 -0.328066 1717 0.746816 0.665030 0.000000
-0.809132 -0.974577 -0.327715 1723 0.746816 0.665031 0.000000
-0.809012 -0.974434 -0.327256 1723 0.746816 0.665031 0.000000
