192
-28.758661 -28.389606 -0.652300 1175 0.693372 0.720580 0.000000
-28.759117 -28.390057 -0.639905 1161 0.693372 0.720580 0.000000
-28.758368 -28.389311 -0.627472 1159 0.693372 0.720580 0.000000
-28.757931 -28.388887 -0.615046 1151 0.693372 0.720580 0.000000
-28.759115 -28.390057 -0.602664 1161 0.693372 0.720580 0.000000
-28.758108 -28.389057 -0.590224 1177 0.693372 0.720580 0.000000
-28.756830 -28.387800 -0.577786 1165 0.693372 0.720580 0.000000
-28.756769 -28.387732 -0.565376 1165 0.693372 0.720580 0.000000
-28.757517 -28.388466 -0.552979 1161 0.693372 0.720580 0.000000
-28.757847 -28.388794 -0.540575 1169 0.693372 0.720580 0.000000
-28.757763 -28.388708 -0.528156 1175 0.693372 0.720580 0.000000
-28.757563 -28.388519 -0.515747 1163 0.693372 0.720580 0.000000
-28.759340 -28.390270 -0.503360 1183 0.693372 0.720580 0.000000
-28.759930 -28.390846 -0.490964 1167 0.693372 0.720580 0.000000
-28.757332 -28.388288 -0.478509 1163 0.693372 0.720580 0.000000
-28.758011 -28.388950 -0.466102 1157 0.693372 0.720580 0.000000
-28.758846 -28.389788 -0.453703 1163 0.693372 0.720580 0.000000
-28.757221 -28.388170 -0.441269 1163 0.693372 0.720580 0.000000
-28.757849 -28.388788 -0.428872 1157 0.693372 0.720580 0.000000
-28.757885 -28.388830 -0.416462 1179 0.693372 0.720580 0.000000
-28.756485 -28.387445 -0.404025 1163 0.693372 0.720580 0.000000
-28.756105 -28.387068 -0.391608 1167 0.693372 0.720580 0.000000
-28.756290 -28.387245 -0.379206 1157 0.693372 0.720580 0.000000
-28.757317 -28.388269 -0.366806 1149 0.693372 0.720580 0.000000
-28.757555 -28.388508 -0.354404 1173 0.693372 0.720580 0.000000
-28.756596 -28.387547 -0.341972 1151 0.693372 0.720580 0.000000
-28.757515 -28.388451 -0.329574 1147 0.693372 0.720580 0.000000
-28.758896 -28.389816 -0.317180 1155 0.693372 0.720580 0.000000
-28.759050 -28.389982 -0.304778 1159 0.693372 0.720580 0.000000
-28.758394 -28.389330 -0.292354 1169 0.693372 0.720580 0.000000
-28.756807 -28.387762 -0.279929 1165 0.693372 0.720580 0.000000
-28.757755 -28.388689 -0.267530 1157 0.693372 0.720580 0.000000
-28.767899 -28.380014 -0.652308 1169 0.693372 0.720580 0.000000
-28.768253 -28.380363 -0.639904 1163 0.693372 0.720580 0.000000
-28.767139 -28.379274 -0.627464 1165 0.693372 0.720580 0.000000
-28.766451 -28.378595 -0.615041 1165 0.693372 0.720580 0.000000
-28.767231 -28.379356 -0.602643 1179 0.693372 0.720580 0.000000
-28.767826 -28.379950 -0.590237 1175 0.693372 0.720580 0.000000
-28.767019 -28.379145 -0.577814 1153 0.693372 0.720580 0.000000
-28.766832 -28.378969 -0.565396 1171 0.693372 0.720580 0.000000
-28.767017 -28.379148 -0.552984 1167 0.693372 0.720580 0.000000
-28.766783 -28.378908 -0.540566 1167 0.693372 0.720580 0.000000
-28.767054 -28.379187 -0.528163 1159 0.693372 0.720580 0.000000
-28.766651 -28.378788 -0.515746 1165 0.693372 0.720580 0.000000
-28.767183 -28.379301 -0.503341 1163 0.693372 0.720580 0.000000
-28.768293 -28.380396 -0.490950 1167 0.693372 0.720580 0.000000
-28.768085 -28.380190 -0.478532 1179 0.693372 0.720580 0.000000
-28.767303 -28.379417 -0.466109 1155 0.693372 0.720580 0.000000
-28.767092 -28.379210 -0.453691 1167 0.693372 0.720580 0.000000
-28.768600 -28.380707 -0.441306 1159 0.693372 0.720580 0.000000
-28.767973 -28.380077 -0.428892 1173 0.693372 0.720580 0.000000
-28.766769 -28.378899 -0.416453 1169 0.693372 0.720580 0.000000
-28.765930 -28.378067 -0.404031 1157 0.693372 0.720580 0.000000
-28.765976 -28.378103 -0.391620 1163 0.693372 0.720580 0.000000
-28.766371 -28.378498 -0.379216 1177 0.693372 0.720580 0.000000
-28.764898 -28.377039 -0.366790 1167 0.693372 0.720580 0.000000
-28.765612 -28.377743 -0.354393 1147 0.693372 0.720580 0.000000
-28.766529 -28.378649 -0.341994 1155 0.693372 0.720580 0.000000
-28.766962 -28.379076 -0.329589 1171 0.693372 0.720580 0.000000
-28.766100 -28.378225 -0.317167 1153 0.693372 0.720580 0.000000
-28.765707 -28.377836 -0.304751 1169 0.693372 0.720580 0.000000
-28.766825 -28.378935 -0.292350 1147 0.693372 0.720580 0.000000
-28.767042 -28.379158 -0.279947 1145 0.693372 0.720580 0.000000
-28.766893 -28.379013 -0.267538 1153 0.693372 0.720580 0.000000
-28.773903 -28.367893 -0.652243 1147 0.693372 0.720580 0.000000
-28.775194 -28.369167 -0.639861 1159 0.693372 0.720580 0.000000
-28.776377 -28.370335 -0.627479 1167 0.693372 0.720580 0.000000
-28.776783 -28.370743 -0.615075 1177 0.693372 0.720580 0.000000
-28.777231 -28.371183 -0.602670 1175 0.693372 0.720580 0.000000
-28.775393 -28.369358 -0.590218 1167 0.693372 0.720580 0.000000
-28.775311 -28.369289 -0.577798 1173 0.693372 0.720580 0.000000
-28.776423 -28.370382 -0.565417 1165 0.693372 0.720580 0.000000
-28.775156 -28.369137 -0.552979 1171 0.693372 0.720580 0.000000
-28.774641 -28.368620 -0.540554 1151 0.693372 0.720580 0.000000
-28.775494 -28.369469 -0.528155 1169 0.693372 0.720580 0.000000
-28.776196 -28.370150 -0.515758 1181 0.693372 0.720580 0.000000
-28.777132 -28.371082 -0.503369 1181 0.693372 0.720580 0.000000
-28.777822 -28.371758 -0.490962 1191 0.693372 0.720580 0.000000
-28.776215 -28.370169 -0.478527 1151 0.693372 0.720580 0.000000
-28.775179 -28.369144 -0.466097 1153 0.693372 0.720580 0.000000
-28.775808 -28.369766 -0.453700 1169 0.693372 0.720580 0.000000
-28.774921 -28.368893 -0.441269 1151 0.693372 0.720580 0.000000
-28.774752 -28.368731 -0.428860 1137 0.693372 0.720580 0.000000
-28.776058 -28.370018 -0.416467 1169 0.693372 0.720580 0.000000
-28.776411 -28.370365 -0.404063 1177 0.693372 0.720580 0.000000
-28.775297 -28.369263 -0.391634 1173 0.693372 0.720580 0.000000
-28.776230 -28.370178 -0.379235 1165 0.693372 0.720580 0.000000
-28.777248 -28.371183 -0.366845 1185 0.693372 0.720580 0.000000
-28.775990 -28.369944 -0.354416 1179 0.693372 0.720580 0.000000
-28.776012 -28.369972 -0.342006 1161 0.693372 0.720580 0.000000
-28.775665 -28.369619 -0.329589 1151 0.693372 0.720580 0.000000
-28.776054 -28.370003 -0.317185 1147 0.693372 0.720580 0.000000
-28.777067 -28.370998 -0.304785 1165 0.693372 0.720580 0.000000
-28.775265 -28.369217 -0.292352 1151 0.693372 0.720580 0.000000
-28.775480 -28.369438 -0.279949 1151 0.693372 0.720580 0.000000
-28.777056 -28.370991 -0.267554 1163 0.693372 0.720580 0.000000
-28.784740 -28.361584 -0.652307 1157 0.693372 0.720580 0.000000
-28.784060 -28.360912 -0.639873 1149 0.693372 0.720580 0.000000
-28.784628 -28.361467 -0.627478 1171 0.693372 0.720580 0.000000
-28.784916 -28.361761 -0.615074 1153 0.693372 0.720580 0.000000
-28.784000 -28.360851 -0.602633 1169 0.693372 0.720580 0.000000
-28.784657 -28.361494 -0.590236 1171 0.693372 0.720580 0.000000
-28.784487 -28.361334 -0.577828 1165 0.693372 0.720580 0.000000
-28.784346 -28.361197 -0.565409 1159 0.693372 0.720580 0.000000
-28.784794 -28.361639 -0.553004 1145 0.693372 0.720580 0.000000
-28.784134 -28.360985 -0.540580 1165 0.693372 0.720580 0.000000
-28.785294 -28.362122 -0.528189 1157 0.693372 0.720580 0.000000
-28.785839 -28.362658 -0.515793 1161 0.693372 0.720580 0.000000
-28.785957 -28.362780 -0.503382 1165 0.693372 0.720580 0.000000
-28.785639 -28.362469 -0.490965 1173 0.693372 0.720580 0.000000
-28.783829 -28.360683 -0.478522 1163 0.693372 0.720580 0.000000
-28.783209 -28.360062 -0.466097 1157 0.693372 0.720580 0.000000
-28.783316 -28.360174 -0.453686 1147 0.693372 0.720580 0.000000
-28.784243 -28.361088 -0.441287 1171 0.693372 0.720580 0.000000
-28.785393 -28.362215 -0.428896 1163 0.693372 0.720580 0.000000
-28.784504 -28.361341 -0.416474 1145 0.693372 0.720580 0.000000
-28.785437 -28.362257 -0.404075 1143 0.693372 0.720580 0.000000
-28.786819 -28.363623 -0.391681 1145 0.693372 0.720580 0.000000
-28.785345 -28.362173 -0.379255 1169 0.693372 0.720580 0.000000
-28.783447 -28.360304 -0.366813 1149 0.693372 0.720580 0.000000
-28.783850 -28.360691 -0.354409 1173 0.693372 0.720580 0.000000
-28.784721 -28.361557 -0.342010 1145 0.693372 0.720580 0.000000
-28.784597 -28.361420 -0.329601 1139 0.693372 0.720580 0.000000
-28.784718 -28.361547 -0.317189 1163 0.693372 0.720580 0.000000
-28.783838 -28.360680 -0.304767 1145 0.693372 0.720580 0.000000
-28.783976 -28.360819 -0.292366 1149 0.693372 0.720580 0.000000
-28.784182 -28.361017 -0.279954 1157 0.693372 0.720580 0.000000
-28.783943 -28.360785 -0.267546 1167 0.693372 0.720580 0.000000
-28.793343 -28.353497 -0.652320 1157 0.693372 0.720580 0.000000
-28.793003 -28.353167 -0.639893 1141 0.693372 0.720580 0.000000
-28.793098 -28.353258 -0.627482 1155 0.693372 0.720580 0.000000
-28.793711 -28.353865 -0.615085 1159 0.693372 0.720580 0.000000
-28.793901 -28.354048 -0.602683 1147 0.693372 0.720580 0.000000
-28.792938 -28.353096 -0.590242 1161 0.693372 0.720580 0.000000
-28.793236 -28.353386 -0.577839 1157 0.693372 0.720580 0.000000
-28.794247 -28.354383 -0.565449 1169 0.693372 0.720580 0.000000
-28.793179 -28.353329 -0.553009 1147 0.693372 0.720580 0.000000
-28.792677 -28.352835 -0.540594 1145 0.693372 0.720580 0.000000
-28.792328 -28.352497 -0.528177 1153 0.693372 0.720580 0.000000
-28.791616 -28.351797 -0.515743 1157 0.693372 0.720580 0.000000
-28.792521 -28.352678 -0.503354 1171 0.693372 0.720580 0.000000
-28.793770 -28.353916 -0.490962 1171 0.693372 0.720580 0.000000
-28.793358 -28.353514 -0.478546 1155 0.693372 0.720580 0.000000
-28.793144 -28.353300 -0.466128 1155 0.693372 0.720580 0.000000
-28.794245 -28.354374 -0.453737 1159 0.693372 0.720580 0.000000
-28.793354 -28.353498 -0.441315 1155 0.693372 0.720580 0.000000
-28.793825 -28.353958 -0.428910 1151 0.693372 0.720580 0.000000
-28.794283 -28.354422 -0.416505 1173 0.693372 0.720580 0.000000
-28.793339 -28.353487 -0.404074 1163 0.693372 0.720580 0.000000
-28.793547 -28.353685 -0.391672 1161 0.693372 0.720580 0.000000
-28.792782 -28.352942 -0.379249 1147 0.693372 0.720580 0.000000
-28.791628 -28.351807 -0.366820 1169 0.693372 0.720580 0.000000
-28.792234 -28.352394 -0.354414 1155 0.693372 0.720580 0.000000
-28.793303 -28.353453 -0.342023 1165 0.693372 0.720580 0.000000
-28.793386 -28.353533 -0.329612 1155 0.693372 0.720580 0.000000
-28.793661 -28.353802 -0.317209 1155 0.693372 0.720580 0.000000
-28.793314 -28.353464 -0.304792 1137 0.693372 0.720580 0.000000
-28.792711 -28.352871 -0.292378 1147 0.693372 0.720580 0.000000
-28.792833 -28.352985 -0.279966 1141 0.693372 0.720580 0.000000
-28.793310 -28.353449 -0.267561 1143 0.693372 0.720580 0.000000
-28.801064 -28.346355 -0.652332 1153 0.693372 0.720580 0.000000
-28.800007 -28.345325 -0.639892 1143 0.693372 0.720580 0.000000
-28.800192 -28.345518 -0.627490 1149 0.693372 0.720580 0.000000
-28.799660 -28.344999 -0.615064 1139 0.693372 0.720580 0.000000
-28.798868 -28.344219 -0.602632 1139 0.693372 0.720580 0.000000
-28.798567 -28.343935 -0.590214 1155 0.693372 0.720580 0.000000
-28.800484 -28.345829 -0.577846 1147 0.693372 0.720580 0.000000
-28.803736 -28.349039 -0.565494 1157 0.693372 0.720580 0.000000
-28.801983 -28.347313 -0.553051 1161 0.693372 0.720580 0.000000
-28.799547 -28.344921 -0.540584 1139 0.693372 0.720580 0.000000
-28.799864 -28.345251 -0.528180 1143 0.693372 0.720580 0.000000
-28.800652 -28.346031 -0.515782 1163 0.693372 0.720580 0.000000
-28.801805 -28.347176 -0.503391 1151 0.693372 0.720580 0.000000
-28.801556 -28.346935 -0.490973 1149 0.693372 0.720580 0.000000
-28.800306 -28.345716 -0.478545 1143 0.693372 0.720580 0.000000
-28.801456 -28.346842 -0.466153 1157 0.693372 0.720580 0.000000
-28.802235 -28.347618 -0.453756 1155 0.693372 0.720580 0.000000
-28.800974 -28.346390 -0.441317 1161 0.693372 0.720580 0.000000
-28.801300 -28.346712 -0.428914 1155 0.693372 0.720580 0.000000
-28.801178 -28.346605 -0.416505 1171 0.693372 0.720580 0.000000
-28.801157 -28.346584 -0.404095 1159 0.693372 0.720580 0.000000
-28.801189 -28.346636 -0.391674 1157 0.693372 0.720580 0.000000
-28.800859 -28.346312 -0.379267 1173 0.693372 0.720580 0.000000
-28.802149 -28.347584 -0.366874 1173 0.693372 0.720580 0.000000
-28.801914 -28.347355 -0.354456 1181 0.693372 0.720580 0.000000
-28.800117 -28.345608 -0.342023 1155 0.693372 0.720580 0.000000
-28.800764 -28.346243 -0.329616 1129 0.693372 0.720580 0.000000
-28.800985 -28.346470 -0.317214 1123 0.693372 0.720580 0.000000
-28.800169 -28.345680 -0.304791 1137 0.693372 0.720580 0.000000
-28.800245 -28.345755 -0.292380 1145 0.693372 0.720580 0.000000
-28.800150 -28.345673 -0.279971 1143 0.693372 0.720580 0.000000
-28.800205 -28.345726 -0.267560 1161 0.693372 0.720580 0.000000
