707
-14.787200 -13.973695 -0.689713 1395 0.733306 0.679899 0.000000
-14.787029 -13.973539 -0.683454 1395 0.733306 0.679899 0.000000
-14.786750 -13.973271 -0.677186 1379 0.733306 0.679899 0.000000
-14.786954 -13.973478 -0.670944 1387 0.733306 0.679899 0.000000
-14.786780 -13.973310 -0.664676 1385 0.733306 0.679899 0.000000
-14.786551 -13.973095 -0.658418 1385 0.733306 0.679899 0.000000
-14.786633 -13.973180 -0.652167 1381 0.733306 0.679899 0.000000
-14.787051 -13.973567 -0.645933 1389 0.733306 0.679899 0.000000
-14.786654 -13.973195 -0.639656 1381 0.733306 0.679899 0.000000
-14.786417 -13.972975 -0.633399 1389 0.733306 0.679899 0.000000
-14.786874 -13.973407 -0.627164 1385 0.733306 0.679899 0.000000
-14.786685 -13.973238 -0.620896 1387 0.733306 0.679899 0.000000
-14.786615 -13.973164 -0.614646 1389 0.733306 0.679899 0.000000
-14.786713 -13.973265 -0.589635 1393 0.733306 0.679899 0.000000
-14.790665 -13.968427 -0.689682 1373 0.733306 0.679899 0.000000
-14.790978 -13.968719 -0.683439 1363 0.733306 0.679899 0.000000
-14.791131 -13.968860 -0.677197 1367 0.733306 0.679899 0.000000
-14.790640 -13.968398 -0.670921 1363 0.733306 0.679899 0.000000
-14.790356 -13.968142 -0.664654 1367 0.733306 0.679899 0.000000
-14.789867 -13.967671 -0.658378 1359 0.733306 0.679899 0.000000
-14.790327 -13.968105 -0.652144 1369 0.733306 0.679899 0.000000
-14.790890 -13.968648 -0.645908 1371 0.733306 0.679899 0.000000
-14.790771 -13.968534 -0.639649 1353 0.733306 0.679899 0.000000
-14.790318 -13.968104 -0.633384 1359 0.733306 0.679899 0.000000
-14.789866 -13.967688 -0.627108 1363 0.733306 0.679899 0.000000
-14.790426 -13.968216 -0.620882 1367 0.733306 0.679899 0.000000
-14.790565 -13.968344 -0.614631 1369 0.733306 0.679899 0.000000
-14.790528 -13.968321 -0.608381 1367 0.733306 0.679899 0.000000
-14.790346 -13.968144 -0.602112 1359 0.733306 0.679899 0.000000
-14.790691 -13.968476 -0.595879 1357 0.733306 0.679899 0.000000
-14.790823 -13.968598 -0.589628 1359 0.733306 0.679899 0.000000
-14.790305 -13.968104 -0.583362 1363 0.733306 0.679899 0.000000
-14.790595 -13.968392 -0.577119 1367 0.733306 0.679899 0.000000
-14.790772 -13.968552 -0.570868 1371 0.733306 0.679899 0.000000
-14.790521 -13.968319 -0.564610 1371 0.733306 0.679899 0.000000
-14.790268 -13.968087 -0.558352 1365 0.733306 0.679899 0.000000
-14.790444 -13.968246 -0.552100 1361 0.733306 0.679899 0.000000
-14.790727 -13.968513 -0.545857 1367 0.733306 0.679899 0.000000
-14.790570 -13.968370 -0.539599 1373 0.733306 0.679899 0.000000
-14.790427 -13.968238 -0.533350 1367 0.733306 0.679899 0.000000
-14.790270 -13.968094 -0.527091 1357 0.733306 0.679899 0.000000
-14.790545 -13.968356 -0.520849 1369 0.733306 0.679899 0.000000
-14.790651 -13.968459 -0.514597 1369 0.733306 0.679899 0.000000
-14.790445 -13.968264 -0.508339 1365 0.733306 0.679899 0.000000
-14.790552 -13.968369 -0.502098 1361 0.733306 0.679899 0.000000
-14.790499 -13.968319 -0.495838 1353 0.733306 0.679899 0.000000
-14.789655 -13.967527 -0.489566 1349 0.733306 0.679899 0.000000
-14.789914 -13.967778 -0.483324 1359 0.733306 0.679899 0.000000
-14.790706 -13.968528 -0.477096 1363 0.733306 0.679899 0.000000
-14.790548 -13.968369 -0.470837 1367 0.733306 0.679899 0.000000
-14.789840 -13.967712 -0.464564 1361 0.733306 0.679899 0.000000
-14.790002 -13.967859 -0.458322 1367 0.733306 0.679899 0.000000
-14.790315 -13.968152 -0.452079 1369 0.733306 0.679899 0.000000
-14.790088 -13.967953 -0.445821 1359 0.733306 0.679899 0.000000
-14.789969 -13.967839 -0.439572 1351 0.733306 0.679899 0.000000
-14.790163 -13.968024 -0.433330 1365 0.733306 0.679899 0.000000
-14.789997 -13.967861 -0.427071 1371 0.733306 0.679899 0.000000
-14.790248 -13.968103 -0.420829 1379 0.733306 0.679899 0.000000
-14.790499 -13.968348 -0.414586 1377 0.733306 0.679899 0.000000
-14.790525 -13.968374 -0.408336 1377 0.733306 0.679899 0.000000
-14.789663 -13.967557 -0.402064 1357 0.733306 0.679899 0.000000
-14.788995 -13.966930 -0.395800 1361 0.733306 0.679899 0.000000
-14.789565 -13.967464 -0.389565 1375 0.733306 0.679899 0.000000
-14.789854 -13.967738 -0.383322 1371 0.733306 0.679899 0.000000
-14.790049 -13.967925 -0.377080 1369 0.733306 0.679899 0.000000
-14.789963 -13.967851 -0.370820 1363 0.733306 0.679899 0.000000
-14.789671 -13.967574 -0.364563 1369 0.733306 0.679899 0.000000
-14.789848 -13.967748 -0.358321 1371 0.733306 0.679899 0.000000
-14.790195 -13.968079 -0.352078 1367 0.733306 0.679899 0.000000
-14.790534 -13.968405 -0.345844 1363 0.733306 0.679899 0.000000
-14.790183 -13.968069 -0.339587 1363 0.733306 0.679899 0.000000
-14.790136 -13.968025 -0.333338 1371 0.733306 0.679899 0.000000
-14.790586 -13.968452 -0.327093 1381 0.733306 0.679899 0.000000
-14.789805 -13.967711 -0.320831 1361 0.733306 0.679899 0.000000
-14.789401 -13.967333 -0.314574 1369 0.733306 0.679899 0.000000
-14.789460 -13.967399 -0.308324 1357 0.733306 0.679899 0.000000
-14.788983 -13.966949 -0.302068 1369 0.733306 0.679899 0.000000
-14.794774 -13.963759 -0.689675 1351 0.733306 0.679899 0.000000
-14.794450 -13.963444 -0.683408 1351 0.733306 0.679899 0.000000
-14.794275 -13.963286 -0.677149 1345 0.733306 0.679899 0.000000
-14.794422 -13.963421 -0.670897 1351 0.733306 0.679899 0.000000
-14.794360 -13.963366 -0.664638 1361 0.733306 0.679899 0.000000
-14.794394 -13.963399 -0.658387 1361 0.733306 0.679899 0.000000
-14.794270 -13.963294 -0.652128 1361 0.733306 0.679899 0.000000
-14.794408 -13.963422 -0.645877 1367 0.733306 0.679899 0.000000
-14.794498 -13.963514 -0.639636 1361 0.733306 0.679899 0.000000
-14.794316 -13.963336 -0.633368 1363 0.733306 0.679899 0.000000
-14.795037 -13.964017 -0.627151 1369 0.733306 0.679899 0.000000
-14.795495 -13.964450 -0.620916 1367 0.733306 0.679899 0.000000
-14.794827 -13.963824 -0.614632 1357 0.733306 0.679899 0.000000
-14.794215 -13.963256 -0.608358 1351 0.733306 0.679899 0.000000
-14.794345 -13.963377 -0.602106 1361 0.733306 0.679899 0.000000
-14.794163 -13.963201 -0.595848 1353 0.733306 0.679899 0.000000
-14.794558 -13.963583 -0.589614 1363 0.733306 0.679899 0.000000
-14.794893 -13.963895 -0.583371 1371 0.733306 0.679899 0.000000
-14.794593 -13.963611 -0.577104 1361 0.733306 0.679899 0.000000
-14.794499 -13.963531 -0.570854 1349 0.733306 0.679899 0.000000
-14.794631 -13.963654 -0.564603 1347 0.733306 0.679899 0.000000
-14.794481 -13.963515 -0.558344 1349 0.733306 0.679899 0.000000
-14.794282 -13.963326 -0.552086 1351 0.733306 0.679899 0.000000
-14.794668 -13.963689 -0.545852 1361 0.733306 0.679899 0.000000
-14.794681 -13.963704 -0.539602 1363 0.733306 0.679899 0.000000
-14.794098 -13.963160 -0.533327 1357 0.733306 0.679899 0.000000
-14.793839 -13.962921 -0.527069 1353 0.733306 0.679899 0.000000
-14.794439 -13.963480 -0.520834 1359 0.733306 0.679899 0.000000
-14.794818 -13.963851 -0.514600 1371 0.733306 0.679899 0.000000
-14.794292 -13.963350 -0.508325 1359 0.733306 0.679899 0.000000
-14.793704 -13.962801 -0.502060 1357 0.733306 0.679899 0.000000
-14.794074 -13.963151 -0.495816 1345 0.733306 0.679899 0.000000
-14.793860 -13.962950 -0.489558 1353 0.733306 0.679899 0.000000
-14.794028 -13.963102 -0.483317 1359 0.733306 0.679899 0.000000
-14.794496 -13.963556 -0.477082 1361 0.733306 0.679899 0.000000
-14.793372 -13.962491 -0.470792 1341 0.733306 0.679899 0.000000
-14.793262 -13.962385 -0.464543 1333 0.733306 0.679899 0.000000
-14.794215 -13.963287 -0.458324 1357 0.733306 0.679899 0.000000
-14.794209 -13.963290 -0.452074 1361 0.733306 0.679899 0.000000
-14.794356 -13.963425 -0.445822 1361 0.733306 0.679899 0.000000
-14.794183 -13.963267 -0.439574 1361 0.733306 0.679899 0.000000
-14.793801 -13.962907 -0.433307 1355 0.733306 0.679899 0.000000
-14.793732 -13.962846 -0.427058 1349 0.733306 0.679899 0.000000
-14.793503 -13.962632 -0.420800 1347 0.733306 0.679899 0.000000
-14.793323 -13.962470 -0.414551 1349 0.733306 0.679899 0.000000
-14.793459 -13.962597 -0.408300 1357 0.733306 0.679899 0.000000
-14.793654 -13.962783 -0.402058 1349 0.733306 0.679899 0.000000
-14.793632 -13.962758 -0.395808 1341 0.733306 0.679899 0.000000
-14.793715 -13.962843 -0.389557 1357 0.733306 0.679899 0.000000
-14.793109 -13.962267 -0.383293 1367 0.733306 0.679899 0.000000
-14.792337 -13.961546 -0.377030 1359 0.733306 0.679899 0.000000
-14.792684 -13.961878 -0.370786 1365 0.733306 0.679899 0.000000
-14.793293 -13.962457 -0.364550 1359 0.733306 0.679899 0.000000
-14.793262 -13.962427 -0.358301 1363 0.733306 0.679899 0.000000
-14.793450 -13.962607 -0.352059 1357 0.733306 0.679899 0.000000
-14.793843 -13.962976 -0.345825 1357 0.733306 0.679899 0.000000
-14.793805 -13.962938 -0.339575 1347 0.733306 0.679899 0.000000
-14.793672 -13.962813 -0.333316 1347 0.733306 0.679899 0.000000
-14.793211 -13.962378 -0.327060 1351 0.733306 0.679899 0.000000
-14.792743 -13.961948 -0.320804 1353 0.733306 0.679899 0.000000
-14.792753 -13.961950 -0.314554 1351 0.733306 0.679899 0.000000
-14.793563 -13.962727 -0.308326 1351 0.733306 0.679899 0.000000
-14.793677 -13.962836 -0.302075 1349 0.733306 0.679899 0.000000
-14.799070 -13.959101 -0.689677 1349 0.733306 0.679899 0.000000
-14.798633 -13.958682 -0.683401 1357 0.733306 0.679899 0.000000
-14.799003 -13.959033 -0.677167 1351 0.733306 0.679899 0.000000
-14.799468 -13.959472 -0.670932 1343 0.733306 0.679899 0.000000
-14.799295 -13.959316 -0.664664 1347 0.733306 0.679899 0.000000
-14.799122 -13.959146 -0.658405 1353 0.733306 0.679899 0.000000
-14.798941 -13.958982 -0.652147 1357 0.733306 0.679899 0.000000
-14.799287 -13.959314 -0.645904 1349 0.733306 0.679899 0.000000
-14.799703 -13.959702 -0.639669 1357 0.733306 0.679899 0.000000
-14.799459 -13.959476 -0.633402 1365 0.733306 0.679899 0.000000
-14.799340 -13.959363 -0.627143 1363 0.733306 0.679899 0.000000
-14.798672 -13.958737 -0.620869 1349 0.733306 0.679899 0.000000
-14.798970 -13.959018 -0.614626 1355 0.733306 0.679899 0.000000
-14.798725 -13.958792 -0.608368 1359 0.733306 0.679899 0.000000
-14.798008 -13.958114 -0.602085 1345 0.733306 0.679899 0.000000
-14.798401 -13.958483 -0.595841 1355 0.733306 0.679899 0.000000
-14.798907 -13.958967 -0.589616 1355 0.733306 0.679899 0.000000
-14.798232 -13.958336 -0.583332 1341 0.733306 0.679899 0.000000
-14.797828 -13.957957 -0.577066 1335 0.733306 0.679899 0.000000
-14.798906 -13.958972 -0.570855 1343 0.733306 0.679899 0.000000
-14.799301 -13.959342 -0.564621 1339 0.733306 0.679899 0.000000
-14.798457 -13.958551 -0.558339 1349 0.733306 0.679899 0.000000
-14.798051 -13.958172 -0.552073 1351 0.733306 0.679899 0.000000
-14.798381 -13.958477 -0.545830 1347 0.733306 0.679899 0.000000
-14.798329 -13.958443 -0.539580 1349 0.733306 0.679899 0.000000
-14.798028 -13.958158 -0.533313 1353 0.733306 0.679899 0.000000
-14.798302 -13.958421 -0.527070 1347 0.733306 0.679899 0.000000
-14.798943 -13.959023 -0.520844 1357 0.733306 0.679899 0.000000
-14.798944 -13.959032 -0.514593 1343 0.733306 0.679899 0.000000
-14.799323 -13.959390 -0.508350 1335 0.733306 0.679899 0.000000
-14.799067 -13.959143 -0.502092 1343 0.733306 0.679899 0.000000
-14.798904 -13.958993 -0.495833 1349 0.733306 0.679899 0.000000
-14.798739 -13.958843 -0.489585 1343 0.733306 0.679899 0.000000
-14.798477 -13.958591 -0.483317 1343 0.733306 0.679899 0.000000
-14.798736 -13.958839 -0.477075 1349 0.733306 0.679899 0.000000
-14.798362 -13.958486 -0.470818 1347 0.733306 0.679899 0.000000
-14.798246 -13.958387 -0.464559 1351 0.733306 0.679899 0.000000
-14.798400 -13.958528 -0.458317 1351 0.733306 0.679899 0.000000
-14.798130 -13.958268 -0.452060 1353 0.733306 0.679899 0.000000
-14.798014 -13.958169 -0.445811 1359 0.733306 0.679899 0.000000
-14.797944 -13.958108 -0.439551 1355 0.733306 0.679899 0.000000
-14.798049 -13.958197 -0.433310 1351 0.733306 0.679899 0.000000
-14.798244 -13.958383 -0.427068 1349 0.733306 0.679899 0.000000
-14.798437 -13.958568 -0.420816 1353 0.733306 0.679899 0.000000
-14.797944 -13.958107 -0.414560 1347 0.733306 0.679899 0.000000
-14.797915 -13.958090 -0.408311 1343 0.733306 0.679899 0.000000
-14.798382 -13.958529 -0.402066 1353 0.733306 0.679899 0.000000
-14.798415 -13.958563 -0.395815 1359 0.733306 0.679899 0.000000
-14.798073 -13.958233 -0.389559 1355 0.733306 0.679899 0.000000
-14.797454 -13.957659 -0.383294 1343 0.733306 0.679899 0.000000
-14.798023 -13.958193 -0.377059 1357 0.733306 0.679899 0.000000
-14.797986 -13.958171 -0.370809 1353 0.733306 0.679899 0.000000
-14.797644 -13.957841 -0.364552 1351 0.733306 0.679899 0.000000
-14.797518 -13.957723 -0.358303 1345 0.733306 0.679899 0.000000
-14.798010 -13.958195 -0.352068 1351 0.733306 0.679899 0.000000
-14.797979 -13.958164 -0.345818 1351 0.733306 0.679899 0.000000
-14.798212 -13.958381 -0.339576 1351 0.733306 0.679899 0.000000
-14.798280 -13.958453 -0.333325 1361 0.733306 0.679899 0.000000
-14.797978 -13.958169 -0.327068 1357 0.733306 0.679899 0.000000
-14.798108 -13.958291 -0.320827 1359 0.733306 0.679899 0.000000
-14.797952 -13.958147 -0.314578 1359 0.733306 0.679899 0.000000
-14.797435 -13.957667 -0.308313 1353 0.733306 0.679899 0.000000
-14.797230 -13.957472 -0.302064 1339 0.733306 0.679899 0.000000
-14.803241 -13.954150 -0.689661 1355 0.733306 0.679899 0.000000
-14.803220 -13.954139 -0.683411 1363 0.733306 0.679899 0.000000
-14.803052 -13.953975 -0.677152 1355 0.733306 0.679899 0.000000
-14.802457 -13.953420 -0.670868 1343 0.733306 0.679899 0.000000
-14.803026 -13.953954 -0.664642 1351 0.733306 0.679899 0.000000
-14.803597 -13.954501 -0.658407 1357 0.733306 0.679899 0.000000
-14.803367 -13.954287 -0.652149 1357 0.733306 0.679899 0.000000
-14.803352 -13.954269 -0.645889 1351 0.733306 0.679899 0.000000
-14.803913 -13.954797 -0.639663 1363 0.733306 0.679899 0.000000
-14.803573 -13.954482 -0.633396 1375 0.733306 0.679899 0.000000
-14.802802 -13.953761 -0.627113 1345 0.733306 0.679899 0.000000
-14.802938 -13.953889 -0.620862 1355 0.733306 0.679899 0.000000
-14.803396 -13.954322 -0.614627 1357 0.733306 0.679899 0.000000
-14.803798 -13.954698 -0.608393 1355 0.733306 0.679899 0.000000
-14.803865 -13.954769 -0.602143 1347 0.733306 0.679899 0.000000
-14.803682 -13.954593 -0.595884 1349 0.733306 0.679899 0.000000
-14.803597 -13.954518 -0.589625 1349 0.733306 0.679899 0.000000
-14.803305 -13.954242 -0.583357 1357 0.733306 0.679899 0.000000
-14.803164 -13.954110 -0.577099 1351 0.733306 0.679899 0.000000
-14.803236 -13.954173 -0.570858 1357 0.733306 0.679899 0.000000
-14.803297 -13.954241 -0.564607 1353 0.733306 0.679899 0.000000
-14.802628 -13.953613 -0.558323 1363 0.733306 0.679899 0.000000
-14.801838 -13.952867 -0.552050 1359 0.733306 0.679899 0.000000
-14.802383 -13.953382 -0.545815 1355 0.733306 0.679899 0.000000
-14.802818 -13.953796 -0.539581 1369 0.733306 0.679899 0.000000
-14.802940 -13.953912 -0.533330 1355 0.733306 0.679899 0.000000
-14.802783 -13.953768 -0.527071 1363 0.733306 0.679899 0.000000
-14.803169 -13.954131 -0.520837 1361 0.733306 0.679899 0.000000
-14.803489 -13.954430 -0.514594 1351 0.733306 0.679899 0.000000
-14.802799 -13.953786 -0.508320 1335 0.733306 0.679899 0.000000
-14.802530 -13.953541 -0.502063 1325 0.733306 0.679899 0.000000
-14.802851 -13.953838 -0.495820 1349 0.733306 0.679899 0.000000
-14.803172 -13.954139 -0.489586 1359 0.733306 0.679899 0.000000
-14.802543 -13.953544 -0.483312 1347 0.733306 0.679899 0.000000
-14.802426 -13.953444 -0.477053 1331 0.733306 0.679899 0.000000
-14.802949 -13.953942 -0.470828 1341 0.733306 0.679899 0.000000
-14.802679 -13.953683 -0.464560 1343 0.733306 0.679899 0.000000
-14.802777 -13.953779 -0.458319 1351 0.733306 0.679899 0.000000
-14.802986 -13.953978 -0.452077 1347 0.733306 0.679899 0.000000
-14.802975 -13.953974 -0.445827 1355 0.733306 0.679899 0.000000
-14.802960 -13.953957 -0.439577 1363 0.733306 0.679899 0.000000
-14.803211 -13.954199 -0.433335 1365 0.733306 0.679899 0.000000
-14.803093 -13.954086 -0.427076 1351 0.733306 0.679899 0.000000
-14.803184 -13.954177 -0.420825 1355 0.733306 0.679899 0.000000
-14.802531 -13.953564 -0.414561 1345 0.733306 0.679899 0.000000
-14.802508 -13.953539 -0.408311 1353 0.733306 0.679899 0.000000
-14.802328 -13.953377 -0.402062 1355 0.733306 0.679899 0.000000
-14.801779 -13.952858 -0.395797 1331 0.733306 0.679899 0.000000
-14.802237 -13.953291 -0.389553 1347 0.733306 0.679899 0.000000
-14.802325 -13.953367 -0.383312 1345 0.733306 0.679899 0.000000
-14.802131 -13.953193 -0.377053 1349 0.733306 0.679899 0.000000
-14.802259 -13.953315 -0.370812 1351 0.733306 0.679899 0.000000
-14.802439 -13.953488 -0.364570 1357 0.733306 0.679899 0.000000
-14.802313 -13.953369 -0.358311 1347 0.733306 0.679899 0.000000
-14.802873 -13.953897 -0.352076 1343 0.733306 0.679899 0.000000
-14.802996 -13.954013 -0.345834 1357 0.733306 0.679899 0.000000
-14.802431 -13.953482 -0.339570 1341 0.733306 0.679899 0.000000
-14.802450 -13.953503 -0.333319 1357 0.733306 0.679899 0.000000
-14.802140 -13.953212 -0.327062 1357 0.733306 0.679899 0.000000
-14.802055 -13.953138 -0.320813 1359 0.733306 0.679899 0.000000
-14.801643 -13.952753 -0.314556 1351 0.733306 0.679899 0.000000
-14.801596 -13.952709 -0.308307 1359 0.733306 0.679899 0.000000
-14.802032 -13.953124 -0.302072 1351 0.733306 0.679899 0.000000
-14.808194 -13.950268 -0.689696 1367 0.733306 0.679899 0.000000
-14.808405 -13.950466 -0.683454 1365 0.733306 0.679899 0.000000
-14.808433 -13.950508 -0.677203 1359 0.733306 0.679899 0.000000
-14.808314 -13.950395 -0.670944 1351 0.733306 0.679899 0.000000
-14.808357 -13.950435 -0.664684 1359 0.733306 0.679899 0.000000
-14.807705 -13.949820 -0.658400 1347 0.733306 0.679899 0.000000
-14.807267 -13.949403 -0.652134 1353 0.733306 0.679899 0.000000
-14.807566 -13.949697 -0.645891 1357 0.733306 0.679899 0.000000
-14.807432 -13.949572 -0.639632 1369 0.733306 0.679899 0.000000
-14.807577 -13.949707 -0.633380 1363 0.733306 0.679899 0.000000
-14.807765 -13.949887 -0.627138 1353 0.733306 0.679899 0.000000
-14.807096 -13.949259 -0.620854 1351 0.733306 0.679899 0.000000
-14.807554 -13.949694 -0.614620 1357 0.733306 0.679899 0.000000
-14.807475 -13.949612 -0.608371 1349 0.733306 0.679899 0.000000
-14.806967 -13.949138 -0.602095 1343 0.733306 0.679899 0.000000
-14.806722 -13.948912 -0.595837 1343 0.733306 0.679899 0.000000
-14.807333 -13.949491 -0.589601 1339 0.733306 0.679899 0.000000
-14.807782 -13.949918 -0.583367 1351 0.733306 0.679899 0.000000
-14.807263 -13.949423 -0.577102 1343 0.733306 0.679899 0.000000
-14.807984 -13.950103 -0.570875 1349 0.733306 0.679899 0.000000
-14.807675 -13.949813 -0.564608 1351 0.733306 0.679899 0.000000
-14.806416 -13.948628 -0.558309 1337 0.733306 0.679899 0.000000
-14.806899 -13.949095 -0.552074 1361 0.733306 0.679899 0.000000
-14.807293 -13.949464 -0.545841 1365 0.733306 0.679899 0.000000
-14.807024 -13.949219 -0.539583 1347 0.733306 0.679899 0.000000
-14.807258 -13.949435 -0.533331 1339 0.733306 0.679899 0.000000
-14.807002 -13.949188 -0.527073 1351 0.733306 0.679899 0.000000
-14.806311 -13.948544 -0.520799 1343 0.733306 0.679899 0.000000
-14.807056 -13.949256 -0.514572 1345 0.733306 0.679899 0.000000
-14.807386 -13.949562 -0.508339 1339 0.733306 0.679899 0.000000
-14.807381 -13.949564 -0.502089 1341 0.733306 0.679899 0.000000
-14.806959 -13.949159 -0.495823 1349 0.733306 0.679899 0.000000
-14.806802 -13.949015 -0.489564 1351 0.733306 0.679899 0.000000
-14.807707 -13.949867 -0.483345 1345 0.733306 0.679899 0.000000
-14.807814 -13.949970 -0.477094 1339 0.733306 0.679899 0.000000
-14.807114 -13.949319 -0.470820 1341 0.733306 0.679899 0.000000
-14.806732 -13.948959 -0.464564 1335 0.733306 0.679899 0.000000
-14.807095 -13.949304 -0.458320 1353 0.733306 0.679899 0.000000
-14.806712 -13.948943 -0.452064 1347 0.733306 0.679899 0.000000
-14.807084 -13.949294 -0.445820 1345 0.733306 0.679899 0.000000
-14.807284 -13.949485 -0.439578 1347 0.733306 0.679899 0.000000
-14.807104 -13.949323 -0.433320 1347 0.733306 0.679899 0.000000
-14.806778 -13.949007 -0.427063 1359 0.733306 0.679899 0.000000
-14.806117 -13.948387 -0.420799 1349 0.733306 0.679899 0.000000
-14.805937 -13.948224 -0.414540 1347 0.733306 0.679899 0.000000
-14.806139 -13.948416 -0.408298 1351 0.733306 0.679899 0.000000
-14.806436 -13.948695 -0.402055 1357 0.733306 0.679899 0.000000
-14.806471 -13.948730 -0.395805 1357 0.733306 0.679899 0.000000
-14.806337 -13.948604 -0.389556 1355 0.733306 0.679899 0.000000
-14.805947 -13.948237 -0.383299 1355 0.733306 0.679899 0.000000
-14.805911 -13.948215 -0.377049 1355 0.733306 0.679899 0.000000
-14.806847 -13.949091 -0.370821 1357 0.733306 0.679899 0.000000
-14.807514 -13.949729 -0.364584 1355 0.733306 0.679899 0.000000
-14.806837 -13.949096 -0.358320 1361 0.733306 0.679899 0.000000
-14.806336 -13.948615 -0.352065 1343 0.733306 0.679899 0.000000
-14.806410 -13.948693 -0.345814 1335 0.733306 0.679899 0.000000
-14.806852 -13.949114 -0.339580 1351 0.733306 0.679899 0.000000
-14.806342 -13.948626 -0.333314 1337 0.733306 0.679899 0.000000
-14.805453 -13.947798 -0.327052 1353 0.733306 0.679899 0.000000
-14.805892 -13.948204 -0.320808 1345 0.733306 0.679899 0.000000
-14.806384 -13.948676 -0.314574 1359 0.733306 0.679899 0.000000
-14.806234 -13.948539 -0.308325 1345 0.733306 0.679899 0.000000
-14.806195 -13.948501 -0.302075 1349 0.733306 0.679899 0.000000
-14.812402 -13.945704 -0.689698 1357 0.733306 0.679899 0.000000
-14.812277 -13.945585 -0.683439 1345 0.733306 0.679899 0.000000
-14.812326 -13.945631 -0.677188 1351 0.733306 0.679899 0.000000
-14.812265 -13.945576 -0.670929 1347 0.733306 0.679899 0.000000
-14.812348 -13.945661 -0.664678 1353 0.733306 0.679899 0.000000
-14.811687 -13.945041 -0.658394 1355 0.733306 0.679899 0.000000
-14.811523 -13.944891 -0.652135 1343 0.733306 0.679899 0.000000
-14.812140 -13.945462 -0.645909 1349 0.733306 0.679899 0.000000
-14.811909 -13.945248 -0.639641 1355 0.733306 0.679899 0.000000
-14.811401 -13.944775 -0.633366 1351 0.733306 0.679899 0.000000
-14.811603 -13.944966 -0.627124 1355 0.733306 0.679899 0.000000
-14.811670 -13.945039 -0.620873 1345 0.733306 0.679899 0.000000
-14.811337 -13.944716 -0.614606 1349 0.733306 0.679899 0.000000
-14.811361 -13.944742 -0.608356 1347 0.733306 0.679899 0.000000
-14.811597 -13.944973 -0.602113 1347 0.733306 0.679899 0.000000
-14.811615 -13.944994 -0.595863 1361 0.733306 0.679899 0.000000
-14.811857 -13.945217 -0.589620 1347 0.733306 0.679899 0.000000
-14.811988 -13.945340 -0.583369 1355 0.733306 0.679899 0.000000
-14.811311 -13.944707 -0.577095 1355 0.733306 0.679899 0.000000
-14.811641 -13.945026 -0.570852 1351 0.733306 0.679899 0.000000
-14.811764 -13.945142 -0.564601 1357 0.733306 0.679899 0.000000
-14.811358 -13.944763 -0.558334 1353 0.733306 0.679899 0.000000
-14.811481 -13.944879 -0.552093 1339 0.733306 0.679899 0.000000
-14.811554 -13.944942 -0.545842 1341 0.733306 0.679899 0.000000
-14.811932 -13.945300 -0.539599 1351 0.733306 0.679899 0.000000
-14.811997 -13.945357 -0.533358 1359 0.733306 0.679899 0.000000
-14.811354 -13.944764 -0.527084 1345 0.733306 0.679899 0.000000
-14.811852 -13.945230 -0.520849 1345 0.733306 0.679899 0.000000
-14.811805 -13.945186 -0.514589 1341 0.733306 0.679899 0.000000
-14.811328 -13.944736 -0.508323 1345 0.733306 0.679899 0.000000
-14.811379 -13.944797 -0.502073 1345 0.733306 0.679899 0.000000
-14.811811 -13.945197 -0.495839 1345 0.733306 0.679899 0.000000
-14.811807 -13.945199 -0.489588 1353 0.733306 0.679899 0.000000
-14.811491 -13.944903 -0.483331 1341 0.733306 0.679899 0.000000
-14.811644 -13.945044 -0.477080 1349 0.733306 0.679899 0.000000
-14.811104 -13.944545 -0.470815 1337 0.733306 0.679899 0.000000
-14.810834 -13.944286 -0.464557 1345 0.733306 0.679899 0.000000
-14.811467 -13.944883 -0.458321 1347 0.733306 0.679899 0.000000
-14.811877 -13.945279 -0.452087 1357 0.733306 0.679899 0.000000
-14.811449 -13.944868 -0.445821 1347 0.733306 0.679899 0.000000
-14.811387 -13.944813 -0.439571 1343 0.733306 0.679899 0.000000
-14.810943 -13.944403 -0.433315 1345 0.733306 0.679899 0.000000
-14.810928 -13.944386 -0.427065 1347 0.733306 0.679899 0.000000
-14.811179 -13.944628 -0.420823 1351 0.733306 0.679899 0.000000
-14.810581 -13.944057 -0.414548 1333 0.733306 0.679899 0.000000
-14.810282 -13.943789 -0.408291 1355 0.733306 0.679899 0.000000
-14.810596 -13.944081 -0.402058 1355 0.733306 0.679899 0.000000
-14.810781 -13.944260 -0.395806 1343 0.733306 0.679899 0.000000
-14.810807 -13.944287 -0.389565 1345 0.733306 0.679899 0.000000
-14.811216 -13.944670 -0.383321 1349 0.733306 0.679899 0.000000
-14.811724 -13.945154 -0.377086 1353 0.733306 0.679899 0.000000
-14.811429 -13.944877 -0.370829 1357 0.733306 0.679899 0.000000
-14.810976 -13.944447 -0.364573 1343 0.733306 0.679899 0.000000
-14.811106 -13.944568 -0.358322 1345 0.733306 0.679899 0.000000
-14.810966 -13.944450 -0.352073 1343 0.733306 0.679899 0.000000
-14.810665 -13.944167 -0.345816 1353 0.733306 0.679899 0.000000
-14.810531 -13.944040 -0.339567 1349 0.733306 0.679899 0.000000
-14.810493 -13.944004 -0.333317 1337 0.733306 0.679899 0.000000
-14.810296 -13.943816 -0.327059 1343 0.733306 0.679899 0.000000
-14.810674 -13.944185 -0.320825 1347 0.733306 0.679899 0.000000
-14.810699 -13.944199 -0.314575 1355 0.733306 0.679899 0.000000
-14.809961 -13.943518 -0.308311 1361 0.733306 0.679899 0.000000
-14.809707 -13.943270 -0.302054 1343 0.733306 0.679899 0.000000
-14.817527 -13.941321 -0.689725 1359 0.733306 0.679899 0.000000
-14.816875 -13.940706 -0.683441 1357 0.733306 0.679899 0.000000
-14.816327 -13.940202 -0.677155 1349 0.733306 0.679899 0.000000
-14.816793 -13.940641 -0.670931 1345 0.733306 0.679899 0.000000
-14.816842 -13.940686 -0.664670 1353 0.733306 0.679899 0.000000
-14.816558 -13.940414 -0.658403 1349 0.733306 0.679899 0.000000
-14.816648 -13.940506 -0.652162 1365 0.733306 0.679899 0.000000
-14.816360 -13.940233 -0.645894 1351 0.733306 0.679899 0.000000
-14.816606 -13.940473 -0.639652 1349 0.733306 0.679899 0.000000
-14.816847 -13.940695 -0.633410 1349 0.733306 0.679899 0.000000
-14.816401 -13.940285 -0.627134 1355 0.733306 0.679899 0.000000
-14.816108 -13.940007 -0.620866 1349 0.733306 0.679899 0.000000
-14.816246 -13.940135 -0.614625 1339 0.733306 0.679899 0.000000
-14.816912 -13.940772 -0.608398 1345 0.733306 0.679899 0.000000
-14.816986 -13.940837 -0.602147 1343 0.733306 0.679899 0.000000
-14.816699 -13.940564 -0.595880 1357 0.733306 0.679899 0.000000
-14.815969 -13.939889 -0.589597 1355 0.733306 0.679899 0.000000
-14.816362 -13.940258 -0.583363 1353 0.733306 0.679899 0.000000
-14.816700 -13.940583 -0.577119 1349 0.733306 0.679899 0.000000
-14.816295 -13.940191 -0.570853 1337 0.733306 0.679899 0.000000
-14.816848 -13.940712 -0.564628 1341 0.733306 0.679899 0.000000
-14.816483 -13.940378 -0.558361 1339 0.733306 0.679899 0.000000
-14.816397 -13.940289 -0.552102 1353 0.733306 0.679899 0.000000
-14.816679 -13.940558 -0.545859 1339 0.733306 0.679899 0.000000
-14.816570 -13.940465 -0.539610 1351 0.733306 0.679899 0.000000
-14.815838 -13.939775 -0.533327 1345 0.733306 0.679899 0.000000
-14.815632 -13.939580 -0.527068 1337 0.733306 0.679899 0.000000
-14.816385 -13.940299 -0.520841 1339 0.733306 0.679899 0.000000
-14.816492 -13.940403 -0.514600 1345 0.733306 0.679899 0.000000
-14.816399 -13.940309 -0.508341 1351 0.733306 0.679899 0.000000
-14.816072 -13.940006 -0.502084 1353 0.733306 0.679899 0.000000
-14.815716 -13.939664 -0.495817 1335 0.733306 0.679899 0.000000
-14.815919 -13.939870 -0.489575 1339 0.733306 0.679899 0.000000
-14.816552 -13.940469 -0.483349 1337 0.733306 0.679899 0.000000
-14.816609 -13.940520 -0.477098 1343 0.733306 0.679899 0.000000
-14.816180 -13.940109 -0.470832 1349 0.733306 0.679899 0.000000
-14.816440 -13.940359 -0.464589 1345 0.733306 0.679899 0.000000
-14.816266 -13.940203 -0.458331 1345 0.733306 0.679899 0.000000
-14.816317 -13.940248 -0.452080 1343 0.733306 0.679899 0.000000
-14.816629 -13.940541 -0.445847 1347 0.733306 0.679899 0.000000
-14.816074 -13.940030 -0.439582 1353 0.733306 0.679899 0.000000
-14.815756 -13.939719 -0.433315 1349 0.733306 0.679899 0.000000
-14.816421 -13.940355 -0.427088 1351 0.733306 0.679899 0.000000
-14.816513 -13.940448 -0.420837 1357 0.733306 0.679899 0.000000
-14.815429 -13.939428 -0.414557 1355 0.733306 0.679899 0.000000
-14.815262 -13.939263 -0.408309 1359 0.733306 0.679899 0.000000
-14.815928 -13.939899 -0.402072 1347 0.733306 0.679899 0.000000
-14.815851 -13.939833 -0.395823 1349 0.733306 0.679899 0.000000
-14.815134 -13.939155 -0.389560 1343 0.733306 0.679899 0.000000
-14.815654 -13.939637 -0.383325 1347 0.733306 0.679899 0.000000
-14.815730 -13.939715 -0.377074 1347 0.733306 0.679899 0.000000
-14.815372 -13.939388 -0.370817 1343 0.733306 0.679899 0.000000
-14.815560 -13.939569 -0.364575 1345 0.733306 0.679899 0.000000
-14.815592 -13.939588 -0.358325 1349 0.733306 0.679899 0.000000
-14.815508 -13.939514 -0.352075 1355 0.733306 0.679899 0.000000
-14.815151 -13.939186 -0.345818 1347 0.733306 0.679899 0.000000
-14.815545 -13.939555 -0.339574 1347 0.733306 0.679899 0.000000
-14.815722 -13.939729 -0.333333 1355 0.733306 0.679899 0.000000
-14.815526 -13.939540 -0.327074 1357 0.733306 0.679899 0.000000
-14.815704 -13.939713 -0.320832 1359 0.733306 0.679899 0.000000
-14.815715 -13.939727 -0.314582 1353 0.733306 0.679899 0.000000
-14.814982 -13.939037 -0.308319 1339 0.733306 0.679899 0.000000
-14.814889 -13.938944 -0.302070 1337 0.733306 0.679899 0.000000
-14.821083 -13.935627 -0.689685 1349 0.733306 0.679899 0.000000
-14.821233 -13.935777 -0.683434 1359 0.733306 0.679899 0.000000
-14.820794 -13.935359 -0.677158 1359 0.733306 0.679899 0.000000
-14.820245 -13.934840 -0.670883 1357 0.733306 0.679899 0.000000
-14.820072 -13.934683 -0.664624 1353 0.733306 0.679899 0.000000
-14.820962 -13.935522 -0.658406 1353 0.733306 0.679899 0.000000
-14.821316 -13.935861 -0.652162 1357 0.733306 0.679899 0.000000
-14.820765 -13.935341 -0.645887 1359 0.733306 0.679899 0.000000
-14.821224 -13.935776 -0.639653 1357 0.733306 0.679899 0.000000
-14.821473 -13.936005 -0.633410 1343 0.733306 0.679899 0.000000
-14.821341 -13.935893 -0.627151 1351 0.733306 0.679899 0.000000
-14.821582 -13.936116 -0.620909 1359 0.733306 0.679899 0.000000
-14.821457 -13.935997 -0.614650 1353 0.733306 0.679899 0.000000
-14.821107 -13.935676 -0.608383 1343 0.733306 0.679899 0.000000
-14.821501 -13.936045 -0.602149 1347 0.733306 0.679899 0.000000
-14.821470 -13.936014 -0.595889 1353 0.733306 0.679899 0.000000
-14.820747 -13.935344 -0.589616 1357 0.733306 0.679899 0.000000
-14.820869 -13.935460 -0.583365 1355 0.733306 0.679899 0.000000
-14.821159 -13.935735 -0.577122 1357 0.733306 0.679899 0.000000
-14.820587 -13.935197 -0.570847 1347 0.733306 0.679899 0.000000
-14.821141 -13.935719 -0.564622 1353 0.733306 0.679899 0.000000
-14.821262 -13.935835 -0.558370 1347 0.733306 0.679899 0.000000
-14.821224 -13.935797 -0.552120 1343 0.733306 0.679899 0.000000
-14.821450 -13.936008 -0.545878 1351 0.733306 0.679899 0.000000
-14.820926 -13.935522 -0.539603 1341 0.733306 0.679899 0.000000
-14.820506 -13.935131 -0.533337 1349 0.733306 0.679899 0.000000
-14.820683 -13.935290 -0.527095 1351 0.733306 0.679899 0.000000
-14.820471 -13.935102 -0.520837 1341 0.733306 0.679899 0.000000
-14.820750 -13.935356 -0.514594 1341 0.733306 0.679899 0.000000
-14.821120 -13.935706 -0.508350 1357 0.733306 0.679899 0.000000
-14.820971 -13.935569 -0.502092 1357 0.733306 0.679899 0.000000
-14.820592 -13.935223 -0.495835 1351 0.733306 0.679899 0.000000
-14.820329 -13.934970 -0.489577 1347 0.733306 0.679899 0.000000
-14.820116 -13.934769 -0.483319 1339 0.733306 0.679899 0.000000
-14.820271 -13.934923 -0.477068 1347 0.733306 0.679899 0.000000
-14.821057 -13.935668 -0.470850 1353 0.733306 0.679899 0.000000
-14.821482 -13.936062 -0.464606 1353 0.733306 0.679899 0.000000
-14.821149 -13.935753 -0.458349 1343 0.733306 0.679899 0.000000
-14.820560 -13.935203 -0.452074 1349 0.733306 0.679899 0.000000
-14.820170 -13.934836 -0.445818 1355 0.733306 0.679899 0.000000
-14.819735 -13.934433 -0.439552 1341 0.733306 0.679899 0.000000
-14.819402 -13.934124 -0.433295 1341 0.733306 0.679899 0.000000
-14.819762 -13.934455 -0.427061 1343 0.733306 0.679899 0.000000
-14.820237 -13.934900 -0.420817 1351 0.733306 0.679899 0.000000
-14.820319 -13.934985 -0.414576 1355 0.733306 0.679899 0.000000
-14.820410 -13.935076 -0.408324 1361 0.733306 0.679899 0.000000
-14.820596 -13.935254 -0.402083 1351 0.733306 0.679899 0.000000
-14.821059 -13.935679 -0.395838 1355 0.733306 0.679899 0.000000
-14.820184 -13.934863 -0.389576 1347 0.733306 0.679899 0.000000
-14.820107 -13.934796 -0.383317 1357 0.733306 0.679899 0.000000
-14.820286 -13.934969 -0.377075 1355 0.733306 0.679899 0.000000
-14.819952 -13.934647 -0.370818 1351 0.733306 0.679899 0.000000
-14.819436 -13.934167 -0.364553 1351 0.733306 0.679899 0.000000
-14.819350 -13.934093 -0.358303 1343 0.733306 0.679899 0.000000
-14.819057 -13.933816 -0.352056 1343 0.733306 0.679899 0.000000
-14.818973 -13.933743 -0.345796 1339 0.733306 0.679899 0.000000
-14.819740 -13.934459 -0.339569 1337 0.733306 0.679899 0.000000
-14.819919 -13.934632 -0.333327 1349 0.733306 0.679899 0.000000
-14.819297 -13.934043 -0.327063 1343 0.733306 0.679899 0.000000
-14.819308 -13.934058 -0.320813 1349 0.733306 0.679899 0.000000
-14.819480 -13.934226 -0.314571 1343 0.733306 0.679899 0.000000
-14.818963 -13.933745 -0.308316 1339 0.733306 0.679899 0.000000
-14.818597 -13.933397 -0.302059 1347 0.733306 0.679899 0.000000
-14.825850 -13.931086 -0.689694 1347 0.733306 0.679899 0.000000
-14.826363 -13.931562 -0.683460 1357 0.733306 0.679899 0.000000
-14.826308 -13.931514 -0.677210 1361 0.733306 0.679899 0.000000
-14.825927 -13.931152 -0.670933 1355 0.733306 0.679899 0.000000
-14.825954 -13.931193 -0.664683 1359 0.733306 0.679899 0.000000
-14.825941 -13.931175 -0.658423 1357 0.733306 0.679899 0.000000
-14.826143 -13.931369 -0.652181 1353 0.733306 0.679899 0.000000
-14.826065 -13.931300 -0.645921 1351 0.733306 0.679899 0.000000
-14.825731 -13.930978 -0.639654 1359 0.733306 0.679899 0.000000
-14.825494 -13.930758 -0.633396 1343 0.733306 0.679899 0.000000
-14.825266 -13.930544 -0.627128 1341 0.733306 0.679899 0.000000
-14.825660 -13.930926 -0.620894 1345 0.733306 0.679899 0.000000
-14.825957 -13.931207 -0.614652 1357 0.733306 0.679899 0.000000
-14.826191 -13.931424 -0.608409 1357 0.733306 0.679899 0.000000
-14.826064 -13.931304 -0.602150 1355 0.733306 0.679899 0.000000
-14.825548 -13.930824 -0.595875 1361 0.733306 0.679899 0.000000
-14.825095 -13.930394 -0.589609 1347 0.733306 0.679899 0.000000
-14.825121 -13.930421 -0.583359 1351 0.733306 0.679899 0.000000
-14.825133 -13.930436 -0.577108 1347 0.733306 0.679899 0.000000
-14.825199 -13.930509 -0.570858 1343 0.733306 0.679899 0.000000
-14.825225 -13.930521 -0.564607 1347 0.733306 0.679899 0.000000
-14.825131 -13.930441 -0.558348 1361 0.733306 0.679899 0.000000
-14.825197 -13.930499 -0.552097 1343 0.733306 0.679899 0.000000
-14.825264 -13.930571 -0.545846 1333 0.733306 0.679899 0.000000
-14.825650 -13.930934 -0.539613 1343 0.733306 0.679899 0.000000
-14.825707 -13.930985 -0.533362 1349 0.733306 0.679899 0.000000
-14.825239 -13.930544 -0.527096 1349 0.733306 0.679899 0.000000
-14.825242 -13.930552 -0.520846 1351 0.733306 0.679899 0.000000
-14.825737 -13.931015 -0.514611 1351 0.733306 0.679899 0.000000
-14.826268 -13.931520 -0.508376 1359 0.733306 0.679899 0.000000
-14.825361 -13.930678 -0.502094 1359 0.733306 0.679899 0.000000
-14.824461 -13.929830 -0.495813 1349 0.733306 0.679899 0.000000
-14.825093 -13.930428 -0.489587 1359 0.733306 0.679899 0.000000
-14.825408 -13.930721 -0.483343 1345 0.733306 0.679899 0.000000
-14.825896 -13.931179 -0.477109 1361 0.733306 0.679899 0.000000
-14.825994 -13.931275 -0.470858 1361 0.733306 0.679899 0.000000
-14.824927 -13.930269 -0.464578 1341 0.733306 0.679899 0.000000
-14.824540 -13.929916 -0.458311 1343 0.733306 0.679899 0.000000
-14.824853 -13.930210 -0.452078 1347 0.733306 0.679899 0.000000
-14.825541 -13.930850 -0.445841 1359 0.733306 0.679899 0.000000
-14.825369 -13.930695 -0.439593 1345 0.733306 0.679899 0.000000
-14.824606 -13.929980 -0.433320 1347 0.733306 0.679899 0.000000
-14.824590 -13.929961 -0.427070 1347 0.733306 0.679899 0.000000
-14.825057 -13.930401 -0.420825 1347 0.733306 0.679899 0.000000
-14.824924 -13.930289 -0.414576 1345 0.733306 0.679899 0.000000
-14.824695 -13.930076 -0.408318 1345 0.733306 0.679899 0.000000
-14.824623 -13.929999 -0.402069 1351 0.733306 0.679899 0.000000
-14.824498 -13.929894 -0.395820 1351 0.733306 0.679899 0.000000
-14.824901 -13.930270 -0.389576 1349 0.733306 0.679899 0.000000
-14.824663 -13.930050 -0.383328 1345 0.733306 0.679899 0.000000
-14.824316 -13.929729 -0.377061 1347 0.733306 0.679899 0.000000
-14.824396 -13.929799 -0.370820 1341 0.733306 0.679899 0.000000
-14.824799 -13.930176 -0.364576 1339 0.733306 0.679899 0.000000
-14.824609 -13.930006 -0.358328 1353 0.733306 0.679899 0.000000
-14.824045 -13.929476 -0.352063 1341 0.733306 0.679899 0.000000
-14.824383 -13.929801 -0.345820 1351 0.733306 0.679899 0.000000
-14.824401 -13.929809 -0.339579 1355 0.733306 0.679899 0.000000
-14.824689 -13.930081 -0.333337 1355 0.733306 0.679899 0.000000
-14.824861 -13.930249 -0.327085 1347 0.733306 0.679899 0.000000
-14.824718 -13.930117 -0.320836 1357 0.733306 0.679899 0.000000
-14.824307 -13.929732 -0.314580 1357 0.733306 0.679899 0.000000
-14.824693 -13.930096 -0.308336 1361 0.733306 0.679899 0.000000
-14.824703 -13.930110 -0.302086 1349 0.733306 0.679899 0.000000
-14.829823 -13.926107 -0.689680 1361 0.733306 0.679899 0.000000
-14.830185 -13.926451 -0.683446 1355 0.733306 0.679899 0.000000
-14.830331 -13.926585 -0.677194 1349 0.733306 0.679899 0.000000
-14.829896 -13.926183 -0.670918 1355 0.733306 0.679899 0.000000
-14.829451 -13.925772 -0.664642 1361 0.733306 0.679899 0.000000
-14.829699 -13.926001 -0.658400 1361 0.733306 0.679899 0.000000
-14.829733 -13.926034 -0.652149 1361 0.733306 0.679899 0.000000
-14.829345 -13.925669 -0.645883 1353 0.733306 0.679899 0.000000
-14.829651 -13.925955 -0.639640 1353 0.733306 0.679899 0.000000
-14.829942 -13.926245 -0.633397 1347 0.733306 0.679899 0.000000
-14.829607 -13.925920 -0.627130 1355 0.733306 0.679899 0.000000
-14.829570 -13.925898 -0.620880 1359 0.733306 0.679899 0.000000
-14.829660 -13.925975 -0.614629 1341 0.733306 0.679899 0.000000
-14.829894 -13.926206 -0.608387 1351 0.733306 0.679899 0.000000
-14.830089 -13.926378 -0.602145 1347 0.733306 0.679899 0.000000
-14.830314 -13.926601 -0.595893 1357 0.733306 0.679899 0.000000
-14.830341 -13.926629 -0.589642 1369 0.733306 0.679899 0.000000
-14.830472 -13.926751 -0.583401 1357 0.733306 0.679899 0.000000
-14.830171 -13.926468 -0.577133 1355 0.733306 0.679899 0.000000
-14.829812 -13.926126 -0.570867 1349 0.733306 0.679899 0.000000
-14.830040 -13.926351 -0.564624 1349 0.733306 0.679899 0.000000
-14.830112 -13.926414 -0.558374 1335 0.733306 0.679899 0.000000
-14.830395 -13.926682 -0.552131 1349 0.733306 0.679899 0.000000
-14.830357 -13.926645 -0.545881 1355 0.733306 0.679899 0.000000
-14.829833 -13.926160 -0.539606 1353 0.733306 0.679899 0.000000
-14.830371 -13.926669 -0.533370 1371 0.733306 0.679899 0.000000
-14.830165 -13.926474 -0.527112 1361 0.733306 0.679899 0.000000
-14.830279 -13.926583 -0.520871 1351 0.733306 0.679899 0.000000
-14.830706 -13.926991 -0.514637 1349 0.733306 0.679899 0.000000
-14.830452 -13.926745 -0.508369 1349 0.733306 0.679899 0.000000
-14.830182 -13.926500 -0.502111 1357 0.733306 0.679899 0.000000
-14.829922 -13.926261 -0.495854 1343 0.733306 0.679899 0.000000
-14.829708 -13.926060 -0.489596 1355 0.733306 0.679899 0.000000
-14.829544 -13.925910 -0.483337 1343 0.733306 0.679899 0.000000
-14.829753 -13.926108 -0.477095 1349 0.733306 0.679899 0.000000
-14.829380 -13.925754 -0.470828 1349 0.733306 0.679899 0.000000
-14.829270 -13.925648 -0.464579 1343 0.733306 0.679899 0.000000
-14.829528 -13.925896 -0.458337 1347 0.733306 0.679899 0.000000
-14.829730 -13.926087 -0.452095 1347 0.733306 0.679899 0.000000
-14.829661 -13.926026 -0.445835 1355 0.733306 0.679899 0.000000
-14.829488 -13.925870 -0.439586 1355 0.733306 0.679899 0.000000
-14.828835 -13.925257 -0.433312 1341 0.733306 0.679899 0.000000
-14.829039 -13.925449 -0.427070 1335 0.733306 0.679899 0.000000
-14.829184 -13.925582 -0.420829 1331 0.733306 0.679899 0.000000
-14.828475 -13.924911 -0.414555 1341 0.733306 0.679899 0.000000
-14.828397 -13.924844 -0.408306 1339 0.733306 0.679899 0.000000
-14.828433 -13.924877 -0.402056 1349 0.733306 0.679899 0.000000
-14.829161 -13.925564 -0.395828 1355 0.733306 0.679899 0.000000
-14.829354 -13.925749 -0.389587 1345 0.733306 0.679899 0.000000
-14.828686 -13.925123 -0.383313 1349 0.733306 0.679899 0.000000
-14.828817 -13.925245 -0.377071 1345 0.733306 0.679899 0.000000
-14.829002 -13.925426 -0.370829 1355 0.733306 0.679899 0.000000
-14.828502 -13.924956 -0.364564 1345 0.733306 0.679899 0.000000
-14.828632 -13.925080 -0.358323 1349 0.733306 0.679899 0.000000
-14.828547 -13.925006 -0.352073 1347 0.733306 0.679899 0.000000
-14.828349 -13.924816 -0.345815 1337 0.733306 0.679899 0.000000
-14.828105 -13.924590 -0.339567 1357 0.733306 0.679899 0.000000
-14.827588 -13.924110 -0.333302 1353 0.733306 0.679899 0.000000
-14.828245 -13.924726 -0.327065 1357 0.733306 0.679899 0.000000
-14.828575 -13.925046 -0.320832 1351 0.733306 0.679899 0.000000
-14.828810 -13.925262 -0.314580 1357 0.733306 0.679899 0.000000
-14.829034 -13.925472 -0.308338 1349 0.733306 0.679899 0.000000
-14.828726 -13.925182 -0.302090 1347 0.733306 0.679899 0.000000
-14.834571 -13.922215 -0.689706 1357 0.733306 0.679899 0.000000
-14.834461 -13.922108 -0.683447 1355 0.733306 0.679899 0.000000
-14.833968 -13.921647 -0.677171 1345 0.733306 0.679899 0.000000
-14.834227 -13.921895 -0.670928 1343 0.733306 0.679899 0.000000
-14.834421 -13.922081 -0.664686 1349 0.733306 0.679899 0.000000
-14.834191 -13.921867 -0.658418 1355 0.733306 0.679899 0.000000
-14.834760 -13.922402 -0.652193 1359 0.733306 0.679899 0.000000
-14.834635 -13.922283 -0.645934 1359 0.733306 0.679899 0.000000
-14.834343 -13.922020 -0.639667 1367 0.733306 0.679899 0.000000
-14.834543 -13.922197 -0.633415 1359 0.733306 0.679899 0.000000
-14.834833 -13.922472 -0.627182 1353 0.733306 0.679899 0.000000
-14.834917 -13.922557 -0.620931 1347 0.733306 0.679899 0.000000
-14.834312 -13.921994 -0.614646 1351 0.733306 0.679899 0.000000
-14.834121 -13.921810 -0.608388 1351 0.733306 0.679899 0.000000
-14.834349 -13.922035 -0.602146 1365 0.733306 0.679899 0.000000
-14.834326 -13.922010 -0.595896 1363 0.733306 0.679899 0.000000
-14.833658 -13.921385 -0.589612 1347 0.733306 0.679899 0.000000
-14.834003 -13.921703 -0.583378 1343 0.733306 0.679899 0.000000
-14.834334 -13.922023 -0.577135 1337 0.733306 0.679899 0.000000
-14.834624 -13.922297 -0.570892 1345 0.733306 0.679899 0.000000
-14.834961 -13.922608 -0.564649 1343 0.733306 0.679899 0.000000
-14.835402 -13.923028 -0.558415 1355 0.733306 0.679899 0.000000
-14.835311 -13.922949 -0.552165 1357 0.733306 0.679899 0.000000
-14.834784 -13.922448 -0.545890 1349 0.733306 0.679899 0.000000
-14.834851 -13.922520 -0.539639 1351 0.733306 0.679899 0.000000
-14.834326 -13.922020 -0.533374 1351 0.733306 0.679899 0.000000
-14.834024 -13.921737 -0.527107 1359 0.733306 0.679899 0.000000
-14.833972 -13.921700 -0.520857 1351 0.733306 0.679899 0.000000
-14.833821 -13.921549 -0.514598 1341 0.733306 0.679899 0.000000
-14.834087 -13.921804 -0.508356 1353 0.733306 0.679899 0.000000
-14.833818 -13.921559 -0.502098 1351 0.733306 0.679899 0.000000
-14.833877 -13.921612 -0.495847 1357 0.733306 0.679899 0.000000
-14.834086 -13.921810 -0.489605 1361 0.733306 0.679899 0.000000
-14.833819 -13.921566 -0.483348 1345 0.733306 0.679899 0.000000
-14.834188 -13.921916 -0.477104 1357 0.733306 0.679899 0.000000
-14.834511 -13.922215 -0.470861 1353 0.733306 0.679899 0.000000
-14.833858 -13.921602 -0.464597 1351 0.733306 0.679899 0.000000
-14.833318 -13.921103 -0.458322 1355 0.733306 0.679899 0.000000
-14.833311 -13.921091 -0.452072 1351 0.733306 0.679899 0.000000
-14.833035 -13.920840 -0.445814 1343 0.733306 0.679899 0.000000
-14.833228 -13.921025 -0.439572 1345 0.733306 0.679899 0.000000
-14.833280 -13.921071 -0.433321 1341 0.733306 0.679899 0.000000
-14.833210 -13.921010 -0.427072 1347 0.733306 0.679899 0.000000
-14.833348 -13.921139 -0.420831 1349 0.733306 0.679899 0.000000
-14.833389 -13.921178 -0.414580 1351 0.733306 0.679899 0.000000
-14.833424 -13.921210 -0.408329 1349 0.733306 0.679899 0.000000
-14.833458 -13.921244 -0.402079 1349 0.733306 0.679899 0.000000
-14.833331 -13.921124 -0.395830 1357 0.733306 0.679899 0.000000
-14.833470 -13.921253 -0.389579 1353 0.733306 0.679899 0.000000
-14.833817 -13.921585 -0.383345 1343 0.733306 0.679899 0.000000
-14.833795 -13.921562 -0.377095 1351 0.733306 0.679899 0.000000
-14.833285 -13.921088 -0.370830 1347 0.733306 0.679899 0.000000
-14.832986 -13.920817 -0.364573 1347 0.733306 0.679899 0.000000
-14.832907 -13.920735 -0.358323 1349 0.733306 0.679899 0.000000
-14.833518 -13.921315 -0.352087 1357 0.733306 0.679899 0.000000
-14.833528 -13.921329 -0.345837 1355 0.733306 0.679899 0.000000
-14.833610 -13.921400 -0.339596 1351 0.733306 0.679899 0.000000
-14.834059 -13.921826 -0.333352 1359 0.733306 0.679899 0.000000
-14.833160 -13.920992 -0.327090 1353 0.733306 0.679899 0.000000
-14.832315 -13.920201 -0.320818 1351 0.733306 0.679899 0.000000
-14.832341 -13.920215 -0.314577 1351 0.733306 0.679899 0.000000
-14.832351 -13.920229 -0.308327 1349 0.733306 0.679899 0.000000
-14.832363 -13.920244 -0.302077 1347 0.733306 0.679899 0.000000
