786
-2.557667 -2.046130 -0.345289 547 0.740885 0.671632 0.000000
-2.556843 -2.045466 -0.344166 563 0.740885 0.671632 0.000000
-2.556807 -2.045436 -0.343147 577 0.740885 0.671632 0.000000
-2.557573 -2.046054 -0.342230 565 0.740885 0.671632 0.000000
-2.558505 -2.046800 -0.341332 565 0.740885 0.671632 0.000000
-2.559167 -2.047323 -0.340406 581 0.740885 0.671632 0.000000
-2.558956 -2.047159 -0.339358 593 0.740885 0.671632 0.000000
-2.558069 -2.046446 -0.338226 591 0.740885 0.671632 0.000000
-2.557064 -2.045642 -0.337084 587 0.740885 0.671632 0.000000
-2.557432 -2.045939 -0.336111 583 0.740885 0.671632 0.000000
-2.558539 -2.046820 -0.335241 573 0.740885 0.671632 0.000000
-2.559582 -2.047651 -0.334362 583 0.740885 0.671632 0.000000
-2.559148 -2.047302 -0.333286 593 0.740885 0.671632 0.000000
-2.558318 -2.046645 -0.332163 579 0.740885 0.671632 0.000000
-2.557423 -2.045926 -0.331031 577 0.740885 0.671632 0.000000
-2.555973 -2.044764 -0.329834 565 0.740885 0.671632 0.000000
-2.556898 -2.045504 -0.328936 559 0.740885 0.671632 0.000000
-2.558346 -2.046663 -0.328103 565 0.740885 0.671632 0.000000
-2.558881 -2.047088 -0.327148 589 0.740885 0.671632 0.000000
-2.558559 -2.046839 -0.326091 585 0.740885 0.671632 0.000000
-2.558236 -2.046574 -0.325044 589 0.740885 0.671632 0.000000
-2.557802 -2.046225 -0.323968 587 0.740885 0.671632 0.000000
-2.558392 -2.046693 -0.323022 583 0.740885 0.671632 0.000000
-2.558927 -2.047119 -0.322078 605 0.740885 0.671632 0.000000
-2.557803 -2.046222 -0.320928 609 0.740885 0.671632 0.000000
-2.557084 -2.045652 -0.319824 597 0.740885 0.671632 0.000000
-2.557611 -2.046072 -0.318869 597 0.740885 0.671632 0.000000
-2.557909 -2.046313 -0.317886 595 0.740885 0.671632 0.000000
-2.558102 -2.046462 -0.316895 587 0.740885 0.671632 0.000000
-2.558811 -2.047022 -0.315969 605 0.740885 0.671632 0.000000
-2.559506 -2.047584 -0.315042 609 0.740885 0.671632 0.000000
-2.559922 -2.047918 -0.314069 597 0.740885 0.671632 0.000000
-2.560115 -2.048066 -0.313077 605 0.740885 0.671632 0.000000
-2.559959 -2.047945 -0.312049 605 0.740885 0.671632 0.000000
-2.558835 -2.047048 -0.310898 607 0.740885 0.671632 0.000000
-2.556861 -2.045468 -0.309645 581 0.740885 0.671632 0.000000
-2.556364 -2.045069 -0.308570 557 0.740885 0.671632 0.000000
-2.558202 -2.046542 -0.307774 579 0.740885 0.671632 0.000000
-2.559300 -2.047416 -0.306894 581 0.740885 0.671632 0.000000
-2.558461 -2.046740 -0.305771 551 0.740885 0.671632 0.000000
-2.557615 -2.046072 -0.304659 565 0.740885 0.671632 0.000000
-2.558269 -2.046590 -0.303723 563 0.740885 0.671632 0.000000
-2.559304 -2.047415 -0.302834 551 0.740885 0.671632 0.000000
-2.559030 -2.047202 -0.301786 563 0.740885 0.671632 0.000000
-2.557627 -2.046077 -0.300609 561 0.740885 0.671632 0.000000
-2.556843 -2.045444 -0.299505 553 0.740885 0.671632 0.000000
-2.557370 -2.045863 -0.298551 567 0.740885 0.671632 0.000000
-2.556525 -2.045195 -0.297438 571 0.740885 0.671632 0.000000
-2.558276 -2.045338 -0.346310 563 0.740885 0.671632 0.000000
-2.559145 -2.046035 -0.345412 571 0.740885 0.671632 0.000000
-2.559688 -2.046467 -0.344458 577 0.740885 0.671632 0.000000
-2.559088 -2.045988 -0.343363 567 0.740885 0.671632 0.000000
-2.560020 -2.046734 -0.342475 561 0.740885 0.671632 0.000000
-2.560046 -2.046754 -0.341455 557 0.740885 0.671632 0.000000
-2.560471 -2.047094 -0.340491 585 0.740885 0.671632 0.000000
-2.560663 -2.047242 -0.339499 609 0.740885 0.671632 0.000000
-2.559611 -2.046401 -0.338348 593 0.740885 0.671632 0.000000
-2.558884 -2.045824 -0.337235 587 0.740885 0.671632 0.000000
-2.558737 -2.045709 -0.336206 573 0.740885 0.671632 0.000000
-2.559048 -2.045949 -0.335223 565 0.740885 0.671632 0.000000
-2.558956 -2.045877 -0.334194 581 0.740885 0.671632 0.000000
-2.559317 -2.046168 -0.333231 575 0.740885 0.671632 0.000000
-2.559852 -2.046593 -0.332276 569 0.740885 0.671632 0.000000
-2.558672 -2.045654 -0.331116 591 0.740885 0.671632 0.000000
-2.556769 -2.044128 -0.329853 583 0.740885 0.671632 0.000000
-2.557415 -2.044640 -0.328917 575 0.740885 0.671632 0.000000
-2.558911 -2.045835 -0.328094 575 0.740885 0.671632 0.000000
-2.558763 -2.045720 -0.327055 549 0.740885 0.671632 0.000000
-2.558266 -2.045321 -0.325980 555 0.740885 0.671632 0.000000
-2.558174 -2.045249 -0.324950 589 0.740885 0.671632 0.000000
-2.558311 -2.045354 -0.323959 587 0.740885 0.671632 0.000000
-2.559355 -2.046186 -0.323070 573 0.740885 0.671632 0.000000
-2.559541 -2.046342 -0.322079 583 0.740885 0.671632 0.000000
-2.558481 -2.045495 -0.320928 569 0.740885 0.671632 0.000000
-2.558331 -2.045365 -0.319899 579 0.740885 0.671632 0.000000
-2.557723 -2.044881 -0.318804 579 0.740885 0.671632 0.000000
-2.558021 -2.045123 -0.317832 571 0.740885 0.671632 0.000000
-2.559358 -2.046195 -0.316980 587 0.740885 0.671632 0.000000
-2.559717 -2.046472 -0.316007 593 0.740885 0.671632 0.000000
-2.559849 -2.046585 -0.315006 583 0.740885 0.671632 0.000000
-2.559296 -2.046144 -0.313920 587 0.740885 0.671632 0.000000
-2.558686 -2.045645 -0.312836 593 0.740885 0.671632 0.000000
-2.559787 -2.046534 -0.311946 587 0.740885 0.671632 0.000000
-2.559742 -2.046498 -0.310927 589 0.740885 0.671632 0.000000
-2.557997 -2.045096 -0.309702 575 0.740885 0.671632 0.000000
-2.556183 -2.043652 -0.308478 561 0.740885 0.671632 0.000000
-2.556773 -2.044121 -0.307532 559 0.740885 0.671632 0.000000
-2.558903 -2.045820 -0.306774 559 0.740885 0.671632 0.000000
-2.559083 -2.045969 -0.305772 553 0.740885 0.671632 0.000000
-2.557616 -2.044796 -0.304595 545 0.740885 0.671632 0.000000
-2.557064 -2.044354 -0.303510 525 0.740885 0.671632 0.000000
-2.557876 -2.044994 -0.302593 533 0.740885 0.671632 0.000000
-2.558355 -2.045377 -0.301628 561 0.740885 0.671632 0.000000
-2.557913 -2.045021 -0.300562 559 0.740885 0.671632 0.000000
-2.558377 -2.045392 -0.299608 571 0.740885 0.671632 0.000000
-2.558445 -2.045456 -0.298598 571 0.740885 0.671632 0.000000
-2.558296 -2.045326 -0.297569 577 0.740885 0.671632 0.000000
-2.559723 -2.045206 -0.345404 591 0.740885 0.671632 0.000000
-2.559800 -2.045276 -0.344393 579 0.740885 0.671632 0.000000
-2.559540 -2.045061 -0.343345 575 0.740885 0.671632 0.000000
-2.559400 -2.044952 -0.342306 579 0.740885 0.671632 0.000000
-2.559816 -2.045286 -0.341343 573 0.740885 0.671632 0.000000
-2.561034 -2.046252 -0.340492 589 0.740885 0.671632 0.000000
-2.561068 -2.046278 -0.339472 597 0.740885 0.671632 0.000000
-2.560683 -2.045979 -0.338405 589 0.740885 0.671632 0.000000
-2.560194 -2.045586 -0.337329 579 0.740885 0.671632 0.000000
-2.559990 -2.045414 -0.336281 569 0.740885 0.671632 0.000000
-2.560477 -2.045803 -0.335327 571 0.740885 0.671632 0.000000
-2.559869 -2.045319 -0.334232 567 0.740885 0.671632 0.000000
-2.559031 -2.044657 -0.333109 573 0.740885 0.671632 0.000000
-2.558945 -2.044576 -0.332080 589 0.740885 0.671632 0.000000
-2.558909 -2.044547 -0.331060 601 0.740885 0.671632 0.000000
-2.558579 -2.044291 -0.330003 587 0.740885 0.671632 0.000000
-2.559296 -2.044858 -0.329077 571 0.740885 0.671632 0.000000
-2.559936 -2.045377 -0.328141 559 0.740885 0.671632 0.000000
-2.559447 -2.044984 -0.327066 541 0.740885 0.671632 0.000000
-2.558671 -2.044357 -0.325952 529 0.740885 0.671632 0.000000
-2.559310 -2.044876 -0.325017 565 0.740885 0.671632 0.000000
-2.560138 -2.045529 -0.324110 563 0.740885 0.671632 0.000000
-2.560046 -2.045457 -0.323080 595 0.740885 0.671632 0.000000
-2.560057 -2.045464 -0.322060 599 0.740885 0.671632 0.000000
-2.560028 -2.045440 -0.321041 589 0.740885 0.671632 0.000000
-2.559133 -2.044721 -0.319918 583 0.740885 0.671632 0.000000
-2.558009 -2.043825 -0.318768 575 0.740885 0.671632 0.000000
-2.557909 -2.043746 -0.317739 569 0.740885 0.671632 0.000000
-2.559016 -2.044627 -0.316859 561 0.740885 0.671632 0.000000
-2.560401 -2.045736 -0.316007 577 0.740885 0.671632 0.000000
-2.560991 -2.046205 -0.315072 597 0.740885 0.671632 0.000000
-2.559693 -2.045173 -0.313893 607 0.740885 0.671632 0.000000
-2.559433 -2.044958 -0.312845 605 0.740885 0.671632 0.000000
-2.560064 -2.045471 -0.311910 587 0.740885 0.671632 0.000000
-2.559407 -2.044936 -0.310816 589 0.740885 0.671632 0.000000
-2.558959 -2.044589 -0.309749 583 0.740885 0.671632 0.000000
-2.558755 -2.044416 -0.308711 569 0.740885 0.671632 0.000000
-2.558774 -2.044430 -0.307691 569 0.740885 0.671632 0.000000
-2.559872 -2.045305 -0.306812 581 0.740885 0.671632 0.000000
-2.560169 -2.045546 -0.305829 581 0.740885 0.671632 0.000000
-2.558187 -2.043960 -0.304586 553 0.740885 0.671632 0.000000
-2.558318 -2.044073 -0.303585 539 0.740885 0.671632 0.000000
-2.559075 -2.044671 -0.302658 551 0.740885 0.671632 0.000000
-2.559602 -2.045090 -0.301704 559 0.740885 0.671632 0.000000
-2.559836 -2.045283 -0.300722 579 0.740885 0.671632 0.000000
-2.559687 -2.045154 -0.299683 575 0.740885 0.671632 0.000000
-2.560040 -2.045439 -0.298710 571 0.740885 0.671632 0.000000
-2.560512 -2.045815 -0.297756 585 0.740885 0.671632 0.000000
-2.558713 -2.043132 -0.344169 579 0.740885 0.671632 0.000000
-2.559596 -2.043827 -0.343271 577 0.740885 0.671632 0.000000
-2.560299 -2.044396 -0.342345 577 0.740885 0.671632 0.000000
-2.559928 -2.044095 -0.341278 575 0.740885 0.671632 0.000000
-2.560234 -2.044343 -0.340305 593 0.740885 0.671632 0.000000
-2.561395 -2.045267 -0.339435 615 0.740885 0.671632 0.000000
-2.560342 -2.044425 -0.338284 575 0.740885 0.671632 0.000000
-2.559400 -2.043669 -0.337142 567 0.740885 0.671632 0.000000
-2.559872 -2.044046 -0.336188 559 0.740885 0.671632 0.000000
-2.560693 -2.044706 -0.335281 573 0.740885 0.671632 0.000000
-2.560378 -2.044448 -0.334224 593 0.740885 0.671632 0.000000
-2.559715 -2.043921 -0.333120 593 0.740885 0.671632 0.000000
-2.559336 -2.043614 -0.332053 609 0.740885 0.671632 0.000000
-2.559760 -2.043954 -0.331089 603 0.740885 0.671632 0.000000
-2.560351 -2.044423 -0.330154 593 0.740885 0.671632 0.000000
-2.559798 -2.043981 -0.329069 567 0.740885 0.671632 0.000000
-2.559937 -2.044100 -0.328068 555 0.740885 0.671632 0.000000
-2.560296 -2.044377 -0.327094 565 0.740885 0.671632 0.000000
-2.559180 -2.043487 -0.325944 567 0.740885 0.671632 0.000000
-2.559025 -2.043365 -0.324906 575 0.740885 0.671632 0.000000
-2.560528 -2.044567 -0.324082 593 0.740885 0.671632 0.000000
-2.561182 -2.045084 -0.323147 603 0.740885 0.671632 0.000000
-2.559765 -2.043961 -0.321949 567 0.740885 0.671632 0.000000
-2.559966 -2.044115 -0.320957 569 0.740885 0.671632 0.000000
-2.561580 -2.045402 -0.320143 601 0.740885 0.671632 0.000000
-2.561028 -2.044960 -0.319058 599 0.740885 0.671632 0.000000
-2.560078 -2.044198 -0.317926 581 0.740885 0.671632 0.000000
-2.559748 -2.043942 -0.316869 577 0.740885 0.671632 0.000000
-2.560449 -2.044497 -0.315943 593 0.740885 0.671632 0.000000
-2.561208 -2.045108 -0.315016 607 0.740885 0.671632 0.000000
-2.561052 -2.044987 -0.313987 607 0.740885 0.671632 0.000000
-2.560966 -2.044906 -0.312958 593 0.740885 0.671632 0.000000
-2.560692 -2.044693 -0.311911 585 0.740885 0.671632 0.000000
-2.561109 -2.045027 -0.310947 593 0.740885 0.671632 0.000000
-2.560896 -2.044849 -0.309909 571 0.740885 0.671632 0.000000
-2.559885 -2.044052 -0.308768 573 0.740885 0.671632 0.000000
-2.558824 -2.043204 -0.307627 589 0.740885 0.671632 0.000000
-2.559754 -2.043936 -0.306729 571 0.740885 0.671632 0.000000
-2.561822 -2.045586 -0.305951 579 0.740885 0.671632 0.000000
-2.561548 -2.045373 -0.304903 581 0.740885 0.671632 0.000000
-2.560819 -2.044783 -0.303809 571 0.740885 0.671632 0.000000
-2.559926 -2.044078 -0.302687 547 0.740885 0.671632 0.000000
-2.559714 -2.043900 -0.301649 553 0.740885 0.671632 0.000000
-2.559837 -2.044006 -0.300648 577 0.740885 0.671632 0.000000
-2.559911 -2.044063 -0.299637 567 0.740885 0.671632 0.000000
-2.561065 -2.044980 -0.298757 557 0.740885 0.671632 0.000000
-2.560966 -2.044902 -0.297738 591 0.740885 0.671632 0.000000
-2.559669 -2.042633 -0.344216 579 0.740885 0.671632 0.000000
-2.559695 -2.042652 -0.343206 553 0.740885 0.671632 0.000000
-2.559659 -2.042623 -0.342176 581 0.740885 0.671632 0.000000
-2.559686 -2.042642 -0.341166 589 0.740885 0.671632 0.000000
-2.561140 -2.043793 -0.340343 607 0.740885 0.671632 0.000000
-2.561216 -2.043864 -0.339333 601 0.740885 0.671632 0.000000
-2.560274 -2.043108 -0.338191 577 0.740885 0.671632 0.000000
-2.560809 -2.043533 -0.337246 575 0.740885 0.671632 0.000000
-2.561686 -2.044236 -0.336349 587 0.740885 0.671632 0.000000
-2.562221 -2.044662 -0.335394 597 0.740885 0.671632 0.000000
-2.561453 -2.044041 -0.334281 591 0.740885 0.671632 0.000000
-2.559360 -2.042369 -0.332999 585 0.740885 0.671632 0.000000
-2.560173 -2.043023 -0.332082 603 0.740885 0.671632 0.000000
-2.561622 -2.044181 -0.331249 603 0.740885 0.671632 0.000000
-2.561077 -2.043746 -0.330164 591 0.740885 0.671632 0.000000
-2.560985 -2.043673 -0.329135 583 0.740885 0.671632 0.000000
-2.561631 -2.044185 -0.328209 589 0.740885 0.671632 0.000000
-2.561887 -2.044382 -0.327217 599 0.740885 0.671632 0.000000
-2.560875 -2.043585 -0.326075 593 0.740885 0.671632 0.000000
-2.560726 -2.043456 -0.325047 599 0.740885 0.671632 0.000000
-2.561484 -2.044067 -0.324120 599 0.740885 0.671632 0.000000
-2.561050 -2.043718 -0.323054 587 0.740885 0.671632 0.000000
-2.560163 -2.043005 -0.321922 569 0.740885 0.671632 0.000000
-2.561207 -2.043836 -0.321042 581 0.740885 0.671632 0.000000
-2.561965 -2.044448 -0.320116 601 0.740885 0.671632 0.000000
-2.561641 -2.044183 -0.319059 593 0.740885 0.671632 0.000000
-2.562176 -2.044609 -0.318114 579 0.740885 0.671632 0.000000
-2.561220 -2.043855 -0.316982 585 0.740885 0.671632 0.000000
-2.560842 -2.043548 -0.315915 605 0.740885 0.671632 0.000000
-2.561377 -2.043974 -0.314961 581 0.740885 0.671632 0.000000
-2.561158 -2.043804 -0.313923 577 0.740885 0.671632 0.000000
-2.559462 -2.042452 -0.312707 579 0.740885 0.671632 0.000000
-2.559829 -2.042735 -0.311734 597 0.740885 0.671632 0.000000
-2.560872 -2.043567 -0.310845 577 0.740885 0.671632 0.000000
-2.559979 -2.042862 -0.309723 535 0.740885 0.671632 0.000000
-2.559822 -2.042726 -0.308684 561 0.740885 0.671632 0.000000
-2.560349 -2.043146 -0.307740 555 0.740885 0.671632 0.000000
-2.561505 -2.044077 -0.306860 565 0.740885 0.671632 0.000000
-2.561579 -2.044134 -0.305849 563 0.740885 0.671632 0.000000
-2.561764 -2.044276 -0.304857 575 0.740885 0.671632 0.000000
-2.561775 -2.044283 -0.303847 573 0.740885 0.671632 0.000000
-2.562310 -2.044709 -0.302893 555 0.740885 0.671632 0.000000
-2.561749 -2.044261 -0.301817 557 0.740885 0.671632 0.000000
-2.560396 -2.043187 -0.300639 585 0.740885 0.671632 0.000000
-2.560749 -2.043472 -0.299666 559 0.740885 0.671632 0.000000
-2.560426 -2.043208 -0.298619 559 0.740885 0.671632 0.000000
-2.561016 -2.043676 -0.297674 575 0.740885 0.671632 0.000000
-2.561217 -2.042616 -0.343319 583 0.740885 0.671632 0.000000
-2.561522 -2.042864 -0.342346 605 0.740885 0.671632 0.000000
-2.561263 -2.042649 -0.341298 599 0.740885 0.671632 0.000000
-2.561234 -2.042626 -0.340279 611 0.740885 0.671632 0.000000
-2.560689 -2.042190 -0.339183 603 0.740885 0.671632 0.000000
-2.560199 -2.041798 -0.338108 563 0.740885 0.671632 0.000000
-2.560331 -2.041911 -0.337106 559 0.740885 0.671632 0.000000
-2.561319 -2.042700 -0.336218 581 0.740885 0.671632 0.000000
-2.561749 -2.043032 -0.335254 589 0.740885 0.671632 0.000000
-2.561483 -2.042825 -0.334206 599 0.740885 0.671632 0.000000
-2.561510 -2.042845 -0.333196 599 0.740885 0.671632 0.000000
-2.561703 -2.042993 -0.332204 593 0.740885 0.671632 0.000000
-2.562350 -2.043518 -0.331269 601 0.740885 0.671632 0.000000
-2.562821 -2.043895 -0.330315 601 0.740885 0.671632 0.000000
-2.563307 -2.044270 -0.329360 611 0.740885 0.671632 0.000000
-2.562470 -2.043608 -0.328238 601 0.740885 0.671632 0.000000
-2.562433 -2.043578 -0.327218 617 0.740885 0.671632 0.000000
-2.562397 -2.043549 -0.326188 609 0.740885 0.671632 0.000000
-2.562081 -2.043291 -0.325141 599 0.740885 0.671632 0.000000
-2.561578 -2.042900 -0.324055 595 0.740885 0.671632 0.000000
-2.560056 -2.041683 -0.322849 573 0.740885 0.671632 0.000000
-2.559337 -2.041113 -0.321745 567 0.740885 0.671632 0.000000
-2.560555 -2.042079 -0.320884 571 0.740885 0.671632 0.000000
-2.561437 -2.042775 -0.319976 585 0.740885 0.671632 0.000000
-2.561274 -2.042647 -0.318938 587 0.740885 0.671632 0.000000
-2.560898 -2.042354 -0.317881 577 0.740885 0.671632 0.000000
-2.561257 -2.042631 -0.316908 583 0.740885 0.671632 0.000000
-2.562363 -2.043512 -0.316028 587 0.740885 0.671632 0.000000
-2.562494 -2.043625 -0.315027 577 0.740885 0.671632 0.000000
-2.562680 -2.043768 -0.314036 595 0.740885 0.671632 0.000000
-2.562698 -2.043781 -0.313025 611 0.740885 0.671632 0.000000
-2.561916 -2.043162 -0.311912 595 0.740885 0.671632 0.000000
-2.561188 -2.042571 -0.310808 565 0.740885 0.671632 0.000000
-2.562064 -2.043274 -0.309901 543 0.740885 0.671632 0.000000
-2.562362 -2.043516 -0.308918 559 0.740885 0.671632 0.000000
-2.561301 -2.042669 -0.307777 563 0.740885 0.671632 0.000000
-2.561652 -2.042939 -0.306804 575 0.740885 0.671632 0.000000
-2.561839 -2.043096 -0.305813 569 0.740885 0.671632 0.000000
-2.561626 -2.042917 -0.304775 573 0.740885 0.671632 0.000000
-2.562503 -2.043621 -0.303857 557 0.740885 0.671632 0.000000
-2.562522 -2.043634 -0.302847 561 0.740885 0.671632 0.000000
-2.561390 -2.042731 -0.301696 553 0.740885 0.671632 0.000000
-2.561687 -2.042973 -0.300724 573 0.740885 0.671632 0.000000
-2.562047 -2.043250 -0.299751 573 0.740885 0.671632 0.000000
-2.561654 -2.042945 -0.298684 553 0.740885 0.671632 0.000000
-2.561212 -2.042589 -0.297628 549 0.740885 0.671632 0.000000
-2.562881 -2.042640 -0.343461 587 0.740885 0.671632 0.000000
-2.562099 -2.042021 -0.342337 599 0.740885 0.671632 0.000000
-2.562411 -2.042261 -0.341365 599 0.740885 0.671632 0.000000
-2.563009 -2.042736 -0.340420 589 0.740885 0.671632 0.000000
-2.562806 -2.042578 -0.339381 585 0.740885 0.671632 0.000000
-2.561111 -2.041226 -0.338146 585 0.740885 0.671632 0.000000
-2.561709 -2.041700 -0.337201 577 0.740885 0.671632 0.000000
-2.563158 -2.042859 -0.336378 567 0.740885 0.671632 0.000000
-2.561978 -2.041919 -0.335208 577 0.740885 0.671632 0.000000
-2.561091 -2.041206 -0.334076 589 0.740885 0.671632 0.000000
-2.562086 -2.042001 -0.333187 585 0.740885 0.671632 0.000000
-2.562169 -2.042064 -0.332177 579 0.740885 0.671632 0.000000
-2.561903 -2.041857 -0.331129 601 0.740885 0.671632 0.000000
-2.562841 -2.042595 -0.330231 607 0.740885 0.671632 0.000000
-2.562804 -2.042565 -0.329211 595 0.740885 0.671632 0.000000
-2.563047 -2.042764 -0.328229 601 0.740885 0.671632 0.000000
-2.563010 -2.042735 -0.327209 629 0.740885 0.671632 0.000000
-2.562863 -2.042620 -0.326170 615 0.740885 0.671632 0.000000
-2.561912 -2.041858 -0.325039 583 0.740885 0.671632 0.000000
-2.561305 -2.041373 -0.323944 567 0.740885 0.671632 0.000000
-2.560180 -2.040477 -0.322794 567 0.740885 0.671632 0.000000
-2.559914 -2.040270 -0.321746 569 0.740885 0.671632 0.000000
-2.561996 -2.041918 -0.320988 577 0.740885 0.671632 0.000000
-2.562586 -2.042386 -0.320043 595 0.740885 0.671632 0.000000
-2.562083 -2.041996 -0.318967 595 0.740885 0.671632 0.000000
-2.562275 -2.042144 -0.317975 589 0.740885 0.671632 0.000000
-2.562057 -2.041974 -0.316927 581 0.740885 0.671632 0.000000
-2.560877 -2.041034 -0.315768 565 0.740885 0.671632 0.000000
-2.561523 -2.041545 -0.314832 569 0.740885 0.671632 0.000000
-2.562693 -2.042475 -0.313962 591 0.740885 0.671632 0.000000
-2.561958 -2.041893 -0.312858 591 0.740885 0.671632 0.000000
-2.561182 -2.041265 -0.311745 585 0.740885 0.671632 0.000000
-2.562170 -2.042054 -0.310856 569 0.740885 0.671632 0.000000
-2.562641 -2.042431 -0.309892 565 0.740885 0.671632 0.000000
-2.561747 -2.041712 -0.308770 541 0.740885 0.671632 0.000000
-2.561647 -2.041634 -0.307741 541 0.740885 0.671632 0.000000
-2.561547 -2.041555 -0.306722 563 0.740885 0.671632 0.000000
-2.561218 -2.041299 -0.305664 569 0.740885 0.671632 0.000000
-2.561982 -2.041902 -0.304738 575 0.740885 0.671632 0.000000
-2.563080 -2.042777 -0.303858 571 0.740885 0.671632 0.000000
-2.563210 -2.042876 -0.302857 565 0.740885 0.671632 0.000000
-2.562420 -2.042251 -0.301744 551 0.740885 0.671632 0.000000
-2.562041 -2.041944 -0.300687 573 0.740885 0.671632 0.000000
-2.561315 -2.041368 -0.299593 571 0.740885 0.671632 0.000000
-2.561270 -2.041332 -0.298574 553 0.740885 0.671632 0.000000
-2.562139 -2.042029 -0.297656 553 0.740885 0.671632 0.000000
-2.563416 -2.041775 -0.342432 593 0.740885 0.671632 0.000000
-2.563610 -2.041938 -0.341440 579 0.740885 0.671632 0.000000
-2.564145 -2.042363 -0.340496 581 0.740885 0.671632 0.000000
-2.563537 -2.041879 -0.339391 583 0.740885 0.671632 0.000000
-2.562832 -2.041307 -0.338287 579 0.740885 0.671632 0.000000
-2.562329 -2.040916 -0.337201 579 0.740885 0.671632 0.000000
-2.562474 -2.041027 -0.336210 573 0.740885 0.671632 0.000000
-2.562731 -2.041224 -0.335218 567 0.740885 0.671632 0.000000
-2.562172 -2.040791 -0.334133 579 0.740885 0.671632 0.000000
-2.561682 -2.040398 -0.333057 587 0.740885 0.671632 0.000000
-2.561994 -2.040638 -0.332084 593 0.740885 0.671632 0.000000
-2.562076 -2.040701 -0.331074 601 0.740885 0.671632 0.000000
-2.560430 -2.039400 -0.329848 597 0.740885 0.671632 0.000000
-2.561368 -2.040138 -0.328950 571 0.740885 0.671632 0.000000
-2.564244 -2.042427 -0.328305 603 0.740885 0.671632 0.000000
-2.564835 -2.042896 -0.327360 621 0.740885 0.671632 0.000000
-2.564339 -2.042511 -0.326284 609 0.740885 0.671632 0.000000
-2.563167 -2.041577 -0.325114 573 0.740885 0.671632 0.000000
-2.561812 -2.040489 -0.323936 557 0.740885 0.671632 0.000000
-2.562062 -2.040694 -0.322944 569 0.740885 0.671632 0.000000
-2.562945 -2.041389 -0.322036 579 0.740885 0.671632 0.000000
-2.562845 -2.041311 -0.321017 585 0.740885 0.671632 0.000000
-2.563087 -2.041510 -0.320025 585 0.740885 0.671632 0.000000
-2.563622 -2.041936 -0.319080 595 0.740885 0.671632 0.000000
-2.563760 -2.042041 -0.318079 579 0.740885 0.671632 0.000000
-2.562064 -2.040689 -0.316853 563 0.740885 0.671632 0.000000
-2.560487 -2.039429 -0.315647 535 0.740885 0.671632 0.000000
-2.561182 -2.039991 -0.314721 547 0.740885 0.671632 0.000000
-2.562739 -2.041221 -0.313887 559 0.740885 0.671632 0.000000
-2.563329 -2.041690 -0.312942 573 0.740885 0.671632 0.000000
-2.563572 -2.041889 -0.311960 577 0.740885 0.671632 0.000000
-2.564336 -2.042492 -0.311034 591 0.740885 0.671632 0.000000
-2.563951 -2.042193 -0.309977 567 0.740885 0.671632 0.000000
-2.562375 -2.040934 -0.308771 535 0.740885 0.671632 0.000000
-2.562559 -2.041076 -0.307779 557 0.740885 0.671632 0.000000
-2.563150 -2.041544 -0.306834 567 0.740885 0.671632 0.000000
-2.562987 -2.041417 -0.305805 573 0.740885 0.671632 0.000000
-2.562268 -2.040846 -0.304701 579 0.740885 0.671632 0.000000
-2.561652 -2.040356 -0.303617 571 0.740885 0.671632 0.000000
-2.562179 -2.040776 -0.302662 565 0.740885 0.671632 0.000000
-2.563514 -2.041834 -0.301800 561 0.740885 0.671632 0.000000
-2.564152 -2.042339 -0.300865 573 0.740885 0.671632 0.000000
-2.563133 -2.041536 -0.299734 565 0.740885 0.671632 0.000000
-2.562984 -2.041407 -0.298695 561 0.740885 0.671632 0.000000
-2.562988 -2.041422 -0.297685 569 0.740885 0.671632 0.000000
-2.563939 -2.040940 -0.341404 575 0.740885 0.671632 0.000000
-2.563729 -2.040776 -0.340355 567 0.740885 0.671632 0.000000
-2.564438 -2.041337 -0.339429 567 0.740885 0.671632 0.000000
-2.563956 -2.040950 -0.338353 571 0.740885 0.671632 0.000000
-2.563348 -2.040466 -0.337259 575 0.740885 0.671632 0.000000
-2.563138 -2.040301 -0.336210 559 0.740885 0.671632 0.000000
-2.562656 -2.039915 -0.335135 551 0.740885 0.671632 0.000000
-2.563246 -2.040383 -0.334200 569 0.740885 0.671632 0.000000
-2.563091 -2.040262 -0.333161 575 0.740885 0.671632 0.000000
-2.562944 -2.040147 -0.332122 579 0.740885 0.671632 0.000000
-2.563931 -2.040936 -0.331234 593 0.740885 0.671632 0.000000
-2.562926 -2.040131 -0.330092 591 0.740885 0.671632 0.000000
-2.562666 -2.039916 -0.329044 567 0.740885 0.671632 0.000000
-2.564407 -2.041301 -0.328239 599 0.740885 0.671632 0.000000
-2.564531 -2.041408 -0.327248 615 0.740885 0.671632 0.000000
-2.564439 -2.041336 -0.326219 595 0.740885 0.671632 0.000000
-2.563433 -2.040531 -0.325078 583 0.740885 0.671632 0.000000
-2.563054 -2.040224 -0.324011 583 0.740885 0.671632 0.000000
-2.563130 -2.040295 -0.323000 569 0.740885 0.671632 0.000000
-2.563149 -2.040308 -0.321990 565 0.740885 0.671632 0.000000
-2.563627 -2.040677 -0.321036 567 0.740885 0.671632 0.000000
-2.563480 -2.040562 -0.319997 571 0.740885 0.671632 0.000000
-2.563087 -2.040257 -0.318941 563 0.740885 0.671632 0.000000
-2.563398 -2.040497 -0.317958 573 0.740885 0.671632 0.000000
-2.564149 -2.041102 -0.317031 569 0.740885 0.671632 0.000000
-2.564120 -2.041079 -0.316012 561 0.740885 0.671632 0.000000
-2.563504 -2.040588 -0.314927 569 0.740885 0.671632 0.000000
-2.563697 -2.040736 -0.313935 575 0.740885 0.671632 0.000000
-2.563771 -2.040792 -0.312925 561 0.740885 0.671632 0.000000
-2.563735 -2.040763 -0.311905 563 0.740885 0.671632 0.000000
-2.564714 -2.041546 -0.311006 573 0.740885 0.671632 0.000000
-2.564454 -2.041331 -0.309959 559 0.740885 0.671632 0.000000
-2.563665 -2.040706 -0.308855 557 0.740885 0.671632 0.000000
-2.563683 -2.040719 -0.307845 549 0.740885 0.671632 0.000000
-2.563473 -2.040555 -0.306797 551 0.740885 0.671632 0.000000
-2.563205 -2.040334 -0.305759 567 0.740885 0.671632 0.000000
-2.563105 -2.040255 -0.304730 577 0.740885 0.671632 0.000000
-2.563236 -2.040369 -0.303729 569 0.740885 0.671632 0.000000
-2.563358 -2.040462 -0.302728 571 0.740885 0.671632 0.000000
-2.563203 -2.040340 -0.301699 555 0.740885 0.671632 0.000000
-2.563562 -2.040617 -0.300726 563 0.740885 0.671632 0.000000
-2.563406 -2.040496 -0.299688 559 0.740885 0.671632 0.000000
-2.563599 -2.040644 -0.298696 587 0.740885 0.671632 0.000000
-2.564405 -2.041292 -0.297779 587 0.740885 0.671632 0.000000
-2.565020 -2.040525 -0.341460 569 0.740885 0.671632 0.000000
-2.564635 -2.040226 -0.340394 559 0.740885 0.671632 0.000000
-2.564431 -2.040054 -0.339356 549 0.740885 0.671632 0.000000
-2.564513 -2.040116 -0.338345 545 0.740885 0.671632 0.000000
-2.564763 -2.040322 -0.337363 557 0.740885 0.671632 0.000000
-2.564908 -2.040433 -0.336361 559 0.740885 0.671632 0.000000
-2.564698 -2.040269 -0.335323 551 0.740885 0.671632 0.000000
-2.565114 -2.040603 -0.334359 577 0.740885 0.671632 0.000000
-2.564172 -2.039847 -0.333218 577 0.740885 0.671632 0.000000
-2.563738 -2.039497 -0.332151 579 0.740885 0.671632 0.000000
-2.564273 -2.039923 -0.331197 607 0.740885 0.671632 0.000000
-2.563673 -2.039444 -0.330102 593 0.740885 0.671632 0.000000
-2.563509 -2.039317 -0.329073 571 0.740885 0.671632 0.000000
-2.563878 -2.039614 -0.328100 569 0.740885 0.671632 0.000000
-2.563842 -2.039585 -0.327080 575 0.740885 0.671632 0.000000
-2.564377 -2.040010 -0.326136 583 0.740885 0.671632 0.000000
-2.565315 -2.040749 -0.325227 599 0.740885 0.671632 0.000000
-2.564930 -2.040450 -0.324171 593 0.740885 0.671632 0.000000
-2.563527 -2.039324 -0.322973 585 0.740885 0.671632 0.000000
-2.563087 -2.038982 -0.321907 583 0.740885 0.671632 0.000000
-2.563788 -2.039537 -0.320981 583 0.740885 0.671632 0.000000
-2.563522 -2.039330 -0.319933 579 0.740885 0.671632 0.000000
-2.563199 -2.039066 -0.318876 569 0.740885 0.671632 0.000000
-2.563226 -2.039086 -0.317865 559 0.740885 0.671632 0.000000
-2.563578 -2.039370 -0.316893 557 0.740885 0.671632 0.000000
-2.564914 -2.040429 -0.316041 563 0.740885 0.671632 0.000000
-2.565386 -2.040805 -0.315077 591 0.740885 0.671632 0.000000
-2.564262 -2.039909 -0.313926 579 0.740885 0.671632 0.000000
-2.564336 -2.039965 -0.312926 587 0.740885 0.671632 0.000000
-2.565045 -2.040525 -0.311990 615 0.740885 0.671632 0.000000
-2.564826 -2.040355 -0.310951 571 0.740885 0.671632 0.000000
-2.565298 -2.040732 -0.309987 553 0.740885 0.671632 0.000000
-2.565714 -2.041065 -0.309024 563 0.740885 0.671632 0.000000
-2.565788 -2.041122 -0.308013 555 0.740885 0.671632 0.000000
-2.565236 -2.040680 -0.306938 557 0.740885 0.671632 0.000000
-2.564286 -2.039918 -0.305806 571 0.740885 0.671632 0.000000
-2.564067 -2.039748 -0.304768 555 0.740885 0.671632 0.000000
-2.564824 -2.040345 -0.303841 553 0.740885 0.671632 0.000000
-2.564549 -2.040132 -0.302794 555 0.740885 0.671632 0.000000
-2.563886 -2.039605 -0.301700 569 0.740885 0.671632 0.000000
-2.564579 -2.040153 -0.300773 573 0.740885 0.671632 0.000000
-2.564717 -2.040258 -0.299772 569 0.740885 0.671632 0.000000
-2.564840 -2.040366 -0.298771 585 0.740885 0.671632 0.000000
-2.564962 -2.040458 -0.297770 575 0.740885 0.671632 0.000000
-2.565479 -2.039627 -0.340423 559 0.740885 0.671632 0.000000
-2.565157 -2.039377 -0.339365 549 0.740885 0.671632 0.000000
-2.563867 -2.038352 -0.338186 537 0.740885 0.671632 0.000000
-2.563781 -2.038271 -0.337157 549 0.740885 0.671632 0.000000
-2.564777 -2.039067 -0.336269 561 0.740885 0.671632 0.000000
-2.565193 -2.039400 -0.335305 571 0.740885 0.671632 0.000000
-2.565338 -2.039512 -0.334304 581 0.740885 0.671632 0.000000
-2.565588 -2.039717 -0.333321 585 0.740885 0.671632 0.000000
-2.565599 -2.039724 -0.332311 579 0.740885 0.671632 0.000000
-2.565339 -2.039509 -0.331254 585 0.740885 0.671632 0.000000
-2.564739 -2.039031 -0.330169 575 0.740885 0.671632 0.000000
-2.564020 -2.038461 -0.329055 559 0.740885 0.671632 0.000000
-2.563754 -2.038254 -0.328007 551 0.740885 0.671632 0.000000
-2.564400 -2.038765 -0.327072 551 0.740885 0.671632 0.000000
-2.565965 -2.040001 -0.326258 581 0.740885 0.671632 0.000000
-2.566097 -2.040114 -0.325257 597 0.740885 0.671632 0.000000
-2.565949 -2.039999 -0.324218 589 0.740885 0.671632 0.000000
-2.565284 -2.039458 -0.323124 599 0.740885 0.671632 0.000000
-2.563812 -2.038292 -0.321927 589 0.740885 0.671632 0.000000
-2.564117 -2.038540 -0.320944 581 0.740885 0.671632 0.000000
-2.564310 -2.038688 -0.319952 579 0.740885 0.671632 0.000000
-2.564100 -2.038524 -0.318914 559 0.740885 0.671632 0.000000
-2.564348 -2.038715 -0.317922 557 0.740885 0.671632 0.000000
-2.565049 -2.039269 -0.316996 575 0.740885 0.671632 0.000000
-2.565125 -2.039340 -0.315985 577 0.740885 0.671632 0.000000
-2.564404 -2.038755 -0.314891 579 0.740885 0.671632 0.000000
-2.564249 -2.038634 -0.313853 587 0.740885 0.671632 0.000000
-2.565689 -2.039786 -0.313010 601 0.740885 0.671632 0.000000
-2.565763 -2.039842 -0.312009 605 0.740885 0.671632 0.000000
-2.563846 -2.038319 -0.310756 543 0.740885 0.671632 0.000000
-2.564888 -2.039137 -0.309867 543 0.740885 0.671632 0.000000
-2.566217 -2.040203 -0.309015 563 0.740885 0.671632 0.000000
-2.565949 -2.039982 -0.307968 571 0.740885 0.671632 0.000000
-2.566302 -2.040267 -0.306995 583 0.740885 0.671632 0.000000
-2.565639 -2.039740 -0.305900 571 0.740885 0.671632 0.000000
-2.564849 -2.039114 -0.304787 563 0.740885 0.671632 0.000000
-2.565390 -2.039532 -0.303833 573 0.740885 0.671632 0.000000
-2.565561 -2.039676 -0.302841 577 0.740885 0.671632 0.000000
-2.564953 -2.039191 -0.301756 553 0.740885 0.671632 0.000000
-2.564693 -2.038976 -0.300709 573 0.740885 0.671632 0.000000
-2.564474 -2.038806 -0.299670 575 0.740885 0.671632 0.000000
-2.564256 -2.038635 -0.298632 589 0.740885 0.671632 0.000000
-2.563298 -2.037868 -0.297511 575 0.740885 0.671632 0.000000
-2.565845 -2.038696 -0.340395 555 0.740885 0.671632 0.000000
-2.565189 -2.038175 -0.339291 541 0.740885 0.671632 0.000000
-2.565953 -2.038778 -0.338374 541 0.740885 0.671632 0.000000
-2.565806 -2.038663 -0.337345 565 0.740885 0.671632 0.000000
-2.564286 -2.037460 -0.336129 567 0.740885 0.671632 0.000000
-2.563908 -2.037153 -0.335062 557 0.740885 0.671632 0.000000
-2.564388 -2.037536 -0.334108 551 0.740885 0.671632 0.000000
-2.565494 -2.038417 -0.333238 569 0.740885 0.671632 0.000000
-2.566203 -2.038977 -0.332312 549 0.740885 0.671632 0.000000
-2.566166 -2.038948 -0.331292 557 0.740885 0.671632 0.000000
-2.565906 -2.038733 -0.330235 567 0.740885 0.671632 0.000000
-2.566441 -2.039159 -0.329290 577 0.740885 0.671632 0.000000
-2.566238 -2.039001 -0.328242 579 0.740885 0.671632 0.000000
-2.565964 -2.038788 -0.327194 571 0.740885 0.671632 0.000000
-2.567356 -2.039889 -0.326352 591 0.740885 0.671632 0.000000
-2.568065 -2.040449 -0.325426 595 0.740885 0.671632 0.000000
-2.567108 -2.039695 -0.324294 605 0.740885 0.671632 0.000000
-2.566619 -2.039303 -0.323208 595 0.740885 0.671632 0.000000
-2.565669 -2.038541 -0.322076 583 0.740885 0.671632 0.000000
-2.566267 -2.039015 -0.321131 577 0.740885 0.671632 0.000000
-2.566683 -2.039349 -0.320168 591 0.740885 0.671632 0.000000
-2.565093 -2.038091 -0.318961 587 0.740885 0.671632 0.000000
-2.565683 -2.038560 -0.318016 583 0.740885 0.671632 0.000000
-2.565541 -2.038437 -0.316987 585 0.740885 0.671632 0.000000
-2.564975 -2.037997 -0.315902 577 0.740885 0.671632 0.000000
-2.566200 -2.038970 -0.315032 583 0.740885 0.671632 0.000000
-2.567130 -2.039701 -0.314134 607 0.740885 0.671632 0.000000
-2.566696 -2.039352 -0.313057 593 0.740885 0.671632 0.000000
-2.565969 -2.038775 -0.311954 583 0.740885 0.671632 0.000000
-2.565696 -2.038562 -0.310906 557 0.740885 0.671632 0.000000
-2.565714 -2.038576 -0.309896 559 0.740885 0.671632 0.000000
-2.566360 -2.039087 -0.308960 557 0.740885 0.671632 0.000000
-2.566316 -2.039052 -0.307940 561 0.740885 0.671632 0.000000
-2.567135 -2.039698 -0.307023 559 0.740885 0.671632 0.000000
-2.567091 -2.039662 -0.305994 549 0.740885 0.671632 0.000000
-2.565619 -2.038496 -0.304806 573 0.740885 0.671632 0.000000
-2.566154 -2.038922 -0.303862 563 0.740885 0.671632 0.000000
-2.565593 -2.038474 -0.302777 549 0.740885 0.671632 0.000000
-2.565438 -2.038353 -0.301748 541 0.740885 0.671632 0.000000
-2.565686 -2.038544 -0.300756 565 0.740885 0.671632 0.000000
-2.565975 -2.038779 -0.299783 565 0.740885 0.671632 0.000000
-2.566795 -2.039426 -0.298856 581 0.740885 0.671632 0.000000
-2.566242 -2.038984 -0.297781 597 0.740885 0.671632 0.000000
-2.566598 -2.038039 -0.339395 541 0.740885 0.671632 0.000000
-2.565990 -2.037554 -0.338300 553 0.740885 0.671632 0.000000
-2.566185 -2.037717 -0.337308 567 0.740885 0.671632 0.000000
-2.565632 -2.037275 -0.336223 559 0.740885 0.671632 0.000000
-2.564460 -2.036341 -0.335053 557 0.740885 0.671632 0.000000
-2.563852 -2.035857 -0.333959 559 0.740885 0.671632 0.000000
-2.564959 -2.036738 -0.333089 571 0.740885 0.671632 0.000000
-2.566413 -2.037888 -0.332256 551 0.740885 0.671632 0.000000
-2.567290 -2.038591 -0.331358 563 0.740885 0.671632 0.000000
-2.567657 -2.038875 -0.330385 575 0.740885 0.671632 0.000000
-2.567454 -2.038716 -0.329337 591 0.740885 0.671632 0.000000
-2.566211 -2.037728 -0.328168 581 0.740885 0.671632 0.000000
-2.566294 -2.037790 -0.327157 573 0.740885 0.671632 0.000000
-2.567226 -2.038536 -0.326259 569 0.740885 0.671632 0.000000
-2.567134 -2.038464 -0.325230 581 0.740885 0.671632 0.000000
-2.566637 -2.038065 -0.324154 599 0.740885 0.671632 0.000000
-2.566545 -2.037993 -0.323125 593 0.740885 0.671632 0.000000
-2.566674 -2.038092 -0.322124 577 0.740885 0.671632 0.000000
-2.566756 -2.038155 -0.321123 585 0.740885 0.671632 0.000000
-2.565919 -2.037493 -0.320000 587 0.740885 0.671632 0.000000
-2.565073 -2.036824 -0.318887 585 0.740885 0.671632 0.000000
-2.564528 -2.036389 -0.317802 587 0.740885 0.671632 0.000000
-2.565627 -2.037263 -0.316923 593 0.740885 0.671632 0.000000
-2.566907 -2.038279 -0.316061 591 0.740885 0.671632 0.000000
-2.567266 -2.038556 -0.315088 599 0.740885 0.671632 0.000000
-2.566993 -2.038343 -0.314041 609 0.740885 0.671632 0.000000
-2.565758 -2.037360 -0.312871 603 0.740885 0.671632 0.000000
-2.565539 -2.037190 -0.311833 591 0.740885 0.671632 0.000000
-2.565168 -2.036889 -0.310777 575 0.740885 0.671632 0.000000
-2.565751 -2.037352 -0.309832 569 0.740885 0.671632 0.000000
-2.566626 -2.038041 -0.308914 569 0.740885 0.671632 0.000000
-2.567271 -2.038552 -0.307978 567 0.740885 0.671632 0.000000
-2.567403 -2.038666 -0.306977 555 0.740885 0.671632 0.000000
-2.566613 -2.038040 -0.305874 553 0.740885 0.671632 0.000000
-2.566108 -2.037635 -0.304798 543 0.740885 0.671632 0.000000
-2.566419 -2.037875 -0.303815 533 0.740885 0.671632 0.000000
-2.566891 -2.038252 -0.302861 529 0.740885 0.671632 0.000000
-2.566846 -2.038217 -0.301842 547 0.740885 0.671632 0.000000
-2.566572 -2.038003 -0.300794 563 0.740885 0.671632 0.000000
-2.565559 -2.037192 -0.299663 561 0.740885 0.671632 0.000000
-2.566205 -2.037704 -0.298717 573 0.740885 0.671632 0.000000
-2.567637 -2.038850 -0.297875 577 0.740885 0.671632 0.000000
-2.565985 -2.036286 -0.338226 531 0.740885 0.671632 0.000000
-2.566241 -2.036483 -0.337244 539 0.740885 0.671632 0.000000
-2.567061 -2.037129 -0.336327 565 0.740885 0.671632 0.000000
-2.566397 -2.036602 -0.335223 587 0.740885 0.671632 0.000000
-2.566131 -2.036395 -0.334175 591 0.740885 0.671632 0.000000
-2.566150 -2.036408 -0.333165 575 0.740885 0.671632 0.000000
-2.566232 -2.036471 -0.332154 551 0.740885 0.671632 0.000000
-2.566712 -2.036854 -0.331200 559 0.740885 0.671632 0.000000
-2.568048 -2.037912 -0.330358 565 0.740885 0.671632 0.000000
-2.568757 -2.038473 -0.329432 579 0.740885 0.671632 0.000000
-2.567118 -2.037178 -0.328206 567 0.740885 0.671632 0.000000
-2.566113 -2.036373 -0.327065 555 0.740885 0.671632 0.000000
-2.565394 -2.035802 -0.325951 563 0.740885 0.671632 0.000000
-2.565747 -2.036087 -0.324988 573 0.740885 0.671632 0.000000
-2.566853 -2.036968 -0.324108 583 0.740885 0.671632 0.000000
-2.567101 -2.037159 -0.323126 589 0.740885 0.671632 0.000000
-2.566899 -2.037001 -0.322078 593 0.740885 0.671632 0.000000
-2.566854 -2.036966 -0.321058 591 0.740885 0.671632 0.000000
-2.566127 -2.036389 -0.319955 579 0.740885 0.671632 0.000000
-2.565693 -2.036039 -0.318888 591 0.740885 0.671632 0.000000
-2.567140 -2.037184 -0.318046 619 0.740885 0.671632 0.000000
-2.569000 -2.038661 -0.317260 601 0.740885 0.671632 0.000000
-2.568607 -2.038355 -0.316193 595 0.740885 0.671632 0.000000
-2.567428 -2.037416 -0.315033 603 0.740885 0.671632 0.000000
-2.565851 -2.036156 -0.313827 605 0.740885 0.671632 0.000000
-2.565974 -2.036263 -0.312826 583 0.740885 0.671632 0.000000
-2.567658 -2.037591 -0.312011 591 0.740885 0.671632 0.000000
-2.567147 -2.037194 -0.310935 569 0.740885 0.671632 0.000000
-2.566713 -2.036844 -0.309869 573 0.740885 0.671632 0.000000
-2.566961 -2.037035 -0.308887 561 0.740885 0.671632 0.000000
-2.566861 -2.036957 -0.307858 551 0.740885 0.671632 0.000000
-2.567103 -2.037156 -0.306876 549 0.740885 0.671632 0.000000
-2.567233 -2.037255 -0.305875 539 0.740885 0.671632 0.000000
-2.565761 -2.036089 -0.304687 539 0.740885 0.671632 0.000000
-2.566183 -2.036415 -0.303724 525 0.740885 0.671632 0.000000
-2.567163 -2.037198 -0.302815 537 0.740885 0.671632 0.000000
-2.566839 -2.036934 -0.301768 553 0.740885 0.671632 0.000000
-2.567598 -2.037545 -0.300841 571 0.740885 0.671632 0.000000
-2.567498 -2.037467 -0.299812 585 0.740885 0.671632 0.000000
-2.566993 -2.037062 -0.298737 571 0.740885 0.671632 0.000000
-2.566098 -2.036343 -0.297624 541 0.740885 0.671632 0.000000
-2.567597 -2.036231 -0.338349 539 0.740885 0.671632 0.000000
-2.567109 -2.035852 -0.337273 543 0.740885 0.671632 0.000000
-2.568047 -2.036591 -0.336375 577 0.740885 0.671632 0.000000
-2.569502 -2.037741 -0.335542 591 0.740885 0.671632 0.000000
-2.569062 -2.037399 -0.334476 589 0.740885 0.671632 0.000000
-2.567597 -2.036239 -0.333268 573 0.740885 0.671632 0.000000
-2.568480 -2.036934 -0.332361 585 0.740885 0.671632 0.000000
-2.569245 -2.037538 -0.331444 579 0.740885 0.671632 0.000000
-2.568233 -2.036741 -0.330293 583 0.740885 0.671632 0.000000
-2.568030 -2.036582 -0.329255 587 0.740885 0.671632 0.000000
-2.567992 -2.036539 -0.328235 581 0.740885 0.671632 0.000000
-2.567378 -2.036062 -0.327140 589 0.740885 0.671632 0.000000
-2.566778 -2.035584 -0.326045 589 0.740885 0.671632 0.000000
-2.566051 -2.035008 -0.324942 565 0.740885 0.671632 0.000000
-2.566989 -2.035746 -0.324044 583 0.740885 0.671632 0.000000
-2.566715 -2.035533 -0.322996 603 0.740885 0.671632 0.000000
-2.566455 -2.035317 -0.321948 589 0.740885 0.671632 0.000000
-2.567214 -2.035929 -0.321021 573 0.740885 0.671632 0.000000
-2.567288 -2.035985 -0.320021 585 0.740885 0.671632 0.000000
-2.567489 -2.036139 -0.319029 595 0.740885 0.671632 0.000000
-2.567960 -2.036516 -0.318065 585 0.740885 0.671632 0.000000
-2.568153 -2.036664 -0.317073 573 0.740885 0.671632 0.000000
-2.568743 -2.037133 -0.316128 591 0.740885 0.671632 0.000000
-2.568873 -2.037232 -0.315127 609 0.740885 0.671632 0.000000
-2.567980 -2.036527 -0.314005 581 0.740885 0.671632 0.000000
-2.567475 -2.036123 -0.312929 561 0.740885 0.671632 0.000000
-2.567272 -2.035964 -0.311891 565 0.740885 0.671632 0.000000
-2.566711 -2.035517 -0.310806 545 0.740885 0.671632 0.000000
-2.567525 -2.036171 -0.309888 551 0.740885 0.671632 0.000000
-2.569265 -2.037542 -0.309083 565 0.740885 0.671632 0.000000
-2.569458 -2.037690 -0.308092 541 0.740885 0.671632 0.000000
-2.568604 -2.037015 -0.306969 547 0.740885 0.671632 0.000000
-2.568219 -2.036716 -0.305912 557 0.740885 0.671632 0.000000
-2.569039 -2.037363 -0.304995 543 0.740885 0.671632 0.000000
-2.570025 -2.038138 -0.304097 553 0.740885 0.671632 0.000000
-2.569521 -2.037747 -0.303021 573 0.740885 0.671632 0.000000
-2.568571 -2.036985 -0.301889 561 0.740885 0.671632 0.000000
-2.568179 -2.036680 -0.300833 581 0.740885 0.671632 0.000000
-2.568595 -2.037014 -0.299869 587 0.740885 0.671632 0.000000
-2.568551 -2.036978 -0.298849 583 0.740885 0.671632 0.000000
-2.568164 -2.036665 -0.297783 561 0.740885 0.671632 0.000000
-2.567338 -2.034739 -0.337217 569 0.740885 0.671632 0.000000
-2.568500 -2.035663 -0.336357 587 0.740885 0.671632 0.000000
-2.568526 -2.035683 -0.335337 599 0.740885 0.671632 0.000000
-2.568147 -2.035376 -0.334270 575 0.740885 0.671632 0.000000
-2.568961 -2.036030 -0.333363 573 0.740885 0.671632 0.000000
-2.569629 -2.036546 -0.332427 595 0.740885 0.671632 0.000000
-2.569537 -2.036474 -0.331398 587 0.740885 0.671632 0.000000
-2.569834 -2.036716 -0.330425 579 0.740885 0.671632 0.000000
-2.569456 -2.036409 -0.329358 593 0.740885 0.671632 0.000000
-2.567588 -2.034936 -0.328105 583 0.740885 0.671632 0.000000
-2.567383 -2.034764 -0.327066 583 0.740885 0.671632 0.000000
-2.567355 -2.034741 -0.326047 573 0.740885 0.671632 0.000000
-2.567136 -2.034570 -0.324998 561 0.740885 0.671632 0.000000
-2.568535 -2.035678 -0.324156 581 0.740885 0.671632 0.000000
-2.569062 -2.036098 -0.323212 617 0.740885 0.671632 0.000000
-2.567938 -2.035201 -0.322052 611 0.740885 0.671632 0.000000
-2.567791 -2.035086 -0.321023 583 0.740885 0.671632 0.000000
-2.567580 -2.034921 -0.319975 587 0.740885 0.671632 0.000000
-2.567599 -2.034935 -0.318964 593 0.740885 0.671632 0.000000
-2.567728 -2.035034 -0.317963 581 0.740885 0.671632 0.000000
-2.567581 -2.034919 -0.316934 583 0.740885 0.671632 0.000000
-2.568227 -2.035430 -0.315989 607 0.740885 0.671632 0.000000
-2.568872 -2.035942 -0.315053 611 0.740885 0.671632 0.000000
-2.568606 -2.035735 -0.314005 573 0.740885 0.671632 0.000000
-2.567538 -2.034881 -0.312865 551 0.740885 0.671632 0.000000
-2.566921 -2.034390 -0.311780 539 0.740885 0.671632 0.000000
-2.567338 -2.034724 -0.310806 535 0.740885 0.671632 0.000000
-2.568047 -2.035285 -0.309880 567 0.740885 0.671632 0.000000
-2.567828 -2.035114 -0.308842 567 0.740885 0.671632 0.000000
-2.568537 -2.035675 -0.307906 561 0.740885 0.671632 0.000000
-2.569230 -2.036223 -0.306970 557 0.740885 0.671632 0.000000
-2.569020 -2.036059 -0.305932 563 0.740885 0.671632 0.000000
-2.568760 -2.035844 -0.304884 561 0.740885 0.671632 0.000000
-2.569279 -2.036257 -0.303929 573 0.740885 0.671632 0.000000
-2.568894 -2.035958 -0.302873 579 0.740885 0.671632 0.000000
-2.568286 -2.035474 -0.301788 577 0.740885 0.671632 0.000000
-2.569327 -2.036291 -0.300889 589 0.740885 0.671632 0.000000
-2.569346 -2.036305 -0.299879 595 0.740885 0.671632 0.000000
-2.568501 -2.035637 -0.298766 595 0.740885 0.671632 0.000000
-2.568401 -2.035558 -0.297747 575 0.740885 0.671632 0.000000
-2.568933 -2.034760 -0.336329 593 0.740885 0.671632 0.000000
-2.569357 -2.035100 -0.335365 585 0.740885 0.671632 0.000000
-2.569613 -2.035297 -0.334383 561 0.740885 0.671632 0.000000
-2.569577 -2.035268 -0.333364 557 0.740885 0.671632 0.000000
-2.569200 -2.034975 -0.332297 567 0.740885 0.671632 0.000000
-2.569448 -2.035166 -0.331315 549 0.740885 0.671632 0.000000
-2.569356 -2.035094 -0.330285 565 0.740885 0.671632 0.000000
-2.569320 -2.035064 -0.329266 581 0.740885 0.671632 0.000000
-2.569347 -2.035084 -0.328245 583 0.740885 0.671632 0.000000
-2.568446 -2.034372 -0.327123 577 0.740885 0.671632 0.000000
-2.567837 -2.033888 -0.326028 575 0.740885 0.671632 0.000000
-2.568135 -2.034130 -0.325056 583 0.740885 0.671632 0.000000
-2.568676 -2.034548 -0.324101 607 0.740885 0.671632 0.000000
-2.569441 -2.035151 -0.323184 619 0.740885 0.671632 0.000000
-2.569516 -2.035221 -0.322174 609 0.740885 0.671632 0.000000
-2.569257 -2.035007 -0.321126 601 0.740885 0.671632 0.000000
-2.569331 -2.035063 -0.320115 601 0.740885 0.671632 0.000000
-2.569350 -2.035076 -0.319105 599 0.740885 0.671632 0.000000
-2.568965 -2.034777 -0.318038 587 0.740885 0.671632 0.000000
-2.568865 -2.034699 -0.317019 591 0.740885 0.671632 0.000000
-2.568718 -2.034584 -0.315981 585 0.740885 0.671632 0.000000
-2.569585 -2.035267 -0.315073 587 0.740885 0.671632 0.000000
-2.569493 -2.035194 -0.314044 577 0.740885 0.671632 0.000000
-2.568766 -2.034618 -0.312940 557 0.740885 0.671632 0.000000
-2.569182 -2.034952 -0.311976 543 0.740885 0.671632 0.000000
-2.568922 -2.034737 -0.310929 565 0.740885 0.671632 0.000000
-2.569513 -2.035205 -0.309984 577 0.740885 0.671632 0.000000
-2.569468 -2.035170 -0.308964 565 0.740885 0.671632 0.000000
-2.569368 -2.035092 -0.307935 533 0.740885 0.671632 0.000000
-2.570006 -2.035597 -0.306999 553 0.740885 0.671632 0.000000
-2.569691 -2.035339 -0.305942 559 0.740885 0.671632 0.000000
-2.569925 -2.035532 -0.304960 567 0.740885 0.671632 0.000000
-2.569657 -2.035311 -0.303912 571 0.740885 0.671632 0.000000
-2.569162 -2.034926 -0.302836 577 0.740885 0.671632 0.000000
-2.568656 -2.034521 -0.301761 557 0.740885 0.671632 0.000000
-2.569413 -2.035118 -0.300834 573 0.740885 0.671632 0.000000
-2.569718 -2.035366 -0.299852 577 0.740885 0.671632 0.000000
-2.569276 -2.035011 -0.298785 567 0.740885 0.671632 0.000000
-2.568828 -2.034662 -0.297719 567 0.740885 0.671632 0.000000
-2.571317 -2.035391 -0.336565 571 0.740885 0.671632 0.000000
-2.571462 -2.035503 -0.335563 573 0.740885 0.671632 0.000000
-2.569656 -2.034065 -0.334309 571 0.740885 0.671632 0.000000
-2.568296 -2.032999 -0.333121 553 0.740885 0.671632 0.000000
-2.568615 -2.033245 -0.332148 529 0.740885 0.671632 0.000000
-2.569554 -2.033983 -0.331250 537 0.740885 0.671632 0.000000
-2.569622 -2.034047 -0.330239 545 0.740885 0.671632 0.000000
-2.569934 -2.034287 -0.329266 557 0.740885 0.671632 0.000000
-2.570231 -2.034529 -0.328284 583 0.740885 0.671632 0.000000
-2.569457 -2.033916 -0.327170 583 0.740885 0.671632 0.000000
-2.569189 -2.033695 -0.326123 583 0.740885 0.671632 0.000000
-2.569676 -2.034084 -0.325168 587 0.740885 0.671632 0.000000
-2.569751 -2.034140 -0.324158 595 0.740885 0.671632 0.000000
-2.569198 -2.033699 -0.323073 605 0.740885 0.671632 0.000000
-2.569844 -2.034210 -0.322137 603 0.740885 0.671632 0.000000
-2.570553 -2.034771 -0.321211 607 0.740885 0.671632 0.000000
-2.570914 -2.035061 -0.320238 609 0.740885 0.671632 0.000000
-2.571273 -2.035338 -0.319265 593 0.740885 0.671632 0.000000
-2.571007 -2.035131 -0.318217 585 0.740885 0.671632 0.000000
-2.570685 -2.034881 -0.317160 591 0.740885 0.671632 0.000000
-2.570188 -2.034482 -0.316084 571 0.740885 0.671632 0.000000
-2.570207 -2.034496 -0.315074 575 0.740885 0.671632 0.000000
-2.569535 -2.033962 -0.313980 579 0.740885 0.671632 0.000000
-2.569040 -2.033578 -0.312904 559 0.740885 0.671632 0.000000
-2.570081 -2.034396 -0.312015 551 0.740885 0.671632 0.000000
-2.571591 -2.035589 -0.311172 561 0.740885 0.671632 0.000000
-2.571944 -2.035874 -0.310199 579 0.740885 0.671632 0.000000
-2.570027 -2.034350 -0.308955 553 0.740885 0.671632 0.000000
-2.569118 -2.033633 -0.307833 541 0.740885 0.671632 0.000000
-2.570001 -2.034328 -0.306925 547 0.740885 0.671632 0.000000
-2.569727 -2.034115 -0.305878 561 0.740885 0.671632 0.000000
-2.569975 -2.034306 -0.304886 569 0.740885 0.671632 0.000000
-2.569638 -2.034044 -0.303838 565 0.740885 0.671632 0.000000
