774
-8.251428 -7.724203 -0.340482 1461 0.741553 0.670894 0.000000
-8.251719 -7.724475 -0.337019 1465 0.741553 0.670894 0.000000
-8.251889 -7.724640 -0.333547 1463 0.741553 0.670894 0.000000
-8.251534 -7.724310 -0.330060 1469 0.741553 0.670894 0.000000
-8.251290 -7.724080 -0.326573 1467 0.741553 0.670894 0.000000
-8.251249 -7.724044 -0.323103 1467 0.741553 0.670894 0.000000
-8.250894 -7.723714 -0.319616 1473 0.741553 0.670894 0.000000
-8.250901 -7.723716 -0.316146 1471 0.741553 0.670894 0.000000
-8.251296 -7.724081 -0.312682 1473 0.741553 0.670894 0.000000
-8.251095 -7.723895 -0.309204 1469 0.741553 0.670894 0.000000
-8.250998 -7.723817 -0.305725 1467 0.741553 0.670894 0.000000
-8.253593 -7.721360 -0.695244 1465 0.741553 0.670894 0.000000
-8.253107 -7.720904 -0.691718 1463 0.741553 0.670894 0.000000
-8.252782 -7.720598 -0.688211 1463 0.741553 0.670894 0.000000
-8.253146 -7.720939 -0.684758 1467 0.741553 0.670894 0.000000
-8.253187 -7.720978 -0.681277 1455 0.741553 0.670894 0.000000
-8.253284 -7.721075 -0.677796 1463 0.741553 0.670894 0.000000
-8.253276 -7.721064 -0.674316 1471 0.741553 0.670894 0.000000
-8.253363 -7.721140 -0.670845 1473 0.741553 0.670894 0.000000
-8.253574 -7.721337 -0.667373 1469 0.741553 0.670894 0.000000
-8.253389 -7.721177 -0.663875 1463 0.741553 0.670894 0.000000
-8.253323 -7.721109 -0.660395 1471 0.741553 0.670894 0.000000
-8.253202 -7.720999 -0.656896 1469 0.741553 0.670894 0.000000
-8.253185 -7.720982 -0.653416 1473 0.741553 0.670894 0.000000
-8.253591 -7.721367 -0.649963 1471 0.741553 0.670894 0.000000
-8.253475 -7.721248 -0.646474 1471 0.741553 0.670894 0.000000
-8.252974 -7.720779 -0.642958 1471 0.741553 0.670894 0.000000
-8.252997 -7.720808 -0.639478 1467 0.741553 0.670894 0.000000
-8.253572 -7.721349 -0.636032 1467 0.741553 0.670894 0.000000
-8.253822 -7.721576 -0.632570 1475 0.741553 0.670894 0.000000
-8.253735 -7.721504 -0.629091 1475 0.741553 0.670894 0.000000
-8.253394 -7.721186 -0.625584 1469 0.741553 0.670894 0.000000
-8.252997 -7.720811 -0.622067 1461 0.741553 0.670894 0.000000
-8.253564 -7.721347 -0.618632 1473 0.741553 0.670894 0.000000
-8.253271 -7.721066 -0.615125 1461 0.741553 0.670894 0.000000
-8.253246 -7.721042 -0.611645 1455 0.741553 0.670894 0.000000
-8.253272 -7.721070 -0.608165 1465 0.741553 0.670894 0.000000
-8.252816 -7.720638 -0.604659 1461 0.741553 0.670894 0.000000
-8.253109 -7.720923 -0.601196 1469 0.741553 0.670894 0.000000
-8.253351 -7.721144 -0.597734 1465 0.741553 0.670894 0.000000
-8.253481 -7.721265 -0.594262 1467 0.741553 0.670894 0.000000
-8.254095 -7.721838 -0.590826 1481 0.741553 0.670894 0.000000
-8.254168 -7.721903 -0.587346 1471 0.741553 0.670894 0.000000
-8.253545 -7.721328 -0.583821 1465 0.741553 0.670894 0.000000
-8.253081 -7.720890 -0.580316 1461 0.741553 0.670894 0.000000
-8.252784 -7.720617 -0.576818 1457 0.741553 0.670894 0.000000
-8.252531 -7.720380 -0.573321 1461 0.741553 0.670894 0.000000
-8.253034 -7.720853 -0.569876 1465 0.741553 0.670894 0.000000
-8.253260 -7.721062 -0.566404 1471 0.741553 0.670894 0.000000
-8.253065 -7.720881 -0.562915 1465 0.741553 0.670894 0.000000
-8.253406 -7.721204 -0.559462 1459 0.741553 0.670894 0.000000
-8.253097 -7.720910 -0.555965 1463 0.741553 0.670894 0.000000
-8.252571 -7.720424 -0.552450 1461 0.741553 0.670894 0.000000
-8.252644 -7.720488 -0.548979 1457 0.741553 0.670894 0.000000
-8.253088 -7.720903 -0.545525 1459 0.741553 0.670894 0.000000
-8.253736 -7.721515 -0.542089 1461 0.741553 0.670894 0.000000
-8.254287 -7.722024 -0.538643 1473 0.741553 0.670894 0.000000
-8.254084 -7.721838 -0.535155 1477 0.741553 0.670894 0.000000
-8.253817 -7.721590 -0.531658 1475 0.741553 0.670894 0.000000
-8.253719 -7.721497 -0.528168 1473 0.741553 0.670894 0.000000
-8.253678 -7.721461 -0.524689 1473 0.741553 0.670894 0.000000
-8.253581 -7.721369 -0.521210 1461 0.741553 0.670894 0.000000
-8.253426 -7.721220 -0.517721 1459 0.741553 0.670894 0.000000
-8.253323 -7.721136 -0.514232 1463 0.741553 0.670894 0.000000
-8.253378 -7.721188 -0.510761 1463 0.741553 0.670894 0.000000
-8.253435 -7.721240 -0.507290 1465 0.741553 0.670894 0.000000
-8.253280 -7.721091 -0.503802 1463 0.741553 0.670894 0.000000
-8.253443 -7.721250 -0.500330 1467 0.741553 0.670894 0.000000
-8.253716 -7.721496 -0.496868 1467 0.741553 0.670894 0.000000
-8.253822 -7.721598 -0.493397 1463 0.741553 0.670894 0.000000
-8.253392 -7.721199 -0.489900 1459 0.741553 0.670894 0.000000
-8.253287 -7.721100 -0.486411 1461 0.741553 0.670894 0.000000
-8.253497 -7.721297 -0.482949 1471 0.741553 0.670894 0.000000
-8.253392 -7.721199 -0.479470 1463 0.741553 0.670894 0.000000
-8.253328 -7.721145 -0.475991 1463 0.741553 0.670894 0.000000
-8.253708 -7.721498 -0.472527 1463 0.741553 0.670894 0.000000
-8.254072 -7.721838 -0.469074 1461 0.741553 0.670894 0.000000
-8.254120 -7.721884 -0.465603 1465 0.741553 0.670894 0.000000
-8.253949 -7.721723 -0.462115 1471 0.741553 0.670894 0.000000
-8.253521 -7.721323 -0.458619 1471 0.741553 0.670894 0.000000
-8.253349 -7.721162 -0.455130 1465 0.741553 0.670894 0.000000
-8.253764 -7.721554 -0.451676 1467 0.741553 0.670894 0.000000
-8.253699 -7.721500 -0.448197 1477 0.741553 0.670894 0.000000
-8.253430 -7.721237 -0.444709 1469 0.741553 0.670894 0.000000
-8.253099 -7.720939 -0.441212 1465 0.741553 0.670894 0.000000
-8.252556 -7.720426 -0.437707 1465 0.741553 0.670894 0.000000
-8.252912 -7.720761 -0.434254 1473 0.741553 0.670894 0.000000
-8.253480 -7.721296 -0.430808 1471 0.741553 0.670894 0.000000
-8.253640 -7.721443 -0.427337 1469 0.741553 0.670894 0.000000
-8.253569 -7.721382 -0.423857 1463 0.741553 0.670894 0.000000
-8.253389 -7.721214 -0.420379 1461 0.741553 0.670894 0.000000
-8.253535 -7.721348 -0.416907 1467 0.741553 0.670894 0.000000
-8.253623 -7.721425 -0.413437 1467 0.741553 0.670894 0.000000
-8.253664 -7.721465 -0.409966 1463 0.741553 0.670894 0.000000
-8.253963 -7.721742 -0.406503 1467 0.741553 0.670894 0.000000
-8.254101 -7.721883 -0.403032 1471 0.741553 0.670894 0.000000
-8.253654 -7.721458 -0.399536 1475 0.741553 0.670894 0.000000
-8.253638 -7.721441 -0.396056 1465 0.741553 0.670894 0.000000
-8.253613 -7.721417 -0.392586 1469 0.741553 0.670894 0.000000
-8.253591 -7.721408 -0.389106 1467 0.741553 0.670894 0.000000
-8.253890 -7.721686 -0.385643 1463 0.741553 0.670894 0.000000
-8.253857 -7.721656 -0.382174 1471 0.741553 0.670894 0.000000
-8.253459 -7.721282 -0.378677 1461 0.741553 0.670894 0.000000
-8.253548 -7.721359 -0.375206 1463 0.741553 0.670894 0.000000
-8.254156 -7.721938 -0.371760 1467 0.741553 0.670894 0.000000
-8.254397 -7.722159 -0.368298 1475 0.741553 0.670894 0.000000
-8.254001 -7.721785 -0.364802 1471 0.741553 0.670894 0.000000
-8.253759 -7.721569 -0.361324 1469 0.741553 0.670894 0.000000
-8.253881 -7.721684 -0.357853 1469 0.741553 0.670894 0.000000
-8.254171 -7.721955 -0.354390 1467 0.741553 0.670894 0.000000
-8.254414 -7.722176 -0.350928 1465 0.741553 0.670894 0.000000
-8.253684 -7.721494 -0.347424 1461 0.741553 0.670894 0.000000
-8.253701 -7.721516 -0.343944 1461 0.741553 0.670894 0.000000
-8.254049 -7.721844 -0.340491 1461 0.741553 0.670894 0.000000
-8.253960 -7.721757 -0.337011 1465 0.741553 0.670894 0.000000
-8.253708 -7.721520 -0.333524 1465 0.741553 0.670894 0.000000
-8.253789 -7.721592 -0.330053 1467 0.741553 0.670894 0.000000
-8.253951 -7.721751 -0.326591 1471 0.741553 0.670894 0.000000
-8.253765 -7.721578 -0.323103 1471 0.741553 0.670894 0.000000
-8.253512 -7.721341 -0.319625 1479 0.741553 0.670894 0.000000
-8.253416 -7.721249 -0.316146 1477 0.741553 0.670894 0.000000
-8.253213 -7.721063 -0.312668 1461 0.741553 0.670894 0.000000
-8.253335 -7.721178 -0.309197 1461 0.741553 0.670894 0.000000
-8.253659 -7.721488 -0.305734 1469 0.741553 0.670894 0.000000
-8.256001 -7.718785 -0.695245 1479 0.741553 0.670894 0.000000
-8.256106 -7.718888 -0.691764 1473 0.741553 0.670894 0.000000
-8.256099 -7.718877 -0.688284 1469 0.741553 0.670894 0.000000
-8.256138 -7.718917 -0.684803 1469 0.741553 0.670894 0.000000
-8.256179 -7.718956 -0.681323 1465 0.741553 0.670894 0.000000
-8.256065 -7.718852 -0.677834 1469 0.741553 0.670894 0.000000
-8.256049 -7.718835 -0.674344 1475 0.741553 0.670894 0.000000
-8.256314 -7.719074 -0.670881 1473 0.741553 0.670894 0.000000
-8.256396 -7.719158 -0.667410 1475 0.741553 0.670894 0.000000
-8.256338 -7.719096 -0.663921 1461 0.741553 0.670894 0.000000
-8.256267 -7.719037 -0.660431 1469 0.741553 0.670894 0.000000
-8.256137 -7.718921 -0.656942 1473 0.741553 0.670894 0.000000
-8.255804 -7.718608 -0.653435 1467 0.741553 0.670894 0.000000
-8.255900 -7.718691 -0.649955 1461 0.741553 0.670894 0.000000
-8.256573 -7.719320 -0.646528 1471 0.741553 0.670894 0.000000
-8.256393 -7.719152 -0.643030 1473 0.741553 0.670894 0.000000
-8.255891 -7.718684 -0.639514 1475 0.741553 0.670894 0.000000
-8.255770 -7.718573 -0.636025 1463 0.741553 0.670894 0.000000
-8.256005 -7.718802 -0.632563 1471 0.741553 0.670894 0.000000
-8.256207 -7.718978 -0.629091 1471 0.741553 0.670894 0.000000
-8.256118 -7.718906 -0.625602 1465 0.741553 0.670894 0.000000
-8.256256 -7.719033 -0.622131 1457 0.741553 0.670894 0.000000
-8.256231 -7.719010 -0.618651 1465 0.741553 0.670894 0.000000
-8.255680 -7.718491 -0.615126 1467 0.741553 0.670894 0.000000
-8.255493 -7.718317 -0.611637 1461 0.741553 0.670894 0.000000
-8.256003 -7.718796 -0.608193 1473 0.741553 0.670894 0.000000
-8.256028 -7.718824 -0.604712 1479 0.741553 0.670894 0.000000
-8.255565 -7.718385 -0.601197 1471 0.741553 0.670894 0.000000
-8.255436 -7.718269 -0.597708 1463 0.741553 0.670894 0.000000
-8.255670 -7.718483 -0.594245 1461 0.741553 0.670894 0.000000
-8.255637 -7.718454 -0.590766 1469 0.741553 0.670894 0.000000
-8.255929 -7.718726 -0.587303 1467 0.741553 0.670894 0.000000
-8.256592 -7.719349 -0.583866 1465 0.741553 0.670894 0.000000
-8.256026 -7.718818 -0.580352 1469 0.741553 0.670894 0.000000
-8.255296 -7.718135 -0.576818 1463 0.741553 0.670894 0.000000
-8.255370 -7.718214 -0.573348 1465 0.741553 0.670894 0.000000
-8.255443 -7.718278 -0.569877 1471 0.741553 0.670894 0.000000
-8.255136 -7.717999 -0.566370 1463 0.741553 0.670894 0.000000
-8.255636 -7.718458 -0.562925 1469 0.741553 0.670894 0.000000
-8.255975 -7.718780 -0.559472 1473 0.741553 0.670894 0.000000
-8.255830 -7.718637 -0.555983 1471 0.741553 0.670894 0.000000
-8.256000 -7.718802 -0.552511 1471 0.741553 0.670894 0.000000
-8.255855 -7.718674 -0.549022 1479 0.741553 0.670894 0.000000
-8.255861 -7.718675 -0.545552 1473 0.741553 0.670894 0.000000
-8.255716 -7.718545 -0.542064 1469 0.741553 0.670894 0.000000
-8.255893 -7.718704 -0.538592 1469 0.741553 0.670894 0.000000
-8.255958 -7.718761 -0.535121 1469 0.741553 0.670894 0.000000
-8.255909 -7.718720 -0.531642 1467 0.741553 0.670894 0.000000
-8.255869 -7.718685 -0.528162 1467 0.741553 0.670894 0.000000
-8.256193 -7.718995 -0.524699 1467 0.741553 0.670894 0.000000
-8.256354 -7.719141 -0.521227 1461 0.741553 0.670894 0.000000
-8.255828 -7.718654 -0.517722 1461 0.741553 0.670894 0.000000
-8.256208 -7.719007 -0.514268 1461 0.741553 0.670894 0.000000
-8.256434 -7.719215 -0.510806 1467 0.741553 0.670894 0.000000
-8.256321 -7.719110 -0.507317 1469 0.741553 0.670894 0.000000
-8.256492 -7.719276 -0.503845 1463 0.741553 0.670894 0.000000
-8.255852 -7.718676 -0.500331 1459 0.741553 0.670894 0.000000
-8.255907 -7.718728 -0.496861 1465 0.741553 0.670894 0.000000
-8.255584 -7.718422 -0.493364 1463 0.741553 0.670894 0.000000
-8.255478 -7.718324 -0.489885 1463 0.741553 0.670894 0.000000
-8.255957 -7.718778 -0.486430 1465 0.741553 0.670894 0.000000
-8.256383 -7.719168 -0.482976 1465 0.741553 0.670894 0.000000
-8.256166 -7.718970 -0.479488 1463 0.741553 0.670894 0.000000
-8.255687 -7.718520 -0.475982 1455 0.741553 0.670894 0.000000
-8.255307 -7.718171 -0.472486 1461 0.741553 0.670894 0.000000
-8.254821 -7.717714 -0.468990 1453 0.741553 0.670894 0.000000
-8.255242 -7.718112 -0.465536 1459 0.741553 0.670894 0.000000
-8.255556 -7.718402 -0.462073 1467 0.741553 0.670894 0.000000
-8.255767 -7.718598 -0.458611 1471 0.741553 0.670894 0.000000
-8.256342 -7.719141 -0.455166 1461 0.741553 0.670894 0.000000
-8.256172 -7.718979 -0.451677 1457 0.741553 0.670894 0.000000
-8.255685 -7.718523 -0.448172 1463 0.741553 0.670894 0.000000
-8.255994 -7.718821 -0.444719 1477 0.741553 0.670894 0.000000
-8.256090 -7.718904 -0.441248 1469 0.741553 0.670894 0.000000
-8.255702 -7.718549 -0.437751 1471 0.741553 0.670894 0.000000
-8.255636 -7.718481 -0.434272 1471 0.741553 0.670894 0.000000
-8.255734 -7.718577 -0.430801 1475 0.741553 0.670894 0.000000
-8.255725 -7.718566 -0.427321 1479 0.741553 0.670894 0.000000
-8.255919 -7.718750 -0.423859 1469 0.741553 0.670894 0.000000
-8.255960 -7.718791 -0.420388 1467 0.741553 0.670894 0.000000
-8.255936 -7.718768 -0.416909 1463 0.741553 0.670894 0.000000
-8.256299 -7.719108 -0.413445 1477 0.741553 0.670894 0.000000
-8.256388 -7.719185 -0.409974 1475 0.741553 0.670894 0.000000
-8.256689 -7.719476 -0.406521 1477 0.741553 0.670894 0.000000
-8.256349 -7.719158 -0.403024 1477 0.741553 0.670894 0.000000
-8.255901 -7.718732 -0.399529 1463 0.741553 0.670894 0.000000
-8.256202 -7.719024 -0.396065 1465 0.741553 0.670894 0.000000
-8.256233 -7.719044 -0.392595 1469 0.741553 0.670894 0.000000
-8.255780 -7.718626 -0.389099 1461 0.741553 0.670894 0.000000
-8.255489 -7.718359 -0.385612 1463 0.741553 0.670894 0.000000
-8.255942 -7.718781 -0.382158 1469 0.741553 0.670894 0.000000
-8.256516 -7.719309 -0.378712 1471 0.741553 0.670894 0.000000
-8.256427 -7.719237 -0.375233 1475 0.741553 0.670894 0.000000
-8.256192 -7.719013 -0.371745 1471 0.741553 0.670894 0.000000
-8.256428 -7.719241 -0.368283 1467 0.741553 0.670894 0.000000
-8.256670 -7.719462 -0.364820 1467 0.741553 0.670894 0.000000
-8.256644 -7.719439 -0.361341 1469 0.741553 0.670894 0.000000
-8.256183 -7.719001 -0.357845 1467 0.741553 0.670894 0.000000
-8.255680 -7.718533 -0.354349 1457 0.741553 0.670894 0.000000
-8.255802 -7.718648 -0.350888 1459 0.741553 0.670894 0.000000
-8.256149 -7.718976 -0.347425 1471 0.741553 0.670894 0.000000
-8.256061 -7.718890 -0.343946 1477 0.741553 0.670894 0.000000
-8.255866 -7.718710 -0.340467 1471 0.741553 0.670894 0.000000
-8.256094 -7.718933 -0.336995 1465 0.741553 0.670894 0.000000
-8.256278 -7.719097 -0.333533 1471 0.741553 0.670894 0.000000
-8.256400 -7.719212 -0.330062 1475 0.741553 0.670894 0.000000
-8.255939 -7.718788 -0.326576 1461 0.741553 0.670894 0.000000
-8.255962 -7.718802 -0.323096 1477 0.741553 0.670894 0.000000
-8.256075 -7.718910 -0.319635 1479 0.741553 0.670894 0.000000
-8.255824 -7.718674 -0.316147 1467 0.741553 0.670894 0.000000
-8.255679 -7.718545 -0.312668 1463 0.741553 0.670894 0.000000
-8.256117 -7.718955 -0.309214 1471 0.741553 0.670894 0.000000
-8.256124 -7.718970 -0.305744 1467 0.741553 0.670894 0.000000
-8.257969 -7.715718 -0.695200 1467 0.741553 0.670894 0.000000
-8.257855 -7.715614 -0.691711 1471 0.741553 0.670894 0.000000
-8.258269 -7.716005 -0.688267 1477 0.741553 0.670894 0.000000
-8.258372 -7.716093 -0.684786 1475 0.741553 0.670894 0.000000
-8.258252 -7.715983 -0.681297 1477 0.741553 0.670894 0.000000
-8.258138 -7.715878 -0.677798 1465 0.741553 0.670894 0.000000
-8.258228 -7.715970 -0.674327 1463 0.741553 0.670894 0.000000
-8.258592 -7.716310 -0.670874 1471 0.741553 0.670894 0.000000
-8.258745 -7.716449 -0.667402 1469 0.741553 0.670894 0.000000
-8.258566 -7.716281 -0.663904 1465 0.741553 0.670894 0.000000
-8.258396 -7.716120 -0.660406 1467 0.741553 0.670894 0.000000
-8.258428 -7.716153 -0.656935 1469 0.741553 0.670894 0.000000
-8.258574 -7.716287 -0.653464 1465 0.741553 0.670894 0.000000
-8.258718 -7.716421 -0.649992 1477 0.741553 0.670894 0.000000
-8.258646 -7.716360 -0.646503 1467 0.741553 0.670894 0.000000
-8.258355 -7.716093 -0.642995 1461 0.741553 0.670894 0.000000
-8.257915 -7.715673 -0.639480 1469 0.741553 0.670894 0.000000
-8.257829 -7.715601 -0.635990 1475 0.741553 0.670894 0.000000
-8.258451 -7.716180 -0.632564 1469 0.741553 0.670894 0.000000
-8.259073 -7.716758 -0.629128 1471 0.741553 0.670894 0.000000
-8.258994 -7.716693 -0.625639 1475 0.741553 0.670894 0.000000
-8.258927 -7.716625 -0.622150 1475 0.741553 0.670894 0.000000
-8.258903 -7.716601 -0.618670 1463 0.741553 0.670894 0.000000
-8.258498 -7.716220 -0.615153 1467 0.741553 0.670894 0.000000
-8.258044 -7.715803 -0.611648 1463 0.741553 0.670894 0.000000
-8.258182 -7.715930 -0.608176 1469 0.741553 0.670894 0.000000
-8.258100 -7.715850 -0.604687 1469 0.741553 0.670894 0.000000
-8.258287 -7.716028 -0.601215 1463 0.741553 0.670894 0.000000
-8.258142 -7.715899 -0.597726 1469 0.741553 0.670894 0.000000
-8.258060 -7.715819 -0.594247 1473 0.741553 0.670894 0.000000
-8.258036 -7.715796 -0.590757 1469 0.741553 0.670894 0.000000
-8.257678 -7.715465 -0.587260 1467 0.741553 0.670894 0.000000
-8.258132 -7.715887 -0.583806 1469 0.741553 0.670894 0.000000
-8.258041 -7.715801 -0.580327 1463 0.741553 0.670894 0.000000
-8.258059 -7.715823 -0.576847 1467 0.741553 0.670894 0.000000
-8.258617 -7.716338 -0.573401 1471 0.741553 0.670894 0.000000
-8.258309 -7.716059 -0.569904 1473 0.741553 0.670894 0.000000
-8.258115 -7.715879 -0.566406 1469 0.741553 0.670894 0.000000
-8.258075 -7.715844 -0.562926 1457 0.741553 0.670894 0.000000
-8.258583 -7.716308 -0.559481 1469 0.741553 0.670894 0.000000
-8.258802 -7.716525 -0.556019 1483 0.741553 0.670894 0.000000
-8.258017 -7.715786 -0.552486 1469 0.741553 0.670894 0.000000
-8.258081 -7.715845 -0.549016 1467 0.741553 0.670894 0.000000
-8.258364 -7.716109 -0.545553 1471 0.741553 0.670894 0.000000
-8.258591 -7.716319 -0.542091 1469 0.741553 0.670894 0.000000
-8.258121 -7.715888 -0.538585 1467 0.741553 0.670894 0.000000
-8.257538 -7.715344 -0.535070 1467 0.741553 0.670894 0.000000
-8.257926 -7.715704 -0.531617 1469 0.741553 0.670894 0.000000
-8.258413 -7.716164 -0.528162 1467 0.741553 0.670894 0.000000
-8.258638 -7.716372 -0.524700 1471 0.741553 0.670894 0.000000
-8.257998 -7.715772 -0.521186 1471 0.741553 0.670894 0.000000
-8.257698 -7.715485 -0.517689 1461 0.741553 0.670894 0.000000
-8.258127 -7.715889 -0.514234 1471 0.741553 0.670894 0.000000
-8.258282 -7.716042 -0.510763 1461 0.741553 0.670894 0.000000
-8.258288 -7.716043 -0.507293 1457 0.741553 0.670894 0.000000
-8.258079 -7.715851 -0.503805 1461 0.741553 0.670894 0.000000
-8.258135 -7.715903 -0.500324 1459 0.741553 0.670894 0.000000
-8.258564 -7.716307 -0.496870 1475 0.741553 0.670894 0.000000
-8.258297 -7.716059 -0.493382 1467 0.741553 0.670894 0.000000
-8.257713 -7.715515 -0.489868 1467 0.741553 0.670894 0.000000
-8.258135 -7.715912 -0.486414 1467 0.741553 0.670894 0.000000
-8.258246 -7.716007 -0.482943 1465 0.741553 0.670894 0.000000
-8.258028 -7.715808 -0.479455 1465 0.741553 0.670894 0.000000
-8.258239 -7.716005 -0.475992 1459 0.741553 0.670894 0.000000
-8.258400 -7.716151 -0.472521 1465 0.741553 0.670894 0.000000
-8.257913 -7.715694 -0.469025 1459 0.741553 0.670894 0.000000
-8.258060 -7.715842 -0.465554 1457 0.741553 0.670894 0.000000
-8.258594 -7.716340 -0.462109 1463 0.741553 0.670894 0.000000
-8.258262 -7.716028 -0.458612 1463 0.741553 0.670894 0.000000
-8.258148 -7.715923 -0.455133 1471 0.741553 0.670894 0.000000
-8.258302 -7.716063 -0.451661 1473 0.741553 0.670894 0.000000
-8.258455 -7.716216 -0.448190 1461 0.741553 0.670894 0.000000
-8.258228 -7.715997 -0.444702 1461 0.741553 0.670894 0.000000
-8.257953 -7.715742 -0.441214 1473 0.741553 0.670894 0.000000
-8.258309 -7.716077 -0.437761 1463 0.741553 0.670894 0.000000
-8.258471 -7.716223 -0.434289 1465 0.741553 0.670894 0.000000
-8.258075 -7.715862 -0.430793 1465 0.741553 0.670894 0.000000
-8.257693 -7.715499 -0.427296 1471 0.741553 0.670894 0.000000
-8.257993 -7.715777 -0.423844 1473 0.741553 0.670894 0.000000
-8.258615 -7.716370 -0.420398 1473 0.741553 0.670894 0.000000
-8.258657 -7.716409 -0.416917 1475 0.741553 0.670894 0.000000
-8.258308 -7.716085 -0.413430 1467 0.741553 0.670894 0.000000
-8.258243 -7.716017 -0.409951 1465 0.741553 0.670894 0.000000
-8.258437 -7.716202 -0.406489 1467 0.741553 0.670894 0.000000
-8.258421 -7.716185 -0.403009 1459 0.741553 0.670894 0.000000
-8.258024 -7.715824 -0.399513 1461 0.741553 0.670894 0.000000
-8.258218 -7.715994 -0.396051 1473 0.741553 0.670894 0.000000
-8.258299 -7.716079 -0.392580 1465 0.741553 0.670894 0.000000
-8.258063 -7.715854 -0.389092 1463 0.741553 0.670894 0.000000
-8.258208 -7.715988 -0.385631 1465 0.741553 0.670894 0.000000
-8.258346 -7.716115 -0.382159 1465 0.741553 0.670894 0.000000
-8.258848 -7.716587 -0.378704 1483 0.741553 0.670894 0.000000
-8.258929 -7.716671 -0.375234 1477 0.741553 0.670894 0.000000
-8.258695 -7.716448 -0.371746 1463 0.741553 0.670894 0.000000
-8.258184 -7.715973 -0.368250 1459 0.741553 0.670894 0.000000
-8.258209 -7.716000 -0.364780 1467 0.741553 0.670894 0.000000
-8.258555 -7.716315 -0.361317 1463 0.741553 0.670894 0.000000
-8.258207 -7.715991 -0.357830 1463 0.741553 0.670894 0.000000
-8.258386 -7.716163 -0.354368 1461 0.741553 0.670894 0.000000
-8.258726 -7.716485 -0.350905 1459 0.741553 0.670894 0.000000
-8.258271 -7.716053 -0.347409 1461 0.741553 0.670894 0.000000
-8.257704 -7.715522 -0.343914 1457 0.741553 0.670894 0.000000
-8.257778 -7.715600 -0.340443 1469 0.741553 0.670894 0.000000
-8.258286 -7.716065 -0.336989 1467 0.741553 0.670894 0.000000
-8.258991 -7.716733 -0.333542 1463 0.741553 0.670894 0.000000
-8.259324 -7.717049 -0.330079 1467 0.741553 0.670894 0.000000
-8.259031 -7.716768 -0.326601 1457 0.741553 0.670894 0.000000
-8.259257 -7.716976 -0.323129 1477 0.741553 0.670894 0.000000
-8.259217 -7.716941 -0.319659 1475 0.741553 0.670894 0.000000
-8.259128 -7.716855 -0.316180 1467 0.741553 0.670894 0.000000
-8.259348 -7.717072 -0.312718 1473 0.741553 0.670894 0.000000
-8.258830 -7.716591 -0.309223 1467 0.741553 0.670894 0.000000
-8.258682 -7.716448 -0.305744 1457 0.741553 0.670894 0.000000
-8.260839 -7.713399 -0.695238 1469 0.741553 0.670894 0.000000
-8.260730 -7.713286 -0.691749 1483 0.741553 0.670894 0.000000
-8.260554 -7.713132 -0.688250 1473 0.741553 0.670894 0.000000
-8.260594 -7.713172 -0.684770 1475 0.741553 0.670894 0.000000
-8.260643 -7.713218 -0.681289 1471 0.741553 0.670894 0.000000
-8.260527 -7.713099 -0.677791 1459 0.741553 0.670894 0.000000
-8.260463 -7.713046 -0.674311 1459 0.741553 0.670894 0.000000
-8.260559 -7.713129 -0.670830 1459 0.741553 0.670894 0.000000
-8.260699 -7.713270 -0.667359 1475 0.741553 0.670894 0.000000
-8.260738 -7.713309 -0.663878 1465 0.741553 0.670894 0.000000
-8.260947 -7.713491 -0.660416 1471 0.741553 0.670894 0.000000
-8.261141 -7.713676 -0.656944 1465 0.741553 0.670894 0.000000
-8.261344 -7.713866 -0.653482 1473 0.741553 0.670894 0.000000
-8.261003 -7.713548 -0.649975 1465 0.741553 0.670894 0.000000
-8.260388 -7.712979 -0.646441 1461 0.741553 0.670894 0.000000
-8.260210 -7.712812 -0.642953 1459 0.741553 0.670894 0.000000
-8.260832 -7.713390 -0.639517 1465 0.741553 0.670894 0.000000
-8.261449 -7.713978 -0.636081 1479 0.741553 0.670894 0.000000
-8.261059 -7.713608 -0.632564 1477 0.741553 0.670894 0.000000
-8.260346 -7.712939 -0.629031 1467 0.741553 0.670894 0.000000
-8.260420 -7.713017 -0.625560 1463 0.741553 0.670894 0.000000
-8.260719 -7.713295 -0.622097 1463 0.741553 0.670894 0.000000
-8.260856 -7.713422 -0.618626 1461 0.741553 0.670894 0.000000
-8.260889 -7.713456 -0.615156 1465 0.741553 0.670894 0.000000
-8.260757 -7.713325 -0.611657 1471 0.741553 0.670894 0.000000
-8.260734 -7.713301 -0.608177 1465 0.741553 0.670894 0.000000
-8.260596 -7.713179 -0.604688 1459 0.741553 0.670894 0.000000
-8.260621 -7.713206 -0.601208 1465 0.741553 0.670894 0.000000
-8.261128 -7.713671 -0.597763 1471 0.741553 0.670894 0.000000
-8.261365 -7.713900 -0.594301 1471 0.741553 0.670894 0.000000
-8.261494 -7.714021 -0.590829 1465 0.741553 0.670894 0.000000
-8.261193 -7.713734 -0.587332 1469 0.741553 0.670894 0.000000
-8.260733 -7.713310 -0.583816 1467 0.741553 0.670894 0.000000
-8.260537 -7.713130 -0.580328 1461 0.741553 0.670894 0.000000
-8.260400 -7.712993 -0.576839 1459 0.741553 0.670894 0.000000
-8.260951 -7.713517 -0.573394 1471 0.741553 0.670894 0.000000
-8.261453 -7.713989 -0.569949 1473 0.741553 0.670894 0.000000
-8.260828 -7.713401 -0.566425 1461 0.741553 0.670894 0.000000
-8.260472 -7.713070 -0.562928 1461 0.741553 0.670894 0.000000
-8.260697 -7.713279 -0.559456 1467 0.741553 0.670894 0.000000
-8.260877 -7.713451 -0.555994 1471 0.741553 0.670894 0.000000
-8.260512 -7.713115 -0.552488 1459 0.741553 0.670894 0.000000
-8.260317 -7.712922 -0.548999 1473 0.741553 0.670894 0.000000
-8.260382 -7.712993 -0.545529 1475 0.741553 0.670894 0.000000
-8.260186 -7.712799 -0.542030 1457 0.741553 0.670894 0.000000
-8.260138 -7.712758 -0.538551 1455 0.741553 0.670894 0.000000
-8.260787 -7.713369 -0.535115 1465 0.741553 0.670894 0.000000
-8.261167 -7.713722 -0.531661 1475 0.741553 0.670894 0.000000
-8.260859 -7.713442 -0.528164 1467 0.741553 0.670894 0.000000
-8.261303 -7.713844 -0.524709 1467 0.741553 0.670894 0.000000
-8.261627 -7.714154 -0.521256 1461 0.741553 0.670894 0.000000
-8.261254 -7.713811 -0.517750 1463 0.741553 0.670894 0.000000
-8.260996 -7.713569 -0.514262 1463 0.741553 0.670894 0.000000
-8.260898 -7.713477 -0.510773 1455 0.741553 0.670894 0.000000
-8.260680 -7.713278 -0.507285 1457 0.741553 0.670894 0.000000
-8.260525 -7.713130 -0.503796 1457 0.741553 0.670894 0.000000
-8.260631 -7.713232 -0.500325 1461 0.741553 0.670894 0.000000
-8.260687 -7.713284 -0.496855 1465 0.741553 0.670894 0.000000
-8.260798 -7.713379 -0.493383 1463 0.741553 0.670894 0.000000
-8.260792 -7.713382 -0.489903 1463 0.741553 0.670894 0.000000
-8.260686 -7.713284 -0.486424 1461 0.741553 0.670894 0.000000
-8.260580 -7.713185 -0.482935 1455 0.741553 0.670894 0.000000
-8.260468 -7.713080 -0.479456 1461 0.741553 0.670894 0.000000
-8.260839 -7.713428 -0.476003 1467 0.741553 0.670894 0.000000
-8.261269 -7.713831 -0.472548 1465 0.741553 0.670894 0.000000
-8.260993 -7.713576 -0.469051 1459 0.741553 0.670894 0.000000
-8.260458 -7.713069 -0.465546 1469 0.741553 0.670894 0.000000
-8.260555 -7.713166 -0.462075 1471 0.741553 0.670894 0.000000
-8.260659 -7.713255 -0.458604 1457 0.741553 0.670894 0.000000
-8.260482 -7.713101 -0.455125 1461 0.741553 0.670894 0.000000
-8.260748 -7.713340 -0.451663 1463 0.741553 0.670894 0.000000
-8.260741 -7.713344 -0.448183 1469 0.741553 0.670894 0.000000
-8.260086 -7.712731 -0.444669 1465 0.741553 0.670894 0.000000
-8.260180 -7.712813 -0.441208 1469 0.741553 0.670894 0.000000
-8.260707 -7.713305 -0.437753 1469 0.741553 0.670894 0.000000
-8.260374 -7.712993 -0.434266 1461 0.741553 0.670894 0.000000
-8.260464 -7.713083 -0.430795 1473 0.741553 0.670894 0.000000
-8.260878 -7.713475 -0.427341 1473 0.741553 0.670894 0.000000
-8.260537 -7.713157 -0.423844 1461 0.741553 0.670894 0.000000
-8.260470 -7.713089 -0.420365 1465 0.741553 0.670894 0.000000
-8.260511 -7.713129 -0.416894 1463 0.741553 0.670894 0.000000
-8.260440 -7.713069 -0.413415 1471 0.741553 0.670894 0.000000
-8.260204 -7.712844 -0.409927 1469 0.741553 0.670894 0.000000
-8.260195 -7.712833 -0.406447 1465 0.741553 0.670894 0.000000
-8.260439 -7.713068 -0.402985 1465 0.741553 0.670894 0.000000
-8.260737 -7.713346 -0.399532 1467 0.741553 0.670894 0.000000
-8.261086 -7.713674 -0.396068 1471 0.741553 0.670894 0.000000
-8.260746 -7.713357 -0.392581 1461 0.741553 0.670894 0.000000
-8.260468 -7.713087 -0.389094 1457 0.741553 0.670894 0.000000
-8.260754 -7.713367 -0.385631 1463 0.741553 0.670894 0.000000
-8.260729 -7.713344 -0.382151 1467 0.741553 0.670894 0.000000
-8.260768 -7.713369 -0.378681 1463 0.741553 0.670894 0.000000
-8.260842 -7.713448 -0.375210 1459 0.741553 0.670894 0.000000
-8.260867 -7.713475 -0.371740 1463 0.741553 0.670894 0.000000
-8.261003 -7.713603 -0.368268 1461 0.741553 0.670894 0.000000
-8.260810 -7.713422 -0.364780 1465 0.741553 0.670894 0.000000
-8.260890 -7.713493 -0.361309 1473 0.741553 0.670894 0.000000
-8.260970 -7.713563 -0.357839 1467 0.741553 0.670894 0.000000
-8.260621 -7.713240 -0.354352 1463 0.741553 0.670894 0.000000
-8.260639 -7.713261 -0.350881 1459 0.741553 0.670894 0.000000
-8.260978 -7.713583 -0.347418 1471 0.741553 0.670894 0.000000
-8.260736 -7.713352 -0.343940 1473 0.741553 0.670894 0.000000
-8.260603 -7.713222 -0.340462 1473 0.741553 0.670894 0.000000
-8.260726 -7.713337 -0.336990 1465 0.741553 0.670894 0.000000
-8.261332 -7.713903 -0.333535 1475 0.741553 0.670894 0.000000
-8.261398 -7.713976 -0.330064 1469 0.741553 0.670894 0.000000
-8.260718 -7.713345 -0.326570 1461 0.741553 0.670894 0.000000
-8.260629 -7.713258 -0.323091 1463 0.741553 0.670894 0.000000
-8.260975 -7.713573 -0.319628 1463 0.741553 0.670894 0.000000
-8.260927 -7.713531 -0.316158 1463 0.741553 0.670894 0.000000
-8.260620 -7.713251 -0.312671 1467 0.741553 0.670894 0.000000
-8.260693 -7.713316 -0.309200 1465 0.741553 0.670894 0.000000
-8.261128 -7.713726 -0.305746 1469 0.741553 0.670894 0.000000
-8.262761 -7.710372 -0.695194 1471 0.741553 0.670894 0.000000
-8.263021 -7.710620 -0.691741 1481 0.741553 0.670894 0.000000
-8.263286 -7.710858 -0.688278 1473 0.741553 0.670894 0.000000
-8.263488 -7.711050 -0.684807 1469 0.741553 0.670894 0.000000
-8.263318 -7.710888 -0.681308 1471 0.741553 0.670894 0.000000
-8.262979 -7.710584 -0.677801 1465 0.741553 0.670894 0.000000
-8.263021 -7.710624 -0.674321 1473 0.741553 0.670894 0.000000
-8.262904 -7.710505 -0.670832 1467 0.741553 0.670894 0.000000
-8.263001 -7.710602 -0.667351 1457 0.741553 0.670894 0.000000
-8.263035 -7.710635 -0.663870 1463 0.741553 0.670894 0.000000
-8.262976 -7.710573 -0.660391 1455 0.741553 0.670894 0.000000
-8.263122 -7.710707 -0.656919 1463 0.741553 0.670894 0.000000
-8.262830 -7.710439 -0.653412 1461 0.741553 0.670894 0.000000
-8.263033 -7.710629 -0.649950 1465 0.741553 0.670894 0.000000
-8.262742 -7.710362 -0.646443 1457 0.741553 0.670894 0.000000
-8.262564 -7.710195 -0.642944 1459 0.741553 0.670894 0.000000
-8.263235 -7.710824 -0.639518 1469 0.741553 0.670894 0.000000
-8.263162 -7.710750 -0.636028 1471 0.741553 0.670894 0.000000
-8.262870 -7.710483 -0.632521 1467 0.741553 0.670894 0.000000
-8.263226 -7.710817 -0.629068 1467 0.741553 0.670894 0.000000
-8.263525 -7.711095 -0.625615 1475 0.741553 0.670894 0.000000
-8.262862 -7.710476 -0.622081 1465 0.741553 0.670894 0.000000
-8.263047 -7.710654 -0.618619 1469 0.741553 0.670894 0.000000
-8.263718 -7.711269 -0.615183 1487 0.741553 0.670894 0.000000
-8.263103 -7.710701 -0.611658 1465 0.741553 0.670894 0.000000
-8.262600 -7.710233 -0.608143 1457 0.741553 0.670894 0.000000
-8.262731 -7.710354 -0.604672 1475 0.741553 0.670894 0.000000
-8.263070 -7.710676 -0.601218 1469 0.741553 0.670894 0.000000
-8.262407 -7.710057 -0.597685 1459 0.741553 0.670894 0.000000
-8.262374 -7.710028 -0.594205 1461 0.741553 0.670894 0.000000
-8.262932 -7.710544 -0.590759 1465 0.741553 0.670894 0.000000
-8.263061 -7.710664 -0.587288 1455 0.741553 0.670894 0.000000
-8.263563 -7.711138 -0.583843 1463 0.741553 0.670894 0.000000
-8.263207 -7.710807 -0.580347 1451 0.741553 0.670894 0.000000
-8.262640 -7.710276 -0.576822 1443 0.741553 0.670894 0.000000
-8.262607 -7.710246 -0.573342 1457 0.741553 0.670894 0.000000
-8.263327 -7.710913 -0.569915 1475 0.741553 0.670894 0.000000
-8.263449 -7.711028 -0.566444 1475 0.741553 0.670894 0.000000
-8.263295 -7.710892 -0.562955 1463 0.741553 0.670894 0.000000
-8.263416 -7.711008 -0.559484 1469 0.741553 0.670894 0.000000
-8.263334 -7.710927 -0.555995 1471 0.741553 0.670894 0.000000
-8.263456 -7.711042 -0.552524 1473 0.741553 0.670894 0.000000
-8.262769 -7.710405 -0.549000 1465 0.741553 0.670894 0.000000
-8.262629 -7.710268 -0.545511 1463 0.741553 0.670894 0.000000
-8.263439 -7.711030 -0.542083 1473 0.741553 0.670894 0.000000
-8.263446 -7.711031 -0.538613 1467 0.741553 0.670894 0.000000
-8.262978 -7.710600 -0.535098 1467 0.741553 0.670894 0.000000
-8.262620 -7.710257 -0.531601 1467 0.741553 0.670894 0.000000
-8.263057 -7.710667 -0.528147 1465 0.741553 0.670894 0.000000
-8.263372 -7.710970 -0.524694 1467 0.741553 0.670894 0.000000
-8.263704 -7.711273 -0.521231 1471 0.741553 0.670894 0.000000
-8.263875 -7.711439 -0.517769 1469 0.741553 0.670894 0.000000
-8.263396 -7.710989 -0.514263 1465 0.741553 0.670894 0.000000
-8.262975 -7.710595 -0.510757 1459 0.741553 0.670894 0.000000
-8.262815 -7.710454 -0.507268 1455 0.741553 0.670894 0.000000
-8.262975 -7.710599 -0.503807 1451 0.741553 0.670894 0.000000
-8.263404 -7.711003 -0.500353 1461 0.741553 0.670894 0.000000
-8.263411 -7.711005 -0.496873 1471 0.741553 0.670894 0.000000
-8.263306 -7.710906 -0.493394 1459 0.741553 0.670894 0.000000
-8.263630 -7.711216 -0.489930 1461 0.741553 0.670894 0.000000
-8.263783 -7.711356 -0.486459 1469 0.741553 0.670894 0.000000
-8.263039 -7.710661 -0.482946 1461 0.741553 0.670894 0.000000
-8.263038 -7.710657 -0.479466 1465 0.741553 0.670894 0.000000
-8.263620 -7.711205 -0.476020 1457 0.741553 0.670894 0.000000
-8.263458 -7.711049 -0.472532 1453 0.741553 0.670894 0.000000
-8.263288 -7.710902 -0.469053 1461 0.741553 0.670894 0.000000
-8.263231 -7.710840 -0.465574 1461 0.741553 0.670894 0.000000
-8.263062 -7.710693 -0.462085 1463 0.741553 0.670894 0.000000
-8.263265 -7.710883 -0.458623 1469 0.741553 0.670894 0.000000
-8.263691 -7.711272 -0.455169 1473 0.741553 0.670894 0.000000
-8.263741 -7.711318 -0.451688 1473 0.741553 0.670894 0.000000
-8.263618 -7.711208 -0.448210 1469 0.741553 0.670894 0.000000
-8.263618 -7.711204 -0.444730 1465 0.741553 0.670894 0.000000
-8.263707 -7.711294 -0.441259 1465 0.741553 0.670894 0.000000
-8.263375 -7.710982 -0.437772 1469 0.741553 0.670894 0.000000
-8.262980 -7.710621 -0.434275 1465 0.741553 0.670894 0.000000
-8.262817 -7.710466 -0.430787 1465 0.741553 0.670894 0.000000
-8.262638 -7.710298 -0.427308 1467 0.741553 0.670894 0.000000
-8.262841 -7.710488 -0.423836 1471 0.741553 0.670894 0.000000
-8.263252 -7.710866 -0.420382 1475 0.741553 0.670894 0.000000
-8.263230 -7.710857 -0.416912 1475 0.741553 0.670894 0.000000
-8.262889 -7.710538 -0.413415 1473 0.741553 0.670894 0.000000
-8.262507 -7.710176 -0.409919 1463 0.741553 0.670894 0.000000
-8.262652 -7.710310 -0.406458 1461 0.741553 0.670894 0.000000
-8.263009 -7.710644 -0.402994 1469 0.741553 0.670894 0.000000
-8.262661 -7.710320 -0.399507 1471 0.741553 0.670894 0.000000
-8.262743 -7.710404 -0.396036 1473 0.741553 0.670894 0.000000
-8.263099 -7.710739 -0.392573 1467 0.741553 0.670894 0.000000
-8.263398 -7.711017 -0.389120 1469 0.741553 0.670894 0.000000
-8.263437 -7.711042 -0.385640 1477 0.741553 0.670894 0.000000
-8.263243 -7.710863 -0.382161 1473 0.741553 0.670894 0.000000
-8.263217 -7.710839 -0.378682 1465 0.741553 0.670894 0.000000
-8.263299 -7.710924 -0.375211 1457 0.741553 0.670894 0.000000
-8.263325 -7.710951 -0.371740 1461 0.741553 0.670894 0.000000
-8.263355 -7.710971 -0.368270 1465 0.741553 0.670894 0.000000
-8.263057 -7.710698 -0.364783 1465 0.741553 0.670894 0.000000
-8.263081 -7.710725 -0.361302 1465 0.741553 0.670894 0.000000
-8.263477 -7.711091 -0.357849 1467 0.741553 0.670894 0.000000
-8.263501 -7.711118 -0.354378 1463 0.741553 0.670894 0.000000
-8.263469 -7.711089 -0.350899 1463 0.741553 0.670894 0.000000
-8.263549 -7.711159 -0.347428 1461 0.741553 0.670894 0.000000
-8.263297 -7.710922 -0.343950 1469 0.741553 0.670894 0.000000
-8.262892 -7.710542 -0.340454 1463 0.741553 0.670894 0.000000
-8.263337 -7.710957 -0.337000 1465 0.741553 0.670894 0.000000
-8.263783 -7.711387 -0.333545 1463 0.741553 0.670894 0.000000
-8.263695 -7.711302 -0.330066 1473 0.741553 0.670894 0.000000
-8.263815 -7.711416 -0.326595 1471 0.741553 0.670894 0.000000
-8.263888 -7.711481 -0.323124 1471 0.741553 0.670894 0.000000
-8.263636 -7.711244 -0.319646 1479 0.741553 0.670894 0.000000
-8.263330 -7.710964 -0.316159 1471 0.741553 0.670894 0.000000
-8.263190 -7.710828 -0.312680 1467 0.741553 0.670894 0.000000
-8.262980 -7.710636 -0.309202 1463 0.741553 0.670894 0.000000
-8.263101 -7.710751 -0.305731 1467 0.741553 0.670894 0.000000
-8.264970 -7.707795 -0.695196 1463 0.741553 0.670894 0.000000
-8.265067 -7.707892 -0.691715 1467 0.741553 0.670894 0.000000
-8.265163 -7.707974 -0.688244 1469 0.741553 0.670894 0.000000
-8.265422 -7.708221 -0.684781 1465 0.741553 0.670894 0.000000
-8.266313 -7.709058 -0.681363 1473 0.741553 0.670894 0.000000
-8.266199 -7.708953 -0.677874 1475 0.741553 0.670894 0.000000
-8.265341 -7.708146 -0.674322 1473 0.741553 0.670894 0.000000
-8.264790 -7.707626 -0.670797 1463 0.741553 0.670894 0.000000
-8.265315 -7.708117 -0.667352 1469 0.741553 0.670894 0.000000
-8.265995 -7.708753 -0.663925 1465 0.741553 0.670894 0.000000
-8.265972 -7.708744 -0.660445 1473 0.741553 0.670894 0.000000
-8.265639 -7.708432 -0.656938 1463 0.741553 0.670894 0.000000
-8.265460 -7.708264 -0.653440 1461 0.741553 0.670894 0.000000
-8.265340 -7.708154 -0.649951 1461 0.741553 0.670894 0.000000
-8.265216 -7.708028 -0.646452 1463 0.741553 0.670894 0.000000
-8.265033 -7.707869 -0.642964 1465 0.741553 0.670894 0.000000
-8.265169 -7.707997 -0.639492 1467 0.741553 0.670894 0.000000
-8.265589 -7.708380 -0.636038 1465 0.741553 0.670894 0.000000
-8.265500 -7.708308 -0.632549 1471 0.741553 0.670894 0.000000
-8.265589 -7.708385 -0.629078 1471 0.741553 0.670894 0.000000
-8.265361 -7.708166 -0.625580 1463 0.741553 0.670894 0.000000
-8.264899 -7.707742 -0.622064 1471 0.741553 0.670894 0.000000
-8.265791 -7.708579 -0.618646 1481 0.741553 0.670894 0.000000
-8.265921 -7.708700 -0.615175 1479 0.741553 0.670894 0.000000
-8.265206 -7.708030 -0.611641 1473 0.741553 0.670894 0.000000
-8.265548 -7.708352 -0.608188 1469 0.741553 0.670894 0.000000
-8.265902 -7.708673 -0.604735 1471 0.741553 0.670894 0.000000
-8.266138 -7.708902 -0.601272 1477 0.741553 0.670894 0.000000
-8.266055 -7.708822 -0.597783 1459 0.741553 0.670894 0.000000
-8.265546 -7.708347 -0.594268 1463 0.741553 0.670894 0.000000
-8.265132 -7.707960 -0.590762 1471 0.741553 0.670894 0.000000
-8.264840 -7.707693 -0.587254 1467 0.741553 0.670894 0.000000
-8.264436 -7.707312 -0.583748 1467 0.741553 0.670894 0.000000
-8.264614 -7.707484 -0.580286 1461 0.741553 0.670894 0.000000
-8.264897 -7.707749 -0.576823 1465 0.741553 0.670894 0.000000
-8.264703 -7.707569 -0.573335 1463 0.741553 0.670894 0.000000
-8.265366 -7.708179 -0.569899 1471 0.741553 0.670894 0.000000
-8.265116 -7.707956 -0.566401 1459 0.741553 0.670894 0.000000
-8.264864 -7.707719 -0.562903 1455 0.741553 0.670894 0.000000
-8.265358 -7.708186 -0.559459 1465 0.741553 0.670894 0.000000
-8.265107 -7.707949 -0.555961 1467 0.741553 0.670894 0.000000
-8.264701 -7.707568 -0.552455 1467 0.741553 0.670894 0.000000
-8.264653 -7.707526 -0.548975 1465 0.741553 0.670894 0.000000
-8.264879 -7.707736 -0.545513 1461 0.741553 0.670894 0.000000
-8.265267 -7.708095 -0.542059 1463 0.741553 0.670894 0.000000
-8.265599 -7.708411 -0.538606 1469 0.741553 0.670894 0.000000
-8.266036 -7.708820 -0.535152 1477 0.741553 0.670894 0.000000
-8.266368 -7.709122 -0.531689 1475 0.741553 0.670894 0.000000
-8.266270 -7.709031 -0.528209 1473 0.741553 0.670894 0.000000
-8.265581 -7.708393 -0.524686 1473 0.741553 0.670894 0.000000
-8.264999 -7.707849 -0.521171 1461 0.741553 0.670894 0.000000
-8.265112 -7.707958 -0.517700 1455 0.741553 0.670894 0.000000
-8.265225 -7.708066 -0.514229 1455 0.741553 0.670894 0.000000
-8.265767 -7.708570 -0.510784 1461 0.741553 0.670894 0.000000
-8.266139 -7.708918 -0.507330 1463 0.741553 0.670894 0.000000
-8.265928 -7.708725 -0.503842 1461 0.741553 0.670894 0.000000
-8.265879 -7.708670 -0.500362 1461 0.741553 0.670894 0.000000
-8.265781 -7.708578 -0.496873 1465 0.741553 0.670894 0.000000
-8.265725 -7.708529 -0.493394 1469 0.741553 0.670894 0.000000
-8.265507 -7.708331 -0.489906 1465 0.741553 0.670894 0.000000
-8.265190 -7.708032 -0.486408 1463 0.741553 0.670894 0.000000
-8.264712 -7.707582 -0.482903 1471 0.741553 0.670894 0.000000
-8.265021 -7.707880 -0.479450 1471 0.741553 0.670894 0.000000
-8.265554 -7.708377 -0.476005 1473 0.741553 0.670894 0.000000
-8.265554 -7.708372 -0.472525 1465 0.741553 0.670894 0.000000
-8.265602 -7.708418 -0.469054 1453 0.741553 0.670894 0.000000
-8.265749 -7.708565 -0.465583 1457 0.741553 0.670894 0.000000
-8.265756 -7.708567 -0.462103 1461 0.741553 0.670894 0.000000
-8.265536 -7.708354 -0.458615 1461 0.741553 0.670894 0.000000
-8.265901 -7.708695 -0.455161 1467 0.741553 0.670894 0.000000
-8.266152 -7.708936 -0.451699 1473 0.741553 0.670894 0.000000
-8.265715 -7.708530 -0.448203 1465 0.741553 0.670894 0.000000
-8.265763 -7.708577 -0.444722 1465 0.741553 0.670894 0.000000
-8.265908 -7.708710 -0.441261 1473 0.741553 0.670894 0.000000
-8.265521 -7.708355 -0.437764 1471 0.741553 0.670894 0.000000
-8.265358 -7.708200 -0.434276 1473 0.741553 0.670894 0.000000
-8.264969 -7.707831 -0.430779 1467 0.741553 0.670894 0.000000
-8.264945 -7.707822 -0.427309 1461 0.741553 0.670894 0.000000
-8.265576 -7.708407 -0.423863 1481 0.741553 0.670894 0.000000
-8.265454 -7.708296 -0.420384 1477 0.741553 0.670894 0.000000
-8.265227 -7.708078 -0.416896 1465 0.741553 0.670894 0.000000
-8.265210 -7.708061 -0.413417 1469 0.741553 0.670894 0.000000
-8.265517 -7.708344 -0.409954 1471 0.741553 0.670894 0.000000
-8.265973 -7.708781 -0.406509 1469 0.741553 0.670894 0.000000
-8.265899 -7.708707 -0.403030 1473 0.741553 0.670894 0.000000
-8.265615 -7.708446 -0.399532 1469 0.741553 0.670894 0.000000
-8.265486 -7.708329 -0.396053 1465 0.741553 0.670894 0.000000
-8.265678 -7.708499 -0.392592 1467 0.741553 0.670894 0.000000
-8.266246 -7.709035 -0.389136 1483 0.741553 0.670894 0.000000
-8.265581 -7.708416 -0.385632 1471 0.741553 0.670894 0.000000
-8.265346 -7.708191 -0.382155 1473 0.741553 0.670894 0.000000
-8.265475 -7.708313 -0.378683 1465 0.741553 0.670894 0.000000
-8.265670 -7.708497 -0.375221 1469 0.741553 0.670894 0.000000
-8.266010 -7.708819 -0.371758 1467 0.741553 0.670894 0.000000
-8.265766 -7.708589 -0.368270 1467 0.741553 0.670894 0.000000
-8.265525 -7.708372 -0.364782 1469 0.741553 0.670894 0.000000
-8.265338 -7.708198 -0.361304 1463 0.741553 0.670894 0.000000
-8.265306 -7.708169 -0.357834 1467 0.741553 0.670894 0.000000
-8.265435 -7.708291 -0.354363 1465 0.741553 0.670894 0.000000
-8.265888 -7.708712 -0.350909 1465 0.741553 0.670894 0.000000
-8.266129 -7.708933 -0.347436 1471 0.741553 0.670894 0.000000
-8.265977 -7.708798 -0.343958 1465 0.741553 0.670894 0.000000
-8.265846 -7.708668 -0.340479 1465 0.741553 0.670894 0.000000
-8.265701 -7.708538 -0.337000 1467 0.741553 0.670894 0.000000
-8.265830 -7.708659 -0.333529 1471 0.741553 0.670894 0.000000
-8.265791 -7.708624 -0.330059 1463 0.741553 0.670894 0.000000
-8.265433 -7.708294 -0.326572 1469 0.741553 0.670894 0.000000
-8.265457 -7.708308 -0.323102 1467 0.741553 0.670894 0.000000
-8.266055 -7.708867 -0.319646 1467 0.741553 0.670894 0.000000
-8.266388 -7.709184 -0.316183 1473 0.741553 0.670894 0.000000
-8.266136 -7.708947 -0.312705 1469 0.741553 0.670894 0.000000
-8.265989 -7.708804 -0.309227 1473 0.741553 0.670894 0.000000
-8.265796 -7.708624 -0.305748 1469 0.741553 0.670894 0.000000
-8.267848 -7.705773 -0.695232 1461 0.741553 0.670894 0.000000
-8.267888 -7.705813 -0.691751 1463 0.741553 0.670894 0.000000
-8.268154 -7.706053 -0.688299 1473 0.741553 0.670894 0.000000
-8.267985 -7.705905 -0.684800 1475 0.741553 0.670894 0.000000
-8.267653 -7.705593 -0.681283 1475 0.741553 0.670894 0.000000
-8.267539 -7.705489 -0.677794 1471 0.741553 0.670894 0.000000
-8.267571 -7.705522 -0.674314 1467 0.741553 0.670894 0.000000
-8.267724 -7.705662 -0.670842 1473 0.741553 0.670894 0.000000
-8.267666 -7.705600 -0.667353 1479 0.741553 0.670894 0.000000
-8.267805 -7.705741 -0.663881 1469 0.741553 0.670894 0.000000
-8.268168 -7.706068 -0.660428 1473 0.741553 0.670894 0.000000
-8.268039 -7.705951 -0.656939 1475 0.741553 0.670894 0.000000
-8.267651 -7.705596 -0.653423 1471 0.741553 0.670894 0.000000
-8.267529 -7.705485 -0.649934 1465 0.741553 0.670894 0.000000
-8.267667 -7.705614 -0.646462 1459 0.741553 0.670894 0.000000
-8.267488 -7.705446 -0.642974 1455 0.741553 0.670894 0.000000
-8.267359 -7.705329 -0.639475 1461 0.741553 0.670894 0.000000
-8.267933 -7.705857 -0.636040 1469 0.741553 0.670894 0.000000
-8.268280 -7.706185 -0.632586 1469 0.741553 0.670894 0.000000
-8.267996 -7.705910 -0.629079 1465 0.741553 0.670894 0.000000
-8.267754 -7.705693 -0.625581 1471 0.741553 0.670894 0.000000
-8.267625 -7.705576 -0.622092 1481 0.741553 0.670894 0.000000
-8.267550 -7.705503 -0.618603 1471 0.741553 0.670894 0.000000
-8.267688 -7.705629 -0.615131 1477 0.741553 0.670894 0.000000
-8.267762 -7.705708 -0.611660 1467 0.741553 0.670894 0.000000
-8.267954 -7.705878 -0.608189 1469 0.741553 0.670894 0.000000
-8.267445 -7.705403 -0.604673 1459 0.741553 0.670894 0.000000
-8.267356 -7.705331 -0.601194 1467 0.741553 0.670894 0.000000
-8.267760 -7.705703 -0.597740 1467 0.741553 0.670894 0.000000
-8.267679 -7.705623 -0.594251 1467 0.741553 0.670894 0.000000
-8.267484 -7.705443 -0.590763 1465 0.741553 0.670894 0.000000
-8.267563 -7.705513 -0.587282 1459 0.741553 0.670894 0.000000
-8.267589 -7.705540 -0.583802 1461 0.741553 0.670894 0.000000
-8.268083 -7.706007 -0.580357 1469 0.741553 0.670894 0.000000
-8.268373 -7.706279 -0.576904 1473 0.741553 0.670894 0.000000
-8.268285 -7.706192 -0.573415 1475 0.741553 0.670894 0.000000
-8.268301 -7.706214 -0.569934 1473 0.741553 0.670894 0.000000
-8.268373 -7.706278 -0.566464 1465 0.741553 0.670894 0.000000
-8.268395 -7.706292 -0.562983 1463 0.741553 0.670894 0.000000
-8.267919 -7.705856 -0.559478 1469 0.741553 0.670894 0.000000
-8.267620 -7.705582 -0.555970 1455 0.741553 0.670894 0.000000
-8.267959 -7.705891 -0.552517 1457 0.741553 0.670894 0.000000
-8.268395 -7.706300 -0.549063 1465 0.741553 0.670894 0.000000
-8.268307 -7.706214 -0.545584 1463 0.741553 0.670894 0.000000
-8.268046 -7.705971 -0.542086 1465 0.741553 0.670894 0.000000
-8.268160 -7.706080 -0.538615 1471 0.741553 0.670894 0.000000
-8.268386 -7.706289 -0.535153 1469 0.741553 0.670894 0.000000
-8.268615 -7.706511 -0.531691 1469 0.741553 0.670894 0.000000
-8.268410 -7.706311 -0.528192 1463 0.741553 0.670894 0.000000
-8.268150 -7.706069 -0.524705 1457 0.741553 0.670894 0.000000
-8.267837 -7.705783 -0.521208 1463 0.741553 0.670894 0.000000
-8.267787 -7.705742 -0.517728 1467 0.741553 0.670894 0.000000
-8.268005 -7.705944 -0.514256 1463 0.741553 0.670894 0.000000
-8.268119 -7.706053 -0.510785 1475 0.741553 0.670894 0.000000
-8.267956 -7.705897 -0.507296 1473 0.741553 0.670894 0.000000
-8.267373 -7.705354 -0.503792 1463 0.741553 0.670894 0.000000
-8.267381 -7.705355 -0.500311 1457 0.741553 0.670894 0.000000
-8.268174 -7.706104 -0.496884 1467 0.741553 0.670894 0.000000
-8.268288 -7.706213 -0.493413 1461 0.741553 0.670894 0.000000
-8.267809 -7.705763 -0.489907 1461 0.741553 0.670894 0.000000
-8.267323 -7.705307 -0.486402 1467 0.741553 0.670894 0.000000
-8.267591 -7.705560 -0.482939 1463 0.741553 0.670894 0.000000
-8.268391 -7.706302 -0.479511 1465 0.741553 0.670894 0.000000
-8.268124 -7.706053 -0.476014 1469 0.741553 0.670894 0.000000
-8.267801 -7.705761 -0.472517 1469 0.741553 0.670894 0.000000
-8.267954 -7.705901 -0.469055 1467 0.741553 0.670894 0.000000
-8.267567 -7.705546 -0.465559 1463 0.741553 0.670894 0.000000
-8.267622 -7.705597 -0.462078 1465 0.741553 0.670894 0.000000
-8.267776 -7.705738 -0.458617 1457 0.741553 0.670894 0.000000
-8.267500 -7.705483 -0.455119 1463 0.741553 0.670894 0.000000
-8.267549 -7.705528 -0.451649 1465 0.741553 0.670894 0.000000
-8.267644 -7.705611 -0.448178 1461 0.741553 0.670894 0.000000
-8.267419 -7.705407 -0.444690 1461 0.741553 0.670894 0.000000
-8.267676 -7.705640 -0.441227 1471 0.741553 0.670894 0.000000
-8.267774 -7.705736 -0.437756 1475 0.741553 0.670894 0.000000
-8.268024 -7.705977 -0.434294 1467 0.741553 0.670894 0.000000
-8.268332 -7.706262 -0.430831 1469 0.741553 0.670894 0.000000
-8.267675 -7.705648 -0.427327 1465 0.741553 0.670894 0.000000
-8.267773 -7.705731 -0.423856 1469 0.741553 0.670894 0.000000
-8.268128 -7.706066 -0.420403 1467 0.741553 0.670894 0.000000
-8.267788 -7.705748 -0.416906 1469 0.741553 0.670894 0.000000
-8.267611 -7.705594 -0.413417 1467 0.741553 0.670894 0.000000
-8.267650 -7.705619 -0.409947 1457 0.741553 0.670894 0.000000
-8.267627 -7.705611 -0.406477 1465 0.741553 0.670894 0.000000
-8.267512 -7.705492 -0.402988 1465 0.741553 0.670894 0.000000
