550
-16.772186 -16.240366 -0.666690 889 0.697975 0.716122 0.000000
-16.770704 -16.238928 -0.659454 863 0.697975 0.716122 0.000000
-16.771374 -16.239580 -0.652308 855 0.697975 0.716122 0.000000
-16.772087 -16.240286 -0.645161 849 0.697975 0.716122 0.000000
-16.770647 -16.238895 -0.637934 835 0.697975 0.716122 0.000000
-16.770315 -16.238573 -0.630747 843 0.697975 0.716122 0.000000
-16.771717 -16.239939 -0.623624 849 0.697975 0.716122 0.000000
-16.770430 -16.238688 -0.616396 849 0.697975 0.716122 0.000000
-16.769197 -16.237495 -0.609178 839 0.697975 0.716122 0.000000
-16.770271 -16.238552 -0.602047 825 0.697975 0.716122 0.000000
-16.771030 -16.239283 -0.594900 837 0.697975 0.716122 0.000000
-16.769901 -16.238201 -0.587690 835 0.697975 0.716122 0.000000
-16.770033 -16.238329 -0.580519 825 0.697975 0.716122 0.000000
-16.770256 -16.238546 -0.573356 833 0.697975 0.716122 0.000000
-16.770689 -16.238977 -0.566192 845 0.697975 0.716122 0.000000
-16.770027 -16.238338 -0.558998 841 0.697975 0.716122 0.000000
-16.768623 -16.236977 -0.551782 859 0.697975 0.716122 0.000000
-16.768801 -16.237158 -0.544610 859 0.697975 0.716122 0.000000
-16.769859 -16.238186 -0.537479 861 0.697975 0.716122 0.000000
-16.769825 -16.238150 -0.530299 863 0.697975 0.716122 0.000000
-16.770460 -16.238777 -0.523153 859 0.697975 0.716122 0.000000
-16.772467 -16.240715 -0.516044 839 0.697975 0.716122 0.000000
-16.771889 -16.240173 -0.508849 857 0.697975 0.716122 0.000000
-16.770798 -16.239113 -0.501639 859 0.697975 0.716122 0.000000
-16.771008 -16.239317 -0.494477 873 0.697975 0.716122 0.000000
-16.770069 -16.238407 -0.487276 867 0.697975 0.716122 0.000000
-16.769266 -16.237640 -0.480083 851 0.697975 0.716122 0.000000
-16.769531 -16.237904 -0.472921 835 0.697975 0.716122 0.000000
-16.770002 -16.238367 -0.465756 853 0.697975 0.716122 0.000000
-16.769993 -16.238365 -0.458586 861 0.697975 0.716122 0.000000
-16.770046 -16.238413 -0.451415 843 0.697975 0.716122 0.000000
-16.770512 -16.238871 -0.444261 835 0.697975 0.716122 0.000000
-16.771288 -16.239628 -0.437113 843 0.697975 0.716122 0.000000
-16.771854 -16.240183 -0.429947 855 0.697975 0.716122 0.000000
-16.771206 -16.239555 -0.422763 865 0.697975 0.716122 0.000000
-16.770613 -16.238987 -0.415579 857 0.697975 0.716122 0.000000
-16.769756 -16.238161 -0.408387 835 0.697975 0.716122 0.000000
-16.769426 -16.237839 -0.401210 817 0.697975 0.716122 0.000000
-16.769510 -16.237926 -0.394039 827 0.697975 0.716122 0.000000
-16.769384 -16.237814 -0.386860 845 0.697975 0.716122 0.000000
-16.768993 -16.237440 -0.379683 845 0.697975 0.716122 0.000000
-16.768764 -16.237215 -0.372505 833 0.697975 0.716122 0.000000
-16.769371 -16.237801 -0.365349 845 0.697975 0.716122 0.000000
-16.768606 -16.237064 -0.358167 833 0.697975 0.716122 0.000000
-16.768789 -16.237249 -0.351005 823 0.697975 0.716122 0.000000
-16.769390 -16.237831 -0.343839 825 0.697975 0.716122 0.000000
-16.768990 -16.237452 -0.336662 813 0.697975 0.716122 0.000000
-16.768318 -16.236805 -0.329479 821 0.697975 0.716122 0.000000
-16.768021 -16.236523 -0.322311 821 0.697975 0.716122 0.000000
-16.768923 -16.237411 -0.315152 817 0.697975 0.716122 0.000000
-16.769621 -16.238091 -0.307995 833 0.697975 0.716122 0.000000
-16.768850 -16.237347 -0.300813 825 0.697975 0.716122 0.000000
-16.770277 -16.238726 -0.293669 831 0.697975 0.716122 0.000000
-16.771290 -16.239716 -0.286519 805 0.697975 0.716122 0.000000
-16.769722 -16.238194 -0.279324 827 0.697975 0.716122 0.000000
-16.774818 -16.232496 -0.666588 843 0.697975 0.716122 0.000000
-16.775547 -16.233200 -0.659441 843 0.697975 0.716122 0.000000
-16.775475 -16.233133 -0.652271 819 0.697975 0.716122 0.000000
-16.776928 -16.234545 -0.645147 817 0.697975 0.716122 0.000000
-16.777330 -16.234938 -0.637993 849 0.697975 0.716122 0.000000
-16.775999 -16.233648 -0.630766 833 0.697975 0.716122 0.000000
-16.775404 -16.233067 -0.623571 825 0.697975 0.716122 0.000000
-16.775963 -16.233616 -0.616416 815 0.697975 0.716122 0.000000
-16.775827 -16.233480 -0.609237 845 0.697975 0.716122 0.000000
-16.775547 -16.233212 -0.602049 841 0.697975 0.716122 0.000000
-16.776089 -16.233747 -0.594894 839 0.697975 0.716122 0.000000
-16.776173 -16.233820 -0.587723 845 0.697975 0.716122 0.000000
-16.775246 -16.232935 -0.580522 823 0.697975 0.716122 0.000000
-16.775375 -16.233063 -0.573350 813 0.697975 0.716122 0.000000
-16.776705 -16.234344 -0.566227 827 0.697975 0.716122 0.000000
-16.776562 -16.234217 -0.559048 853 0.697975 0.716122 0.000000
-16.775423 -16.233116 -0.551839 875 0.697975 0.716122 0.000000
-16.775335 -16.233036 -0.544660 853 0.697975 0.716122 0.000000
-16.775824 -16.233500 -0.537505 849 0.697975 0.716122 0.000000
-16.776251 -16.233927 -0.530341 855 0.697975 0.716122 0.000000
-16.777472 -16.235104 -0.523209 865 0.697975 0.716122 0.000000
-16.776432 -16.234100 -0.515999 851 0.697975 0.716122 0.000000
-16.775177 -16.232889 -0.508790 827 0.697975 0.716122 0.000000
-16.776125 -16.233816 -0.501651 853 0.697975 0.716122 0.000000
-16.776810 -16.234467 -0.494494 837 0.697975 0.716122 0.000000
-16.777288 -16.234938 -0.487340 855 0.697975 0.716122 0.000000
-16.776400 -16.234081 -0.480138 835 0.697975 0.716122 0.000000
-16.776134 -16.233826 -0.472960 819 0.697975 0.716122 0.000000
-16.777182 -16.234835 -0.465820 857 0.697975 0.716122 0.000000
-16.777180 -16.234838 -0.458640 861 0.697975 0.716122 0.000000
-16.776695 -16.234373 -0.451454 851 0.697975 0.716122 0.000000
-16.776218 -16.233915 -0.444279 851 0.697975 0.716122 0.000000
-16.775686 -16.233400 -0.437094 865 0.697975 0.716122 0.000000
-16.774939 -16.232677 -0.429901 861 0.697975 0.716122 0.000000
-16.774500 -16.232264 -0.422715 839 0.697975 0.716122 0.000000
-16.774170 -16.231943 -0.415538 837 0.697975 0.716122 0.000000
-16.774630 -16.232395 -0.408383 837 0.697975 0.716122 0.000000
-16.774137 -16.231924 -0.401198 821 0.697975 0.716122 0.000000
-16.774227 -16.232004 -0.394027 819 0.697975 0.716122 0.000000
-16.775940 -16.233671 -0.386900 825 0.697975 0.716122 0.000000
-16.776030 -16.233751 -0.379729 849 0.697975 0.716122 0.000000
-16.775894 -16.233631 -0.372550 861 0.697975 0.716122 0.000000
-16.775240 -16.232998 -0.365366 853 0.697975 0.716122 0.000000
-16.775370 -16.233126 -0.358205 827 0.697975 0.716122 0.000000
-16.775133 -16.232891 -0.351027 815 0.697975 0.716122 0.000000
-16.775211 -16.232973 -0.343856 825 0.697975 0.716122 0.000000
-16.775808 -16.233555 -0.336700 829 0.697975 0.716122 0.000000
-16.775675 -16.233421 -0.329531 827 0.697975 0.716122 0.000000
-16.775425 -16.233192 -0.322353 829 0.697975 0.716122 0.000000
-16.775126 -16.232895 -0.315176 821 0.697975 0.716122 0.000000
-16.775558 -16.233328 -0.308012 813 0.697975 0.716122 0.000000
-16.775572 -16.233343 -0.300841 813 0.697975 0.716122 0.000000
-16.775112 -16.232899 -0.293666 815 0.697975 0.716122 0.000000
-16.774912 -16.232698 -0.286497 785 0.697975 0.716122 0.000000
-16.774134 -16.231949 -0.279315 781 0.697975 0.716122 0.000000
-16.782360 -16.229542 -0.666687 857 0.697975 0.716122 0.000000
-16.783237 -16.230396 -0.659549 869 0.697975 0.716122 0.000000
-16.783493 -16.230639 -0.652386 855 0.697975 0.716122 0.000000
-16.783155 -16.230310 -0.645189 837 0.697975 0.716122 0.000000
-16.782095 -16.229288 -0.637979 855 0.697975 0.716122 0.000000
-16.782389 -16.229576 -0.630816 851 0.697975 0.716122 0.000000
-16.782845 -16.230013 -0.623652 865 0.697975 0.716122 0.000000
-16.783916 -16.231056 -0.616521 861 0.697975 0.716122 0.000000
-16.782537 -16.229715 -0.609294 849 0.697975 0.716122 0.000000
-16.780249 -16.227510 -0.602036 829 0.697975 0.716122 0.000000
-16.780750 -16.227985 -0.594881 825 0.697975 0.716122 0.000000
-16.781504 -16.228724 -0.587734 827 0.697975 0.716122 0.000000
-16.781168 -16.228395 -0.580547 831 0.697975 0.716122 0.000000
-16.780659 -16.227911 -0.573361 843 0.697975 0.716122 0.000000
-16.780369 -16.227623 -0.566174 831 0.697975 0.716122 0.000000
-16.780491 -16.227741 -0.559013 835 0.697975 0.716122 0.000000
-16.781027 -16.228271 -0.551857 827 0.697975 0.716122 0.000000
-16.781631 -16.228846 -0.544701 827 0.697975 0.716122 0.000000
-16.780642 -16.227896 -0.537491 827 0.697975 0.716122 0.000000
-16.779970 -16.227247 -0.530297 847 0.697975 0.716122 0.000000
-16.779818 -16.227102 -0.523128 849 0.697975 0.716122 0.000000
-16.780302 -16.227573 -0.515963 839 0.697975 0.716122 0.000000
-16.782259 -16.229458 -0.508855 837 0.697975 0.716122 0.000000
-16.782312 -16.229521 -0.501684 839 0.697975 0.716122 0.000000
-16.781002 -16.228251 -0.494466 831 0.697975 0.716122 0.000000
-16.780905 -16.228148 -0.487297 823 0.697975 0.716122 0.000000
-16.781855 -16.229074 -0.480148 869 0.697975 0.716122 0.000000
-16.780693 -16.227953 -0.472949 855 0.697975 0.716122 0.000000
-16.779842 -16.227133 -0.465747 837 0.697975 0.716122 0.000000
-16.780943 -16.228199 -0.458606 837 0.697975 0.716122 0.000000
-16.780678 -16.227943 -0.451428 849 0.697975 0.716122 0.000000
-16.780254 -16.227530 -0.444252 815 0.697975 0.716122 0.000000
-16.779188 -16.226501 -0.437052 821 0.697975 0.716122 0.000000
-16.777971 -16.225323 -0.429844 807 0.697975 0.716122 0.000000
-16.778957 -16.226280 -0.422704 805 0.697975 0.716122 0.000000
-16.780052 -16.227341 -0.415563 851 0.697975 0.716122 0.000000
-16.780836 -16.228090 -0.408406 841 0.697975 0.716122 0.000000
-16.780493 -16.227770 -0.401229 821 0.697975 0.716122 0.000000
-16.779850 -16.227150 -0.394045 815 0.697975 0.716122 0.000000
-16.780876 -16.228140 -0.386895 825 0.697975 0.716122 0.000000
-16.781122 -16.228376 -0.379732 847 0.697975 0.716122 0.000000
-16.780989 -16.228256 -0.372553 843 0.697975 0.716122 0.000000
-16.781019 -16.228285 -0.365383 863 0.697975 0.716122 0.000000
-16.780790 -16.228062 -0.358215 841 0.697975 0.716122 0.000000
-16.781708 -16.228947 -0.351056 839 0.697975 0.716122 0.000000
-16.781416 -16.228668 -0.343879 829 0.697975 0.716122 0.000000
-16.779957 -16.227249 -0.336682 815 0.697975 0.716122 0.000000
-16.780191 -16.227488 -0.329520 817 0.697975 0.716122 0.000000
-16.780220 -16.227503 -0.322350 819 0.697975 0.716122 0.000000
-16.780645 -16.227928 -0.315185 819 0.697975 0.716122 0.000000
-16.781399 -16.228653 -0.308028 821 0.697975 0.716122 0.000000
-16.780993 -16.228266 -0.300852 811 0.697975 0.716122 0.000000
-16.780218 -16.227509 -0.293669 795 0.697975 0.716122 0.000000
-16.780022 -16.227324 -0.286491 807 0.697975 0.716122 0.000000
-16.779928 -16.227236 -0.279321 815 0.697975 0.716122 0.000000
-16.785551 -16.222124 -0.666610 833 0.697975 0.716122 0.000000
-16.786917 -16.223438 -0.659487 829 0.697975 0.716122 0.000000
-16.788107 -16.224590 -0.652355 837 0.697975 0.716122 0.000000
-16.787668 -16.224178 -0.645169 837 0.697975 0.716122 0.000000
-16.787500 -16.224005 -0.637991 839 0.697975 0.716122 0.000000
-16.787214 -16.223730 -0.630803 837 0.697975 0.716122 0.000000
-16.787148 -16.223667 -0.623624 843 0.697975 0.716122 0.000000
-16.785498 -16.222073 -0.616389 831 0.697975 0.716122 0.000000
-16.784582 -16.221186 -0.609178 815 0.697975 0.716122 0.000000
-16.785975 -16.222532 -0.602054 831 0.697975 0.716122 0.000000
-16.786526 -16.223076 -0.594909 827 0.697975 0.716122 0.000000
-16.786024 -16.222584 -0.587714 839 0.697975 0.716122 0.000000
-16.786263 -16.222815 -0.580551 837 0.697975 0.716122 0.000000
-16.786852 -16.223389 -0.573395 843 0.697975 0.716122 0.000000
-16.786665 -16.223209 -0.566217 839 0.697975 0.716122 0.000000
-16.786211 -16.222773 -0.559031 851 0.697975 0.716122 0.000000
-16.786543 -16.223093 -0.551868 847 0.697975 0.716122 0.000000
-16.786768 -16.223310 -0.544695 845 0.697975 0.716122 0.000000
-16.787310 -16.223833 -0.537540 831 0.697975 0.716122 0.000000
-16.788273 -16.224771 -0.530401 845 0.697975 0.716122 0.000000
-16.788015 -16.224522 -0.523223 841 0.697975 0.716122 0.000000
-16.786339 -16.222895 -0.515989 863 0.697975 0.716122 0.000000
-16.787247 -16.223774 -0.508850 849 0.697975 0.716122 0.000000
-16.787619 -16.224140 -0.501686 867 0.697975 0.716122 0.000000
-16.786884 -16.223431 -0.494493 839 0.697975 0.716122 0.000000
-16.787357 -16.223894 -0.487338 829 0.697975 0.716122 0.000000
-16.786264 -16.222830 -0.480129 835 0.697975 0.716122 0.000000
-16.785625 -16.222210 -0.472945 841 0.697975 0.716122 0.000000
-16.785515 -16.222111 -0.465766 821 0.697975 0.716122 0.000000
-16.785730 -16.222321 -0.458603 825 0.697975 0.716122 0.000000
-16.786671 -16.223227 -0.451454 837 0.697975 0.716122 0.000000
-16.786457 -16.223015 -0.444276 837 0.697975 0.716122 0.000000
-16.785334 -16.221939 -0.437076 835 0.697975 0.716122 0.000000
-16.786539 -16.223104 -0.429935 833 0.697975 0.716122 0.000000
-16.786995 -16.223543 -0.422780 827 0.697975 0.716122 0.000000
-16.787516 -16.224045 -0.415615 861 0.697975 0.716122 0.000000
-16.787024 -16.223576 -0.408430 847 0.697975 0.716122 0.000000
-16.785698 -16.222294 -0.401232 817 0.697975 0.716122 0.000000
-16.785517 -16.222122 -0.394054 817 0.697975 0.716122 0.000000
-16.786448 -16.223021 -0.386905 821 0.697975 0.716122 0.000000
-16.786842 -16.223406 -0.379741 865 0.697975 0.716122 0.000000
-16.785875 -16.222475 -0.372550 843 0.697975 0.716122 0.000000
-16.787003 -16.223562 -0.365409 817 0.697975 0.716122 0.000000
-16.787451 -16.223993 -0.358244 831 0.697975 0.716122 0.000000
-16.785643 -16.222240 -0.351031 817 0.697975 0.716122 0.000000
-16.784716 -16.221355 -0.343850 815 0.697975 0.716122 0.000000
-16.785110 -16.221729 -0.336686 831 0.697975 0.716122 0.000000
-16.785023 -16.221647 -0.329507 799 0.697975 0.716122 0.000000
-16.785028 -16.221657 -0.322347 809 0.697975 0.716122 0.000000
-16.785954 -16.222549 -0.315188 809 0.697975 0.716122 0.000000
-16.786713 -16.223278 -0.308030 805 0.697975 0.716122 0.000000
-16.786774 -16.223349 -0.300859 811 0.697975 0.716122 0.000000
-16.786312 -16.222902 -0.293684 825 0.697975 0.716122 0.000000
-16.785219 -16.221842 -0.286494 833 0.697975 0.716122 0.000000
-16.784277 -16.220928 -0.279313 827 0.697975 0.716122 0.000000
-16.793095 -16.218948 -0.666701 819 0.697975 0.716122 0.000000
-16.791395 -16.217316 -0.659467 801 0.697975 0.716122 0.000000
-16.792446 -16.218327 -0.652327 819 0.697975 0.716122 0.000000
-16.793953 -16.219784 -0.645212 843 0.697975 0.716122 0.000000
-16.792564 -16.218449 -0.637985 833 0.697975 0.716122 0.000000
-16.790810 -16.216743 -0.630742 811 0.697975 0.716122 0.000000
-16.791471 -16.217390 -0.623595 797 0.697975 0.716122 0.000000
-16.792667 -16.218548 -0.616464 823 0.697975 0.716122 0.000000
-16.791695 -16.217609 -0.609253 833 0.697975 0.716122 0.000000
-16.791512 -16.217422 -0.602074 819 0.697975 0.716122 0.000000
-16.792379 -16.218269 -0.594926 833 0.697975 0.716122 0.000000
-16.792980 -16.218851 -0.587780 847 0.697975 0.716122 0.000000
-16.791639 -16.217556 -0.580553 817 0.697975 0.716122 0.000000
-16.790920 -16.216858 -0.573359 817 0.697975 0.716122 0.000000
-16.791313 -16.217243 -0.566195 827 0.697975 0.716122 0.000000
-16.791227 -16.217163 -0.559026 825 0.697975 0.716122 0.000000
-16.791870 -16.217783 -0.551870 841 0.697975 0.716122 0.000000
-16.791626 -16.217545 -0.544692 861 0.697975 0.716122 0.000000
-16.791641 -16.217562 -0.537521 831 0.697975 0.716122 0.000000
-16.791328 -16.217268 -0.530334 849 0.697975 0.716122 0.000000
-16.792547 -16.218445 -0.523202 845 0.697975 0.716122 0.000000
-16.793152 -16.219019 -0.516046 831 0.697975 0.716122 0.000000
-16.791624 -16.217554 -0.508831 837 0.697975 0.716122 0.000000
-16.790789 -16.216747 -0.501629 843 0.697975 0.716122 0.000000
-16.791216 -16.217159 -0.494464 845 0.697975 0.716122 0.000000
-16.791586 -16.217512 -0.487311 813 0.697975 0.716122 0.000000
-16.791428 -16.217358 -0.480132 825 0.697975 0.716122 0.000000
-16.791958 -16.217880 -0.472977 827 0.697975 0.716122 0.000000
-16.792271 -16.218174 -0.465814 839 0.697975 0.716122 0.000000
-16.791687 -16.217613 -0.458619 849 0.697975 0.716122 0.000000
-16.791523 -16.217455 -0.451451 815 0.697975 0.716122 0.000000
-16.789940 -16.215933 -0.444235 815 0.697975 0.716122 0.000000
-16.788824 -16.214851 -0.437036 829 0.697975 0.716122 0.000000
-16.789759 -16.215763 -0.429887 819 0.697975 0.716122 0.000000
-16.790331 -16.216311 -0.422731 813 0.697975 0.716122 0.000000
-16.790949 -16.216911 -0.415575 825 0.697975 0.716122 0.000000
-16.791307 -16.217253 -0.408412 807 0.697975 0.716122 0.000000
-16.791281 -16.217236 -0.401242 831 0.697975 0.716122 0.000000
-16.791418 -16.217369 -0.394070 805 0.697975 0.716122 0.000000
-16.791348 -16.217302 -0.386901 835 0.697975 0.716122 0.000000
-16.790123 -16.216116 -0.379702 809 0.697975 0.716122 0.000000
-16.790098 -16.216101 -0.372532 829 0.697975 0.716122 0.000000
-16.790657 -16.216635 -0.365377 807 0.697975 0.716122 0.000000
-16.790678 -16.216658 -0.358206 833 0.697975 0.716122 0.000000
-16.790916 -16.216887 -0.351034 839 0.697975 0.716122 0.000000
-16.791357 -16.217310 -0.343879 829 0.697975 0.716122 0.000000
-16.791426 -16.217386 -0.336709 833 0.697975 0.716122 0.000000
-16.791828 -16.217764 -0.329545 819 0.697975 0.716122 0.000000
-16.791273 -16.217230 -0.322360 807 0.697975 0.716122 0.000000
-16.791117 -16.217091 -0.315191 799 0.697975 0.716122 0.000000
-16.790873 -16.216852 -0.308013 789 0.697975 0.716122 0.000000
-16.790466 -16.216454 -0.300837 791 0.697975 0.716122 0.000000
-16.791639 -16.217592 -0.293685 823 0.697975 0.716122 0.000000
-16.791708 -16.217655 -0.286525 839 0.697975 0.716122 0.000000
-16.791393 -16.217358 -0.279347 797 0.697975 0.716122 0.000000
-16.797386 -16.212709 -0.666672 823 0.697975 0.716122 0.000000
-16.799219 -16.214478 -0.659564 829 0.697975 0.716122 0.000000
-16.799841 -16.215078 -0.652418 811 0.697975 0.716122 0.000000
-16.799511 -16.214756 -0.645231 819 0.697975 0.716122 0.000000
-16.799650 -16.214890 -0.638060 815 0.697975 0.716122 0.000000
-16.799376 -16.214626 -0.630872 821 0.697975 0.716122 0.000000
-16.798298 -16.213591 -0.623652 843 0.697975 0.716122 0.000000
-16.797169 -16.212511 -0.616443 825 0.697975 0.716122 0.000000
-16.796934 -16.212278 -0.609255 821 0.697975 0.716122 0.000000
-16.796440 -16.211807 -0.602070 823 0.697975 0.716122 0.000000
-16.796726 -16.212076 -0.594907 825 0.697975 0.716122 0.000000
-16.796967 -16.212307 -0.587734 827 0.697975 0.716122 0.000000
-16.797670 -16.212992 -0.580587 829 0.697975 0.716122 0.000000
-16.797216 -16.212553 -0.573401 815 0.697975 0.716122 0.000000
-16.795963 -16.211355 -0.566183 801 0.697975 0.716122 0.000000
-16.796040 -16.211424 -0.559012 811 0.697975 0.716122 0.000000
-16.796589 -16.211952 -0.551857 811 0.697975 0.716122 0.000000
-16.796812 -16.212170 -0.544695 833 0.697975 0.716122 0.000000
-16.796562 -16.211939 -0.537507 827 0.697975 0.716122 0.000000
-16.797098 -16.212456 -0.530352 829 0.697975 0.716122 0.000000
-16.797163 -16.212517 -0.523181 831 0.697975 0.716122 0.000000
-16.798332 -16.213652 -0.516049 861 0.697975 0.716122 0.000000
-16.798599 -16.213907 -0.508887 841 0.697975 0.716122 0.000000
-16.797129 -16.212488 -0.501670 829 0.697975 0.716122 0.000000
-16.796558 -16.211941 -0.494476 817 0.697975 0.716122 0.000000
-16.796984 -16.212351 -0.487322 841 0.697975 0.716122 0.000000
-16.797667 -16.213017 -0.480165 849 0.697975 0.716122 0.000000
-16.798185 -16.213520 -0.473010 841 0.697975 0.716122 0.000000
-16.797560 -16.212910 -0.465815 829 0.697975 0.716122 0.000000
-16.797239 -16.212595 -0.458638 807 0.697975 0.716122 0.000000
-16.798288 -16.213617 -0.451488 839 0.697975 0.716122 0.000000
-16.798807 -16.214121 -0.444333 859 0.697975 0.716122 0.000000
-16.795902 -16.211313 -0.437081 845 0.697975 0.716122 0.000000
-16.794834 -16.210283 -0.429891 831 0.697975 0.716122 0.000000
-16.796677 -16.212059 -0.422763 827 0.697975 0.716122 0.000000
-16.796402 -16.211796 -0.415585 811 0.697975 0.716122 0.000000
-16.795483 -16.210917 -0.408394 827 0.697975 0.716122 0.000000
-16.794882 -16.210342 -0.401210 823 0.697975 0.716122 0.000000
-16.794870 -16.210327 -0.394040 811 0.697975 0.716122 0.000000
-16.796488 -16.211887 -0.386904 837 0.697975 0.716122 0.000000
-16.797358 -16.212734 -0.379755 809 0.697975 0.716122 0.000000
-16.796070 -16.211485 -0.372547 809 0.697975 0.716122 0.000000
-16.795570 -16.211006 -0.365372 817 0.697975 0.716122 0.000000
-16.795647 -16.211086 -0.358201 813 0.697975 0.716122 0.000000
-16.795620 -16.211056 -0.351031 815 0.697975 0.716122 0.000000
-16.796600 -16.212008 -0.343882 807 0.697975 0.716122 0.000000
-16.797190 -16.212584 -0.336726 805 0.697975 0.716122 0.000000
-16.795319 -16.210768 -0.329514 793 0.697975 0.716122 0.000000
-16.795387 -16.210842 -0.322343 799 0.697975 0.716122 0.000000
-16.796576 -16.211981 -0.315201 799 0.697975 0.716122 0.000000
-16.796371 -16.211790 -0.308023 801 0.697975 0.716122 0.000000
-16.797024 -16.212416 -0.300867 805 0.697975 0.716122 0.000000
-16.797401 -16.212790 -0.293703 823 0.697975 0.716122 0.000000
-16.797253 -16.212643 -0.286534 819 0.697975 0.716122 0.000000
-16.797415 -16.212809 -0.279362 795 0.697975 0.716122 0.000000
-16.802214 -16.206984 -0.666658 813 0.697975 0.716122 0.000000
-16.801939 -16.206720 -0.659471 803 0.697975 0.716122 0.000000
-16.802343 -16.207113 -0.652317 793 0.697975 0.716122 0.000000
-16.803173 -16.207914 -0.645169 817 0.697975 0.716122 0.000000
-16.801949 -16.206730 -0.637950 831 0.697975 0.716122 0.000000
-16.801977 -16.206758 -0.630780 807 0.697975 0.716122 0.000000
-16.802799 -16.207554 -0.623632 809 0.697975 0.716122 0.000000
-16.803093 -16.207842 -0.616469 817 0.697975 0.716122 0.000000
-16.802547 -16.207314 -0.609274 825 0.697975 0.716122 0.000000
-16.802366 -16.207138 -0.602095 803 0.697975 0.716122 0.000000
-16.803017 -16.207766 -0.594949 809 0.697975 0.716122 0.000000
-16.804098 -16.208815 -0.587808 811 0.697975 0.716122 0.000000
-16.803909 -16.208635 -0.580630 821 0.697975 0.716122 0.000000
-16.801563 -16.206373 -0.573372 819 0.697975 0.716122 0.000000
-16.800682 -16.205526 -0.566171 801 0.697975 0.716122 0.000000
-16.801537 -16.206347 -0.559022 807 0.697975 0.716122 0.000000
-16.801931 -16.206734 -0.551868 789 0.697975 0.716122 0.000000
-16.802374 -16.207157 -0.544704 813 0.697975 0.716122 0.000000
-16.802807 -16.207577 -0.537550 805 0.697975 0.716122 0.000000
-16.803293 -16.208040 -0.530395 805 0.697975 0.716122 0.000000
-16.802881 -16.207647 -0.523209 829 0.697975 0.716122 0.000000
-16.802101 -16.206898 -0.516006 839 0.697975 0.716122 0.000000
-16.801949 -16.206751 -0.508827 843 0.697975 0.716122 0.000000
-16.801270 -16.206099 -0.501633 823 0.697975 0.716122 0.000000
-16.803011 -16.207777 -0.494517 823 0.697975 0.716122 0.000000
-16.805391 -16.210079 -0.487414 843 0.697975 0.716122 0.000000
-16.803802 -16.208549 -0.480199 847 0.697975 0.716122 0.000000
-16.801428 -16.206261 -0.472951 833 0.697975 0.716122 0.000000
-16.801119 -16.205956 -0.465774 811 0.697975 0.716122 0.000000
-16.801170 -16.206005 -0.458603 817 0.697975 0.716122 0.000000
-16.801582 -16.206404 -0.451439 831 0.697975 0.716122 0.000000
-16.801836 -16.206648 -0.444277 823 0.697975 0.716122 0.000000
-16.802044 -16.206852 -0.437114 835 0.697975 0.716122 0.000000
-16.802299 -16.207094 -0.429952 817 0.697975 0.716122 0.000000
-16.802181 -16.206987 -0.422773 805 0.697975 0.716122 0.000000
-16.802801 -16.207588 -0.415617 787 0.697975 0.716122 0.000000
-16.802887 -16.207678 -0.408446 801 0.697975 0.716122 0.000000
-16.802183 -16.206991 -0.401262 799 0.697975 0.716122 0.000000
-16.801798 -16.206623 -0.394076 807 0.697975 0.716122 0.000000
-16.801573 -16.206400 -0.386908 835 0.697975 0.716122 0.000000
-16.801756 -16.206585 -0.379736 803 0.697975 0.716122 0.000000
-16.801208 -16.206055 -0.372551 801 0.697975 0.716122 0.000000
-16.800182 -16.205070 -0.365361 793 0.697975 0.716122 0.000000
-16.799845 -16.204744 -0.358184 793 0.697975 0.716122 0.000000
-16.801287 -16.206135 -0.351040 797 0.697975 0.716122 0.000000
-16.801155 -16.206015 -0.343871 785 0.697975 0.716122 0.000000
-16.801386 -16.206238 -0.336708 807 0.697975 0.716122 0.000000
-16.802202 -16.207014 -0.329550 781 0.697975 0.716122 0.000000
-16.801428 -16.206270 -0.322368 779 0.697975 0.716122 0.000000
-16.801395 -16.206247 -0.315198 767 0.697975 0.716122 0.000000
-16.800879 -16.205744 -0.308012 769 0.697975 0.716122 0.000000
-16.800894 -16.205761 -0.300842 785 0.697975 0.716122 0.000000
-16.801125 -16.205984 -0.293680 779 0.697975 0.716122 0.000000
-16.801815 -16.206656 -0.286523 777 0.697975 0.716122 0.000000
-16.801929 -16.206770 -0.279352 809 0.697975 0.716122 0.000000
-16.808710 -16.202986 -0.666718 787 0.697975 0.716122 0.000000
-16.808802 -16.203081 -0.659547 827 0.697975 0.716122 0.000000
-16.809158 -16.203423 -0.652384 811 0.697975 0.716122 0.000000
-16.809031 -16.203295 -0.645205 797 0.697975 0.716122 0.000000
-16.808125 -16.202427 -0.637993 805 0.697975 0.716122 0.000000
-16.809004 -16.203268 -0.630855 819 0.697975 0.716122 0.000000
-16.808828 -16.203102 -0.623666 805 0.697975 0.716122 0.000000
-16.808748 -16.203028 -0.616497 819 0.697975 0.716122 0.000000
-16.808786 -16.203062 -0.609316 811 0.697975 0.716122 0.000000
-16.807650 -16.201975 -0.602107 829 0.697975 0.716122 0.000000
-16.808050 -16.202353 -0.594943 805 0.697975 0.716122 0.000000
-16.808073 -16.202375 -0.587772 797 0.697975 0.716122 0.000000
-16.807932 -16.202251 -0.580594 787 0.697975 0.716122 0.000000
-16.808372 -16.202675 -0.573429 807 0.697975 0.716122 0.000000
-16.808565 -16.202852 -0.566267 801 0.697975 0.716122 0.000000
-16.807573 -16.201902 -0.559056 789 0.697975 0.716122 0.000000
-16.808117 -16.202425 -0.551901 813 0.697975 0.716122 0.000000
-16.808863 -16.203156 -0.544754 799 0.697975 0.716122 0.000000
-16.808090 -16.202412 -0.537561 805 0.697975 0.716122 0.000000
-16.807371 -16.201714 -0.530358 805 0.697975 0.716122 0.000000
-16.807268 -16.201620 -0.523188 829 0.697975 0.716122 0.000000
-16.807600 -16.201941 -0.516025 827 0.697975 0.716122 0.000000
-16.807396 -16.201736 -0.508847 821 0.697975 0.716122 0.000000
-16.807667 -16.202005 -0.501674 827 0.697975 0.716122 0.000000
-16.807556 -16.201906 -0.494505 821 0.697975 0.716122 0.000000
-16.807507 -16.201857 -0.487325 827 0.697975 0.716122 0.000000
-16.809038 -16.203333 -0.480200 817 0.697975 0.716122 0.000000
-16.809145 -16.203440 -0.473029 821 0.697975 0.716122 0.000000
-16.808247 -16.202564 -0.465828 817 0.697975 0.716122 0.000000
-16.807711 -16.202055 -0.458643 801 0.697975 0.716122 0.000000
-16.806709 -16.201084 -0.451442 787 0.697975 0.716122 0.000000
-16.806232 -16.200626 -0.444266 799 0.697975 0.716122 0.000000
-16.806961 -16.201330 -0.437109 831 0.697975 0.716122 0.000000
-16.807421 -16.201782 -0.429955 813 0.697975 0.716122 0.000000
-16.807409 -16.201765 -0.422775 791 0.697975 0.716122 0.000000
-16.807812 -16.202158 -0.415621 801 0.697975 0.716122 0.000000
-16.806908 -16.201292 -0.408419 809 0.697975 0.716122 0.000000
-16.807262 -16.201632 -0.401266 789 0.697975 0.716122 0.000000
-16.807190 -16.201563 -0.394086 785 0.697975 0.716122 0.000000
-16.806435 -16.200832 -0.386903 795 0.697975 0.716122 0.000000
-16.806463 -16.200863 -0.379733 801 0.697975 0.716122 0.000000
-16.806330 -16.200743 -0.372554 781 0.697975 0.716122 0.000000
-16.807364 -16.201738 -0.365404 795 0.697975 0.716122 0.000000
-16.807281 -16.201664 -0.358234 791 0.697975 0.716122 0.000000
-16.807365 -16.201738 -0.351063 803 0.697975 0.716122 0.000000
-16.807131 -16.201506 -0.343895 789 0.697975 0.716122 0.000000
-16.806871 -16.201269 -0.336718 789 0.697975 0.716122 0.000000
-16.806793 -16.201195 -0.329548 785 0.697975 0.716122 0.000000
-16.807133 -16.201521 -0.322385 801 0.697975 0.716122 0.000000
-16.808094 -16.202446 -0.315225 795 0.697975 0.716122 0.000000
-16.807751 -16.202110 -0.308049 765 0.697975 0.716122 0.000000
-16.807188 -16.201571 -0.300874 757 0.697975 0.716122 0.000000
-16.805723 -16.200159 -0.293678 763 0.697975 0.716122 0.000000
-16.805727 -16.200167 -0.286507 767 0.697975 0.716122 0.000000
-16.806311 -16.200735 -0.279342 783 0.697975 0.716122 0.000000
-16.813766 -16.197828 -0.666721 813 0.697975 0.716122 0.000000
-16.814608 -16.198637 -0.659582 807 0.697975 0.716122 0.000000
-16.814114 -16.198166 -0.652387 799 0.697975 0.716122 0.000000
-16.815100 -16.199123 -0.645247 819 0.697975 0.716122 0.000000
-16.815348 -16.199360 -0.638085 815 0.697975 0.716122 0.000000
-16.815065 -16.199091 -0.630897 811 0.697975 0.716122 0.000000
-16.814728 -16.198763 -0.623710 789 0.697975 0.716122 0.000000
-16.813868 -16.197935 -0.616498 799 0.697975 0.716122 0.000000
-16.814110 -16.198166 -0.609336 771 0.697975 0.716122 0.000000
-16.814713 -16.198753 -0.602180 787 0.697975 0.716122 0.000000
-16.815218 -16.199242 -0.595025 797 0.697975 0.716122 0.000000
-16.815083 -16.199110 -0.587846 833 0.697975 0.716122 0.000000
-16.814209 -16.198267 -0.580634 823 0.697975 0.716122 0.000000
-16.814230 -16.198290 -0.573464 829 0.697975 0.716122 0.000000
-16.814144 -16.198208 -0.566284 795 0.697975 0.716122 0.000000
-16.813160 -16.197264 -0.559084 805 0.697975 0.716122 0.000000
-16.812387 -16.196520 -0.551881 803 0.697975 0.716122 0.000000
-16.812674 -16.196789 -0.544718 789 0.697975 0.716122 0.000000
-16.813791 -16.197870 -0.537577 793 0.697975 0.716122 0.000000
-16.814333 -16.198391 -0.530422 817 0.697975 0.716122 0.000000
-16.813499 -16.197582 -0.523220 781 0.697975 0.716122 0.000000
-16.812300 -16.196432 -0.516011 789 0.697975 0.716122 0.000000
-16.811356 -16.195520 -0.508810 787 0.697975 0.716122 0.000000
-16.812202 -16.196348 -0.501671 763 0.697975 0.716122 0.000000
-16.813997 -16.198071 -0.494544 801 0.697975 0.716122 0.000000
-16.814213 -16.198282 -0.487382 823 0.697975 0.716122 0.000000
-16.813799 -16.197874 -0.480196 797 0.697975 0.716122 0.000000
-16.813431 -16.197521 -0.473009 805 0.697975 0.716122 0.000000
-16.812370 -16.196510 -0.465809 803 0.697975 0.716122 0.000000
-16.811621 -16.195786 -0.458616 811 0.697975 0.716122 0.000000
-16.812616 -16.196751 -0.451476 807 0.697975 0.716122 0.000000
-16.813990 -16.198071 -0.444333 823 0.697975 0.716122 0.000000
-16.813389 -16.197496 -0.437149 843 0.697975 0.716122 0.000000
-16.812227 -16.196377 -0.429950 799 0.697975 0.716122 0.000000
-16.812536 -16.196665 -0.422786 805 0.697975 0.716122 0.000000
-16.812456 -16.196604 -0.415607 809 0.697975 0.716122 0.000000
-16.812290 -16.196430 -0.408438 813 0.697975 0.716122 0.000000
-16.813276 -16.197390 -0.401289 831 0.697975 0.716122 0.000000
-16.812941 -16.197060 -0.394112 847 0.697975 0.716122 0.000000
-16.812603 -16.196745 -0.386925 811 0.697975 0.716122 0.000000
-16.812851 -16.196983 -0.379762 799 0.697975 0.716122 0.000000
-16.812145 -16.196297 -0.372579 767 0.697975 0.716122 0.000000
-16.812489 -16.196638 -0.365415 777 0.697975 0.716122 0.000000
-16.813032 -16.197161 -0.358250 765 0.697975 0.716122 0.000000
-16.812904 -16.197033 -0.351081 763 0.697975 0.716122 0.000000
-16.812771 -16.196913 -0.343902 789 0.697975 0.716122 0.000000
-16.812643 -16.196785 -0.336733 785 0.697975 0.716122 0.000000
-16.812658 -16.196802 -0.329563 793 0.697975 0.716122 0.000000
-16.813107 -16.197231 -0.322398 797 0.697975 0.716122 0.000000
-16.813274 -16.197392 -0.315237 793 0.697975 0.716122 0.000000
-16.812870 -16.197006 -0.308050 807 0.697975 0.716122 0.000000
-16.811302 -16.195496 -0.300855 785 0.697975 0.716122 0.000000
-16.810841 -16.195051 -0.293679 785 0.697975 0.716122 0.000000
-16.810270 -16.194502 -0.286495 755 0.697975 0.716122 0.000000
-16.811646 -16.195837 -0.279351 779 0.697975 0.716122 0.000000
-16.818356 -16.192749 -0.666715 817 0.697975 0.716122 0.000000
-16.819567 -16.193907 -0.659593 815 0.697975 0.716122 0.000000
-16.819284 -16.193636 -0.652406 791 0.697975 0.716122 0.000000
-16.818169 -16.192570 -0.645186 785 0.697975 0.716122 0.000000
-16.817616 -16.192034 -0.637991 793 0.697975 0.716122 0.000000
-16.818975 -16.193342 -0.630868 809 0.697975 0.716122 0.000000
-16.818691 -16.193071 -0.623680 789 0.697975 0.716122 0.000000
-16.818722 -16.193102 -0.616510 813 0.697975 0.716122 0.000000
-16.819387 -16.193739 -0.609354 783 0.697975 0.716122 0.000000
-16.819160 -16.193516 -0.602176 787 0.697975 0.716122 0.000000
-16.818014 -16.192419 -0.594956 765 0.697975 0.716122 0.000000
-16.818207 -16.192598 -0.587784 785 0.697975 0.716122 0.000000
-16.819231 -16.193590 -0.580654 813 0.697975 0.716122 0.000000
-16.817564 -16.191980 -0.573420 791 0.697975 0.716122 0.000000
-16.816580 -16.191036 -0.566209 769 0.697975 0.716122 0.000000
-16.816813 -16.191261 -0.559047 775 0.697975 0.716122 0.000000
-16.816982 -16.191433 -0.551875 799 0.697975 0.716122 0.000000
-16.818054 -16.192461 -0.544745 807 0.697975 0.716122 0.000000
-16.817701 -16.192120 -0.537558 803 0.697975 0.716122 0.000000
-16.817078 -16.191526 -0.530364 797 0.697975 0.716122 0.000000
-16.817356 -16.191788 -0.523201 793 0.697975 0.716122 0.000000
-16.817413 -16.191843 -0.516030 811 0.697975 0.716122 0.000000
-16.817739 -16.192160 -0.508867 809 0.697975 0.716122 0.000000
-16.818321 -16.192726 -0.501711 783 0.697975 0.716122 0.000000
-16.817223 -16.191671 -0.494501 781 0.697975 0.716122 0.000000
-16.816061 -16.190550 -0.487302 789 0.697975 0.716122 0.000000
-16.815910 -16.190405 -0.480124 801 0.697975 0.716122 0.000000
-16.816105 -16.190596 -0.472962 795 0.697975 0.716122 0.000000
-16.816645 -16.191118 -0.465796 773 0.697975 0.716122 0.000000
-16.817430 -16.191868 -0.458649 785 0.697975 0.716122 0.000000
-16.818422 -16.192831 -0.451509 791 0.697975 0.716122 0.000000
-16.818474 -16.192879 -0.444338 805 0.697975 0.716122 0.000000
-16.817516 -16.191954 -0.437137 807 0.697975 0.716122 0.000000
-16.817398 -16.191847 -0.429958 801 0.697975 0.716122 0.000000
-16.818390 -16.192797 -0.422819 781 0.697975 0.716122 0.000000
-16.819221 -16.193598 -0.415660 791 0.697975 0.716122 0.000000
-16.817360 -16.191805 -0.408448 781 0.697975 0.716122 0.000000
-16.817076 -16.191534 -0.401271 809 0.697975 0.716122 0.000000
-16.817848 -16.192286 -0.394113 817 0.697975 0.716122 0.000000
-16.817518 -16.191963 -0.386936 777 0.697975 0.716122 0.000000
-16.817497 -16.191938 -0.379766 801 0.697975 0.716122 0.000000
-16.817163 -16.191626 -0.372589 755 0.697975 0.716122 0.000000
-16.816975 -16.191446 -0.365411 765 0.697975 0.716122 0.000000
-16.817633 -16.192080 -0.358254 777 0.697975 0.716122 0.000000
-16.818239 -16.192667 -0.351098 795 0.697975 0.716122 0.000000
-16.818104 -16.192533 -0.343919 809 0.697975 0.716122 0.000000
-16.817173 -16.191631 -0.336728 795 0.697975 0.716122 0.000000
-16.817041 -16.191511 -0.329559 791 0.697975 0.716122 0.000000
-16.817957 -16.192385 -0.322410 791 0.697975 0.716122 0.000000
-16.817551 -16.191998 -0.315224 783 0.697975 0.716122 0.000000
-16.817415 -16.191864 -0.308055 755 0.697975 0.716122 0.000000
-16.818113 -16.192543 -0.300898 761 0.697975 0.716122 0.000000
-16.817753 -16.192196 -0.293721 763 0.697975 0.716122 0.000000
-16.818289 -16.192711 -0.286556 771 0.697975 0.716122 0.000000
-16.818193 -16.192623 -0.279387 765 0.697975 0.716122 0.000000
