774
-10.300105 -9.955173 -0.599285 305 0.721096 0.692835 0.000000
-10.299553 -9.954635 -0.594850 317 0.721096 0.692835 0.000000
-10.299680 -9.954762 -0.590449 329 0.721096 0.692835 0.000000
-10.300221 -9.955284 -0.586073 305 0.721096 0.692835 0.000000
-10.298770 -9.953887 -0.581587 305 0.721096 0.692835 0.000000
-10.297950 -9.953092 -0.577135 297 0.721096 0.692835 0.000000
-10.299345 -9.954431 -0.572811 323 0.721096 0.692835 0.000000
-10.299664 -9.954750 -0.568418 301 0.721096 0.692835 0.000000
-10.299738 -9.954820 -0.564017 337 0.721096 0.692835 0.000000
-10.299646 -9.954724 -0.559608 331 0.721096 0.692835 0.000000
-10.299034 -9.954133 -0.555174 343 0.721096 0.692835 0.000000
-10.298206 -9.953331 -0.550722 335 0.721096 0.692835 0.000000
-10.298902 -9.954010 -0.546355 315 0.721096 0.692835 0.000000
-10.300121 -9.955186 -0.542013 311 0.721096 0.692835 0.000000
-10.300133 -9.955204 -0.537603 357 0.721096 0.692835 0.000000
-10.300198 -9.955266 -0.533202 343 0.721096 0.692835 0.000000
-10.299838 -9.954917 -0.528786 329 0.721096 0.692835 0.000000
-10.298903 -9.954011 -0.524334 293 0.721096 0.692835 0.000000
-10.298282 -9.953411 -0.519890 283 0.721096 0.692835 0.000000
-10.298231 -9.953363 -0.515491 309 0.721096 0.692835 0.000000
-10.297772 -9.952915 -0.511065 307 0.721096 0.692835 0.000000
-10.298507 -9.953627 -0.506698 317 0.721096 0.692835 0.000000
-10.299302 -9.954390 -0.502330 325 0.721096 0.692835 0.000000
-10.299351 -9.954439 -0.497930 317 0.721096 0.692835 0.000000
-10.300408 -9.955466 -0.493569 309 0.721096 0.692835 0.000000
-10.300350 -9.955411 -0.489170 315 0.721096 0.692835 0.000000
-10.298729 -9.953843 -0.484685 313 0.721096 0.692835 0.000000
-10.298039 -9.953172 -0.480252 307 0.721096 0.692835 0.000000
-10.299083 -9.954185 -0.475902 321 0.721096 0.692835 0.000000
-10.299609 -9.954694 -0.471516 319 0.721096 0.692835 0.000000
-10.298441 -9.953564 -0.467068 305 0.721096 0.692835 0.000000
-10.298698 -9.953817 -0.462675 309 0.721096 0.692835 0.000000
-10.300171 -9.955235 -0.458331 317 0.721096 0.692835 0.000000
-10.299274 -9.954362 -0.453889 325 0.721096 0.692835 0.000000
-10.299214 -9.954307 -0.449480 339 0.721096 0.692835 0.000000
-10.298518 -9.953629 -0.445056 309 0.721096 0.692835 0.000000
-10.298090 -9.953221 -0.440630 327 0.721096 0.692835 0.000000
-10.298918 -9.954024 -0.436262 323 0.721096 0.692835 0.000000
-10.297750 -9.952895 -0.431813 323 0.721096 0.692835 0.000000
-10.297630 -9.952774 -0.427404 345 0.721096 0.692835 0.000000
-10.298773 -9.953885 -0.423053 341 0.721096 0.692835 0.000000
-10.298605 -9.953712 -0.418645 307 0.721096 0.692835 0.000000
-10.298109 -9.953246 -0.414219 299 0.721096 0.692835 0.000000
-10.298042 -9.953170 -0.409820 301 0.721096 0.692835 0.000000
-10.297391 -9.952545 -0.405386 319 0.721096 0.692835 0.000000
-10.297694 -9.952838 -0.401003 297 0.721096 0.692835 0.000000
-10.299083 -9.954185 -0.396650 293 0.721096 0.692835 0.000000
-10.297962 -9.953094 -0.392210 287 0.721096 0.692835 0.000000
-10.298104 -9.953236 -0.387809 309 0.721096 0.692835 0.000000
-10.298969 -9.954072 -0.383440 331 0.721096 0.692835 0.000000
-10.298264 -9.953388 -0.379017 319 0.721096 0.692835 0.000000
-10.298759 -9.953870 -0.374632 319 0.721096 0.692835 0.000000
-10.299841 -9.954916 -0.370272 325 0.721096 0.692835 0.000000
-10.299873 -9.954938 -0.365872 329 0.721096 0.692835 0.000000
-10.299268 -9.954353 -0.361447 319 0.721096 0.692835 0.000000
-10.298026 -9.953159 -0.356999 305 0.721096 0.692835 0.000000
-10.298043 -9.953169 -0.352599 289 0.721096 0.692835 0.000000
-10.298230 -9.953350 -0.348207 281 0.721096 0.692835 0.000000
-10.297618 -9.952758 -0.343783 301 0.721096 0.692835 0.000000
-10.298162 -9.953294 -0.339407 325 0.721096 0.692835 0.000000
-10.298187 -9.953309 -0.335007 299 0.721096 0.692835 0.000000
-10.297565 -9.952711 -0.330583 293 0.721096 0.692835 0.000000
-10.297692 -9.952840 -0.326191 275 0.721096 0.692835 0.000000
-10.299019 -9.954121 -0.321829 313 0.721096 0.692835 0.000000
-10.299454 -9.954537 -0.317444 325 0.721096 0.692835 0.000000
-10.299418 -9.954502 -0.313035 311 0.721096 0.692835 0.000000
-10.299059 -9.954151 -0.308628 281 0.721096 0.692835 0.000000
-10.297762 -9.952899 -0.304190 321 0.721096 0.692835 0.000000
-10.296933 -9.952097 -0.299768 283 0.721096 0.692835 0.000000
-10.304352 -9.953193 -0.687517 285 0.721096 0.692835 0.000000
-10.303439 -9.952320 -0.683056 275 0.721096 0.692835 0.000000
-10.303065 -9.951957 -0.678619 289 0.721096 0.692835 0.000000
-10.301744 -9.950684 -0.674122 285 0.721096 0.692835 0.000000
-10.300786 -9.949758 -0.669661 269 0.721096 0.692835 0.000000
-10.300773 -9.949742 -0.665251 271 0.721096 0.692835 0.000000
-10.301862 -9.950794 -0.660910 279 0.721096 0.692835 0.000000
-10.303211 -9.952095 -0.656588 277 0.721096 0.692835 0.000000
-10.302729 -9.951627 -0.652152 309 0.721096 0.692835 0.000000
-10.301970 -9.950897 -0.647699 279 0.721096 0.692835 0.000000
-10.301112 -9.950069 -0.643237 269 0.721096 0.692835 0.000000
-10.300891 -9.949850 -0.638809 259 0.721096 0.692835 0.000000
-10.301649 -9.950581 -0.634452 279 0.721096 0.692835 0.000000
-10.303214 -9.952091 -0.630137 269 0.721096 0.692835 0.000000
-10.302979 -9.951874 -0.625719 277 0.721096 0.692835 0.000000
-10.301212 -9.950168 -0.621206 301 0.721096 0.692835 0.000000
-10.301669 -9.950603 -0.616831 287 0.721096 0.692835 0.000000
-10.301748 -9.950680 -0.612430 287 0.721096 0.692835 0.000000
-10.302405 -9.951312 -0.608054 313 0.721096 0.692835 0.000000
-10.302901 -9.951795 -0.603679 311 0.721096 0.692835 0.000000
-10.302666 -9.951562 -0.599261 329 0.721096 0.692835 0.000000
-10.303377 -9.952254 -0.594894 335 0.721096 0.692835 0.000000
-10.303401 -9.952271 -0.590484 305 0.721096 0.692835 0.000000
-10.303374 -9.952242 -0.586084 313 0.721096 0.692835 0.000000
-10.303017 -9.951906 -0.581658 315 0.721096 0.692835 0.000000
-10.302727 -9.951629 -0.577230 335 0.721096 0.692835 0.000000
-10.302060 -9.950977 -0.572797 317 0.721096 0.692835 0.000000
-10.302133 -9.951046 -0.568386 307 0.721096 0.692835 0.000000
-10.301466 -9.950410 -0.563952 317 0.721096 0.692835 0.000000
-10.300799 -9.949758 -0.559508 317 0.721096 0.692835 0.000000
-10.300910 -9.949873 -0.555107 317 0.721096 0.692835 0.000000
-10.301775 -9.950709 -0.550749 339 0.721096 0.692835 0.000000
-10.302996 -9.951885 -0.546407 317 0.721096 0.692835 0.000000
-10.302481 -9.951377 -0.541982 305 0.721096 0.692835 0.000000
-10.302231 -9.951147 -0.537564 307 0.721096 0.692835 0.000000
-10.302504 -9.951399 -0.533171 305 0.721096 0.692835 0.000000
-10.302983 -9.951868 -0.528787 309 0.721096 0.692835 0.000000
-10.303525 -9.952389 -0.524411 327 0.721096 0.692835 0.000000
-10.303266 -9.952137 -0.519994 313 0.721096 0.692835 0.000000
-10.302639 -9.951532 -0.515560 329 0.721096 0.692835 0.000000
-10.300694 -9.949664 -0.511058 307 0.721096 0.692835 0.000000
-10.301074 -9.950022 -0.506674 297 0.721096 0.692835 0.000000
-10.302710 -9.951604 -0.502349 323 0.721096 0.692835 0.000000
-10.302975 -9.951863 -0.497956 321 0.721096 0.692835 0.000000
-10.303285 -9.952163 -0.493563 313 0.721096 0.692835 0.000000
-10.302865 -9.951760 -0.489147 319 0.721096 0.692835 0.000000
-10.301766 -9.950689 -0.484687 305 0.721096 0.692835 0.000000
-10.302185 -9.951093 -0.480303 295 0.721096 0.692835 0.000000
-10.302966 -9.951857 -0.475936 309 0.721096 0.692835 0.000000
-10.302076 -9.950990 -0.471494 289 0.721096 0.692835 0.000000
-10.301117 -9.950064 -0.467053 283 0.721096 0.692835 0.000000
-10.301691 -9.950624 -0.462667 325 0.721096 0.692835 0.000000
-10.301270 -9.950209 -0.458251 309 0.721096 0.692835 0.000000
-10.301519 -9.950456 -0.453859 329 0.721096 0.692835 0.000000
-10.302507 -9.951409 -0.449499 323 0.721096 0.692835 0.000000
-10.301663 -9.950594 -0.445057 327 0.721096 0.692835 0.000000
-10.301083 -9.950028 -0.440633 339 0.721096 0.692835 0.000000
-10.301477 -9.950412 -0.436249 321 0.721096 0.692835 0.000000
-10.301949 -9.950861 -0.431864 341 0.721096 0.692835 0.000000
-10.302198 -9.951107 -0.427472 339 0.721096 0.692835 0.000000
-10.301502 -9.950431 -0.423038 319 0.721096 0.692835 0.000000
-10.301844 -9.950768 -0.418655 337 0.721096 0.692835 0.000000
-10.302354 -9.951264 -0.414270 331 0.721096 0.692835 0.000000
-10.302080 -9.950999 -0.409862 307 0.721096 0.692835 0.000000
-10.301483 -9.950420 -0.405428 339 0.721096 0.692835 0.000000
-10.301831 -9.950751 -0.401045 301 0.721096 0.692835 0.000000
-10.301973 -9.950893 -0.396643 303 0.721096 0.692835 0.000000
-10.301062 -9.950006 -0.392212 305 0.721096 0.692835 0.000000
-10.299825 -9.948818 -0.387763 291 0.721096 0.692835 0.000000
-10.300906 -9.949864 -0.383403 311 0.721096 0.692835 0.000000
-10.302778 -9.951662 -0.379065 307 0.721096 0.692835 0.000000
-10.302281 -9.951180 -0.374650 339 0.721096 0.692835 0.000000
-10.301569 -9.950491 -0.370227 347 0.721096 0.692835 0.000000
-10.302227 -9.951138 -0.365850 317 0.721096 0.692835 0.000000
-10.302152 -9.951056 -0.361441 331 0.721096 0.692835 0.000000
-10.301317 -9.950261 -0.357009 313 0.721096 0.692835 0.000000
-10.300819 -9.949780 -0.352593 313 0.721096 0.692835 0.000000
-10.300476 -9.949444 -0.348186 295 0.721096 0.692835 0.000000
-10.301341 -9.950279 -0.343808 321 0.721096 0.692835 0.000000
-10.301775 -9.950696 -0.339424 305 0.721096 0.692835 0.000000
-10.301439 -9.950365 -0.335017 293 0.721096 0.692835 0.000000
-10.302189 -9.951090 -0.330640 285 0.721096 0.692835 0.000000
-10.301516 -9.950446 -0.326216 303 0.721096 0.692835 0.000000
-10.301218 -9.950162 -0.321809 297 0.721096 0.692835 0.000000
-10.301760 -9.950683 -0.317423 289 0.721096 0.692835 0.000000
-10.301300 -9.950235 -0.313008 303 0.721096 0.692835 0.000000
-10.301205 -9.950148 -0.308608 279 0.721096 0.692835 0.000000
-10.301115 -9.950053 -0.304199 295 0.721096 0.692835 0.000000
-10.301441 -9.950378 -0.299806 307 0.721096 0.692835 0.000000
-10.305870 -9.948459 -0.687424 297 0.721096 0.692835 0.000000
-10.306081 -9.948659 -0.683022 293 0.721096 0.692835 0.000000
-10.305846 -9.948441 -0.678604 303 0.721096 0.692835 0.000000
-10.306526 -9.949093 -0.674238 313 0.721096 0.692835 0.000000
-10.306568 -9.949136 -0.669827 297 0.721096 0.692835 0.000000
-10.305709 -9.948308 -0.665366 293 0.721096 0.692835 0.000000
-10.304281 -9.946931 -0.660869 281 0.721096 0.692835 0.000000
-10.303268 -9.945945 -0.656399 257 0.721096 0.692835 0.000000
-10.304087 -9.946741 -0.652041 277 0.721096 0.692835 0.000000
-10.305282 -9.947885 -0.647709 281 0.721096 0.692835 0.000000
-10.305531 -9.948132 -0.643317 287 0.721096 0.692835 0.000000
-10.306035 -9.948620 -0.638942 273 0.721096 0.692835 0.000000
-10.306861 -9.949409 -0.634584 265 0.721096 0.692835 0.000000
-10.306948 -9.949492 -0.630183 289 0.721096 0.692835 0.000000
-10.306498 -9.949064 -0.625747 301 0.721096 0.692835 0.000000
-10.306377 -9.948943 -0.621328 271 0.721096 0.692835 0.000000
-10.306127 -9.948712 -0.616910 291 0.721096 0.692835 0.000000
-10.306107 -9.948689 -0.612500 289 0.721096 0.692835 0.000000
-10.305925 -9.948517 -0.608082 329 0.721096 0.692835 0.000000
-10.305005 -9.947623 -0.603621 303 0.721096 0.692835 0.000000
-10.305084 -9.947700 -0.599220 325 0.721096 0.692835 0.000000
-10.305003 -9.947624 -0.594811 315 0.721096 0.692835 0.000000
-10.304976 -9.947596 -0.590401 331 0.721096 0.692835 0.000000
-10.305101 -9.947710 -0.586010 299 0.721096 0.692835 0.000000
-10.305959 -9.948540 -0.581651 335 0.721096 0.692835 0.000000
-10.305830 -9.948413 -0.577232 361 0.721096 0.692835 0.000000
-10.306110 -9.948686 -0.572850 309 0.721096 0.692835 0.000000
-10.305967 -9.948545 -0.568431 297 0.721096 0.692835 0.000000
-10.304200 -9.946839 -0.563928 285 0.721096 0.692835 0.000000
-10.304688 -9.947315 -0.559553 301 0.721096 0.692835 0.000000
-10.304330 -9.946965 -0.555126 327 0.721096 0.692835 0.000000
-10.304086 -9.946727 -0.550708 307 0.721096 0.692835 0.000000
-10.305252 -9.947859 -0.546367 325 0.721096 0.692835 0.000000
-10.306316 -9.948890 -0.542017 343 0.721096 0.692835 0.000000
-10.305689 -9.948285 -0.537583 337 0.721096 0.692835 0.000000
-10.306023 -9.948603 -0.533189 329 0.721096 0.692835 0.000000
-10.306557 -9.949118 -0.528814 349 0.721096 0.692835 0.000000
-10.305936 -9.948520 -0.524380 333 0.721096 0.692835 0.000000
-10.305308 -9.947915 -0.519946 327 0.721096 0.692835 0.000000
-10.304957 -9.947572 -0.515519 319 0.721096 0.692835 0.000000
-10.305276 -9.947876 -0.511136 333 0.721096 0.692835 0.000000
-10.305541 -9.948135 -0.506743 315 0.721096 0.692835 0.000000
-10.305066 -9.947674 -0.502318 321 0.721096 0.692835 0.000000
-10.304546 -9.947175 -0.497883 337 0.721096 0.692835 0.000000
-10.305281 -9.947886 -0.493516 345 0.721096 0.692835 0.000000
-10.306284 -9.948853 -0.489156 359 0.721096 0.692835 0.000000
-10.306710 -9.949263 -0.484772 321 0.721096 0.692835 0.000000
-10.306652 -9.949207 -0.480372 331 0.721096 0.692835 0.000000
-10.306016 -9.948595 -0.475938 355 0.721096 0.692835 0.000000
-10.305326 -9.947926 -0.471505 341 0.721096 0.692835 0.000000
-10.305645 -9.948230 -0.467112 315 0.721096 0.692835 0.000000
-10.305794 -9.948379 -0.462720 311 0.721096 0.692835 0.000000
-10.305689 -9.948271 -0.458311 305 0.721096 0.692835 0.000000
-10.305939 -9.948517 -0.453918 327 0.721096 0.692835 0.000000
-10.306134 -9.948704 -0.449526 327 0.721096 0.692835 0.000000
-10.305975 -9.948552 -0.445108 333 0.721096 0.692835 0.000000
-10.305432 -9.948031 -0.440683 349 0.721096 0.692835 0.000000
-10.305051 -9.947661 -0.436266 313 0.721096 0.692835 0.000000
-10.305045 -9.947653 -0.431866 309 0.721096 0.692835 0.000000
-10.304926 -9.947532 -0.427457 319 0.721096 0.692835 0.000000
-10.304075 -9.946712 -0.423025 323 0.721096 0.692835 0.000000
-10.304216 -9.946853 -0.418624 325 0.721096 0.692835 0.000000
-10.304511 -9.947139 -0.414231 297 0.721096 0.692835 0.000000
-10.306700 -9.949258 -0.409920 337 0.721096 0.692835 0.000000
-10.306996 -9.949543 -0.405527 339 0.721096 0.692835 0.000000
-10.304929 -9.947543 -0.401047 329 0.721096 0.692835 0.000000
-10.305493 -9.948084 -0.396661 287 0.721096 0.692835 0.000000
-10.305097 -9.947701 -0.392245 285 0.721096 0.692835 0.000000
-10.303821 -9.946467 -0.387797 295 0.721096 0.692835 0.000000
-10.305172 -9.947768 -0.383444 309 0.721096 0.692835 0.000000
-10.306137 -9.948702 -0.379085 323 0.721096 0.692835 0.000000
-10.306116 -9.948679 -0.374675 343 0.721096 0.692835 0.000000
-10.305774 -9.948358 -0.370268 339 0.721096 0.692835 0.000000
-10.305223 -9.947817 -0.365843 349 0.721096 0.692835 0.000000
-10.305187 -9.947796 -0.361443 345 0.721096 0.692835 0.000000
-10.305213 -9.947812 -0.357043 305 0.721096 0.692835 0.000000
-10.305240 -9.947844 -0.352643 291 0.721096 0.692835 0.000000
-10.305157 -9.947754 -0.348233 323 0.721096 0.692835 0.000000
-10.305545 -9.948132 -0.343850 327 0.721096 0.692835 0.000000
-10.306033 -9.948606 -0.339465 317 0.721096 0.692835 0.000000
-10.306421 -9.948985 -0.335071 323 0.721096 0.692835 0.000000
-10.305809 -9.948393 -0.330657 323 0.721096 0.692835 0.000000
-10.304719 -9.947342 -0.326217 313 0.721096 0.692835 0.000000
-10.303531 -9.946195 -0.321788 301 0.721096 0.692835 0.000000
-10.304494 -9.947114 -0.317409 335 0.721096 0.692835 0.000000
-10.305876 -9.948455 -0.313056 349 0.721096 0.692835 0.000000
-10.304731 -9.947345 -0.308617 345 0.721096 0.692835 0.000000
-10.304265 -9.946904 -0.304201 327 0.721096 0.692835 0.000000
-10.304591 -9.947215 -0.299818 319 0.721096 0.692835 0.000000
-10.308594 -9.945117 -0.687409 291 0.721096 0.692835 0.000000
-10.307683 -9.944244 -0.682938 299 0.721096 0.692835 0.000000
-10.308055 -9.944594 -0.678554 279 0.721096 0.692835 0.000000
-10.308403 -9.944940 -0.674170 271 0.721096 0.692835 0.000000
-10.307815 -9.944367 -0.669726 295 0.721096 0.692835 0.000000
-10.308425 -9.944960 -0.665350 317 0.721096 0.692835 0.000000
-10.308628 -9.945154 -0.660958 277 0.721096 0.692835 0.000000
-10.308716 -9.945236 -0.656557 285 0.721096 0.692835 0.000000
-10.308910 -9.945424 -0.652155 285 0.721096 0.692835 0.000000
-10.309261 -9.945769 -0.647772 299 0.721096 0.692835 0.000000
-10.309449 -9.945950 -0.643380 297 0.721096 0.692835 0.000000
-10.309335 -9.945835 -0.638961 285 0.721096 0.692835 0.000000
-10.309731 -9.946219 -0.634577 301 0.721096 0.692835 0.000000
-10.309503 -9.945993 -0.630159 273 0.721096 0.692835 0.000000
-10.309114 -9.945619 -0.625723 283 0.721096 0.692835 0.000000
-10.309509 -9.946001 -0.621339 291 0.721096 0.692835 0.000000
-10.307805 -9.944363 -0.616835 309 0.721096 0.692835 0.000000
-10.305676 -9.942296 -0.612305 289 0.721096 0.692835 0.000000
-10.307380 -9.943952 -0.607999 283 0.721096 0.692835 0.000000
-10.309567 -9.946056 -0.603718 295 0.721096 0.692835 0.000000
-10.310117 -9.946585 -0.599342 309 0.721096 0.692835 0.000000
-10.309351 -9.945848 -0.594890 349 0.721096 0.692835 0.000000
-10.307754 -9.944301 -0.590395 331 0.721096 0.692835 0.000000
-10.307186 -9.943761 -0.585960 335 0.721096 0.692835 0.000000
-10.307735 -9.944288 -0.581585 337 0.721096 0.692835 0.000000
-10.307909 -9.944456 -0.577193 329 0.721096 0.692835 0.000000
-10.307713 -9.944271 -0.572775 309 0.721096 0.692835 0.000000
-10.307215 -9.943790 -0.568339 299 0.721096 0.692835 0.000000
-10.307440 -9.944003 -0.563947 317 0.721096 0.692835 0.000000
-10.308082 -9.944623 -0.559581 313 0.721096 0.692835 0.000000
-10.307631 -9.944181 -0.555145 293 0.721096 0.692835 0.000000
-10.308019 -9.944558 -0.550761 293 0.721096 0.692835 0.000000
-10.308761 -9.945276 -0.546394 319 0.721096 0.692835 0.000000
-10.307833 -9.944376 -0.541943 309 0.721096 0.692835 0.000000
-10.307898 -9.944439 -0.537542 309 0.721096 0.692835 0.000000
-10.308532 -9.945052 -0.533166 311 0.721096 0.692835 0.000000
-10.308288 -9.944814 -0.528758 325 0.721096 0.692835 0.000000
-10.308284 -9.944818 -0.524348 303 0.721096 0.692835 0.000000
-10.308033 -9.944573 -0.519930 307 0.721096 0.692835 0.000000
-10.308397 -9.944931 -0.515547 311 0.721096 0.692835 0.000000
-10.308623 -9.945145 -0.511155 331 0.721096 0.692835 0.000000
-10.309419 -9.945907 -0.506787 325 0.721096 0.692835 0.000000
-10.309792 -9.946272 -0.502403 325 0.721096 0.692835 0.000000
-10.308471 -9.945000 -0.497936 327 0.721096 0.692835 0.000000
-10.308636 -9.945160 -0.493534 321 0.721096 0.692835 0.000000
-10.309585 -9.946067 -0.489175 313 0.721096 0.692835 0.000000
-10.308265 -9.944795 -0.484717 331 0.721096 0.692835 0.000000
-10.308267 -9.944792 -0.480307 315 0.721096 0.692835 0.000000
-10.308156 -9.944692 -0.475898 301 0.721096 0.692835 0.000000
-10.307997 -9.944538 -0.471490 297 0.721096 0.692835 0.000000
-10.309100 -9.945602 -0.467139 331 0.721096 0.692835 0.000000
-10.307618 -9.944166 -0.462673 347 0.721096 0.692835 0.000000
-10.307767 -9.944314 -0.458272 319 0.721096 0.692835 0.000000
-10.307492 -9.944049 -0.453854 335 0.721096 0.692835 0.000000
-10.306911 -9.943484 -0.449429 327 0.721096 0.692835 0.000000
-10.308054 -9.944594 -0.445078 361 0.721096 0.692835 0.000000
-10.307364 -9.943925 -0.440645 335 0.721096 0.692835 0.000000
-10.307405 -9.943967 -0.436244 327 0.721096 0.692835 0.000000
-10.308601 -9.945124 -0.431893 335 0.721096 0.692835 0.000000
-10.308541 -9.945055 -0.427483 339 0.721096 0.692835 0.000000
-10.307999 -9.944535 -0.423059 311 0.721096 0.692835 0.000000
-10.307409 -9.943963 -0.418634 327 0.721096 0.692835 0.000000
-10.307551 -9.944105 -0.414243 321 0.721096 0.692835 0.000000
-10.308008 -9.944540 -0.409858 321 0.721096 0.692835 0.000000
-10.307458 -9.944016 -0.405433 297 0.721096 0.692835 0.000000
-10.307753 -9.944300 -0.401040 301 0.721096 0.692835 0.000000
-10.308209 -9.944736 -0.396656 311 0.721096 0.692835 0.000000
-10.308290 -9.944812 -0.392255 307 0.721096 0.692835 0.000000
-10.309009 -9.945511 -0.387878 289 0.721096 0.692835 0.000000
-10.308720 -9.945232 -0.383471 315 0.721096 0.692835 0.000000
-10.306752 -9.943331 -0.378999 293 0.721096 0.692835 0.000000
-10.305516 -9.942144 -0.374551 277 0.721096 0.692835 0.000000
-10.306643 -9.943228 -0.370190 309 0.721096 0.692835 0.000000
-10.307931 -9.944476 -0.365838 295 0.721096 0.692835 0.000000
-10.308172 -9.944703 -0.361445 327 0.721096 0.692835 0.000000
-10.308191 -9.944727 -0.357045 299 0.721096 0.692835 0.000000
-10.308271 -9.944803 -0.352644 299 0.721096 0.692835 0.000000
-10.306867 -9.943445 -0.348197 317 0.721096 0.692835 0.000000
-10.307530 -9.944083 -0.343821 287 0.721096 0.692835 0.000000
-10.308919 -9.945416 -0.339458 309 0.721096 0.692835 0.000000
-10.308407 -9.944923 -0.335043 311 0.721096 0.692835 0.000000
-10.309003 -9.945503 -0.330667 309 0.721096 0.692835 0.000000
-10.308228 -9.944761 -0.326234 301 0.721096 0.692835 0.000000
-10.307931 -9.944463 -0.321827 315 0.721096 0.692835 0.000000
-10.308681 -9.945188 -0.317449 307 0.721096 0.692835 0.000000
-10.308700 -9.945211 -0.313049 337 0.721096 0.692835 0.000000
-10.308924 -9.945425 -0.308657 333 0.721096 0.692835 0.000000
-10.308559 -9.945083 -0.304240 353 0.721096 0.692835 0.000000
-10.307993 -9.944530 -0.299826 323 0.721096 0.692835 0.000000
-10.312149 -9.942482 -0.687446 289 0.721096 0.692835 0.000000
-10.311874 -9.942218 -0.683019 271 0.721096 0.692835 0.000000
-10.311769 -9.942110 -0.678599 269 0.721096 0.692835 0.000000
-10.313273 -9.943568 -0.674285 297 0.721096 0.692835 0.000000
-10.311260 -9.941628 -0.669754 305 0.721096 0.692835 0.000000
-10.310363 -9.940753 -0.665283 279 0.721096 0.692835 0.000000
-10.311290 -9.941655 -0.660934 267 0.721096 0.692835 0.000000
-10.311699 -9.942037 -0.656550 303 0.721096 0.692835 0.000000
-10.311733 -9.942075 -0.652149 311 0.721096 0.692835 0.000000
-10.311607 -9.941961 -0.647730 281 0.721096 0.692835 0.000000
-10.311331 -9.941683 -0.643313 289 0.721096 0.692835 0.000000
-10.310259 -9.940660 -0.638833 283 0.721096 0.692835 0.000000
-10.309922 -9.940329 -0.634406 271 0.721096 0.692835 0.000000
-10.311433 -9.941779 -0.630092 247 0.721096 0.692835 0.000000
-10.312253 -9.942576 -0.625734 295 0.721096 0.692835 0.000000
-10.311232 -9.941585 -0.621263 283 0.721096 0.692835 0.000000
-10.310619 -9.941007 -0.616829 285 0.721096 0.692835 0.000000
-10.310553 -9.940930 -0.612410 267 0.721096 0.692835 0.000000
-10.311049 -9.941413 -0.608035 257 0.721096 0.692835 0.000000
-10.311290 -9.941640 -0.603642 285 0.721096 0.692835 0.000000
-10.310623 -9.941002 -0.599199 309 0.721096 0.692835 0.000000
-10.310434 -9.940823 -0.594780 323 0.721096 0.692835 0.000000
-10.311629 -9.941965 -0.590449 301 0.721096 0.692835 0.000000
-10.311849 -9.942186 -0.586057 303 0.721096 0.692835 0.000000
-10.311822 -9.942158 -0.581647 323 0.721096 0.692835 0.000000
-10.310369 -9.940760 -0.577160 321 0.721096 0.692835 0.000000
-10.309333 -9.939755 -0.572700 285 0.721096 0.692835 0.000000
-10.309667 -9.940074 -0.568307 285 0.721096 0.692835 0.000000
-10.308948 -9.939390 -0.563864 281 0.721096 0.692835 0.000000
-10.310227 -9.940619 -0.559531 301 0.721096 0.692835 0.000000
-10.311186 -9.941546 -0.555182 307 0.721096 0.692835 0.000000
-10.311419 -9.941766 -0.550780 297 0.721096 0.692835 0.000000
-10.311476 -9.941823 -0.546379 301 0.721096 0.692835 0.000000
-10.312124 -9.942448 -0.542013 317 0.721096 0.692835 0.000000
-10.312389 -9.942708 -0.537620 323 0.721096 0.692835 0.000000
-10.312201 -9.942514 -0.533202 333 0.721096 0.692835 0.000000
-10.312841 -9.943134 -0.528836 337 0.721096 0.692835 0.000000
-10.312214 -9.942529 -0.524392 319 0.721096 0.692835 0.000000
-10.311641 -9.941984 -0.519967 333 0.721096 0.692835 0.000000
-10.311019 -9.941385 -0.515533 317 0.721096 0.692835 0.000000
-10.311292 -9.941637 -0.511140 343 0.721096 0.692835 0.000000
-10.312188 -9.942513 -0.506771 359 0.721096 0.692835 0.000000
-10.312399 -9.942714 -0.502379 307 0.721096 0.692835 0.000000
-10.312248 -9.942567 -0.497971 325 0.721096 0.692835 0.000000
-10.311612 -9.941955 -0.493537 321 0.721096 0.692835 0.000000
-10.311723 -9.942057 -0.489136 361 0.721096 0.692835 0.000000
-10.311826 -9.942152 -0.484734 363 0.721096 0.692835 0.000000
-10.311297 -9.941647 -0.480309 321 0.721096 0.692835 0.000000
-10.311347 -9.941695 -0.475909 315 0.721096 0.692835 0.000000
-10.311558 -9.941896 -0.471517 337 0.721096 0.692835 0.000000
-10.310968 -9.941338 -0.467092 327 0.721096 0.692835 0.000000
-10.310595 -9.940974 -0.462666 319 0.721096 0.692835 0.000000
-10.310859 -9.941220 -0.458273 311 0.721096 0.692835 0.000000
-10.311793 -9.942128 -0.453914 353 0.721096 0.692835 0.000000
-10.311735 -9.942073 -0.449504 345 0.721096 0.692835 0.000000
-10.310776 -9.941147 -0.445063 347 0.721096 0.692835 0.000000
-10.310502 -9.940883 -0.440656 327 0.721096 0.692835 0.000000
-10.310913 -9.941279 -0.436262 361 0.721096 0.692835 0.000000
-10.310693 -9.941061 -0.431854 339 0.721096 0.692835 0.000000
-10.310319 -9.940698 -0.427437 317 0.721096 0.692835 0.000000
-10.310876 -9.941233 -0.423062 321 0.721096 0.692835 0.000000
-10.311333 -9.941681 -0.418678 345 0.721096 0.692835 0.000000
-10.311051 -9.941411 -0.414260 323 0.721096 0.692835 0.000000
-10.311932 -9.942260 -0.409892 297 0.721096 0.692835 0.000000
-10.311973 -9.942289 -0.405491 319 0.721096 0.692835 0.000000
-10.310783 -9.941154 -0.401042 311 0.721096 0.692835 0.000000
-10.310555 -9.940929 -0.396634 331 0.721096 0.692835 0.000000
-10.311328 -9.941672 -0.392257 319 0.721096 0.692835 0.000000
-10.311624 -9.941958 -0.387874 311 0.721096 0.692835 0.000000
-10.310488 -9.940869 -0.383425 311 0.721096 0.692835 0.000000
-10.311360 -9.941711 -0.379056 303 0.721096 0.692835 0.000000
-10.311810 -9.942141 -0.374672 315 0.721096 0.692835 0.000000
-10.310836 -9.941202 -0.370231 333 0.721096 0.692835 0.000000
-10.310184 -9.940563 -0.365807 313 0.721096 0.692835 0.000000
-10.309364 -9.939782 -0.361385 315 0.721096 0.692835 0.000000
-10.309176 -9.939604 -0.356977 289 0.721096 0.692835 0.000000
-10.310410 -9.940792 -0.352615 289 0.721096 0.692835 0.000000
-10.310958 -9.941319 -0.348239 289 0.721096 0.692835 0.000000
-10.310661 -9.941035 -0.343822 307 0.721096 0.692835 0.000000
-10.311372 -9.941713 -0.339445 323 0.721096 0.692835 0.000000
-10.311861 -9.942190 -0.335061 337 0.721096 0.692835 0.000000
-10.310146 -9.940530 -0.330607 335 0.721096 0.692835 0.000000
-10.309942 -9.940337 -0.326199 335 0.721096 0.692835 0.000000
-10.311492 -9.941834 -0.321844 301 0.721096 0.692835 0.000000
-10.312465 -9.942761 -0.317474 331 0.721096 0.692835 0.000000
-10.312099 -9.942419 -0.313058 325 0.721096 0.692835 0.000000
-10.311270 -9.941617 -0.308636 355 0.721096 0.692835 0.000000
-10.310390 -9.940771 -0.304214 337 0.721096 0.692835 0.000000
-10.310139 -9.940525 -0.299806 335 0.721096 0.692835 0.000000
-10.313756 -9.937968 -0.687352 267 0.721096 0.692835 0.000000
-10.314966 -9.939124 -0.683020 275 0.721096 0.692835 0.000000
-10.315685 -9.939822 -0.678663 271 0.721096 0.692835 0.000000
-10.315827 -9.939963 -0.674262 289 0.721096 0.692835 0.000000
-10.315453 -9.939601 -0.669825 307 0.721096 0.692835 0.000000
-10.315232 -9.939383 -0.665407 311 0.721096 0.692835 0.000000
-10.315005 -9.939170 -0.660979 267 0.721096 0.692835 0.000000
-10.314724 -9.938899 -0.656552 241 0.721096 0.692835 0.000000
-10.315343 -9.939499 -0.652186 285 0.721096 0.692835 0.000000
-10.314746 -9.938920 -0.647741 285 0.721096 0.692835 0.000000
-10.314416 -9.938597 -0.643314 285 0.721096 0.692835 0.000000
-10.314812 -9.938980 -0.638930 253 0.721096 0.692835 0.000000
-10.315216 -9.939371 -0.634547 259 0.721096 0.692835 0.000000
-10.314874 -9.939048 -0.630120 253 0.721096 0.692835 0.000000
-10.314384 -9.938573 -0.625684 255 0.721096 0.692835 0.000000
-10.313987 -9.938191 -0.621258 259 0.721096 0.692835 0.000000
-10.314075 -9.938273 -0.616857 289 0.721096 0.692835 0.000000
-10.314732 -9.938907 -0.612481 281 0.721096 0.692835 0.000000
-10.315334 -9.939493 -0.608115 293 0.721096 0.692835 0.000000
-10.315207 -9.939366 -0.603696 287 0.721096 0.692835 0.000000
-10.314602 -9.938780 -0.599262 305 0.721096 0.692835 0.000000
-10.314936 -9.939113 -0.594868 319 0.721096 0.692835 0.000000
-10.315062 -9.939226 -0.590467 317 0.721096 0.692835 0.000000
-10.314504 -9.938695 -0.586032 325 0.721096 0.692835 0.000000
-10.314953 -9.939124 -0.581648 325 0.721096 0.692835 0.000000
-10.314071 -9.938276 -0.577196 311 0.721096 0.692835 0.000000
-10.313727 -9.937940 -0.572769 291 0.721096 0.692835 0.000000
-10.314162 -9.938370 -0.568395 285 0.721096 0.692835 0.000000
-10.314287 -9.938485 -0.563994 299 0.721096 0.692835 0.000000
-10.314199 -9.938404 -0.559584 297 0.721096 0.692835 0.000000
-10.313533 -9.937753 -0.555141 307 0.721096 0.692835 0.000000
-10.313750 -9.937973 -0.550748 309 0.721096 0.692835 0.000000
-10.313708 -9.937932 -0.546349 327 0.721096 0.692835 0.000000
-10.314458 -9.938656 -0.541981 313 0.721096 0.692835 0.000000
-10.315314 -9.939471 -0.537613 325 0.721096 0.692835 0.000000
-10.314956 -9.939135 -0.533197 317 0.721096 0.692835 0.000000
-10.314705 -9.938890 -0.528779 299 0.721096 0.692835 0.000000
-10.314547 -9.938737 -0.524360 283 0.721096 0.692835 0.000000
-10.314558 -9.938755 -0.519960 291 0.721096 0.692835 0.000000
-10.314568 -9.938758 -0.515560 319 0.721096 0.692835 0.000000
-10.313563 -9.937793 -0.511099 329 0.721096 0.692835 0.000000
-10.313313 -9.937549 -0.506692 313 0.721096 0.692835 0.000000
-10.315208 -9.939380 -0.502373 309 0.721096 0.692835 0.000000
-10.315211 -9.939376 -0.497973 315 0.721096 0.692835 0.000000
-10.313684 -9.937914 -0.493498 311 0.721096 0.692835 0.000000
-10.314479 -9.938678 -0.489130 339 0.721096 0.692835 0.000000
-10.314682 -9.938870 -0.484738 321 0.721096 0.692835 0.000000
-10.314054 -9.938267 -0.480304 305 0.721096 0.692835 0.000000
-10.314842 -9.939023 -0.475936 315 0.721096 0.692835 0.000000
-10.314254 -9.938465 -0.471502 323 0.721096 0.692835 0.000000
-10.313509 -9.937748 -0.467069 313 0.721096 0.692835 0.000000
-10.313981 -9.938197 -0.462684 327 0.721096 0.692835 0.000000
-10.313924 -9.938143 -0.458285 323 0.721096 0.692835 0.000000
-10.314127 -9.938335 -0.453883 331 0.721096 0.692835 0.000000
-10.314006 -9.938229 -0.449484 331 0.721096 0.692835 0.000000
-10.313585 -9.937813 -0.445058 329 0.721096 0.692835 0.000000
-10.313990 -9.938204 -0.440674 333 0.721096 0.692835 0.000000
-10.314247 -9.938457 -0.436281 319 0.721096 0.692835 0.000000
-10.314441 -9.938643 -0.431889 325 0.721096 0.692835 0.000000
-10.314322 -9.938537 -0.427480 335 0.721096 0.692835 0.000000
-10.313833 -9.938064 -0.423055 327 0.721096 0.692835 0.000000
-10.314506 -9.938708 -0.418678 325 0.721096 0.692835 0.000000
-10.314331 -9.938542 -0.414270 325 0.721096 0.692835 0.000000
-10.314688 -9.938879 -0.409886 317 0.721096 0.692835 0.000000
-10.315030 -9.939219 -0.405493 333 0.721096 0.692835 0.000000
-10.314750 -9.938948 -0.401085 329 0.721096 0.692835 0.000000
-10.314943 -9.939135 -0.396683 319 0.721096 0.692835 0.000000
-10.314715 -9.938909 -0.392275 293 0.721096 0.692835 0.000000
-10.314573 -9.938783 -0.387867 309 0.721096 0.692835 0.000000
-10.314085 -9.938309 -0.383451 325 0.721096 0.692835 0.000000
-10.314163 -9.938385 -0.379050 343 0.721096 0.692835 0.000000
-10.314820 -9.939017 -0.374674 289 0.721096 0.692835 0.000000
-10.314956 -9.939153 -0.370273 295 0.721096 0.692835 0.000000
-10.314881 -9.939071 -0.365873 327 0.721096 0.692835 0.000000
-10.315530 -9.939696 -0.361497 329 0.721096 0.692835 0.000000
-10.314764 -9.938961 -0.357064 305 0.721096 0.692835 0.000000
-10.313998 -9.938226 -0.352641 293 0.721096 0.692835 0.000000
-10.314116 -9.938348 -0.348240 279 0.721096 0.692835 0.000000
-10.313834 -9.938063 -0.343833 303 0.721096 0.692835 0.000000
-10.313692 -9.937937 -0.339424 307 0.721096 0.692835 0.000000
-10.314334 -9.938557 -0.335048 311 0.721096 0.692835 0.000000
-10.314783 -9.938985 -0.330653 313 0.721096 0.692835 0.000000
-10.314747 -9.938951 -0.326254 323 0.721096 0.692835 0.000000
-10.315081 -9.939268 -0.321860 317 0.721096 0.692835 0.000000
-10.314307 -9.938526 -0.317438 297 0.721096 0.692835 0.000000
-10.313526 -9.937778 -0.313015 301 0.721096 0.692835 0.000000
-10.313699 -9.937945 -0.308623 307 0.721096 0.692835 0.000000
-10.312870 -9.937143 -0.304201 289 0.721096 0.692835 0.000000
-10.313189 -9.937449 -0.299808 303 0.721096 0.692835 0.000000
-10.317174 -9.935046 -0.687371 275 0.721096 0.692835 0.000000
-10.317385 -9.935246 -0.682979 281 0.721096 0.692835 0.000000
-10.317741 -9.935584 -0.678595 251 0.721096 0.692835 0.000000
-10.318306 -9.936125 -0.674220 249 0.721096 0.692835 0.000000
-10.318925 -9.936724 -0.669854 281 0.721096 0.692835 0.000000
-10.318234 -9.936054 -0.665400 261 0.721096 0.692835 0.000000
-10.317369 -9.935234 -0.660938 275 0.721096 0.692835 0.000000
-10.317464 -9.935322 -0.656537 267 0.721096 0.692835 0.000000
-10.318129 -9.935962 -0.652171 277 0.721096 0.692835 0.000000
-10.318116 -9.935945 -0.647761 315 0.721096 0.692835 0.000000
-10.318143 -9.935976 -0.643351 293 0.721096 0.692835 0.000000
-10.317445 -9.935299 -0.638907 257 0.721096 0.692835 0.000000
-10.316116 -9.934019 -0.634420 269 0.721096 0.692835 0.000000
-10.316358 -9.934245 -0.630027 279 0.721096 0.692835 0.000000
-10.316284 -9.934177 -0.625618 257 0.721096 0.692835 0.000000
-10.316572 -9.934457 -0.621225 277 0.721096 0.692835 0.000000
-10.317029 -9.934892 -0.616841 293 0.721096 0.692835 0.000000
-10.316886 -9.934767 -0.612432 301 0.721096 0.692835 0.000000
-10.317765 -9.935600 -0.608073 305 0.721096 0.692835 0.000000
-10.317992 -9.935828 -0.603681 329 0.721096 0.692835 0.000000
-10.317604 -9.935452 -0.599255 295 0.721096 0.692835 0.000000
-10.317367 -9.935221 -0.594837 311 0.721096 0.692835 0.000000
-10.316971 -9.934837 -0.590401 301 0.721096 0.692835 0.000000
-10.317989 -9.935818 -0.586061 311 0.721096 0.692835 0.000000
-10.318216 -9.936044 -0.581658 309 0.721096 0.692835 0.000000
-10.316549 -9.934437 -0.577164 301 0.721096 0.692835 0.000000
-10.316790 -9.934664 -0.572772 295 0.721096 0.692835 0.000000
-10.317594 -9.935432 -0.568414 275 0.721096 0.692835 0.000000
-10.317974 -9.935804 -0.564030 301 0.721096 0.692835 0.000000
-10.318099 -9.935920 -0.559629 313 0.721096 0.692835 0.000000
-10.317641 -9.935485 -0.555193 297 0.721096 0.692835 0.000000
-10.317236 -9.935096 -0.550767 307 0.721096 0.692835 0.000000
-10.317509 -9.935363 -0.546384 315 0.721096 0.692835 0.000000
-10.318412 -9.936230 -0.542026 309 0.721096 0.692835 0.000000
-10.318430 -9.936240 -0.537615 309 0.721096 0.692835 0.000000
-10.318071 -9.935890 -0.533199 297 0.721096 0.692835 0.000000
-10.317658 -9.935495 -0.528773 299 0.721096 0.692835 0.000000
-10.317878 -9.935716 -0.524380 323 0.721096 0.692835 0.000000
-10.319142 -9.936931 -0.520038 353 0.721096 0.692835 0.000000
-10.318791 -9.936587 -0.515611 299 0.721096 0.692835 0.000000
-10.318063 -9.935884 -0.511168 339 0.721096 0.692835 0.000000
-10.318750 -9.936543 -0.506802 309 0.721096 0.692835 0.000000
-10.318747 -9.936547 -0.502392 327 0.721096 0.692835 0.000000
-10.317911 -9.935740 -0.497949 343 0.721096 0.692835 0.000000
-10.318021 -9.935840 -0.493548 323 0.721096 0.692835 0.000000
-10.318486 -9.936296 -0.489174 345 0.721096 0.692835 0.000000
-10.318173 -9.935986 -0.484757 333 0.721096 0.692835 0.000000
-10.317277 -9.935126 -0.480305 289 0.721096 0.692835 0.000000
-10.317326 -9.935176 -0.475904 327 0.721096 0.692835 0.000000
-10.317222 -9.935069 -0.471495 333 0.721096 0.692835 0.000000
-10.317162 -9.935013 -0.467096 331 0.721096 0.692835 0.000000
-10.317736 -9.935575 -0.462720 327 0.721096 0.692835 0.000000
-10.317677 -9.935519 -0.458311 299 0.721096 0.692835 0.000000
-10.317565 -9.935406 -0.453902 337 0.721096 0.692835 0.000000
-10.317451 -9.935290 -0.449493 339 0.721096 0.692835 0.000000
-10.316963 -9.934831 -0.445067 323 0.721096 0.692835 0.000000
-10.317535 -9.935378 -0.440692 331 0.721096 0.692835 0.000000
-10.317946 -9.935775 -0.436308 331 0.721096 0.692835 0.000000
-10.318095 -9.935909 -0.431906 327 0.721096 0.692835 0.000000
-10.318236 -9.936051 -0.427515 333 0.721096 0.692835 0.000000
-10.318063 -9.935884 -0.423106 317 0.721096 0.692835 0.000000
-10.318843 -9.936635 -0.418729 305 0.721096 0.692835 0.000000
-10.318507 -9.936304 -0.414312 313 0.721096 0.692835 0.000000
-10.318748 -9.936545 -0.409919 321 0.721096 0.692835 0.000000
-10.318414 -9.936229 -0.405502 319 0.721096 0.692835 0.000000
-10.318355 -9.936160 -0.401103 339 0.721096 0.692835 0.000000
-10.318481 -9.936288 -0.396702 317 0.721096 0.692835 0.000000
-10.317722 -9.935559 -0.392279 323 0.721096 0.692835 0.000000
-10.317494 -9.935334 -0.387861 333 0.721096 0.692835 0.000000
-10.317367 -9.935206 -0.383462 321 0.721096 0.692835 0.000000
-10.317561 -9.935394 -0.379060 293 0.721096 0.692835 0.000000
-10.317950 -9.935771 -0.374676 303 0.721096 0.692835 0.000000
-10.318030 -9.935847 -0.370275 327 0.721096 0.692835 0.000000
-10.317479 -9.935321 -0.365860 325 0.721096 0.692835 0.000000
-10.317967 -9.935798 -0.361476 341 0.721096 0.692835 0.000000
-10.318370 -9.936172 -0.357082 337 0.721096 0.692835 0.000000
-10.317235 -9.935084 -0.352642 339 0.721096 0.692835 0.000000
-10.317361 -9.935199 -0.348251 323 0.721096 0.692835 0.000000
-10.317587 -9.935427 -0.343849 317 0.721096 0.692835 0.000000
-10.317290 -9.935143 -0.339442 297 0.721096 0.692835 0.000000
-10.318001 -9.935821 -0.335065 321 0.721096 0.692835 0.000000
-10.317912 -9.935740 -0.330655 309 0.721096 0.692835 0.000000
-10.317560 -9.935396 -0.326249 325 0.721096 0.692835 0.000000
-10.317309 -9.935151 -0.321841 297 0.721096 0.692835 0.000000
-10.318174 -9.935987 -0.317463 319 0.721096 0.692835 0.000000
-10.318400 -9.936199 -0.313070 347 0.721096 0.692835 0.000000
-10.317349 -9.935195 -0.308640 335 0.721096 0.692835 0.000000
-10.318052 -9.935867 -0.304263 319 0.721096 0.692835 0.000000
-10.317856 -9.935682 -0.299855 305 0.721096 0.692835 0.000000
-10.321045 -9.932825 -0.687434 271 0.721096 0.692835 0.000000
-10.320409 -9.932200 -0.682980 265 0.721096 0.692835 0.000000
-10.319343 -9.931184 -0.678510 237 0.721096 0.692835 0.000000
-10.319969 -9.931776 -0.674134 255 0.721096 0.692835 0.000000
-10.320634 -9.932428 -0.669778 265 0.721096 0.692835 0.000000
-10.321044 -9.932812 -0.665394 285 0.721096 0.692835 0.000000
-10.321348 -9.933104 -0.661001 267 0.721096 0.692835 0.000000
-10.321550 -9.933298 -0.656609 279 0.721096 0.692835 0.000000
-10.322215 -9.933936 -0.652242 285 0.721096 0.692835 0.000000
-10.322302 -9.934019 -0.647831 297 0.721096 0.692835 0.000000
-10.322021 -9.933747 -0.643414 295 0.721096 0.692835 0.000000
-10.321956 -9.933687 -0.638995 297 0.721096 0.692835 0.000000
-10.321189 -9.932951 -0.634542 289 0.721096 0.692835 0.000000
-10.320546 -9.932333 -0.630098 267 0.721096 0.692835 0.000000
-10.319840 -9.931648 -0.625654 279 0.721096 0.692835 0.000000
-10.320275 -9.932079 -0.621270 305 0.721096 0.692835 0.000000
-10.319785 -9.931604 -0.616835 299 0.721096 0.692835 0.000000
-10.319865 -9.931682 -0.612434 297 0.721096 0.692835 0.000000
-10.320153 -9.931960 -0.608041 325 0.721096 0.692835 0.000000
-10.320187 -9.931984 -0.603641 311 0.721096 0.692835 0.000000
-10.320783 -9.932563 -0.599265 283 0.721096 0.692835 0.000000
-10.321393 -9.933144 -0.594899 307 0.721096 0.692835 0.000000
-10.320787 -9.932557 -0.590455 303 0.721096 0.692835 0.000000
-10.320161 -9.931966 -0.586010 301 0.721096 0.692835 0.000000
-10.320455 -9.932239 -0.581627 319 0.721096 0.692835 0.000000
-10.320889 -9.932669 -0.577243 319 0.721096 0.692835 0.000000
-10.320754 -9.932535 -0.572834 309 0.721096 0.692835 0.000000
-10.320672 -9.932446 -0.568415 299 0.721096 0.692835 0.000000
-10.321114 -9.932869 -0.564041 293 0.721096 0.692835 0.000000
-10.320855 -9.932631 -0.559623 293 0.721096 0.692835 0.000000
-10.321566 -9.933310 -0.555246 317 0.721096 0.692835 0.000000
-10.321423 -9.933169 -0.550838 345 0.721096 0.692835 0.000000
-10.319903 -9.931715 -0.546352 291 0.721096 0.692835 0.000000
-10.319176 -9.931011 -0.541909 289 0.721096 0.692835 0.000000
-10.321140 -9.932900 -0.537610 299 0.721096 0.692835 0.000000
-10.322412 -9.934121 -0.533268 335 0.721096 0.692835 0.000000
-10.320107 -9.931906 -0.528750 299 0.721096 0.692835 0.000000
-10.319111 -9.930948 -0.524289 295 0.721096 0.692835 0.000000
-10.320222 -9.932019 -0.519938 303 0.721096 0.692835 0.000000
-10.321446 -9.933187 -0.515597 331 0.721096 0.692835 0.000000
-10.321135 -9.932891 -0.511179 323 0.721096 0.692835 0.000000
-10.319715 -9.931534 -0.506703 337 0.721096 0.692835 0.000000
-10.319033 -9.930869 -0.502269 317 0.721096 0.692835 0.000000
-10.319674 -9.931489 -0.497893 315 0.721096 0.692835 0.000000
-10.320354 -9.932140 -0.493526 307 0.721096 0.692835 0.000000
-10.320512 -9.932296 -0.489125 323 0.721096 0.692835 0.000000
-10.320615 -9.932391 -0.484734 341 0.721096 0.692835 0.000000
-10.321040 -9.932801 -0.480350 309 0.721096 0.692835 0.000000
-10.321043 -9.932797 -0.475940 325 0.721096 0.692835 0.000000
-10.320347 -9.932135 -0.471506 325 0.721096 0.692835 0.000000
-10.320026 -9.931831 -0.467089 293 0.721096 0.692835 0.000000
-10.320552 -9.932325 -0.462714 315 0.721096 0.692835 0.000000
-10.321340 -9.933082 -0.458346 317 0.721096 0.692835 0.000000
-10.321797 -9.933532 -0.453962 321 0.721096 0.692835 0.000000
-10.321008 -9.932762 -0.449519 319 0.721096 0.692835 0.000000
-10.320833 -9.932596 -0.445111 297 0.721096 0.692835 0.000000
-10.320459 -9.932233 -0.440694 341 0.721096 0.692835 0.000000
-10.319602 -9.931420 -0.436252 337 0.721096 0.692835 0.000000
-10.319220 -9.931051 -0.431836 343 0.721096 0.692835 0.000000
-10.320045 -9.931839 -0.427468 329 0.721096 0.692835 0.000000
-10.321458 -9.933206 -0.423124 305 0.721096 0.692835 0.000000
-10.322021 -9.933746 -0.418739 351 0.721096 0.692835 0.000000
-10.321272 -9.933023 -0.414306 369 0.721096 0.692835 0.000000
-10.320466 -9.932241 -0.409873 349 0.721096 0.692835 0.000000
-10.320869 -9.932632 -0.405489 313 0.721096 0.692835 0.000000
-10.319895 -9.931693 -0.401049 295 0.721096 0.692835 0.000000
-10.319452 -9.931273 -0.396633 301 0.721096 0.692835 0.000000
-10.320070 -9.931858 -0.392257 317 0.721096 0.692835 0.000000
-10.319836 -9.931641 -0.387839 309 0.721096 0.692835 0.000000
-10.319546 -9.931362 -0.383431 309 0.721096 0.692835 0.000000
-10.319318 -9.931137 -0.379024 311 0.721096 0.692835 0.000000
-10.319867 -9.931664 -0.374638 317 0.721096 0.692835 0.000000
-10.319586 -9.931394 -0.370231 297 0.721096 0.692835 0.000000
-10.319604 -9.931417 -0.365831 313 0.721096 0.692835 0.000000
-10.320899 -9.932659 -0.361468 307 0.721096 0.692835 0.000000
-10.321341 -9.933081 -0.357084 295 0.721096 0.692835 0.000000
-10.320575 -9.932346 -0.352661 295 0.721096 0.692835 0.000000
-10.319648 -9.931460 -0.348230 303 0.721096 0.692835 0.000000
-10.319405 -9.931221 -0.343822 327 0.721096 0.692835 0.000000
-10.319584 -9.931396 -0.339420 321 0.721096 0.692835 0.000000
-10.319656 -9.931464 -0.335029 311 0.721096 0.692835 0.000000
-10.319989 -9.931783 -0.330636 303 0.721096 0.692835 0.000000
-10.318848 -9.930688 -0.326197 279 0.721096 0.692835 0.000000
-10.318705 -9.930548 -0.321798 277 0.721096 0.692835 0.000000
-10.320191 -9.931978 -0.317444 311 0.721096 0.692835 0.000000
-10.320895 -9.932650 -0.313057 347 0.721096 0.692835 0.000000
-10.321113 -9.932871 -0.308665 333 0.721096 0.692835 0.000000
-10.320915 -9.932671 -0.304257 335 0.721096 0.692835 0.000000
-10.320189 -9.931981 -0.299833 307 0.721096 0.692835 0.000000
-10.324148 -9.929610 -0.687436 263 0.721096 0.692835 0.000000
-10.323552 -9.929045 -0.682992 267 0.721096 0.692835 0.000000
-10.322693 -9.928218 -0.678530 265 0.721096 0.692835 0.000000
-10.322688 -9.928207 -0.674120 285 0.721096 0.692835 0.000000
-10.323784 -9.929266 -0.669779 271 0.721096 0.692835 0.000000
-10.323772 -9.929250 -0.665369 283 0.721096 0.692835 0.000000
-10.323920 -9.929384 -0.660968 287 0.721096 0.692835 0.000000
-10.323270 -9.928760 -0.656524 241 0.721096 0.692835 0.000000
-10.323512 -9.929001 -0.652132 267 0.721096 0.692835 0.000000
-10.323184 -9.928677 -0.647705 297 0.721096 0.692835 0.000000
-10.322586 -9.928111 -0.643260 275 0.721096 0.692835 0.000000
-10.323674 -9.929149 -0.638920 267 0.721096 0.692835 0.000000
-10.324385 -9.929841 -0.634553 277 0.721096 0.692835 0.000000
-10.324896 -9.930322 -0.630178 315 0.721096 0.692835 0.000000
-10.324760 -9.930202 -0.625759 307 0.721096 0.692835 0.000000
-10.324640 -9.930081 -0.621350 329 0.721096 0.692835 0.000000
-10.323721 -9.929201 -0.616889 301 0.721096 0.692835 0.000000
-10.323015 -9.928518 -0.612435 307 0.721096 0.692835 0.000000
-10.322095 -9.927625 -0.607974 291 0.721096 0.692835 0.000000
-10.322537 -9.928061 -0.603600 317 0.721096 0.692835 0.000000
-10.324354 -9.929799 -0.599292 315 0.721096 0.692835 0.000000
-10.324482 -9.929929 -0.594901 327 0.721096 0.692835 0.000000
-10.323607 -9.929088 -0.590439 313 0.721096 0.692835 0.000000
-10.323264 -9.928751 -0.586012 297 0.721096 0.692835 0.000000
-10.322967 -9.928467 -0.581595 313 0.721096 0.692835 0.000000
-10.322886 -9.928392 -0.577186 307 0.721096 0.692835 0.000000
-10.323058 -9.928560 -0.572784 313 0.721096 0.692835 0.000000
-10.322975 -9.928472 -0.568375 337 0.721096 0.692835 0.000000
-10.322048 -9.927586 -0.563923 303 0.721096 0.692835 0.000000
-10.322852 -9.928356 -0.559566 291 0.721096 0.692835 0.000000
-10.323709 -9.929185 -0.555197 325 0.721096 0.692835 0.000000
-10.323666 -9.929143 -0.550798 331 0.721096 0.692835 0.000000
-10.324099 -9.929560 -0.546414 317 0.721096 0.692835 0.000000
-10.324225 -9.929674 -0.542012 295 0.721096 0.692835 0.000000
-10.324551 -9.929986 -0.537629 297 0.721096 0.692835 0.000000
-10.325139 -9.930560 -0.533253 327 0.721096 0.692835 0.000000
-10.325042 -9.930458 -0.528844 335 0.721096 0.692835 0.000000
-10.323791 -9.929257 -0.524376 311 0.721096 0.692835 0.000000
-10.324157 -9.929617 -0.519982 297 0.721096 0.692835 0.000000
-10.324275 -9.929725 -0.515591 311 0.721096 0.692835 0.000000
-10.323131 -9.928615 -0.511132 327 0.721096 0.692835 0.000000
-10.323496 -9.928972 -0.506738 283 0.721096 0.692835 0.000000
-10.323814 -9.929277 -0.502355 315 0.721096 0.692835 0.000000
-10.324502 -9.929936 -0.497979 341 0.721096 0.692835 0.000000
-10.323559 -9.929037 -0.493537 315 0.721096 0.692835 0.000000
-10.321761 -9.927306 -0.489044 289 0.721096 0.692835 0.000000
-10.322341 -9.927860 -0.484669 291 0.721096 0.692835 0.000000
-10.323283 -9.928775 -0.480310 287 0.721096 0.692835 0.000000
-10.323294 -9.928778 -0.475910 309 0.721096 0.692835 0.000000
-10.323081 -9.928566 -0.471492 313 0.721096 0.692835 0.000000
-10.322861 -9.928360 -0.467083 331 0.721096 0.692835 0.000000
-10.322903 -9.928403 -0.462683 315 0.721096 0.692835 0.000000
-10.323475 -9.928950 -0.458308 319 0.721096 0.692835 0.000000
-10.323793 -9.929256 -0.453914 305 0.721096 0.692835 0.000000
-10.323195 -9.928677 -0.449490 287 0.721096 0.692835 0.000000
-10.323292 -9.928780 -0.445089 291 0.721096 0.692835 0.000000
-10.324449 -9.929890 -0.440728 329 0.721096 0.692835 0.000000
-10.323545 -9.929010 -0.436296 329 0.721096 0.692835 0.000000
-10.322678 -9.928189 -0.431854 325 0.721096 0.692835 0.000000
-10.322881 -9.928383 -0.427462 311 0.721096 0.692835 0.000000
-10.321867 -9.927398 -0.423022 309 0.721096 0.692835 0.000000
-10.323118 -9.928599 -0.418670 317 0.721096 0.692835 0.000000
-10.324260 -9.929697 -0.414309 323 0.721096 0.692835 0.000000
-10.322717 -9.928222 -0.409844 311 0.721096 0.692835 0.000000
-10.322328 -9.927847 -0.405427 281 0.721096 0.692835 0.000000
-10.322991 -9.928485 -0.401051 299 0.721096 0.692835 0.000000
-10.323187 -9.928673 -0.396659 321 0.721096 0.692835 0.000000
-10.322898 -9.928395 -0.392241 321 0.721096 0.692835 0.000000
-10.323194 -9.928680 -0.387859 323 0.721096 0.692835 0.000000
-10.323165 -9.928652 -0.383449 295 0.721096 0.692835 0.000000
-10.323206 -9.928681 -0.379048 301 0.721096 0.692835 0.000000
-10.322702 -9.928208 -0.374633 317 0.721096 0.692835 0.000000
-10.322783 -9.928284 -0.370232 295 0.721096 0.692835 0.000000
-10.322807 -9.928300 -0.365832 301 0.721096 0.692835 0.000000
-10.322096 -9.927624 -0.361408 281 0.721096 0.692835 0.000000
-10.323329 -9.928799 -0.357046 285 0.721096 0.692835 0.000000
-10.325356 -9.930755 -0.352717 297 0.721096 0.692835 0.000000
-10.324535 -9.929958 -0.348285 337 0.721096 0.692835 0.000000
-10.323446 -9.928924 -0.343855 331 0.721096 0.692835 0.000000
-10.324049 -9.929497 -0.339469 333 0.721096 0.692835 0.000000
-10.324229 -9.929670 -0.335077 323 0.721096 0.692835 0.000000
-10.323771 -9.929222 -0.330662 321 0.721096 0.692835 0.000000
