774
-3.000576 -3.029027 -0.384542 1385 0.710489 0.703708 0.000000
-3.000810 -3.029264 -0.383249 1391 0.710489 0.703708 0.000000
-3.000889 -3.029342 -0.381938 1387 0.710489 0.703708 0.000000
-3.000660 -3.029120 -0.380591 1381 0.710489 0.703708 0.000000
-2.999980 -3.028422 -0.379187 1389 0.710489 0.703708 0.000000
-2.999959 -3.028403 -0.377867 1395 0.710489 0.703708 0.000000
-3.000085 -3.028534 -0.376566 1389 0.710489 0.703708 0.000000
-3.000272 -3.028718 -0.375264 1381 0.710489 0.703708 0.000000
-3.000613 -3.029059 -0.373991 1381 0.710489 0.703708 0.000000
-3.000847 -3.029295 -0.372699 1383 0.710489 0.703708 0.000000
-3.001073 -3.029525 -0.371406 1391 0.710489 0.703708 0.000000
-3.000534 -3.028986 -0.370022 1395 0.710489 0.703708 0.000000
-3.000513 -3.028967 -0.368702 1397 0.710489 0.703708 0.000000
-3.000847 -3.029302 -0.367428 1383 0.710489 0.703708 0.000000
-3.000926 -3.029380 -0.366118 1379 0.710489 0.703708 0.000000
-3.001207 -3.029670 -0.364825 1389 0.710489 0.703708 0.000000
-3.000775 -3.029222 -0.363459 1385 0.710489 0.703708 0.000000
-3.000483 -3.028933 -0.362102 1381 0.710489 0.703708 0.000000
-3.000509 -3.028966 -0.360792 1393 0.710489 0.703708 0.000000
-3.000333 -3.028789 -0.359453 1391 0.710489 0.703708 0.000000
-3.000465 -3.028913 -0.358152 1381 0.710489 0.703708 0.000000
-3.000390 -3.028834 -0.356823 1381 0.710489 0.703708 0.000000
-3.000198 -3.028643 -0.355485 1381 0.710489 0.703708 0.000000
-3.000694 -3.029142 -0.354220 1393 0.710489 0.703708 0.000000
-3.000766 -3.029214 -0.352909 1385 0.710489 0.703708 0.000000
-3.000792 -3.029248 -0.351599 1383 0.710489 0.703708 0.000000
-3.000654 -3.029102 -0.350260 1379 0.710489 0.703708 0.000000
-3.000632 -3.029083 -0.348940 1385 0.710489 0.703708 0.000000
-3.000959 -3.029411 -0.347657 1381 0.710489 0.703708 0.000000
-3.000728 -3.029174 -0.346319 1399 0.710489 0.703708 0.000000
-2.999880 -3.028320 -0.344897 1387 0.710489 0.703708 0.000000
-2.999534 -3.027972 -0.343551 1379 0.710489 0.703708 0.000000
-3.000170 -3.028615 -0.342304 1381 0.710489 0.703708 0.000000
-3.000504 -3.028950 -0.341021 1377 0.710489 0.703708 0.000000
-3.000259 -3.028715 -0.339674 1383 0.710489 0.703708 0.000000
-3.000136 -3.028582 -0.338345 1393 0.710489 0.703708 0.000000
-2.999635 -3.028076 -0.336970 1383 0.710489 0.703708 0.000000
-3.000071 -3.028523 -0.335705 1385 0.710489 0.703708 0.000000
-3.000706 -3.029153 -0.334459 1391 0.710489 0.703708 0.000000
-3.000112 -3.028555 -0.333075 1397 0.710489 0.703708 0.000000
-2.999976 -3.028424 -0.331746 1395 0.710489 0.703708 0.000000
-2.999892 -3.028339 -0.330417 1385 0.710489 0.703708 0.000000
-3.000118 -3.028569 -0.329125 1387 0.710489 0.703708 0.000000
-3.000700 -3.029153 -0.327869 1389 0.710489 0.703708 0.000000
-3.000307 -3.028752 -0.326513 1391 0.710489 0.703708 0.000000
-3.000062 -3.028516 -0.325165 1385 0.710489 0.703708 0.000000
-3.000644 -3.029100 -0.323909 1391 0.710489 0.703708 0.000000
-3.001023 -3.029474 -0.322636 1391 0.710489 0.703708 0.000000
-3.000887 -3.029343 -0.321307 1385 0.710489 0.703708 0.000000
-3.000958 -3.029415 -0.319996 1375 0.710489 0.703708 0.000000
-3.001022 -3.029481 -0.318686 1379 0.710489 0.703708 0.000000
-3.000119 -3.028567 -0.317274 1375 0.710489 0.703708 0.000000
-2.999308 -3.027746 -0.315872 1389 0.710489 0.703708 0.000000
-2.999319 -3.027766 -0.314562 1377 0.710489 0.703708 0.000000
-3.000116 -3.028560 -0.313324 1389 0.710489 0.703708 0.000000
-3.000737 -3.029191 -0.312078 1407 0.710489 0.703708 0.000000
-3.000445 -3.028902 -0.310731 1401 0.710489 0.703708 0.000000
-2.999689 -3.028140 -0.309338 1393 0.710489 0.703708 0.000000
-2.999961 -3.028409 -0.308046 1391 0.710489 0.703708 0.000000
-3.000233 -3.028678 -0.306763 1387 0.710489 0.703708 0.000000
-2.999740 -3.028178 -0.305398 1379 0.710489 0.703708 0.000000
-3.001813 -3.028396 -0.445381 1403 0.710489 0.703708 0.000000
-3.001599 -3.028186 -0.444023 1403 0.710489 0.703708 0.000000
-3.000927 -3.027495 -0.442599 1399 0.710489 0.703708 0.000000
-3.000140 -3.026707 -0.441167 1387 0.710489 0.703708 0.000000
-3.001008 -3.027587 -0.439968 1379 0.710489 0.703708 0.000000
-3.001768 -3.028349 -0.438751 1387 0.710489 0.703708 0.000000
-3.001460 -3.028033 -0.437384 1389 0.710489 0.703708 0.000000
-3.001083 -3.027659 -0.436007 1385 0.710489 0.703708 0.000000
-3.001069 -3.027646 -0.434687 1381 0.710489 0.703708 0.000000
-3.000855 -3.027436 -0.433330 1377 0.710489 0.703708 0.000000
-3.001359 -3.027941 -0.432085 1379 0.710489 0.703708 0.000000
-3.002381 -3.028965 -0.430905 1385 0.710489 0.703708 0.000000
-3.002824 -3.029419 -0.429640 1393 0.710489 0.703708 0.000000
-3.002563 -3.029156 -0.428283 1395 0.710489 0.703708 0.000000
-3.001877 -3.028466 -0.426870 1385 0.710489 0.703708 0.000000
-3.001662 -3.028242 -0.425512 1381 0.710489 0.703708 0.000000
-3.001857 -3.028446 -0.424220 1385 0.710489 0.703708 0.000000
-3.001951 -3.028538 -0.422909 1393 0.710489 0.703708 0.000000
-3.001736 -3.028314 -0.421551 1389 0.710489 0.703708 0.000000
-3.001050 -3.027624 -0.420137 1377 0.710489 0.703708 0.000000
-3.000418 -3.026994 -0.418733 1379 0.710489 0.703708 0.000000
-3.000056 -3.026618 -0.417357 1387 0.710489 0.703708 0.000000
-3.000397 -3.026959 -0.416084 1393 0.710489 0.703708 0.000000
-3.001560 -3.028142 -0.414922 1399 0.710489 0.703708 0.000000
-3.001902 -3.028484 -0.413649 1389 0.710489 0.703708 0.000000
-3.001586 -3.028161 -0.412282 1393 0.710489 0.703708 0.000000
-3.001364 -3.027945 -0.410934 1393 0.710489 0.703708 0.000000
-3.001404 -3.027977 -0.409614 1387 0.710489 0.703708 0.000000
-3.001645 -3.028220 -0.408331 1387 0.710489 0.703708 0.000000
-3.001571 -3.028155 -0.407002 1381 0.710489 0.703708 0.000000
-3.001201 -3.027773 -0.405626 1381 0.710489 0.703708 0.000000
-3.000514 -3.027083 -0.404212 1389 0.710489 0.703708 0.000000
-3.000493 -3.027064 -0.402892 1381 0.710489 0.703708 0.000000
-3.001152 -3.027727 -0.401656 1381 0.710489 0.703708 0.000000
-3.001131 -3.027707 -0.400336 1373 0.710489 0.703708 0.000000
-3.001472 -3.028049 -0.399063 1379 0.710489 0.703708 0.000000
-3.001506 -3.028088 -0.397742 1387 0.710489 0.703708 0.000000
-3.001894 -3.028482 -0.396469 1397 0.710489 0.703708 0.000000
-3.002344 -3.028929 -0.395214 1397 0.710489 0.703708 0.000000
-3.001905 -3.028488 -0.393838 1407 0.710489 0.703708 0.000000
-3.001280 -3.027850 -0.392435 1401 0.710489 0.703708 0.000000
-3.001360 -3.027943 -0.391124 1403 0.710489 0.703708 0.000000
-3.001910 -3.028488 -0.389868 1399 0.710489 0.703708 0.000000
-3.001788 -3.028369 -0.388539 1383 0.710489 0.703708 0.000000
-3.001659 -3.028245 -0.387201 1381 0.710489 0.703708 0.000000
-3.001382 -3.027955 -0.385843 1385 0.710489 0.703708 0.000000
-3.001260 -3.027837 -0.384515 1391 0.710489 0.703708 0.000000
-3.001749 -3.028329 -0.383250 1397 0.710489 0.703708 0.000000
-3.001628 -3.028211 -0.381921 1399 0.710489 0.703708 0.000000
-3.000779 -3.027357 -0.380489 1391 0.710489 0.703708 0.000000
-3.000611 -3.027186 -0.379151 1391 0.710489 0.703708 0.000000
-3.000844 -3.027422 -0.377858 1397 0.710489 0.703708 0.000000
-3.000714 -3.027284 -0.376530 1383 0.710489 0.703708 0.000000
-3.001103 -3.027678 -0.375256 1379 0.710489 0.703708 0.000000
-3.002056 -3.028644 -0.374056 1391 0.710489 0.703708 0.000000
-3.002498 -3.029084 -0.372792 1393 0.710489 0.703708 0.000000
-3.002376 -3.028965 -0.371453 1399 0.710489 0.703708 0.000000
-3.001728 -3.028308 -0.370060 1397 0.710489 0.703708 0.000000
-3.001250 -3.027822 -0.368674 1389 0.710489 0.703708 0.000000
-3.000765 -3.027328 -0.367299 1385 0.710489 0.703708 0.000000
-3.001192 -3.027769 -0.366035 1389 0.710489 0.703708 0.000000
-3.001836 -3.028419 -0.364788 1389 0.710489 0.703708 0.000000
-3.001250 -3.027828 -0.363404 1395 0.710489 0.703708 0.000000
-3.000912 -3.027486 -0.362047 1397 0.710489 0.703708 0.000000
-3.001501 -3.028077 -0.360802 1409 0.710489 0.703708 0.000000
-3.001734 -3.028314 -0.359509 1397 0.710489 0.703708 0.000000
-3.001813 -3.028392 -0.358199 1393 0.710489 0.703708 0.000000
-3.001220 -3.027794 -0.356804 1381 0.710489 0.703708 0.000000
-3.001091 -3.027669 -0.355475 1371 0.710489 0.703708 0.000000
-3.001733 -3.028306 -0.354229 1379 0.710489 0.703708 0.000000
-3.001751 -3.028333 -0.352919 1381 0.710489 0.703708 0.000000
-3.001420 -3.027997 -0.351562 1381 0.710489 0.703708 0.000000
-3.001392 -3.027971 -0.350242 1385 0.710489 0.703708 0.000000
-3.001826 -3.028404 -0.348968 1385 0.710489 0.703708 0.000000
-3.001689 -3.028273 -0.347639 1395 0.710489 0.703708 0.000000
-3.001002 -3.027569 -0.346236 1397 0.710489 0.703708 0.000000
-3.000818 -3.027385 -0.344898 1387 0.710489 0.703708 0.000000
-3.001609 -3.028187 -0.343670 1393 0.710489 0.703708 0.000000
-3.001889 -3.028462 -0.342387 1395 0.710489 0.703708 0.000000
-3.001489 -3.028069 -0.341021 1379 0.710489 0.703708 0.000000
-3.001258 -3.027832 -0.339683 1383 0.710489 0.703708 0.000000
-3.001276 -3.027858 -0.338363 1389 0.710489 0.703708 0.000000
-3.001039 -3.027615 -0.337026 1387 0.710489 0.703708 0.000000
-3.001218 -3.027792 -0.335724 1385 0.710489 0.703708 0.000000
-3.001599 -3.028180 -0.334450 1389 0.710489 0.703708 0.000000
-3.001670 -3.028252 -0.333139 1399 0.710489 0.703708 0.000000
-3.001687 -3.028265 -0.331829 1405 0.710489 0.703708 0.000000
-3.001503 -3.028081 -0.330491 1407 0.710489 0.703708 0.000000
-3.001675 -3.028251 -0.329189 1397 0.710489 0.703708 0.000000
-3.002048 -3.028632 -0.327916 1391 0.710489 0.703708 0.000000
-3.002173 -3.028750 -0.326614 1395 0.710489 0.703708 0.000000
-3.002183 -3.028770 -0.325294 1389 0.710489 0.703708 0.000000
-3.001496 -3.028066 -0.323901 1395 0.710489 0.703708 0.000000
-3.000787 -3.027357 -0.322508 1383 0.710489 0.703708 0.000000
-3.001415 -3.027994 -0.321262 1371 0.710489 0.703708 0.000000
-3.001850 -3.028428 -0.319987 1369 0.710489 0.703708 0.000000
-3.002169 -3.028749 -0.318704 1371 0.710489 0.703708 0.000000
-3.001985 -3.028566 -0.317376 1383 0.710489 0.703708 0.000000
-3.001376 -3.027955 -0.315992 1389 0.710489 0.703708 0.000000
-3.001146 -3.027718 -0.314654 1389 0.710489 0.703708 0.000000
-3.001310 -3.027882 -0.313352 1397 0.710489 0.703708 0.000000
-3.002038 -3.028618 -0.312115 1399 0.710489 0.703708 0.000000
-3.001437 -3.028013 -0.310731 1387 0.710489 0.703708 0.000000
-3.000427 -3.026995 -0.309311 1381 0.710489 0.703708 0.000000
-3.000792 -3.027369 -0.308037 1379 0.710489 0.703708 0.000000
-3.000554 -3.027126 -0.306700 1369 0.710489 0.703708 0.000000
-2.999859 -3.026416 -0.305316 1361 0.710489 0.703708 0.000000
-3.002482 -3.027114 -0.445334 1389 0.710489 0.703708 0.000000
-3.002213 -3.026845 -0.443967 1399 0.710489 0.703708 0.000000
-3.001642 -3.026266 -0.442562 1391 0.710489 0.703708 0.000000
-3.001683 -3.026312 -0.441242 1391 0.710489 0.703708 0.000000
-3.002242 -3.026877 -0.440006 1407 0.710489 0.703708 0.000000
-3.002437 -3.027067 -0.438704 1409 0.710489 0.703708 0.000000
-3.002322 -3.026955 -0.437365 1385 0.710489 0.703708 0.000000
-3.002378 -3.027000 -0.436055 1389 0.710489 0.703708 0.000000
-3.002419 -3.027047 -0.434734 1389 0.710489 0.703708 0.000000
-3.002559 -3.027191 -0.433433 1383 0.710489 0.703708 0.000000
-3.002344 -3.026967 -0.432085 1379 0.710489 0.703708 0.000000
-3.001921 -3.026540 -0.430699 1385 0.710489 0.703708 0.000000
-3.001907 -3.026527 -0.429379 1389 0.710489 0.703708 0.000000
-3.002156 -3.026776 -0.428087 1393 0.710489 0.703708 0.000000
-3.002399 -3.027033 -0.426804 1399 0.710489 0.703708 0.000000
-3.002539 -3.027163 -0.425503 1391 0.710489 0.703708 0.000000
-3.002532 -3.027157 -0.424173 1383 0.710489 0.703708 0.000000
-3.002620 -3.027256 -0.422862 1389 0.710489 0.703708 0.000000
-3.002560 -3.027190 -0.421533 1393 0.710489 0.703708 0.000000
-3.002136 -3.026762 -0.420157 1397 0.710489 0.703708 0.000000
-3.001550 -3.026171 -0.418753 1397 0.710489 0.703708 0.000000
-3.001591 -3.026217 -0.417432 1401 0.710489 0.703708 0.000000
-3.002304 -3.026926 -0.416215 1399 0.710489 0.703708 0.000000
-3.002947 -3.027576 -0.414979 1399 0.710489 0.703708 0.000000
-3.003096 -3.027727 -0.413677 1391 0.710489 0.703708 0.000000
-3.002665 -3.027294 -0.412302 1395 0.710489 0.703708 0.000000
-3.002288 -3.026919 -0.410925 1391 0.710489 0.703708 0.000000
-3.002530 -3.027162 -0.409633 1389 0.710489 0.703708 0.000000
-3.002825 -3.027451 -0.408360 1397 0.710489 0.703708 0.000000
-3.002293 -3.026918 -0.406965 1393 0.710489 0.703708 0.000000
-3.002125 -3.026747 -0.405617 1387 0.710489 0.703708 0.000000
-3.002313 -3.026945 -0.404325 1385 0.710489 0.703708 0.000000
-3.002353 -3.026977 -0.403004 1389 0.710489 0.703708 0.000000
-3.002594 -3.027220 -0.401722 1397 0.710489 0.703708 0.000000
-3.002680 -3.027305 -0.400411 1393 0.710489 0.703708 0.000000
-3.003008 -3.027647 -0.399138 1389 0.710489 0.703708 0.000000
-3.003357 -3.027995 -0.397854 1383 0.710489 0.703708 0.000000
-3.003081 -3.027719 -0.396497 1393 0.710489 0.703708 0.000000
-3.001977 -3.026609 -0.395038 1393 0.710489 0.703708 0.000000
-3.002064 -3.026694 -0.393727 1401 0.710489 0.703708 0.000000
-3.002561 -3.027193 -0.392472 1405 0.710489 0.703708 0.000000
-3.003118 -3.027744 -0.391227 1403 0.710489 0.703708 0.000000
-3.003136 -3.027771 -0.389906 1397 0.710489 0.703708 0.000000
-3.003075 -3.027704 -0.388577 1393 0.710489 0.703708 0.000000
-3.002792 -3.027422 -0.387220 1381 0.710489 0.703708 0.000000
-3.001904 -3.026522 -0.385788 1383 0.710489 0.703708 0.000000
-3.001519 -3.026141 -0.384422 1391 0.710489 0.703708 0.000000
-3.001243 -3.025865 -0.383065 1387 0.710489 0.703708 0.000000
-3.001530 -3.026147 -0.381782 1387 0.710489 0.703708 0.000000
-3.002282 -3.026902 -0.380555 1389 0.710489 0.703708 0.000000
-3.002462 -3.027093 -0.379263 1397 0.710489 0.703708 0.000000
-3.002232 -3.026856 -0.377915 1399 0.710489 0.703708 0.000000
-3.002218 -3.026843 -0.376595 1393 0.710489 0.703708 0.000000
-3.002552 -3.027178 -0.375312 1393 0.710489 0.703708 0.000000
-3.002886 -3.027512 -0.374039 1395 0.710489 0.703708 0.000000
-3.003012 -3.027644 -0.372727 1395 0.710489 0.703708 0.000000
-3.002628 -3.027263 -0.371361 1393 0.710489 0.703708 0.000000
-3.002042 -3.026672 -0.369977 1383 0.710489 0.703708 0.000000
-3.002074 -3.026697 -0.368656 1383 0.710489 0.703708 0.000000
-3.002253 -3.026874 -0.367365 1387 0.710489 0.703708 0.000000
-3.002587 -3.027209 -0.366081 1391 0.710489 0.703708 0.000000
-3.002613 -3.027242 -0.364771 1399 0.710489 0.703708 0.000000
-3.002174 -3.026803 -0.363395 1393 0.710489 0.703708 0.000000
-3.002052 -3.026670 -0.362066 1391 0.710489 0.703708 0.000000
-3.001969 -3.026598 -0.360737 1391 0.710489 0.703708 0.000000
-3.001847 -3.026467 -0.359408 1391 0.710489 0.703708 0.000000
-3.002537 -3.027170 -0.358171 1395 0.710489 0.703708 0.000000
-3.002353 -3.026986 -0.356823 1387 0.710489 0.703708 0.000000
-3.002123 -3.026749 -0.355485 1379 0.710489 0.703708 0.000000
-3.002913 -3.027550 -0.354258 1381 0.710489 0.703708 0.000000
-3.002838 -3.027472 -0.352928 1385 0.710489 0.703708 0.000000
-3.002298 -3.026919 -0.351544 1385 0.710489 0.703708 0.000000
-3.002061 -3.026690 -0.350206 1379 0.710489 0.703708 0.000000
-3.002031 -3.026649 -0.348886 1371 0.710489 0.703708 0.000000
-3.001949 -3.026577 -0.347557 1387 0.710489 0.703708 0.000000
-3.002081 -3.026702 -0.346256 1395 0.710489 0.703708 0.000000
-3.002005 -3.026623 -0.344926 1387 0.710489 0.703708 0.000000
-3.002170 -3.026800 -0.343625 1379 0.710489 0.703708 0.000000
-3.002612 -3.027240 -0.342360 1395 0.710489 0.703708 0.000000
-3.002474 -3.027095 -0.341022 1387 0.710489 0.703708 0.000000
-3.002546 -3.027167 -0.339721 1381 0.710489 0.703708 0.000000
-3.002301 -3.026931 -0.338373 1375 0.710489 0.703708 0.000000
-3.001661 -3.026280 -0.336990 1369 0.710489 0.703708 0.000000
-3.001887 -3.026510 -0.335697 1377 0.710489 0.703708 0.000000
-3.002429 -3.027048 -0.334432 1393 0.710489 0.703708 0.000000
-3.002238 -3.026858 -0.333094 1407 0.710489 0.703708 0.000000
-3.002101 -3.026727 -0.331765 1399 0.710489 0.703708 0.000000
-3.002428 -3.027055 -0.330482 1399 0.710489 0.703708 0.000000
-3.002391 -3.027022 -0.329162 1395 0.710489 0.703708 0.000000
-3.002516 -3.027140 -0.327861 1381 0.710489 0.703708 0.000000
-3.002587 -3.027212 -0.326550 1373 0.710489 0.703708 0.000000
-3.002450 -3.027081 -0.325222 1379 0.710489 0.703708 0.000000
-3.001950 -3.026575 -0.323846 1383 0.710489 0.703708 0.000000
-3.002121 -3.026746 -0.322555 1381 0.710489 0.703708 0.000000
-3.002703 -3.027330 -0.321299 1389 0.710489 0.703708 0.000000
-3.002674 -3.027304 -0.319979 1389 0.710489 0.703708 0.000000
-3.002630 -3.027264 -0.318660 1387 0.710489 0.703708 0.000000
-3.002546 -3.027179 -0.317330 1387 0.710489 0.703708 0.000000
-3.002463 -3.027093 -0.316001 1389 0.710489 0.703708 0.000000
-3.002425 -3.027047 -0.314682 1389 0.710489 0.703708 0.000000
-3.002388 -3.027014 -0.313362 1381 0.710489 0.703708 0.000000
-3.002460 -3.027086 -0.312051 1383 0.710489 0.703708 0.000000
-3.002571 -3.027205 -0.310750 1385 0.710489 0.703708 0.000000
-3.002433 -3.027060 -0.309421 1385 0.710489 0.703708 0.000000
-3.001522 -3.026139 -0.308010 1377 0.710489 0.703708 0.000000
-3.001076 -3.025693 -0.306654 1363 0.710489 0.703708 0.000000
-3.001085 -3.025699 -0.305334 1367 0.710489 0.703708 0.000000
-3.004024 -3.026705 -0.445409 1391 0.710489 0.703708 0.000000
-3.004475 -3.027166 -0.444155 1399 0.710489 0.703708 0.000000
-3.003904 -3.026587 -0.442750 1391 0.710489 0.703708 0.000000
-3.003751 -3.026429 -0.441402 1393 0.710489 0.703708 0.000000
-3.003629 -3.026311 -0.440063 1401 0.710489 0.703708 0.000000
-3.003005 -3.025687 -0.438649 1397 0.710489 0.703708 0.000000
-3.002643 -3.025311 -0.437272 1383 0.710489 0.703708 0.000000
-3.002839 -3.025515 -0.435980 1379 0.710489 0.703708 0.000000
-3.003288 -3.025961 -0.434726 1385 0.710489 0.703708 0.000000
-3.003182 -3.025857 -0.433387 1391 0.710489 0.703708 0.000000
-3.002751 -3.025423 -0.432001 1389 0.710489 0.703708 0.000000
-3.002845 -3.025514 -0.430690 1393 0.710489 0.703708 0.000000
-3.002584 -3.025251 -0.429333 1389 0.710489 0.703708 0.000000
-3.002825 -3.025494 -0.428050 1395 0.710489 0.703708 0.000000
-3.003531 -3.026211 -0.426823 1407 0.710489 0.703708 0.000000
-3.003780 -3.026460 -0.425531 1407 0.710489 0.703708 0.000000
-3.003296 -3.025981 -0.424146 1383 0.710489 0.703708 0.000000
-3.002825 -3.025501 -0.422760 1383 0.710489 0.703708 0.000000
-3.003182 -3.025855 -0.421487 1383 0.710489 0.703708 0.000000
-3.003207 -3.025888 -0.420166 1389 0.710489 0.703708 0.000000
-3.003201 -3.025881 -0.418846 1405 0.710489 0.703708 0.000000
-3.003853 -3.026538 -0.417610 1417 0.710489 0.703708 0.000000
-3.004094 -3.026781 -0.416328 1413 0.710489 0.703708 0.000000
-3.003261 -3.025940 -0.414886 1399 0.710489 0.703708 0.000000
-3.002945 -3.025618 -0.413529 1389 0.710489 0.703708 0.000000
-3.003187 -3.025860 -0.412237 1397 0.710489 0.703708 0.000000
-3.003011 -3.025683 -0.410888 1395 0.710489 0.703708 0.000000
-3.003152 -3.025827 -0.409587 1397 0.710489 0.703708 0.000000
-3.003850 -3.026537 -0.408360 1411 0.710489 0.703708 0.000000
-3.003937 -3.026623 -0.407049 1401 0.710489 0.703708 0.000000
-3.003621 -3.026300 -0.405692 1383 0.710489 0.703708 0.000000
-3.004110 -3.026793 -0.404437 1387 0.710489 0.703708 0.000000
-3.004204 -3.026884 -0.403126 1399 0.710489 0.703708 0.000000
-3.003874 -3.026563 -0.401760 1395 0.710489 0.703708 0.000000
-3.004014 -3.026694 -0.400458 1395 0.710489 0.703708 0.000000
-3.004148 -3.026831 -0.399157 1399 0.710489 0.703708 0.000000
-3.003979 -3.026660 -0.397808 1399 0.710489 0.703708 0.000000
-3.003649 -3.026325 -0.396452 1399 0.710489 0.703708 0.000000
-3.003480 -3.026154 -0.395103 1397 0.710489 0.703708 0.000000
-3.003505 -3.026187 -0.393793 1399 0.710489 0.703708 0.000000
-3.003384 -3.026069 -0.392454 1391 0.710489 0.703708 0.000000
-3.003626 -3.026312 -0.391162 1395 0.710489 0.703708 0.000000
-3.003705 -3.026391 -0.389851 1395 0.710489 0.703708 0.000000
-3.003844 -3.026521 -0.388550 1397 0.710489 0.703708 0.000000
-3.003831 -3.026508 -0.387230 1381 0.710489 0.703708 0.000000
-3.003184 -3.025865 -0.385826 1381 0.710489 0.703708 0.000000
-3.003069 -3.025739 -0.384497 1387 0.710489 0.703708 0.000000
-3.003242 -3.025923 -0.383195 1401 0.710489 0.703708 0.000000
-3.003282 -3.025956 -0.381875 1389 0.710489 0.703708 0.000000
-3.003717 -3.026403 -0.380611 1397 0.710489 0.703708 0.000000
-3.004059 -3.026744 -0.379337 1401 0.710489 0.703708 0.000000
-3.003720 -3.026402 -0.377980 1391 0.710489 0.703708 0.000000
-3.003397 -3.026073 -0.376614 1389 0.710489 0.703708 0.000000
-3.003221 -3.025896 -0.375275 1391 0.710489 0.703708 0.000000
-3.002937 -3.025613 -0.373918 1387 0.710489 0.703708 0.000000
-3.003224 -3.025895 -0.372635 1383 0.710489 0.703708 0.000000
-3.003513 -3.026191 -0.371352 1379 0.710489 0.703708 0.000000
-3.003127 -3.025796 -0.369986 1377 0.710489 0.703708 0.000000
-3.003300 -3.025981 -0.368694 1379 0.710489 0.703708 0.000000
-3.003534 -3.026217 -0.367402 1383 0.710489 0.703708 0.000000
-3.003203 -3.025882 -0.366045 1395 0.710489 0.703708 0.000000
-3.002772 -3.025448 -0.364669 1397 0.710489 0.703708 0.000000
-3.002951 -3.025625 -0.363378 1389 0.710489 0.703708 0.000000
-3.003077 -3.025757 -0.362076 1395 0.710489 0.703708 0.000000
-3.002645 -3.025309 -0.360701 1383 0.710489 0.703708 0.000000
-3.002818 -3.025494 -0.359409 1373 0.710489 0.703708 0.000000
-3.003562 -3.026242 -0.358172 1401 0.710489 0.703708 0.000000
-3.003385 -3.026065 -0.356833 1405 0.710489 0.703708 0.000000
-3.003255 -3.025926 -0.355505 1399 0.710489 0.703708 0.000000
-3.003481 -3.026156 -0.354212 1389 0.710489 0.703708 0.000000
-3.003406 -3.026077 -0.352883 1393 0.710489 0.703708 0.000000
-3.003169 -3.025848 -0.351535 1385 0.710489 0.703708 0.000000
-3.003301 -3.025972 -0.350234 1389 0.710489 0.703708 0.000000
-3.003272 -3.025946 -0.348914 1383 0.710489 0.703708 0.000000
-3.003808 -3.026491 -0.347659 1393 0.710489 0.703708 0.000000
-3.004597 -3.027278 -0.346431 1397 0.710489 0.703708 0.000000
-3.004421 -3.027101 -0.345093 1397 0.710489 0.703708 0.000000
-3.003612 -3.026294 -0.343681 1385 0.710489 0.703708 0.000000
-3.003684 -3.026366 -0.342370 1385 0.710489 0.703708 0.000000
-3.004125 -3.026805 -0.341106 1387 0.710489 0.703708 0.000000
-3.004042 -3.026720 -0.339777 1395 0.710489 0.703708 0.000000
-3.003186 -3.025859 -0.338365 1385 0.710489 0.703708 0.000000
-3.002955 -3.025622 -0.337017 1373 0.710489 0.703708 0.000000
-3.003174 -3.025846 -0.335725 1383 0.710489 0.703708 0.000000
-3.003045 -3.025721 -0.334396 1397 0.710489 0.703708 0.000000
-3.003062 -3.025734 -0.333076 1393 0.710489 0.703708 0.000000
-3.003233 -3.025904 -0.331784 1389 0.710489 0.703708 0.000000
-3.003196 -3.025872 -0.330464 1385 0.710489 0.703708 0.000000
-3.002811 -3.025477 -0.329098 1387 0.710489 0.703708 0.000000
-3.002667 -3.025339 -0.327770 1379 0.710489 0.703708 0.000000
-3.002785 -3.025465 -0.326468 1369 0.710489 0.703708 0.000000
-3.002964 -3.025641 -0.325167 1373 0.710489 0.703708 0.000000
-3.003082 -3.025753 -0.323866 1385 0.710489 0.703708 0.000000
-3.003463 -3.026140 -0.322592 1393 0.710489 0.703708 0.000000
-3.003681 -3.026364 -0.321300 1391 0.710489 0.703708 0.000000
-3.003497 -3.026180 -0.319961 1389 0.710489 0.703708 0.000000
-3.003050 -3.025719 -0.318596 1399 0.710489 0.703708 0.000000
-3.002806 -3.025483 -0.317258 1391 0.710489 0.703708 0.000000
-3.003750 -3.026428 -0.316039 1395 0.710489 0.703708 0.000000
-3.004123 -3.026810 -0.314755 1387 0.710489 0.703708 0.000000
-3.003576 -3.026251 -0.313390 1375 0.710489 0.703708 0.000000
-3.003686 -3.026369 -0.312079 1387 0.710489 0.703708 0.000000
-3.004120 -3.026802 -0.310805 1403 0.710489 0.703708 0.000000
-3.004129 -3.026809 -0.309495 1401 0.710489 0.703708 0.000000
-3.002911 -3.025587 -0.308057 1389 0.710489 0.703708 0.000000
-3.001900 -3.024569 -0.306636 1375 0.710489 0.703708 0.000000
-3.002527 -3.025192 -0.305380 1381 0.710489 0.703708 0.000000
-3.004996 -3.025761 -0.446740 1385 0.710489 0.703708 0.000000
-3.005399 -3.026168 -0.445476 1393 0.710489 0.703708 0.000000
-3.004984 -3.025748 -0.444090 1401 0.710489 0.703708 0.000000
-3.004715 -3.025478 -0.442732 1393 0.710489 0.703708 0.000000
-3.004756 -3.025524 -0.441412 1393 0.710489 0.703708 0.000000
-3.004440 -3.025202 -0.440045 1393 0.710489 0.703708 0.000000
-3.004118 -3.024887 -0.438678 1385 0.710489 0.703708 0.000000
-3.004273 -3.025031 -0.437366 1387 0.710489 0.703708 0.000000
-3.004052 -3.024814 -0.436018 1383 0.710489 0.703708 0.000000
-3.004146 -3.024906 -0.434708 1391 0.710489 0.703708 0.000000
-3.004342 -3.025110 -0.433416 1399 0.710489 0.703708 0.000000
-3.004483 -3.025254 -0.432114 1397 0.710489 0.703708 0.000000
-3.004220 -3.024977 -0.430747 1395 0.710489 0.703708 0.000000
-3.003744 -3.024505 -0.429361 1381 0.710489 0.703708 0.000000
-3.004039 -3.024807 -0.428078 1389 0.710489 0.703708 0.000000
-3.004605 -3.025364 -0.426843 1413 0.710489 0.703708 0.000000
-3.004846 -3.025607 -0.425551 1407 0.710489 0.703708 0.000000
-3.004671 -3.025444 -0.424202 1391 0.710489 0.703708 0.000000
-3.004248 -3.025017 -0.422826 1383 0.710489 0.703708 0.000000
-3.004079 -3.024846 -0.421478 1389 0.710489 0.703708 0.000000
-3.004073 -3.024839 -0.420158 1385 0.710489 0.703708 0.000000
-3.004059 -3.024826 -0.418828 1393 0.710489 0.703708 0.000000
-3.004146 -3.024911 -0.417527 1395 0.710489 0.703708 0.000000
-3.004133 -3.024897 -0.416197 1403 0.710489 0.703708 0.000000
-3.003662 -3.024417 -0.414812 1395 0.710489 0.703708 0.000000
-3.003795 -3.024555 -0.413510 1401 0.710489 0.703708 0.000000
-3.003990 -3.024745 -0.412219 1401 0.710489 0.703708 0.000000
-3.004325 -3.025094 -0.410945 1405 0.710489 0.703708 0.000000
-3.004675 -3.025442 -0.409662 1403 0.710489 0.703708 0.000000
-3.004816 -3.025586 -0.408360 1397 0.710489 0.703708 0.000000
-3.004902 -3.025671 -0.407050 1391 0.710489 0.703708 0.000000
-3.004579 -3.025343 -0.405693 1385 0.710489 0.703708 0.000000
-3.004867 -3.025639 -0.404410 1401 0.710489 0.703708 0.000000
-3.005008 -3.025769 -0.403108 1395 0.710489 0.703708 0.000000
-3.004476 -3.025237 -0.401714 1389 0.710489 0.703708 0.000000
-3.003952 -3.024711 -0.400319 1401 0.710489 0.703708 0.000000
-3.003723 -3.024488 -0.398971 1395 0.710489 0.703708 0.000000
-3.003809 -3.024574 -0.397660 1385 0.710489 0.703708 0.000000
-3.004298 -3.025066 -0.396405 1391 0.710489 0.703708 0.000000
-3.004601 -3.025361 -0.395122 1387 0.710489 0.703708 0.000000
-3.004626 -3.025394 -0.393812 1389 0.710489 0.703708 0.000000
-3.004303 -3.025065 -0.392445 1393 0.710489 0.703708 0.000000
-3.004335 -3.025091 -0.391135 1399 0.710489 0.703708 0.000000
-3.004059 -3.024815 -0.389777 1397 0.710489 0.703708 0.000000
-3.003783 -3.024539 -0.388420 1397 0.710489 0.703708 0.000000
-3.003606 -3.024361 -0.387082 1373 0.710489 0.703708 0.000000
-3.003995 -3.024756 -0.385808 1371 0.710489 0.703708 0.000000
-3.004646 -3.025413 -0.384571 1377 0.710489 0.703708 0.000000
-3.005088 -3.025852 -0.383307 1395 0.710489 0.703708 0.000000
-3.005214 -3.025984 -0.382006 1401 0.710489 0.703708 0.000000
-3.004736 -3.025497 -0.380621 1387 0.710489 0.703708 0.000000
-3.004305 -3.025064 -0.379245 1387 0.710489 0.703708 0.000000
-3.005049 -3.025812 -0.378027 1391 0.710489 0.703708 0.000000
-3.004974 -3.025747 -0.376698 1399 0.710489 0.703708 0.000000
-3.004079 -3.024840 -0.375267 1395 0.710489 0.703708 0.000000
-3.003903 -3.024662 -0.373918 1389 0.710489 0.703708 0.000000
-3.003619 -3.024380 -0.372571 1373 0.710489 0.703708 0.000000
-3.004416 -3.025174 -0.371343 1377 0.710489 0.703708 0.000000
-3.005067 -3.025831 -0.370107 1387 0.710489 0.703708 0.000000
-3.005146 -3.025910 -0.368796 1383 0.710489 0.703708 0.000000
-3.005427 -3.026199 -0.367514 1379 0.710489 0.703708 0.000000
-3.004833 -3.025601 -0.366119 1389 0.710489 0.703708 0.000000
-3.004348 -3.025108 -0.364744 1387 0.710489 0.703708 0.000000
-3.004374 -3.025141 -0.363434 1387 0.710489 0.703708 0.000000
-3.004498 -3.025259 -0.362122 1385 0.710489 0.703708 0.000000
-3.004222 -3.024983 -0.360775 1365 0.710489 0.703708 0.000000
-3.004193 -3.024957 -0.359455 1367 0.710489 0.703708 0.000000
-3.004325 -3.025081 -0.358154 1393 0.710489 0.703708 0.000000
-3.004142 -3.024897 -0.356806 1397 0.710489 0.703708 0.000000
-3.004268 -3.025028 -0.355505 1385 0.710489 0.703708 0.000000
-3.004447 -3.025205 -0.354213 1387 0.710489 0.703708 0.000000
-3.004720 -3.025488 -0.352920 1389 0.710489 0.703708 0.000000
-3.004860 -3.025619 -0.351619 1385 0.710489 0.703708 0.000000
-3.004569 -3.025330 -0.350271 1379 0.710489 0.703708 0.000000
-3.004540 -3.025304 -0.348952 1387 0.710489 0.703708 0.000000
-3.004356 -3.025120 -0.347613 1397 0.710489 0.703708 0.000000
-3.003608 -3.024364 -0.346211 1389 0.710489 0.703708 0.000000
-3.003989 -3.024752 -0.344937 1383 0.710489 0.703708 0.000000
-3.005095 -3.025861 -0.343736 1383 0.710489 0.703708 0.000000
-3.005375 -3.026137 -0.342453 1389 0.710489 0.703708 0.000000
-3.004936 -3.025696 -0.341088 1405 0.710489 0.703708 0.000000
-3.004637 -3.025401 -0.339731 1401 0.710489 0.703708 0.000000
-3.004453 -3.025217 -0.338402 1393 0.710489 0.703708 0.000000
-3.004323 -3.025079 -0.337064 1389 0.710489 0.703708 0.000000
-3.004032 -3.024790 -0.335716 1387 0.710489 0.703708 0.000000
-3.003693 -3.024448 -0.334360 1385 0.710489 0.703708 0.000000
-3.003919 -3.024678 -0.333067 1385 0.710489 0.703708 0.000000
-3.004601 -3.025361 -0.331831 1395 0.710489 0.703708 0.000000
-3.004464 -3.025230 -0.330492 1407 0.710489 0.703708 0.000000
-3.003669 -3.024421 -0.329090 1385 0.710489 0.703708 0.000000
-3.003680 -3.024441 -0.327780 1381 0.710489 0.703708 0.000000
-3.003549 -3.024303 -0.326451 1381 0.710489 0.703708 0.000000
-3.003976 -3.024729 -0.325177 1381 0.710489 0.703708 0.000000
-3.004767 -3.025531 -0.323939 1395 0.710489 0.703708 0.000000
-3.004575 -3.025340 -0.322601 1393 0.710489 0.703708 0.000000
-3.004129 -3.024894 -0.321245 1397 0.710489 0.703708 0.000000
-3.004301 -3.025064 -0.319943 1399 0.710489 0.703708 0.000000
-3.004372 -3.025136 -0.318633 1395 0.710489 0.703708 0.000000
-3.003871 -3.024630 -0.317267 1385 0.710489 0.703708 0.000000
-3.004043 -3.024801 -0.315966 1387 0.710489 0.703708 0.000000
-3.004732 -3.025490 -0.314719 1383 0.710489 0.703708 0.000000
-3.004641 -3.025398 -0.313400 1373 0.710489 0.703708 0.000000
-3.004295 -3.025050 -0.312043 1381 0.710489 0.703708 0.000000
-3.004978 -3.025746 -0.310796 1407 0.710489 0.703708 0.000000
-3.005358 -3.026120 -0.309523 1407 0.710489 0.703708 0.000000
-3.004594 -3.025352 -0.308130 1393 0.710489 0.703708 0.000000
-3.004195 -3.024958 -0.306774 1393 0.710489 0.703708 0.000000
-3.004312 -3.025069 -0.305463 1399 0.710489 0.703708 0.000000
-3.005135 -3.023990 -0.446618 1381 0.710489 0.703708 0.000000
-3.005230 -3.024081 -0.445307 1389 0.710489 0.703708 0.000000
-3.005633 -3.024489 -0.444043 1395 0.710489 0.703708 0.000000
-3.005728 -3.024580 -0.442732 1393 0.710489 0.703708 0.000000
-3.005761 -3.024620 -0.441422 1391 0.710489 0.703708 0.000000
-3.005762 -3.024620 -0.440092 1395 0.710489 0.703708 0.000000
-3.005857 -3.024711 -0.438781 1387 0.710489 0.703708 0.000000
-3.005533 -3.024382 -0.437414 1389 0.710489 0.703708 0.000000
-3.005009 -3.023857 -0.436019 1385 0.710489 0.703708 0.000000
-3.005568 -3.024422 -0.434774 1393 0.710489 0.703708 0.000000
-3.006227 -3.025085 -0.433547 1399 0.710489 0.703708 0.000000
-3.005858 -3.024718 -0.432171 1391 0.710489 0.703708 0.000000
-3.004917 -3.023771 -0.430720 1387 0.710489 0.703708 0.000000
-3.004648 -3.023502 -0.429352 1375 0.710489 0.703708 0.000000
-3.005152 -3.024008 -0.428107 1381 0.710489 0.703708 0.000000
-3.005502 -3.024355 -0.426834 1397 0.710489 0.703708 0.000000
-3.005651 -3.024506 -0.425533 1401 0.710489 0.703708 0.000000
-3.005784 -3.024644 -0.424231 1387 0.710489 0.703708 0.000000
-3.005831 -3.024683 -0.422911 1393 0.710489 0.703708 0.000000
-3.005152 -3.023999 -0.421497 1383 0.710489 0.703708 0.000000
-3.004977 -3.023822 -0.420149 1375 0.710489 0.703708 0.000000
-3.005481 -3.024327 -0.418894 1379 0.710489 0.703708 0.000000
-3.005824 -3.024683 -0.417621 1391 0.710489 0.703708 0.000000
-3.005810 -3.024670 -0.416301 1399 0.710489 0.703708 0.000000
-3.005185 -3.024031 -0.414887 1391 0.710489 0.703708 0.000000
-3.005063 -3.023914 -0.413558 1387 0.710489 0.703708 0.000000
-3.005459 -3.024314 -0.412284 1395 0.710489 0.703708 0.000000
-3.005345 -3.024202 -0.410945 1399 0.710489 0.703708 0.000000
-3.005223 -3.024071 -0.409606 1401 0.710489 0.703708 0.000000
-3.004901 -3.023755 -0.408249 1383 0.710489 0.703708 0.000000
-3.005551 -3.024399 -0.407013 1387 0.710489 0.703708 0.000000
-3.006465 -3.025318 -0.405814 1395 0.710489 0.703708 0.000000
-3.006606 -3.025462 -0.404513 1405 0.710489 0.703708 0.000000
-3.006330 -3.025186 -0.403155 1395 0.710489 0.703708 0.000000
-3.005536 -3.024392 -0.401723 1393 0.710489 0.703708 0.000000
-3.004695 -3.023544 -0.400291 1385 0.710489 0.703708 0.000000
-3.004479 -3.023320 -0.398943 1379 0.710489 0.703708 0.000000
-3.004713 -3.023557 -0.397661 1379 0.710489 0.703708 0.000000
-3.005411 -3.024266 -0.396424 1393 0.710489 0.703708 0.000000
-3.006070 -3.024930 -0.395188 1397 0.710489 0.703708 0.000000
-3.005584 -3.024436 -0.393812 1397 0.710489 0.703708 0.000000
-3.005261 -3.024108 -0.392446 1405 0.710489 0.703708 0.000000
-3.005085 -3.023930 -0.391107 1399 0.710489 0.703708 0.000000
-3.004964 -3.023812 -0.389768 1395 0.710489 0.703708 0.000000
-3.005050 -3.023897 -0.388458 1389 0.710489 0.703708 0.000000
-3.004774 -3.023621 -0.387110 1375 0.710489 0.703708 0.000000
-3.004637 -3.023490 -0.385771 1367 0.710489 0.703708 0.000000
-3.004630 -3.023469 -0.384452 1355 0.710489 0.703708 0.000000
-3.004702 -3.023556 -0.383141 1373 0.710489 0.703708 0.000000
-3.005097 -3.023942 -0.381867 1371 0.710489 0.703708 0.000000
-3.005278 -3.024133 -0.380575 1359 0.710489 0.703708 0.000000
-3.005565 -3.024415 -0.379282 1375 0.710489 0.703708 0.000000
-3.005698 -3.024553 -0.377981 1387 0.710489 0.703708 0.000000
-3.005576 -3.024421 -0.376652 1403 0.710489 0.703708 0.000000
-3.005292 -3.024139 -0.375295 1391 0.710489 0.703708 0.000000
-3.004861 -3.023705 -0.373919 1365 0.710489 0.703708 0.000000
-3.004887 -3.023739 -0.372609 1357 0.710489 0.703708 0.000000
-3.005220 -3.024073 -0.371325 1363 0.710489 0.703708 0.000000
-3.005145 -3.023994 -0.370006 1377 0.710489 0.703708 0.000000
-3.004922 -3.023763 -0.368658 1375 0.710489 0.703708 0.000000
-3.005767 -3.024625 -0.367440 1385 0.710489 0.703708 0.000000
-3.006256 -3.025117 -0.366175 1399 0.710489 0.703708 0.000000
-3.005461 -3.024308 -0.364763 1391 0.710489 0.703708 0.000000
-3.005224 -3.024079 -0.363415 1385 0.710489 0.703708 0.000000
-3.005256 -3.024105 -0.362105 1383 0.710489 0.703708 0.000000
-3.005025 -3.023868 -0.360757 1371 0.710489 0.703708 0.000000
-3.005561 -3.024413 -0.359502 1377 0.710489 0.703708 0.000000
-3.005432 -3.024289 -0.358173 1393 0.710489 0.703708 0.000000
-3.004745 -3.023585 -0.356770 1385 0.710489 0.703708 0.000000
-3.005072 -3.023927 -0.355487 1379 0.710489 0.703708 0.000000
-3.005096 -3.023946 -0.354176 1385 0.710489 0.703708 0.000000
-3.005223 -3.024078 -0.352875 1399 0.710489 0.703708 0.000000
-3.005247 -3.024097 -0.351555 1387 0.710489 0.703708 0.000000
-3.004808 -3.023657 -0.350189 1365 0.710489 0.703708 0.000000
-3.004470 -3.023315 -0.348832 1373 0.710489 0.703708 0.000000
-3.004441 -3.023289 -0.347512 1387 0.710489 0.703708 0.000000
-3.005177 -3.024031 -0.346275 1391 0.710489 0.703708 0.000000
-3.005982 -3.024832 -0.345047 1395 0.710489 0.703708 0.000000
-3.005745 -3.024603 -0.343710 1385 0.710489 0.703708 0.000000
-3.005198 -3.024043 -0.342325 1381 0.710489 0.703708 0.000000
-3.005121 -3.023964 -0.340996 1393 0.710489 0.703708 0.000000
-3.005193 -3.024036 -0.339695 1397 0.710489 0.703708 0.000000
-3.005157 -3.024004 -0.338365 1393 0.710489 0.703708 0.000000
-3.004818 -3.023662 -0.337019 1385 0.710489 0.703708 0.000000
-3.004742 -3.023582 -0.335689 1381 0.710489 0.703708 0.000000
-3.005270 -3.024122 -0.334434 1387 0.710489 0.703708 0.000000
-3.005395 -3.024239 -0.333123 1385 0.710489 0.703708 0.000000
-3.005258 -3.024108 -0.331794 1395 0.710489 0.703708 0.000000
-3.005175 -3.024023 -0.330465 1393 0.710489 0.703708 0.000000
-3.004473 -3.023320 -0.329072 1391 0.710489 0.703708 0.000000
-3.003718 -3.022557 -0.327679 1385 0.710489 0.703708 0.000000
-3.004144 -3.022984 -0.326405 1383 0.710489 0.703708 0.000000
-3.004781 -3.023628 -0.325159 1383 0.710489 0.703708 0.000000
-3.005214 -3.024061 -0.323884 1379 0.710489 0.703708 0.000000
-3.005843 -3.024699 -0.322638 1389 0.710489 0.703708 0.000000
-3.005659 -3.024514 -0.321300 1391 0.710489 0.703708 0.000000
-3.005112 -3.023956 -0.319925 1393 0.710489 0.703708 0.000000
-3.004557 -3.023404 -0.318551 1379 0.710489 0.703708 0.000000
-3.004164 -3.023003 -0.317194 1371 0.710489 0.703708 0.000000
-3.004074 -3.022911 -0.315875 1369 0.710489 0.703708 0.000000
-3.004253 -3.023088 -0.314574 1365 0.710489 0.703708 0.000000
-3.004518 -3.023364 -0.313291 1369 0.710489 0.703708 0.000000
-3.004690 -3.023535 -0.311989 1389 0.710489 0.703708 0.000000
-3.005009 -3.023856 -0.310706 1391 0.710489 0.703708 0.000000
-3.005288 -3.024132 -0.309413 1389 0.710489 0.703708 0.000000
-3.004626 -3.023475 -0.308030 1389 0.710489 0.703708 0.000000
-3.003971 -3.022812 -0.306656 1385 0.710489 0.703708 0.000000
-3.004444 -3.023291 -0.305381 1383 0.710489 0.703708 0.000000
-3.006537 -3.023515 -0.446684 1397 0.710489 0.703708 0.000000
-3.006376 -3.023350 -0.445346 1399 0.710489 0.703708 0.000000
-3.006888 -3.023862 -0.444091 1399 0.710489 0.703708 0.000000
-3.007331 -3.024316 -0.442836 1395 0.710489 0.703708 0.000000
-3.007070 -3.024053 -0.441469 1391 0.710489 0.703708 0.000000
-3.006646 -3.023626 -0.440083 1387 0.710489 0.703708 0.000000
-3.006231 -3.023205 -0.438707 1387 0.710489 0.703708 0.000000
-3.005854 -3.022830 -0.437330 1397 0.710489 0.703708 0.000000
-3.006264 -3.023230 -0.436067 1393 0.710489 0.703708 0.000000
-3.006970 -3.023947 -0.434840 1387 0.710489 0.703708 0.000000
-3.007482 -3.024459 -0.433595 1393 0.710489 0.703708 0.000000
-3.007515 -3.024498 -0.432274 1395 0.710489 0.703708 0.000000
-3.007045 -3.024018 -0.430879 1391 0.710489 0.703708 0.000000
-3.006568 -3.023545 -0.429493 1387 0.710489 0.703708 0.000000
-3.006507 -3.023479 -0.428164 1387 0.710489 0.703708 0.000000
-3.007375 -3.024346 -0.426966 1399 0.710489 0.703708 0.000000
-3.006998 -3.023972 -0.425589 1393 0.710489 0.703708 0.000000
-3.006319 -3.023288 -0.424166 1385 0.710489 0.703708 0.000000
-3.006313 -3.023281 -0.422846 1387 0.710489 0.703708 0.000000
-3.006044 -3.023012 -0.421488 1377 0.710489 0.703708 0.000000
-3.005668 -3.022638 -0.420112 1373 0.710489 0.703708 0.000000
-3.006427 -3.023399 -0.418895 1385 0.710489 0.703708 0.000000
-3.007179 -3.024155 -0.417677 1391 0.710489 0.703708 0.000000
-3.006245 -3.023215 -0.416226 1387 0.710489 0.703708 0.000000
-3.005767 -3.022728 -0.414841 1387 0.710489 0.703708 0.000000
-3.006008 -3.022971 -0.413558 1387 0.710489 0.703708 0.000000
-3.006667 -3.023635 -0.412322 1387 0.710489 0.703708 0.000000
-3.006955 -3.023930 -0.411039 1401 0.710489 0.703708 0.000000
-3.006377 -3.023345 -0.409635 1395 0.710489 0.703708 0.000000
-3.006356 -3.023326 -0.408315 1383 0.710489 0.703708 0.000000
-3.006644 -3.023622 -0.407032 1389 0.710489 0.703708 0.000000
-3.007248 -3.024225 -0.405796 1397 0.710489 0.703708 0.000000
-3.007335 -3.024311 -0.404485 1407 0.710489 0.703708 0.000000
-3.007113 -3.024094 -0.403127 1403 0.710489 0.703708 0.000000
-3.006898 -3.023870 -0.401780 1393 0.710489 0.703708 0.000000
-3.006420 -3.023383 -0.400394 1381 0.710489 0.703708 0.000000
-3.006299 -3.023265 -0.399065 1371 0.710489 0.703708 0.000000
-3.006332 -3.023305 -0.397745 1377 0.710489 0.703708 0.000000
-3.006311 -3.023285 -0.396425 1391 0.710489 0.703708 0.000000
-3.005980 -3.022950 -0.395058 1393 0.710489 0.703708 0.000000
-3.006368 -3.023344 -0.393794 1391 0.710489 0.703708 0.000000
-3.006872 -3.023850 -0.392530 1403 0.710489 0.703708 0.000000
-3.007052 -3.024027 -0.391238 1405 0.710489 0.703708 0.000000
-3.006675 -3.023653 -0.389871 1403 0.710489 0.703708 0.000000
-3.005887 -3.022850 -0.388449 1379 0.710489 0.703708 0.000000
-3.005348 -3.022311 -0.387064 1355 0.710489 0.703708 0.000000
-3.005335 -3.022298 -0.385734 1367 0.710489 0.703708 0.000000
-3.005823 -3.022791 -0.384480 1367 0.710489 0.703708 0.000000
-3.005702 -3.022673 -0.383151 1369 0.710489 0.703708 0.000000
-3.005834 -3.022797 -0.381839 1369 0.710489 0.703708 0.000000
-3.006331 -3.023296 -0.380585 1373 0.710489 0.703708 0.000000
-3.006410 -3.023375 -0.379274 1379 0.710489 0.703708 0.000000
-3.006582 -3.023559 -0.377982 1383 0.710489 0.703708 0.000000
-3.006569 -3.023546 -0.376652 1373 0.710489 0.703708 0.000000
-3.006231 -3.023204 -0.375295 1369 0.710489 0.703708 0.000000
-3.006116 -3.023078 -0.373967 1367 0.710489 0.703708 0.000000
-3.006551 -3.023525 -0.372692 1369 0.710489 0.703708 0.000000
-3.006166 -3.023131 -0.371326 1377 0.710489 0.703708 0.000000
-3.005735 -3.022697 -0.369960 1383 0.710489 0.703708 0.000000
-3.005968 -3.022934 -0.368668 1379 0.710489 0.703708 0.000000
-3.006087 -3.023059 -0.367367 1379 0.710489 0.703708 0.000000
-3.005864 -3.022828 -0.366019 1385 0.710489 0.703708 0.000000
-3.005634 -3.022605 -0.364671 1383 0.710489 0.703708 0.000000
-3.005504 -3.022466 -0.363342 1375 0.710489 0.703708 0.000000
-3.005993 -3.022959 -0.362077 1385 0.710489 0.703708 0.000000
-3.007254 -3.024227 -0.360905 1393 0.710489 0.703708 0.000000
-3.006970 -3.023944 -0.359558 1393 0.710489 0.703708 0.000000
-3.005867 -3.022834 -0.358109 1383 0.710489 0.703708 0.000000
-3.006093 -3.023064 -0.356816 1379 0.710489 0.703708 0.000000
-3.006427 -3.023399 -0.355533 1385 0.710489 0.703708 0.000000
-3.005679 -3.022643 -0.354130 1381 0.710489 0.703708 0.000000
-3.005550 -3.022519 -0.352801 1379 0.710489 0.703708 0.000000
-3.005937 -3.022899 -0.351528 1375 0.710489 0.703708 0.000000
-3.006102 -3.023077 -0.350226 1369 0.710489 0.703708 0.000000
-3.006027 -3.022998 -0.348907 1377 0.710489 0.703708 0.000000
-3.006159 -3.023121 -0.347595 1383 0.710489 0.703708 0.000000
-3.006949 -3.023923 -0.346368 1391 0.710489 0.703708 0.000000
-3.006658 -3.023634 -0.345021 1395 0.710489 0.703708 0.000000
-3.005863 -3.022826 -0.343608 1379 0.710489 0.703708 0.000000
-3.005834 -3.022800 -0.342288 1379 0.710489 0.703708 0.000000
-3.006269 -3.023233 -0.341024 1393 0.710489 0.703708 0.000000
-3.006695 -3.023659 -0.339750 1401 0.710489 0.703708 0.000000
-3.006303 -3.023272 -0.338394 1401 0.710489 0.703708 0.000000
-3.005818 -3.022779 -0.337019 1385 0.710489 0.703708 0.000000
-3.006144 -3.023107 -0.335735 1385 0.710489 0.703708 0.000000
-3.006362 -3.023330 -0.334443 1387 0.710489 0.703708 0.000000
-3.006287 -3.023252 -0.333124 1385 0.710489 0.703708 0.000000
-3.006358 -3.023324 -0.331813 1385 0.710489 0.703708 0.000000
-3.006369 -3.023344 -0.330493 1389 0.710489 0.703708 0.000000
-3.005976 -3.022943 -0.329137 1393 0.710489 0.703708 0.000000
-3.005637 -3.022601 -0.327780 1389 0.710489 0.703708 0.000000
-3.006119 -3.023087 -0.326515 1389 0.710489 0.703708 0.000000
-3.006290 -3.023257 -0.325224 1377 0.710489 0.703708 0.000000
-3.006469 -3.023435 -0.323922 1383 0.710489 0.703708 0.000000
-3.006943 -3.023914 -0.322657 1397 0.710489 0.703708 0.000000
-3.006806 -3.023783 -0.321329 1387 0.710489 0.703708 0.000000
-3.006258 -3.023224 -0.319954 1391 0.710489 0.703708 0.000000
-3.005967 -3.022935 -0.318607 1387 0.710489 0.703708 0.000000
-3.005876 -3.022843 -0.317277 1377 0.710489 0.703708 0.000000
-3.005322 -3.022292 -0.315903 1371 0.710489 0.703708 0.000000
-3.004721 -3.021688 -0.314529 1361 0.710489 0.703708 0.000000
-3.004791 -3.021745 -0.313218 1371 0.710489 0.703708 0.000000
-3.004701 -3.021668 -0.311899 1371 0.710489 0.703708 0.000000
-3.004718 -3.021680 -0.310579 1361 0.710489 0.703708 0.000000
-3.005090 -3.022047 -0.309305 1365 0.710489 0.703708 0.000000
-3.005518 -3.022488 -0.308031 1377 0.710489 0.703708 0.000000
-3.005682 -3.022652 -0.306729 1373 0.710489 0.703708 0.000000
-3.005961 -3.022927 -0.305446 1369 0.710489 0.703708 0.000000
-3.007750 -3.022813 -0.446722 1399 0.710489 0.703708 0.000000
-3.007173 -3.022242 -0.445318 1403 0.710489 0.703708 0.000000
-3.007073 -3.022130 -0.443979 1399 0.710489 0.703708 0.000000
-3.006859 -3.021919 -0.442621 1395 0.710489 0.703708 0.000000
-3.006181 -3.021236 -0.441207 1385 0.710489 0.703708 0.000000
-3.006322 -3.021381 -0.439906 1377 0.710489 0.703708 0.000000
-3.006934 -3.021991 -0.438670 1379 0.710489 0.703708 0.000000
-3.006974 -3.022037 -0.437349 1389 0.710489 0.703708 0.000000
-3.007015 -3.022084 -0.436039 1383 0.710489 0.703708 0.000000
-3.007264 -3.022333 -0.434747 1377 0.710489 0.703708 0.000000
-3.007822 -3.022884 -0.433501 1393 0.710489 0.703708 0.000000
-3.007910 -3.022983 -0.432190 1389 0.710489 0.703708 0.000000
-3.007540 -3.022601 -0.430814 1389 0.710489 0.703708 0.000000
-3.007217 -3.022286 -0.429447 1389 0.710489 0.703708 0.000000
-3.007110 -3.022167 -0.428108 1389 0.710489 0.703708 0.000000
-3.007453 -3.022522 -0.426844 1387 0.710489 0.703708 0.000000
-3.007284 -3.022352 -0.425496 1385 0.710489 0.703708 0.000000
-3.006822 -3.021878 -0.424111 1379 0.710489 0.703708 0.000000
-3.006653 -3.021706 -0.422762 1373 0.710489 0.703708 0.000000
-3.006223 -3.021287 -0.421376 1363 0.710489 0.703708 0.000000
-3.006263 -3.021319 -0.420066 1375 0.710489 0.703708 0.000000
-3.007432 -3.022495 -0.418905 1391 0.710489 0.703708 0.000000
-3.007566 -3.022633 -0.417603 1389 0.710489 0.703708 0.000000
-3.007042 -3.022107 -0.416208 1387 0.710489 0.703708 0.000000
-3.007446 -3.022514 -0.414944 1399 0.710489 0.703708 0.000000
-3.007740 -3.022803 -0.413661 1393 0.710489 0.703708 0.000000
-3.007719 -3.022783 -0.412332 1403 0.710489 0.703708 0.000000
-3.007605 -3.022671 -0.410993 1419 0.710489 0.703708 0.000000
-3.007382 -3.022441 -0.409645 1405 0.710489 0.703708 0.000000
-3.007315 -3.022382 -0.408315 1395 0.710489 0.703708 0.000000
-3.007139 -3.022205 -0.406977 1391 0.710489 0.703708 0.000000
-3.007798 -3.022868 -0.405741 1399 0.710489 0.703708 0.000000
-3.008711 -3.023774 -0.404542 1393 0.710489 0.703708 0.000000
-3.008636 -3.023708 -0.403203 1399 0.710489 0.703708 0.000000
-3.007795 -3.022861 -0.401771 1403 0.710489 0.703708 0.000000
-3.006901 -3.021968 -0.400339 1371 0.710489 0.703708 0.000000
-3.006685 -3.021744 -0.398991 1365 0.710489 0.703708 0.000000
-3.006772 -3.021829 -0.397680 1369 0.710489 0.703708 0.000000
-3.007215 -3.022283 -0.396416 1385 0.710489 0.703708 0.000000
-3.007657 -3.022722 -0.395152 1391 0.710489 0.703708 0.000000
-3.007743 -3.022807 -0.393841 1385 0.710489 0.703708 0.000000
-3.007413 -3.022472 -0.392484 1395 0.710489 0.703708 0.000000
-3.007036 -3.022097 -0.391108 1389 0.710489 0.703708 0.000000
-3.006907 -3.021973 -0.389779 1401 0.710489 0.703708 0.000000
-3.006329 -3.021388 -0.388385 1393 0.710489 0.703708 0.000000
-3.005998 -3.021053 -0.387018 1367 0.710489 0.703708 0.000000
-3.006602 -3.021657 -0.385782 1367 0.710489 0.703708 0.000000
-3.007138 -3.022202 -0.384527 1371 0.710489 0.703708 0.000000
-3.006915 -3.021972 -0.383179 1377 0.710489 0.703708 0.000000
-3.007203 -3.022267 -0.381896 1377 0.710489 0.703708 0.000000
-3.007901 -3.022964 -0.380659 1385 0.710489 0.703708 0.000000
-3.008034 -3.023101 -0.379358 1377 0.710489 0.703708 0.000000
-3.007750 -3.022819 -0.378000 1371 0.710489 0.703708 0.000000
-3.007419 -3.022483 -0.376644 1377 0.710489 0.703708 0.000000
-3.007398 -3.022464 -0.375324 1387 0.710489 0.703708 0.000000
-3.007275 -3.022332 -0.373985 1381 0.710489 0.703708 0.000000
-3.007099 -3.022154 -0.372647 1367 0.710489 0.703708 0.000000
-3.006762 -3.021827 -0.371290 1375 0.710489 0.703708 0.000000
-3.006639 -3.021694 -0.369951 1385 0.710489 0.703708 0.000000
-3.007082 -3.022134 -0.368687 1385 0.710489 0.703708 0.000000
-3.007354 -3.022417 -0.367404 1375 0.710489 0.703708 0.000000
-3.007433 -3.022496 -0.366093 1373 0.710489 0.703708 0.000000
-3.007412 -3.022476 -0.364774 1373 0.710489 0.703708 0.000000
-3.007282 -3.022337 -0.363435 1369 0.710489 0.703708 0.000000
-3.006952 -3.022016 -0.362078 1371 0.710489 0.703708 0.000000
-3.006976 -3.022035 -0.360768 1375 0.710489 0.703708 0.000000
-3.007311 -3.022370 -0.359484 1379 0.710489 0.703708 0.000000
-3.006872 -3.021930 -0.358119 1375 0.710489 0.703708 0.000000
