520
-17.764944 -16.676268 -0.659632 839 0.731248 0.682111 0.000000
-17.764338 -16.675692 -0.652118 825 0.731248 0.682111 0.000000
-17.765869 -16.677135 -0.644693 841 0.731248 0.682111 0.000000
-17.765156 -16.676460 -0.637180 835 0.731248 0.682111 0.000000
-17.764071 -16.675447 -0.629650 825 0.731248 0.682111 0.000000
-17.764801 -16.676130 -0.622193 851 0.731248 0.682111 0.000000
-17.765471 -16.676767 -0.614726 837 0.731248 0.682111 0.000000
-17.765343 -16.676640 -0.607227 837 0.731248 0.682111 0.000000
-17.764839 -16.676174 -0.599732 857 0.731248 0.682111 0.000000
-17.765881 -16.677147 -0.592272 809 0.731248 0.682111 0.000000
-17.767078 -16.678270 -0.584831 855 0.731248 0.682111 0.000000
-17.767733 -16.678894 -0.577364 851 0.731248 0.682111 0.000000
-17.766165 -16.677412 -0.569819 857 0.731248 0.682111 0.000000
-17.765804 -16.677074 -0.562322 845 0.731248 0.682111 0.000000
-17.766466 -16.677704 -0.554856 847 0.731248 0.682111 0.000000
-17.764084 -16.675463 -0.547298 857 0.731248 0.682111 0.000000
-17.763939 -16.675322 -0.539809 845 0.731248 0.682111 0.000000
-17.764372 -16.675739 -0.532335 867 0.731248 0.682111 0.000000
-17.763855 -16.675249 -0.524829 877 0.731248 0.682111 0.000000
-17.766428 -16.677664 -0.517425 869 0.731248 0.682111 0.000000
-17.766275 -16.677519 -0.509926 867 0.731248 0.682111 0.000000
-17.764999 -16.676327 -0.502408 855 0.731248 0.682111 0.000000
-17.764635 -16.675982 -0.494911 863 0.731248 0.682111 0.000000
-17.764210 -16.675581 -0.487415 869 0.731248 0.682111 0.000000
-17.763783 -16.675186 -0.479919 867 0.731248 0.682111 0.000000
-17.765224 -16.676535 -0.472475 839 0.731248 0.682111 0.000000
-17.766605 -16.677834 -0.465022 865 0.731248 0.682111 0.000000
-17.766699 -16.677925 -0.457541 855 0.731248 0.682111 0.000000
-17.767349 -16.678532 -0.450065 857 0.731248 0.682111 0.000000
-17.766857 -16.678074 -0.442569 851 0.731248 0.682111 0.000000
-17.765305 -16.676605 -0.435044 853 0.731248 0.682111 0.000000
-17.765350 -16.676657 -0.427563 831 0.731248 0.682111 0.000000
-17.766991 -16.678190 -0.420117 827 0.731248 0.682111 0.000000
-17.766338 -16.677580 -0.412613 841 0.731248 0.682111 0.000000
-17.765902 -16.677168 -0.405117 839 0.731248 0.682111 0.000000
-17.766199 -16.677448 -0.397644 835 0.731248 0.682111 0.000000
-17.766022 -16.677282 -0.390156 837 0.731248 0.682111 0.000000
-17.766794 -16.678015 -0.382688 835 0.731248 0.682111 0.000000
-17.767580 -16.678741 -0.375211 827 0.731248 0.682111 0.000000
-17.767927 -16.679075 -0.367737 829 0.731248 0.682111 0.000000
-17.768438 -16.679556 -0.360262 827 0.731248 0.682111 0.000000
-17.767399 -16.678579 -0.352752 817 0.731248 0.682111 0.000000
-17.765821 -16.677092 -0.345237 833 0.731248 0.682111 0.000000
-17.765465 -16.676769 -0.337750 835 0.731248 0.682111 0.000000
-17.765066 -16.676388 -0.330253 819 0.731248 0.682111 0.000000
-17.766581 -16.677805 -0.322799 815 0.731248 0.682111 0.000000
-17.767929 -16.679079 -0.315336 833 0.731248 0.682111 0.000000
-17.767412 -16.678587 -0.307841 825 0.731248 0.682111 0.000000
-17.766769 -16.677998 -0.300347 827 0.731248 0.682111 0.000000
-17.765251 -16.676567 -0.292841 829 0.731248 0.682111 0.000000
-17.764841 -16.676178 -0.285354 817 0.731248 0.682111 0.000000
-17.766714 -16.677937 -0.277897 831 0.731248 0.682111 0.000000
-17.769644 -16.670063 -0.659611 831 0.731248 0.682111 0.000000
-17.769371 -16.669807 -0.652114 843 0.731248 0.682111 0.000000
-17.768824 -16.669291 -0.644609 853 0.731248 0.682111 0.000000
-17.769758 -16.670168 -0.637150 837 0.731248 0.682111 0.000000
-17.769796 -16.670214 -0.629669 837 0.731248 0.682111 0.000000
-17.768070 -16.668592 -0.622125 843 0.731248 0.682111 0.000000
-17.767618 -16.668165 -0.614619 823 0.731248 0.682111 0.000000
-17.768564 -16.669048 -0.607160 833 0.731248 0.682111 0.000000
-17.770082 -16.670473 -0.599726 851 0.731248 0.682111 0.000000
-17.769678 -16.670099 -0.592229 849 0.731248 0.682111 0.000000
-17.770506 -16.670872 -0.584772 833 0.731248 0.682111 0.000000
-17.771324 -16.671640 -0.577304 867 0.731248 0.682111 0.000000
-17.771568 -16.671865 -0.569831 871 0.731248 0.682111 0.000000
-17.772112 -16.672384 -0.562356 867 0.731248 0.682111 0.000000
-17.771387 -16.671701 -0.554852 875 0.731248 0.682111 0.000000
-17.770294 -16.670668 -0.547333 851 0.731248 0.682111 0.000000
-17.770195 -16.670580 -0.539843 869 0.731248 0.682111 0.000000
-17.771435 -16.671751 -0.532391 865 0.731248 0.682111 0.000000
-17.771866 -16.672153 -0.524917 881 0.731248 0.682111 0.000000
-17.771729 -16.672020 -0.517428 879 0.731248 0.682111 0.000000
-17.770666 -16.671026 -0.509908 885 0.731248 0.682111 0.000000
-17.770140 -16.670528 -0.502403 875 0.731248 0.682111 0.000000
-17.771475 -16.671789 -0.494960 851 0.731248 0.682111 0.000000
-17.772434 -16.672684 -0.487501 865 0.731248 0.682111 0.000000
-17.771959 -16.672239 -0.479995 863 0.731248 0.682111 0.000000
-17.771908 -16.672188 -0.472516 847 0.731248 0.682111 0.000000
-17.771858 -16.672138 -0.465026 863 0.731248 0.682111 0.000000
-17.770685 -16.671041 -0.457507 869 0.731248 0.682111 0.000000
-17.770081 -16.670481 -0.450002 845 0.731248 0.682111 0.000000
-17.770025 -16.670425 -0.442523 819 0.731248 0.682111 0.000000
-17.770391 -16.670765 -0.435049 825 0.731248 0.682111 0.000000
-17.769743 -16.670166 -0.427545 833 0.731248 0.682111 0.000000
-17.770473 -16.670851 -0.420078 831 0.731248 0.682111 0.000000
-17.773228 -16.673437 -0.412652 863 0.731248 0.682111 0.000000
-17.773005 -16.673223 -0.405164 855 0.731248 0.682111 0.000000
-17.771816 -16.672113 -0.397655 829 0.731248 0.682111 0.000000
-17.770618 -16.670982 -0.390136 833 0.731248 0.682111 0.000000
-17.769699 -16.670115 -0.382634 845 0.731248 0.682111 0.000000
-17.771648 -16.671951 -0.375196 805 0.731248 0.682111 0.000000
-17.772209 -16.672482 -0.367720 797 0.731248 0.682111 0.000000
-17.772020 -16.672297 -0.360232 803 0.731248 0.682111 0.000000
-17.772745 -16.672976 -0.352755 823 0.731248 0.682111 0.000000
-17.773045 -16.673260 -0.345282 817 0.731248 0.682111 0.000000
-17.771942 -16.672234 -0.337772 819 0.731248 0.682111 0.000000
-17.772177 -16.672451 -0.330290 807 0.731248 0.682111 0.000000
-17.773794 -16.673965 -0.322834 829 0.731248 0.682111 0.000000
-17.772264 -16.672529 -0.315329 799 0.731248 0.682111 0.000000
-17.772177 -16.672447 -0.307839 785 0.731248 0.682111 0.000000
-17.772835 -16.673061 -0.300363 807 0.731248 0.682111 0.000000
-17.773270 -16.673479 -0.292889 819 0.731248 0.682111 0.000000
-17.774134 -16.674284 -0.285420 823 0.731248 0.682111 0.000000
-17.771952 -16.672243 -0.277901 817 0.731248 0.682111 0.000000
-17.775063 -16.664940 -0.659632 845 0.731248 0.682111 0.000000
-17.774300 -16.664225 -0.652109 839 0.731248 0.682111 0.000000
-17.774607 -16.664515 -0.644635 833 0.731248 0.682111 0.000000
-17.775494 -16.665339 -0.637177 835 0.731248 0.682111 0.000000
-17.775959 -16.665781 -0.629712 865 0.731248 0.682111 0.000000
-17.776369 -16.666166 -0.622238 855 0.731248 0.682111 0.000000
-17.776609 -16.666389 -0.614756 853 0.731248 0.682111 0.000000
-17.776583 -16.666357 -0.607266 839 0.731248 0.682111 0.000000
-17.776558 -16.666342 -0.599776 843 0.731248 0.682111 0.000000
-17.776276 -16.666067 -0.592279 833 0.731248 0.682111 0.000000
-17.775919 -16.665743 -0.584782 837 0.731248 0.682111 0.000000
-17.775938 -16.665766 -0.577291 835 0.731248 0.682111 0.000000
-17.774954 -16.664833 -0.569781 837 0.731248 0.682111 0.000000
-17.774761 -16.664654 -0.562282 853 0.731248 0.682111 0.000000
-17.775257 -16.665125 -0.554817 849 0.731248 0.682111 0.000000
-17.776133 -16.665934 -0.547359 839 0.731248 0.682111 0.000000
-17.775661 -16.665495 -0.539853 849 0.731248 0.682111 0.000000
-17.776419 -16.666212 -0.532386 857 0.731248 0.682111 0.000000
-17.775900 -16.665722 -0.524891 837 0.731248 0.682111 0.000000
-17.775858 -16.665678 -0.517401 849 0.731248 0.682111 0.000000
-17.779390 -16.668995 -0.510017 845 0.731248 0.682111 0.000000
-17.778862 -16.668495 -0.502512 875 0.731248 0.682111 0.000000
-17.776569 -16.666351 -0.494964 835 0.731248 0.682111 0.000000
-17.776676 -16.666456 -0.487482 853 0.731248 0.682111 0.000000
-17.777378 -16.667116 -0.480016 845 0.731248 0.682111 0.000000
-17.778015 -16.667711 -0.472539 855 0.731248 0.682111 0.000000
-17.777916 -16.667608 -0.465050 839 0.731248 0.682111 0.000000
-17.776785 -16.666557 -0.457541 811 0.731248 0.682111 0.000000
-17.776457 -16.666245 -0.450044 837 0.731248 0.682111 0.000000
-17.776289 -16.666088 -0.442555 841 0.731248 0.682111 0.000000
-17.777559 -16.667282 -0.435103 841 0.731248 0.682111 0.000000
-17.778992 -16.668625 -0.427649 839 0.731248 0.682111 0.000000
-17.777813 -16.667522 -0.420130 811 0.731248 0.682111 0.000000
-17.778221 -16.667906 -0.412656 845 0.731248 0.682111 0.000000
-17.778044 -16.667742 -0.405168 843 0.731248 0.682111 0.000000
-17.777012 -16.666773 -0.397657 807 0.731248 0.682111 0.000000
-17.775991 -16.665810 -0.390147 809 0.731248 0.682111 0.000000
-17.775854 -16.665689 -0.382658 835 0.731248 0.682111 0.000000
-17.778023 -16.667713 -0.375227 821 0.731248 0.682111 0.000000
-17.777626 -16.667345 -0.367731 827 0.731248 0.682111 0.000000
-17.776325 -16.666122 -0.360213 845 0.731248 0.682111 0.000000
-17.776293 -16.666098 -0.352733 825 0.731248 0.682111 0.000000
-17.776796 -16.666571 -0.345258 819 0.731248 0.682111 0.000000
-17.776554 -16.666342 -0.337770 815 0.731248 0.682111 0.000000
-17.776577 -16.666363 -0.330280 819 0.731248 0.682111 0.000000
-17.778090 -16.667782 -0.322825 817 0.731248 0.682111 0.000000
-17.778271 -16.667955 -0.315343 821 0.731248 0.682111 0.000000
-17.778496 -16.668167 -0.307861 825 0.731248 0.682111 0.000000
-17.777496 -16.667223 -0.300360 819 0.731248 0.682111 0.000000
-17.777668 -16.667391 -0.292878 829 0.731248 0.682111 0.000000
-17.778217 -16.667902 -0.285403 813 0.731248 0.682111 0.000000
-17.777369 -16.667107 -0.277911 823 0.731248 0.682111 0.000000
-17.781027 -16.660719 -0.659675 839 0.731248 0.682111 0.000000
-17.780691 -16.660400 -0.652168 833 0.731248 0.682111 0.000000
-17.779394 -16.659189 -0.644640 845 0.731248 0.682111 0.000000
-17.779381 -16.659172 -0.637150 829 0.731248 0.682111 0.000000
-17.781109 -16.660801 -0.629723 821 0.731248 0.682111 0.000000
-17.781738 -16.661390 -0.622257 831 0.731248 0.682111 0.000000
-17.780706 -16.660419 -0.614737 831 0.731248 0.682111 0.000000
-17.780689 -16.660395 -0.607247 837 0.731248 0.682111 0.000000
-17.780384 -16.660114 -0.599749 849 0.731248 0.682111 0.000000
-17.779942 -16.659697 -0.592243 835 0.731248 0.682111 0.000000
-17.779749 -16.659517 -0.584755 847 0.731248 0.682111 0.000000
-17.779879 -16.659639 -0.577264 827 0.731248 0.682111 0.000000
-17.781237 -16.660919 -0.569821 843 0.731248 0.682111 0.000000
-17.780338 -16.660070 -0.562309 833 0.731248 0.682111 0.000000
-17.780470 -16.660194 -0.554828 859 0.731248 0.682111 0.000000
-17.780809 -16.660507 -0.547354 849 0.731248 0.682111 0.000000
-17.780340 -16.660082 -0.539848 829 0.731248 0.682111 0.000000
-17.779293 -16.659100 -0.532328 857 0.731248 0.682111 0.000000
-17.779827 -16.659599 -0.524863 849 0.731248 0.682111 0.000000
-17.780750 -16.660461 -0.517404 851 0.731248 0.682111 0.000000
-17.780762 -16.660479 -0.509914 877 0.731248 0.682111 0.000000
-17.780718 -16.660433 -0.502434 863 0.731248 0.682111 0.000000
-17.780024 -16.659784 -0.494920 847 0.731248 0.682111 0.000000
-17.780720 -16.660429 -0.487454 859 0.731248 0.682111 0.000000
-17.779770 -16.659536 -0.479942 839 0.731248 0.682111 0.000000
-17.778748 -16.658587 -0.472432 813 0.731248 0.682111 0.000000
-17.780664 -16.660383 -0.465004 839 0.731248 0.682111 0.000000
-17.781208 -16.660887 -0.457528 853 0.731248 0.682111 0.000000
-17.780453 -16.660179 -0.450025 859 0.731248 0.682111 0.000000
-17.781658 -16.661312 -0.442564 859 0.731248 0.682111 0.000000
-17.781553 -16.661217 -0.435074 869 0.731248 0.682111 0.000000
-17.781378 -16.661055 -0.427586 843 0.731248 0.682111 0.000000
-17.782442 -16.662043 -0.420126 839 0.731248 0.682111 0.000000
-17.782318 -16.661936 -0.412637 863 0.731248 0.682111 0.000000
-17.781921 -16.661568 -0.405150 841 0.731248 0.682111 0.000000
-17.781910 -16.661549 -0.397660 837 0.731248 0.682111 0.000000
-17.781410 -16.661085 -0.390165 827 0.731248 0.682111 0.000000
-17.782892 -16.662464 -0.382711 799 0.731248 0.682111 0.000000
-17.782171 -16.661797 -0.375207 797 0.731248 0.682111 0.000000
-17.782469 -16.662079 -0.367734 807 0.731248 0.682111 0.000000
-17.783777 -16.663305 -0.360272 817 0.731248 0.682111 0.000000
-17.782682 -16.662271 -0.352762 807 0.731248 0.682111 0.000000
-17.783133 -16.662704 -0.345288 815 0.731248 0.682111 0.000000
-17.782249 -16.661865 -0.337786 807 0.731248 0.682111 0.000000
-17.781687 -16.661337 -0.330291 821 0.731248 0.682111 0.000000
-17.781067 -16.660765 -0.322796 789 0.731248 0.682111 0.000000
-17.780386 -16.660128 -0.315303 825 0.731248 0.682111 0.000000
-17.780296 -16.660048 -0.307813 811 0.731248 0.682111 0.000000
-17.779566 -16.659357 -0.300320 789 0.731248 0.682111 0.000000
-17.781445 -16.661121 -0.292862 817 0.731248 0.682111 0.000000
-17.782892 -16.662476 -0.285408 823 0.731248 0.682111 0.000000
-17.782528 -16.662134 -0.277912 807 0.731248 0.682111 0.000000
-17.782494 -16.652290 -0.659550 809 0.731248 0.682111 0.000000
-17.784340 -16.654030 -0.652133 817 0.731248 0.682111 0.000000
-17.785564 -16.655172 -0.644681 841 0.731248 0.682111 0.000000
-17.784636 -16.654301 -0.637159 823 0.731248 0.682111 0.000000
-17.784775 -16.654428 -0.629678 839 0.731248 0.682111 0.000000
-17.784765 -16.654423 -0.622198 817 0.731248 0.682111 0.000000
-17.784201 -16.653896 -0.614683 825 0.731248 0.682111 0.000000
-17.784498 -16.654179 -0.607210 861 0.731248 0.682111 0.000000
-17.786030 -16.655611 -0.599775 835 0.731248 0.682111 0.000000
-17.785149 -16.654787 -0.592254 841 0.731248 0.682111 0.000000
-17.784964 -16.654602 -0.584765 821 0.731248 0.682111 0.000000
-17.786634 -16.656176 -0.577329 845 0.731248 0.682111 0.000000
-17.786718 -16.656246 -0.569848 837 0.731248 0.682111 0.000000
-17.785664 -16.655272 -0.562328 855 0.731248 0.682111 0.000000
-17.784666 -16.654325 -0.554807 841 0.731248 0.682111 0.000000
-17.784513 -16.654196 -0.547318 833 0.731248 0.682111 0.000000
-17.784914 -16.654560 -0.539845 857 0.731248 0.682111 0.000000
-17.785410 -16.655029 -0.532370 843 0.731248 0.682111 0.000000
-17.786646 -16.656183 -0.524918 829 0.731248 0.682111 0.000000
-17.787409 -16.656893 -0.517461 833 0.731248 0.682111 0.000000
-17.786072 -16.655651 -0.509933 839 0.731248 0.682111 0.000000
-17.786139 -16.655710 -0.502452 849 0.731248 0.682111 0.000000
-17.785986 -16.655563 -0.494953 831 0.731248 0.682111 0.000000
-17.784750 -16.654417 -0.487435 835 0.731248 0.682111 0.000000
-17.784758 -16.654425 -0.479955 827 0.731248 0.682111 0.000000
-17.785557 -16.655165 -0.472487 809 0.731248 0.682111 0.000000
-17.786678 -16.656214 -0.465036 833 0.731248 0.682111 0.000000
-17.786787 -16.656317 -0.457545 849 0.731248 0.682111 0.000000
-17.786032 -16.655609 -0.450042 851 0.731248 0.682111 0.000000
-17.786022 -16.655605 -0.442562 841 0.731248 0.682111 0.000000
-17.787188 -16.656691 -0.435101 871 0.731248 0.682111 0.000000
-17.786854 -16.656387 -0.427604 849 0.731248 0.682111 0.000000
-17.786747 -16.656279 -0.420115 815 0.731248 0.682111 0.000000
-17.787203 -16.656715 -0.412640 835 0.731248 0.682111 0.000000
-17.785912 -16.655497 -0.405132 811 0.731248 0.682111 0.000000
-17.785196 -16.654835 -0.397629 811 0.731248 0.682111 0.000000
-17.786190 -16.655767 -0.390169 817 0.731248 0.682111 0.000000
-17.787088 -16.656599 -0.382700 819 0.731248 0.682111 0.000000
-17.786104 -16.655682 -0.375189 821 0.731248 0.682111 0.000000
-17.785217 -16.654850 -0.367688 833 0.731248 0.682111 0.000000
-17.786959 -16.656481 -0.360241 823 0.731248 0.682111 0.000000
-17.788797 -16.658199 -0.352794 813 0.731248 0.682111 0.000000
-17.787603 -16.657082 -0.345285 805 0.731248 0.682111 0.000000
-17.787189 -16.656704 -0.337788 789 0.731248 0.682111 0.000000
-17.787857 -16.657322 -0.330322 785 0.731248 0.682111 0.000000
-17.788565 -16.657990 -0.322845 787 0.731248 0.682111 0.000000
-17.790232 -16.659555 -0.315389 799 0.731248 0.682111 0.000000
-17.788227 -16.657671 -0.307868 793 0.731248 0.682111 0.000000
-17.786747 -16.656288 -0.300362 817 0.731248 0.682111 0.000000
-17.787668 -16.657150 -0.292893 821 0.731248 0.682111 0.000000
-17.787523 -16.657011 -0.285404 793 0.731248 0.682111 0.000000
-17.788437 -16.657869 -0.277935 789 0.731248 0.682111 0.000000
-17.789429 -16.648211 -0.659618 819 0.731248 0.682111 0.000000
-17.791231 -16.649889 -0.652191 829 0.731248 0.682111 0.000000
-17.790953 -16.649628 -0.644693 845 0.731248 0.682111 0.000000
-17.790342 -16.649063 -0.637179 849 0.731248 0.682111 0.000000
-17.791712 -16.650339 -0.629746 849 0.731248 0.682111 0.000000
-17.792974 -16.651529 -0.622304 829 0.731248 0.682111 0.000000
-17.790333 -16.649054 -0.614718 805 0.731248 0.682111 0.000000
-17.788931 -16.647732 -0.607181 839 0.731248 0.682111 0.000000
-17.790720 -16.649412 -0.599754 821 0.731248 0.682111 0.000000
-17.792355 -16.650940 -0.592329 839 0.731248 0.682111 0.000000
-17.791626 -16.650265 -0.584816 831 0.731248 0.682111 0.000000
-17.791487 -16.650133 -0.577317 843 0.731248 0.682111 0.000000
-17.790710 -16.649406 -0.569814 833 0.731248 0.682111 0.000000
-17.790724 -16.649420 -0.562324 847 0.731248 0.682111 0.000000
-17.791170 -16.649837 -0.554849 823 0.731248 0.682111 0.000000
-17.790655 -16.649359 -0.547344 835 0.731248 0.682111 0.000000
-17.790627 -16.649326 -0.539864 821 0.731248 0.682111 0.000000
-17.790474 -16.649183 -0.532365 813 0.731248 0.682111 0.000000
-17.790480 -16.649191 -0.524885 841 0.731248 0.682111 0.000000
-17.790501 -16.649210 -0.517395 849 0.731248 0.682111 0.000000
-17.790653 -16.649353 -0.509913 861 0.731248 0.682111 0.000000
-17.791527 -16.650164 -0.502455 833 0.731248 0.682111 0.000000
-17.792332 -16.650917 -0.494987 847 0.731248 0.682111 0.000000
-17.792282 -16.650883 -0.487507 847 0.731248 0.682111 0.000000
-17.790792 -16.649477 -0.479971 825 0.731248 0.682111 0.000000
-17.790197 -16.648924 -0.472476 827 0.731248 0.682111 0.000000
-17.790676 -16.649380 -0.465002 811 0.731248 0.682111 0.000000
-17.790405 -16.649124 -0.457514 809 0.731248 0.682111 0.000000
-17.789122 -16.647913 -0.449996 797 0.731248 0.682111 0.000000
-17.789751 -16.648516 -0.442520 813 0.731248 0.682111 0.000000
-17.791613 -16.650251 -0.435082 823 0.731248 0.682111 0.000000
-17.791018 -16.649698 -0.427588 837 0.731248 0.682111 0.000000
-17.791544 -16.650192 -0.420112 821 0.731248 0.682111 0.000000
-17.794779 -16.653219 -0.412702 827 0.731248 0.682111 0.000000
-17.794769 -16.653202 -0.405212 821 0.731248 0.682111 0.000000
-17.795343 -16.653744 -0.397736 835 0.731248 0.682111 0.000000
-17.794462 -16.652924 -0.390234 815 0.731248 0.682111 0.000000
-17.793276 -16.651800 -0.382725 821 0.731248 0.682111 0.000000
-17.793139 -16.651680 -0.375236 799 0.731248 0.682111 0.000000
-17.793545 -16.652063 -0.367752 809 0.731248 0.682111 0.000000
-17.793842 -16.652334 -0.360280 811 0.731248 0.682111 0.000000
-17.791470 -16.650114 -0.352742 807 0.731248 0.682111 0.000000
-17.792124 -16.650734 -0.345275 801 0.731248 0.682111 0.000000
-17.793495 -16.652014 -0.337812 803 0.731248 0.682111 0.000000
-17.793617 -16.652128 -0.330331 837 0.731248 0.682111 0.000000
-17.793369 -16.651894 -0.322843 819 0.731248 0.682111 0.000000
-17.792427 -16.651007 -0.315342 807 0.731248 0.682111 0.000000
-17.792173 -16.650780 -0.307854 807 0.731248 0.682111 0.000000
-17.793478 -16.651993 -0.300392 815 0.731248 0.682111 0.000000
-17.793644 -16.652155 -0.292910 797 0.731248 0.682111 0.000000
-17.793812 -16.652308 -0.285418 795 0.731248 0.682111 0.000000
-17.794363 -16.652821 -0.277943 821 0.731248 0.682111 0.000000
-17.795095 -16.643019 -0.659637 803 0.731248 0.682111 0.000000
-17.796412 -16.644251 -0.652195 819 0.731248 0.682111 0.000000
-17.797785 -16.645544 -0.644752 823 0.731248 0.682111 0.000000
-17.798088 -16.645817 -0.637279 823 0.731248 0.682111 0.000000
-17.797588 -16.645353 -0.629773 809 0.731248 0.682111 0.000000
-17.795856 -16.643740 -0.622219 815 0.731248 0.682111 0.000000
-17.795458 -16.643372 -0.614723 841 0.731248 0.682111 0.000000
-17.796782 -16.644598 -0.607280 823 0.731248 0.682111 0.000000
-17.796638 -16.644474 -0.599781 823 0.731248 0.682111 0.000000
-17.796886 -16.644703 -0.592309 825 0.731248 0.682111 0.000000
-17.796970 -16.644773 -0.584818 829 0.731248 0.682111 0.000000
-17.795918 -16.643799 -0.577298 823 0.731248 0.682111 0.000000
-17.797596 -16.645365 -0.569862 839 0.731248 0.682111 0.000000
-17.797405 -16.645185 -0.562373 841 0.731248 0.682111 0.000000
-17.797205 -16.645004 -0.554875 841 0.731248 0.682111 0.000000
-17.797382 -16.645164 -0.547393 821 0.731248 0.682111 0.000000
-17.797285 -16.645075 -0.539904 843 0.731248 0.682111 0.000000
-17.797731 -16.645493 -0.532430 845 0.731248 0.682111 0.000000
-17.796354 -16.644205 -0.524902 837 0.731248 0.682111 0.000000
-17.796787 -16.644621 -0.517428 813 0.731248 0.682111 0.000000
-17.798452 -16.646173 -0.509992 841 0.731248 0.682111 0.000000
-17.797016 -16.644827 -0.502466 847 0.731248 0.682111 0.000000
-17.796328 -16.644184 -0.494962 843 0.731248 0.682111 0.000000
-17.796656 -16.644493 -0.487479 819 0.731248 0.682111 0.000000
-17.796221 -16.644093 -0.479982 821 0.731248 0.682111 0.000000
-17.795528 -16.643448 -0.472479 815 0.731248 0.682111 0.000000
-17.797611 -16.645390 -0.465049 839 0.731248 0.682111 0.000000
-17.799480 -16.647133 -0.457611 861 0.731248 0.682111 0.000000
-17.798244 -16.645987 -0.450093 849 0.731248 0.682111 0.000000
-17.797493 -16.645279 -0.442590 837 0.731248 0.682111 0.000000
-17.796144 -16.644016 -0.435072 815 0.731248 0.682111 0.000000
-17.796137 -16.644011 -0.427582 823 0.731248 0.682111 0.000000
-17.797674 -16.645449 -0.420137 807 0.731248 0.682111 0.000000
-17.797970 -16.645731 -0.412654 835 0.731248 0.682111 0.000000
-17.797108 -16.644922 -0.405152 819 0.731248 0.682111 0.000000
-17.798210 -16.645958 -0.397692 825 0.731248 0.682111 0.000000
-17.797228 -16.645039 -0.390181 823 0.731248 0.682111 0.000000
-17.796087 -16.643969 -0.382671 829 0.731248 0.682111 0.000000
-17.796005 -16.643894 -0.375192 809 0.731248 0.682111 0.000000
-17.795996 -16.643888 -0.367702 815 0.731248 0.682111 0.000000
-17.796392 -16.644253 -0.360228 821 0.731248 0.682111 0.000000
-17.796526 -16.644390 -0.352747 787 0.731248 0.682111 0.000000
-17.797993 -16.645756 -0.345293 801 0.731248 0.682111 0.000000
-17.799829 -16.647474 -0.337835 811 0.731248 0.682111 0.000000
-17.800444 -16.648050 -0.330359 809 0.731248 0.682111 0.000000
-17.798645 -16.646374 -0.322846 795 0.731248 0.682111 0.000000
-17.798557 -16.646292 -0.315357 797 0.731248 0.682111 0.000000
-17.800499 -16.648106 -0.307908 809 0.731248 0.682111 0.000000
-17.800186 -16.647808 -0.300411 807 0.731248 0.682111 0.000000
-17.797798 -16.645575 -0.292893 811 0.731248 0.682111 0.000000
-17.798767 -16.646488 -0.285424 797 0.731248 0.682111 0.000000
-17.800920 -16.648500 -0.277974 813 0.731248 0.682111 0.000000
-17.801361 -16.639620 -0.659695 809 0.731248 0.682111 0.000000
-17.801350 -16.639614 -0.652205 825 0.731248 0.682111 0.000000
-17.800747 -16.639053 -0.644700 817 0.731248 0.682111 0.000000
-17.799282 -16.637697 -0.637154 817 0.731248 0.682111 0.000000
-17.800331 -16.638674 -0.629704 823 0.731248 0.682111 0.000000
-17.800898 -16.639212 -0.622238 793 0.731248 0.682111 0.000000
-17.800604 -16.638941 -0.614741 813 0.731248 0.682111 0.000000
-17.801115 -16.639420 -0.607276 805 0.731248 0.682111 0.000000
-17.800859 -16.639194 -0.599778 831 0.731248 0.682111 0.000000
-17.798391 -16.636883 -0.592201 825 0.731248 0.682111 0.000000
-17.797922 -16.636457 -0.584705 815 0.731248 0.682111 0.000000
-17.801373 -16.639685 -0.577333 821 0.731248 0.682111 0.000000
-17.803038 -16.641249 -0.569897 835 0.731248 0.682111 0.000000
-17.801771 -16.640078 -0.562368 825 0.731248 0.682111 0.000000
-17.801683 -16.639996 -0.554879 801 0.731248 0.682111 0.000000
-17.801483 -16.639812 -0.547381 807 0.731248 0.682111 0.000000
-17.801069 -16.639429 -0.539885 813 0.731248 0.682111 0.000000
-17.801022 -16.639395 -0.532395 799 0.731248 0.682111 0.000000
-17.802423 -16.640711 -0.524951 811 0.731248 0.682111 0.000000
-17.802746 -16.641014 -0.517478 811 0.731248 0.682111 0.000000
-17.800941 -16.639330 -0.509935 807 0.731248 0.682111 0.000000
-17.799828 -16.638306 -0.502415 813 0.731248 0.682111 0.000000
-17.800734 -16.639154 -0.494956 787 0.731248 0.682111 0.000000
-17.801590 -16.639956 -0.487498 807 0.731248 0.682111 0.000000
-17.801163 -16.639561 -0.480002 815 0.731248 0.682111 0.000000
-17.802290 -16.640617 -0.472541 831 0.731248 0.682111 0.000000
-17.803020 -16.641314 -0.465074 827 0.731248 0.682111 0.000000
-17.802372 -16.640715 -0.457570 821 0.731248 0.682111 0.000000
-17.801943 -16.640324 -0.450074 819 0.731248 0.682111 0.000000
-17.802999 -16.641308 -0.442614 833 0.731248 0.682111 0.000000
-17.802666 -16.641003 -0.435117 815 0.731248 0.682111 0.000000
-17.801691 -16.640106 -0.427616 809 0.731248 0.682111 0.000000
-17.801311 -16.639750 -0.420119 821 0.731248 0.682111 0.000000
-17.802143 -16.640528 -0.412651 823 0.731248 0.682111 0.000000
-17.804054 -16.642319 -0.405213 829 0.731248 0.682111 0.000000
-17.803816 -16.642103 -0.397715 811 0.731248 0.682111 0.000000
-17.802999 -16.641344 -0.390212 829 0.731248 0.682111 0.000000
-17.803242 -16.641584 -0.382730 815 0.731248 0.682111 0.000000
-17.802685 -16.641062 -0.375235 801 0.731248 0.682111 0.000000
-17.802275 -16.640694 -0.367738 779 0.731248 0.682111 0.000000
-17.803646 -16.641972 -0.360285 795 0.731248 0.682111 0.000000
-17.803720 -16.642050 -0.352805 785 0.731248 0.682111 0.000000
-17.803411 -16.641766 -0.345307 779 0.731248 0.682111 0.000000
-17.802635 -16.641052 -0.337804 771 0.731248 0.682111 0.000000
-17.802387 -16.640818 -0.330316 791 0.731248 0.682111 0.000000
-17.802456 -16.640890 -0.322836 807 0.731248 0.682111 0.000000
-17.802265 -16.640713 -0.315347 791 0.731248 0.682111 0.000000
-17.801416 -16.639929 -0.307845 787 0.731248 0.682111 0.000000
-17.801535 -16.640055 -0.300364 783 0.731248 0.682111 0.000000
-17.801329 -16.639864 -0.292875 775 0.731248 0.682111 0.000000
-17.801987 -16.640478 -0.285409 789 0.731248 0.682111 0.000000
-17.803068 -16.641495 -0.277939 789 0.731248 0.682111 0.000000
-17.806236 -16.631939 -0.659651 801 0.731248 0.682111 0.000000
-17.808250 -16.633821 -0.652242 801 0.731248 0.682111 0.000000
-17.806641 -16.632309 -0.644696 821 0.731248 0.682111 0.000000
-17.806086 -16.631802 -0.637181 819 0.731248 0.682111 0.000000
-17.806335 -16.632032 -0.629709 809 0.731248 0.682111 0.000000
-17.805141 -16.630917 -0.622180 781 0.731248 0.682111 0.000000
-17.805279 -16.631046 -0.614699 783 0.731248 0.682111 0.000000
-17.807764 -16.633364 -0.607295 823 0.731248 0.682111 0.000000
-17.807739 -16.633348 -0.599805 813 0.731248 0.682111 0.000000
-17.806755 -16.632429 -0.592284 815 0.731248 0.682111 0.000000
-17.808760 -16.634293 -0.584865 827 0.731248 0.682111 0.000000
-17.808834 -16.634373 -0.577374 821 0.731248 0.682111 0.000000
-17.808264 -16.633837 -0.569869 817 0.731248 0.682111 0.000000
-17.807375 -16.633007 -0.562358 815 0.731248 0.682111 0.000000
-17.807404 -16.633022 -0.554867 819 0.731248 0.682111 0.000000
-17.809069 -16.634586 -0.547431 793 0.731248 0.682111 0.000000
-17.808708 -16.634249 -0.539935 769 0.731248 0.682111 0.000000
-17.806803 -16.632471 -0.532392 819 0.731248 0.682111 0.000000
-17.807295 -16.632923 -0.524918 817 0.731248 0.682111 0.000000
-17.808636 -16.634176 -0.517475 813 0.731248 0.682111 0.000000
-17.807158 -16.632793 -0.509938 815 0.731248 0.682111 0.000000
-17.806198 -16.631908 -0.502427 781 0.731248 0.682111 0.000000
-17.807119 -16.632755 -0.494968 779 0.731248 0.682111 0.000000
-17.806904 -16.632563 -0.487480 787 0.731248 0.682111 0.000000
-17.805882 -16.631611 -0.479960 813 0.731248 0.682111 0.000000
-17.806423 -16.632116 -0.472494 803 0.731248 0.682111 0.000000
-17.808245 -16.633810 -0.465057 799 0.731248 0.682111 0.000000
-17.809940 -16.635399 -0.457611 805 0.731248 0.682111 0.000000
-17.810093 -16.635542 -0.450130 811 0.731248 0.682111 0.000000
-17.808710 -16.634247 -0.442612 811 0.731248 0.682111 0.000000
-17.809015 -16.634535 -0.435129 817 0.731248 0.682111 0.000000
-17.807938 -16.633530 -0.427619 797 0.731248 0.682111 0.000000
-17.808306 -16.633867 -0.420136 813 0.731248 0.682111 0.000000
-17.809780 -16.635254 -0.412692 827 0.731248 0.682111 0.000000
-17.809982 -16.635435 -0.405210 825 0.731248 0.682111 0.000000
-17.810715 -16.636118 -0.397732 825 0.731248 0.682111 0.000000
-17.809519 -16.635002 -0.390224 799 0.731248 0.682111 0.000000
-17.808695 -16.634239 -0.382721 775 0.731248 0.682111 0.000000
-17.809528 -16.635019 -0.375253 797 0.731248 0.682111 0.000000
-17.808924 -16.634443 -0.367759 791 0.731248 0.682111 0.000000
-17.808620 -16.634165 -0.360261 773 0.731248 0.682111 0.000000
-17.810034 -16.635489 -0.352808 783 0.731248 0.682111 0.000000
-17.808943 -16.634468 -0.345298 771 0.731248 0.682111 0.000000
-17.808746 -16.634291 -0.337809 787 0.731248 0.682111 0.000000
-17.809410 -16.634905 -0.330343 803 0.731248 0.682111 0.000000
-17.810289 -16.635723 -0.322865 807 0.731248 0.682111 0.000000
-17.811802 -16.637142 -0.315410 781 0.731248 0.682111 0.000000
-17.809416 -16.634909 -0.307883 779 0.731248 0.682111 0.000000
-17.809214 -16.634726 -0.300394 773 0.731248 0.682111 0.000000
-17.809931 -16.635384 -0.292917 771 0.731248 0.682111 0.000000
-17.810265 -16.635696 -0.285444 763 0.731248 0.682111 0.000000
-17.811605 -16.636950 -0.277981 767 0.731248 0.682111 0.000000
-17.812447 -16.628609 -0.659718 811 0.731248 0.682111 0.000000
-17.813818 -16.629900 -0.652285 791 0.731248 0.682111 0.000000
-17.813055 -16.629187 -0.644762 771 0.731248 0.682111 0.000000
-17.811279 -16.627537 -0.637208 807 0.731248 0.682111 0.000000
-17.811300 -16.627569 -0.629728 795 0.731248 0.682111 0.000000
-17.812134 -16.628351 -0.622270 775 0.731248 0.682111 0.000000
-17.811146 -16.627441 -0.614749 771 0.731248 0.682111 0.000000
-17.812351 -16.628571 -0.607298 793 0.731248 0.682111 0.000000
-17.814087 -16.630196 -0.599871 815 0.731248 0.682111 0.000000
-17.814005 -16.630119 -0.592382 819 0.731248 0.682111 0.000000
-17.812424 -16.628653 -0.584836 795 0.731248 0.682111 0.000000
-17.810738 -16.627077 -0.577292 793 0.731248 0.682111 0.000000
-17.811069 -16.627401 -0.569819 787 0.731248 0.682111 0.000000
-17.812321 -16.628569 -0.562377 793 0.731248 0.682111 0.000000
-17.811964 -16.628246 -0.554870 781 0.731248 0.682111 0.000000
-17.813305 -16.629513 -0.547427 789 0.731248 0.682111 0.000000
-17.814068 -16.630224 -0.539960 775 0.731248 0.682111 0.000000
-17.813379 -16.629593 -0.532456 777 0.731248 0.682111 0.000000
-17.812918 -16.629160 -0.524960 809 0.731248 0.682111 0.000000
-17.813082 -16.629322 -0.517468 807 0.731248 0.682111 0.000000
-17.812235 -16.628538 -0.509966 801 0.731248 0.682111 0.000000
-17.811743 -16.628094 -0.502460 773 0.731248 0.682111 0.000000
-17.812231 -16.628542 -0.494986 773 0.731248 0.682111 0.000000
-17.811485 -16.627855 -0.487482 773 0.731248 0.682111 0.000000
-17.811911 -16.628265 -0.480008 775 0.731248 0.682111 0.000000
-17.813513 -16.629768 -0.472563 807 0.731248 0.682111 0.000000
-17.813992 -16.630224 -0.465088 813 0.731248 0.682111 0.000000
-17.815268 -16.631411 -0.457636 819 0.731248 0.682111 0.000000
-17.816593 -16.632666 -0.450183 813 0.731248 0.682111 0.000000
-17.815840 -16.631958 -0.442680 791 0.731248 0.682111 0.000000
-17.814117 -16.630365 -0.435146 805 0.731248 0.682111 0.000000
-17.813190 -16.629507 -0.427635 817 0.731248 0.682111 0.000000
-17.813496 -16.629793 -0.420162 797 0.731248 0.682111 0.000000
-17.814598 -16.630829 -0.412701 809 0.731248 0.682111 0.000000
-17.814217 -16.630474 -0.405205 793 0.731248 0.682111 0.000000
-17.813179 -16.629511 -0.397694 783 0.731248 0.682111 0.000000
-17.813107 -16.629456 -0.390204 773 0.731248 0.682111 0.000000
-17.812437 -16.628841 -0.382711 761 0.731248 0.682111 0.000000
-17.813047 -16.629416 -0.375235 787 0.731248 0.682111 0.000000
-17.814901 -16.631149 -0.367787 789 0.731248 0.682111 0.000000
-17.813202 -16.629574 -0.360273 805 0.731248 0.682111 0.000000
-17.813610 -16.629959 -0.352789 777 0.731248 0.682111 0.000000
-17.814217 -16.630529 -0.345323 753 0.731248 0.682111 0.000000
-17.812634 -16.629063 -0.337807 767 0.731248 0.682111 0.000000
-17.814259 -16.630583 -0.330352 803 0.731248 0.682111 0.000000
-17.815292 -16.631550 -0.322882 785 0.731248 0.682111 0.000000
-17.814665 -16.630970 -0.315388 791 0.731248 0.682111 0.000000
-17.813662 -16.630047 -0.307887 789 0.731248 0.682111 0.000000
-17.813122 -16.629553 -0.300392 763 0.731248 0.682111 0.000000
-17.814320 -16.630676 -0.292920 757 0.731248 0.682111 0.000000
-17.816900 -16.633085 -0.285476 797 0.731248 0.682111 0.000000
-17.816423 -16.632652 -0.277990 791 0.731248 0.682111 0.000000
