761
-12.694517 -11.810096 -0.408283 303 0.727041 0.686594 0.000000
-12.693911 -11.809533 -0.402938 333 0.727041 0.686594 0.000000
-12.694640 -11.810210 -0.397631 321 0.727041 0.686594 0.000000
-12.695420 -11.810939 -0.392334 299 0.727041 0.686594 0.000000
-12.696363 -11.811813 -0.387035 303 0.727041 0.686594 0.000000
-12.697300 -11.812696 -0.381726 289 0.727041 0.686594 0.000000
-12.695509 -11.811019 -0.376352 295 0.727041 0.686594 0.000000
-12.695265 -11.810802 -0.371015 277 0.727041 0.686594 0.000000
-12.695887 -11.811377 -0.365709 287 0.727041 0.686594 0.000000
-12.696182 -11.811650 -0.360386 293 0.727041 0.686594 0.000000
-12.696844 -11.812270 -0.355079 333 0.727041 0.686594 0.000000
-12.696331 -11.811797 -0.349734 303 0.727041 0.686594 0.000000
-12.696196 -11.811667 -0.344405 291 0.727041 0.686594 0.000000
-12.695036 -11.810580 -0.339046 291 0.727041 0.686594 0.000000
-12.694736 -11.810305 -0.333709 287 0.727041 0.686594 0.000000
-12.695662 -11.811167 -0.328410 295 0.727041 0.686594 0.000000
-12.696267 -11.811728 -0.323094 295 0.727041 0.686594 0.000000
-12.696606 -11.812048 -0.317781 325 0.727041 0.686594 0.000000
-12.695384 -11.810910 -0.312422 293 0.727041 0.686594 0.000000
-12.695076 -11.810630 -0.307085 273 0.727041 0.686594 0.000000
-12.695885 -11.811382 -0.301777 319 0.727041 0.686594 0.000000
-12.695576 -11.811088 -0.296450 295 0.727041 0.686594 0.000000
-12.699618 -11.807588 -0.685517 285 0.727041 0.686594 0.000000
-12.699342 -11.807332 -0.680170 295 0.727041 0.686594 0.000000
-12.698844 -11.806870 -0.674814 319 0.727041 0.686594 0.000000
-12.699316 -11.807312 -0.669500 317 0.727041 0.686594 0.000000
-12.699786 -11.807738 -0.664195 295 0.727041 0.686594 0.000000
-12.700730 -11.808627 -0.658906 289 0.727041 0.686594 0.000000
-12.700178 -11.808109 -0.653551 295 0.727041 0.686594 0.000000
-12.698878 -11.806907 -0.648153 281 0.727041 0.686594 0.000000
-12.698749 -11.806784 -0.642814 295 0.727041 0.686594 0.000000
-12.699266 -11.807262 -0.637509 283 0.727041 0.686594 0.000000
-12.698825 -11.806847 -0.632154 307 0.727041 0.686594 0.000000
-12.698257 -11.806329 -0.626799 299 0.727041 0.686594 0.000000
-12.698075 -11.806162 -0.621450 295 0.727041 0.686594 0.000000
-12.697412 -11.805541 -0.616086 301 0.727041 0.686594 0.000000
-12.698126 -11.806205 -0.610789 295 0.727041 0.686594 0.000000
-12.700621 -11.808517 -0.605576 307 0.727041 0.686594 0.000000
-12.700700 -11.808601 -0.600255 303 0.727041 0.686594 0.000000
-12.698256 -11.806331 -0.594808 317 0.727041 0.686594 0.000000
-12.697861 -11.805952 -0.589462 289 0.727041 0.686594 0.000000
-12.697229 -11.805370 -0.584097 277 0.727041 0.686594 0.000000
-12.697518 -11.805638 -0.578784 303 0.727041 0.686594 0.000000
-12.698180 -11.806258 -0.573478 283 0.727041 0.686594 0.000000
-12.697509 -11.805631 -0.568124 293 0.727041 0.686594 0.000000
-12.698265 -11.806341 -0.562827 293 0.727041 0.686594 0.000000
-12.697324 -11.805457 -0.557456 317 0.727041 0.686594 0.000000
-12.696378 -11.804581 -0.552085 317 0.727041 0.686594 0.000000
-12.697834 -11.805935 -0.546821 325 0.727041 0.686594 0.000000
-12.698007 -11.806094 -0.541499 319 0.727041 0.686594 0.000000
-12.695494 -11.803768 -0.536062 285 0.727041 0.686594 0.000000
-12.695767 -11.804023 -0.530740 313 0.727041 0.686594 0.000000
-12.698521 -11.806571 -0.525524 311 0.727041 0.686594 0.000000
-12.699593 -11.807576 -0.520244 313 0.727041 0.686594 0.000000
-12.699552 -11.807536 -0.514904 307 0.727041 0.686594 0.000000
-12.697786 -11.805894 -0.509510 307 0.727041 0.686594 0.000000
-12.696721 -11.804908 -0.504140 265 0.727041 0.686594 0.000000
-12.697736 -11.805854 -0.498850 277 0.727041 0.686594 0.000000
-12.698380 -11.806448 -0.493544 293 0.727041 0.686594 0.000000
-12.698000 -11.806095 -0.488208 305 0.727041 0.686594 0.000000
-12.696667 -11.804854 -0.482830 299 0.727041 0.686594 0.000000
-12.698374 -11.806437 -0.477564 353 0.727041 0.686594 0.000000
-12.699446 -11.807443 -0.472274 339 0.727041 0.686594 0.000000
-12.698806 -11.806841 -0.466920 333 0.727041 0.686594 0.000000
-12.698144 -11.806233 -0.461566 327 0.727041 0.686594 0.000000
-12.697826 -11.805932 -0.456229 289 0.727041 0.686594 0.000000
-12.698558 -11.806622 -0.450922 287 0.727041 0.686594 0.000000
-12.699031 -11.807064 -0.445617 303 0.727041 0.686594 0.000000
-12.699019 -11.807049 -0.440287 315 0.727041 0.686594 0.000000
-12.698743 -11.806793 -0.434950 327 0.727041 0.686594 0.000000
-12.698033 -11.806133 -0.429596 329 0.727041 0.686594 0.000000
-12.697803 -11.805916 -0.424258 319 0.727041 0.686594 0.000000
-12.698053 -11.806152 -0.418936 317 0.727041 0.686594 0.000000
-12.698305 -11.806388 -0.413623 311 0.727041 0.686594 0.000000
-12.698122 -11.806221 -0.408285 333 0.727041 0.686594 0.000000
-12.698167 -11.806252 -0.402964 317 0.727041 0.686594 0.000000
-12.699316 -11.807332 -0.397673 305 0.727041 0.686594 0.000000
-12.698496 -11.806558 -0.392321 325 0.727041 0.686594 0.000000
-12.699273 -11.807285 -0.387013 311 0.727041 0.686594 0.000000
-12.700698 -11.808615 -0.381730 323 0.727041 0.686594 0.000000
-12.699334 -11.807349 -0.376363 297 0.727041 0.686594 0.000000
-12.697648 -11.805782 -0.370988 291 0.727041 0.686594 0.000000
-12.698796 -11.806849 -0.365687 321 0.727041 0.686594 0.000000
-12.699896 -11.807864 -0.360387 301 0.727041 0.686594 0.000000
-12.698850 -11.806893 -0.355037 299 0.727041 0.686594 0.000000
-12.698548 -11.806618 -0.349699 307 0.727041 0.686594 0.000000
-12.700185 -11.808131 -0.344414 287 0.727041 0.686594 0.000000
-12.700569 -11.808502 -0.339100 317 0.727041 0.686594 0.000000
-12.698606 -11.806672 -0.333718 319 0.727041 0.686594 0.000000
-12.698410 -11.806495 -0.328390 311 0.727041 0.686594 0.000000
-12.699289 -11.807304 -0.323082 283 0.727041 0.686594 0.000000
-12.700053 -11.808020 -0.317774 279 0.727041 0.686594 0.000000
-12.699586 -11.807585 -0.312439 291 0.727041 0.686594 0.000000
-12.698567 -11.806638 -0.307088 291 0.727041 0.686594 0.000000
-12.698426 -11.806503 -0.301759 303 0.727041 0.686594 0.000000
-12.698441 -11.806522 -0.296429 323 0.727041 0.686594 0.000000
-12.703792 -11.804379 -0.685553 261 0.727041 0.686594 0.000000
-12.703412 -11.804027 -0.680197 261 0.727041 0.686594 0.000000
-12.702867 -11.803515 -0.674842 263 0.727041 0.686594 0.000000
-12.700920 -11.801711 -0.669410 287 0.727041 0.686594 0.000000
-12.701761 -11.802491 -0.664122 297 0.727041 0.686594 0.000000
-12.703193 -11.803826 -0.658858 303 0.727041 0.686594 0.000000
-12.702049 -11.802765 -0.653469 271 0.727041 0.686594 0.000000
-12.702309 -11.802994 -0.648146 293 0.727041 0.686594 0.000000
-12.702126 -11.802828 -0.642808 301 0.727041 0.686594 0.000000
-12.702266 -11.802960 -0.637487 291 0.727041 0.686594 0.000000
-12.700744 -11.801541 -0.632081 279 0.727041 0.686594 0.000000
-12.699648 -11.800529 -0.626691 293 0.727041 0.686594 0.000000
-12.701182 -11.801949 -0.621436 275 0.727041 0.686594 0.000000
-12.701962 -11.802678 -0.616139 277 0.727041 0.686594 0.000000
-12.703331 -11.803948 -0.610876 291 0.727041 0.686594 0.000000
-12.703888 -11.804473 -0.605571 317 0.727041 0.686594 0.000000
-12.702839 -11.803499 -0.600190 297 0.727041 0.686594 0.000000
-12.701641 -11.802381 -0.594801 257 0.727041 0.686594 0.000000
-12.702088 -11.802802 -0.589487 293 0.727041 0.686594 0.000000
-12.701032 -11.801824 -0.584117 307 0.727041 0.686594 0.000000
-12.701534 -11.802290 -0.578802 293 0.727041 0.686594 0.000000
-12.701077 -11.801861 -0.573456 275 0.727041 0.686594 0.000000
-12.701255 -11.802026 -0.568134 281 0.727041 0.686594 0.000000
-12.702720 -11.803388 -0.562871 291 0.727041 0.686594 0.000000
-12.701292 -11.802056 -0.557474 335 0.727041 0.686594 0.000000
-12.701408 -11.802172 -0.552153 317 0.727041 0.686594 0.000000
-12.703139 -11.803775 -0.546896 321 0.727041 0.686594 0.000000
-12.702888 -11.803538 -0.541548 331 0.727041 0.686594 0.000000
-12.701982 -11.802708 -0.536187 319 0.727041 0.686594 0.000000
-12.702521 -11.803204 -0.530882 325 0.727041 0.686594 0.000000
-12.703283 -11.803906 -0.525574 329 0.727041 0.686594 0.000000
-12.702652 -11.803324 -0.520220 327 0.727041 0.686594 0.000000
-12.702117 -11.802833 -0.514875 327 0.727041 0.686594 0.000000
-12.702281 -11.802985 -0.509553 315 0.727041 0.686594 0.000000
-12.703942 -11.804532 -0.504288 303 0.727041 0.686594 0.000000
-12.704003 -11.804589 -0.498957 325 0.727041 0.686594 0.000000
-12.702937 -11.803590 -0.493587 331 0.727041 0.686594 0.000000
-12.702558 -11.803238 -0.488240 333 0.727041 0.686594 0.000000
-12.702290 -11.802988 -0.482903 351 0.727041 0.686594 0.000000
-12.702129 -11.802839 -0.477574 363 0.727041 0.686594 0.000000
-12.701797 -11.802539 -0.472227 319 0.727041 0.686594 0.000000
-12.702388 -11.803090 -0.466921 309 0.727041 0.686594 0.000000
-12.702590 -11.803273 -0.461599 293 0.727041 0.686594 0.000000
-12.702638 -11.803318 -0.456269 309 0.727041 0.686594 0.000000
-12.701996 -11.802714 -0.450925 315 0.727041 0.686594 0.000000
-12.700099 -11.800965 -0.445532 309 0.727041 0.686594 0.000000
-12.701656 -11.802402 -0.440258 309 0.727041 0.686594 0.000000
-12.702656 -11.803334 -0.434958 301 0.727041 0.686594 0.000000
-12.702157 -11.802873 -0.429613 323 0.727041 0.686594 0.000000
-12.703321 -11.803954 -0.424322 335 0.727041 0.686594 0.000000
-12.702824 -11.803493 -0.418986 331 0.727041 0.686594 0.000000
-12.702703 -11.803376 -0.413647 323 0.727041 0.686594 0.000000
-12.702632 -11.803311 -0.408318 329 0.727041 0.686594 0.000000
-12.702458 -11.803152 -0.402989 297 0.727041 0.686594 0.000000
-12.703236 -11.803880 -0.397682 317 0.727041 0.686594 0.000000
-12.702306 -11.803017 -0.392330 301 0.727041 0.686594 0.000000
-12.700934 -11.801744 -0.386963 309 0.727041 0.686594 0.000000
-12.702090 -11.802817 -0.381662 309 0.727041 0.686594 0.000000
-12.702285 -11.802996 -0.376340 273 0.727041 0.686594 0.000000
-12.701875 -11.802619 -0.371004 315 0.727041 0.686594 0.000000
-12.702229 -11.802950 -0.365690 341 0.727041 0.686594 0.000000
-12.702573 -11.803262 -0.360367 301 0.727041 0.686594 0.000000
-12.703619 -11.804233 -0.355067 321 0.727041 0.686594 0.000000
-12.702994 -11.803657 -0.349723 301 0.727041 0.686594 0.000000
-12.700986 -11.801791 -0.344352 267 0.727041 0.686594 0.000000
-12.701056 -11.801853 -0.339021 285 0.727041 0.686594 0.000000
-12.702244 -11.802965 -0.333729 309 0.727041 0.686594 0.000000
-12.702109 -11.802838 -0.328401 285 0.727041 0.686594 0.000000
-12.701691 -11.802454 -0.323064 285 0.727041 0.686594 0.000000
-12.702728 -11.803418 -0.317755 297 0.727041 0.686594 0.000000
-12.703285 -11.803928 -0.312449 291 0.727041 0.686594 0.000000
-12.702810 -11.803486 -0.307104 313 0.727041 0.686594 0.000000
-12.702872 -11.803543 -0.301783 301 0.727041 0.686594 0.000000
-12.702462 -11.803166 -0.296446 291 0.727041 0.686594 0.000000
-12.707080 -11.800197 -0.685539 281 0.727041 0.686594 0.000000
-12.705519 -11.798745 -0.680123 263 0.727041 0.686594 0.000000
-12.705392 -11.798636 -0.674784 267 0.727041 0.686594 0.000000
-12.707524 -11.800617 -0.669564 269 0.727041 0.686594 0.000000
-12.707192 -11.800303 -0.664217 275 0.727041 0.686594 0.000000
-12.705191 -11.798443 -0.658776 265 0.727041 0.686594 0.000000
-12.704378 -11.797688 -0.653403 245 0.727041 0.686594 0.000000
-12.704409 -11.797719 -0.648073 269 0.727041 0.686594 0.000000
-12.705840 -11.799055 -0.642819 301 0.727041 0.686594 0.000000
-12.708179 -11.801227 -0.637597 297 0.727041 0.686594 0.000000
-12.707932 -11.800997 -0.632249 315 0.727041 0.686594 0.000000
-12.706900 -11.800037 -0.626869 297 0.727041 0.686594 0.000000
-12.706984 -11.800113 -0.621538 289 0.727041 0.686594 0.000000
-12.706746 -11.799888 -0.616200 301 0.727041 0.686594 0.000000
-12.705696 -11.798916 -0.610820 289 0.727041 0.686594 0.000000
-12.705137 -11.798405 -0.605465 295 0.727041 0.686594 0.000000
-12.706663 -11.799816 -0.600200 293 0.727041 0.686594 0.000000
-12.706631 -11.799784 -0.594871 283 0.727041 0.686594 0.000000
-12.707031 -11.800167 -0.589557 281 0.727041 0.686594 0.000000
-12.706730 -11.799878 -0.584209 291 0.727041 0.686594 0.000000
-12.704610 -11.797909 -0.578789 301 0.727041 0.686594 0.000000
-12.704948 -11.798228 -0.573466 309 0.727041 0.686594 0.000000
-12.706624 -11.799788 -0.568210 301 0.727041 0.686594 0.000000
-12.707292 -11.800400 -0.562914 305 0.727041 0.686594 0.000000
-12.705851 -11.799071 -0.557517 311 0.727041 0.686594 0.000000
-12.704635 -11.797938 -0.552138 313 0.727041 0.686594 0.000000
-12.705515 -11.798748 -0.546840 327 0.727041 0.686594 0.000000
-12.705837 -11.799056 -0.541527 307 0.727041 0.686594 0.000000
-12.705309 -11.798570 -0.536171 317 0.727041 0.686594 0.000000
-12.705331 -11.798581 -0.530851 319 0.727041 0.686594 0.000000
-12.707164 -11.800281 -0.525594 307 0.727041 0.686594 0.000000
-12.708455 -11.801489 -0.520312 323 0.727041 0.686594 0.000000
-12.707870 -11.800944 -0.514957 339 0.727041 0.686594 0.000000
-12.705789 -11.799006 -0.509546 341 0.727041 0.686594 0.000000
-12.705466 -11.798713 -0.504209 317 0.727041 0.686594 0.000000
-12.706166 -11.799364 -0.498903 311 0.727041 0.686594 0.000000
-12.706698 -11.799855 -0.493598 343 0.727041 0.686594 0.000000
-12.706966 -11.800104 -0.488275 337 0.727041 0.686594 0.000000
-12.704658 -11.797970 -0.482856 327 0.727041 0.686594 0.000000
-12.703482 -11.796868 -0.477487 297 0.727041 0.686594 0.000000
-12.704764 -11.798057 -0.472205 317 0.727041 0.686594 0.000000
-12.705614 -11.798857 -0.466907 319 0.727041 0.686594 0.000000
-12.706307 -11.799501 -0.461610 311 0.727041 0.686594 0.000000
-12.705596 -11.798841 -0.456257 289 0.727041 0.686594 0.000000
-12.704947 -11.798233 -0.450903 297 0.727041 0.686594 0.000000
-12.705207 -11.798475 -0.445580 309 0.727041 0.686594 0.000000
-12.704615 -11.797926 -0.440236 319 0.727041 0.686594 0.000000
-12.705400 -11.798660 -0.434938 309 0.727041 0.686594 0.000000
-12.707211 -11.800342 -0.429661 325 0.727041 0.686594 0.000000
-12.708053 -11.801121 -0.424363 341 0.727041 0.686594 0.000000
-12.706963 -11.800102 -0.419003 335 0.727041 0.686594 0.000000
-12.705773 -11.799003 -0.413634 333 0.727041 0.686594 0.000000
-12.705975 -11.799187 -0.408312 321 0.727041 0.686594 0.000000
-12.706322 -11.799514 -0.402999 335 0.727041 0.686594 0.000000
-12.705878 -11.799097 -0.397653 325 0.727041 0.686594 0.000000
-12.705264 -11.798528 -0.392308 301 0.727041 0.686594 0.000000
-12.704917 -11.798214 -0.386972 321 0.727041 0.686594 0.000000
-12.705528 -11.798781 -0.381666 307 0.727041 0.686594 0.000000
-12.706047 -11.799261 -0.376351 323 0.727041 0.686594 0.000000
-12.706132 -11.799337 -0.371030 317 0.727041 0.686594 0.000000
-12.706794 -11.799957 -0.365713 333 0.727041 0.686594 0.000000
-12.706240 -11.799438 -0.360379 321 0.727041 0.686594 0.000000
-12.706475 -11.799662 -0.355056 293 0.727041 0.686594 0.000000
-12.706600 -11.799783 -0.349725 289 0.727041 0.686594 0.000000
-12.705873 -11.799098 -0.344382 301 0.727041 0.686594 0.000000
-12.706266 -11.799461 -0.339068 309 0.727041 0.686594 0.000000
-12.705966 -11.799186 -0.333730 281 0.727041 0.686594 0.000000
-12.706729 -11.799902 -0.328423 289 0.727041 0.686594 0.000000
-12.707231 -11.800367 -0.323108 295 0.727041 0.686594 0.000000
-12.705693 -11.798934 -0.317743 301 0.727041 0.686594 0.000000
-12.705487 -11.798748 -0.312415 317 0.727041 0.686594 0.000000
-12.705983 -11.799210 -0.307100 299 0.727041 0.686594 0.000000
-12.705840 -11.799074 -0.301771 297 0.727041 0.686594 0.000000
-12.707406 -11.800531 -0.296476 283 0.727041 0.686594 0.000000
-12.709927 -11.795193 -0.685490 263 0.727041 0.686594 0.000000
-12.709650 -11.794937 -0.680142 307 0.727041 0.686594 0.000000
-12.708995 -11.794335 -0.674778 297 0.727041 0.686594 0.000000
-12.709624 -11.794917 -0.669472 291 0.727041 0.686594 0.000000
-12.709338 -11.794654 -0.664135 299 0.727041 0.686594 0.000000
-12.709330 -11.794641 -0.658795 265 0.727041 0.686594 0.000000
-12.707761 -11.793182 -0.653389 271 0.727041 0.686594 0.000000
-12.708279 -11.793661 -0.648084 277 0.727041 0.686594 0.000000
-12.709332 -11.794637 -0.642804 273 0.727041 0.686594 0.000000
-12.709685 -11.794970 -0.637491 269 0.727041 0.686594 0.000000
-12.710315 -11.795550 -0.632185 283 0.727041 0.686594 0.000000
-12.710605 -11.795832 -0.626872 279 0.727041 0.686594 0.000000
-12.709996 -11.795256 -0.621508 287 0.727041 0.686594 0.000000
-12.710184 -11.795441 -0.616186 269 0.727041 0.686594 0.000000
-12.711018 -11.796213 -0.610888 297 0.727041 0.686594 0.000000
-12.711410 -11.796577 -0.605574 309 0.727041 0.686594 0.000000
-12.709997 -11.795259 -0.600177 269 0.727041 0.686594 0.000000
-12.708146 -11.793546 -0.594764 329 0.727041 0.686594 0.000000
-12.706988 -11.792472 -0.589385 289 0.727041 0.686594 0.000000
-12.707766 -11.793185 -0.584088 275 0.727041 0.686594 0.000000
-12.710088 -11.795346 -0.578856 307 0.727041 0.686594 0.000000
-12.710536 -11.795769 -0.573551 305 0.727041 0.686594 0.000000
-12.711031 -11.796227 -0.568237 331 0.727041 0.686594 0.000000
-12.710564 -11.795792 -0.562891 315 0.727041 0.686594 0.000000
-12.708548 -11.793920 -0.557470 295 0.727041 0.686594 0.000000
-12.708766 -11.794129 -0.552148 301 0.727041 0.686594 0.000000
-12.710828 -11.796041 -0.546908 305 0.727041 0.686594 0.000000
-12.712392 -11.797482 -0.541643 335 0.727041 0.686594 0.000000
-12.710099 -11.795361 -0.536215 317 0.727041 0.686594 0.000000
-12.708767 -11.794120 -0.530837 323 0.727041 0.686594 0.000000
-12.710121 -11.795378 -0.525554 305 0.727041 0.686594 0.000000
-12.710443 -11.795686 -0.520241 321 0.727041 0.686594 0.000000
-12.709322 -11.794642 -0.514871 267 0.727041 0.686594 0.000000
-12.709165 -11.794496 -0.509533 291 0.727041 0.686594 0.000000
-12.709871 -11.795153 -0.504236 315 0.727041 0.686594 0.000000
-12.710776 -11.795997 -0.498937 295 0.727041 0.686594 0.000000
-12.711050 -11.796251 -0.493615 333 0.727041 0.686594 0.000000
-12.709339 -11.794665 -0.488221 323 0.727041 0.686594 0.000000
-12.708529 -11.793912 -0.482868 325 0.727041 0.686594 0.000000
-12.709274 -11.794600 -0.477561 325 0.727041 0.686594 0.000000
-12.710674 -11.795897 -0.472288 301 0.727041 0.686594 0.000000
-12.709326 -11.794642 -0.466910 303 0.727041 0.686594 0.000000
-12.709310 -11.794637 -0.461580 307 0.727041 0.686594 0.000000
-12.710055 -11.795325 -0.456273 295 0.727041 0.686594 0.000000
-12.708551 -11.793933 -0.450897 295 0.727041 0.686594 0.000000
-12.708377 -11.793773 -0.445569 321 0.727041 0.686594 0.000000
-12.708753 -11.794109 -0.440245 327 0.727041 0.686594 0.000000
-12.709965 -11.795240 -0.434963 321 0.727041 0.686594 0.000000
-12.710333 -11.795585 -0.429650 353 0.727041 0.686594 0.000000
-12.710961 -11.796166 -0.424334 347 0.727041 0.686594 0.000000
-12.709976 -11.795259 -0.418973 353 0.727041 0.686594 0.000000
-12.708722 -11.794094 -0.413615 313 0.727041 0.686594 0.000000
-12.710100 -11.795372 -0.408322 323 0.727041 0.686594 0.000000
-12.710994 -11.796195 -0.403023 317 0.727041 0.686594 0.000000
-12.710010 -11.795288 -0.397662 327 0.727041 0.686594 0.000000
-12.707575 -11.793024 -0.392265 313 0.727041 0.686594 0.000000
-12.708243 -11.793651 -0.386958 295 0.727041 0.686594 0.000000
-12.710581 -11.795823 -0.381696 323 0.727041 0.686594 0.000000
-12.711311 -11.796500 -0.376389 323 0.727041 0.686594 0.000000
-12.712090 -11.797215 -0.371092 345 0.727041 0.686594 0.000000
-12.711789 -11.796939 -0.365755 329 0.727041 0.686594 0.000000
-12.711702 -11.796863 -0.360425 311 0.727041 0.686594 0.000000
-12.711085 -11.796293 -0.355081 327 0.727041 0.686594 0.000000
-12.710146 -11.795409 -0.349720 285 0.727041 0.686594 0.000000
-12.710382 -11.795633 -0.344407 319 0.727041 0.686594 0.000000
-12.710893 -11.796105 -0.339092 319 0.727041 0.686594 0.000000
-12.709938 -11.795223 -0.333741 285 0.727041 0.686594 0.000000
-12.710544 -11.795785 -0.328426 309 0.727041 0.686594 0.000000
-12.712218 -11.797343 -0.323140 313 0.727041 0.686594 0.000000
-12.711431 -11.796608 -0.317797 279 0.727041 0.686594 0.000000
-12.710594 -11.795835 -0.312445 291 0.727041 0.686594 0.000000
-12.711033 -11.796235 -0.307130 319 0.727041 0.686594 0.000000
-12.712276 -11.797391 -0.301829 323 0.727041 0.686594 0.000000
-12.711378 -11.796568 -0.296487 289 0.727041 0.686594 0.000000
-12.712229 -11.789812 -0.685416 243 0.727041 0.686594 0.000000
-12.713503 -11.790993 -0.680154 273 0.727041 0.686594 0.000000
-12.713708 -11.791191 -0.674832 277 0.727041 0.686594 0.000000
-12.713641 -11.791120 -0.669492 291 0.727041 0.686594 0.000000
-12.713680 -11.791159 -0.664162 283 0.727041 0.686594 0.000000
-12.712435 -11.790013 -0.658763 281 0.727041 0.686594 0.000000
-12.713331 -11.790837 -0.653485 313 0.727041 0.686594 0.000000
-12.713527 -11.791015 -0.648153 291 0.727041 0.686594 0.000000
-12.713455 -11.790952 -0.642823 283 0.727041 0.686594 0.000000
-12.714981 -11.792376 -0.637569 269 0.727041 0.686594 0.000000
-12.714704 -11.792106 -0.632221 283 0.727041 0.686594 0.000000
-12.713985 -11.791440 -0.626848 293 0.727041 0.686594 0.000000
-12.712724 -11.790270 -0.621459 301 0.727041 0.686594 0.000000
-12.711950 -11.789560 -0.616097 287 0.727041 0.686594 0.000000
-12.712399 -11.789983 -0.610782 293 0.727041 0.686594 0.000000
-12.711783 -11.789400 -0.605418 269 0.727041 0.686594 0.000000
-12.712136 -11.789731 -0.600104 273 0.727041 0.686594 0.000000
-12.712426 -11.789999 -0.594792 289 0.727041 0.686594 0.000000
-12.712290 -11.789870 -0.589453 313 0.727041 0.686594 0.000000
-12.712148 -11.789749 -0.584114 331 0.727041 0.686594 0.000000
-12.712752 -11.790311 -0.578818 321 0.727041 0.686594 0.000000
-12.713207 -11.790725 -0.573504 309 0.727041 0.686594 0.000000
-12.712475 -11.790048 -0.568141 319 0.727041 0.686594 0.000000
-12.712331 -11.789912 -0.562802 317 0.727041 0.686594 0.000000
-12.713519 -11.791024 -0.557530 301 0.727041 0.686594 0.000000
-12.715201 -11.792576 -0.552265 325 0.727041 0.686594 0.000000
-12.714736 -11.792141 -0.546919 327 0.727041 0.686594 0.000000
-12.713143 -11.790664 -0.541524 333 0.727041 0.686594 0.000000
-12.713151 -11.790676 -0.536193 327 0.727041 0.686594 0.000000
-12.712347 -11.789928 -0.530831 313 0.727041 0.686594 0.000000
-12.712464 -11.790044 -0.525510 291 0.727041 0.686594 0.000000
-12.712636 -11.790201 -0.520178 297 0.727041 0.686594 0.000000
-12.711674 -11.789312 -0.514817 279 0.727041 0.686594 0.000000
-12.713720 -11.791211 -0.509567 313 0.727041 0.686594 0.000000
-12.714088 -11.791555 -0.504254 325 0.727041 0.686594 0.000000
-12.712764 -11.790320 -0.498876 335 0.727041 0.686594 0.000000
-12.713297 -11.790812 -0.493561 323 0.727041 0.686594 0.000000
-12.714266 -11.791719 -0.488272 339 0.727041 0.686594 0.000000
-12.714640 -11.792056 -0.482958 357 0.727041 0.686594 0.000000
-12.713450 -11.790956 -0.477579 335 0.727041 0.686594 0.000000
-12.712536 -11.790107 -0.472218 311 0.727041 0.686594 0.000000
-12.712913 -11.790458 -0.466904 295 0.727041 0.686594 0.000000
-12.712470 -11.790054 -0.461558 279 0.727041 0.686594 0.000000
-12.712943 -11.790496 -0.456253 319 0.727041 0.686594 0.000000
-12.714278 -11.791728 -0.450971 339 0.727041 0.686594 0.000000
-12.713412 -11.790929 -0.445609 325 0.727041 0.686594 0.000000
-12.712977 -11.790519 -0.440263 341 0.727041 0.686594 0.000000
-12.712912 -11.790460 -0.434933 311 0.727041 0.686594 0.000000
-12.713273 -11.790798 -0.429620 331 0.727041 0.686594 0.000000
-12.714910 -11.792313 -0.424344 353 0.727041 0.686594 0.000000
-12.716247 -11.793558 -0.419062 339 0.727041 0.686594 0.000000
-12.714670 -11.792094 -0.413686 323 0.727041 0.686594 0.000000
-12.712565 -11.790137 -0.408286 327 0.727041 0.686594 0.000000
-12.713566 -11.791070 -0.402986 343 0.727041 0.686594 0.000000
-12.713327 -11.790846 -0.397658 355 0.727041 0.686594 0.000000
-12.712666 -11.790238 -0.392304 313 0.727041 0.686594 0.000000
-12.713279 -11.790808 -0.386999 313 0.727041 0.686594 0.000000
-12.714223 -11.791683 -0.381700 293 0.727041 0.686594 0.000000
-12.714041 -11.791516 -0.376371 303 0.727041 0.686594 0.000000
-12.713966 -11.791437 -0.371042 307 0.727041 0.686594 0.000000
-12.713927 -11.791412 -0.365712 319 0.727041 0.686594 0.000000
-12.713634 -11.791143 -0.360375 305 0.727041 0.686594 0.000000
-12.713924 -11.791411 -0.355052 293 0.727041 0.686594 0.000000
-12.713308 -11.790829 -0.349707 281 0.727041 0.686594 0.000000
-12.713165 -11.790707 -0.344379 301 0.727041 0.686594 0.000000
-12.713833 -11.791319 -0.339072 281 0.727041 0.686594 0.000000
-12.712770 -11.790335 -0.333722 289 0.727041 0.686594 0.000000
-12.711342 -11.789017 -0.328355 275 0.727041 0.686594 0.000000
-12.712435 -11.790027 -0.323055 291 0.727041 0.686594 0.000000
-12.714640 -11.792077 -0.317784 297 0.727041 0.686594 0.000000
-12.714337 -11.791789 -0.312447 313 0.727041 0.686594 0.000000
-12.713755 -11.791260 -0.307112 309 0.727041 0.686594 0.000000
-12.715068 -11.792472 -0.301810 321 0.727041 0.686594 0.000000
-12.714263 -11.791723 -0.296467 311 0.727041 0.686594 0.000000
-12.715329 -11.785604 -0.685392 259 0.727041 0.686594 0.000000
-12.716611 -11.786793 -0.680130 257 0.727041 0.686594 0.000000
-12.717399 -11.787528 -0.674842 277 0.727041 0.686594 0.000000
-12.719586 -11.789554 -0.669622 315 0.727041 0.686594 0.000000
-12.720530 -11.790429 -0.664333 287 0.727041 0.686594 0.000000
-12.718165 -11.788235 -0.658885 269 0.727041 0.686594 0.000000
-12.717021 -11.787173 -0.653485 255 0.727041 0.686594 0.000000
-12.717974 -11.788055 -0.648206 267 0.727041 0.686594 0.000000
-12.717579 -11.787691 -0.642850 273 0.727041 0.686594 0.000000
-12.716475 -11.786674 -0.637470 247 0.727041 0.686594 0.000000
-12.717269 -11.787401 -0.632172 283 0.727041 0.686594 0.000000
-12.718149 -11.788226 -0.626884 291 0.727041 0.686594 0.000000
-12.717707 -11.787809 -0.621528 251 0.727041 0.686594 0.000000
-12.717030 -11.787189 -0.616164 267 0.727041 0.686594 0.000000
-12.718083 -11.788167 -0.610884 287 0.727041 0.686594 0.000000
-12.717624 -11.787737 -0.605528 301 0.727041 0.686594 0.000000
-12.715877 -11.786120 -0.600125 287 0.727041 0.686594 0.000000
-12.715796 -11.786050 -0.594785 297 0.727041 0.686594 0.000000
-12.716888 -11.787059 -0.589505 307 0.727041 0.686594 0.000000
-12.717239 -11.787376 -0.584192 311 0.727041 0.686594 0.000000
-12.718278 -11.788341 -0.578902 329 0.727041 0.686594 0.000000
-12.717545 -11.787663 -0.573538 315 0.727041 0.686594 0.000000
-12.716001 -11.786238 -0.568143 313 0.727041 0.686594 0.000000
-12.717417 -11.787548 -0.562879 305 0.727041 0.686594 0.000000
-12.717644 -11.787765 -0.557557 285 0.727041 0.686594 0.000000
-12.717555 -11.787673 -0.552218 305 0.727041 0.686594 0.000000
-12.718207 -11.788287 -0.546921 327 0.727041 0.686594 0.000000
-12.718269 -11.788343 -0.541591 295 0.727041 0.686594 0.000000
-12.717755 -11.787856 -0.536236 341 0.727041 0.686594 0.000000
-12.717014 -11.787173 -0.530882 335 0.727041 0.686594 0.000000
-12.717124 -11.787281 -0.525551 319 0.727041 0.686594 0.000000
-12.716011 -11.786244 -0.520181 307 0.727041 0.686594 0.000000
-12.714727 -11.785056 -0.514803 305 0.727041 0.686594 0.000000
-12.715639 -11.785906 -0.509505 313 0.727041 0.686594 0.000000
-12.717685 -11.787802 -0.504255 343 0.727041 0.686594 0.000000
-12.718328 -11.788396 -0.498949 331 0.727041 0.686594 0.000000
-12.718390 -11.788453 -0.493629 321 0.727041 0.686594 0.000000
-12.717737 -11.787852 -0.488274 303 0.727041 0.686594 0.000000
-12.717900 -11.788005 -0.482943 325 0.727041 0.686594 0.000000
-12.718544 -11.788599 -0.477637 371 0.727041 0.686594 0.000000
-12.718488 -11.788547 -0.472307 353 0.727041 0.686594 0.000000
-12.718478 -11.788533 -0.466977 323 0.727041 0.686594 0.000000
-12.717185 -11.787337 -0.461609 317 0.727041 0.686594 0.000000
-12.716161 -11.786385 -0.456239 293 0.727041 0.686594 0.000000
-12.717065 -11.787228 -0.450940 315 0.727041 0.686594 0.000000
-12.717811 -11.787917 -0.445643 327 0.727041 0.686594 0.000000
-12.716125 -11.786365 -0.440258 337 0.727041 0.686594 0.000000
-12.715424 -11.785712 -0.434905 353 0.727041 0.686594 0.000000
-12.716910 -11.787091 -0.429631 355 0.727041 0.686594 0.000000
-12.717270 -11.787416 -0.424307 319 0.727041 0.686594 0.000000
-12.717845 -11.787953 -0.419002 321 0.727041 0.686594 0.000000
-12.717993 -11.788094 -0.413680 323 0.727041 0.686594 0.000000
-12.715668 -11.785933 -0.408272 315 0.727041 0.686594 0.000000
-12.715376 -11.785663 -0.402945 279 0.727041 0.686594 0.000000
-12.716374 -11.786596 -0.397645 323 0.727041 0.686594 0.000000
-12.714531 -11.784889 -0.392262 299 0.727041 0.686594 0.000000
-12.714986 -11.785304 -0.386948 283 0.727041 0.686594 0.000000
-12.717331 -11.787482 -0.381686 295 0.727041 0.686594 0.000000
-12.718156 -11.788249 -0.376388 303 0.727041 0.686594 0.000000
-12.718297 -11.788369 -0.371066 309 0.727041 0.686594 0.000000
-12.717996 -11.788094 -0.365729 297 0.727041 0.686594 0.000000
-12.717380 -11.787524 -0.360385 309 0.727041 0.686594 0.000000
-12.716387 -11.786610 -0.355024 317 0.727041 0.686594 0.000000
-12.716465 -11.786680 -0.349703 301 0.727041 0.686594 0.000000
-12.715998 -11.786244 -0.344367 325 0.727041 0.686594 0.000000
-12.716447 -11.786666 -0.339053 345 0.727041 0.686594 0.000000
-12.716413 -11.786633 -0.333723 313 0.727041 0.686594 0.000000
-12.716806 -11.786998 -0.328409 307 0.727041 0.686594 0.000000
-12.717732 -11.787859 -0.323101 305 0.727041 0.686594 0.000000
-12.716511 -11.786721 -0.317742 299 0.727041 0.686594 0.000000
-12.717708 -11.787840 -0.312451 317 0.727041 0.686594 0.000000
-12.718265 -11.788349 -0.307135 331 0.727041 0.686594 0.000000
-12.716980 -11.787161 -0.301777 307 0.727041 0.686594 0.000000
-12.716617 -11.786821 -0.296440 319 0.727041 0.686594 0.000000
-12.722114 -11.784862 -0.685573 269 0.727041 0.686594 0.000000
-12.721395 -11.784197 -0.680200 289 0.727041 0.686594 0.000000
-12.721173 -11.783984 -0.674852 265 0.727041 0.686594 0.000000
-12.720039 -11.782943 -0.669462 279 0.727041 0.686594 0.000000
-12.721258 -11.784067 -0.664191 291 0.727041 0.686594 0.000000
-12.722374 -11.785095 -0.658920 267 0.727041 0.686594 0.000000
-12.721704 -11.784482 -0.653556 281 0.727041 0.686594 0.000000
-12.720293 -11.783176 -0.648149 269 0.727041 0.686594 0.000000
-12.718986 -11.781969 -0.642751 235 0.727041 0.686594 0.000000
-12.718707 -11.781698 -0.637404 267 0.727041 0.686594 0.000000
-12.720557 -11.783424 -0.632167 279 0.727041 0.686594 0.000000
-12.721656 -11.784439 -0.626886 279 0.727041 0.686594 0.000000
-12.721418 -11.784215 -0.621548 283 0.727041 0.686594 0.000000
-12.720490 -11.783352 -0.616167 255 0.727041 0.686594 0.000000
-12.720998 -11.783823 -0.610862 281 0.727041 0.686594 0.000000
-12.721242 -11.784053 -0.605539 301 0.727041 0.686594 0.000000
-12.720942 -11.783777 -0.600192 299 0.727041 0.686594 0.000000
-12.720806 -11.783650 -0.594853 295 0.727041 0.686594 0.000000
-12.719916 -11.782831 -0.589481 305 0.727041 0.686594 0.000000
-12.719237 -11.782199 -0.584128 293 0.727041 0.686594 0.000000
-12.721354 -11.784165 -0.578888 343 0.727041 0.686594 0.000000
-12.721951 -11.784722 -0.573582 311 0.727041 0.686594 0.000000
-12.720155 -11.783052 -0.568179 299 0.727041 0.686594 0.000000
-12.720437 -11.783315 -0.562856 311 0.727041 0.686594 0.000000
-12.720404 -11.783282 -0.557526 305 0.727041 0.686594 0.000000
-12.720520 -11.783396 -0.552195 301 0.727041 0.686594 0.000000
-12.720480 -11.783357 -0.546865 319 0.727041 0.686594 0.000000
-12.720116 -11.783018 -0.541518 329 0.727041 0.686594 0.000000
-12.720509 -11.783382 -0.536205 325 0.727041 0.686594 0.000000
-12.721048 -11.783878 -0.530899 321 0.727041 0.686594 0.000000
-12.722017 -11.784786 -0.525610 307 0.727041 0.686594 0.000000
-12.722252 -11.784996 -0.520288 285 0.727041 0.686594 0.000000
-12.721455 -11.784253 -0.514925 291 0.727041 0.686594 0.000000
-12.721185 -11.784003 -0.509588 299 0.727041 0.686594 0.000000
-12.721458 -11.784258 -0.504265 315 0.727041 0.686594 0.000000
-12.723443 -11.786106 -0.499016 337 0.727041 0.686594 0.000000
-12.724039 -11.786647 -0.493711 325 0.727041 0.686594 0.000000
-12.723392 -11.786054 -0.488356 327 0.727041 0.686594 0.000000
-12.723447 -11.786104 -0.483026 315 0.727041 0.686594 0.000000
-12.721942 -11.784711 -0.477640 331 0.727041 0.686594 0.000000
-12.722530 -11.785259 -0.472334 325 0.727041 0.686594 0.000000
-12.722466 -11.785201 -0.466995 323 0.727041 0.686594 0.000000
-12.721978 -11.784747 -0.461649 315 0.727041 0.686594 0.000000
-12.722778 -11.785495 -0.456351 321 0.727041 0.686594 0.000000
-12.721045 -11.783891 -0.450968 319 0.727041 0.686594 0.000000
-12.719210 -11.782189 -0.445575 339 0.727041 0.686594 0.000000
-12.719955 -11.782879 -0.440268 341 0.727041 0.686594 0.000000
-12.720749 -11.783606 -0.434970 333 0.727041 0.686594 0.000000
-12.721229 -11.784052 -0.429655 339 0.727041 0.686594 0.000000
-12.722063 -11.784826 -0.424357 341 0.727041 0.686594 0.000000
-12.722910 -11.785610 -0.419049 329 0.727041 0.686594 0.000000
-12.722301 -11.785048 -0.413705 345 0.727041 0.686594 0.000000
-12.720349 -11.783239 -0.408313 333 0.727041 0.686594 0.000000
-12.720977 -11.783820 -0.403007 309 0.727041 0.686594 0.000000
-12.721379 -11.784204 -0.397693 301 0.727041 0.686594 0.000000
-12.722761 -11.785473 -0.392400 325 0.727041 0.686594 0.000000
-12.722084 -11.784854 -0.387056 319 0.727041 0.686594 0.000000
-12.720887 -11.783748 -0.381697 317 0.727041 0.686594 0.000000
-12.720436 -11.783326 -0.376351 319 0.727041 0.686594 0.000000
-12.719915 -11.782846 -0.371016 297 0.727041 0.686594 0.000000
-12.720756 -11.783625 -0.365708 295 0.727041 0.686594 0.000000
-12.720991 -11.783848 -0.360386 287 0.727041 0.686594 0.000000
-12.721446 -11.784263 -0.355072 311 0.727041 0.686594 0.000000
-12.721625 -11.784428 -0.349750 313 0.727041 0.686594 0.000000
-12.721436 -11.784254 -0.344421 299 0.727041 0.686594 0.000000
-12.721079 -11.783920 -0.339085 323 0.727041 0.686594 0.000000
-12.720078 -11.783001 -0.333724 315 0.727041 0.686594 0.000000
-12.720738 -11.783607 -0.328418 329 0.727041 0.686594 0.000000
-12.721722 -11.784527 -0.323118 313 0.727041 0.686594 0.000000
-12.722861 -11.785575 -0.317817 311 0.727041 0.686594 0.000000
-12.722883 -11.785600 -0.312487 325 0.727041 0.686594 0.000000
-12.722189 -11.784953 -0.307143 311 0.727041 0.686594 0.000000
-12.721394 -11.784225 -0.301801 315 0.727041 0.686594 0.000000
-12.720282 -11.783189 -0.296451 299 0.727041 0.686594 0.000000
-12.724859 -11.780380 -0.685532 279 0.727041 0.686594 0.000000
-12.725600 -11.781078 -0.680235 277 0.727041 0.686594 0.000000
-12.725637 -11.781116 -0.674905 295 0.727041 0.686594 0.000000
-12.726320 -11.781740 -0.669608 283 0.727041 0.686594 0.000000
-12.726523 -11.781926 -0.664286 265 0.727041 0.686594 0.000000
-12.725325 -11.780819 -0.658897 287 0.727041 0.686594 0.000000
-12.725576 -11.781055 -0.653575 289 0.727041 0.686594 0.000000
-12.725881 -11.781335 -0.648252 271 0.727041 0.686594 0.000000
-12.724195 -11.779782 -0.642838 237 0.727041 0.686594 0.000000
-12.723691 -11.779316 -0.637482 259 0.727041 0.686594 0.000000
-12.724272 -11.779845 -0.632177 281 0.727041 0.686594 0.000000
-12.725103 -11.780618 -0.626889 307 0.727041 0.686594 0.000000
-12.726473 -11.781888 -0.621616 285 0.727041 0.686594 0.000000
-12.725747 -11.781217 -0.616252 297 0.727041 0.686594 0.000000
-12.724542 -11.780105 -0.610864 265 0.727041 0.686594 0.000000
-12.724360 -11.779938 -0.605525 283 0.727041 0.686594 0.000000
-12.722878 -11.778563 -0.600129 289 0.727041 0.686594 0.000000
-12.722577 -11.778288 -0.594782 293 0.727041 0.686594 0.000000
-12.725228 -11.780741 -0.589567 315 0.727041 0.686594 0.000000
-12.726652 -11.782057 -0.584303 297 0.727041 0.686594 0.000000
-12.726077 -11.781533 -0.578948 307 0.727041 0.686594 0.000000
-12.724911 -11.780454 -0.573559 307 0.727041 0.686594 0.000000
-12.723595 -11.779238 -0.568171 289 0.727041 0.686594 0.000000
-12.724144 -11.779742 -0.562866 277 0.727041 0.686594 0.000000
-12.725883 -11.781350 -0.557610 287 0.727041 0.686594 0.000000
-12.725080 -11.780617 -0.552247 307 0.727041 0.686594 0.000000
-12.724771 -11.780336 -0.546900 309 0.727041 0.686594 0.000000
-12.724682 -11.780244 -0.541570 269 0.727041 0.686594 0.000000
-12.724327 -11.779912 -0.536224 281 0.727041 0.686594 0.000000
-12.724051 -11.779670 -0.530886 297 0.727041 0.686594 0.000000
-12.723639 -11.779278 -0.525540 321 0.727041 0.686594 0.000000
-12.724236 -11.779833 -0.520234 319 0.727041 0.686594 0.000000
-12.724297 -11.779890 -0.514903 291 0.727041 0.686594 0.000000
-12.722902 -11.778599 -0.509516 293 0.727041 0.686594 0.000000
-12.724996 -11.780547 -0.504277 327 0.727041 0.686594 0.000000
-12.726287 -11.781743 -0.498994 333 0.727041 0.686594 0.000000
-12.725104 -11.780650 -0.493615 327 0.727041 0.686594 0.000000
-12.724794 -11.780354 -0.488278 319 0.727041 0.686594 0.000000
-12.724345 -11.779944 -0.482932 315 0.727041 0.686594 0.000000
-12.725053 -11.780603 -0.477625 321 0.727041 0.686594 0.000000
-12.724997 -11.780552 -0.472296 301 0.727041 0.686594 0.000000
-12.725906 -11.781385 -0.466997 303 0.727041 0.686594 0.000000
-12.725568 -11.781079 -0.461660 331 0.727041 0.686594 0.000000
-12.723576 -11.779239 -0.456259 317 0.727041 0.686594 0.000000
-12.724747 -11.780326 -0.450968 333 0.727041 0.686594 0.000000
-12.725116 -11.780670 -0.445654 313 0.727041 0.686594 0.000000
-12.725916 -11.781403 -0.440356 341 0.727041 0.686594 0.000000
-12.726003 -11.781493 -0.435025 343 0.727041 0.686594 0.000000
-12.725403 -11.780936 -0.429681 327 0.727041 0.686594 0.000000
-12.726356 -11.781818 -0.424382 311 0.727041 0.686594 0.000000
-12.725637 -11.781153 -0.419029 301 0.727041 0.686594 0.000000
-12.724177 -11.779797 -0.413652 321 0.727041 0.686594 0.000000
-12.723295 -11.778985 -0.408300 329 0.727041 0.686594 0.000000
-12.723278 -11.778964 -0.402970 329 0.727041 0.686594 0.000000
-12.724442 -11.780045 -0.397679 299 0.727041 0.686594 0.000000
-12.725275 -11.780817 -0.392381 305 0.727041 0.686594 0.000000
-12.724338 -11.779961 -0.387020 293 0.727041 0.686594 0.000000
-12.724155 -11.779780 -0.381692 317 0.727041 0.686594 0.000000
-12.724987 -11.780553 -0.376384 311 0.727041 0.686594 0.000000
-12.724744 -11.780336 -0.371056 297 0.727041 0.686594 0.000000
-12.724129 -11.779767 -0.365711 311 0.727041 0.686594 0.000000
-12.725228 -11.780783 -0.360411 313 0.727041 0.686594 0.000000
-12.726370 -11.781843 -0.355110 309 0.727041 0.686594 0.000000
-12.725266 -11.780827 -0.349760 333 0.727041 0.686594 0.000000
-12.724271 -11.779899 -0.344400 323 0.727041 0.686594 0.000000
-12.724988 -11.780562 -0.339093 323 0.727041 0.686594 0.000000
-12.725112 -11.780684 -0.333771 327 0.727041 0.686594 0.000000
-12.724592 -11.780206 -0.328426 315 0.727041 0.686594 0.000000
-12.725086 -11.780664 -0.323111 329 0.727041 0.686594 0.000000
-12.724251 -11.779890 -0.317769 339 0.727041 0.686594 0.000000
-12.723187 -11.778906 -0.312419 329 0.727041 0.686594 0.000000
-12.724005 -11.779667 -0.307111 329 0.727041 0.686594 0.000000
-12.724398 -11.780030 -0.301787 317 0.727041 0.686594 0.000000
-12.725048 -11.780629 -0.296481 329 0.727041 0.686594 0.000000
-12.726766 -11.774550 -0.685432 275 0.727041 0.686594 0.000000
-12.728095 -11.775776 -0.680170 301 0.727041 0.686594 0.000000
-12.727771 -11.775468 -0.674823 249 0.727041 0.686594 0.000000
-12.726471 -11.774266 -0.669425 263 0.727041 0.686594 0.000000
-12.727523 -11.775243 -0.664145 265 0.727041 0.686594 0.000000
-12.729072 -11.776673 -0.658890 305 0.727041 0.686594 0.000000
-12.729537 -11.777109 -0.653586 267 0.727041 0.686594 0.000000
-12.729094 -11.776692 -0.648230 265 0.727041 0.686594 0.000000
-12.726920 -11.774692 -0.642790 251 0.727041 0.686594 0.000000
-12.726792 -11.774570 -0.637451 261 0.727041 0.686594 0.000000
-12.727626 -11.775342 -0.632163 245 0.727041 0.686594 0.000000
-12.728316 -11.775973 -0.626856 299 0.727041 0.686594 0.000000
-12.728230 -11.775897 -0.621527 293 0.727041 0.686594 0.000000
-12.727772 -11.775482 -0.616171 303 0.727041 0.686594 0.000000
-12.727910 -11.775601 -0.610850 281 0.727041 0.686594 0.000000
-12.727934 -11.775626 -0.605519 319 0.727041 0.686594 0.000000
-12.728018 -11.775702 -0.600189 319 0.727041 0.686594 0.000000
-12.727773 -11.775484 -0.594851 299 0.727041 0.686594 0.000000
-12.727842 -11.775548 -0.589520 319 0.727041 0.686594 0.000000
-12.728565 -11.776218 -0.584223 347 0.727041 0.686594 0.000000
-12.728856 -11.776486 -0.578900 339 0.727041 0.686594 0.000000
-12.728664 -11.776299 -0.573562 317 0.727041 0.686594 0.000000
-12.729483 -11.777060 -0.568264 315 0.727041 0.686594 0.000000
-12.730258 -11.777773 -0.562967 303 0.727041 0.686594 0.000000
-12.727582 -11.775301 -0.557522 303 0.727041 0.686594 0.000000
-12.727488 -11.775218 -0.552192 309 0.727041 0.686594 0.000000
-12.729326 -11.776923 -0.546935 329 0.727041 0.686594 0.000000
-12.728862 -11.776488 -0.541589 311 0.727041 0.686594 0.000000
-12.729087 -11.776690 -0.536267 279 0.727041 0.686594 0.000000
-12.729905 -11.777452 -0.530969 297 0.727041 0.686594 0.000000
-12.729471 -11.777056 -0.525623 315 0.727041 0.686594 0.000000
-12.728893 -11.776517 -0.520268 321 0.727041 0.686594 0.000000
-12.728847 -11.776472 -0.514939 293 0.727041 0.686594 0.000000
-12.729395 -11.776976 -0.509624 321 0.727041 0.686594 0.000000
-12.729828 -11.777385 -0.504319 291 0.727041 0.686594 0.000000
-12.729126 -11.776732 -0.498956 313 0.727041 0.686594 0.000000
-12.728266 -11.775939 -0.493594 311 0.727041 0.686594 0.000000
-12.728492 -11.776142 -0.488271 309 0.727041 0.686594 0.000000
-12.730034 -11.777580 -0.483007 339 0.727041 0.686594 0.000000
-12.730041 -11.777579 -0.477677 321 0.727041 0.686594 0.000000
-12.727300 -11.775042 -0.472242 285 0.727041 0.686594 0.000000
-12.726166 -11.774000 -0.466873 301 0.727041 0.686594 0.000000
-12.728083 -11.775768 -0.461615 279 0.727041 0.686594 0.000000
-12.728894 -11.776523 -0.456317 305 0.727041 0.686594 0.000000
-12.727751 -11.775460 -0.450948 329 0.727041 0.686594 0.000000
-12.728820 -11.776450 -0.445657 341 0.727041 0.686594 0.000000
-12.729661 -11.777229 -0.440359 335 0.727041 0.686594 0.000000
-12.729007 -11.776628 -0.435005 347 0.727041 0.686594 0.000000
-12.729265 -11.776872 -0.429683 311 0.727041 0.686594 0.000000
-12.729310 -11.776902 -0.424352 303 0.727041 0.686594 0.000000
-12.728805 -11.776434 -0.419017 317 0.727041 0.686594 0.000000
-12.730238 -11.777772 -0.413733 333 0.727041 0.686594 0.000000
-12.729148 -11.776752 -0.408363 321 0.727041 0.686594 0.000000
-12.727676 -11.775398 -0.402997 323 0.727041 0.686594 0.000000
-12.730240 -11.777767 -0.397743 315 0.727041 0.686594 0.000000
-12.730799 -11.778293 -0.392428 353 0.727041 0.686594 0.000000
-12.730349 -11.777870 -0.387092 323 0.727041 0.686594 0.000000
-12.729465 -11.777058 -0.381740 291 0.727041 0.686594 0.000000
-12.729338 -11.776936 -0.376401 309 0.727041 0.686594 0.000000
-12.728880 -11.776506 -0.371065 305 0.727041 0.686594 0.000000
-12.727825 -11.775542 -0.365705 313 0.727041 0.686594 0.000000
-12.729791 -11.777349 -0.360436 299 0.727041 0.686594 0.000000
-12.730622 -11.778121 -0.355128 301 0.727041 0.686594 0.000000
-12.728661 -11.776305 -0.349747 317 0.727041 0.686594 0.000000
-12.726905 -11.774682 -0.344373 313 0.727041 0.686594 0.000000
-12.728102 -11.775802 -0.339082 317 0.727041 0.686594 0.000000
-12.729247 -11.776854 -0.333781 319 0.727041 0.686594 0.000000
-12.729538 -11.777122 -0.328458 305 0.727041 0.686594 0.000000
-12.728482 -11.776143 -0.323108 289 0.727041 0.686594 0.000000
-12.727260 -11.775018 -0.317749 297 0.727041 0.686594 0.000000
-12.728991 -11.776622 -0.312463 333 0.727041 0.686594 0.000000
-12.729486 -11.777082 -0.307148 323 0.727041 0.686594 0.000000
-12.728374 -11.776046 -0.301798 329 0.727041 0.686594 0.000000
-12.726933 -11.774715 -0.296441 317 0.727041 0.686594 0.000000
-12.731086 -11.771177 -0.685468 285 0.727041 0.686594 0.000000
-12.732839 -11.772799 -0.680232 285 0.727041 0.686594 0.000000
-12.734121 -11.773988 -0.674970 281 0.727041 0.686594 0.000000
-12.733783 -11.773681 -0.669613 281 0.727041 0.686594 0.000000
-12.733605 -11.773505 -0.664274 295 0.727041 0.686594 0.000000
-12.731827 -11.771864 -0.658851 259 0.727041 0.686594 0.000000
-12.732131 -11.772144 -0.653528 239 0.727041 0.686594 0.000000
-12.733940 -11.773825 -0.648291 273 0.727041 0.686594 0.000000
-12.733214 -11.773152 -0.642918 293 0.727041 0.686594 0.000000
-12.732444 -11.772444 -0.637545 285 0.727041 0.686594 0.000000
-12.732802 -11.772767 -0.632231 281 0.727041 0.686594 0.000000
-12.731818 -11.771860 -0.626850 277 0.727041 0.686594 0.000000
-12.730612 -11.770748 -0.621461 269 0.727041 0.686594 0.000000
-12.732514 -11.772504 -0.616223 305 0.727041 0.686594 0.000000
-12.733734 -11.773629 -0.610952 303 0.727041 0.686594 0.000000
-12.732733 -11.772707 -0.605571 323 0.727041 0.686594 0.000000
-12.733030 -11.772982 -0.600248 329 0.727041 0.686594 0.000000
-12.731218 -11.771314 -0.594835 259 0.727041 0.686594 0.000000
-12.731406 -11.771485 -0.589513 283 0.727041 0.686594 0.000000
-12.734435 -11.774283 -0.584325 307 0.727041 0.686594 0.000000
-12.734238 -11.774105 -0.578976 327 0.727041 0.686594 0.000000
-12.733300 -11.773235 -0.573605 305 0.727041 0.686594 0.000000
-12.732457 -11.772455 -0.568243 303 0.727041 0.686594 0.000000
-12.730652 -11.770780 -0.562830 309 0.727041 0.686594 0.000000
-12.730453 -11.770600 -0.557491 297 0.727041 0.686594 0.000000
-12.731759 -11.771807 -0.552219 323 0.727041 0.686594 0.000000
-12.731812 -11.771857 -0.546888 301 0.727041 0.686594 0.000000
-12.732795 -11.772764 -0.541599 321 0.727041 0.686594 0.000000
-12.733501 -11.773421 -0.536302 297 0.727041 0.686594 0.000000
-12.732013 -11.772040 -0.530906 307 0.727041 0.686594 0.000000
-12.731587 -11.771650 -0.525560 323 0.727041 0.686594 0.000000
-12.733048 -11.772998 -0.520286 323 0.727041 0.686594 0.000000
-12.733269 -11.773208 -0.514964 289 0.727041 0.686594 0.000000
-12.732999 -11.772958 -0.509626 323 0.727041 0.686594 0.000000
-12.732847 -11.772817 -0.504288 319 0.727041 0.686594 0.000000
-12.732587 -11.772573 -0.498950 309 0.727041 0.686594 0.000000
-12.733389 -11.773321 -0.493652 305 0.727041 0.686594 0.000000
-12.732104 -11.772132 -0.488274 317 0.727041 0.686594 0.000000
-12.731890 -11.771926 -0.482936 329 0.727041 0.686594 0.000000
-12.733871 -11.773759 -0.477677 327 0.727041 0.686594 0.000000
-12.734076 -11.773957 -0.472355 275 0.727041 0.686594 0.000000
-12.732625 -11.772608 -0.466979 329 0.727041 0.686594 0.000000
-12.731758 -11.771809 -0.461617 311 0.727041 0.686594 0.000000
-12.732615 -11.772600 -0.456319 309 0.727041 0.686594 0.000000
-12.733198 -11.773145 -0.451013 293 0.727041 0.686594 0.000000
-12.733935 -11.773827 -0.445706 323 0.727041 0.686594 0.000000
-12.733019 -11.772975 -0.440345 317 0.727041 0.686594 0.000000
-12.732406 -11.772407 -0.435000 305 0.727041 0.686594 0.000000
-12.733302 -11.773245 -0.429702 337 0.727041 0.686594 0.000000
-12.731637 -11.771696 -0.424317 345 0.727041 0.686594 0.000000
-12.732425 -11.772430 -0.419010 327 0.727041 0.686594 0.000000
-12.734068 -11.773951 -0.413734 319 0.727041 0.686594 0.000000
-12.734373 -11.774231 -0.408421 321 0.727041 0.686594 0.000000
-12.733925 -11.773823 -0.403075 325 0.727041 0.686594 0.000000
-12.732081 -11.772116 -0.397692 341 0.727041 0.686594 0.000000
-12.731465 -11.771546 -0.392348 319 0.727041 0.686594 0.000000
-12.731228 -11.771321 -0.387010 331 0.727041 0.686594 0.000000
-12.731526 -11.771595 -0.381687 305 0.727041 0.686594 0.000000
-12.730700 -11.770843 -0.376345 297 0.727041 0.686594 0.000000
-12.731578 -11.771652 -0.371036 333 0.727041 0.686594 0.000000
-12.732900 -11.772872 -0.365744 309 0.727041 0.686594 0.000000
-12.732975 -11.772942 -0.360423 301 0.727041 0.686594 0.000000
-12.732620 -11.772608 -0.355086 303 0.727041 0.686594 0.000000
-12.731841 -11.771894 -0.349733 305 0.727041 0.686594 0.000000
-12.732343 -11.772358 -0.344419 307 0.727041 0.686594 0.000000
-12.733380 -11.773323 -0.339119 313 0.727041 0.686594 0.000000
-12.733512 -11.773437 -0.333797 297 0.727041 0.686594 0.000000
-12.732504 -11.772511 -0.328447 325 0.727041 0.686594 0.000000
-12.732738 -11.772720 -0.323124 309 0.727041 0.686594 0.000000
-12.731952 -11.771998 -0.317782 283 0.727041 0.686594 0.000000
-12.731642 -11.771715 -0.312444 311 0.727041 0.686594 0.000000
-12.732782 -11.772763 -0.307144 313 0.727041 0.686594 0.000000
-12.732097 -11.772137 -0.301800 315 0.727041 0.686594 0.000000
