774
-5.975580 -5.744218 -0.568865 1699 0.721451 0.692466 0.000000
-5.975391 -5.744026 -0.566297 1693 0.721450 0.692466 0.000000
-5.975874 -5.744499 -0.563782 1699 0.721451 0.692466 0.000000
-5.976315 -5.744914 -0.561268 1707 0.721451 0.692466 0.000000
-5.976328 -5.744934 -0.558708 1711 0.721451 0.692466 0.000000
-5.976292 -5.744902 -0.556148 1709 0.721451 0.692466 0.000000
-5.976311 -5.744915 -0.553588 1709 0.721451 0.692466 0.000000
-5.976531 -5.745126 -0.551056 1711 0.721451 0.692466 0.000000
-5.976392 -5.744999 -0.548487 1709 0.721450 0.692466 0.000000
-5.976140 -5.744756 -0.545909 1709 0.721451 0.692466 0.000000
-5.976360 -5.744967 -0.543367 1709 0.721451 0.692466 0.000000
-5.976537 -5.745133 -0.540825 1709 0.721450 0.692466 0.000000
-5.976336 -5.744942 -0.538257 1707 0.721450 0.692466 0.000000
-5.976132 -5.744751 -0.535679 1709 0.721451 0.692466 0.000000
-5.976352 -5.744962 -0.533147 1713 0.721451 0.692466 0.000000
-5.976212 -5.744822 -0.530578 1707 0.721451 0.692466 0.000000
-5.976058 -5.744682 -0.528009 1713 0.721451 0.692466 0.000000
-5.976228 -5.744842 -0.525468 1715 0.721451 0.692466 0.000000
-5.976288 -5.744900 -0.522917 1709 0.721451 0.692466 0.000000
-5.976037 -5.744657 -0.520340 1707 0.721450 0.692466 0.000000
-5.975618 -5.744256 -0.517743 1707 0.721451 0.692466 0.000000
-5.975416 -5.744065 -0.515175 1703 0.721451 0.692466 0.000000
-5.975738 -5.744371 -0.512652 1707 0.721450 0.692466 0.000000
-5.976060 -5.744678 -0.510119 1713 0.721451 0.692466 0.000000
-5.976113 -5.744742 -0.507568 1707 0.721451 0.692466 0.000000
-5.976276 -5.744896 -0.505027 1711 0.721450 0.692466 0.000000
-5.976073 -5.744705 -0.502459 1713 0.721451 0.692466 0.000000
-5.975813 -5.744442 -0.499881 1709 0.721451 0.692466 0.000000
-5.975658 -5.744303 -0.497313 1715 0.721451 0.692466 0.000000
-5.975543 -5.744195 -0.494754 1715 0.721450 0.692466 0.000000
-5.975976 -5.744603 -0.492229 1709 0.721451 0.692466 0.000000
-5.976395 -5.745013 -0.489705 1707 0.721451 0.692466 0.000000
-5.976018 -5.744656 -0.487129 1703 0.721451 0.692466 0.000000
-5.975870 -5.744509 -0.484560 1705 0.721451 0.692466 0.000000
-5.975865 -5.744503 -0.482010 1707 0.721451 0.692466 0.000000
-5.975814 -5.744459 -0.479451 1711 0.721450 0.692466 0.000000
-5.975388 -5.744051 -0.476865 1709 0.721450 0.692466 0.000000
-5.975495 -5.744146 -0.474314 1713 0.721451 0.692466 0.000000
-5.976384 -5.745009 -0.471835 1715 0.721451 0.692466 0.000000
-5.976220 -5.744849 -0.469267 1705 0.721450 0.692466 0.000000
-5.975483 -5.744142 -0.466653 1703 0.721450 0.692466 0.000000
-5.975271 -5.743930 -0.464085 1705 0.721451 0.692466 0.000000
-5.975523 -5.744180 -0.461553 1713 0.721450 0.692466 0.000000
-5.975575 -5.744232 -0.459002 1715 0.721450 0.692466 0.000000
-5.975404 -5.744066 -0.456434 1711 0.721450 0.692466 0.000000
-5.975821 -5.744461 -0.453910 1709 0.721451 0.692466 0.000000
-5.975659 -5.744316 -0.451351 1709 0.721451 0.692466 0.000000
-5.975280 -5.743945 -0.448765 1699 0.721451 0.692466 0.000000
-5.975635 -5.744291 -0.446241 1707 0.721451 0.692466 0.000000
-5.975630 -5.744285 -0.443691 1717 0.721451 0.692466 0.000000
-5.975149 -5.743819 -0.441106 1713 0.721451 0.692466 0.000000
-5.975351 -5.744017 -0.438564 1713 0.721451 0.692466 0.000000
-5.975761 -5.744406 -0.436040 1713 0.721451 0.692466 0.000000
-5.975535 -5.744196 -0.433472 1707 0.721451 0.692466 0.000000
-5.975045 -5.743724 -0.430887 1709 0.721451 0.692466 0.000000
-5.974819 -5.743515 -0.428319 1709 0.721451 0.692466 0.000000
-5.974910 -5.743598 -0.425778 1709 0.721451 0.692466 0.000000
-5.974905 -5.743591 -0.423218 1711 0.721451 0.692466 0.000000
-5.974934 -5.743624 -0.420668 1705 0.721450 0.692466 0.000000
-5.974874 -5.743560 -0.418118 1707 0.721451 0.692466 0.000000
-5.974910 -5.743598 -0.415568 1719 0.721451 0.692466 0.000000
-5.975160 -5.743835 -0.413035 1713 0.721451 0.692466 0.000000
-5.975770 -5.744423 -0.410519 1711 0.721451 0.692466 0.000000
-5.975806 -5.744462 -0.407969 1717 0.721451 0.692466 0.000000
-5.975165 -5.743843 -0.405375 1715 0.721450 0.692466 0.000000
-5.975144 -5.743824 -0.402825 1721 0.721451 0.692466 0.000000
-5.975435 -5.744105 -0.400292 1719 0.721451 0.692466 0.000000
-5.975471 -5.744144 -0.397742 1719 0.721450 0.692466 0.000000
-5.975244 -5.743921 -0.395184 1703 0.721451 0.692466 0.000000
-5.975057 -5.743742 -0.392616 1705 0.721451 0.692466 0.000000
-5.974823 -5.743526 -0.390048 1701 0.721451 0.692466 0.000000
-5.975225 -5.743909 -0.387524 1713 0.721451 0.692466 0.000000
-5.975467 -5.744139 -0.384992 1717 0.721451 0.692466 0.000000
-5.975185 -5.743872 -0.382424 1715 0.721451 0.692466 0.000000
-5.974950 -5.743642 -0.379856 1705 0.721451 0.692466 0.000000
-5.974978 -5.743675 -0.377306 1717 0.721451 0.692466 0.000000
-5.975005 -5.743693 -0.374766 1713 0.721451 0.692466 0.000000
-5.975193 -5.743879 -0.372224 1709 0.721450 0.692466 0.000000
-5.975317 -5.744001 -0.369683 1711 0.721451 0.692466 0.000000
-5.975089 -5.743778 -0.367115 1707 0.721451 0.692466 0.000000
-5.974847 -5.743556 -0.364547 1713 0.721451 0.692466 0.000000
-5.974612 -5.743326 -0.361989 1707 0.721451 0.692466 0.000000
-5.975006 -5.743703 -0.359465 1703 0.721451 0.692466 0.000000
-5.974819 -5.743525 -0.356897 1719 0.721451 0.692466 0.000000
-5.974624 -5.743340 -0.354339 1723 0.721450 0.692466 0.000000
-5.974756 -5.743468 -0.351798 1711 0.721451 0.692466 0.000000
-5.974879 -5.743590 -0.349256 1717 0.721450 0.692466 0.000000
-5.975327 -5.744010 -0.346732 1719 0.721451 0.692466 0.000000
-5.975349 -5.744037 -0.344182 1729 0.721450 0.692466 0.000000
-5.975105 -5.743801 -0.341624 1729 0.721450 0.692466 0.000000
-5.974967 -5.743674 -0.339065 1719 0.721451 0.692466 0.000000
-5.974834 -5.743540 -0.336506 1709 0.721451 0.692466 0.000000
-5.974585 -5.743311 -0.333949 1709 0.721450 0.692466 0.000000
-5.974874 -5.743578 -0.331406 1715 0.721450 0.692466 0.000000
-5.974831 -5.743541 -0.328856 1721 0.721451 0.692466 0.000000
-5.974429 -5.743152 -0.326290 1723 0.721451 0.692466 0.000000
-5.974393 -5.743121 -0.323740 1713 0.721451 0.692466 0.000000
-5.974358 -5.743089 -0.321191 1713 0.721451 0.692466 0.000000
-5.974744 -5.743460 -0.318657 1721 0.721451 0.692466 0.000000
-5.974597 -5.743326 -0.316098 1717 0.721451 0.692466 0.000000
-5.974187 -5.742931 -0.313532 1713 0.721451 0.692466 0.000000
-5.974309 -5.743039 -0.310991 1715 0.721451 0.692466 0.000000
-5.974211 -5.742958 -0.308442 1713 0.721451 0.692466 0.000000
-5.978916 -5.743879 -0.694484 1719 0.721451 0.692466 0.000000
-5.978593 -5.743566 -0.691887 1721 0.721451 0.692466 0.000000
-5.979163 -5.744123 -0.689391 1719 0.721451 0.692466 0.000000
-5.979207 -5.744154 -0.686831 1711 0.721451 0.692466 0.000000
-5.978828 -5.743797 -0.684224 1713 0.721451 0.692466 0.000000
-5.978664 -5.743638 -0.681636 1709 0.721451 0.692466 0.000000
-5.978501 -5.743478 -0.679057 1713 0.721451 0.692466 0.000000
-5.978904 -5.743875 -0.676543 1713 0.721451 0.692466 0.000000
-5.978851 -5.743817 -0.673974 1713 0.721450 0.692466 0.000000
-5.978307 -5.743301 -0.671349 1703 0.721451 0.692466 0.000000
-5.978398 -5.743384 -0.668798 1705 0.721451 0.692466 0.000000
-5.978386 -5.743371 -0.666238 1711 0.721451 0.692466 0.000000
-5.978581 -5.743563 -0.663696 1721 0.721450 0.692466 0.000000
-5.978680 -5.743652 -0.661145 1717 0.721451 0.692466 0.000000
-5.978246 -5.743238 -0.658539 1707 0.721451 0.692466 0.000000
-5.977963 -5.742970 -0.655942 1713 0.721450 0.692466 0.000000
-5.978262 -5.743258 -0.653419 1711 0.721451 0.692466 0.000000
-5.978409 -5.743399 -0.650868 1715 0.721451 0.692466 0.000000
-5.978230 -5.743226 -0.648289 1713 0.721451 0.692466 0.000000
-5.978059 -5.743061 -0.645711 1711 0.721451 0.692466 0.000000
-5.978143 -5.743151 -0.643160 1715 0.721451 0.692466 0.000000
-5.978234 -5.743234 -0.640609 1711 0.721451 0.692466 0.000000
-5.978063 -5.743068 -0.638031 1711 0.721451 0.692466 0.000000
-5.978146 -5.743145 -0.635480 1713 0.721451 0.692466 0.000000
-5.978971 -5.743943 -0.633002 1719 0.721450 0.692466 0.000000
-5.979254 -5.744218 -0.630469 1721 0.721450 0.692466 0.000000
-5.978502 -5.743498 -0.627836 1713 0.721451 0.692466 0.000000
-5.978114 -5.743121 -0.625230 1711 0.721451 0.692466 0.000000
-5.977984 -5.743001 -0.622661 1705 0.721451 0.692466 0.000000
-5.978115 -5.743128 -0.620110 1707 0.721451 0.692466 0.000000
-5.978517 -5.743511 -0.617596 1715 0.721451 0.692466 0.000000
-5.978386 -5.743391 -0.615017 1709 0.721451 0.692466 0.000000
-5.978150 -5.743161 -0.612439 1703 0.721451 0.692466 0.000000
-5.978282 -5.743289 -0.609888 1709 0.721451 0.692466 0.000000
-5.978214 -5.743218 -0.607328 1713 0.721451 0.692466 0.000000
-5.977812 -5.742843 -0.604722 1707 0.721451 0.692466 0.000000
-5.977681 -5.742709 -0.602153 1705 0.721451 0.692466 0.000000
-5.977653 -5.742683 -0.599593 1707 0.721450 0.692466 0.000000
-5.977736 -5.742760 -0.597043 1711 0.721450 0.692466 0.000000
-5.977867 -5.742888 -0.594491 1709 0.721451 0.692466 0.000000
-5.977721 -5.742755 -0.591923 1703 0.721451 0.692466 0.000000
-5.977747 -5.742774 -0.589372 1705 0.721451 0.692466 0.000000
-5.978246 -5.743260 -0.586857 1705 0.721451 0.692466 0.000000
-5.978155 -5.743171 -0.584288 1711 0.721451 0.692466 0.000000
-5.977919 -5.742941 -0.581711 1705 0.721450 0.692466 0.000000
-5.978153 -5.743165 -0.579178 1707 0.721450 0.692466 0.000000
-5.978014 -5.743038 -0.576599 1713 0.721451 0.692466 0.000000
-5.978041 -5.743056 -0.574049 1715 0.721451 0.692466 0.000000
-5.978109 -5.743120 -0.571498 1713 0.721451 0.692466 0.000000
-5.977915 -5.742936 -0.568920 1707 0.721451 0.692466 0.000000
-5.977775 -5.742809 -0.566351 1703 0.721451 0.692466 0.000000
-5.978154 -5.743174 -0.563828 1711 0.721451 0.692466 0.000000
-5.978181 -5.743192 -0.561278 1705 0.721451 0.692466 0.000000
-5.978034 -5.743059 -0.558709 1711 0.721450 0.692466 0.000000
-5.977991 -5.743021 -0.556139 1715 0.721451 0.692466 0.000000
-5.978018 -5.743040 -0.553589 1711 0.721451 0.692466 0.000000
-5.978078 -5.743098 -0.551038 1715 0.721451 0.692466 0.000000
-5.977993 -5.743015 -0.548469 1715 0.721451 0.692466 0.000000
-5.978468 -5.743483 -0.545964 1711 0.721451 0.692466 0.000000
-5.978225 -5.743246 -0.543377 1715 0.721451 0.692466 0.000000
-5.977918 -5.742945 -0.540800 1715 0.721450 0.692466 0.000000
-5.978671 -5.743674 -0.538312 1717 0.721451 0.692466 0.000000
-5.978531 -5.743533 -0.535734 1721 0.721451 0.692466 0.000000
-5.978058 -5.743087 -0.533138 1715 0.721451 0.692466 0.000000
-5.978126 -5.743152 -0.530587 1713 0.721451 0.692466 0.000000
-5.978074 -5.743108 -0.528028 1713 0.721451 0.692466 0.000000
-5.978037 -5.743062 -0.525468 1711 0.721451 0.692466 0.000000
-5.977725 -5.742771 -0.522891 1707 0.721450 0.692466 0.000000
-5.977528 -5.742571 -0.520313 1709 0.721451 0.692466 0.000000
-5.977422 -5.742484 -0.517754 1715 0.721451 0.692466 0.000000
-5.977322 -5.742388 -0.515194 1711 0.721450 0.692466 0.000000
-5.977230 -5.742299 -0.512625 1707 0.721450 0.692466 0.000000
-5.977282 -5.742351 -0.510075 1709 0.721451 0.692466 0.000000
-5.977612 -5.742663 -0.507552 1701 0.721451 0.692466 0.000000
-5.977870 -5.742906 -0.505019 1713 0.721451 0.692466 0.000000
-5.977875 -5.742920 -0.502459 1709 0.721451 0.692466 0.000000
-5.977990 -5.743021 -0.499918 1709 0.721451 0.692466 0.000000
-5.978257 -5.743284 -0.497385 1717 0.721450 0.692466 0.000000
-5.978046 -5.743087 -0.494807 1711 0.721450 0.692466 0.000000
-5.977780 -5.742832 -0.492240 1703 0.721451 0.692466 0.000000
-5.978205 -5.743234 -0.489716 1709 0.721450 0.692466 0.000000
-5.978575 -5.743592 -0.487192 1717 0.721451 0.692466 0.000000
-5.978039 -5.743082 -0.484597 1719 0.721451 0.692466 0.000000
-5.977261 -5.742328 -0.481974 1711 0.721451 0.692466 0.000000
-5.977465 -5.742527 -0.479442 1709 0.721451 0.692466 0.000000
-5.977565 -5.742630 -0.476891 1709 0.721451 0.692466 0.000000
-5.977568 -5.742629 -0.474341 1711 0.721450 0.692466 0.000000
-5.977826 -5.742872 -0.471809 1709 0.721451 0.692466 0.000000
-5.977767 -5.742822 -0.469249 1709 0.721451 0.692466 0.000000
-5.977555 -5.742610 -0.466681 1715 0.721451 0.692466 0.000000
-5.977497 -5.742560 -0.464122 1707 0.721450 0.692466 0.000000
-5.977802 -5.742854 -0.461589 1707 0.721451 0.692466 0.000000
-5.977647 -5.742701 -0.459030 1711 0.721451 0.692466 0.000000
-5.977318 -5.742396 -0.456453 1711 0.721450 0.692466 0.000000
-5.977257 -5.742332 -0.453894 1707 0.721451 0.692466 0.000000
-5.976943 -5.742025 -0.451317 1699 0.721451 0.692466 0.000000
-5.976978 -5.742064 -0.448766 1711 0.721450 0.692466 0.000000
-5.977500 -5.742569 -0.446251 1709 0.721451 0.692466 0.000000
-5.977808 -5.742863 -0.443718 1713 0.721451 0.692466 0.000000
-5.977643 -5.742703 -0.441160 1717 0.721451 0.692466 0.000000
-5.977472 -5.742538 -0.438591 1713 0.721451 0.692466 0.000000
-5.977460 -5.742526 -0.436041 1711 0.721450 0.692466 0.000000
-5.977712 -5.742776 -0.433499 1709 0.721451 0.692466 0.000000
-5.977484 -5.742552 -0.430931 1711 0.721451 0.692466 0.000000
-5.977050 -5.742137 -0.428355 1707 0.721451 0.692466 0.000000
-5.976984 -5.742081 -0.425796 1705 0.721450 0.692466 0.000000
-5.976972 -5.742069 -0.423246 1713 0.721450 0.692466 0.000000
-5.977118 -5.742209 -0.420704 1719 0.721451 0.692466 0.000000
-5.977050 -5.742138 -0.418145 1715 0.721451 0.692466 0.000000
-5.977349 -5.742426 -0.415612 1717 0.721451 0.692466 0.000000
-5.977433 -5.742517 -0.413071 1713 0.721451 0.692466 0.000000
-5.977635 -5.742701 -0.410529 1711 0.721451 0.692466 0.000000
-5.977091 -5.742186 -0.407944 1705 0.721450 0.692466 0.000000
-5.976385 -5.741502 -0.405341 1705 0.721451 0.692466 0.000000
-5.976373 -5.741489 -0.402791 1707 0.721451 0.692466 0.000000
-5.976402 -5.741522 -0.400240 1711 0.721451 0.692466 0.000000
-5.976484 -5.741599 -0.397700 1715 0.721451 0.692466 0.000000
-5.976632 -5.741740 -0.395158 1707 0.721451 0.692466 0.000000
-5.977130 -5.742226 -0.392643 1711 0.721451 0.692466 0.000000
-5.977318 -5.742412 -0.390101 1707 0.721451 0.692466 0.000000
-5.977360 -5.742443 -0.387551 1713 0.721451 0.692466 0.000000
-5.977015 -5.742112 -0.384984 1721 0.721450 0.692466 0.000000
-5.976622 -5.741743 -0.382408 1709 0.721451 0.692466 0.000000
-5.976705 -5.741819 -0.379857 1709 0.721451 0.692466 0.000000
-5.976733 -5.741851 -0.377307 1707 0.721451 0.692466 0.000000
-5.976919 -5.742023 -0.374775 1715 0.721450 0.692466 0.000000
-5.977099 -5.742203 -0.372233 1707 0.721451 0.692466 0.000000
-5.976975 -5.742075 -0.369674 1717 0.721450 0.692466 0.000000
-5.976733 -5.741853 -0.367106 1709 0.721451 0.692466 0.000000
-5.976609 -5.741725 -0.364548 1713 0.721450 0.692466 0.000000
-5.976311 -5.741445 -0.361980 1711 0.721451 0.692466 0.000000
-5.976338 -5.741464 -0.359440 1713 0.721451 0.692466 0.000000
-5.976573 -5.741701 -0.356898 1715 0.721451 0.692466 0.000000
-5.976649 -5.741771 -0.354357 1715 0.721451 0.692466 0.000000
-5.976676 -5.741790 -0.351807 1713 0.721451 0.692466 0.000000
-5.976530 -5.741658 -0.349248 1715 0.721451 0.692466 0.000000
-5.976710 -5.741838 -0.346716 1707 0.721451 0.692466 0.000000
-5.976466 -5.741601 -0.344148 1715 0.721451 0.692466 0.000000
-5.976183 -5.741320 -0.341581 1713 0.721450 0.692466 0.000000
-5.976354 -5.741493 -0.339039 1711 0.721451 0.692466 0.000000
-5.976055 -5.741199 -0.336482 1709 0.721451 0.692466 0.000000
-5.976125 -5.741278 -0.333931 1711 0.721451 0.692466 0.000000
-5.976358 -5.741500 -0.331399 1715 0.721451 0.692466 0.000000
-5.976378 -5.741513 -0.328849 1723 0.721450 0.692466 0.000000
-5.976502 -5.741635 -0.326308 1721 0.721451 0.692466 0.000000
-5.976251 -5.741392 -0.323740 1715 0.721451 0.692466 0.000000
-5.976215 -5.741361 -0.321190 1709 0.721450 0.692466 0.000000
-5.976180 -5.741331 -0.318641 1709 0.721451 0.692466 0.000000
-5.976247 -5.741394 -0.316100 1715 0.721451 0.692466 0.000000
-5.976156 -5.741305 -0.313541 1721 0.721451 0.692466 0.000000
-5.976064 -5.741216 -0.310991 1713 0.721451 0.692466 0.000000
-5.976028 -5.741185 -0.308442 1703 0.721451 0.692466 0.000000
-5.981300 -5.742662 -0.694558 1709 0.721451 0.692466 0.000000
-5.981558 -5.742905 -0.692026 1727 0.721451 0.692466 0.000000
-5.981124 -5.742490 -0.689410 1725 0.721451 0.692466 0.000000
-5.980484 -5.741885 -0.686776 1715 0.721451 0.692466 0.000000
-5.980473 -5.741872 -0.684216 1713 0.721451 0.692466 0.000000
-5.981000 -5.742369 -0.681711 1715 0.721451 0.692466 0.000000
-5.980934 -5.742313 -0.679132 1719 0.721450 0.692466 0.000000
-5.980611 -5.742001 -0.676535 1711 0.721451 0.692466 0.000000
-5.980917 -5.742294 -0.674012 1711 0.721451 0.692466 0.000000
-5.980483 -5.741880 -0.671396 1709 0.721451 0.692466 0.000000
-5.980201 -5.741612 -0.668808 1715 0.721451 0.692466 0.000000
-5.980508 -5.741907 -0.666275 1719 0.721451 0.692466 0.000000
-5.980288 -5.741689 -0.663687 1715 0.721451 0.692466 0.000000
-5.980270 -5.741684 -0.661127 1715 0.721451 0.692466 0.000000
-5.980838 -5.742226 -0.658622 1717 0.721450 0.692466 0.000000
-5.980507 -5.741907 -0.656025 1713 0.721451 0.692466 0.000000
-5.980335 -5.741741 -0.653447 1709 0.721451 0.692466 0.000000
-5.980316 -5.741723 -0.650887 1709 0.721451 0.692466 0.000000
-5.979882 -5.741308 -0.648281 1703 0.721451 0.692466 0.000000
-5.980021 -5.741443 -0.645729 1705 0.721451 0.692466 0.000000
-5.980846 -5.742241 -0.643261 1711 0.721451 0.692466 0.000000
-5.980930 -5.742318 -0.640711 1717 0.721451 0.692466 0.000000
-5.980288 -5.741699 -0.638077 1711 0.721451 0.692466 0.000000
-5.979949 -5.741373 -0.635480 1701 0.721451 0.692466 0.000000
-5.980137 -5.741560 -0.632938 1707 0.721451 0.692466 0.000000
-5.980172 -5.741584 -0.630388 1715 0.721451 0.692466 0.000000
-5.979779 -5.741215 -0.627781 1715 0.721451 0.692466 0.000000
-5.980021 -5.741445 -0.625249 1705 0.721451 0.692466 0.000000
-5.980050 -5.741477 -0.622689 1711 0.721451 0.692466 0.000000
-5.979869 -5.741305 -0.620110 1707 0.721451 0.692466 0.000000
-5.979794 -5.741229 -0.617541 1711 0.721451 0.692466 0.000000
-5.979725 -5.741158 -0.614982 1705 0.721450 0.692466 0.000000
-5.979954 -5.741390 -0.612439 1711 0.721451 0.692466 0.000000
-5.980307 -5.741721 -0.609916 1715 0.721451 0.692466 0.000000
-5.980168 -5.741594 -0.607347 1713 0.721451 0.692466 0.000000
-5.979622 -5.741064 -0.604732 1715 0.721451 0.692466 0.000000
-5.979221 -5.740689 -0.602136 1713 0.721451 0.692466 0.000000
-5.979677 -5.741116 -0.599622 1707 0.721451 0.692466 0.000000
-5.980009 -5.741442 -0.597098 1709 0.721450 0.692466 0.000000
-5.979822 -5.741264 -0.594520 1707 0.721451 0.692466 0.000000
-5.979745 -5.741187 -0.591951 1711 0.721450 0.692466 0.000000
-5.979870 -5.741309 -0.589409 1709 0.721451 0.692466 0.000000
-5.979785 -5.741226 -0.586840 1711 0.721451 0.692466 0.000000
-5.979750 -5.741194 -0.584280 1711 0.721451 0.692466 0.000000
-5.980033 -5.741469 -0.581748 1717 0.721451 0.692466 0.000000
-5.979846 -5.741292 -0.579169 1701 0.721451 0.692466 0.000000
-5.979602 -5.741055 -0.576592 1707 0.721451 0.692466 0.000000
-5.979629 -5.741074 -0.574031 1709 0.721451 0.692466 0.000000
-5.979912 -5.741348 -0.571499 1715 0.721451 0.692466 0.000000
-5.980036 -5.741471 -0.568957 1715 0.721451 0.692466 0.000000
-5.979841 -5.741286 -0.566379 1719 0.721450 0.692466 0.000000
-5.980068 -5.741503 -0.563847 1721 0.721450 0.692466 0.000000
-5.980095 -5.741522 -0.561287 1709 0.721451 0.692466 0.000000
-5.979941 -5.741383 -0.558718 1699 0.721450 0.692466 0.000000
-5.980064 -5.741505 -0.556177 1705 0.721451 0.692466 0.000000
-5.979973 -5.741416 -0.553608 1713 0.721450 0.692466 0.000000
-5.980247 -5.741684 -0.551075 1711 0.721451 0.692466 0.000000
-5.980219 -5.741645 -0.548515 1711 0.721451 0.692466 0.000000
-5.979856 -5.741301 -0.545929 1703 0.721451 0.692466 0.000000
-5.979772 -5.741218 -0.543359 1709 0.721451 0.692466 0.000000
-5.980247 -5.741685 -0.540855 1717 0.721451 0.692466 0.000000
-5.980474 -5.741903 -0.538312 1719 0.721451 0.692466 0.000000
-5.980064 -5.741508 -0.535716 1713 0.721450 0.692466 0.000000
-5.979446 -5.740907 -0.533112 1713 0.721450 0.692466 0.000000
-5.979562 -5.741023 -0.530561 1719 0.721450 0.692466 0.000000
-5.979884 -5.741329 -0.528038 1715 0.721451 0.692466 0.000000
-5.979633 -5.741086 -0.525460 1709 0.721451 0.692466 0.000000
-5.979479 -5.740947 -0.522892 1703 0.721451 0.692466 0.000000
-5.979857 -5.741312 -0.520368 1707 0.721451 0.692466 0.000000
-5.979390 -5.740858 -0.517772 1705 0.721451 0.692466 0.000000
-5.978767 -5.740265 -0.515168 1703 0.721451 0.692466 0.000000
-5.978929 -5.740418 -0.512627 1713 0.721451 0.692466 0.000000
-5.979299 -5.740776 -0.510103 1713 0.721451 0.692466 0.000000
-5.979152 -5.740629 -0.507534 1707 0.721450 0.692466 0.000000
-5.978838 -5.740337 -0.504947 1717 0.721451 0.692466 0.000000
-5.979311 -5.740790 -0.502433 1715 0.721451 0.692466 0.000000
-5.980159 -5.741608 -0.499954 1713 0.721451 0.692466 0.000000
-5.980004 -5.741454 -0.497386 1717 0.721451 0.692466 0.000000
-5.979475 -5.740951 -0.494791 1725 0.721451 0.692466 0.000000
-5.979535 -5.741009 -0.492240 1711 0.721451 0.692466 0.000000
-5.979427 -5.740907 -0.489671 1709 0.721451 0.692466 0.000000
-5.979071 -5.740555 -0.487095 1703 0.721450 0.692466 0.000000
-5.979115 -5.740601 -0.484544 1709 0.721451 0.692466 0.000000
-5.979430 -5.740901 -0.482011 1707 0.721451 0.692466 0.000000
-5.979378 -5.740856 -0.479451 1711 0.721451 0.692466 0.000000
-5.979105 -5.740595 -0.476874 1709 0.721451 0.692466 0.000000
-5.979004 -5.740500 -0.474315 1707 0.721450 0.692466 0.000000
-5.979152 -5.740641 -0.471773 1709 0.721451 0.692466 0.000000
-5.979417 -5.740889 -0.469241 1713 0.721451 0.692466 0.000000
-5.979470 -5.740941 -0.466690 1713 0.721451 0.692466 0.000000
-5.979203 -5.740686 -0.464123 1713 0.721450 0.692466 0.000000
-5.978874 -5.740381 -0.461536 1709 0.721451 0.692466 0.000000
-5.979083 -5.740571 -0.459004 1707 0.721451 0.692466 0.000000
-5.979073 -5.740573 -0.456454 1703 0.721450 0.692466 0.000000
-5.978534 -5.740049 -0.453859 1701 0.721451 0.692466 0.000000
-5.978220 -5.739743 -0.451282 1697 0.721451 0.692466 0.000000
-5.978575 -5.740088 -0.448758 1703 0.721451 0.692466 0.000000
-5.978889 -5.740388 -0.446225 1703 0.721451 0.692466 0.000000
-5.979195 -5.740682 -0.443692 1705 0.721451 0.692466 0.000000
-5.979399 -5.740881 -0.441160 1717 0.721451 0.692466 0.000000
-5.978854 -5.740365 -0.438565 1721 0.721450 0.692466 0.000000
-5.978682 -5.740199 -0.435997 1713 0.721451 0.692466 0.000000
-5.979100 -5.740594 -0.433473 1711 0.721450 0.692466 0.000000
-5.979025 -5.740531 -0.430924 1713 0.721451 0.692466 0.000000
-5.978965 -5.740468 -0.428364 1713 0.721451 0.692466 0.000000
-5.978642 -5.740155 -0.425787 1707 0.721450 0.692466 0.000000
-5.978727 -5.740246 -0.423246 1699 0.721450 0.692466 0.000000
-5.979080 -5.740577 -0.420713 1711 0.721451 0.692466 0.000000
-5.979069 -5.740578 -0.418163 1715 0.721451 0.692466 0.000000
-5.979319 -5.740814 -0.415630 1713 0.721451 0.692466 0.000000
-5.979029 -5.740541 -0.413063 1717 0.721450 0.692466 0.000000
-5.978699 -5.740222 -0.410486 1713 0.721451 0.692466 0.000000
-5.978892 -5.740400 -0.407944 1711 0.721451 0.692466 0.000000
-5.978880 -5.740387 -0.405394 1705 0.721451 0.692466 0.000000
-5.978695 -5.740223 -0.402836 1707 0.721451 0.692466 0.000000
-5.978419 -5.739948 -0.400259 1707 0.721451 0.692466 0.000000
-5.978345 -5.739885 -0.397709 1717 0.721451 0.692466 0.000000
-5.978476 -5.740013 -0.395168 1717 0.721451 0.692466 0.000000
-5.978408 -5.739943 -0.392609 1705 0.721451 0.692466 0.000000
-5.978914 -5.740436 -0.390094 1705 0.721451 0.692466 0.000000
-5.979051 -5.740555 -0.387552 1713 0.721451 0.692466 0.000000
-5.978396 -5.739938 -0.384958 1715 0.721450 0.692466 0.000000
-5.978320 -5.739861 -0.382399 1709 0.721451 0.692466 0.000000
-5.978452 -5.739990 -0.379858 1707 0.721451 0.692466 0.000000
-5.978480 -5.740022 -0.377307 1707 0.721451 0.692466 0.000000
-5.978563 -5.740099 -0.374767 1719 0.721451 0.692466 0.000000
-5.978376 -5.739921 -0.372208 1705 0.721451 0.692466 0.000000
-5.978300 -5.739844 -0.369649 1713 0.721450 0.692466 0.000000
-5.978383 -5.739920 -0.367108 1713 0.721451 0.692466 0.000000
-5.978364 -5.739902 -0.364548 1709 0.721451 0.692466 0.000000
-5.978114 -5.739673 -0.361991 1707 0.721451 0.692466 0.000000
-5.978141 -5.739692 -0.359440 1703 0.721451 0.692466 0.000000
-5.978217 -5.739763 -0.356899 1705 0.721451 0.692466 0.000000
-5.977767 -5.739336 -0.354324 1703 0.721451 0.692466 0.000000
-5.977739 -5.739310 -0.351774 1701 0.721450 0.692466 0.000000
-5.978236 -5.739782 -0.349249 1711 0.721451 0.692466 0.000000
-5.978575 -5.740116 -0.346716 1721 0.721451 0.692466 0.000000
-5.978173 -5.739726 -0.344150 1721 0.721451 0.692466 0.000000
-5.978138 -5.739696 -0.341600 1717 0.721451 0.692466 0.000000
-5.978483 -5.740020 -0.339067 1711 0.721451 0.692466 0.000000
-5.978074 -5.739638 -0.336490 1713 0.721451 0.692466 0.000000
-5.978309 -5.739862 -0.333958 1719 0.721451 0.692466 0.000000
-5.978328 -5.739874 -0.331408 1715 0.721450 0.692466 0.000000
-5.978292 -5.739843 -0.328858 1717 0.721450 0.692466 0.000000
-5.978360 -5.739907 -0.326317 1711 0.721450 0.692466 0.000000
-5.977903 -5.739474 -0.323742 1713 0.721451 0.692466 0.000000
-5.977755 -5.739327 -0.321183 1711 0.721451 0.692466 0.000000
-5.977822 -5.739391 -0.318642 1715 0.721451 0.692466 0.000000
-5.977740 -5.739323 -0.316083 1719 0.721451 0.692466 0.000000
-5.977592 -5.739175 -0.313534 1719 0.721451 0.692466 0.000000
-5.977446 -5.739043 -0.310976 1713 0.721451 0.692466 0.000000
-5.977250 -5.738844 -0.308417 1703 0.721450 0.692466 0.000000
-5.983087 -5.740801 -0.694559 1719 0.721450 0.692466 0.000000
-5.983123 -5.740840 -0.691999 1715 0.721450 0.692466 0.000000
-5.982862 -5.740577 -0.689401 1717 0.721451 0.692466 0.000000
-5.982333 -5.740073 -0.686786 1709 0.721451 0.692466 0.000000
-5.982169 -5.739913 -0.684198 1709 0.721450 0.692466 0.000000
-5.982103 -5.739857 -0.681628 1705 0.721451 0.692466 0.000000
-5.982034 -5.739787 -0.679059 1709 0.721451 0.692466 0.000000
-5.981976 -5.739737 -0.676489 1709 0.721451 0.692466 0.000000
-5.981693 -5.739469 -0.673902 1707 0.721451 0.692466 0.000000
-5.981537 -5.739316 -0.671313 1707 0.721451 0.692466 0.000000
-5.981574 -5.739355 -0.668763 1711 0.721451 0.692466 0.000000
-5.981927 -5.739686 -0.666240 1717 0.721451 0.692466 0.000000
-5.982178 -5.739936 -0.663707 1713 0.721450 0.692466 0.000000
-5.982421 -5.740166 -0.661165 1709 0.721451 0.692466 0.000000
-5.982520 -5.740255 -0.658614 1713 0.721450 0.692466 0.000000
-5.982507 -5.740242 -0.656054 1719 0.721450 0.692466 0.000000
-5.982011 -5.739778 -0.653438 1721 0.721451 0.692466 0.000000
-5.981584 -5.739355 -0.650832 1711 0.721450 0.692466 0.000000
-5.982200 -5.739949 -0.648336 1705 0.721451 0.692466 0.000000
-5.982499 -5.740237 -0.645804 1705 0.721450 0.692466 0.000000
-5.982049 -5.739810 -0.643198 1709 0.721451 0.692466 0.000000
-5.981719 -5.739491 -0.640601 1723 0.721451 0.692466 0.000000
-5.981645 -5.739429 -0.638031 1709 0.721450 0.692466 0.000000
-5.981576 -5.739358 -0.635462 1707 0.721451 0.692466 0.000000
-5.981763 -5.739544 -0.632920 1709 0.721451 0.692466 0.000000
-5.982268 -5.740022 -0.630415 1715 0.721451 0.692466 0.000000
-5.982146 -5.739908 -0.627846 1717 0.721451 0.692466 0.000000
-5.981496 -5.739283 -0.625213 1713 0.721451 0.692466 0.000000
-5.981109 -5.738906 -0.622616 1705 0.721451 0.692466 0.000000
-5.981082 -5.738881 -0.620056 1703 0.721451 0.692466 0.000000
-5.981429 -5.739220 -0.617533 1719 0.721451 0.692466 0.000000
-5.981615 -5.739391 -0.614991 1709 0.721451 0.692466 0.000000
-5.981691 -5.739476 -0.612440 1705 0.721451 0.692466 0.000000
-5.981664 -5.739450 -0.609881 1707 0.721450 0.692466 0.000000
-5.981795 -5.739579 -0.607329 1721 0.721451 0.692466 0.000000
-5.981822 -5.739598 -0.604769 1717 0.721451 0.692466 0.000000
-5.981691 -5.739477 -0.602200 1715 0.721451 0.692466 0.000000
-5.981242 -5.739050 -0.599594 1709 0.721451 0.692466 0.000000
-5.981007 -5.738821 -0.597016 1709 0.721451 0.692466 0.000000
-5.981449 -5.739248 -0.594502 1705 0.721451 0.692466 0.000000
-5.981635 -5.739420 -0.591960 1717 0.721450 0.692466 0.000000
-5.981551 -5.739337 -0.589391 1711 0.721451 0.692466 0.000000
-5.981412 -5.739211 -0.586822 1705 0.721451 0.692466 0.000000
-5.981336 -5.739134 -0.584253 1703 0.721451 0.692466 0.000000
-5.981619 -5.739409 -0.581730 1707 0.721451 0.692466 0.000000
-5.981797 -5.739574 -0.579189 1707 0.721451 0.692466 0.000000
-5.981659 -5.739448 -0.576620 1711 0.721451 0.692466 0.000000
-5.981996 -5.739767 -0.574087 1705 0.721451 0.692466 0.000000
-5.982121 -5.739889 -0.571545 1709 0.721451 0.692466 0.000000
-5.981877 -5.739652 -0.568958 1709 0.721451 0.692466 0.000000
-5.981730 -5.739520 -0.566389 1721 0.721450 0.692466 0.000000
-5.981695 -5.739488 -0.563829 1719 0.721451 0.692466 0.000000
-5.981611 -5.739405 -0.561270 1715 0.721451 0.692466 0.000000
-5.981575 -5.739374 -0.558710 1705 0.721451 0.692466 0.000000
-5.981857 -5.739635 -0.556177 1707 0.721450 0.692466 0.000000
-5.981759 -5.739554 -0.553608 1707 0.721451 0.692466 0.000000
-5.981515 -5.739317 -0.551031 1703 0.721451 0.692466 0.000000
-5.981375 -5.739176 -0.548462 1699 0.721451 0.692466 0.000000
-5.981602 -5.739393 -0.545920 1705 0.721451 0.692466 0.000000
-5.981767 -5.739561 -0.543378 1713 0.721450 0.692466 0.000000
-5.981460 -5.739261 -0.540801 1713 0.721451 0.692466 0.000000
-5.981367 -5.739171 -0.538232 1717 0.721451 0.692466 0.000000
-5.981221 -5.739038 -0.535663 1711 0.721451 0.692466 0.000000
-5.981018 -5.738848 -0.533095 1709 0.721451 0.692466 0.000000
-5.981299 -5.739109 -0.530562 1713 0.721451 0.692466 0.000000
-5.981256 -5.739070 -0.528002 1713 0.721451 0.692466 0.000000
-5.981101 -5.738918 -0.525434 1707 0.721451 0.692466 0.000000
-5.981328 -5.739135 -0.522892 1705 0.721451 0.692466 0.000000
-5.981117 -5.738938 -0.520324 1707 0.721451 0.692466 0.000000
-5.980969 -5.738791 -0.517755 1709 0.721451 0.692466 0.000000
-5.980758 -5.738594 -0.515187 1705 0.721451 0.692466 0.000000
-5.980612 -5.738461 -0.512618 1709 0.721451 0.692466 0.000000
-5.980664 -5.738513 -0.510068 1705 0.721451 0.692466 0.000000
-5.981097 -5.738921 -0.507544 1705 0.721451 0.692466 0.000000
-5.981570 -5.739374 -0.505029 1709 0.721451 0.692466 0.000000
-5.981471 -5.739278 -0.502470 1711 0.721451 0.692466 0.000000
-5.981053 -5.738876 -0.499874 1715 0.721451 0.692466 0.000000
-5.981050 -5.738884 -0.497324 1715 0.721451 0.692466 0.000000
-5.981427 -5.739234 -0.494800 1723 0.721451 0.692466 0.000000
-5.981646 -5.739445 -0.492258 1713 0.721450 0.692466 0.000000
-5.981794 -5.739600 -0.489716 1709 0.721450 0.692466 0.000000
-5.981320 -5.739140 -0.487131 1707 0.721450 0.692466 0.000000
-5.981172 -5.738993 -0.484562 1699 0.721450 0.692466 0.000000
-5.981065 -5.738891 -0.482003 1705 0.721451 0.692466 0.000000
-5.980895 -5.738740 -0.479435 1709 0.721451 0.692466 0.000000
-5.980953 -5.738783 -0.476884 1707 0.721451 0.692466 0.000000
-5.980791 -5.738638 -0.474316 1707 0.721451 0.692466 0.000000
-5.980938 -5.738779 -0.471774 1709 0.721451 0.692466 0.000000
-5.980838 -5.738683 -0.469215 1715 0.721451 0.692466 0.000000
-5.980826 -5.738670 -0.466655 1713 0.721450 0.692466 0.000000
-5.981038 -5.738875 -0.464123 1717 0.721451 0.692466 0.000000
-5.980874 -5.738716 -0.461554 1711 0.721451 0.692466 0.000000
-5.980815 -5.738666 -0.458995 1707 0.721451 0.692466 0.000000
-5.981129 -5.738966 -0.456472 1713 0.721451 0.692466 0.000000
-5.981165 -5.739004 -0.453921 1715 0.721451 0.692466 0.000000
-5.980897 -5.738736 -0.451344 1713 0.721451 0.692466 0.000000
-5.980361 -5.738226 -0.448759 1697 0.721451 0.692466 0.000000
-5.980094 -5.737971 -0.446181 1703 0.721451 0.692466 0.000000
-5.980449 -5.738317 -0.443658 1709 0.721451 0.692466 0.000000
-5.980596 -5.738457 -0.441117 1715 0.721451 0.692466 0.000000
-5.980432 -5.738298 -0.438548 1713 0.721451 0.692466 0.000000
-5.980739 -5.738592 -0.436025 1713 0.721451 0.692466 0.000000
-5.980623 -5.738484 -0.433456 1707 0.721450 0.692466 0.000000
-5.980611 -5.738472 -0.430906 1707 0.721451 0.692466 0.000000
-5.980591 -5.738452 -0.428356 1707 0.721451 0.692466 0.000000
-5.980531 -5.738388 -0.425797 1711 0.721451 0.692466 0.000000
-5.980672 -5.738537 -0.423255 1709 0.721451 0.692466 0.000000
-5.980714 -5.738567 -0.420705 1709 0.721451 0.692466 0.000000
-5.980543 -5.738402 -0.418147 1707 0.721451 0.692466 0.000000
-5.980468 -5.738339 -0.415587 1707 0.721450 0.692466 0.000000
-5.980662 -5.738517 -0.413045 1717 0.721451 0.692466 0.000000
-5.980699 -5.738556 -0.410505 1717 0.721451 0.692466 0.000000
-5.980783 -5.738647 -0.407954 1711 0.721451 0.692466 0.000000
-5.980604 -5.738475 -0.405396 1715 0.721451 0.692466 0.000000
-5.980544 -5.738411 -0.402836 1719 0.721451 0.692466 0.000000
-5.980634 -5.738494 -0.400295 1711 0.721451 0.692466 0.000000
-5.980719 -5.738584 -0.397744 1705 0.721451 0.692466 0.000000
-5.980427 -5.738297 -0.395177 1711 0.721451 0.692466 0.000000
-5.980145 -5.738029 -0.392610 1705 0.721450 0.692466 0.000000
-5.980022 -5.737915 -0.390051 1707 0.721450 0.692466 0.000000
-5.980154 -5.738044 -0.387509 1711 0.721451 0.692466 0.000000
-5.980397 -5.738273 -0.384967 1709 0.721451 0.692466 0.000000
-5.980369 -5.738248 -0.382417 1717 0.721451 0.692466 0.000000
-5.980292 -5.738171 -0.379868 1709 0.721451 0.692466 0.000000
-5.980370 -5.738256 -0.377317 1709 0.721451 0.692466 0.000000
-5.980453 -5.738332 -0.374776 1705 0.721451 0.692466 0.000000
-5.980274 -5.738161 -0.372208 1703 0.721451 0.692466 0.000000
-5.980197 -5.738083 -0.369659 1711 0.721450 0.692466 0.000000
-5.980170 -5.738059 -0.367109 1707 0.721451 0.692466 0.000000
-5.979934 -5.737829 -0.364541 1703 0.721451 0.692466 0.000000
-5.979852 -5.737760 -0.361982 1707 0.721450 0.692466 0.000000
-5.980197 -5.738085 -0.359458 1713 0.721451 0.692466 0.000000
-5.980107 -5.738010 -0.356899 1709 0.721451 0.692466 0.000000
-5.979554 -5.737474 -0.354324 1703 0.721451 0.692466 0.000000
-5.979469 -5.737391 -0.351765 1709 0.721451 0.692466 0.000000
-5.979650 -5.737570 -0.349223 1711 0.721451 0.692466 0.000000
-5.980097 -5.737990 -0.346699 1713 0.721451 0.692466 0.000000
-5.980326 -5.738222 -0.344167 1715 0.721451 0.692466 0.000000
-5.980083 -5.737986 -0.341609 1713 0.721451 0.692466 0.000000
-5.979791 -5.737698 -0.339042 1717 0.721451 0.692466 0.000000
-5.979383 -5.737317 -0.336466 1707 0.721451 0.692466 0.000000
-5.979347 -5.737286 -0.333916 1703 0.721451 0.692466 0.000000
-5.979692 -5.737611 -0.331382 1709 0.721451 0.692466 0.000000
-5.979712 -5.737624 -0.328842 1717 0.721451 0.692466 0.000000
-5.979406 -5.737337 -0.326275 1711 0.721451 0.692466 0.000000
-5.979425 -5.737350 -0.323725 1721 0.721450 0.692466 0.000000
-5.979397 -5.737325 -0.321175 1721 0.721451 0.692466 0.000000
-5.979403 -5.737339 -0.318625 1715 0.721451 0.692466 0.000000
-5.979948 -5.737863 -0.316110 1721 0.721451 0.692466 0.000000
-5.980015 -5.737926 -0.313559 1721 0.721451 0.692466 0.000000
-5.979557 -5.737479 -0.310993 1715 0.721451 0.692466 0.000000
-5.979672 -5.737595 -0.308452 1715 0.721450 0.692466 0.000000
-5.984634 -5.738773 -0.694532 1721 0.721451 0.692466 0.000000
-5.984884 -5.739009 -0.691999 1717 0.721451 0.692466 0.000000
-5.984457 -5.738600 -0.689393 1711 0.721451 0.692466 0.000000
-5.984135 -5.738288 -0.686786 1711 0.721451 0.692466 0.000000
-5.984386 -5.738538 -0.684254 1711 0.721451 0.692466 0.000000
-5.984853 -5.738985 -0.681739 1719 0.721451 0.692466 0.000000
-5.984473 -5.738614 -0.679133 1709 0.721451 0.692466 0.000000
-5.984151 -5.738315 -0.676536 1717 0.721451 0.692466 0.000000
-5.983773 -5.737945 -0.673930 1717 0.721450 0.692466 0.000000
-5.983865 -5.738042 -0.671378 1719 0.721451 0.692466 0.000000
-5.984275 -5.738431 -0.668865 1719 0.721451 0.692466 0.000000
-5.983792 -5.737965 -0.666249 1711 0.721450 0.692466 0.000000
-5.983621 -5.737799 -0.663671 1715 0.721451 0.692466 0.000000
-5.983920 -5.738087 -0.661138 1715 0.721450 0.692466 0.000000
-5.983796 -5.737972 -0.658569 1719 0.721451 0.692466 0.000000
-5.983466 -5.737653 -0.655972 1713 0.721451 0.692466 0.000000
-5.983454 -5.737640 -0.653402 1715 0.721451 0.692466 0.000000
-5.983967 -5.738139 -0.650897 1713 0.721451 0.692466 0.000000
-5.983788 -5.737967 -0.648319 1707 0.721451 0.692466 0.000000
-5.983244 -5.737451 -0.645704 1705 0.721451 0.692466 0.000000
-5.983176 -5.737381 -0.643134 1703 0.721451 0.692466 0.000000
-5.983371 -5.737573 -0.640592 1709 0.721450 0.692466 0.000000
-5.983670 -5.737860 -0.638060 1715 0.721451 0.692466 0.000000
-5.983274 -5.737477 -0.635463 1715 0.721451 0.692466 0.000000
-5.983206 -5.737406 -0.632894 1711 0.721451 0.692466 0.000000
-5.983656 -5.737841 -0.630380 1717 0.721450 0.692466 0.000000
-5.983685 -5.737874 -0.627819 1715 0.721451 0.692466 0.000000
-5.983665 -5.737855 -0.625259 1717 0.721450 0.692466 0.000000
-5.983278 -5.737478 -0.622663 1715 0.721450 0.692466 0.000000
-5.983409 -5.737606 -0.620112 1713 0.721451 0.692466 0.000000
-5.983230 -5.737434 -0.617533 1713 0.721450 0.692466 0.000000
-5.982892 -5.737109 -0.614946 1709 0.721451 0.692466 0.000000
-5.983134 -5.737339 -0.612404 1713 0.721451 0.692466 0.000000
-5.983426 -5.737620 -0.609881 1707 0.721451 0.692466 0.000000
-5.983875 -5.738055 -0.607367 1713 0.721451 0.692466 0.000000
-5.983688 -5.737876 -0.604789 1711 0.721451 0.692466 0.000000
-5.983182 -5.737391 -0.602173 1709 0.721451 0.692466 0.000000
-5.983314 -5.737520 -0.599632 1709 0.721451 0.692466 0.000000
-5.983445 -5.737647 -0.597081 1715 0.721451 0.692466 0.000000
-5.983577 -5.737775 -0.594539 1713 0.721451 0.692466 0.000000
-5.983653 -5.737846 -0.591989 1717 0.721450 0.692466 0.000000
-5.983514 -5.737719 -0.589420 1701 0.721450 0.692466 0.000000
-5.983590 -5.737790 -0.586869 1705 0.721451 0.692466 0.000000
-5.983512 -5.737713 -0.584300 1709 0.721451 0.692466 0.000000
-5.983796 -5.737988 -0.581767 1717 0.721451 0.692466 0.000000
-5.983393 -5.737598 -0.579171 1707 0.721451 0.692466 0.000000
-5.983309 -5.737515 -0.576602 1707 0.721451 0.692466 0.000000
-5.983433 -5.737637 -0.574060 1705 0.721451 0.692466 0.000000
-5.983397 -5.737606 -0.571500 1699 0.721451 0.692466 0.000000
-5.983632 -5.737829 -0.568958 1703 0.721451 0.692466 0.000000
-5.983486 -5.737697 -0.566390 1709 0.721450 0.692466 0.000000
-5.983607 -5.737804 -0.563848 1713 0.721451 0.692466 0.000000
-5.983683 -5.737875 -0.561298 1717 0.721450 0.692466 0.000000
-5.983377 -5.737588 -0.558710 1717 0.721451 0.692466 0.000000
-5.983079 -5.737309 -0.556123 1713 0.721451 0.692466 0.000000
-5.983250 -5.737468 -0.553582 1713 0.721451 0.692466 0.000000
-5.983484 -5.737691 -0.551049 1717 0.721451 0.692466 0.000000
-5.983600 -5.737807 -0.548508 1713 0.721451 0.692466 0.000000
-5.983612 -5.737813 -0.545948 1709 0.721451 0.692466 0.000000
-5.983249 -5.737469 -0.543361 1709 0.721451 0.692466 0.000000
-5.982687 -5.736926 -0.540757 1711 0.721450 0.692466 0.000000
-5.982596 -5.736837 -0.538187 1705 0.721451 0.692466 0.000000
-5.983190 -5.737412 -0.535682 1711 0.721450 0.692466 0.000000
-5.983401 -5.737617 -0.533150 1721 0.721451 0.692466 0.000000
-5.983580 -5.737783 -0.530608 1721 0.721451 0.692466 0.000000
-5.983536 -5.737745 -0.528048 1723 0.721451 0.692466 0.000000
-5.983380 -5.737592 -0.525480 1713 0.721451 0.692466 0.000000
-5.983337 -5.737555 -0.522920 1717 0.721451 0.692466 0.000000
-5.983031 -5.737268 -0.520333 1721 0.721451 0.692466 0.000000
-5.982765 -5.737013 -0.517755 1715 0.721451 0.692466 0.000000
-5.982625 -5.736873 -0.515196 1705 0.721451 0.692466 0.000000
-5.982462 -5.736727 -0.512628 1705 0.721451 0.692466 0.000000
-5.982633 -5.736886 -0.510086 1709 0.721451 0.692466 0.000000
-5.983003 -5.737244 -0.507563 1713 0.721450 0.692466 0.000000
-5.983381 -5.737608 -0.505039 1717 0.721450 0.692466 0.000000
-5.983536 -5.737755 -0.502497 1717 0.721451 0.692466 0.000000
-5.983174 -5.737411 -0.499911 1719 0.721451 0.692466 0.000000
-5.982916 -5.737163 -0.497333 1713 0.721451 0.692466 0.000000
-5.983071 -5.737309 -0.494792 1709 0.721451 0.692466 0.000000
-5.983025 -5.737257 -0.492232 1719 0.721451 0.692466 0.000000
-5.982872 -5.737118 -0.489663 1715 0.721451 0.692466 0.000000
-5.982708 -5.736959 -0.487095 1715 0.721451 0.692466 0.000000
-5.982498 -5.736762 -0.484527 1705 0.721450 0.692466 0.000000
-5.982868 -5.737120 -0.482003 1709 0.721451 0.692466 0.000000
-5.983133 -5.737369 -0.479471 1715 0.721451 0.692466 0.000000
-5.982597 -5.736858 -0.476876 1713 0.721451 0.692466 0.000000
-5.982433 -5.736700 -0.474307 1715 0.721451 0.692466 0.000000
-5.982803 -5.737057 -0.471784 1719 0.721451 0.692466 0.000000
-5.982800 -5.737051 -0.469234 1715 0.721451 0.692466 0.000000
-5.982581 -5.736847 -0.466656 1713 0.721451 0.692466 0.000000
-5.982377 -5.736642 -0.464088 1717 0.721450 0.692466 0.000000
-5.982414 -5.736682 -0.461537 1711 0.721451 0.692466 0.000000
-5.982576 -5.736835 -0.458996 1707 0.721451 0.692466 0.000000
-5.982509 -5.736778 -0.456446 1707 0.721451 0.692466 0.000000
-5.982505 -5.736772 -0.453886 1711 0.721451 0.692466 0.000000
-5.982492 -5.736760 -0.451336 1713 0.721451 0.692466 0.000000
-5.982337 -5.736606 -0.448768 1709 0.721451 0.692466 0.000000
-5.982159 -5.736448 -0.446209 1709 0.721451 0.692466 0.000000
-5.982307 -5.736589 -0.443668 1707 0.721451 0.692466 0.000000
-5.982621 -5.736889 -0.441135 1711 0.721450 0.692466 0.000000
-5.982609 -5.736876 -0.438585 1709 0.721450 0.692466 0.000000
-5.982438 -5.736711 -0.436016 1719 0.721451 0.692466 0.000000
-5.982219 -5.736507 -0.433448 1719 0.721451 0.692466 0.000000
-5.982151 -5.736437 -0.430889 1713 0.721451 0.692466 0.000000
-5.982090 -5.736373 -0.428339 1715 0.721451 0.692466 0.000000
-5.982126 -5.736412 -0.425789 1721 0.721451 0.692466 0.000000
-5.982322 -5.736604 -0.423247 1711 0.721451 0.692466 0.000000
-5.982199 -5.736490 -0.420688 1711 0.721451 0.692466 0.000000
-5.982082 -5.736368 -0.418129 1711 0.721451 0.692466 0.000000
-5.982486 -5.736765 -0.415605 1709 0.721451 0.692466 0.000000
-5.982633 -5.736906 -0.413064 1717 0.721451 0.692466 0.000000
-5.982405 -5.736682 -0.410496 1719 0.721451 0.692466 0.000000
-5.982385 -5.736663 -0.407946 1719 0.721451 0.692466 0.000000
-5.982262 -5.736548 -0.405387 1717 0.721451 0.692466 0.000000
-5.982243 -5.736530 -0.402837 1713 0.721450 0.692466 0.000000
-5.981850 -5.736161 -0.400261 1709 0.721451 0.692466 0.000000
-5.981621 -5.735938 -0.397693 1711 0.721451 0.692466 0.000000
-5.981761 -5.736072 -0.395152 1709 0.721451 0.692466 0.000000
-5.982011 -5.736308 -0.392609 1707 0.721451 0.692466 0.000000
-5.982088 -5.736392 -0.390068 1713 0.721451 0.692466 0.000000
-5.982226 -5.736513 -0.387527 1713 0.721451 0.692466 0.000000
-5.982311 -5.736604 -0.384986 1707 0.721451 0.692466 0.000000
-5.982234 -5.736526 -0.382427 1709 0.721451 0.692466 0.000000
-5.982318 -5.736603 -0.379876 1711 0.721450 0.692466 0.000000
-5.981916 -5.736228 -0.377310 1703 0.721451 0.692466 0.000000
-5.981578 -5.735903 -0.374733 1705 0.721451 0.692466 0.000000
-5.981605 -5.735921 -0.372183 1705 0.721451 0.692466 0.000000
-5.981633 -5.735954 -0.369642 1713 0.721451 0.692466 0.000000
-5.981717 -5.736031 -0.367091 1713 0.721450 0.692466 0.000000
-5.981586 -5.735910 -0.364533 1705 0.721451 0.692466 0.000000
-5.981820 -5.736134 -0.362000 1715 0.721451 0.692466 0.000000
-5.981945 -5.736256 -0.359459 1709 0.721451 0.692466 0.000000
-5.981550 -5.735872 -0.356883 1709 0.721450 0.692466 0.000000
-5.981514 -5.735841 -0.354333 1711 0.721450 0.692466 0.000000
-5.981654 -5.735976 -0.351792 1717 0.721451 0.692466 0.000000
-5.981251 -5.735586 -0.349216 1715 0.721451 0.692466 0.000000
-5.981272 -5.735613 -0.346675 1713 0.721450 0.692466 0.000000
-5.981236 -5.735581 -0.344125 1713 0.721451 0.692466 0.000000
-5.981201 -5.735550 -0.341566 1707 0.721451 0.692466 0.000000
-5.981435 -5.735774 -0.339033 1711 0.721451 0.692466 0.000000
-5.981462 -5.735793 -0.336483 1711 0.721451 0.692466 0.000000
-5.981268 -5.735608 -0.333925 1711 0.721450 0.692466 0.000000
-5.981232 -5.735577 -0.331375 1711 0.721451 0.692466 0.000000
-5.981148 -5.735494 -0.328826 1707 0.721450 0.692466 0.000000
-5.981104 -5.735456 -0.326276 1707 0.721451 0.692466 0.000000
-5.981450 -5.735781 -0.323743 1717 0.721451 0.692466 0.000000
-5.981726 -5.736050 -0.321210 1723 0.721451 0.692466 0.000000
-5.981419 -5.735764 -0.318643 1725 0.721451 0.692466 0.000000
-5.980907 -5.735273 -0.316068 1717 0.721451 0.692466 0.000000
-5.981196 -5.735541 -0.313535 1715 0.721451 0.692466 0.000000
-5.981565 -5.735898 -0.311002 1719 0.721450 0.692466 0.000000
-5.981317 -5.735670 -0.308444 1721 0.721451 0.692466 0.000000
-5.985911 -5.736490 -0.694487 1719 0.721451 0.692466 0.000000
-5.986009 -5.736579 -0.691926 1715 0.721451 0.692466 0.000000
-5.985894 -5.736471 -0.689357 1703 0.721451 0.692466 0.000000
-5.986146 -5.736721 -0.686825 1713 0.721451 0.692466 0.000000
-5.986515 -5.737065 -0.684301 1721 0.721451 0.692466 0.000000
-5.986130 -5.736702 -0.681695 1715 0.721450 0.692466 0.000000
-5.985855 -5.736441 -0.679097 1717 0.721450 0.692466 0.000000
-5.985643 -5.736230 -0.676509 1709 0.721451 0.692466 0.000000
-5.985416 -5.736020 -0.673921 1713 0.721451 0.692466 0.000000
-5.985507 -5.736102 -0.671370 1723 0.721451 0.692466 0.000000
-5.985759 -5.736352 -0.668838 1723 0.721451 0.692466 0.000000
-5.986017 -5.736595 -0.666305 1705 0.721451 0.692466 0.000000
-5.985790 -5.736372 -0.663717 1705 0.721450 0.692466 0.000000
-5.985461 -5.736066 -0.661120 1703 0.721451 0.692466 0.000000
-5.985233 -5.735842 -0.658533 1709 0.721451 0.692466 0.000000
-5.985484 -5.736079 -0.656000 1715 0.721451 0.692466 0.000000
-5.985790 -5.736372 -0.653467 1715 0.721450 0.692466 0.000000
-5.985085 -5.735703 -0.650834 1711 0.721451 0.692466 0.000000
-5.984963 -5.735589 -0.648255 1711 0.721450 0.692466 0.000000
-5.985158 -5.735781 -0.645713 1707 0.721451 0.692466 0.000000
-5.985297 -5.735915 -0.643171 1709 0.721451 0.692466 0.000000
-5.985381 -5.735992 -0.640621 1715 0.721451 0.692466 0.000000
-5.985417 -5.736031 -0.638060 1705 0.721450 0.692466 0.000000
-5.985562 -5.736157 -0.635519 1707 0.721450 0.692466 0.000000
-5.985218 -5.735840 -0.632922 1709 0.721451 0.692466 0.000000
-5.984727 -5.735367 -0.630307 1699 0.721451 0.692466 0.000000
-5.984389 -5.735043 -0.627710 1701 0.721451 0.692466 0.000000
-5.984894 -5.735521 -0.625205 1709 0.721451 0.692466 0.000000
-5.985185 -5.735802 -0.622672 1709 0.721451 0.692466 0.000000
-5.985110 -5.735739 -0.620113 1711 0.721451 0.692466 0.000000
-5.985034 -5.735663 -0.617543 1703 0.721451 0.692466 0.000000
-5.985013 -5.735643 -0.614984 1715 0.721450 0.692466 0.000000
-5.985359 -5.735969 -0.612460 1719 0.721451 0.692466 0.000000
-5.985436 -5.736053 -0.609909 1707 0.721450 0.692466 0.000000
-5.985622 -5.736225 -0.607368 1709 0.721451 0.692466 0.000000
-5.985483 -5.736098 -0.604789 1719 0.721451 0.692466 0.000000
-5.984834 -5.735473 -0.602165 1711 0.721451 0.692466 0.000000
-5.984909 -5.735543 -0.599614 1711 0.721451 0.692466 0.000000
-5.985352 -5.735971 -0.597100 1717 0.721451 0.692466 0.000000
-5.985165 -5.735793 -0.594522 1719 0.721450 0.692466 0.000000
-5.985040 -5.735665 -0.591953 1713 0.721451 0.692466 0.000000
-5.985164 -5.735787 -0.589411 1713 0.721451 0.692466 0.000000
-5.985398 -5.736010 -0.586869 1713 0.721451 0.692466 0.000000
-5.985627 -5.736242 -0.584337 1711 0.721451 0.692466 0.000000
-5.985757 -5.736356 -0.581786 1711 0.721450 0.692466 0.000000
-5.985411 -5.736024 -0.579199 1709 0.721451 0.692466 0.000000
-5.984953 -5.735591 -0.576593 1705 0.721450 0.692466 0.000000
-5.984966 -5.735611 -0.574043 1705 0.721450 0.692466 0.000000
-5.985304 -5.735929 -0.571510 1717 0.721451 0.692466 0.000000
-5.985331 -5.735949 -0.568959 1719 0.721450 0.692466 0.000000
-5.984714 -5.735362 -0.566345 1709 0.721451 0.692466 0.000000
-5.984576 -5.735236 -0.563776 1709 0.721450 0.692466 0.000000
-5.984954 -5.735600 -0.561253 1705 0.721450 0.692466 0.000000
-5.985340 -5.735970 -0.558729 1717 0.721451 0.692466 0.000000
-5.985248 -5.735881 -0.556170 1713 0.721451 0.692466 0.000000
-5.985370 -5.735989 -0.553619 1709 0.721451 0.692466 0.000000
-5.985599 -5.736220 -0.551086 1707 0.721451 0.692466 0.000000
-5.985348 -5.735978 -0.548509 1703 0.721451 0.692466 0.000000
-5.984834 -5.735486 -0.545904 1703 0.721451 0.692466 0.000000
-5.984472 -5.735142 -0.543317 1703 0.721451 0.692466 0.000000
-5.984283 -5.734950 -0.540739 1707 0.721451 0.692466 0.000000
-5.984551 -5.735213 -0.538206 1717 0.721451 0.692466 0.000000
-5.984985 -5.735635 -0.535692 1717 0.721451 0.692466 0.000000
