336
-21.378939 -20.131454 -0.652379 873 0.732289 0.680993 0.000000
-21.377329 -20.129930 -0.643304 863 0.732289 0.680993 0.000000
-21.376940 -20.129566 -0.634267 863 0.732289 0.680993 0.000000
-21.377396 -20.130003 -0.625263 873 0.732289 0.680993 0.000000
-21.377859 -20.130432 -0.616258 873 0.732289 0.680993 0.000000
-21.377085 -20.129704 -0.607215 845 0.732289 0.680993 0.000000
-21.376957 -20.129589 -0.598186 839 0.732289 0.680993 0.000000
-21.377831 -20.130417 -0.589188 849 0.732289 0.680993 0.000000
-21.378498 -20.131035 -0.580191 849 0.732289 0.680993 0.000000
-21.378136 -20.130705 -0.571155 875 0.732289 0.680993 0.000000
-21.378590 -20.131128 -0.562150 877 0.732289 0.680993 0.000000
-21.379408 -20.131895 -0.553152 867 0.732289 0.680993 0.000000
-21.378729 -20.131258 -0.544108 855 0.732289 0.680993 0.000000
-21.377840 -20.130424 -0.535066 843 0.732289 0.680993 0.000000
-21.377365 -20.129978 -0.526031 859 0.732289 0.680993 0.000000
-21.376945 -20.129589 -0.517004 841 0.732289 0.680993 0.000000
-21.376904 -20.129545 -0.507985 839 0.732289 0.680993 0.000000
-21.376650 -20.129301 -0.498957 853 0.732289 0.680993 0.000000
-21.377451 -20.130056 -0.489959 845 0.732289 0.680993 0.000000
-21.377720 -20.130316 -0.480936 859 0.732289 0.680993 0.000000
-21.376921 -20.129566 -0.471904 855 0.732289 0.680993 0.000000
-21.377337 -20.129959 -0.462889 865 0.732289 0.680993 0.000000
-21.377596 -20.130207 -0.453877 865 0.732289 0.680993 0.000000
-21.377008 -20.129644 -0.444852 843 0.732289 0.680993 0.000000
-21.376787 -20.129440 -0.435824 851 0.732289 0.680993 0.000000
-21.377150 -20.129787 -0.426810 871 0.732289 0.680993 0.000000
-21.377880 -20.130472 -0.417803 869 0.732289 0.680993 0.000000
-21.378075 -20.130659 -0.408791 869 0.732289 0.680993 0.000000
-21.377260 -20.129887 -0.399759 823 0.732289 0.680993 0.000000
-21.376982 -20.129623 -0.390731 823 0.732289 0.680993 0.000000
-21.376381 -20.129061 -0.381707 839 0.732289 0.680993 0.000000
-21.377310 -20.129930 -0.372698 857 0.732289 0.680993 0.000000
-21.377979 -20.130566 -0.363691 853 0.732289 0.680993 0.000000
-21.377796 -20.130394 -0.354673 839 0.732289 0.680993 0.000000
-21.377716 -20.130318 -0.345653 831 0.732289 0.680993 0.000000
-21.377098 -20.129744 -0.336619 843 0.732289 0.680993 0.000000
-21.376259 -20.128950 -0.327596 821 0.732289 0.680993 0.000000
-21.376282 -20.128971 -0.318576 833 0.732289 0.680993 0.000000
-21.377525 -20.130148 -0.309574 837 0.732289 0.680993 0.000000
-21.377382 -20.130007 -0.300555 835 0.732289 0.680993 0.000000
-21.375898 -20.128614 -0.291519 831 0.732289 0.680993 0.000000
-21.376598 -20.129272 -0.282512 815 0.732289 0.680993 0.000000
-21.385744 -20.125294 -0.652398 851 0.732289 0.680993 0.000000
-21.386477 -20.125978 -0.643391 851 0.732289 0.680993 0.000000
-21.384590 -20.124208 -0.634318 847 0.732289 0.680993 0.000000
-21.384035 -20.123682 -0.625283 851 0.732289 0.680993 0.000000
-21.384443 -20.124067 -0.616269 841 0.732289 0.680993 0.000000
-21.383938 -20.123596 -0.607234 851 0.732289 0.680993 0.000000
-21.383322 -20.123020 -0.598199 853 0.732289 0.680993 0.000000
-21.383617 -20.123289 -0.589176 839 0.732289 0.680993 0.000000
-21.385241 -20.124825 -0.580201 827 0.732289 0.680993 0.000000
-21.385103 -20.124691 -0.571182 863 0.732289 0.680993 0.000000
-21.384638 -20.124264 -0.562146 871 0.732289 0.680993 0.000000
-21.384714 -20.124329 -0.553125 861 0.732289 0.680993 0.000000
-21.385643 -20.125200 -0.544126 849 0.732289 0.680993 0.000000
-21.385443 -20.125013 -0.535098 865 0.732289 0.680993 0.000000
-21.384392 -20.124023 -0.526058 877 0.732289 0.680993 0.000000
-21.383167 -20.122879 -0.517009 861 0.732289 0.680993 0.000000
-21.383656 -20.123341 -0.507994 837 0.732289 0.680993 0.000000
-21.384779 -20.124397 -0.499003 859 0.732289 0.680993 0.000000
-21.383390 -20.123093 -0.489956 867 0.732289 0.680993 0.000000
-21.382332 -20.122093 -0.480906 867 0.732289 0.680993 0.000000
-21.384302 -20.123951 -0.471937 851 0.732289 0.680993 0.000000
-21.383986 -20.123657 -0.462910 865 0.732289 0.680993 0.000000
-21.382168 -20.121943 -0.453846 861 0.732289 0.680993 0.000000
-21.383547 -20.123243 -0.444853 849 0.732289 0.680993 0.000000
-21.383804 -20.123478 -0.435841 863 0.732289 0.680993 0.000000
-21.383307 -20.123013 -0.426815 869 0.732289 0.680993 0.000000
-21.384361 -20.124014 -0.417815 857 0.732289 0.680993 0.000000
-21.384249 -20.123898 -0.408796 865 0.732289 0.680993 0.000000
-21.383215 -20.122934 -0.399755 835 0.732289 0.680993 0.000000
-21.382929 -20.122663 -0.390728 835 0.732289 0.680993 0.000000
-21.383125 -20.122852 -0.381716 835 0.732289 0.680993 0.000000
-21.383635 -20.123331 -0.372701 831 0.732289 0.680993 0.000000
-21.383718 -20.123402 -0.363690 841 0.732289 0.680993 0.000000
-21.383467 -20.123175 -0.354662 835 0.732289 0.680993 0.000000
-21.383875 -20.123558 -0.345658 847 0.732289 0.680993 0.000000
-21.384748 -20.124384 -0.336650 827 0.732289 0.680993 0.000000
-21.383806 -20.123493 -0.327618 827 0.732289 0.680993 0.000000
-21.382236 -20.122019 -0.318573 815 0.732289 0.680993 0.000000
-21.382463 -20.122229 -0.309560 825 0.732289 0.680993 0.000000
-21.383810 -20.123503 -0.300558 837 0.732289 0.680993 0.000000
-21.385204 -20.124817 -0.291564 821 0.732289 0.680993 0.000000
-21.384357 -20.124016 -0.282532 819 0.732289 0.680993 0.000000
-21.390572 -20.117273 -0.652355 849 0.732289 0.680993 0.000000
-21.391199 -20.117861 -0.643349 879 0.732289 0.680993 0.000000
-21.390268 -20.116993 -0.634308 847 0.732289 0.680993 0.000000
-21.390194 -20.116922 -0.625278 833 0.732289 0.680993 0.000000
-21.390871 -20.117563 -0.616281 847 0.732289 0.680993 0.000000
-21.390743 -20.117435 -0.607252 861 0.732289 0.680993 0.000000
-21.390772 -20.117460 -0.598232 849 0.732289 0.680993 0.000000
-21.389997 -20.116734 -0.589189 841 0.732289 0.680993 0.000000
-21.389482 -20.116253 -0.580154 839 0.732289 0.680993 0.000000
-21.389187 -20.115980 -0.571126 853 0.732289 0.680993 0.000000
-21.388939 -20.115742 -0.562098 869 0.732289 0.680993 0.000000
-21.389704 -20.116467 -0.553101 833 0.732289 0.680993 0.000000
-21.391163 -20.117830 -0.544117 837 0.732289 0.680993 0.000000
-21.391281 -20.117952 -0.535096 855 0.732289 0.680993 0.000000
-21.390440 -20.117161 -0.526053 867 0.732289 0.680993 0.000000
-21.388584 -20.115414 -0.516990 867 0.732289 0.680993 0.000000
-21.387787 -20.114668 -0.507948 853 0.732289 0.680993 0.000000
-21.389174 -20.115973 -0.498964 855 0.732289 0.680993 0.000000
-21.390415 -20.117136 -0.489973 867 0.732289 0.680993 0.000000
-21.388971 -20.115774 -0.480916 863 0.732289 0.680993 0.000000
-21.388290 -20.115135 -0.471882 855 0.732289 0.680993 0.000000
-21.388968 -20.115778 -0.462886 847 0.732289 0.680993 0.000000
-21.388113 -20.114971 -0.453843 865 0.732289 0.680993 0.000000
-21.389391 -20.116175 -0.444851 843 0.732289 0.680993 0.000000
-21.390499 -20.117216 -0.435851 849 0.732289 0.680993 0.000000
-21.389214 -20.116011 -0.426812 877 0.732289 0.680993 0.000000
-21.389187 -20.115992 -0.417792 869 0.732289 0.680993 0.000000
-21.388910 -20.115730 -0.408765 853 0.732289 0.680993 0.000000
-21.388308 -20.115168 -0.399740 825 0.732289 0.680993 0.000000
-21.389946 -20.116703 -0.390745 853 0.732289 0.680993 0.000000
-21.390198 -20.116934 -0.381732 847 0.732289 0.680993 0.000000
-21.389580 -20.116358 -0.372708 833 0.732289 0.680993 0.000000
-21.389404 -20.116192 -0.363679 827 0.732289 0.680993 0.000000
-21.388733 -20.115562 -0.354655 815 0.732289 0.680993 0.000000
-21.389023 -20.115837 -0.345642 825 0.732289 0.680993 0.000000
-21.388729 -20.115562 -0.336615 829 0.732289 0.680993 0.000000
-21.388853 -20.115677 -0.327603 819 0.732289 0.680993 0.000000
-21.389877 -20.116638 -0.318594 825 0.732289 0.680993 0.000000
-21.388834 -20.115665 -0.309563 825 0.732289 0.680993 0.000000
-21.388367 -20.115225 -0.300537 829 0.732289 0.680993 0.000000
-21.389990 -20.116749 -0.291542 827 0.732289 0.680993 0.000000
-21.391273 -20.117958 -0.282540 837 0.732289 0.680993 0.000000
-21.398901 -20.111835 -0.652413 855 0.732289 0.680993 0.000000
-21.396107 -20.109211 -0.643309 847 0.732289 0.680993 0.000000
-21.396044 -20.109150 -0.634279 853 0.732289 0.680993 0.000000
-21.398258 -20.111242 -0.625329 857 0.732289 0.680993 0.000000
-21.397867 -20.110865 -0.616292 839 0.732289 0.680993 0.000000
-21.398275 -20.111248 -0.607278 847 0.732289 0.680993 0.000000
-21.398077 -20.111063 -0.598250 827 0.732289 0.680993 0.000000
-21.397045 -20.110102 -0.589199 833 0.732289 0.680993 0.000000
-21.396898 -20.109959 -0.580180 807 0.732289 0.680993 0.000000
-21.398687 -20.111643 -0.571203 841 0.732289 0.680993 0.000000
-21.399988 -20.112865 -0.562221 855 0.732289 0.680993 0.000000
-21.397974 -20.110979 -0.553140 855 0.732289 0.680993 0.000000
-21.396496 -20.109592 -0.544083 845 0.732289 0.680993 0.000000
-21.396351 -20.109449 -0.535064 845 0.732289 0.680993 0.000000
-21.396950 -20.110016 -0.526058 859 0.732289 0.680993 0.000000
-21.395363 -20.108524 -0.516993 847 0.732289 0.680993 0.000000
-21.394722 -20.107918 -0.507959 835 0.732289 0.680993 0.000000
-21.395792 -20.108929 -0.498969 833 0.732289 0.680993 0.000000
-21.396872 -20.109947 -0.489968 839 0.732289 0.680993 0.000000
-21.397675 -20.110703 -0.480971 821 0.732289 0.680993 0.000000
-21.397678 -20.110695 -0.471950 847 0.732289 0.680993 0.000000
-21.397299 -20.110338 -0.462924 857 0.732289 0.680993 0.000000
-21.396761 -20.109840 -0.453888 831 0.732289 0.680993 0.000000
-21.397398 -20.110435 -0.444882 843 0.732289 0.680993 0.000000
-21.397120 -20.110172 -0.435855 837 0.732289 0.680993 0.000000
-21.397001 -20.110067 -0.426836 845 0.732289 0.680993 0.000000
-21.395979 -20.109100 -0.417795 849 0.732289 0.680993 0.000000
-21.393717 -20.106985 -0.408736 855 0.732289 0.680993 0.000000
-21.395306 -20.108469 -0.399751 811 0.732289 0.680993 0.000000
-21.397158 -20.110216 -0.390763 833 0.732289 0.680993 0.000000
-21.395910 -20.109039 -0.381725 849 0.732289 0.680993 0.000000
-21.395191 -20.108370 -0.372691 837 0.732289 0.680993 0.000000
-21.396183 -20.109304 -0.363692 811 0.732289 0.680993 0.000000
-21.396528 -20.109625 -0.354678 797 0.732289 0.680993 0.000000
-21.396235 -20.109350 -0.345651 803 0.732289 0.680993 0.000000
-21.395508 -20.108673 -0.336627 821 0.732289 0.680993 0.000000
-21.396105 -20.109236 -0.327612 819 0.732289 0.680993 0.000000
-21.397577 -20.110613 -0.318618 827 0.732289 0.680993 0.000000
-21.396843 -20.109930 -0.309584 813 0.732289 0.680993 0.000000
-21.396912 -20.109987 -0.300574 809 0.732289 0.680993 0.000000
-21.396545 -20.109642 -0.291547 789 0.732289 0.680993 0.000000
-21.395645 -20.108797 -0.282515 795 0.732289 0.680993 0.000000
-21.404339 -20.103899 -0.652387 855 0.732289 0.680993 0.000000
-21.403479 -20.103085 -0.643335 831 0.732289 0.680993 0.000000
-21.403555 -20.103165 -0.634314 845 0.732289 0.680993 0.000000
-21.403971 -20.103556 -0.625310 839 0.732289 0.680993 0.000000
-21.403954 -20.103529 -0.616280 839 0.732289 0.680993 0.000000
-21.402445 -20.102114 -0.607224 837 0.732289 0.680993 0.000000
-21.403208 -20.102839 -0.598216 851 0.732289 0.680993 0.000000
-21.403767 -20.103359 -0.589211 823 0.732289 0.680993 0.000000
-21.403692 -20.103287 -0.580192 809 0.732289 0.680993 0.000000
-21.404669 -20.104210 -0.571192 831 0.732289 0.680993 0.000000
-21.404362 -20.103926 -0.562165 849 0.732289 0.680993 0.000000
-21.404446 -20.103994 -0.553144 873 0.732289 0.680993 0.000000
-21.403490 -20.103107 -0.544103 857 0.732289 0.680993 0.000000
-21.404190 -20.103765 -0.535096 855 0.732289 0.680993 0.000000
-21.405813 -20.105289 -0.526121 837 0.732289 0.680993 0.000000
-21.405771 -20.105244 -0.517091 861 0.732289 0.680993 0.000000
-21.402792 -20.102449 -0.507998 841 0.732289 0.680993 0.000000
-21.400986 -20.100756 -0.498945 815 0.732289 0.680993 0.000000
-21.402750 -20.102406 -0.489958 837 0.732289 0.680993 0.000000
-21.402527 -20.102203 -0.480940 849 0.732289 0.680993 0.000000
-21.401360 -20.101103 -0.471891 817 0.732289 0.680993 0.000000
-21.400719 -20.100510 -0.462857 803 0.732289 0.680993 0.000000
-21.400921 -20.100700 -0.453844 849 0.732289 0.680993 0.000000
-21.402040 -20.101751 -0.444854 843 0.732289 0.680993 0.000000
-21.402195 -20.101891 -0.435832 843 0.732289 0.680993 0.000000
-21.402075 -20.101784 -0.426813 831 0.732289 0.680993 0.000000
-21.402168 -20.101877 -0.417792 831 0.732289 0.680993 0.000000
-21.401402 -20.101152 -0.408759 841 0.732289 0.680993 0.000000
-21.401606 -20.101347 -0.399747 839 0.732289 0.680993 0.000000
-21.401903 -20.101627 -0.390734 849 0.732289 0.680993 0.000000
-21.401348 -20.101103 -0.381709 823 0.732289 0.680993 0.000000
-21.403309 -20.102938 -0.372720 841 0.732289 0.680993 0.000000
-21.404562 -20.104124 -0.363728 843 0.732289 0.680993 0.000000
-21.402296 -20.101995 -0.354669 829 0.732289 0.680993 0.000000
-21.401411 -20.101164 -0.345637 813 0.732289 0.680993 0.000000
-21.402451 -20.102137 -0.336637 793 0.732289 0.680993 0.000000
-21.401724 -20.101460 -0.327604 817 0.732289 0.680993 0.000000
-21.401524 -20.101274 -0.318586 831 0.732289 0.680993 0.000000
-21.401814 -20.101536 -0.309573 805 0.732289 0.680993 0.000000
-21.401237 -20.101007 -0.300548 787 0.732289 0.680993 0.000000
-21.401306 -20.101067 -0.291527 789 0.732289 0.680993 0.000000
-21.402550 -20.102228 -0.282525 783 0.732289 0.680993 0.000000
-21.409111 -20.095833 -0.652345 829 0.732289 0.680993 0.000000
-21.409157 -20.095871 -0.643324 835 0.732289 0.680993 0.000000
-21.409769 -20.096449 -0.634318 809 0.732289 0.680993 0.000000
-21.410280 -20.096943 -0.625313 837 0.732289 0.680993 0.000000
-21.409616 -20.096315 -0.616269 827 0.732289 0.680993 0.000000
-21.409119 -20.095850 -0.607234 819 0.732289 0.680993 0.000000
-21.410006 -20.096674 -0.598235 811 0.732289 0.680993 0.000000
-21.410187 -20.096848 -0.589224 811 0.732289 0.680993 0.000000
-21.409458 -20.096170 -0.580180 815 0.732289 0.680993 0.000000
-21.410238 -20.096893 -0.571183 829 0.732289 0.680993 0.000000
-21.409504 -20.096210 -0.562139 799 0.732289 0.680993 0.000000
-21.408449 -20.095219 -0.553089 827 0.732289 0.680993 0.000000
-21.408298 -20.095085 -0.544070 831 0.732289 0.680993 0.000000
-21.409180 -20.095903 -0.535072 819 0.732289 0.680993 0.000000
-21.409130 -20.095869 -0.526052 807 0.732289 0.680993 0.000000
-21.409632 -20.096327 -0.517037 841 0.732289 0.680993 0.000000
-21.411400 -20.097992 -0.508060 837 0.732289 0.680993 0.000000
-21.410175 -20.096848 -0.499011 845 0.732289 0.680993 0.000000
-21.408091 -20.094893 -0.489941 825 0.732289 0.680993 0.000000
-21.408743 -20.095501 -0.480944 829 0.732289 0.680993 0.000000
-21.409914 -20.096594 -0.471943 833 0.732289 0.680993 0.000000
-21.409328 -20.096045 -0.462919 841 0.732289 0.680993 0.000000
-21.410969 -20.097593 -0.453933 843 0.732289 0.680993 0.000000
-21.411392 -20.097990 -0.444919 853 0.732289 0.680993 0.000000
-21.409040 -20.095778 -0.435851 839 0.732289 0.680993 0.000000
-21.407478 -20.094307 -0.426795 829 0.732289 0.680993 0.000000
-21.409124 -20.095863 -0.417809 813 0.732289 0.680993 0.000000
-21.410707 -20.097353 -0.408824 821 0.732289 0.680993 0.000000
-21.410585 -20.097233 -0.399805 841 0.732289 0.680993 0.000000
-21.410412 -20.097065 -0.390777 847 0.732289 0.680993 0.000000
-21.409533 -20.096241 -0.381745 813 0.732289 0.680993 0.000000
-21.408815 -20.095572 -0.372711 829 0.732289 0.680993 0.000000
-21.408640 -20.095406 -0.363693 817 0.732289 0.680993 0.000000
-21.408922 -20.095676 -0.354680 791 0.732289 0.680993 0.000000
-21.408850 -20.095606 -0.345660 815 0.732289 0.680993 0.000000
-21.409613 -20.096331 -0.336653 817 0.732289 0.680993 0.000000
-21.409206 -20.095938 -0.327626 799 0.732289 0.680993 0.000000
-21.409599 -20.096312 -0.318613 785 0.732289 0.680993 0.000000
-21.410088 -20.096773 -0.309608 773 0.732289 0.680993 0.000000
-21.409525 -20.096241 -0.300573 775 0.732289 0.680993 0.000000
-21.410486 -20.097153 -0.291574 785 0.732289 0.680993 0.000000
-21.410933 -20.097567 -0.282559 787 0.732289 0.680993 0.000000
-21.415079 -20.088404 -0.652334 805 0.732289 0.680993 0.000000
-21.416552 -20.089790 -0.643350 831 0.732289 0.680993 0.000000
-21.416527 -20.089773 -0.634330 825 0.732289 0.680993 0.000000
-21.416147 -20.089415 -0.625293 807 0.732289 0.680993 0.000000
-21.417398 -20.090586 -0.616312 831 0.732289 0.680993 0.000000
-21.416632 -20.089865 -0.607269 807 0.732289 0.680993 0.000000
-21.415691 -20.088989 -0.598217 793 0.732289 0.680993 0.000000
-21.415562 -20.088861 -0.589198 799 0.732289 0.680993 0.000000
-21.415909 -20.089193 -0.580185 817 0.732289 0.680993 0.000000
-21.416576 -20.089815 -0.571178 797 0.732289 0.680993 0.000000
-21.416489 -20.089733 -0.562159 805 0.732289 0.680993 0.000000
-21.415112 -20.088442 -0.553101 799 0.732289 0.680993 0.000000
-21.414644 -20.088013 -0.544065 805 0.732289 0.680993 0.000000
-21.415897 -20.089184 -0.535084 817 0.732289 0.680993 0.000000
-21.414839 -20.088188 -0.526033 823 0.732289 0.680993 0.000000
-21.414480 -20.087849 -0.517006 829 0.732289 0.680993 0.000000
-21.415276 -20.088598 -0.508009 843 0.732289 0.680993 0.000000
-21.415722 -20.089014 -0.498994 827 0.732289 0.680993 0.000000
-21.414808 -20.088160 -0.489953 807 0.732289 0.680993 0.000000
-21.414537 -20.087902 -0.480925 805 0.732289 0.680993 0.000000
-21.415449 -20.088760 -0.471926 819 0.732289 0.680993 0.000000
-21.415339 -20.088661 -0.462907 819 0.732289 0.680993 0.000000
-21.414761 -20.088116 -0.453872 841 0.732289 0.680993 0.000000
-21.415224 -20.088560 -0.444868 797 0.732289 0.680993 0.000000
-21.416176 -20.089447 -0.435869 811 0.732289 0.680993 0.000000
-21.416119 -20.089390 -0.426849 845 0.732289 0.680993 0.000000
-21.416645 -20.089884 -0.417834 827 0.732289 0.680993 0.000000
-21.416565 -20.089821 -0.408814 815 0.732289 0.680993 0.000000
-21.416767 -20.090000 -0.399802 811 0.732289 0.680993 0.000000
-21.416908 -20.090143 -0.390781 853 0.732289 0.680993 0.000000
-21.416132 -20.089415 -0.381748 835 0.732289 0.680993 0.000000
-21.415422 -20.088749 -0.372714 789 0.732289 0.680993 0.000000
-21.416248 -20.089523 -0.363716 809 0.732289 0.680993 0.000000
-21.416491 -20.089748 -0.354704 809 0.732289 0.680993 0.000000
-21.415394 -20.088720 -0.345664 801 0.732289 0.680993 0.000000
-21.416164 -20.089451 -0.336656 789 0.732289 0.680993 0.000000
-21.418110 -20.091272 -0.327668 801 0.732289 0.680993 0.000000
-21.417328 -20.090538 -0.318635 813 0.732289 0.680993 0.000000
-21.416758 -20.090002 -0.309610 803 0.732289 0.680993 0.000000
-21.416552 -20.089811 -0.300592 783 0.732289 0.680993 0.000000
-21.415878 -20.089178 -0.291558 783 0.732289 0.680993 0.000000
-21.414976 -20.088333 -0.282526 781 0.732289 0.680993 0.000000
-21.423235 -20.083338 -0.652391 789 0.732289 0.680993 0.000000
-21.422747 -20.082878 -0.643355 789 0.732289 0.680993 0.000000
-21.423580 -20.083660 -0.634358 803 0.732289 0.680993 0.000000
-21.422709 -20.082840 -0.625305 809 0.732289 0.680993 0.000000
-21.423155 -20.083256 -0.616301 827 0.732289 0.680993 0.000000
-21.423462 -20.083546 -0.607288 811 0.732289 0.680993 0.000000
-21.423279 -20.083374 -0.598259 803 0.732289 0.680993 0.000000
-21.423679 -20.083752 -0.589245 803 0.732289 0.680993 0.000000
-21.423275 -20.083374 -0.580219 793 0.732289 0.680993 0.000000
-21.422810 -20.082949 -0.571183 799 0.732289 0.680993 0.000000
-21.423153 -20.083267 -0.562170 809 0.732289 0.680993 0.000000
-21.423658 -20.083742 -0.553165 825 0.732289 0.680993 0.000000
-21.423300 -20.083405 -0.544128 793 0.732289 0.680993 0.000000
-21.423306 -20.083410 -0.535108 789 0.732289 0.680993 0.000000
-21.422733 -20.082874 -0.526073 797 0.732289 0.680993 0.000000
-21.423168 -20.083277 -0.517069 793 0.732289 0.680993 0.000000
-21.423330 -20.083439 -0.508047 805 0.732289 0.680993 0.000000
-21.423660 -20.083748 -0.499034 805 0.732289 0.680993 0.000000
-21.423397 -20.083496 -0.490006 803 0.732289 0.680993 0.000000
-21.422173 -20.082354 -0.480957 783 0.732289 0.680993 0.000000
-21.421637 -20.081856 -0.471932 815 0.732289 0.680993 0.000000
-21.421144 -20.081396 -0.462896 803 0.732289 0.680993 0.000000
-21.421419 -20.081644 -0.453883 803 0.732289 0.680993 0.000000
-21.422688 -20.082842 -0.444891 815 0.732289 0.680993 0.000000
-21.423000 -20.083136 -0.435878 811 0.732289 0.680993 0.000000
-21.422462 -20.082626 -0.426853 829 0.732289 0.680993 0.000000
-21.421909 -20.082115 -0.417818 803 0.732289 0.680993 0.000000
-21.421686 -20.081898 -0.408800 813 0.732289 0.680993 0.000000
-21.421825 -20.082041 -0.399778 793 0.732289 0.680993 0.000000
-21.422234 -20.082409 -0.390764 807 0.732289 0.680993 0.000000
-21.423067 -20.083204 -0.381766 823 0.732289 0.680993 0.000000
-21.424116 -20.084185 -0.372766 789 0.732289 0.680993 0.000000
-21.422915 -20.083059 -0.363727 789 0.732289 0.680993 0.000000
-21.420698 -20.080982 -0.354668 773 0.732289 0.680993 0.000000
-21.420727 -20.081007 -0.345647 793 0.732289 0.680993 0.000000
-21.420481 -20.080772 -0.336629 783 0.732289 0.680993 0.000000
-21.422159 -20.082352 -0.327634 795 0.732289 0.680993 0.000000
-21.423410 -20.083523 -0.318642 817 0.732289 0.680993 0.000000
-21.422350 -20.082525 -0.309601 801 0.732289 0.680993 0.000000
-21.420656 -20.080948 -0.300557 787 0.732289 0.680993 0.000000
-21.420139 -20.080456 -0.291531 779 0.732289 0.680993 0.000000
-21.420572 -20.080872 -0.282527 795 0.732289 0.680993 0.000000
