259
-26.225634 -23.774017 -0.657967 1163 0.748867 0.662720 0.000000
-26.224630 -23.773115 -0.647066 1149 0.748867 0.662720 0.000000
-26.224182 -23.772705 -0.636179 1153 0.748867 0.662720 0.000000
-26.224062 -23.772598 -0.625300 1155 0.748867 0.662720 0.000000
-26.224249 -23.772768 -0.614438 1155 0.748867 0.662720 0.000000
-26.226456 -23.774767 -0.603618 1177 0.748867 0.662720 0.000000
-26.226696 -23.774990 -0.592745 1145 0.748867 0.662720 0.000000
-26.224169 -23.772692 -0.581818 1139 0.748867 0.662720 0.000000
-26.224682 -23.773167 -0.570953 1163 0.748867 0.662720 0.000000
-26.225622 -23.774019 -0.560104 1167 0.748867 0.662720 0.000000
-26.223892 -23.772453 -0.549190 1159 0.748867 0.662720 0.000000
-26.222675 -23.771345 -0.538291 1149 0.748867 0.662720 0.000000
-26.223766 -23.772343 -0.527441 1141 0.748867 0.662720 0.000000
-26.223820 -23.772383 -0.516570 1155 0.748867 0.662720 0.000000
-26.223339 -23.771948 -0.505694 1147 0.748867 0.662720 0.000000
-26.224369 -23.772884 -0.494844 1149 0.748867 0.662720 0.000000
-26.224102 -23.772652 -0.483966 1155 0.748867 0.662720 0.000000
-26.222523 -23.771217 -0.473061 1159 0.748867 0.662720 0.000000
-26.222038 -23.770777 -0.462185 1153 0.748867 0.662720 0.000000
-26.223114 -23.771749 -0.451335 1163 0.748867 0.662720 0.000000
-26.224184 -23.772728 -0.440475 1165 0.748867 0.662720 0.000000
-26.222391 -23.771101 -0.429581 1145 0.748867 0.662720 0.000000
-26.221565 -23.770348 -0.418698 1151 0.748867 0.662720 0.000000
-26.222902 -23.771574 -0.407846 1153 0.748867 0.662720 0.000000
-26.223486 -23.772100 -0.396980 1155 0.748867 0.662720 0.000000
-26.224052 -23.772615 -0.386125 1151 0.748867 0.662720 0.000000
-26.225657 -23.774071 -0.375269 1151 0.748867 0.662720 0.000000
-26.226715 -23.775030 -0.364419 1159 0.748867 0.662720 0.000000
-26.225657 -23.774071 -0.353529 1159 0.748867 0.662720 0.000000
-26.226170 -23.774544 -0.342664 1159 0.748867 0.662720 0.000000
-26.227215 -23.775492 -0.331804 1149 0.748867 0.662720 0.000000
-26.223867 -23.772459 -0.320895 1139 0.748867 0.662720 0.000000
-26.222204 -23.770943 -0.310000 1115 0.748867 0.662720 0.000000
-26.224277 -23.772827 -0.299160 1125 0.748867 0.662720 0.000000
-26.226034 -23.774426 -0.288304 1127 0.748867 0.662720 0.000000
-26.225168 -23.773642 -0.277422 1139 0.748867 0.662720 0.000000
-26.223488 -23.772114 -0.266537 1141 0.748867 0.662720 0.000000
-26.233088 -23.766443 -0.657978 1157 0.748867 0.662720 0.000000
-26.233393 -23.766731 -0.647105 1151 0.748867 0.662720 0.000000
-26.231253 -23.764799 -0.636184 1169 0.748867 0.662720 0.000000
-26.231241 -23.764788 -0.625314 1153 0.748867 0.662720 0.000000
-26.232510 -23.765936 -0.614462 1177 0.748867 0.662720 0.000000
-26.231356 -23.764889 -0.603562 1163 0.748867 0.662720 0.000000
-26.230787 -23.764374 -0.592677 1147 0.748867 0.662720 0.000000
-26.231625 -23.765135 -0.581829 1157 0.748867 0.662720 0.000000
-26.231041 -23.764608 -0.570944 1159 0.748867 0.662720 0.000000
-26.230997 -23.764574 -0.560065 1163 0.748867 0.662720 0.000000
-26.232050 -23.765528 -0.549215 1163 0.748867 0.662720 0.000000
-26.233088 -23.766468 -0.538365 1151 0.748867 0.662720 0.000000
-26.232615 -23.766041 -0.527479 1161 0.748867 0.662720 0.000000
-26.231104 -23.764668 -0.516583 1165 0.748867 0.662720 0.000000
-26.231600 -23.765116 -0.505718 1171 0.748867 0.662720 0.000000
-26.230415 -23.764046 -0.494829 1167 0.748867 0.662720 0.000000
-26.230692 -23.764299 -0.483956 1165 0.748867 0.662720 0.000000
-26.232374 -23.765827 -0.473120 1149 0.748867 0.662720 0.000000
-26.231073 -23.764645 -0.462222 1169 0.748867 0.662720 0.000000
-26.231062 -23.764635 -0.451351 1159 0.748867 0.662720 0.000000
-26.231703 -23.765221 -0.440485 1149 0.748867 0.662720 0.000000
-26.231852 -23.765362 -0.429624 1155 0.748867 0.662720 0.000000
-26.231552 -23.765093 -0.418746 1165 0.748867 0.662720 0.000000
-26.230619 -23.764244 -0.407854 1163 0.748867 0.662720 0.000000
-26.231861 -23.765368 -0.397003 1161 0.748867 0.662720 0.000000
-26.232317 -23.765785 -0.386138 1169 0.748867 0.662720 0.000000
-26.232246 -23.765718 -0.375269 1175 0.748867 0.662720 0.000000
-26.231663 -23.765190 -0.364394 1149 0.748867 0.662720 0.000000
-26.231422 -23.764977 -0.353516 1153 0.748867 0.662720 0.000000
-26.232143 -23.765636 -0.342659 1141 0.748867 0.662720 0.000000
-26.231682 -23.765217 -0.331773 1147 0.748867 0.662720 0.000000
-26.232023 -23.765532 -0.320909 1159 0.748867 0.662720 0.000000
-26.231941 -23.765455 -0.310040 1137 0.748867 0.662720 0.000000
-26.231146 -23.764738 -0.299157 1153 0.748867 0.662720 0.000000
-26.231152 -23.764742 -0.288287 1173 0.748867 0.662720 0.000000
-26.232510 -23.765970 -0.277434 1161 0.748867 0.662720 0.000000
-26.232582 -23.766037 -0.266563 1149 0.748867 0.662720 0.000000
-26.238682 -23.756664 -0.657939 1163 0.748867 0.662720 0.000000
-26.239809 -23.757687 -0.647088 1157 0.748867 0.662720 0.000000
-26.239630 -23.757523 -0.636209 1147 0.748867 0.662720 0.000000
-26.240044 -23.757895 -0.625345 1155 0.748867 0.662720 0.000000
-26.239962 -23.757830 -0.614476 1157 0.748867 0.662720 0.000000
-26.240103 -23.757952 -0.603604 1157 0.748867 0.662720 0.000000
-26.239100 -23.757050 -0.592703 1169 0.748867 0.662720 0.000000
-26.238363 -23.756378 -0.581820 1171 0.748867 0.662720 0.000000
-26.238207 -23.756245 -0.570941 1141 0.748867 0.662720 0.000000
-26.238461 -23.756466 -0.560078 1149 0.748867 0.662720 0.000000
-26.237871 -23.755934 -0.549194 1157 0.748867 0.662720 0.000000
-26.238045 -23.756092 -0.538322 1149 0.748867 0.662720 0.000000
-26.238718 -23.756702 -0.527465 1155 0.748867 0.662720 0.000000
-26.237514 -23.755619 -0.516566 1173 0.748867 0.662720 0.000000
-26.237268 -23.755392 -0.505688 1155 0.748867 0.662720 0.000000
-26.239548 -23.757456 -0.494857 1153 0.748867 0.662720 0.000000
-26.240471 -23.758299 -0.484008 1167 0.748867 0.662720 0.000000
-26.239065 -23.757021 -0.473111 1173 0.748867 0.662720 0.000000
-26.239161 -23.757118 -0.462239 1169 0.748867 0.662720 0.000000
-26.239969 -23.757849 -0.451382 1191 0.748867 0.662720 0.000000
-26.240175 -23.758034 -0.440510 1163 0.748867 0.662720 0.000000
-26.239721 -23.757631 -0.429633 1173 0.748867 0.662720 0.000000
-26.238840 -23.756836 -0.418751 1173 0.748867 0.662720 0.000000
-26.237362 -23.755489 -0.407855 1183 0.748867 0.662720 0.000000
-26.237772 -23.755869 -0.396991 1169 0.748867 0.662720 0.000000
-26.238243 -23.756298 -0.386126 1151 0.748867 0.662720 0.000000
-26.238441 -23.756475 -0.375254 1167 0.748867 0.662720 0.000000
-26.239235 -23.757191 -0.364396 1169 0.748867 0.662720 0.000000
-26.239958 -23.757851 -0.353539 1147 0.748867 0.662720 0.000000
-26.238522 -23.756550 -0.342642 1157 0.748867 0.662720 0.000000
-26.237680 -23.755785 -0.331760 1157 0.748867 0.662720 0.000000
-26.239643 -23.757570 -0.320922 1149 0.748867 0.662720 0.000000
-26.238735 -23.756741 -0.310040 1149 0.748867 0.662720 0.000000
-26.238806 -23.756807 -0.299169 1161 0.748867 0.662720 0.000000
-26.240719 -23.758541 -0.288321 1141 0.748867 0.662720 0.000000
-26.239378 -23.757326 -0.277433 1151 0.748867 0.662720 0.000000
-26.239489 -23.757423 -0.266562 1175 0.748867 0.662720 0.000000
-26.247379 -23.749357 -0.657972 1155 0.748867 0.662720 0.000000
-26.246107 -23.748209 -0.647064 1139 0.748867 0.662720 0.000000
-26.245659 -23.747801 -0.636178 1131 0.748867 0.662720 0.000000
-26.245747 -23.747879 -0.625307 1143 0.748867 0.662720 0.000000
-26.245388 -23.747564 -0.614430 1141 0.748867 0.662720 0.000000
-26.245644 -23.747801 -0.603557 1145 0.748867 0.662720 0.000000
-26.246042 -23.748159 -0.592693 1167 0.748867 0.662720 0.000000
-26.244663 -23.746901 -0.581796 1137 0.748867 0.662720 0.000000
-26.245771 -23.747911 -0.570945 1149 0.748867 0.662720 0.000000
-26.247040 -23.749058 -0.560103 1151 0.748867 0.662720 0.000000
-26.247213 -23.749216 -0.549231 1167 0.748867 0.662720 0.000000
-26.247665 -23.749628 -0.538367 1169 0.748867 0.662720 0.000000
-26.246307 -23.748400 -0.527469 1173 0.748867 0.662720 0.000000
-26.244804 -23.747047 -0.516563 1145 0.748867 0.662720 0.000000
-26.244925 -23.747152 -0.505691 1175 0.748867 0.662720 0.000000
-26.245628 -23.747786 -0.494835 1171 0.748867 0.662720 0.000000
-26.246599 -23.748665 -0.483985 1167 0.748867 0.662720 0.000000
-26.246548 -23.748625 -0.473116 1155 0.748867 0.662720 0.000000
-26.247850 -23.749798 -0.462263 1175 0.748867 0.662720 0.000000
-26.247793 -23.749754 -0.451394 1167 0.748867 0.662720 0.000000
-26.245169 -23.747379 -0.440478 1153 0.748867 0.662720 0.000000
-26.245867 -23.748011 -0.429611 1131 0.748867 0.662720 0.000000
-26.246176 -23.748287 -0.418748 1141 0.748867 0.662720 0.000000
-26.245239 -23.747450 -0.407866 1133 0.748867 0.662720 0.000000
-26.246527 -23.748610 -0.397014 1141 0.748867 0.662720 0.000000
-26.246828 -23.748894 -0.386141 1143 0.748867 0.662720 0.000000
-26.246489 -23.748579 -0.375264 1141 0.748867 0.662720 0.000000
-26.246895 -23.748945 -0.364400 1153 0.748867 0.662720 0.000000
-26.247465 -23.749460 -0.353534 1143 0.748867 0.662720 0.000000
-26.247267 -23.749283 -0.342666 1149 0.748867 0.662720 0.000000
-26.247017 -23.749062 -0.331788 1151 0.748867 0.662720 0.000000
-26.247791 -23.749765 -0.320930 1143 0.748867 0.662720 0.000000
-26.247156 -23.749195 -0.310046 1131 0.748867 0.662720 0.000000
-26.247110 -23.749149 -0.299176 1143 0.748867 0.662720 0.000000
-26.247334 -23.749359 -0.288314 1145 0.748867 0.662720 0.000000
-26.247021 -23.749065 -0.277437 1145 0.748867 0.662720 0.000000
-26.246916 -23.748970 -0.266567 1129 0.748867 0.662720 0.000000
-26.254976 -23.741365 -0.657975 1159 0.748867 0.662720 0.000000
-26.254370 -23.740820 -0.647090 1129 0.748867 0.662720 0.000000
-26.253487 -23.740025 -0.636198 1141 0.748867 0.662720 0.000000
-26.253082 -23.739660 -0.625312 1139 0.748867 0.662720 0.000000
-26.253443 -23.739988 -0.614448 1131 0.748867 0.662720 0.000000
-26.253471 -23.740011 -0.603578 1129 0.748867 0.662720 0.000000
-26.253063 -23.739645 -0.592691 1127 0.748867 0.662720 0.000000
-26.253149 -23.739723 -0.581820 1141 0.748867 0.662720 0.000000
-26.253162 -23.739735 -0.570950 1165 0.748867 0.662720 0.000000
-26.253023 -23.739614 -0.560071 1143 0.748867 0.662720 0.000000
-26.254332 -23.740805 -0.549228 1149 0.748867 0.662720 0.000000
-26.255869 -23.742195 -0.538384 1167 0.748867 0.662720 0.000000
-26.254574 -23.741016 -0.527485 1169 0.748867 0.662720 0.000000
-26.254791 -23.741220 -0.516623 1181 0.748867 0.662720 0.000000
-26.255190 -23.741581 -0.505759 1169 0.748867 0.662720 0.000000
-26.253399 -23.739954 -0.494846 1143 0.748867 0.662720 0.000000
-26.253292 -23.739859 -0.483976 1149 0.748867 0.662720 0.000000
-26.253990 -23.740499 -0.473120 1147 0.748867 0.662720 0.000000
-26.253557 -23.740101 -0.462233 1149 0.748867 0.662720 0.000000
-26.254087 -23.740587 -0.451378 1165 0.748867 0.662720 0.000000
-26.254799 -23.741228 -0.440511 1157 0.748867 0.662720 0.000000
-26.255104 -23.741501 -0.429648 1149 0.748867 0.662720 0.000000
-26.254601 -23.741049 -0.418773 1147 0.748867 0.662720 0.000000
-26.253067 -23.739674 -0.407877 1143 0.748867 0.662720 0.000000
-26.253275 -23.739859 -0.397004 1155 0.748867 0.662720 0.000000
-26.253626 -23.740181 -0.386141 1157 0.748867 0.662720 0.000000
-26.252832 -23.739466 -0.375258 1141 0.748867 0.662720 0.000000
-26.252869 -23.739494 -0.364387 1157 0.748867 0.662720 0.000000
-26.253601 -23.740162 -0.353530 1147 0.748867 0.662720 0.000000
-26.254328 -23.740812 -0.342663 1145 0.748867 0.662720 0.000000
-26.254238 -23.740730 -0.331794 1153 0.748867 0.662720 0.000000
-26.253597 -23.740158 -0.320910 1129 0.748867 0.662720 0.000000
-26.253626 -23.740181 -0.310039 1121 0.748867 0.662720 0.000000
-26.251570 -23.738323 -0.299148 1125 0.748867 0.662720 0.000000
-26.252726 -23.739368 -0.288297 1123 0.748867 0.662720 0.000000
-26.253649 -23.740210 -0.277428 1141 0.748867 0.662720 0.000000
-26.252913 -23.739538 -0.266555 1153 0.748867 0.662720 0.000000
-26.261723 -23.731754 -0.657960 1141 0.748867 0.662720 0.000000
-26.262079 -23.732069 -0.647086 1135 0.748867 0.662720 0.000000
-26.261465 -23.731518 -0.636201 1151 0.748867 0.662720 0.000000
-26.261721 -23.731752 -0.625339 1147 0.748867 0.662720 0.000000
-26.262020 -23.732023 -0.614466 1127 0.748867 0.662720 0.000000
-26.261503 -23.731560 -0.603580 1141 0.748867 0.662720 0.000000
-26.260977 -23.731091 -0.592695 1139 0.748867 0.662720 0.000000
-26.261715 -23.731749 -0.581838 1157 0.748867 0.662720 0.000000
-26.263145 -23.733046 -0.571004 1161 0.748867 0.662720 0.000000
-26.263561 -23.733418 -0.560140 1137 0.748867 0.662720 0.000000
-26.262043 -23.732052 -0.549234 1129 0.748867 0.662720 0.000000
-26.260534 -23.730696 -0.538328 1141 0.748867 0.662720 0.000000
-26.259943 -23.730162 -0.527443 1137 0.748867 0.662720 0.000000
-26.261213 -23.731308 -0.516601 1143 0.748867 0.662720 0.000000
-26.261860 -23.731884 -0.505735 1151 0.748867 0.662720 0.000000
-26.261061 -23.731165 -0.494852 1153 0.748867 0.662720 0.000000
-26.260784 -23.730913 -0.483974 1143 0.748867 0.662720 0.000000
-26.261120 -23.731224 -0.473111 1137 0.748867 0.662720 0.000000
-26.261227 -23.731319 -0.462239 1151 0.748867 0.662720 0.000000
-26.261053 -23.731159 -0.451361 1149 0.748867 0.662720 0.000000
-26.261198 -23.731297 -0.440499 1145 0.748867 0.662720 0.000000
-26.261894 -23.731926 -0.429632 1141 0.748867 0.662720 0.000000
-26.262367 -23.732355 -0.418768 1137 0.748867 0.662720 0.000000
-26.261866 -23.731903 -0.407892 1137 0.748867 0.662720 0.000000
-26.260372 -23.730558 -0.396996 1133 0.748867 0.662720 0.000000
-26.261061 -23.731178 -0.386139 1149 0.748867 0.662720 0.000000
-26.262348 -23.732338 -0.375287 1155 0.748867 0.662720 0.000000
-26.261562 -23.731630 -0.364404 1137 0.748867 0.662720 0.000000
-26.259949 -23.730179 -0.353509 1141 0.748867 0.662720 0.000000
-26.260622 -23.730787 -0.342652 1129 0.748867 0.662720 0.000000
-26.262228 -23.732233 -0.331797 1115 0.748867 0.662720 0.000000
-26.260834 -23.730976 -0.320910 1125 0.748867 0.662720 0.000000
-26.260748 -23.730898 -0.310040 1121 0.748867 0.662720 0.000000
-26.262596 -23.732569 -0.299193 1147 0.748867 0.662720 0.000000
-26.262829 -23.732786 -0.288320 1139 0.748867 0.662720 0.000000
-26.261965 -23.732004 -0.277438 1147 0.748867 0.662720 0.000000
-26.262526 -23.732512 -0.266573 1137 0.748867 0.662720 0.000000
-26.270082 -23.723581 -0.657969 1125 0.748867 0.662720 0.000000
-26.268709 -23.722343 -0.647062 1139 0.748867 0.662720 0.000000
-26.269012 -23.722614 -0.636199 1133 0.748867 0.662720 0.000000
-26.270781 -23.724211 -0.625372 1141 0.748867 0.662720 0.000000
-26.270327 -23.723808 -0.614486 1131 0.748867 0.662720 0.000000
-26.270130 -23.723631 -0.603607 1135 0.748867 0.662720 0.000000
-26.269844 -23.723373 -0.592730 1127 0.748867 0.662720 0.000000
-26.269648 -23.723194 -0.581851 1125 0.748867 0.662720 0.000000
-26.269228 -23.722818 -0.570965 1119 0.748867 0.662720 0.000000
-26.268265 -23.721947 -0.560074 1109 0.748867 0.662720 0.000000
-26.269373 -23.722944 -0.549223 1125 0.748867 0.662720 0.000000
-26.270651 -23.724096 -0.538381 1127 0.748867 0.662720 0.000000
-26.269737 -23.723276 -0.527489 1123 0.748867 0.662720 0.000000
-26.268656 -23.722298 -0.516599 1145 0.748867 0.662720 0.000000
-26.268555 -23.722208 -0.505720 1137 0.748867 0.662720 0.000000
-26.269585 -23.723143 -0.494870 1139 0.748867 0.662720 0.000000
-26.268871 -23.722504 -0.483986 1133 0.748867 0.662720 0.000000
-26.268326 -23.722006 -0.473101 1141 0.748867 0.662720 0.000000
-26.269203 -23.722797 -0.462243 1119 0.748867 0.662720 0.000000
-26.269302 -23.722889 -0.451381 1133 0.748867 0.662720 0.000000
-26.267771 -23.721514 -0.440475 1147 0.748867 0.662720 0.000000
-26.268200 -23.721895 -0.429621 1141 0.748867 0.662720 0.000000
-26.268778 -23.722420 -0.418756 1147 0.748867 0.662720 0.000000
-26.268494 -23.722162 -0.407878 1147 0.748867 0.662720 0.000000
-26.269949 -23.723476 -0.397034 1137 0.748867 0.662720 0.000000
-26.270025 -23.723549 -0.386163 1143 0.748867 0.662720 0.000000
-26.270338 -23.723829 -0.375290 1161 0.748867 0.662720 0.000000
-26.271074 -23.724501 -0.364433 1133 0.748867 0.662720 0.000000
-26.270386 -23.723879 -0.353549 1123 0.748867 0.662720 0.000000
-26.269480 -23.723064 -0.342667 1113 0.748867 0.662720 0.000000
-26.269344 -23.722946 -0.331798 1119 0.748867 0.662720 0.000000
-26.270563 -23.724041 -0.320937 1127 0.748867 0.662720 0.000000
-26.270626 -23.724102 -0.310066 1129 0.748867 0.662720 0.000000
-26.269888 -23.723431 -0.299192 1161 0.748867 0.662720 0.000000
-26.269941 -23.723484 -0.288322 1141 0.748867 0.662720 0.000000
-26.271467 -23.724867 -0.277467 1127 0.748867 0.662720 0.000000
-26.270510 -23.723997 -0.266586 1135 0.748867 0.662720 0.000000
