774
-6.834060 -6.282979 -0.532855 1413 0.733220 0.679992 0.000000
-6.833481 -6.282453 -0.529950 1417 0.733220 0.679992 0.000000
-6.833330 -6.282307 -0.527072 1427 0.733220 0.679992 0.000000
-6.833655 -6.282606 -0.524238 1429 0.733220 0.679992 0.000000
-6.834200 -6.283113 -0.521423 1429 0.733220 0.679992 0.000000
-6.834484 -6.283367 -0.518581 1429 0.733220 0.679992 0.000000
-6.834214 -6.283130 -0.515703 1425 0.733220 0.679992 0.000000
-6.833626 -6.282583 -0.512798 1403 0.733220 0.679992 0.000000
-6.833426 -6.282400 -0.509930 1413 0.733220 0.679992 0.000000
-6.833914 -6.282850 -0.507106 1413 0.733220 0.679992 0.000000
-6.834191 -6.283099 -0.504263 1425 0.733220 0.679992 0.000000
-6.834074 -6.283005 -0.501394 1417 0.733220 0.679992 0.000000
-6.834034 -6.282959 -0.498534 1425 0.733220 0.679992 0.000000
-6.833173 -6.282176 -0.495612 1413 0.733220 0.679992 0.000000
-6.833224 -6.282225 -0.492762 1425 0.733220 0.679992 0.000000
-6.834196 -6.283112 -0.489973 1427 0.733220 0.679992 0.000000
-6.834409 -6.283312 -0.487131 1427 0.733220 0.679992 0.000000
-6.833928 -6.282873 -0.484235 1425 0.733220 0.679992 0.000000
-6.833663 -6.282627 -0.481357 1419 0.733220 0.679992 0.000000
-6.834465 -6.283357 -0.478560 1425 0.733220 0.679992 0.000000
-6.835049 -6.283895 -0.475734 1435 0.733220 0.679992 0.000000
-6.834784 -6.283649 -0.472857 1429 0.733220 0.679992 0.000000
-6.834998 -6.283849 -0.470015 1425 0.733220 0.679992 0.000000
-6.835203 -6.284043 -0.467173 1441 0.733220 0.679992 0.000000
-6.833807 -6.282758 -0.464216 1431 0.733220 0.679992 0.000000
-6.832720 -6.281762 -0.461296 1419 0.733220 0.679992 0.000000
-6.833247 -6.282242 -0.458471 1421 0.733220 0.679992 0.000000
-6.833896 -6.282842 -0.455655 1421 0.733220 0.679992 0.000000
-6.834311 -6.283223 -0.452821 1425 0.733220 0.679992 0.000000
-6.834249 -6.283172 -0.449961 1433 0.733220 0.679992 0.000000
-6.833646 -6.282613 -0.447067 1427 0.733220 0.679992 0.000000
-6.833268 -6.282268 -0.444180 1427 0.733220 0.679992 0.000000
-6.833142 -6.282155 -0.441321 1433 0.733220 0.679992 0.000000
-6.833241 -6.282240 -0.438470 1423 0.733220 0.679992 0.000000
-6.834149 -6.283078 -0.435672 1429 0.733220 0.679992 0.000000
-6.834136 -6.283064 -0.432812 1431 0.733220 0.679992 0.000000
-6.833364 -6.282363 -0.429909 1409 0.733220 0.679992 0.000000
-6.833687 -6.282648 -0.427066 1419 0.733220 0.679992 0.000000
-6.833989 -6.282929 -0.424233 1425 0.733220 0.679992 0.000000
-6.834033 -6.282972 -0.421382 1409 0.733220 0.679992 0.000000
-6.833695 -6.282658 -0.418506 1413 0.733220 0.679992 0.000000
-6.833407 -6.282394 -0.415628 1415 0.733220 0.679992 0.000000
-6.833225 -6.282237 -0.412760 1413 0.733220 0.679992 0.000000
-6.833753 -6.282718 -0.409935 1411 0.733220 0.679992 0.000000
-6.834321 -6.283242 -0.407109 1409 0.733220 0.679992 0.000000
-6.834307 -6.283228 -0.404260 1421 0.733220 0.679992 0.000000
-6.834505 -6.283416 -0.401408 1433 0.733220 0.679992 0.000000
-6.834215 -6.283138 -0.398540 1429 0.733220 0.679992 0.000000
-6.833984 -6.282931 -0.395672 1423 0.733220 0.679992 0.000000
-6.834440 -6.283356 -0.392838 1417 0.733220 0.679992 0.000000
-6.834909 -6.283779 -0.390014 1423 0.733220 0.679992 0.000000
-6.833756 -6.282720 -0.387094 1417 0.733220 0.679992 0.000000
-6.833348 -6.282351 -0.384208 1407 0.733220 0.679992 0.000000
-6.834675 -6.283563 -0.381426 1437 0.733220 0.679992 0.000000
-6.834647 -6.283551 -0.378576 1431 0.733220 0.679992 0.000000
-6.833816 -6.282778 -0.375673 1427 0.733220 0.679992 0.000000
-6.834005 -6.282960 -0.372822 1417 0.733220 0.679992 0.000000
-6.833976 -6.282934 -0.369972 1419 0.733220 0.679992 0.000000
-6.833631 -6.282613 -0.367095 1423 0.733220 0.679992 0.000000
-6.833713 -6.282686 -0.364244 1427 0.733220 0.679992 0.000000
-6.833734 -6.282712 -0.361394 1413 0.733220 0.679992 0.000000
-6.834033 -6.282978 -0.358551 1413 0.733220 0.679992 0.000000
-6.834003 -6.282952 -0.355691 1407 0.733220 0.679992 0.000000
-6.833919 -6.282883 -0.352832 1415 0.733220 0.679992 0.000000
-6.833727 -6.282707 -0.349974 1413 0.733220 0.679992 0.000000
-6.833212 -6.282229 -0.347088 1417 0.733220 0.679992 0.000000
-6.833182 -6.282203 -0.344239 1413 0.733220 0.679992 0.000000
-6.833032 -6.282071 -0.341380 1415 0.733220 0.679992 0.000000
-6.833333 -6.282339 -0.338537 1407 0.733220 0.679992 0.000000
-6.834272 -6.283200 -0.335728 1417 0.733220 0.679992 0.000000
-6.834446 -6.283370 -0.332877 1413 0.733220 0.679992 0.000000
-6.833931 -6.282892 -0.330001 1415 0.733220 0.679992 0.000000
-6.833246 -6.282259 -0.327118 1413 0.733220 0.679992 0.000000
-6.833475 -6.282470 -0.324275 1433 0.733220 0.679992 0.000000
-6.833495 -6.282495 -0.321415 1417 0.733220 0.679992 0.000000
-6.833562 -6.282557 -0.318564 1407 0.733220 0.679992 0.000000
-6.833903 -6.282868 -0.315731 1409 0.733220 0.679992 0.000000
-6.834028 -6.282986 -0.312880 1411 0.733220 0.679992 0.000000
-6.833877 -6.282854 -0.310021 1419 0.733220 0.679992 0.000000
-6.836792 -6.281613 -0.699002 1409 0.733220 0.679992 0.000000
-6.836149 -6.281024 -0.696068 1407 0.733220 0.679992 0.000000
-6.836410 -6.281260 -0.693226 1417 0.733220 0.679992 0.000000
-6.836785 -6.281610 -0.690402 1427 0.733220 0.679992 0.000000
-6.836560 -6.281395 -0.687514 1425 0.733220 0.679992 0.000000
-6.836442 -6.281287 -0.684635 1403 0.733220 0.679992 0.000000
-6.836921 -6.281731 -0.681811 1409 0.733220 0.679992 0.000000
-6.837012 -6.281810 -0.678960 1423 0.733220 0.679992 0.000000
-6.836410 -6.281266 -0.676035 1417 0.733220 0.679992 0.000000
-6.836355 -6.281207 -0.673156 1413 0.733220 0.679992 0.000000
-6.836447 -6.281301 -0.670305 1417 0.733220 0.679992 0.000000
-6.835626 -6.280548 -0.667362 1411 0.733220 0.679992 0.000000
-6.835563 -6.280484 -0.664483 1409 0.733220 0.679992 0.000000
-6.836035 -6.280921 -0.661668 1415 0.733220 0.679992 0.000000
-6.836070 -6.280958 -0.658808 1413 0.733220 0.679992 0.000000
-6.836007 -6.280894 -0.655939 1421 0.733220 0.679992 0.000000
-6.835670 -6.280579 -0.653042 1421 0.733220 0.679992 0.000000
-6.835972 -6.280859 -0.650199 1423 0.733220 0.679992 0.000000
-6.835902 -6.280803 -0.647329 1427 0.733220 0.679992 0.000000
-6.834700 -6.279693 -0.644350 1425 0.733220 0.679992 0.000000
-6.834735 -6.279729 -0.641490 1417 0.733220 0.679992 0.000000
-6.835845 -6.280749 -0.638730 1425 0.733220 0.679992 0.000000
-6.836526 -6.281374 -0.635933 1423 0.733220 0.679992 0.000000
-6.836554 -6.281404 -0.633073 1427 0.733220 0.679992 0.000000
-6.835787 -6.280695 -0.630140 1425 0.733220 0.679992 0.000000
-6.835225 -6.280181 -0.627225 1413 0.733220 0.679992 0.000000
-6.835091 -6.280061 -0.624346 1417 0.733220 0.679992 0.000000
-6.835343 -6.280292 -0.621504 1421 0.733220 0.679992 0.000000
-6.835854 -6.280759 -0.618689 1431 0.733220 0.679992 0.000000
-6.835987 -6.280884 -0.615838 1427 0.733220 0.679992 0.000000
-6.835965 -6.280864 -0.612968 1433 0.733220 0.679992 0.000000
-6.835894 -6.280793 -0.610098 1415 0.733220 0.679992 0.000000
-6.836027 -6.280918 -0.607247 1419 0.733220 0.679992 0.000000
-6.835997 -6.280891 -0.604387 1425 0.733220 0.679992 0.000000
-6.835758 -6.280678 -0.601499 1421 0.733220 0.679992 0.000000
-6.835566 -6.280501 -0.598621 1411 0.733220 0.679992 0.000000
-6.835536 -6.280475 -0.595761 1419 0.733220 0.679992 0.000000
-6.835345 -6.280299 -0.592883 1423 0.733220 0.679992 0.000000
-6.835533 -6.280466 -0.590031 1411 0.733220 0.679992 0.000000
-6.835819 -6.280735 -0.587199 1427 0.733220 0.679992 0.000000
-6.835790 -6.280709 -0.584329 1419 0.733220 0.679992 0.000000
-6.835661 -6.280581 -0.581460 1399 0.733220 0.679992 0.000000
-6.835350 -6.280298 -0.578573 1409 0.733220 0.679992 0.000000
-6.836234 -6.281118 -0.575784 1419 0.733220 0.679992 0.000000
-6.836737 -6.281580 -0.572960 1417 0.733220 0.679992 0.000000
-6.836699 -6.281548 -0.570100 1431 0.733220 0.679992 0.000000
-6.836662 -6.281516 -0.567230 1429 0.733220 0.679992 0.000000
-6.836097 -6.280987 -0.564326 1423 0.733220 0.679992 0.000000
-6.835898 -6.280805 -0.561447 1421 0.733220 0.679992 0.000000
-6.836555 -6.281412 -0.558641 1437 0.733220 0.679992 0.000000
-6.836842 -6.281680 -0.555808 1437 0.733220 0.679992 0.000000
-6.835939 -6.280852 -0.552867 1423 0.733220 0.679992 0.000000
-6.835474 -6.280426 -0.549971 1425 0.733220 0.679992 0.000000
-6.835484 -6.280430 -0.547111 1429 0.733220 0.679992 0.000000
-6.835833 -6.280748 -0.544277 1437 0.733220 0.679992 0.000000
-6.835892 -6.280803 -0.541427 1429 0.733220 0.679992 0.000000
-6.835847 -6.280765 -0.538557 1421 0.733220 0.679992 0.000000
-6.835752 -6.280675 -0.535698 1419 0.733220 0.679992 0.000000
-6.835665 -6.280593 -0.532829 1425 0.733220 0.679992 0.000000
-6.835879 -6.280792 -0.529987 1425 0.733220 0.679992 0.000000
-6.835891 -6.280811 -0.527126 1427 0.733220 0.679992 0.000000
-6.835949 -6.280866 -0.524266 1421 0.733220 0.679992 0.000000
-6.835855 -6.280777 -0.521407 1429 0.733220 0.679992 0.000000
-6.835169 -6.280143 -0.518493 1433 0.733220 0.679992 0.000000
-6.835600 -6.280536 -0.515669 1419 0.733220 0.679992 0.000000
-6.836799 -6.281637 -0.512898 1421 0.733220 0.679992 0.000000
-6.836794 -6.281642 -0.510038 1445 0.733220 0.679992 0.000000
-6.836320 -6.281209 -0.507142 1435 0.733220 0.679992 0.000000
-6.835886 -6.280807 -0.504246 1427 0.733220 0.679992 0.000000
-6.835567 -6.280519 -0.501369 1419 0.733220 0.679992 0.000000
-6.835681 -6.280617 -0.498518 1431 0.733220 0.679992 0.000000
-6.835474 -6.280428 -0.495640 1425 0.733220 0.679992 0.000000
-6.835526 -6.280477 -0.492789 1415 0.733220 0.679992 0.000000
-6.835851 -6.280776 -0.489956 1423 0.733220 0.679992 0.000000
-6.835531 -6.280488 -0.487069 1427 0.733220 0.679992 0.000000
-6.835742 -6.280674 -0.484227 1423 0.733220 0.679992 0.000000
-6.836118 -6.281024 -0.481393 1433 0.733220 0.679992 0.000000
-6.835903 -6.280829 -0.478525 1431 0.733220 0.679992 0.000000
-6.835734 -6.280670 -0.475657 1431 0.733220 0.679992 0.000000
-6.835793 -6.280725 -0.472796 1431 0.733220 0.679992 0.000000
-6.836054 -6.280962 -0.469964 1439 0.733220 0.679992 0.000000
-6.836317 -6.281212 -0.467121 1441 0.733220 0.679992 0.000000
-6.835938 -6.280853 -0.464235 1437 0.733220 0.679992 0.000000
-6.835668 -6.280615 -0.461357 1425 0.733220 0.679992 0.000000
-6.836194 -6.281096 -0.458532 1429 0.733220 0.679992 0.000000
-6.836828 -6.281683 -0.455716 1433 0.733220 0.679992 0.000000
-6.836015 -6.280938 -0.452814 1421 0.733220 0.679992 0.000000
-6.835306 -6.280285 -0.449910 1423 0.733220 0.679992 0.000000
-6.835258 -6.280232 -0.447050 1415 0.733220 0.679992 0.000000
-6.835505 -6.280471 -0.444208 1423 0.733220 0.679992 0.000000
-6.836153 -6.281057 -0.441392 1431 0.733220 0.679992 0.000000
-6.835977 -6.280892 -0.438524 1437 0.733220 0.679992 0.000000
-6.835529 -6.280492 -0.435638 1425 0.733220 0.679992 0.000000
-6.836275 -6.281179 -0.432821 1425 0.733220 0.679992 0.000000
-6.836479 -6.281359 -0.429979 1433 0.733220 0.679992 0.000000
-6.835334 -6.280306 -0.427059 1413 0.733220 0.679992 0.000000
-6.835644 -6.280593 -0.424216 1415 0.733220 0.679992 0.000000
-6.836059 -6.280974 -0.421382 1423 0.733220 0.679992 0.000000
-6.835561 -6.280523 -0.418497 1425 0.733220 0.679992 0.000000
-6.835701 -6.280653 -0.415656 1433 0.733220 0.679992 0.000000
-6.835534 -6.280495 -0.412787 1425 0.733220 0.679992 0.000000
-6.836053 -6.280970 -0.409962 1419 0.733220 0.679992 0.000000
-6.836783 -6.281645 -0.407145 1435 0.733220 0.679992 0.000000
-6.836446 -6.281330 -0.404268 1429 0.733220 0.679992 0.000000
-6.835666 -6.280623 -0.401366 1421 0.733220 0.679992 0.000000
-6.835707 -6.280652 -0.398515 1429 0.733220 0.679992 0.000000
-6.836488 -6.281378 -0.395708 1433 0.733220 0.679992 0.000000
-6.836149 -6.281063 -0.392831 1423 0.733220 0.679992 0.000000
-6.835538 -6.280498 -0.389937 1423 0.733220 0.679992 0.000000
-6.836051 -6.280981 -0.387112 1421 0.733220 0.679992 0.000000
-6.836562 -6.281448 -0.384287 1409 0.733220 0.679992 0.000000
-6.836161 -6.281085 -0.381410 1427 0.733220 0.679992 0.000000
-6.836033 -6.280957 -0.378542 1425 0.733220 0.679992 0.000000
-6.835899 -6.280838 -0.375683 1427 0.733220 0.679992 0.000000
-6.836088 -6.281018 -0.372831 1417 0.733220 0.679992 0.000000
-6.835735 -6.280692 -0.369964 1415 0.733220 0.679992 0.000000
-6.835552 -6.280521 -0.367096 1411 0.733220 0.679992 0.000000
-6.836282 -6.281197 -0.364279 1413 0.733220 0.679992 0.000000
-6.836470 -6.281364 -0.361437 1409 0.733220 0.679992 0.000000
-6.836489 -6.281389 -0.358577 1423 0.733220 0.679992 0.000000
-6.836411 -6.281312 -0.355718 1427 0.733220 0.679992 0.000000
-6.836323 -6.281229 -0.352858 1419 0.733220 0.679992 0.000000
-6.835536 -6.280515 -0.349965 1419 0.733220 0.679992 0.000000
-6.835457 -6.280438 -0.347106 1411 0.733220 0.679992 0.000000
-6.836339 -6.281244 -0.344298 1423 0.733220 0.679992 0.000000
-6.836422 -6.281317 -0.341447 1435 0.733220 0.679992 0.000000
-6.835521 -6.280490 -0.338545 1417 0.733220 0.679992 0.000000
-6.834733 -6.279777 -0.335653 1407 0.733220 0.679992 0.000000
-6.834808 -6.279844 -0.332802 1405 0.733220 0.679992 0.000000
-6.835416 -6.280400 -0.329986 1401 0.733220 0.679992 0.000000
-6.836082 -6.281013 -0.327160 1409 0.733220 0.679992 0.000000
-6.836261 -6.281173 -0.324308 1423 0.733220 0.679992 0.000000
-6.835740 -6.280704 -0.321433 1419 0.733220 0.679992 0.000000
-6.835483 -6.280464 -0.318565 1409 0.733220 0.679992 0.000000
-6.835720 -6.280683 -0.315723 1429 0.733220 0.679992 0.000000
-6.835625 -6.280593 -0.312864 1429 0.733220 0.679992 0.000000
-6.835151 -6.280160 -0.309988 1411 0.733220 0.679992 0.000000
-6.839031 -6.279830 -0.699030 1415 0.733220 0.679992 0.000000
-6.839188 -6.279973 -0.696179 1427 0.733220 0.679992 0.000000
-6.838761 -6.279576 -0.693273 1417 0.733220 0.679992 0.000000
-6.838376 -6.279225 -0.690366 1421 0.733220 0.679992 0.000000
-6.838096 -6.278967 -0.687469 1419 0.733220 0.679992 0.000000
-6.838729 -6.279555 -0.684673 1409 0.733220 0.679992 0.000000
-6.839040 -6.279842 -0.681830 1415 0.733220 0.679992 0.000000
-6.839034 -6.279834 -0.678970 1413 0.733220 0.679992 0.000000
-6.838865 -6.279676 -0.676081 1403 0.733220 0.679992 0.000000
-6.838472 -6.279318 -0.673185 1403 0.733220 0.679992 0.000000
-6.838362 -6.279217 -0.670306 1411 0.733220 0.679992 0.000000
-6.837870 -6.278757 -0.667390 1413 0.733220 0.679992 0.000000
-6.837478 -6.278400 -0.664484 1411 0.733220 0.679992 0.000000
-6.837401 -6.278337 -0.661614 1419 0.733220 0.679992 0.000000
-6.837612 -6.278522 -0.658772 1411 0.733220 0.679992 0.000000
-6.837809 -6.278710 -0.655920 1405 0.733220 0.679992 0.000000
-6.838273 -6.279141 -0.653106 1413 0.733220 0.679992 0.000000
-6.838525 -6.279371 -0.650264 1427 0.733220 0.679992 0.000000
-6.838188 -6.279057 -0.647367 1429 0.733220 0.679992 0.000000
-6.838224 -6.279094 -0.644506 1431 0.733220 0.679992 0.000000
-6.837991 -6.278872 -0.641618 1427 0.733220 0.679992 0.000000
-6.837648 -6.278566 -0.638722 1409 0.733220 0.679992 0.000000
-6.837472 -6.278401 -0.635843 1409 0.733220 0.679992 0.000000
-6.837450 -6.278380 -0.632973 1415 0.733220 0.679992 0.000000
-6.837486 -6.278418 -0.630113 1419 0.733220 0.679992 0.000000
-6.837730 -6.278642 -0.627280 1417 0.733220 0.679992 0.000000
-6.838192 -6.279059 -0.624456 1433 0.733220 0.679992 0.000000
-6.837678 -6.278595 -0.621541 1429 0.733220 0.679992 0.000000
-6.837229 -6.278182 -0.618645 1423 0.733220 0.679992 0.000000
-6.837158 -6.278111 -0.615776 1419 0.733220 0.679992 0.000000
-6.837394 -6.278328 -0.612933 1423 0.733220 0.679992 0.000000
-6.837430 -6.278365 -0.610073 1421 0.733220 0.679992 0.000000
-6.837400 -6.278339 -0.607203 1417 0.733220 0.679992 0.000000
-6.837379 -6.278319 -0.604343 1425 0.733220 0.679992 0.000000
-6.837462 -6.278393 -0.601482 1431 0.733220 0.679992 0.000000
-6.837699 -6.278611 -0.598640 1415 0.733220 0.679992 0.000000
-6.838202 -6.279073 -0.595825 1411 0.733220 0.679992 0.000000
-6.837793 -6.278703 -0.592929 1415 0.733220 0.679992 0.000000
-6.837343 -6.278289 -0.590023 1413 0.733220 0.679992 0.000000
-6.837959 -6.278850 -0.587217 1431 0.733220 0.679992 0.000000
-6.837704 -6.278624 -0.584330 1435 0.733220 0.679992 0.000000
-6.837400 -6.278347 -0.581442 1411 0.733220 0.679992 0.000000
-6.837959 -6.278853 -0.578627 1415 0.733220 0.679992 0.000000
-6.838092 -6.278978 -0.575776 1427 0.733220 0.679992 0.000000
-6.837842 -6.278744 -0.572898 1411 0.733220 0.679992 0.000000
-6.837813 -6.278718 -0.570038 1411 0.733220 0.679992 0.000000
-6.837888 -6.278785 -0.567178 1431 0.733220 0.679992 0.000000
-6.837851 -6.278753 -0.564318 1423 0.733220 0.679992 0.000000
-6.837708 -6.278627 -0.561439 1417 0.733220 0.679992 0.000000
-6.837930 -6.278833 -0.558597 1419 0.733220 0.679992 0.000000
-6.838222 -6.279094 -0.555764 1419 0.733220 0.679992 0.000000
-6.838233 -6.279112 -0.552904 1419 0.733220 0.679992 0.000000
-6.838350 -6.279224 -0.550053 1431 0.733220 0.679992 0.000000
-6.837996 -6.278897 -0.547166 1421 0.733220 0.679992 0.000000
-6.838597 -6.279447 -0.544351 1429 0.733220 0.679992 0.000000
-6.838664 -6.279508 -0.541490 1429 0.733220 0.679992 0.000000
-6.837544 -6.278487 -0.538550 1425 0.733220 0.679992 0.000000
-6.837450 -6.278398 -0.535681 1431 0.733220 0.679992 0.000000
-6.838107 -6.279005 -0.532865 1433 0.733220 0.679992 0.000000
-6.838715 -6.279560 -0.530059 1431 0.733220 0.679992 0.000000
-6.838135 -6.279020 -0.527154 1425 0.733220 0.679992 0.000000
-6.837071 -6.278042 -0.524214 1409 0.733220 0.679992 0.000000
-6.837179 -6.278148 -0.521363 1407 0.733220 0.679992 0.000000
-6.837884 -6.278791 -0.518556 1417 0.733220 0.679992 0.000000
-6.837951 -6.278852 -0.515696 1421 0.733220 0.679992 0.000000
-6.838222 -6.279109 -0.512863 1431 0.733220 0.679992 0.000000
-6.837578 -6.278519 -0.509949 1429 0.733220 0.679992 0.000000
-6.836836 -6.277829 -0.507036 1419 0.733220 0.679992 0.000000
-6.837373 -6.278328 -0.504221 1417 0.733220 0.679992 0.000000
-6.838514 -6.279373 -0.501440 1435 0.733220 0.679992 0.000000
-6.838678 -6.279521 -0.498599 1437 0.733220 0.679992 0.000000
-6.838139 -6.279026 -0.495694 1427 0.733220 0.679992 0.000000
-6.837981 -6.278887 -0.492825 1431 0.733220 0.679992 0.000000
-6.837928 -6.278843 -0.489965 1427 0.733220 0.679992 0.000000
-6.837873 -6.278785 -0.487106 1427 0.733220 0.679992 0.000000
-6.837819 -6.278740 -0.484236 1435 0.733220 0.679992 0.000000
-6.838194 -6.279090 -0.481413 1431 0.733220 0.679992 0.000000
-6.838406 -6.279276 -0.478561 1421 0.733220 0.679992 0.000000
-6.838247 -6.279137 -0.475692 1435 0.733220 0.679992 0.000000
-6.838291 -6.279181 -0.472842 1437 0.733220 0.679992 0.000000
-6.837808 -6.278728 -0.469946 1433 0.733220 0.679992 0.000000
-6.837430 -6.278382 -0.467069 1421 0.733220 0.679992 0.000000
-6.837531 -6.278482 -0.464218 1427 0.733220 0.679992 0.000000
-6.837954 -6.278869 -0.461384 1437 0.733220 0.679992 0.000000
-6.838167 -6.279068 -0.458542 1437 0.733220 0.679992 0.000000
-6.837886 -6.278811 -0.455665 1425 0.733220 0.679992 0.000000
-6.837452 -6.278409 -0.452779 1417 0.733220 0.679992 0.000000
-6.837446 -6.278400 -0.449919 1411 0.733220 0.679992 0.000000
-6.837385 -6.278350 -0.447059 1419 0.733220 0.679992 0.000000
-6.837750 -6.278680 -0.444226 1423 0.733220 0.679992 0.000000
-6.838173 -6.279067 -0.441392 1435 0.733220 0.679992 0.000000
-6.837837 -6.278766 -0.438515 1437 0.733220 0.679992 0.000000
-6.837444 -6.278409 -0.435638 1427 0.733220 0.679992 0.000000
-6.837494 -6.278443 -0.432788 1423 0.733220 0.679992 0.000000
-6.837642 -6.278580 -0.429937 1423 0.733220 0.679992 0.000000
-6.838106 -6.279011 -0.427112 1429 0.733220 0.679992 0.000000
-6.838528 -6.279398 -0.424278 1419 0.733220 0.679992 0.000000
-6.838297 -6.279191 -0.421410 1417 0.733220 0.679992 0.000000
-6.837959 -6.278876 -0.418533 1415 0.733220 0.679992 0.000000
-6.837784 -6.278712 -0.415665 1417 0.733220 0.679992 0.000000
-6.837924 -6.278842 -0.412814 1423 0.733220 0.679992 0.000000
-6.838550 -6.279424 -0.409998 1421 0.733220 0.679992 0.000000
-6.838641 -6.279504 -0.407147 1431 0.733220 0.679992 0.000000
-6.837982 -6.278903 -0.404253 1419 0.733220 0.679992 0.000000
-6.837855 -6.278789 -0.401384 1421 0.733220 0.679992 0.000000
-6.837946 -6.278869 -0.398533 1431 0.733220 0.679992 0.000000
-6.837924 -6.278849 -0.395673 1419 0.733220 0.679992 0.000000
-6.838282 -6.279172 -0.392840 1433 0.733220 0.679992 0.000000
-6.838528 -6.279410 -0.389997 1435 0.733220 0.679992 0.000000
-6.838392 -6.279277 -0.387139 1425 0.733220 0.679992 0.000000
-6.837346 -6.278326 -0.384218 1413 0.733220 0.679992 0.000000
-6.837436 -6.278405 -0.381367 1419 0.733220 0.679992 0.000000
-6.837246 -6.278229 -0.378509 1409 0.733220 0.679992 0.000000
-6.836853 -6.277871 -0.375633 1401 0.733220 0.679992 0.000000
-6.837954 -6.278883 -0.372832 1423 0.733220 0.679992 0.000000
-6.838142 -6.279052 -0.369990 1427 0.733220 0.679992 0.000000
-6.838120 -6.279031 -0.367131 1411 0.733220 0.679992 0.000000
-6.837873 -6.278811 -0.364263 1407 0.733220 0.679992 0.000000
-6.837309 -6.278284 -0.361378 1399 0.733220 0.679992 0.000000
-6.837652 -6.278609 -0.358545 1413 0.733220 0.679992 0.000000
-6.838114 -6.279026 -0.355710 1413 0.733220 0.679992 0.000000
-6.837867 -6.278807 -0.352843 1411 0.733220 0.679992 0.000000
-6.837345 -6.278324 -0.349967 1415 0.733220 0.679992 0.000000
-6.837484 -6.278454 -0.347116 1423 0.733220 0.679992 0.000000
-6.837939 -6.278865 -0.344282 1421 0.733220 0.679992 0.000000
-6.838274 -6.279185 -0.341449 1419 0.733220 0.679992 0.000000
-6.838349 -6.279252 -0.338598 1419 0.733220 0.679992 0.000000
-6.838109 -6.279025 -0.335730 1415 0.733220 0.679992 0.000000
-6.837579 -6.278549 -0.332845 1401 0.733220 0.679992 0.000000
-6.836952 -6.277973 -0.329961 1397 0.733220 0.679992 0.000000
-6.836977 -6.277989 -0.327110 1411 0.733220 0.679992 0.000000
-6.837311 -6.278295 -0.324277 1417 0.733220 0.679992 0.000000
-6.837976 -6.278907 -0.321451 1411 0.733220 0.679992 0.000000
-6.838263 -6.279176 -0.318608 1413 0.733220 0.679992 0.000000
-6.837893 -6.278836 -0.315741 1429 0.733220 0.679992 0.000000
-6.837378 -6.278359 -0.312856 1419 0.733220 0.679992 0.000000
-6.837390 -6.278378 -0.310006 1417 0.733220 0.679992 0.000000
-6.838763 -6.275500 -0.698802 1391 0.733220 0.679992 0.000000
-6.838855 -6.275594 -0.695951 1385 0.733220 0.679992 0.000000
-6.840085 -6.276719 -0.693200 1399 0.733220 0.679992 0.000000
-6.840346 -6.276956 -0.690358 1407 0.733220 0.679992 0.000000
-6.839856 -6.276510 -0.687452 1405 0.733220 0.679992 0.000000
-6.840279 -6.276897 -0.684628 1413 0.733220 0.679992 0.000000
-6.841347 -6.277872 -0.681858 1407 0.733220 0.679992 0.000000
-6.841714 -6.278216 -0.679035 1423 0.733220 0.679992 0.000000
-6.841329 -6.277864 -0.676128 1411 0.733220 0.679992 0.000000
-6.840782 -6.277362 -0.673203 1407 0.733220 0.679992 0.000000
-6.840115 -6.276754 -0.670279 1409 0.733220 0.679992 0.000000
-6.840221 -6.276846 -0.667418 1411 0.733220 0.679992 0.000000
-6.840579 -6.277170 -0.664595 1419 0.733220 0.679992 0.000000
-6.839920 -6.276568 -0.661661 1397 0.733220 0.679992 0.000000
-6.839268 -6.275972 -0.658737 1405 0.733220 0.679992 0.000000
-6.839570 -6.276253 -0.655904 1413 0.733220 0.679992 0.000000
-6.839984 -6.276634 -0.653070 1415 0.733220 0.679992 0.000000
-6.840180 -6.276808 -0.650228 1423 0.733220 0.679992 0.000000
-6.840223 -6.276851 -0.647368 1415 0.733220 0.679992 0.000000
-6.839927 -6.276580 -0.644480 1425 0.733220 0.679992 0.000000
-6.839535 -6.276223 -0.641574 1417 0.733220 0.679992 0.000000
-6.839633 -6.276309 -0.638723 1415 0.733220 0.679992 0.000000
-6.840847 -6.277421 -0.635972 1423 0.733220 0.679992 0.000000
-6.841303 -6.277847 -0.633147 1429 0.733220 0.679992 0.000000
-6.840312 -6.276937 -0.630186 1421 0.733220 0.679992 0.000000
-6.840185 -6.276824 -0.627317 1409 0.733220 0.679992 0.000000
-6.840382 -6.276998 -0.624466 1423 0.733220 0.679992 0.000000
-6.839714 -6.276390 -0.621542 1423 0.733220 0.679992 0.000000
-6.839376 -6.276075 -0.618655 1413 0.733220 0.679992 0.000000
-6.839670 -6.276350 -0.615812 1421 0.733220 0.679992 0.000000
-6.840020 -6.276668 -0.612979 1415 0.733220 0.679992 0.000000
-6.840314 -6.276942 -0.610146 1419 0.733220 0.679992 0.000000
-6.840672 -6.277266 -0.607313 1423 0.733220 0.679992 0.000000
-6.840424 -6.277046 -0.604435 1421 0.733220 0.679992 0.000000
-6.839538 -6.276231 -0.601493 1407 0.733220 0.679992 0.000000
-6.840203 -6.276844 -0.598687 1425 0.733220 0.679992 0.000000
-6.840931 -6.277505 -0.595890 1431 0.733220 0.679992 0.000000
-6.839990 -6.276647 -0.592938 1421 0.733220 0.679992 0.000000
-6.839694 -6.276377 -0.590051 1415 0.733220 0.679992 0.000000
-6.839929 -6.276581 -0.587209 1417 0.733220 0.679992 0.000000
-6.840006 -6.276663 -0.584358 1425 0.733220 0.679992 0.000000
-6.839757 -6.276429 -0.581470 1421 0.733220 0.679992 0.000000
-6.839727 -6.276403 -0.578611 1423 0.733220 0.679992 0.000000
-6.840069 -6.276714 -0.575777 1413 0.733220 0.679992 0.000000
-6.839548 -6.276245 -0.572872 1413 0.733220 0.679992 0.000000
-6.839573 -6.276261 -0.570012 1421 0.733220 0.679992 0.000000
-6.840126 -6.276774 -0.567197 1427 0.733220 0.679992 0.000000
-6.839822 -6.276498 -0.564309 1417 0.733220 0.679992 0.000000
-6.840164 -6.276810 -0.561476 1417 0.733220 0.679992 0.000000
-6.840610 -6.277215 -0.558652 1429 0.733220 0.679992 0.000000
-6.840249 -6.276881 -0.555765 1415 0.733220 0.679992 0.000000
-6.839888 -6.276548 -0.552868 1425 0.733220 0.679992 0.000000
-6.839907 -6.276573 -0.550018 1423 0.733220 0.679992 0.000000
-6.839917 -6.276577 -0.547158 1427 0.733220 0.679992 0.000000
-6.839992 -6.276645 -0.544297 1421 0.733220 0.679992 0.000000
-6.840375 -6.277001 -0.541464 1427 0.733220 0.679992 0.000000
-6.840330 -6.276963 -0.538604 1427 0.733220 0.679992 0.000000
-6.840284 -6.276925 -0.535744 1427 0.733220 0.679992 0.000000
-6.840407 -6.277029 -0.532893 1429 0.733220 0.679992 0.000000
-6.840474 -6.277090 -0.530033 1423 0.733220 0.679992 0.000000
-6.840105 -6.276751 -0.527146 1427 0.733220 0.679992 0.000000
-6.839421 -6.276131 -0.524232 1411 0.733220 0.679992 0.000000
-6.839530 -6.276237 -0.521381 1409 0.733220 0.679992 0.000000
-6.839863 -6.276542 -0.518548 1433 0.733220 0.679992 0.000000
-6.839654 -6.276339 -0.515670 1423 0.733220 0.679992 0.000000
-6.839883 -6.276551 -0.512828 1431 0.733220 0.679992 0.000000
-6.840209 -6.276850 -0.509994 1435 0.733220 0.679992 0.000000
-6.839994 -6.276655 -0.507126 1437 0.733220 0.679992 0.000000
-6.839941 -6.276611 -0.504257 1423 0.733220 0.679992 0.000000
-6.840000 -6.276666 -0.501406 1425 0.733220 0.679992 0.000000
-6.840277 -6.276915 -0.498564 1427 0.733220 0.679992 0.000000
-6.840651 -6.277265 -0.495730 1435 0.733220 0.679992 0.000000
-6.840549 -6.277170 -0.492871 1431 0.733220 0.679992 0.000000
-6.840229 -6.276881 -0.489984 1425 0.733220 0.679992 0.000000
-6.839907 -6.276578 -0.487107 1431 0.733220 0.679992 0.000000
-6.839369 -6.276083 -0.484212 1433 0.733220 0.679992 0.000000
-6.839744 -6.276433 -0.481378 1433 0.733220 0.679992 0.000000
-6.840553 -6.277169 -0.478571 1443 0.733220 0.679992 0.000000
-6.840274 -6.276925 -0.475693 1431 0.733220 0.679992 0.000000
-6.839412 -6.276129 -0.472781 1421 0.733220 0.679992 0.000000
-6.839406 -6.276121 -0.469921 1419 0.733220 0.679992 0.000000
-6.839570 -6.276270 -0.467069 1409 0.733220 0.679992 0.000000
-6.839726 -6.276412 -0.464228 1417 0.733220 0.679992 0.000000
-6.840093 -6.276756 -0.461394 1431 0.733220 0.679992 0.000000
-6.840037 -6.276698 -0.458535 1427 0.733220 0.679992 0.000000
-6.840243 -6.276892 -0.455683 1415 0.733220 0.679992 0.000000
-6.840336 -6.276985 -0.452832 1411 0.733220 0.679992 0.000000
-6.839852 -6.276532 -0.449946 1419 0.733220 0.679992 0.000000
-6.839839 -6.276518 -0.447086 1415 0.733220 0.679992 0.000000
-6.840003 -6.276668 -0.444245 1425 0.733220 0.679992 0.000000
-6.839708 -6.276411 -0.441367 1445 0.733220 0.679992 0.000000
-6.839969 -6.276647 -0.438525 1445 0.733220 0.679992 0.000000
-6.839962 -6.276639 -0.435665 1429 0.733220 0.679992 0.000000
-6.839570 -6.276282 -0.432788 1405 0.733220 0.679992 0.000000
-6.839880 -6.276569 -0.429946 1415 0.733220 0.679992 0.000000
-6.840415 -6.277055 -0.427121 1433 0.733220 0.679992 0.000000
-6.840393 -6.277035 -0.424271 1423 0.733220 0.679992 0.000000
-6.840162 -6.276828 -0.421393 1415 0.733220 0.679992 0.000000
-6.839671 -6.276370 -0.418507 1407 0.733220 0.679992 0.000000
-6.839537 -6.276250 -0.415648 1393 0.733220 0.679992 0.000000
-6.840437 -6.277081 -0.412840 1415 0.733220 0.679992 0.000000
-6.841181 -6.277756 -0.410033 1447 0.733220 0.679992 0.000000
-6.841054 -6.277642 -0.407164 1437 0.733220 0.679992 0.000000
-6.840338 -6.276983 -0.404271 1421 0.733220 0.679992 0.000000
-6.839987 -6.276670 -0.401394 1419 0.733220 0.679992 0.000000
-6.840135 -6.276807 -0.398542 1441 0.733220 0.679992 0.000000
-6.839740 -6.276435 -0.395666 1417 0.733220 0.679992 0.000000
-6.839501 -6.276222 -0.392798 1407 0.733220 0.679992 0.000000
-6.839164 -6.275907 -0.389921 1407 0.733220 0.679992 0.000000
-6.839183 -6.275932 -0.387071 1423 0.733220 0.679992 0.000000
-6.839219 -6.275969 -0.384211 1425 0.733220 0.679992 0.000000
-6.839520 -6.276236 -0.381378 1419 0.733220 0.679992 0.000000
-6.839435 -6.276167 -0.378518 1403 0.733220 0.679992 0.000000
-6.839841 -6.276541 -0.375685 1423 0.733220 0.679992 0.000000
-6.839391 -6.276127 -0.372799 1409 0.733220 0.679992 0.000000
-6.838989 -6.275749 -0.369922 1417 0.733220 0.679992 0.000000
-6.839557 -6.276274 -0.367097 1417 0.733220 0.679992 0.000000
-6.839373 -6.276103 -0.364239 1423 0.733220 0.679992 0.000000
-6.839385 -6.276122 -0.361378 1411 0.733220 0.679992 0.000000
-6.839630 -6.276346 -0.358536 1409 0.733220 0.679992 0.000000
-6.840190 -6.276865 -0.355711 1421 0.733220 0.679992 0.000000
-6.840112 -6.276788 -0.352852 1419 0.733220 0.679992 0.000000
-6.839604 -6.276317 -0.349976 1417 0.733220 0.679992 0.000000
-6.839841 -6.276535 -0.347134 1429 0.733220 0.679992 0.000000
-6.839529 -6.276252 -0.344267 1411 0.733220 0.679992 0.000000
-6.839233 -6.275983 -0.341389 1421 0.733220 0.679992 0.000000
-6.839899 -6.276595 -0.338573 1423 0.733220 0.679992 0.000000
-6.839916 -6.276605 -0.335713 1419 0.733220 0.679992 0.000000
-6.839662 -6.276380 -0.332855 1409 0.733220 0.679992 0.000000
-6.839196 -6.275953 -0.329980 1405 0.733220 0.679992 0.000000
-6.838948 -6.275721 -0.327112 1411 0.733220 0.679992 0.000000
-6.839346 -6.276089 -0.324278 1411 0.733220 0.679992 0.000000
-6.839147 -6.275906 -0.321410 1409 0.733220 0.679992 0.000000
-6.839222 -6.275973 -0.318559 1413 0.733220 0.679992 0.000000
-6.839015 -6.275785 -0.315701 1395 0.733220 0.679992 0.000000
-6.838865 -6.275652 -0.312842 1407 0.733220 0.679992 0.000000
-6.839102 -6.275870 -0.309990 1413 0.733220 0.679992 0.000000
-6.842026 -6.274421 -0.698932 1415 0.733220 0.679992 0.000000
-6.842181 -6.274564 -0.696080 1417 0.733220 0.679992 0.000000
-6.842766 -6.275101 -0.693265 1409 0.733220 0.679992 0.000000
-6.842865 -6.275187 -0.690414 1413 0.733220 0.679992 0.000000
-6.843120 -6.275431 -0.687571 1421 0.733220 0.679992 0.000000
-6.843000 -6.275324 -0.684693 1419 0.733220 0.679992 0.000000
-6.842728 -6.275072 -0.681795 1413 0.733220 0.679992 0.000000
-6.842772 -6.275115 -0.678934 1409 0.733220 0.679992 0.000000
-6.842499 -6.274863 -0.676047 1417 0.733220 0.679992 0.000000
-6.842428 -6.274792 -0.673168 1419 0.733220 0.679992 0.000000
-6.841938 -6.274347 -0.670262 1411 0.733220 0.679992 0.000000
-6.841600 -6.274032 -0.667365 1405 0.733220 0.679992 0.000000
-6.842072 -6.274469 -0.664541 1417 0.733220 0.679992 0.000000
-6.842059 -6.274456 -0.661671 1421 0.733220 0.679992 0.000000
-6.841399 -6.273854 -0.658747 1407 0.733220 0.679992 0.000000
-6.841652 -6.274084 -0.655904 1417 0.733220 0.679992 0.000000
-6.842067 -6.274465 -0.653080 1431 0.733220 0.679992 0.000000
-6.841673 -6.274107 -0.650174 1427 0.733220 0.679992 0.000000
-6.842138 -6.274539 -0.647360 1427 0.733220 0.679992 0.000000
-6.842284 -6.274662 -0.644508 1419 0.733220 0.679992 0.000000
-6.842003 -6.274403 -0.641621 1423 0.733220 0.679992 0.000000
-6.842031 -6.274434 -0.638750 1421 0.733220 0.679992 0.000000
-6.842284 -6.274664 -0.635918 1429 0.733220 0.679992 0.000000
-6.842635 -6.274996 -0.633085 1437 0.733220 0.679992 0.000000
-6.842298 -6.274681 -0.630188 1427 0.733220 0.679992 0.000000
-6.842010 -6.274417 -0.627300 1405 0.733220 0.679992 0.000000
-6.841875 -6.274297 -0.624421 1427 0.733220 0.679992 0.000000
-6.841804 -6.274226 -0.621552 1425 0.733220 0.679992 0.000000
-6.841985 -6.274401 -0.618710 1423 0.733220 0.679992 0.000000
-6.841640 -6.274080 -0.615813 1417 0.733220 0.679992 0.000000
-6.841514 -6.273967 -0.612935 1423 0.733220 0.679992 0.000000
-6.842243 -6.274629 -0.610138 1419 0.733220 0.679992 0.000000
-6.842424 -6.274804 -0.607296 1433 0.733220 0.679992 0.000000
-6.841699 -6.274138 -0.604363 1409 0.733220 0.679992 0.000000
-6.841516 -6.273968 -0.601484 1411 0.733220 0.679992 0.000000
-6.841810 -6.274243 -0.598651 1415 0.733220 0.679992 0.000000
-6.841456 -6.273916 -0.595755 1423 0.733220 0.679992 0.000000
-6.841053 -6.273538 -0.592858 1419 0.733220 0.679992 0.000000
-6.841348 -6.273813 -0.590026 1411 0.733220 0.679992 0.000000
-6.841697 -6.274130 -0.587192 1413 0.733220 0.679992 0.000000
-6.841983 -6.274399 -0.584350 1411 0.733220 0.679992 0.000000
-6.841953 -6.274373 -0.581490 1413 0.733220 0.679992 0.000000
-6.842183 -6.274585 -0.578648 1413 0.733220 0.679992 0.000000
-6.842096 -6.274502 -0.575778 1423 0.733220 0.679992 0.000000
-6.841363 -6.273831 -0.572855 1415 0.733220 0.679992 0.000000
-6.841229 -6.273712 -0.569986 1415 0.733220 0.679992 0.000000
-6.841992 -6.274412 -0.567189 1431 0.733220 0.679992 0.000000
-6.841580 -6.274027 -0.564293 1417 0.733220 0.679992 0.000000
-6.841447 -6.273908 -0.561414 1429 0.733220 0.679992 0.000000
-6.842047 -6.274457 -0.558608 1429 0.733220 0.679992 0.000000
-6.842599 -6.274970 -0.555793 1415 0.733220 0.679992 0.000000
-6.842562 -6.274938 -0.552923 1445 0.733220 0.679992 0.000000
-6.842039 -6.274454 -0.550018 1441 0.733220 0.679992 0.000000
-6.841790 -6.274221 -0.547140 1425 0.733220 0.679992 0.000000
-6.841802 -6.274240 -0.544280 1415 0.733220 0.679992 0.000000
-6.842459 -6.274846 -0.541474 1425 0.733220 0.679992 0.000000
-6.842793 -6.275151 -0.538641 1425 0.733220 0.679992 0.000000
-6.842586 -6.274962 -0.535763 1425 0.733220 0.679992 0.000000
-6.842653 -6.275024 -0.532912 1443 0.733220 0.679992 0.000000
-6.842614 -6.274978 -0.530042 1427 0.733220 0.679992 0.000000
-6.842294 -6.274689 -0.527155 1415 0.733220 0.679992 0.000000
-6.842306 -6.274707 -0.524305 1419 0.733220 0.679992 0.000000
-6.842266 -6.274661 -0.521435 1423 0.733220 0.679992 0.000000
-6.842317 -6.274710 -0.518585 1423 0.733220 0.679992 0.000000
-6.842118 -6.274528 -0.515707 1421 0.733220 0.679992 0.000000
-6.841475 -6.273938 -0.512803 1423 0.733220 0.679992 0.000000
-6.842187 -6.274587 -0.509996 1427 0.733220 0.679992 0.000000
-6.842513 -6.274887 -0.507163 1423 0.733220 0.679992 0.000000
-6.842185 -6.274592 -0.504276 1415 0.733220 0.679992 0.000000
-6.842567 -6.274948 -0.501442 1421 0.733220 0.679992 0.000000
-6.842683 -6.275046 -0.498591 1447 0.733220 0.679992 0.000000
-6.842193 -6.274601 -0.495695 1429 0.733220 0.679992 0.000000
-6.842252 -6.274656 -0.492845 1431 0.733220 0.679992 0.000000
-6.842578 -6.274956 -0.490012 1431 0.733220 0.679992 0.000000
-6.842580 -6.274954 -0.487152 1437 0.733220 0.679992 0.000000
-6.842090 -6.274509 -0.484256 1433 0.733220 0.679992 0.000000
-6.841875 -6.274314 -0.481388 1435 0.733220 0.679992 0.000000
-6.842629 -6.275008 -0.478581 1441 0.733220 0.679992 0.000000
-6.842736 -6.275100 -0.475730 1439 0.733220 0.679992 0.000000
-6.842787 -6.275149 -0.472869 1431 0.733220 0.679992 0.000000
-6.842677 -6.275047 -0.470000 1423 0.733220 0.679992 0.000000
-6.842187 -6.274602 -0.467115 1427 0.733220 0.679992 0.000000
-6.842398 -6.274788 -0.464273 1431 0.733220 0.679992 0.000000
-6.842281 -6.274694 -0.461404 1427 0.733220 0.679992 0.000000
-6.841636 -6.274091 -0.458500 1417 0.733220 0.679992 0.000000
-6.841891 -6.274335 -0.455667 1421 0.733220 0.679992 0.000000
-6.841949 -6.274377 -0.452807 1417 0.733220 0.679992 0.000000
-6.841451 -6.273925 -0.449921 1407 0.733220 0.679992 0.000000
-6.841874 -6.274312 -0.447087 1419 0.733220 0.679992 0.000000
-6.842134 -6.274549 -0.444245 1437 0.733220 0.679992 0.000000
-6.841847 -6.274298 -0.441377 1439 0.733220 0.679992 0.000000
-6.841631 -6.274090 -0.438499 1429 0.733220 0.679992 0.000000
-6.841456 -6.273939 -0.435641 1427 0.733220 0.679992 0.000000
-6.841822 -6.274269 -0.432797 1427 0.733220 0.679992 0.000000
-6.842020 -6.274456 -0.429955 1427 0.733220 0.679992 0.000000
-6.842659 -6.275037 -0.427140 1427 0.733220 0.679992 0.000000
-6.842637 -6.275016 -0.424280 1433 0.733220 0.679992 0.000000
-6.841986 -6.274421 -0.421386 1417 0.733220 0.679992 0.000000
-6.842126 -6.274551 -0.418534 1421 0.733220 0.679992 0.000000
-6.841895 -6.274344 -0.415666 1423 0.733220 0.679992 0.000000
-6.842211 -6.274623 -0.412833 1421 0.733220 0.679992 0.000000
-6.842675 -6.275055 -0.409999 1435 0.733220 0.679992 0.000000
-6.842492 -6.274885 -0.407131 1445 0.733220 0.679992 0.000000
-6.842253 -6.274671 -0.404263 1429 0.733220 0.679992 0.000000
-6.842288 -6.274708 -0.401412 1421 0.733220 0.679992 0.000000
-6.841951 -6.274394 -0.398535 1419 0.733220 0.679992 0.000000
-6.841605 -6.274072 -0.395658 1419 0.733220 0.679992 0.000000
-6.841745 -6.274203 -0.392807 1413 0.733220 0.679992 0.000000
-6.841781 -6.274240 -0.389957 1407 0.733220 0.679992 0.000000
-6.842026 -6.274464 -0.387114 1413 0.733220 0.679992 0.000000
-6.842221 -6.274637 -0.384273 1429 0.733220 0.679992 0.000000
-6.842677 -6.275062 -0.381438 1425 0.733220 0.679992 0.000000
-6.842656 -6.275043 -0.378578 1415 0.733220 0.679992 0.000000
-6.841980 -6.274429 -0.375695 1413 0.733220 0.679992 0.000000
-6.842127 -6.274551 -0.372843 1409 0.733220 0.679992 0.000000
-6.842204 -6.274633 -0.369992 1405 0.733220 0.679992 0.000000
-6.841858 -6.274312 -0.367115 1417 0.733220 0.679992 0.000000
-6.841821 -6.274280 -0.364256 1431 0.733220 0.679992 0.000000
-6.841588 -6.274058 -0.361388 1419 0.733220 0.679992 0.000000
-6.841770 -6.274234 -0.358546 1417 0.733220 0.679992 0.000000
-6.842273 -6.274696 -0.355721 1425 0.733220 0.679992 0.000000
-6.842251 -6.274675 -0.352862 1415 0.733220 0.679992 0.000000
-6.841793 -6.274255 -0.349986 1425 0.733220 0.679992 0.000000
-6.841544 -6.274022 -0.347118 1421 0.733220 0.679992 0.000000
-6.841831 -6.274290 -0.344275 1425 0.733220 0.679992 0.000000
-6.842068 -6.274508 -0.341433 1413 0.733220 0.679992 0.000000
-6.841553 -6.274031 -0.338558 1413 0.733220 0.679992 0.000000
-6.841249 -6.273755 -0.335680 1403 0.733220 0.679992 0.000000
-6.841857 -6.274311 -0.332865 1409 0.733220 0.679992 0.000000
-6.842362 -6.274786 -0.330030 1415 0.733220 0.679992 0.000000
-6.842429 -6.274847 -0.327179 1419 0.733220 0.679992 0.000000
-6.841906 -6.274364 -0.324304 1411 0.733220 0.679992 0.000000
-6.841602 -6.274088 -0.321437 1407 0.733220 0.679992 0.000000
-6.842161 -6.274592 -0.318602 1409 0.733220 0.679992 0.000000
-6.842875 -6.275256 -0.315785 1423 0.733220 0.679992 0.000000
-6.842572 -6.274980 -0.312917 1429 0.733220 0.679992 0.000000
-6.841936 -6.274396 -0.310033 1409 0.733220 0.679992 0.000000
-6.845442 -6.273486 -0.699070 1425 0.733220 0.679992 0.000000
-6.844692 -6.272789 -0.696127 1411 0.733220 0.679992 0.000000
-6.844203 -6.272344 -0.693211 1405 0.733220 0.679992 0.000000
-6.844625 -6.272730 -0.690387 1411 0.733220 0.679992 0.000000
-6.844619 -6.272723 -0.687517 1415 0.733220 0.679992 0.000000
-6.844712 -6.272817 -0.684666 1417 0.733220 0.679992 0.000000
-6.845021 -6.273103 -0.681823 1433 0.733220 0.679992 0.000000
-6.844208 -6.272357 -0.678881 1415 0.733220 0.679992 0.000000
-6.843766 -6.271949 -0.675975 1409 0.733220 0.679992 0.000000
-6.843873 -6.272041 -0.673114 1411 0.733220 0.679992 0.000000
-6.843754 -6.271934 -0.670235 1409 0.733220 0.679992 0.000000
-6.844057 -6.272214 -0.667402 1415 0.733220 0.679992 0.000000
-6.844100 -6.272257 -0.664542 1407 0.733220 0.679992 0.000000
-6.843868 -6.272050 -0.661654 1417 0.733220 0.679992 0.000000
-6.844121 -6.272280 -0.658811 1423 0.733220 0.679992 0.000000
-6.844697 -6.272811 -0.656006 1427 0.733220 0.679992 0.000000
-6.844578 -6.272690 -0.653127 1409 0.733220 0.679992 0.000000
-6.843926 -6.272094 -0.650203 1411 0.733220 0.679992 0.000000
-6.844115 -6.272275 -0.647351 1423 0.733220 0.679992 0.000000
-6.844157 -6.272305 -0.644491 1417 0.733220 0.679992 0.000000
-6.844192 -6.272341 -0.641630 1413 0.733220 0.679992 0.000000
-6.844761 -6.272867 -0.638825 1415 0.733220 0.679992 0.000000
-6.844311 -6.272452 -0.635919 1421 0.733220 0.679992 0.000000
-6.843319 -6.271543 -0.632958 1431 0.733220 0.679992 0.000000
-6.843460 -6.271673 -0.630107 1415 0.733220 0.679992 0.000000
-6.844141 -6.272298 -0.627310 1407 0.733220 0.679992 0.000000
-6.844499 -6.272622 -0.624477 1413 0.733220 0.679992 0.000000
-6.844364 -6.272502 -0.621598 1415 0.733220 0.679992 0.000000
-6.843696 -6.271894 -0.618674 1415 0.733220 0.679992 0.000000
-6.843134 -6.271379 -0.615769 1415 0.733220 0.679992 0.000000
-6.842893 -6.271152 -0.612882 1411 0.733220 0.679992 0.000000
-6.842984 -6.271232 -0.610031 1407 0.733220 0.679992 0.000000
-6.844135 -6.272296 -0.607260 1423 0.733220 0.679992 0.000000
-6.844105 -6.272270 -0.604400 1413 0.733220 0.679992 0.000000
-6.843971 -6.272150 -0.601521 1419 0.733220 0.679992 0.000000
-6.844110 -6.272267 -0.598670 1413 0.733220 0.679992 0.000000
-6.844242 -6.272392 -0.595819 1427 0.733220 0.679992 0.000000
-6.844162 -6.272314 -0.592949 1415 0.733220 0.679992 0.000000
-6.844078 -6.272245 -0.590080 1423 0.733220 0.679992 0.000000
-6.844144 -6.272306 -0.587229 1401 0.733220 0.679992 0.000000
-6.844607 -6.272724 -0.584405 1415 0.733220 0.679992 0.000000
-6.844303 -6.272448 -0.581518 1417 0.733220 0.679992 0.000000
-6.844111 -6.272272 -0.578640 1411 0.733220 0.679992 0.000000
-6.844018 -6.272196 -0.575770 1413 0.733220 0.679992 0.000000
-6.843608 -6.271812 -0.572874 1419 0.733220 0.679992 0.000000
-6.843682 -6.271879 -0.570023 1429 0.733220 0.679992 0.000000
-6.844186 -6.272342 -0.567199 1435 0.733220 0.679992 0.000000
-6.844634 -6.272761 -0.564374 1431 0.733220 0.679992 0.000000
-6.844330 -6.272484 -0.561487 1421 0.733220 0.679992 0.000000
-6.843920 -6.272101 -0.558591 1425 0.733220 0.679992 0.000000
-6.843825 -6.272012 -0.555722 1417 0.733220 0.679992 0.000000
-6.844103 -6.272274 -0.552889 1433 0.733220 0.679992 0.000000
-6.844339 -6.272492 -0.550047 1433 0.733220 0.679992 0.000000
-6.844188 -6.272346 -0.547168 1423 0.733220 0.679992 0.000000
-6.843722 -6.271919 -0.544272 1409 0.733220 0.679992 0.000000
-6.844056 -6.272225 -0.541439 1425 0.733220 0.679992 0.000000
-6.844222 -6.272388 -0.538597 1421 0.733220 0.679992 0.000000
-6.844199 -6.272354 -0.535728 1421 0.733220 0.679992 0.000000
-6.844623 -6.272755 -0.532904 1437 0.733220 0.679992 0.000000
-6.844745 -6.272859 -0.530052 1427 0.733220 0.679992 0.000000
-6.844975 -6.273071 -0.527210 1431 0.733220 0.679992 0.000000
-6.844604 -6.272731 -0.524324 1417 0.733220 0.679992 0.000000
-6.844293 -6.272449 -0.521436 1425 0.733220 0.679992 0.000000
-6.844731 -6.272848 -0.518612 1433 0.733220 0.679992 0.000000
-6.844848 -6.272960 -0.515761 1427 0.733220 0.679992 0.000000
-6.844413 -6.272557 -0.512865 1423 0.733220 0.679992 0.000000
-6.844481 -6.272619 -0.510014 1429 0.733220 0.679992 0.000000
-6.844751 -6.272875 -0.507172 1421 0.733220 0.679992 0.000000
-6.844325 -6.272480 -0.504286 1409 0.733220 0.679992 0.000000
-6.844117 -6.272291 -0.501408 1405 0.733220 0.679992 0.000000
-6.844273 -6.272433 -0.498566 1435 0.733220 0.679992 0.000000
-6.843912 -6.272099 -0.495679 1413 0.733220 0.679992 0.000000
-6.843964 -6.272149 -0.492819 1403 0.733220 0.679992 0.000000
-6.844063 -6.272249 -0.489968 1427 0.733220 0.679992 0.000000
-6.844236 -6.272404 -0.487126 1429 0.733220 0.679992 0.000000
-6.844117 -6.272296 -0.484257 1431 0.733220 0.679992 0.000000
-6.844338 -6.272502 -0.481415 1419 0.733220 0.679992 0.000000
-6.844986 -6.273089 -0.478599 1431 0.733220 0.679992 0.000000
-6.844980 -6.273081 -0.475739 1429 0.733220 0.679992 0.000000
-6.844765 -6.272886 -0.472871 1433 0.733220 0.679992 0.000000
-6.844704 -6.272835 -0.470001 1433 0.733220 0.679992 0.000000
-6.844382 -6.272533 -0.467124 1431 0.733220 0.679992 0.000000
-6.843997 -6.272181 -0.464238 1433 0.733220 0.679992 0.000000
-6.843452 -6.271693 -0.461353 1425 0.733220 0.679992 0.000000
-6.843502 -6.271729 -0.458492 1417 0.733220 0.679992 0.000000
-6.844086 -6.272266 -0.455677 1413 0.733220 0.679992 0.000000
-6.844187 -6.272366 -0.452826 1425 0.733220 0.679992 0.000000
-6.843906 -6.272107 -0.449948 1421 0.733220 0.679992 0.000000
-6.844175 -6.272350 -0.447106 1423 0.733220 0.679992 0.000000
-6.844809 -6.272938 -0.444290 1427 0.733220 0.679992 0.000000
-6.844697 -6.272823 -0.441431 1423 0.733220 0.679992 0.000000
-6.844191 -6.272365 -0.438535 1429 0.733220 0.679992 0.000000
-6.844025 -6.272221 -0.435667 1433 0.733220 0.679992 0.000000
-6.844116 -6.272301 -0.432816 1433 0.733220 0.679992 0.000000
-6.844426 -6.272588 -0.429983 1431 0.733220 0.679992 0.000000
-6.844848 -6.272975 -0.427149 1441 0.733220 0.679992 0.000000
-6.844455 -6.272617 -0.424273 1431 0.733220 0.679992 0.000000
-6.843739 -6.271959 -0.421369 1431 0.733220 0.679992 0.000000
-6.842972 -6.271249 -0.418466 1429 0.733220 0.679992 0.000000
-6.843121 -6.271386 -0.415625 1415 0.733220 0.679992 0.000000
-6.843640 -6.271860 -0.412790 1411 0.733220 0.679992 0.000000
-6.843675 -6.271897 -0.409939 1427 0.733220 0.679992 0.000000
-6.843816 -6.272028 -0.407088 1445 0.733220 0.679992 0.000000
-6.843648 -6.271869 -0.404230 1433 0.733220 0.679992 0.000000
-6.843901 -6.272100 -0.401387 1417 0.733220 0.679992 0.000000
-6.844519 -6.272676 -0.398561 1425 0.733220 0.679992 0.000000
-6.844497 -6.272655 -0.395711 1437 0.733220 0.679992 0.000000
-6.843829 -6.272048 -0.392818 1423 0.733220 0.679992 0.000000
-6.843267 -6.271533 -0.389923 1409 0.733220 0.679992 0.000000
-6.843567 -6.271800 -0.387090 1415 0.733220 0.679992 0.000000
-6.843870 -6.272081 -0.384247 1427 0.733220 0.679992 0.000000
-6.843524 -6.271760 -0.381370 1427 0.733220 0.679992 0.000000
-6.843609 -6.271848 -0.378519 1429 0.733220 0.679992 0.000000
-6.843966 -6.272171 -0.375686 1433 0.733220 0.679992 0.000000
-6.844049 -6.272245 -0.372835 1421 0.733220 0.679992 0.000000
-6.844344 -6.272521 -0.369992 1423 0.733220 0.679992 0.000000
-6.844369 -6.272537 -0.367142 1421 0.733220 0.679992 0.000000
-6.844444 -6.272604 -0.364291 1431 0.733220 0.679992 0.000000
-6.844521 -6.272686 -0.361440 1425 0.733220 0.679992 0.000000
-6.844450 -6.272615 -0.358581 1425 0.733220 0.679992 0.000000
-6.844736 -6.272884 -0.355738 1433 0.733220 0.679992 0.000000
-6.844495 -6.272657 -0.352870 1429 0.733220 0.679992 0.000000
-6.843875 -6.272085 -0.349986 1429 0.733220 0.679992 0.000000
-6.844000 -6.272204 -0.347135 1427 0.733220 0.679992 0.000000
-6.844399 -6.272572 -0.344301 1415 0.733220 0.679992 0.000000
-6.843933 -6.272145 -0.341425 1421 0.733220 0.679992 0.000000
-6.843580 -6.271819 -0.338559 1421 0.733220 0.679992 0.000000
-6.843655 -6.271886 -0.335708 1409 0.733220 0.679992 0.000000
-6.843828 -6.272055 -0.332856 1413 0.733220 0.679992 0.000000
-6.843854 -6.272072 -0.330006 1419 0.733220 0.679992 0.000000
-6.844786 -6.272929 -0.327197 1415 0.733220 0.679992 0.000000
-6.845669 -6.273734 -0.324379 1427 0.733220 0.679992 0.000000
-6.845090 -6.273208 -0.321494 1421 0.733220 0.679992 0.000000
-6.844188 -6.272381 -0.318602 1417 0.733220 0.679992 0.000000
-6.843722 -6.271954 -0.315727 1405 0.733220 0.679992 0.000000
-6.844168 -6.272359 -0.312893 1421 0.733220 0.679992 0.000000
-6.844235 -6.272420 -0.310042 1419 0.733220 0.679992 0.000000
-6.845872 -6.270216 -0.698934 1403 0.733220 0.679992 0.000000
-6.845607 -6.269969 -0.696036 1399 0.733220 0.679992 0.000000
-6.845860 -6.270200 -0.693194 1403 0.733220 0.679992 0.000000
-6.846178 -6.270493 -0.690361 1399 0.733220 0.679992 0.000000
-6.845955 -6.270292 -0.687473 1403 0.733220 0.679992 0.000000
-6.846062 -6.270384 -0.684612 1409 0.733220 0.679992 0.000000
-6.846097 -6.270421 -0.681751 1413 0.733220 0.679992 0.000000
-6.846042 -6.270362 -0.678882 1413 0.733220 0.679992 0.000000
-6.845981 -6.270312 -0.676012 1415 0.733220 0.679992 0.000000
-6.845321 -6.269710 -0.673078 1415 0.733220 0.679992 0.000000
