761
-14.209866 -13.106157 -0.650010 287 0.736548 0.676386 0.000000
-14.212313 -13.108413 -0.644177 297 0.736548 0.676386 0.000000
-14.213860 -13.109840 -0.638302 311 0.736548 0.676386 0.000000
-14.213239 -13.109273 -0.632328 335 0.736548 0.676386 0.000000
-14.210854 -13.107066 -0.626280 311 0.736548 0.676386 0.000000
-14.212122 -13.108233 -0.620388 355 0.736548 0.676386 0.000000
-14.212743 -13.108815 -0.614472 339 0.736548 0.676386 0.000000
-14.211267 -13.107443 -0.608466 323 0.736548 0.676386 0.000000
-14.210584 -13.106824 -0.602502 319 0.736548 0.676386 0.000000
-14.210722 -13.106955 -0.596560 341 0.736548 0.676386 0.000000
-14.211556 -13.107720 -0.590652 329 0.736548 0.676386 0.000000
-14.212272 -13.108378 -0.584736 333 0.736548 0.676386 0.000000
-14.211815 -13.107954 -0.578780 351 0.736548 0.676386 0.000000
-14.210649 -13.106882 -0.572790 359 0.736548 0.676386 0.000000
-14.211088 -13.107293 -0.566866 339 0.736548 0.676386 0.000000
-14.211755 -13.107899 -0.560950 333 0.736548 0.676386 0.000000
-14.212685 -13.108768 -0.555041 317 0.736548 0.676386 0.000000
-14.213346 -13.109368 -0.549125 347 0.736548 0.676386 0.000000
-14.212881 -13.108938 -0.543169 345 0.736548 0.676386 0.000000
-14.212672 -13.108751 -0.537221 349 0.736548 0.676386 0.000000
-14.211766 -13.107914 -0.531239 373 0.736548 0.676386 0.000000
-14.211019 -13.107230 -0.525276 353 0.736548 0.676386 0.000000
-14.212050 -13.108180 -0.519366 329 0.736548 0.676386 0.000000
-14.212971 -13.109029 -0.513457 343 0.736548 0.676386 0.000000
-14.211307 -13.107493 -0.507463 331 0.736548 0.676386 0.000000
-14.208890 -13.105263 -0.501435 325 0.736548 0.676386 0.000000
-14.210499 -13.106754 -0.495550 351 0.736548 0.676386 0.000000
-14.211207 -13.107407 -0.489633 387 0.736548 0.676386 0.000000
-14.209701 -13.106009 -0.483647 347 0.736548 0.676386 0.000000
-14.209310 -13.105663 -0.477691 335 0.736548 0.676386 0.000000
-14.209897 -13.106207 -0.471775 337 0.736548 0.676386 0.000000
-14.211080 -13.107291 -0.465864 339 0.736548 0.676386 0.000000
-14.212475 -13.108572 -0.459971 363 0.736548 0.676386 0.000000
-14.213175 -13.109218 -0.454054 349 0.736548 0.676386 0.000000
-14.213321 -13.109354 -0.448113 335 0.736548 0.676386 0.000000
-14.212020 -13.108161 -0.442134 329 0.736548 0.676386 0.000000
-14.211518 -13.107700 -0.436179 335 0.736548 0.676386 0.000000
-14.212051 -13.108186 -0.430254 351 0.736548 0.676386 0.000000
-14.211169 -13.107382 -0.424292 297 0.736548 0.676386 0.000000
-14.210183 -13.106467 -0.418321 307 0.736548 0.676386 0.000000
-14.211991 -13.108145 -0.412434 355 0.736548 0.676386 0.000000
-14.213324 -13.109362 -0.406532 357 0.736548 0.676386 0.000000
-14.212015 -13.108163 -0.400554 341 0.736548 0.676386 0.000000
-14.209891 -13.106207 -0.394563 341 0.736548 0.676386 0.000000
-14.209119 -13.105490 -0.388600 329 0.736548 0.676386 0.000000
-14.209740 -13.106059 -0.382674 317 0.736548 0.676386 0.000000
-14.212402 -13.108526 -0.376809 337 0.736548 0.676386 0.000000
-14.213939 -13.109933 -0.370905 359 0.736548 0.676386 0.000000
-14.212456 -13.108568 -0.364929 349 0.736548 0.676386 0.000000
-14.212000 -13.108144 -0.358973 341 0.736548 0.676386 0.000000
-14.211966 -13.108123 -0.353033 315 0.736548 0.676386 0.000000
-14.210639 -13.106897 -0.347065 329 0.736548 0.676386 0.000000
-14.210771 -13.107022 -0.341134 343 0.736548 0.676386 0.000000
-14.211810 -13.107978 -0.335214 333 0.736548 0.676386 0.000000
-14.210533 -13.106806 -0.329246 333 0.736548 0.676386 0.000000
-14.209691 -13.106032 -0.323293 321 0.736548 0.676386 0.000000
-14.210674 -13.106931 -0.317374 357 0.736548 0.676386 0.000000
-14.210260 -13.106552 -0.311428 321 0.736548 0.676386 0.000000
-14.211187 -13.107408 -0.305509 317 0.736548 0.676386 0.000000
-14.215208 -13.103839 -0.679806 289 0.736548 0.676386 0.000000
-14.214398 -13.103091 -0.673824 297 0.736548 0.676386 0.000000
-14.213784 -13.102527 -0.667859 317 0.736548 0.676386 0.000000
-14.212649 -13.101480 -0.661860 317 0.736548 0.676386 0.000000
-14.213491 -13.102253 -0.655952 301 0.736548 0.676386 0.000000
-14.216375 -13.104923 -0.650145 313 0.736548 0.676386 0.000000
-14.215230 -13.103856 -0.644145 313 0.736548 0.676386 0.000000
-14.213597 -13.102357 -0.638130 325 0.736548 0.676386 0.000000
-14.214591 -13.103277 -0.632231 315 0.736548 0.676386 0.000000
-14.216081 -13.104648 -0.626357 325 0.736548 0.676386 0.000000
-14.215087 -13.103727 -0.620366 297 0.736548 0.676386 0.000000
-14.213659 -13.102421 -0.614369 289 0.736548 0.676386 0.000000
-14.214225 -13.102931 -0.608444 327 0.736548 0.676386 0.000000
-14.215327 -13.103952 -0.602553 323 0.736548 0.676386 0.000000
-14.214336 -13.103047 -0.596562 281 0.736548 0.676386 0.000000
-14.214567 -13.103251 -0.590630 313 0.736548 0.676386 0.000000
-14.215457 -13.104074 -0.584722 333 0.736548 0.676386 0.000000
-14.216331 -13.104887 -0.578813 331 0.736548 0.676386 0.000000
-14.217055 -13.105551 -0.572906 305 0.736548 0.676386 0.000000
-14.215771 -13.104371 -0.566908 319 0.736548 0.676386 0.000000
-14.215093 -13.103744 -0.560944 349 0.736548 0.676386 0.000000
-14.214575 -13.103271 -0.554979 351 0.736548 0.676386 0.000000
-14.214420 -13.103127 -0.549030 365 0.736548 0.676386 0.000000
-14.215026 -13.103683 -0.543115 367 0.736548 0.676386 0.000000
-14.214555 -13.103247 -0.537159 349 0.736548 0.676386 0.000000
-14.214353 -13.103065 -0.531211 371 0.736548 0.676386 0.000000
-14.214363 -13.103067 -0.525270 341 0.736548 0.676386 0.000000
-14.214961 -13.103617 -0.519345 333 0.736548 0.676386 0.000000
-14.215495 -13.104117 -0.513420 345 0.736548 0.676386 0.000000
-14.212921 -13.101747 -0.507393 331 0.736548 0.676386 0.000000
-14.210985 -13.099955 -0.501381 385 0.736548 0.676386 0.000000
-14.213203 -13.102000 -0.495520 363 0.736548 0.676386 0.000000
-14.214268 -13.102990 -0.489620 349 0.736548 0.676386 0.000000
-14.214643 -13.103335 -0.483687 345 0.736548 0.676386 0.000000
-14.215191 -13.103834 -0.477772 349 0.736548 0.676386 0.000000
-14.216359 -13.104920 -0.471861 349 0.736548 0.676386 0.000000
-14.218293 -13.106698 -0.465982 361 0.736548 0.676386 0.000000
-14.217317 -13.105804 -0.460011 353 0.736548 0.676386 0.000000
-14.215533 -13.104159 -0.454018 367 0.736548 0.676386 0.000000
-14.216603 -13.105141 -0.448108 355 0.736548 0.676386 0.000000
-14.215895 -13.104489 -0.442144 325 0.736548 0.676386 0.000000
-14.212870 -13.101706 -0.436112 353 0.736548 0.676386 0.000000
-14.215009 -13.103674 -0.430242 327 0.736548 0.676386 0.000000
-14.217417 -13.105897 -0.424370 331 0.736548 0.676386 0.000000
-14.215941 -13.104538 -0.418383 361 0.736548 0.676386 0.000000
-14.213887 -13.102638 -0.412392 349 0.736548 0.676386 0.000000
-14.211008 -13.099997 -0.406369 321 0.736548 0.676386 0.000000
-14.210662 -13.099674 -0.400422 339 0.736548 0.676386 0.000000
-14.213877 -13.102635 -0.394572 355 0.736548 0.676386 0.000000
-14.213215 -13.102020 -0.388618 337 0.736548 0.676386 0.000000
-14.212595 -13.101452 -0.382663 315 0.736548 0.676386 0.000000
-14.215904 -13.104502 -0.376802 351 0.736548 0.676386 0.000000
-14.215069 -13.103735 -0.370840 347 0.736548 0.676386 0.000000
-14.213270 -13.102077 -0.364857 323 0.736548 0.676386 0.000000
-14.215442 -13.104085 -0.358976 325 0.736548 0.676386 0.000000
-14.216434 -13.105004 -0.353057 337 0.736548 0.676386 0.000000
-14.214309 -13.103034 -0.347067 315 0.736548 0.676386 0.000000
-14.216370 -13.104939 -0.341177 313 0.736548 0.676386 0.000000
-14.217844 -13.106297 -0.335273 295 0.736548 0.676386 0.000000
-14.217318 -13.105816 -0.329318 301 0.736548 0.676386 0.000000
-14.215392 -13.104045 -0.323336 301 0.736548 0.676386 0.000000
-14.212621 -13.101491 -0.317342 321 0.736548 0.676386 0.000000
-14.214507 -13.103230 -0.311444 321 0.736548 0.676386 0.000000
-14.216360 -13.104931 -0.305547 295 0.736548 0.676386 0.000000
-14.217823 -13.098525 -0.679750 299 0.736548 0.676386 0.000000
-14.218666 -13.099311 -0.673852 283 0.736548 0.676386 0.000000
-14.218923 -13.099548 -0.667919 291 0.736548 0.676386 0.000000
-14.218371 -13.099036 -0.661944 337 0.736548 0.676386 0.000000
-14.216850 -13.097640 -0.655938 295 0.736548 0.676386 0.000000
-14.218127 -13.098813 -0.650046 327 0.736548 0.676386 0.000000
-14.219127 -13.099739 -0.644147 307 0.736548 0.676386 0.000000
-14.218782 -13.099418 -0.638190 315 0.736548 0.676386 0.000000
-14.218336 -13.099000 -0.632234 297 0.736548 0.676386 0.000000
-14.218846 -13.099481 -0.626309 331 0.736548 0.676386 0.000000
-14.220653 -13.101143 -0.620442 317 0.736548 0.676386 0.000000
-14.221763 -13.102158 -0.614542 345 0.736548 0.676386 0.000000
-14.220659 -13.101149 -0.608552 327 0.736548 0.676386 0.000000
-14.218266 -13.098936 -0.602514 329 0.736548 0.676386 0.000000
-14.218122 -13.098815 -0.596565 323 0.736548 0.676386 0.000000
-14.219169 -13.099777 -0.590665 343 0.736548 0.676386 0.000000
-14.218595 -13.099245 -0.584700 301 0.736548 0.676386 0.000000
-14.218883 -13.099509 -0.578768 323 0.736548 0.676386 0.000000
-14.221703 -13.102116 -0.572941 373 0.736548 0.676386 0.000000
-14.220804 -13.101284 -0.566959 367 0.736548 0.676386 0.000000
-14.218459 -13.099123 -0.560921 369 0.736548 0.676386 0.000000
-14.219436 -13.100031 -0.555022 367 0.736548 0.676386 0.000000
-14.219939 -13.100492 -0.549097 369 0.736548 0.676386 0.000000
-14.220494 -13.100996 -0.543172 321 0.736548 0.676386 0.000000
-14.220230 -13.100764 -0.537224 319 0.736548 0.676386 0.000000
-14.219916 -13.100468 -0.531267 331 0.736548 0.676386 0.000000
-14.220783 -13.101273 -0.525359 325 0.736548 0.676386 0.000000
-14.219774 -13.100340 -0.519378 341 0.736548 0.676386 0.000000
-14.217358 -13.098108 -0.513360 349 0.736548 0.676386 0.000000
-14.217852 -13.098564 -0.507436 339 0.736548 0.676386 0.000000
-14.219517 -13.100101 -0.501550 367 0.736548 0.676386 0.000000
-14.220699 -13.101198 -0.495649 377 0.736548 0.676386 0.000000
-14.219571 -13.100157 -0.489669 357 0.736548 0.676386 0.000000
-14.218603 -13.099271 -0.483698 367 0.736548 0.676386 0.000000
-14.219461 -13.100055 -0.477780 359 0.736548 0.676386 0.000000
-14.217725 -13.098462 -0.471786 329 0.736548 0.676386 0.000000
-14.217949 -13.098661 -0.465854 343 0.736548 0.676386 0.000000
-14.221647 -13.102075 -0.460029 385 0.736548 0.676386 0.000000
-14.221001 -13.101472 -0.454065 339 0.736548 0.676386 0.000000
-14.217478 -13.098238 -0.448018 329 0.736548 0.676386 0.000000
-14.217806 -13.098533 -0.442094 329 0.736548 0.676386 0.000000
-14.219406 -13.100005 -0.436199 347 0.736548 0.676386 0.000000
-14.219174 -13.099798 -0.430251 347 0.736548 0.676386 0.000000
-14.219320 -13.099935 -0.424310 331 0.736548 0.676386 0.000000
-14.218556 -13.099225 -0.418357 347 0.736548 0.676386 0.000000
-14.217517 -13.098268 -0.412386 343 0.736548 0.676386 0.000000
-14.217875 -13.098601 -0.406453 315 0.736548 0.676386 0.000000
-14.218496 -13.099170 -0.400537 333 0.736548 0.676386 0.000000
-14.219283 -13.099898 -0.394609 357 0.736548 0.676386 0.000000
-14.221684 -13.102116 -0.388737 349 0.736548 0.676386 0.000000
-14.221766 -13.102189 -0.382796 317 0.736548 0.676386 0.000000
-14.219477 -13.100085 -0.376797 283 0.736548 0.676386 0.000000
-14.216815 -13.097632 -0.370792 295 0.736548 0.676386 0.000000
-14.216359 -13.097209 -0.364846 289 0.736548 0.676386 0.000000
-14.216917 -13.097729 -0.358921 327 0.736548 0.676386 0.000000
-14.217428 -13.098195 -0.352996 293 0.736548 0.676386 0.000000
-14.219501 -13.100100 -0.347106 293 0.736548 0.676386 0.000000
-14.221081 -13.101566 -0.341201 311 0.736548 0.676386 0.000000
-14.221740 -13.102167 -0.335275 339 0.736548 0.676386 0.000000
-14.220091 -13.100656 -0.329300 319 0.736548 0.676386 0.000000
-14.218980 -13.099628 -0.323341 317 0.736548 0.676386 0.000000
-14.218407 -13.099096 -0.317386 325 0.736548 0.676386 0.000000
-14.219699 -13.100296 -0.311473 313 0.736548 0.676386 0.000000
-14.220628 -13.101151 -0.305555 337 0.736548 0.676386 0.000000
-14.223409 -13.095803 -0.679837 315 0.736548 0.676386 0.000000
-14.220819 -13.093421 -0.673771 309 0.736548 0.676386 0.000000
-14.221291 -13.093857 -0.667846 311 0.736548 0.676386 0.000000
-14.222717 -13.095178 -0.661973 291 0.736548 0.676386 0.000000
-14.222278 -13.094766 -0.656007 265 0.736548 0.676386 0.000000
-14.222692 -13.095143 -0.650083 303 0.736548 0.676386 0.000000
-14.224610 -13.096909 -0.644225 303 0.736548 0.676386 0.000000
-14.224970 -13.097242 -0.638291 337 0.736548 0.676386 0.000000
-14.222577 -13.095044 -0.632243 301 0.736548 0.676386 0.000000
-14.224113 -13.096453 -0.626369 309 0.736548 0.676386 0.000000
-14.226026 -13.098226 -0.620511 321 0.736548 0.676386 0.000000
-14.225142 -13.097406 -0.614529 339 0.736548 0.676386 0.000000
-14.224308 -13.096641 -0.608547 375 0.736548 0.676386 0.000000
-14.223465 -13.095867 -0.602564 341 0.736548 0.676386 0.000000
-14.222804 -13.095252 -0.596600 333 0.736548 0.676386 0.000000
-14.222927 -13.095369 -0.590659 327 0.736548 0.676386 0.000000
-14.223548 -13.095939 -0.584743 349 0.736548 0.676386 0.000000
-14.222919 -13.095364 -0.578779 327 0.736548 0.676386 0.000000
-14.221966 -13.094489 -0.572798 315 0.736548 0.676386 0.000000
-14.222578 -13.095051 -0.566882 329 0.736548 0.676386 0.000000
-14.223783 -13.096153 -0.560980 345 0.736548 0.676386 0.000000
-14.224546 -13.096864 -0.555073 345 0.736548 0.676386 0.000000
-14.223863 -13.096230 -0.549099 349 0.736548 0.676386 0.000000
-14.223177 -13.095595 -0.543136 363 0.736548 0.676386 0.000000
-14.223452 -13.095861 -0.537203 331 0.736548 0.676386 0.000000
-14.224648 -13.096957 -0.531302 339 0.736548 0.676386 0.000000
-14.223845 -13.096214 -0.525329 341 0.736548 0.676386 0.000000
-14.221705 -13.094246 -0.519319 347 0.736548 0.676386 0.000000
-14.221592 -13.094148 -0.513370 329 0.736548 0.676386 0.000000
-14.222576 -13.095048 -0.507460 353 0.736548 0.676386 0.000000
-14.223275 -13.095693 -0.501544 359 0.736548 0.676386 0.000000
-14.223920 -13.096294 -0.495627 359 0.736548 0.676386 0.000000
-14.225158 -13.097436 -0.489726 353 0.736548 0.676386 0.000000
-14.223649 -13.096039 -0.483740 369 0.736548 0.676386 0.000000
-14.223867 -13.096246 -0.477798 355 0.736548 0.676386 0.000000
-14.222622 -13.095098 -0.471819 339 0.736548 0.676386 0.000000
-14.219454 -13.092173 -0.465778 329 0.736548 0.676386 0.000000
-14.221001 -13.093602 -0.459884 331 0.736548 0.676386 0.000000
-14.222283 -13.094780 -0.453992 341 0.736548 0.676386 0.000000
-14.222162 -13.094676 -0.448043 333 0.736548 0.676386 0.000000
-14.223391 -13.095811 -0.442141 355 0.736548 0.676386 0.000000
-14.222573 -13.095057 -0.436179 335 0.736548 0.676386 0.000000
-14.221216 -13.093807 -0.430201 311 0.736548 0.676386 0.000000
-14.221640 -13.094192 -0.424267 321 0.736548 0.676386 0.000000
-14.222039 -13.094570 -0.418343 353 0.736548 0.676386 0.000000
-14.224130 -13.096488 -0.412464 369 0.736548 0.676386 0.000000
-14.224916 -13.097216 -0.406546 339 0.736548 0.676386 0.000000
-14.224524 -13.096855 -0.400590 347 0.736548 0.676386 0.000000
-14.223801 -13.096191 -0.394636 353 0.736548 0.676386 0.000000
-14.222483 -13.094972 -0.388658 347 0.736548 0.676386 0.000000
-14.221380 -13.093964 -0.382688 357 0.736548 0.676386 0.000000
-14.221360 -13.093941 -0.376749 357 0.736548 0.676386 0.000000
-14.223001 -13.095459 -0.370853 329 0.736548 0.676386 0.000000
-14.225337 -13.097610 -0.364971 339 0.736548 0.676386 0.000000
-14.225847 -13.098079 -0.359046 327 0.736548 0.676386 0.000000
-14.224143 -13.096510 -0.353062 329 0.736548 0.676386 0.000000
-14.224227 -13.096583 -0.347121 313 0.736548 0.676386 0.000000
-14.223068 -13.095517 -0.341162 325 0.736548 0.676386 0.000000
-14.222652 -13.095139 -0.335215 339 0.736548 0.676386 0.000000
-14.223581 -13.095995 -0.329297 329 0.736548 0.676386 0.000000
-14.222738 -13.095222 -0.323334 313 0.736548 0.676386 0.000000
-14.224103 -13.096477 -0.317422 307 0.736548 0.676386 0.000000
-14.223735 -13.096137 -0.311475 341 0.736548 0.676386 0.000000
-14.223057 -13.095509 -0.305531 351 0.736548 0.676386 0.000000
-14.226694 -13.090181 -0.679789 293 0.736548 0.676386 0.000000
-14.228303 -13.091660 -0.673924 287 0.736548 0.676386 0.000000
-14.229255 -13.092534 -0.668015 335 0.736548 0.676386 0.000000
-14.228271 -13.091635 -0.662034 317 0.736548 0.676386 0.000000
-14.227658 -13.091071 -0.656059 317 0.736548 0.676386 0.000000
-14.226619 -13.090114 -0.650069 323 0.736548 0.676386 0.000000
-14.226653 -13.090148 -0.644128 317 0.736548 0.676386 0.000000
-14.226418 -13.089929 -0.638170 345 0.736548 0.676386 0.000000
-14.227855 -13.091254 -0.632287 347 0.736548 0.676386 0.000000
-14.228323 -13.091676 -0.626362 333 0.736548 0.676386 0.000000
-14.227923 -13.091310 -0.620406 339 0.736548 0.676386 0.000000
-14.228806 -13.092127 -0.614497 349 0.736548 0.676386 0.000000
-14.227647 -13.091062 -0.608508 325 0.736548 0.676386 0.000000
-14.228489 -13.091834 -0.602600 361 0.736548 0.676386 0.000000
-14.228724 -13.092054 -0.596668 317 0.736548 0.676386 0.000000
-14.229011 -13.092317 -0.590735 311 0.736548 0.676386 0.000000
-14.228713 -13.092047 -0.584778 307 0.736548 0.676386 0.000000
-14.227926 -13.091317 -0.578805 337 0.736548 0.676386 0.000000
-14.228001 -13.091384 -0.572864 347 0.736548 0.676386 0.000000
-14.226780 -13.090268 -0.566875 333 0.736548 0.676386 0.000000
-14.226041 -13.089590 -0.560902 339 0.736548 0.676386 0.000000
-14.226060 -13.089599 -0.554962 321 0.736548 0.676386 0.000000
-14.226987 -13.090454 -0.549063 361 0.736548 0.676386 0.000000
-14.226779 -13.090267 -0.543105 345 0.736548 0.676386 0.000000
-14.225232 -13.088839 -0.537109 331 0.736548 0.676386 0.000000
-14.225347 -13.088948 -0.531178 321 0.736548 0.676386 0.000000
-14.225201 -13.088813 -0.525229 319 0.736548 0.676386 0.000000
-14.225583 -13.089165 -0.519305 313 0.736548 0.676386 0.000000
-14.228710 -13.092043 -0.513466 345 0.736548 0.676386 0.000000
-14.229197 -13.092490 -0.507541 333 0.736548 0.676386 0.000000
-14.227160 -13.090617 -0.501530 351 0.736548 0.676386 0.000000
-14.228714 -13.092052 -0.495646 357 0.736548 0.676386 0.000000
-14.230449 -13.093645 -0.489759 359 0.736548 0.676386 0.000000
-14.228072 -13.091459 -0.483741 363 0.736548 0.676386 0.000000
-14.226131 -13.089675 -0.477739 337 0.736548 0.676386 0.000000
-14.226285 -13.089817 -0.471798 341 0.736548 0.676386 0.000000
-14.226550 -13.090063 -0.465875 315 0.736548 0.676386 0.000000
-14.227953 -13.091350 -0.459972 339 0.736548 0.676386 0.000000
-14.229237 -13.092529 -0.454070 343 0.736548 0.676386 0.000000
-14.229817 -13.093066 -0.448154 337 0.736548 0.676386 0.000000
-14.228083 -13.091473 -0.442160 323 0.736548 0.676386 0.000000
-14.226727 -13.090223 -0.436173 313 0.736548 0.676386 0.000000
-14.229347 -13.092629 -0.430308 353 0.736548 0.676386 0.000000
-14.227509 -13.090940 -0.424315 339 0.736548 0.676386 0.000000
-14.224199 -13.087904 -0.418286 349 0.736548 0.676386 0.000000
-14.226876 -13.090370 -0.412421 357 0.736548 0.676386 0.000000
-14.229221 -13.092528 -0.406549 341 0.736548 0.676386 0.000000
-14.228616 -13.091971 -0.400584 333 0.736548 0.676386 0.000000
-14.227353 -13.090809 -0.394616 335 0.736548 0.676386 0.000000
-14.227230 -13.090692 -0.388667 341 0.736548 0.676386 0.000000
-14.227100 -13.090567 -0.382728 323 0.736548 0.676386 0.000000
-14.226582 -13.090093 -0.376773 359 0.736548 0.676386 0.000000
-14.228658 -13.092010 -0.370893 355 0.736548 0.676386 0.000000
-14.229492 -13.092777 -0.364975 337 0.736548 0.676386 0.000000
-14.228443 -13.091813 -0.359005 361 0.736548 0.676386 0.000000
-14.229380 -13.092675 -0.353086 353 0.736548 0.676386 0.000000
-14.229401 -13.092697 -0.347146 317 0.736548 0.676386 0.000000
-14.226620 -13.090137 -0.341141 329 0.736548 0.676386 0.000000
-14.227019 -13.090501 -0.335217 307 0.736548 0.676386 0.000000
-14.227521 -13.090962 -0.329283 285 0.736548 0.676386 0.000000
-14.225539 -13.089147 -0.323301 311 0.736548 0.676386 0.000000
-14.226098 -13.089651 -0.317376 307 0.736548 0.676386 0.000000
-14.226060 -13.089615 -0.311436 349 0.736548 0.676386 0.000000
-14.226073 -13.089632 -0.305506 337 0.736548 0.676386 0.000000
-14.230799 -13.085296 -0.679783 311 0.736548 0.676386 0.000000
-14.228628 -13.083301 -0.673733 319 0.736548 0.676386 0.000000
-14.230878 -13.085371 -0.667902 301 0.736548 0.676386 0.000000
-14.230597 -13.085114 -0.661945 309 0.736548 0.676386 0.000000
-14.230094 -13.084652 -0.655979 305 0.736548 0.676386 0.000000
-14.232129 -13.086511 -0.650120 323 0.736548 0.676386 0.000000
-14.233668 -13.087934 -0.644246 287 0.736548 0.676386 0.000000
-14.233378 -13.087668 -0.638288 295 0.736548 0.676386 0.000000
-14.234813 -13.088981 -0.632405 321 0.736548 0.676386 0.000000
-14.234035 -13.088273 -0.626432 335 0.736548 0.676386 0.000000
-14.231959 -13.086369 -0.620401 323 0.736548 0.676386 0.000000
-14.231345 -13.085804 -0.614427 343 0.736548 0.676386 0.000000
-14.229703 -13.084287 -0.608412 313 0.736548 0.676386 0.000000
-14.229836 -13.084411 -0.602480 341 0.736548 0.676386 0.000000
-14.229325 -13.083942 -0.596515 325 0.736548 0.676386 0.000000
-14.230751 -13.085250 -0.590632 357 0.736548 0.676386 0.000000
-14.234052 -13.088292 -0.584821 361 0.736548 0.676386 0.000000
-14.235203 -13.089352 -0.578930 331 0.736548 0.676386 0.000000
-14.234574 -13.088777 -0.572955 335 0.736548 0.676386 0.000000
-14.234214 -13.088442 -0.566999 365 0.736548 0.676386 0.000000
-14.233269 -13.087574 -0.561017 367 0.736548 0.676386 0.000000
-14.232633 -13.086991 -0.555053 369 0.736548 0.676386 0.000000
-14.233402 -13.087692 -0.549136 333 0.736548 0.676386 0.000000
-14.233255 -13.087556 -0.543187 327 0.736548 0.676386 0.000000
-14.233053 -13.087374 -0.537239 343 0.736548 0.676386 0.000000
-14.231769 -13.086194 -0.531251 351 0.736548 0.676386 0.000000
-14.231338 -13.085803 -0.525294 357 0.736548 0.676386 0.000000
-14.232860 -13.087199 -0.519410 337 0.736548 0.676386 0.000000
-14.233180 -13.087502 -0.513477 335 0.736548 0.676386 0.000000
-14.231736 -13.086167 -0.507490 329 0.736548 0.676386 0.000000
-14.230554 -13.085083 -0.501501 323 0.736548 0.676386 0.000000
-14.232384 -13.086765 -0.495624 341 0.736548 0.676386 0.000000
-14.231526 -13.085979 -0.489652 335 0.736548 0.676386 0.000000
-14.231364 -13.085830 -0.483713 347 0.736548 0.676386 0.000000
-14.232656 -13.087015 -0.477811 341 0.736548 0.676386 0.000000
-14.231735 -13.086166 -0.471840 317 0.736548 0.676386 0.000000
-14.231999 -13.086411 -0.465907 339 0.736548 0.676386 0.000000
-14.231291 -13.085757 -0.459943 339 0.736548 0.676386 0.000000
-14.229880 -13.084464 -0.453966 333 0.736548 0.676386 0.000000
-14.230635 -13.085154 -0.448049 333 0.736548 0.676386 0.000000
-14.230402 -13.084947 -0.442101 333 0.736548 0.676386 0.000000
-14.230334 -13.084887 -0.436162 367 0.736548 0.676386 0.000000
-14.231784 -13.086211 -0.430258 345 0.736548 0.676386 0.000000
-14.233274 -13.087581 -0.424364 381 0.736548 0.676386 0.000000
-14.233262 -13.087579 -0.418424 373 0.736548 0.676386 0.000000
-14.232381 -13.086761 -0.412452 347 0.736548 0.676386 0.000000
-14.231444 -13.085912 -0.406491 341 0.736548 0.676386 0.000000
-14.230720 -13.085247 -0.400527 341 0.736548 0.676386 0.000000
-14.229624 -13.084231 -0.394567 351 0.736548 0.676386 0.000000
-14.231217 -13.085698 -0.388662 349 0.736548 0.676386 0.000000
-14.232859 -13.087214 -0.382767 347 0.736548 0.676386 0.000000
-14.231383 -13.085856 -0.376791 353 0.736548 0.676386 0.000000
-14.232977 -13.087323 -0.370896 347 0.736548 0.676386 0.000000
-14.231223 -13.085703 -0.364912 323 0.736548 0.676386 0.000000
-14.230494 -13.085032 -0.358948 297 0.736548 0.676386 0.000000
-14.233105 -13.087432 -0.353074 303 0.736548 0.676386 0.000000
-14.232311 -13.086711 -0.347121 309 0.736548 0.676386 0.000000
-14.232497 -13.086879 -0.341179 293 0.736548 0.676386 0.000000
-14.231875 -13.086308 -0.335225 315 0.736548 0.676386 0.000000
-14.229999 -13.084589 -0.329252 321 0.736548 0.676386 0.000000
-14.231527 -13.085991 -0.323348 313 0.736548 0.676386 0.000000
-14.231064 -13.085560 -0.317392 333 0.736548 0.676386 0.000000
-14.228925 -13.083591 -0.311412 335 0.736548 0.676386 0.000000
-14.231192 -13.085689 -0.305521 311 0.736548 0.676386 0.000000
-14.234750 -13.080441 -0.679768 291 0.736548 0.676386 0.000000
-14.237228 -13.082707 -0.673945 279 0.736548 0.676386 0.000000
-14.238615 -13.083981 -0.668062 287 0.736548 0.676386 0.000000
-14.238170 -13.083578 -0.662096 329 0.736548 0.676386 0.000000
-14.236528 -13.082074 -0.656081 319 0.736548 0.676386 0.000000
-14.234633 -13.080326 -0.650049 299 0.736548 0.676386 0.000000
-14.235524 -13.081151 -0.644140 309 0.736548 0.676386 0.000000
-14.236050 -13.081631 -0.638225 277 0.736548 0.676386 0.000000
-14.234843 -13.080526 -0.632226 301 0.736548 0.676386 0.000000
-14.235891 -13.081491 -0.626326 317 0.736548 0.676386 0.000000
-14.237223 -13.082707 -0.620444 319 0.736548 0.676386 0.000000
-14.235194 -13.080854 -0.614413 321 0.736548 0.676386 0.000000
-14.236580 -13.082114 -0.608530 351 0.736548 0.676386 0.000000
-14.238641 -13.084020 -0.602670 345 0.736548 0.676386 0.000000
-14.235593 -13.081219 -0.596598 309 0.736548 0.676386 0.000000
-14.234497 -13.080203 -0.590619 329 0.736548 0.676386 0.000000
-14.233330 -13.079130 -0.584629 363 0.736548 0.676386 0.000000
-14.233129 -13.078950 -0.578681 347 0.736548 0.676386 0.000000
-14.235788 -13.081402 -0.572846 341 0.736548 0.676386 0.000000
-14.236830 -13.082358 -0.566936 335 0.736548 0.676386 0.000000
-14.237820 -13.083264 -0.561037 335 0.736548 0.676386 0.000000
-14.237620 -13.083083 -0.555089 333 0.736548 0.676386 0.000000
-14.237789 -13.083238 -0.549147 337 0.736548 0.676386 0.000000
-14.239152 -13.084495 -0.543254 327 0.736548 0.676386 0.000000
-14.236846 -13.082366 -0.537225 333 0.736548 0.676386 0.000000
-14.237562 -13.083024 -0.531309 345 0.736548 0.676386 0.000000
-14.239123 -13.084465 -0.525424 351 0.736548 0.676386 0.000000
-14.236234 -13.081801 -0.519381 325 0.736548 0.676386 0.000000
-14.234237 -13.079973 -0.513369 309 0.736548 0.676386 0.000000
-14.234303 -13.080033 -0.507428 323 0.736548 0.676386 0.000000
-14.233763 -13.079541 -0.501473 329 0.736548 0.676386 0.000000
-14.235167 -13.080828 -0.495580 353 0.736548 0.676386 0.000000
-14.236346 -13.081911 -0.489679 357 0.736548 0.676386 0.000000
-14.231993 -13.077908 -0.483589 335 0.736548 0.676386 0.000000
-14.231548 -13.077504 -0.477643 305 0.736548 0.676386 0.000000
-14.236453 -13.082017 -0.471857 305 0.736548 0.676386 0.000000
-14.238552 -13.083941 -0.465988 357 0.736548 0.676386 0.000000
-14.236712 -13.082250 -0.459985 329 0.736548 0.676386 0.000000
-14.234385 -13.080117 -0.453976 335 0.736548 0.676386 0.000000
-14.236208 -13.081793 -0.448089 363 0.736548 0.676386 0.000000
-14.237546 -13.083015 -0.442187 327 0.736548 0.676386 0.000000
-14.236293 -13.081862 -0.436208 363 0.736548 0.676386 0.000000
-14.234826 -13.080523 -0.430232 375 0.736548 0.676386 0.000000
-14.235780 -13.081397 -0.424313 351 0.736548 0.676386 0.000000
-14.236952 -13.082475 -0.418412 319 0.736548 0.676386 0.000000
-14.236396 -13.081969 -0.412457 339 0.736548 0.676386 0.000000
-14.235624 -13.081254 -0.406494 337 0.736548 0.676386 0.000000
-14.237437 -13.082921 -0.400597 359 0.736548 0.676386 0.000000
-14.236983 -13.082512 -0.394651 367 0.736548 0.676386 0.000000
-14.235666 -13.081294 -0.388673 371 0.736548 0.676386 0.000000
-14.235640 -13.081278 -0.382733 363 0.736548 0.676386 0.000000
-14.236584 -13.082145 -0.376814 331 0.736548 0.676386 0.000000
-14.238935 -13.084296 -0.370942 333 0.736548 0.676386 0.000000
-14.236149 -13.081744 -0.364928 321 0.736548 0.676386 0.000000
-14.234777 -13.080482 -0.358960 281 0.736548 0.676386 0.000000
-14.236953 -13.082481 -0.353070 319 0.736548 0.676386 0.000000
-14.235683 -13.081313 -0.347102 345 0.736548 0.676386 0.000000
-14.234787 -13.080497 -0.341140 353 0.736548 0.676386 0.000000
-14.237020 -13.082541 -0.335249 317 0.736548 0.676386 0.000000
-14.235902 -13.081521 -0.329289 335 0.736548 0.676386 0.000000
-14.233873 -13.079654 -0.323308 337 0.736548 0.676386 0.000000
-14.236313 -13.081901 -0.317415 339 0.736548 0.676386 0.000000
-14.238592 -13.083996 -0.311524 335 0.736548 0.676386 0.000000
-14.237259 -13.082765 -0.305566 333 0.736548 0.676386 0.000000
-14.242255 -13.078671 -0.679921 357 0.736548 0.676386 0.000000
-14.241097 -13.077619 -0.673922 341 0.736548 0.676386 0.000000
-14.239472 -13.076126 -0.667907 303 0.736548 0.676386 0.000000
-14.240811 -13.077350 -0.662024 301 0.736548 0.676386 0.000000
-14.240310 -13.076889 -0.656059 319 0.736548 0.676386 0.000000
-14.239807 -13.076427 -0.650093 291 0.736548 0.676386 0.000000
-14.239194 -13.075864 -0.644119 311 0.736548 0.676386 0.000000
-14.239340 -13.076001 -0.638177 281 0.736548 0.676386 0.000000
-14.240499 -13.077065 -0.632286 329 0.736548 0.676386 0.000000
-14.239506 -13.076159 -0.626305 309 0.736548 0.676386 0.000000
-14.239857 -13.076474 -0.620372 323 0.736548 0.676386 0.000000
-14.242849 -13.079231 -0.614554 325 0.736548 0.676386 0.000000
-14.243685 -13.079997 -0.608646 363 0.736548 0.676386 0.000000
-14.241774 -13.078238 -0.602624 341 0.736548 0.676386 0.000000
-14.240663 -13.077223 -0.596634 323 0.736548 0.676386 0.000000
-14.241062 -13.077588 -0.590710 329 0.736548 0.676386 0.000000
-14.241785 -13.078253 -0.584793 341 0.736548 0.676386 0.000000
-14.240570 -13.077129 -0.578804 363 0.736548 0.676386 0.000000
-14.239294 -13.075970 -0.572816 307 0.736548 0.676386 0.000000
-14.241196 -13.077708 -0.566948 325 0.736548 0.676386 0.000000
-14.241641 -13.078124 -0.561014 319 0.736548 0.676386 0.000000
-14.241014 -13.077549 -0.555050 315 0.736548 0.676386 0.000000
-14.242424 -13.078843 -0.549167 343 0.736548 0.676386 0.000000
-14.242553 -13.078953 -0.543225 333 0.736548 0.676386 0.000000
-14.239269 -13.075948 -0.537166 301 0.736548 0.676386 0.000000
-14.238901 -13.075608 -0.531209 307 0.736548 0.676386 0.000000
-14.241063 -13.077595 -0.525349 329 0.736548 0.676386 0.000000
-14.242055 -13.078501 -0.519439 331 0.736548 0.676386 0.000000
-14.241188 -13.077708 -0.513467 345 0.736548 0.676386 0.000000
-14.242275 -13.078703 -0.507557 343 0.736548 0.676386 0.000000
-14.243891 -13.080188 -0.501672 337 0.736548 0.676386 0.000000
-14.242758 -13.079155 -0.495692 373 0.736548 0.676386 0.000000
-14.242008 -13.078457 -0.489729 339 0.736548 0.676386 0.000000
-14.242331 -13.078760 -0.483796 341 0.736548 0.676386 0.000000
-14.240500 -13.077077 -0.477793 323 0.736548 0.676386 0.000000
-14.240061 -13.076680 -0.471837 319 0.736548 0.676386 0.000000
-14.241558 -13.078055 -0.465943 347 0.736548 0.676386 0.000000
-14.243176 -13.079541 -0.460057 331 0.736548 0.676386 0.000000
-14.242357 -13.078787 -0.454085 347 0.736548 0.676386 0.000000
-14.241752 -13.078230 -0.448130 341 0.736548 0.676386 0.000000
-14.242126 -13.078577 -0.442197 345 0.736548 0.676386 0.000000
-14.241790 -13.078261 -0.436250 377 0.736548 0.676386 0.000000
-14.242371 -13.078798 -0.430324 341 0.736548 0.676386 0.000000
-14.242833 -13.079227 -0.424400 353 0.736548 0.676386 0.000000
-14.241049 -13.077581 -0.418406 355 0.736548 0.676386 0.000000
-14.239355 -13.076035 -0.412422 343 0.736548 0.676386 0.000000
-14.241824 -13.078294 -0.406549 349 0.736548 0.676386 0.000000
-14.241748 -13.078226 -0.400599 355 0.736548 0.676386 0.000000
-14.239943 -13.076577 -0.394616 339 0.736548 0.676386 0.000000
-14.239598 -13.076256 -0.388669 337 0.736548 0.676386 0.000000
-14.239729 -13.076380 -0.382728 305 0.736548 0.676386 0.000000
-14.240357 -13.076955 -0.376812 319 0.736548 0.676386 0.000000
-14.241245 -13.077765 -0.370893 327 0.736548 0.676386 0.000000
-14.238412 -13.075174 -0.364879 337 0.736548 0.676386 0.000000
-14.238335 -13.075093 -0.358940 313 0.736548 0.676386 0.000000
-14.241637 -13.078137 -0.353079 335 0.736548 0.676386 0.000000
-14.242478 -13.078908 -0.347161 359 0.736548 0.676386 0.000000
-14.243519 -13.079866 -0.341241 369 0.736548 0.676386 0.000000
-14.241331 -13.077847 -0.335252 337 0.736548 0.676386 0.000000
-14.240212 -13.076825 -0.329292 335 0.736548 0.676386 0.000000
-14.243032 -13.079416 -0.323415 319 0.736548 0.676386 0.000000
-14.244070 -13.080374 -0.317496 353 0.736548 0.676386 0.000000
-14.241441 -13.077960 -0.311500 371 0.736548 0.676386 0.000000
-14.238813 -13.075547 -0.305504 357 0.736548 0.676386 0.000000
-14.245669 -13.073318 -0.679891 337 0.736548 0.676386 0.000000
-14.246305 -13.073901 -0.673975 307 0.736548 0.676386 0.000000
-14.246176 -13.073790 -0.668026 329 0.736548 0.676386 0.000000
-14.243261 -13.071108 -0.661943 307 0.736548 0.676386 0.000000
-14.245351 -13.073024 -0.656094 313 0.736548 0.676386 0.000000
-14.246518 -13.074097 -0.650203 315 0.736548 0.676386 0.000000
-14.244987 -13.072694 -0.644187 321 0.736548 0.676386 0.000000
-14.244367 -13.072124 -0.638222 289 0.736548 0.676386 0.000000
-14.244188 -13.071961 -0.632264 277 0.736548 0.676386 0.000000
-14.246699 -13.074267 -0.626430 309 0.736548 0.676386 0.000000
-14.246727 -13.074296 -0.620490 321 0.736548 0.676386 0.000000
-14.245149 -13.072842 -0.614475 321 0.736548 0.676386 0.000000
-14.243335 -13.071185 -0.608461 341 0.736548 0.676386 0.000000
-14.243093 -13.070959 -0.602503 303 0.736548 0.676386 0.000000
-14.245760 -13.073403 -0.596678 311 0.736548 0.676386 0.000000
-14.246103 -13.073724 -0.590745 351 0.736548 0.676386 0.000000
-14.246288 -13.073893 -0.584813 357 0.736548 0.676386 0.000000
-14.246199 -13.073812 -0.578864 303 0.736548 0.676386 0.000000
-14.244874 -13.072602 -0.572866 305 0.736548 0.676386 0.000000
-14.246243 -13.073850 -0.566973 337 0.736548 0.676386 0.000000
-14.246154 -13.073771 -0.561034 325 0.736548 0.676386 0.000000
-14.243303 -13.071153 -0.554980 335 0.736548 0.676386 0.000000
-14.243322 -13.071176 -0.549040 313 0.736548 0.676386 0.000000
-14.245810 -13.073462 -0.543187 323 0.736548 0.676386 0.000000
-14.247331 -13.074857 -0.537302 355 0.736548 0.676386 0.000000
-14.243674 -13.071503 -0.531226 321 0.736548 0.676386 0.000000
-14.244926 -13.072642 -0.525335 351 0.736548 0.676386 0.000000
-14.246283 -13.073893 -0.519442 381 0.736548 0.676386 0.000000
-14.244397 -13.072166 -0.513429 309 0.736548 0.676386 0.000000
-14.244614 -13.072359 -0.507497 317 0.736548 0.676386 0.000000
-14.245210 -13.072908 -0.501581 333 0.736548 0.676386 0.000000
-14.244780 -13.072518 -0.495625 357 0.736548 0.676386 0.000000
-14.245163 -13.072871 -0.489691 337 0.736548 0.676386 0.000000
-14.245268 -13.072962 -0.483750 321 0.736548 0.676386 0.000000
-14.244995 -13.072711 -0.477803 337 0.736548 0.676386 0.000000
-14.246335 -13.073947 -0.471910 337 0.736548 0.676386 0.000000
-14.244609 -13.072361 -0.465906 351 0.736548 0.676386 0.000000
-14.244011 -13.071810 -0.459951 357 0.736548 0.676386 0.000000
-14.246585 -13.074180 -0.454087 355 0.736548 0.676386 0.000000
-14.248422 -13.075853 -0.448210 353 0.736548 0.676386 0.000000
-14.247753 -13.075247 -0.442246 343 0.736548 0.676386 0.000000
-14.244944 -13.072676 -0.436222 357 0.736548 0.676386 0.000000
-14.242178 -13.070126 -0.430198 347 0.736548 0.676386 0.000000
-14.241946 -13.069921 -0.424250 339 0.736548 0.676386 0.000000
-14.244037 -13.071836 -0.418370 335 0.736548 0.676386 0.000000
-14.244664 -13.072412 -0.412454 323 0.736548 0.676386 0.000000
-14.244329 -13.072109 -0.406497 347 0.736548 0.676386 0.000000
-14.244094 -13.071889 -0.400559 357 0.736548 0.676386 0.000000
-14.244390 -13.072159 -0.394626 359 0.736548 0.676386 0.000000
-14.244902 -13.072640 -0.388701 361 0.736548 0.676386 0.000000
-14.244722 -13.072464 -0.382753 339 0.736548 0.676386 0.000000
-14.244268 -13.072054 -0.376797 331 0.736548 0.676386 0.000000
-14.243648 -13.071485 -0.370843 309 0.736548 0.676386 0.000000
-14.244593 -13.072352 -0.364934 327 0.736548 0.676386 0.000000
-14.246611 -13.074199 -0.359045 339 0.736548 0.676386 0.000000
-14.246305 -13.073922 -0.353098 315 0.736548 0.676386 0.000000
-14.245361 -13.073053 -0.347136 353 0.736548 0.676386 0.000000
-14.243602 -13.071442 -0.341152 345 0.736548 0.676386 0.000000
-14.243947 -13.071763 -0.335219 303 0.736548 0.676386 0.000000
-14.246392 -13.074004 -0.329336 331 0.736548 0.676386 0.000000
-14.244514 -13.072284 -0.323354 319 0.736548 0.676386 0.000000
-14.243941 -13.071752 -0.317409 353 0.736548 0.676386 0.000000
-14.243835 -13.071660 -0.311460 329 0.736548 0.676386 0.000000
-14.242779 -13.070690 -0.305509 329 0.736548 0.676386 0.000000
-14.247871 -13.066905 -0.679792 321 0.736548 0.676386 0.000000
-14.250238 -13.069069 -0.673960 325 0.736548 0.676386 0.000000
-14.252163 -13.070839 -0.668102 305 0.736548 0.676386 0.000000
-14.250752 -13.069546 -0.662095 319 0.736548 0.676386 0.000000
-14.249276 -13.068187 -0.656089 309 0.736548 0.676386 0.000000
-14.249098 -13.068024 -0.650130 289 0.736548 0.676386 0.000000
-14.250099 -13.068950 -0.644231 281 0.736548 0.676386 0.000000
-14.249873 -13.068736 -0.638283 297 0.736548 0.676386 0.000000
-14.248508 -13.067479 -0.632275 321 0.736548 0.676386 0.000000
-14.249128 -13.068048 -0.626359 311 0.736548 0.676386 0.000000
-14.249916 -13.068776 -0.620452 331 0.736548 0.676386 0.000000
-14.247840 -13.066872 -0.614421 315 0.736548 0.676386 0.000000
-14.248673 -13.067637 -0.608513 345 0.736548 0.676386 0.000000
-14.249561 -13.068447 -0.602605 327 0.736548 0.676386 0.000000
-14.248451 -13.067433 -0.596615 315 0.736548 0.676386 0.000000
-14.249498 -13.068396 -0.590715 331 0.736548 0.676386 0.000000
-14.248878 -13.067827 -0.584751 341 0.736548 0.676386 0.000000
-14.247767 -13.066813 -0.578761 333 0.736548 0.676386 0.000000
-14.248434 -13.067419 -0.572845 333 0.736548 0.676386 0.000000
-14.249529 -13.068419 -0.566944 313 0.736548 0.676386 0.000000
-14.248245 -13.067254 -0.560956 335 0.736548 0.676386 0.000000
-14.246698 -13.065825 -0.554950 337 0.736548 0.676386 0.000000
-14.248386 -13.067381 -0.549074 323 0.736548 0.676386 0.000000
-14.248668 -13.067637 -0.543142 335 0.736548 0.676386 0.000000
-14.248631 -13.067603 -0.537202 301 0.736548 0.676386 0.000000
-14.248475 -13.067458 -0.531253 317 0.736548 0.676386 0.000000
-14.251018 -13.069789 -0.525400 331 0.736548 0.676386 0.000000
-14.253613 -13.072176 -0.519555 341 0.736548 0.676386 0.000000
-14.250377 -13.069210 -0.513495 313 0.736548 0.676386 0.000000
-14.248443 -13.067431 -0.507483 369 0.736548 0.676386 0.000000
-14.248061 -13.067093 -0.501536 327 0.736548 0.676386 0.000000
-14.247961 -13.066992 -0.495587 357 0.736548 0.676386 0.000000
-14.250604 -13.069418 -0.489733 333 0.736548 0.676386 0.000000
-14.249361 -13.068284 -0.483754 315 0.736548 0.676386 0.000000
-14.248336 -13.067339 -0.477783 353 0.736548 0.676386 0.000000
-14.248333 -13.067343 -0.471843 333 0.736548 0.676386 0.000000
-14.248865 -13.067827 -0.465918 329 0.736548 0.676386 0.000000
-14.250963 -13.069751 -0.460038 367 0.736548 0.676386 0.000000
-14.250415 -13.069252 -0.454083 379 0.736548 0.676386 0.000000
-14.250085 -13.068942 -0.448126 329 0.736548 0.676386 0.000000
-14.248937 -13.067898 -0.442157 341 0.736548 0.676386 0.000000
-14.248710 -13.067682 -0.436209 329 0.736548 0.676386 0.000000
-14.249725 -13.068621 -0.430299 351 0.736548 0.676386 0.000000
-14.251167 -13.069940 -0.424396 363 0.736548 0.676386 0.000000
-14.251204 -13.069975 -0.418455 357 0.736548 0.676386 0.000000
-14.249080 -13.068032 -0.412455 343 0.736548 0.676386 0.000000
-14.249978 -13.068849 -0.406546 331 0.736548 0.676386 0.000000
-14.251150 -13.069926 -0.400635 369 0.736548 0.676386 0.000000
-14.248215 -13.067240 -0.394612 369 0.736548 0.676386 0.000000
-14.247705 -13.066772 -0.388667 341 0.736548 0.676386 0.000000
-14.249304 -13.068230 -0.382762 347 0.736548 0.676386 0.000000
-14.247712 -13.066777 -0.376787 323 0.736548 0.676386 0.000000
-14.247581 -13.066653 -0.370848 339 0.736548 0.676386 0.000000
-14.249758 -13.068652 -0.364957 321 0.736548 0.676386 0.000000
-14.249358 -13.068286 -0.359011 329 0.736548 0.676386 0.000000
-14.249158 -13.068107 -0.353063 363 0.736548 0.676386 0.000000
-14.250963 -13.069755 -0.347166 327 0.736548 0.676386 0.000000
-14.251142 -13.069931 -0.341234 317 0.736548 0.676386 0.000000
-14.250892 -13.069698 -0.335286 311 0.736548 0.676386 0.000000
-14.250270 -13.069128 -0.329332 311 0.736548 0.676386 0.000000
-14.249848 -13.068743 -0.323385 365 0.736548 0.676386 0.000000
-14.250941 -13.069744 -0.317465 355 0.736548 0.676386 0.000000
-14.249878 -13.068768 -0.311505 343 0.736548 0.676386 0.000000
-14.249842 -13.068732 -0.305565 339 0.736548 0.676386 0.000000
-14.253874 -13.064480 -0.679896 291 0.736548 0.676386 0.000000
-14.254573 -13.065111 -0.673979 291 0.736548 0.676386 0.000000
-14.256165 -13.066577 -0.668114 307 0.736548 0.676386 0.000000
-14.254099 -13.064692 -0.662073 297 0.736548 0.676386 0.000000
-14.252790 -13.063493 -0.656065 325 0.736548 0.676386 0.000000
-14.253853 -13.064469 -0.650175 297 0.736548 0.676386 0.000000
-14.253944 -13.064548 -0.644234 305 0.736548 0.676386 0.000000
-14.254461 -13.065021 -0.638309 309 0.736548 0.676386 0.000000
-14.254496 -13.065056 -0.632369 347 0.736548 0.676386 0.000000
-14.254360 -13.064939 -0.626420 321 0.736548 0.676386 0.000000
-14.253258 -13.063931 -0.620430 299 0.736548 0.676386 0.000000
-14.250967 -13.061829 -0.614391 283 0.736548 0.676386 0.000000
-14.250346 -13.061260 -0.608417 317 0.736548 0.676386 0.000000
-14.252470 -13.063215 -0.602567 315 0.736548 0.676386 0.000000
-14.254765 -13.065309 -0.596715 299 0.736548 0.676386 0.000000
-14.253710 -13.064352 -0.590725 319 0.736548 0.676386 0.000000
-14.252869 -13.063580 -0.584753 333 0.736548 0.676386 0.000000
-14.254018 -13.064639 -0.578852 349 0.736548 0.676386 0.000000
-14.253603 -13.064260 -0.572896 327 0.736548 0.676386 0.000000
-14.253299 -13.063983 -0.566938 339 0.736548 0.676386 0.000000
-14.253530 -13.064189 -0.561006 313 0.736548 0.676386 0.000000
-14.253812 -13.064460 -0.555073 329 0.736548 0.676386 0.000000
-14.254471 -13.065059 -0.549157 315 0.736548 0.676386 0.000000
-14.253843 -13.064485 -0.543193 313 0.736548 0.676386 0.000000
-14.251214 -13.062070 -0.537157 351 0.736548 0.676386 0.000000
-14.251709 -13.062526 -0.531232 337 0.736548 0.676386 0.000000
-14.251657 -13.062491 -0.525292 341 0.736548 0.676386 0.000000
-14.249614 -13.060612 -0.519271 341 0.736548 0.676386 0.000000
-14.252535 -13.063298 -0.513434 325 0.736548 0.676386 0.000000
-14.255019 -13.065570 -0.507581 331 0.736548 0.676386 0.000000
-14.252597 -13.063348 -0.501553 333 0.736548 0.676386 0.000000
-14.251614 -13.062462 -0.495582 333 0.736548 0.676386 0.000000
-14.252163 -13.062961 -0.489657 343 0.736548 0.676386 0.000000
-14.252316 -13.063104 -0.483725 351 0.736548 0.676386 0.000000
-14.253507 -13.064194 -0.477824 353 0.736548 0.676386 0.000000
-14.253391 -13.064095 -0.471875 323 0.736548 0.676386 0.000000
-14.253070 -13.063791 -0.465928 331 0.736548 0.676386 0.000000
-14.253590 -13.064280 -0.460003 353 0.736548 0.676386 0.000000
-14.252247 -13.063040 -0.454015 317 0.736548 0.676386 0.000000
-14.252340 -13.063135 -0.448084 331 0.736548 0.676386 0.000000
-14.255023 -13.065592 -0.442219 345 0.736548 0.676386 0.000000
-14.255280 -13.065829 -0.436287 365 0.736548 0.676386 0.000000
-14.254345 -13.064981 -0.430325 333 0.736548 0.676386 0.000000
-14.255359 -13.065906 -0.424406 331 0.736548 0.676386 0.000000
-14.256800 -13.067224 -0.418512 321 0.736548 0.676386 0.000000
-14.256782 -13.067215 -0.412562 337 0.736548 0.676386 0.000000
-14.255037 -13.065615 -0.406578 339 0.736548 0.676386 0.000000
-14.252267 -13.063075 -0.400564 359 0.736548 0.676386 0.000000
-14.253860 -13.064542 -0.394669 367 0.736548 0.676386 0.000000
-14.254923 -13.065516 -0.388749 333 0.736548 0.676386 0.000000
-14.253757 -13.064445 -0.382779 329 0.736548 0.676386 0.000000
-14.254764 -13.065376 -0.376870 333 0.736548 0.676386 0.000000
-14.255267 -13.065837 -0.370935 331 0.736548 0.676386 0.000000
-14.254165 -13.064830 -0.364975 311 0.736548 0.676386 0.000000
-14.253647 -13.064356 -0.359020 327 0.736548 0.676386 0.000000
-14.254536 -13.065180 -0.353101 343 0.736548 0.676386 0.000000
-14.253851 -13.064546 -0.347148 349 0.736548 0.676386 0.000000
-14.253974 -13.064663 -0.341206 341 0.736548 0.676386 0.000000
-14.252975 -13.063751 -0.335245 357 0.736548 0.676386 0.000000
-14.252670 -13.063476 -0.329298 357 0.736548 0.676386 0.000000
-14.253116 -13.063877 -0.323374 315 0.736548 0.676386 0.000000
-14.254314 -13.064989 -0.317463 357 0.736548 0.676386 0.000000
-14.255298 -13.065886 -0.311543 371 0.736548 0.676386 0.000000
-14.253104 -13.063874 -0.305554 345 0.736548 0.676386 0.000000
-14.255827 -13.057800 -0.679789 279 0.736548 0.676386 0.000000
-14.258185 -13.059959 -0.673957 317 0.736548 0.676386 0.000000
-14.258286 -13.060058 -0.668016 333 0.736548 0.676386 0.000000
-14.258059 -13.059842 -0.662058 327 0.736548 0.676386 0.000000
-14.258948 -13.060668 -0.656160 297 0.736548 0.676386 0.000000
-14.261093 -13.062627 -0.650310 319 0.736548 0.676386 0.000000
-14.259033 -13.060735 -0.644269 319 0.736548 0.676386 0.000000
-14.259061 -13.060763 -0.638328 303 0.736548 0.676386 0.000000
-14.260015 -13.061639 -0.632429 299 0.736548 0.676386 0.000000
-14.257874 -13.059683 -0.626389 285 0.736548 0.676386 0.000000
-14.256457 -13.058383 -0.620382 309 0.736548 0.676386 0.000000
-14.256864 -13.058754 -0.614458 341 0.736548 0.676386 0.000000
-14.256937 -13.058819 -0.608517 339 0.736548 0.676386 0.000000
-14.256919 -13.058811 -0.602577 331 0.736548 0.676386 0.000000
-14.258391 -13.060154 -0.596693 345 0.736548 0.676386 0.000000
-14.258908 -13.060628 -0.590769 323 0.736548 0.676386 0.000000
-14.257150 -13.059015 -0.584755 331 0.736548 0.676386 0.000000
-14.257701 -13.059528 -0.578839 359 0.736548 0.676386 0.000000
-14.257292 -13.059155 -0.572873 349 0.736548 0.676386 0.000000
-14.255747 -13.057740 -0.566877 333 0.736548 0.676386 0.000000
-14.257435 -13.059282 -0.561002 347 0.736548 0.676386 0.000000
-14.257295 -13.059151 -0.555053 351 0.736548 0.676386 0.000000
-14.256556 -13.058474 -0.549079 339 0.736548 0.676386 0.000000
-14.257263 -13.059125 -0.543163 307 0.736548 0.676386 0.000000
-14.256895 -13.058784 -0.537206 341 0.736548 0.676386 0.000000
-14.255832 -13.057808 -0.531226 301 0.736548 0.676386 0.000000
-14.254754 -13.056833 -0.525246 327 0.736548 0.676386 0.000000
-14.255951 -13.057929 -0.519354 341 0.736548 0.676386 0.000000
-14.257581 -13.059412 -0.513469 329 0.736548 0.676386 0.000000
-14.256882 -13.058780 -0.507505 349 0.736548 0.676386 0.000000
-14.257368 -13.059228 -0.501581 337 0.736548 0.676386 0.000000
-14.257475 -13.059320 -0.495640 313 0.736548 0.676386 0.000000
-14.257747 -13.059571 -0.489707 355 0.736548 0.676386 0.000000
-14.260066 -13.061697 -0.483845 337 0.736548 0.676386 0.000000
-14.259628 -13.061300 -0.477889 327 0.736548 0.676386 0.000000
-14.259418 -13.061099 -0.471941 329 0.736548 0.676386 0.000000
-14.257841 -13.059658 -0.465945 323 0.736548 0.676386 0.000000
-14.255355 -13.057385 -0.459928 315 0.736548 0.676386 0.000000
-14.256480 -13.058411 -0.454018 335 0.736548 0.676386 0.000000
-14.256042 -13.058015 -0.448072 311 0.736548 0.676386 0.000000
-14.255058 -13.057115 -0.442101 319 0.736548 0.676386 0.000000
-14.258121 -13.059915 -0.436252 357 0.736548 0.676386 0.000000
-14.258480 -13.060248 -0.430319 349 0.736548 0.676386 0.000000
-14.257819 -13.059648 -0.424365 345 0.736548 0.676386 0.000000
-14.258889 -13.060616 -0.418455 329 0.736548 0.676386 0.000000
-14.258657 -13.060410 -0.412507 347 0.736548 0.676386 0.000000
-14.257498 -13.059343 -0.406527 349 0.736548 0.676386 0.000000
-14.257804 -13.059634 -0.400594 365 0.736548 0.676386 0.000000
-14.259087 -13.060800 -0.394692 361 0.736548 0.676386 0.000000
-14.259216 -13.060923 -0.388761 347 0.736548 0.676386 0.000000
-14.261028 -13.062578 -0.382864 329 0.736548 0.676386 0.000000
-14.259927 -13.061570 -0.376894 335 0.736548 0.676386 0.000000
-14.258864 -13.060608 -0.370924 359 0.736548 0.676386 0.000000
-14.259547 -13.061227 -0.365007 319 0.736548 0.676386 0.000000
-14.258761 -13.060513 -0.359044 313 0.736548 0.676386 0.000000
-14.258631 -13.060388 -0.353095 321 0.736548 0.676386 0.000000
-14.256057 -13.058032 -0.347099 315 0.736548 0.676386 0.000000
-14.256835 -13.058739 -0.341182 319 0.736548 0.676386 0.000000
-14.259550 -13.061235 -0.335306 347 0.736548 0.676386 0.000000
-14.259515 -13.061200 -0.329357 353 0.736548 0.676386 0.000000
-14.258673 -13.060427 -0.323404 349 0.736548 0.676386 0.000000
-14.256851 -13.058764 -0.317421 323 0.736548 0.676386 0.000000
