786
-8.498812 -7.449974 -0.500475 493 0.741553 0.670894 0.000000
-8.499906 -7.450942 -0.497065 527 0.741553 0.670894 0.000000
-8.500899 -7.451808 -0.493646 537 0.741553 0.670894 0.000000
-8.500408 -7.451374 -0.490140 507 0.741553 0.670894 0.000000
-8.500625 -7.451562 -0.486668 513 0.741553 0.670894 0.000000
-8.500955 -7.451850 -0.483215 537 0.741553 0.670894 0.000000
-8.498755 -7.449930 -0.479615 511 0.741553 0.670894 0.000000
-8.498577 -7.449776 -0.476126 501 0.741553 0.670894 0.000000
-8.499413 -7.450506 -0.472699 493 0.741553 0.670894 0.000000
-8.499019 -7.450160 -0.469192 517 0.741553 0.670894 0.000000
-8.499290 -7.450390 -0.465730 517 0.741553 0.670894 0.000000
-8.500109 -7.451108 -0.462302 505 0.741553 0.670894 0.000000
-8.500261 -7.451247 -0.458831 507 0.741553 0.670894 0.000000
-8.500977 -7.451872 -0.455394 509 0.741553 0.670894 0.000000
-8.500637 -7.451568 -0.451897 517 0.741553 0.670894 0.000000
-8.499691 -7.450743 -0.448376 525 0.741553 0.670894 0.000000
-8.499346 -7.450447 -0.444879 521 0.741553 0.670894 0.000000
-8.499450 -7.450536 -0.441408 491 0.741553 0.670894 0.000000
-8.500043 -7.451054 -0.437962 515 0.741553 0.670894 0.000000
-8.499755 -7.450801 -0.434475 529 0.741553 0.670894 0.000000
-8.498701 -7.449868 -0.430944 509 0.741553 0.670894 0.000000
-8.498740 -7.449907 -0.427474 519 0.741553 0.670894 0.000000
-8.500539 -7.451484 -0.424077 527 0.741553 0.670894 0.000000
-8.501301 -7.452145 -0.420640 533 0.741553 0.670894 0.000000
-8.500345 -7.451313 -0.417119 489 0.741553 0.670894 0.000000
-8.499888 -7.450918 -0.413623 525 0.741553 0.670894 0.000000
-8.499374 -7.450465 -0.410128 491 0.741553 0.670894 0.000000
-8.500129 -7.451119 -0.406681 517 0.741553 0.670894 0.000000
-8.500216 -7.451196 -0.403210 517 0.741553 0.670894 0.000000
-8.500144 -7.451136 -0.399730 523 0.741553 0.670894 0.000000
-8.500617 -7.451549 -0.396276 521 0.741553 0.670894 0.000000
-8.500103 -7.451096 -0.392781 503 0.741553 0.670894 0.000000
-8.499195 -7.450301 -0.389269 511 0.741553 0.670894 0.000000
-8.498568 -7.449749 -0.385764 499 0.741553 0.670894 0.000000
-8.497942 -7.449197 -0.382260 485 0.741553 0.670894 0.000000
-8.498519 -7.449703 -0.378815 479 0.741553 0.670894 0.000000
-8.499643 -7.450695 -0.375384 505 0.741553 0.670894 0.000000
-8.499619 -7.450671 -0.371904 505 0.741553 0.670894 0.000000
-8.499209 -7.450313 -0.368418 497 0.741553 0.670894 0.000000
-8.499345 -7.450426 -0.364947 493 0.741553 0.670894 0.000000
-8.499320 -7.450403 -0.361477 483 0.741553 0.670894 0.000000
-8.499121 -7.450231 -0.357989 479 0.741553 0.670894 0.000000
-8.499697 -7.450737 -0.354543 497 0.741553 0.670894 0.000000
-8.499610 -7.450665 -0.351064 499 0.741553 0.670894 0.000000
-8.498694 -7.449864 -0.347552 481 0.741553 0.670894 0.000000
-8.499151 -7.450264 -0.344098 487 0.741553 0.670894 0.000000
-8.499888 -7.450906 -0.340651 471 0.741553 0.670894 0.000000
-8.499912 -7.450920 -0.337181 505 0.741553 0.670894 0.000000
-8.500104 -7.451090 -0.333709 497 0.741553 0.670894 0.000000
-8.500779 -7.451684 -0.330263 483 0.741553 0.670894 0.000000
-8.500579 -7.451511 -0.326775 515 0.741553 0.670894 0.000000
-8.499543 -7.450604 -0.323264 507 0.741553 0.670894 0.000000
-8.499895 -7.450912 -0.319811 507 0.741553 0.670894 0.000000
-8.499798 -7.450819 -0.316332 523 0.741553 0.670894 0.000000
-8.499644 -7.450684 -0.312853 487 0.741553 0.670894 0.000000
-8.500039 -7.451035 -0.309389 483 0.741553 0.670894 0.000000
-8.500175 -7.451149 -0.305918 495 0.741553 0.670894 0.000000
-8.501380 -7.447757 -0.695398 441 0.741553 0.670894 0.000000
-8.502038 -7.448325 -0.691972 479 0.741553 0.670894 0.000000
-8.501099 -7.447505 -0.688410 475 0.741553 0.670894 0.000000
-8.501804 -7.448123 -0.684984 491 0.741553 0.670894 0.000000
-8.502447 -7.448692 -0.681548 491 0.741553 0.670894 0.000000
-8.501997 -7.448288 -0.678032 471 0.741553 0.670894 0.000000
-8.501498 -7.447848 -0.674507 479 0.741553 0.670894 0.000000
-8.501482 -7.447845 -0.671027 457 0.741553 0.670894 0.000000
-8.502678 -7.448892 -0.667636 471 0.741553 0.670894 0.000000
-8.502340 -7.448588 -0.664129 497 0.741553 0.670894 0.000000
-8.502428 -7.448664 -0.660648 505 0.741553 0.670894 0.000000
-8.502805 -7.448989 -0.657194 485 0.741553 0.670894 0.000000
-8.501905 -7.448201 -0.653642 461 0.741553 0.670894 0.000000
-8.502154 -7.448428 -0.650180 475 0.741553 0.670894 0.000000
-8.502852 -7.449039 -0.646753 469 0.741553 0.670894 0.000000
-8.502121 -7.448394 -0.643210 461 0.741553 0.670894 0.000000
-8.502652 -7.448863 -0.639775 485 0.741553 0.670894 0.000000
-8.502192 -7.448453 -0.636259 479 0.741553 0.670894 0.000000
-8.501573 -7.447907 -0.632725 469 0.741553 0.670894 0.000000
-8.501597 -7.447934 -0.629245 481 0.741553 0.670894 0.000000
-8.502618 -7.448833 -0.625845 495 0.741553 0.670894 0.000000
-8.502648 -7.448853 -0.622365 465 0.741553 0.670894 0.000000
-8.502247 -7.448500 -0.618848 483 0.741553 0.670894 0.000000
-8.502711 -7.448905 -0.615404 483 0.741553 0.670894 0.000000
-8.502302 -7.448547 -0.611898 487 0.741553 0.670894 0.000000
-8.501613 -7.447946 -0.608364 495 0.741553 0.670894 0.000000
-8.501755 -7.448065 -0.604893 507 0.741553 0.670894 0.000000
-8.501178 -7.447563 -0.601368 485 0.741553 0.670894 0.000000
-8.501362 -7.447727 -0.597906 493 0.741553 0.670894 0.000000
-8.501225 -7.447604 -0.594417 493 0.741553 0.670894 0.000000
-8.501577 -7.447910 -0.590964 529 0.741553 0.670894 0.000000
-8.502975 -7.449139 -0.587571 501 0.741553 0.670894 0.000000
-8.502508 -7.448723 -0.584065 521 0.741553 0.670894 0.000000
-8.500605 -7.447057 -0.580453 517 0.741553 0.670894 0.000000
-8.500620 -7.447064 -0.576972 527 0.741553 0.670894 0.000000
-8.502348 -7.448586 -0.573606 523 0.741553 0.670894 0.000000
-8.502419 -7.448650 -0.570136 489 0.741553 0.670894 0.000000
-8.502112 -7.448370 -0.566638 513 0.741553 0.670894 0.000000
-8.502184 -7.448435 -0.563158 513 0.741553 0.670894 0.000000
-8.502474 -7.448692 -0.559695 511 0.741553 0.670894 0.000000
-8.502874 -7.449036 -0.556241 529 0.741553 0.670894 0.000000
-8.501741 -7.448041 -0.552692 499 0.741553 0.670894 0.000000
-8.501140 -7.447522 -0.549177 501 0.741553 0.670894 0.000000
-8.501379 -7.447728 -0.545715 509 0.741553 0.670894 0.000000
-8.501717 -7.448023 -0.542251 491 0.741553 0.670894 0.000000
-8.501902 -7.448187 -0.538790 531 0.741553 0.670894 0.000000
-8.502182 -7.448438 -0.535327 527 0.741553 0.670894 0.000000
-8.502407 -7.448633 -0.531865 519 0.741553 0.670894 0.000000
-8.501764 -7.448068 -0.528341 495 0.741553 0.670894 0.000000
-8.501717 -7.448027 -0.524861 477 0.741553 0.670894 0.000000
-8.502388 -7.448606 -0.521425 481 0.741553 0.670894 0.000000
-8.502726 -7.448901 -0.517962 529 0.741553 0.670894 0.000000
-8.502019 -7.448287 -0.514448 513 0.741553 0.670894 0.000000
-8.502131 -7.448382 -0.510977 489 0.741553 0.670894 0.000000
-8.502852 -7.449011 -0.507540 493 0.741553 0.670894 0.000000
-8.502846 -7.449015 -0.504060 515 0.741553 0.670894 0.000000
-8.502195 -7.448444 -0.500546 511 0.741553 0.670894 0.000000
-8.502145 -7.448388 -0.497067 509 0.741553 0.670894 0.000000
-8.501976 -7.448241 -0.493578 533 0.741553 0.670894 0.000000
-8.502363 -7.448586 -0.490124 525 0.741553 0.670894 0.000000
-8.502529 -7.448724 -0.486653 555 0.741553 0.670894 0.000000
-8.501372 -7.447711 -0.483113 539 0.741553 0.670894 0.000000
-8.501597 -7.447906 -0.479651 533 0.741553 0.670894 0.000000
-8.501702 -7.448009 -0.476180 525 0.741553 0.670894 0.000000
-8.501476 -7.447804 -0.472682 503 0.741553 0.670894 0.000000
-8.501919 -7.448193 -0.469238 521 0.741553 0.670894 0.000000
-8.502569 -7.448768 -0.465792 501 0.741553 0.670894 0.000000
-8.502841 -7.448999 -0.462329 503 0.741553 0.670894 0.000000
-8.502615 -7.448795 -0.458841 505 0.741553 0.670894 0.000000
-8.502439 -7.448641 -0.455353 521 0.741553 0.670894 0.000000
-8.501323 -7.447673 -0.451823 519 0.741553 0.670894 0.000000
-8.500711 -7.447133 -0.448308 509 0.741553 0.670894 0.000000
-8.500486 -7.446929 -0.444820 501 0.741553 0.670894 0.000000
-8.500864 -7.447268 -0.441367 495 0.741553 0.670894 0.000000
-8.502165 -7.448409 -0.437955 501 0.741553 0.670894 0.000000
-8.502212 -7.448441 -0.434484 519 0.741553 0.670894 0.000000
-8.501537 -7.447852 -0.430971 519 0.741553 0.670894 0.000000
-8.501963 -7.448227 -0.427517 531 0.741553 0.670894 0.000000
-8.502724 -7.448888 -0.424080 525 0.741553 0.670894 0.000000
-8.503150 -7.449264 -0.420626 553 0.741553 0.670894 0.000000
-8.503133 -7.449246 -0.417146 521 0.741553 0.670894 0.000000
-8.502178 -7.448415 -0.413624 549 0.741553 0.670894 0.000000
-8.501495 -7.447820 -0.410120 529 0.741553 0.670894 0.000000
-8.502580 -7.448768 -0.406690 511 0.741553 0.670894 0.000000
-8.502891 -7.449030 -0.403238 523 0.741553 0.670894 0.000000
-8.502643 -7.448821 -0.399750 539 0.741553 0.670894 0.000000
-8.501751 -7.448039 -0.396228 489 0.741553 0.670894 0.000000
-8.501678 -7.447965 -0.392748 477 0.741553 0.670894 0.000000
-8.501316 -7.447656 -0.389262 501 0.741553 0.670894 0.000000
-8.501573 -7.447875 -0.385799 509 0.741553 0.670894 0.000000
-8.501275 -7.447616 -0.382312 491 0.741553 0.670894 0.000000
-8.501074 -7.447444 -0.378824 509 0.741553 0.670894 0.000000
-8.501612 -7.447906 -0.375379 521 0.741553 0.670894 0.000000
-8.502456 -7.448655 -0.371941 521 0.741553 0.670894 0.000000
-8.502535 -7.448726 -0.368460 489 0.741553 0.670894 0.000000
-8.502118 -7.448361 -0.364974 493 0.741553 0.670894 0.000000
-8.502976 -7.449109 -0.361536 493 0.741553 0.670894 0.000000
-8.503112 -7.449223 -0.358065 493 0.741553 0.670894 0.000000
-8.502308 -7.448521 -0.354562 511 0.741553 0.670894 0.000000
-8.501729 -7.448006 -0.351057 497 0.741553 0.670894 0.000000
-8.501536 -7.447840 -0.347579 485 0.741553 0.670894 0.000000
-8.501554 -7.447861 -0.344108 487 0.741553 0.670894 0.000000
-8.502516 -7.448703 -0.340670 485 0.741553 0.670894 0.000000
-8.502588 -7.448767 -0.337199 503 0.741553 0.670894 0.000000
-8.502050 -7.448297 -0.333704 517 0.741553 0.670894 0.000000
-8.503060 -7.449175 -0.330264 513 0.741553 0.670894 0.000000
-8.504128 -7.450110 -0.326835 509 0.741553 0.670894 0.000000
-8.503372 -7.449446 -0.323331 499 0.741553 0.670894 0.000000
-8.501637 -7.447923 -0.319787 513 0.741553 0.670894 0.000000
-8.501367 -7.447696 -0.316309 503 0.741553 0.670894 0.000000
-8.501606 -7.447903 -0.312847 479 0.741553 0.670894 0.000000
-8.501405 -7.447717 -0.309359 461 0.741553 0.670894 0.000000
-8.502296 -7.448503 -0.305921 489 0.741553 0.670894 0.000000
-8.504012 -7.445646 -0.695436 455 0.741553 0.670894 0.000000
-8.504221 -7.445828 -0.691974 503 0.741553 0.670894 0.000000
-8.503001 -7.444767 -0.688395 487 0.741553 0.670894 0.000000
-8.504206 -7.445820 -0.685004 487 0.741553 0.670894 0.000000
-8.505297 -7.446774 -0.681604 507 0.741553 0.670894 0.000000
-8.504188 -7.445798 -0.678034 485 0.741553 0.670894 0.000000
-8.503689 -7.445358 -0.674508 469 0.741553 0.670894 0.000000
-8.504155 -7.445778 -0.671064 465 0.741553 0.670894 0.000000
-8.504917 -7.446439 -0.667637 483 0.741553 0.670894 0.000000
-8.504354 -7.445950 -0.664112 487 0.741553 0.670894 0.000000
-8.505334 -7.446804 -0.660703 513 0.741553 0.670894 0.000000
-8.504539 -7.446108 -0.657160 475 0.741553 0.670894 0.000000
-8.503535 -7.445227 -0.653609 479 0.741553 0.670894 0.000000
-8.503798 -7.445452 -0.650147 467 0.741553 0.670894 0.000000
-8.504266 -7.445871 -0.646692 463 0.741553 0.670894 0.000000
-8.504249 -7.445855 -0.643212 493 0.741553 0.670894 0.000000
-8.503735 -7.445402 -0.639697 469 0.741553 0.670894 0.000000
-8.504166 -7.445770 -0.636243 467 0.741553 0.670894 0.000000
-8.503919 -7.445561 -0.632745 487 0.741553 0.670894 0.000000
-8.503789 -7.445445 -0.629246 479 0.741553 0.670894 0.000000
-8.503651 -7.445321 -0.625757 485 0.741553 0.670894 0.000000
-8.503354 -7.445062 -0.622260 473 0.741553 0.670894 0.000000
-8.502623 -7.444416 -0.618727 465 0.741553 0.670894 0.000000
-8.503082 -7.444830 -0.615272 469 0.741553 0.670894 0.000000
-8.504766 -7.446293 -0.611917 481 0.741553 0.670894 0.000000
-8.504846 -7.446363 -0.608436 513 0.741553 0.670894 0.000000
-8.504050 -7.445669 -0.604903 505 0.741553 0.670894 0.000000
-8.503801 -7.445446 -0.601406 485 0.741553 0.670894 0.000000
-8.504155 -7.445766 -0.597952 473 0.741553 0.670894 0.000000
-8.505118 -7.446608 -0.594533 483 0.741553 0.670894 0.000000
-8.505255 -7.446722 -0.591062 491 0.741553 0.670894 0.000000
-8.504338 -7.445920 -0.587520 509 0.741553 0.670894 0.000000
-8.504081 -7.445692 -0.584023 521 0.741553 0.670894 0.000000
-8.503664 -7.445327 -0.580516 497 0.741553 0.670894 0.000000
-8.503631 -7.445297 -0.577037 501 0.741553 0.670894 0.000000
-8.504201 -7.445797 -0.573591 531 0.741553 0.670894 0.000000
-8.505269 -7.446733 -0.570181 547 0.741553 0.670894 0.000000
-8.505893 -7.447275 -0.566736 551 0.741553 0.670894 0.000000
-8.505301 -7.446762 -0.563221 515 0.741553 0.670894 0.000000
-8.504489 -7.446054 -0.559688 501 0.741553 0.670894 0.000000
-8.503572 -7.445240 -0.556157 517 0.741553 0.670894 0.000000
-8.503589 -7.445261 -0.552676 541 0.741553 0.670894 0.000000
-8.504761 -7.446290 -0.549266 521 0.741553 0.670894 0.000000
-8.504935 -7.446434 -0.545804 487 0.741553 0.670894 0.000000
-8.503572 -7.445248 -0.542236 479 0.741553 0.670894 0.000000
-8.503201 -7.444920 -0.538740 483 0.741553 0.670894 0.000000
-8.504639 -7.446179 -0.535346 527 0.741553 0.670894 0.000000
-8.505311 -7.446758 -0.531910 543 0.741553 0.670894 0.000000
-8.504549 -7.446102 -0.528387 521 0.741553 0.670894 0.000000
-8.504669 -7.446202 -0.524916 521 0.741553 0.670894 0.000000
-8.505118 -7.446597 -0.521462 485 0.741553 0.670894 0.000000
-8.504301 -7.445883 -0.517929 499 0.741553 0.670894 0.000000
-8.504035 -7.445649 -0.514441 525 0.741553 0.670894 0.000000
-8.504427 -7.445986 -0.510988 517 0.741553 0.670894 0.000000
-8.504539 -7.446080 -0.507517 505 0.741553 0.670894 0.000000
-8.504105 -7.445703 -0.504010 515 0.741553 0.670894 0.000000
-8.503719 -7.445363 -0.500514 499 0.741553 0.670894 0.000000
-8.504875 -7.446379 -0.497093 519 0.741553 0.670894 0.000000
-8.505099 -7.446574 -0.493631 519 0.741553 0.670894 0.000000
-8.504273 -7.445854 -0.490109 515 0.741553 0.670894 0.000000
-8.504489 -7.446043 -0.486647 511 0.741553 0.670894 0.000000
-8.504272 -7.445845 -0.483149 505 0.741553 0.670894 0.000000
-8.504271 -7.445840 -0.479679 517 0.741553 0.670894 0.000000
-8.504608 -7.446135 -0.476215 497 0.741553 0.670894 0.000000
-8.504094 -7.445695 -0.472710 495 0.741553 0.670894 0.000000
-8.503821 -7.445455 -0.469222 493 0.741553 0.670894 0.000000
-8.504366 -7.445922 -0.465777 529 0.741553 0.670894 0.000000
-8.504415 -7.445968 -0.462297 513 0.741553 0.670894 0.000000
-8.504020 -7.445621 -0.458800 519 0.741553 0.670894 0.000000
-8.504734 -7.446245 -0.455364 515 0.741553 0.670894 0.000000
-8.505272 -7.446720 -0.451909 523 0.741553 0.670894 0.000000
-8.504326 -7.445895 -0.448387 523 0.741553 0.670894 0.000000
-8.503216 -7.444919 -0.444857 531 0.741553 0.670894 0.000000
-8.503215 -7.444914 -0.441377 515 0.741553 0.670894 0.000000
-8.503641 -7.445290 -0.437923 511 0.741553 0.670894 0.000000
-8.503407 -7.445080 -0.434435 495 0.741553 0.670894 0.000000
-8.503119 -7.444827 -0.430948 495 0.741553 0.670894 0.000000
-8.502773 -7.444530 -0.427451 491 0.741553 0.670894 0.000000
-8.503584 -7.445242 -0.424023 503 0.741553 0.670894 0.000000
-8.504170 -7.445754 -0.420568 551 0.741553 0.670894 0.000000
-8.504265 -7.445837 -0.417097 549 0.741553 0.670894 0.000000
-8.504144 -7.445726 -0.413618 515 0.741553 0.670894 0.000000
-8.503412 -7.445080 -0.410105 495 0.741553 0.670894 0.000000
-8.503830 -7.445449 -0.406651 483 0.741553 0.670894 0.000000
-8.504801 -7.446298 -0.403222 489 0.741553 0.670894 0.000000
-8.505001 -7.446474 -0.399760 493 0.741553 0.670894 0.000000
-8.503437 -7.445107 -0.396214 493 0.741553 0.670894 0.000000
-8.503474 -7.445133 -0.392734 505 0.741553 0.670894 0.000000
-8.504446 -7.445981 -0.389305 505 0.741553 0.670894 0.000000
-8.504253 -7.445815 -0.385816 509 0.741553 0.670894 0.000000
-8.503956 -7.445555 -0.382329 481 0.741553 0.670894 0.000000
-8.504309 -7.445862 -0.378876 471 0.741553 0.670894 0.000000
-8.504894 -7.446374 -0.375420 507 0.741553 0.670894 0.000000
-8.505032 -7.446502 -0.371959 499 0.741553 0.670894 0.000000
-8.504718 -7.446230 -0.368462 493 0.741553 0.670894 0.000000
-8.503323 -7.445006 -0.364934 509 0.741553 0.670894 0.000000
-8.503787 -7.445413 -0.361480 511 0.741553 0.670894 0.000000
-8.505688 -7.447069 -0.358083 503 0.741553 0.670894 0.000000
-8.505655 -7.447039 -0.354603 511 0.741553 0.670894 0.000000
-8.504299 -7.445860 -0.351075 501 0.741553 0.670894 0.000000
-8.503824 -7.445437 -0.347579 485 0.741553 0.670894 0.000000
-8.504466 -7.445993 -0.344134 503 0.741553 0.670894 0.000000
-8.504642 -7.446150 -0.340662 481 0.741553 0.670894 0.000000
-8.504660 -7.446172 -0.337192 497 0.741553 0.670894 0.000000
-8.504241 -7.445807 -0.333705 505 0.741553 0.670894 0.000000
-8.504152 -7.445721 -0.330226 485 0.741553 0.670894 0.000000
-8.504504 -7.446027 -0.326763 489 0.741553 0.670894 0.000000
-8.505075 -7.446527 -0.323308 493 0.741553 0.670894 0.000000
-8.504809 -7.446292 -0.319830 503 0.741553 0.670894 0.000000
-8.503781 -7.445392 -0.316319 481 0.741553 0.670894 0.000000
-8.504392 -7.445936 -0.312863 491 0.741553 0.670894 0.000000
-8.504960 -7.446422 -0.309408 509 0.741553 0.670894 0.000000
-8.503652 -7.445280 -0.305890 497 0.741553 0.670894 0.000000
-8.505966 -7.442858 -0.695420 461 0.741553 0.670894 0.000000
-8.507114 -7.443870 -0.692029 469 0.741553 0.670894 0.000000
-8.506665 -7.443480 -0.688504 463 0.741553 0.670894 0.000000
-8.505669 -7.442604 -0.684942 463 0.741553 0.670894 0.000000
-8.506648 -7.443458 -0.681534 477 0.741553 0.670894 0.000000
-8.506807 -7.443590 -0.678062 475 0.741553 0.670894 0.000000
-8.506398 -7.443244 -0.674556 467 0.741553 0.670894 0.000000
-8.506992 -7.443762 -0.671110 499 0.741553 0.670894 0.000000
-8.507641 -7.444324 -0.667684 483 0.741553 0.670894 0.000000
-8.506637 -7.443441 -0.664123 475 0.741553 0.670894 0.000000
-8.506243 -7.443094 -0.660607 461 0.741553 0.670894 0.000000
-8.505840 -7.442741 -0.657090 443 0.741553 0.670894 0.000000
-8.505383 -7.442345 -0.653574 449 0.741553 0.670894 0.000000
-8.505801 -7.442715 -0.650130 465 0.741553 0.670894 0.000000
-8.505511 -7.442462 -0.646623 451 0.741553 0.670894 0.000000
-8.506433 -7.443259 -0.643215 463 0.741553 0.670894 0.000000
-8.506571 -7.443386 -0.639743 463 0.741553 0.670894 0.000000
-8.506554 -7.443369 -0.636253 471 0.741553 0.670894 0.000000
-8.507028 -7.443782 -0.632809 495 0.741553 0.670894 0.000000
-8.507831 -7.444487 -0.629382 493 0.741553 0.670894 0.000000
-8.507533 -7.444227 -0.625884 483 0.741553 0.670894 0.000000
-8.505308 -7.442275 -0.622244 473 0.741553 0.670894 0.000000
-8.505178 -7.442157 -0.618746 521 0.741553 0.670894 0.000000
-8.506191 -7.443050 -0.615336 489 0.741553 0.670894 0.000000
-8.506832 -7.443605 -0.611900 503 0.741553 0.670894 0.000000
-8.507072 -7.443812 -0.608438 529 0.741553 0.670894 0.000000
-8.507273 -7.443989 -0.604976 509 0.741553 0.670894 0.000000
-8.507135 -7.443866 -0.601477 501 0.741553 0.670894 0.000000
-8.507103 -7.443836 -0.597998 497 0.741553 0.670894 0.000000
-8.506790 -7.443564 -0.594500 501 0.741553 0.670894 0.000000
-8.506492 -7.443305 -0.590993 505 0.741553 0.670894 0.000000
-8.506012 -7.442891 -0.587487 501 0.741553 0.670894 0.000000
-8.505209 -7.442190 -0.583954 501 0.741553 0.670894 0.000000
-8.504797 -7.441817 -0.580438 467 0.741553 0.670894 0.000000
-8.505810 -7.442709 -0.577029 453 0.741553 0.670894 0.000000
-8.507100 -7.443830 -0.573637 503 0.741553 0.670894 0.000000
-8.508047 -7.444660 -0.570218 527 0.741553 0.670894 0.000000
-8.508232 -7.444824 -0.566747 509 0.741553 0.670894 0.000000
-8.507919 -7.444552 -0.563249 509 0.741553 0.670894 0.000000
-8.507548 -7.444223 -0.559743 509 0.741553 0.670894 0.000000
-8.506192 -7.443044 -0.556175 529 0.741553 0.670894 0.000000
-8.505324 -7.442280 -0.552643 497 0.741553 0.670894 0.000000
-8.506167 -7.443016 -0.549215 505 0.741553 0.670894 0.000000
-8.506400 -7.443217 -0.545753 521 0.741553 0.670894 0.000000
-8.505308 -7.442267 -0.542212 511 0.741553 0.670894 0.000000
-8.505267 -7.442232 -0.538723 499 0.741553 0.670894 0.000000
-8.506599 -7.443397 -0.535331 537 0.741553 0.670894 0.000000
-8.507539 -7.444221 -0.531912 517 0.741553 0.670894 0.000000
-8.507555 -7.444228 -0.528432 505 0.741553 0.670894 0.000000
-8.507505 -7.444187 -0.524952 509 0.741553 0.670894 0.000000
-8.506525 -7.443323 -0.521411 515 0.741553 0.670894 0.000000
-8.506205 -7.443045 -0.517914 519 0.741553 0.670894 0.000000
-8.507416 -7.444105 -0.514513 533 0.741553 0.670894 0.000000
-8.507368 -7.444063 -0.511023 529 0.741553 0.670894 0.000000
-8.506549 -7.443350 -0.507500 501 0.741553 0.670894 0.000000
-8.506331 -7.443152 -0.504012 519 0.741553 0.670894 0.000000
-8.506338 -7.443153 -0.500532 525 0.741553 0.670894 0.000000
-8.505729 -7.442627 -0.497018 541 0.741553 0.670894 0.000000
-8.505296 -7.442250 -0.493522 511 0.741553 0.670894 0.000000
-8.505839 -7.442717 -0.490077 527 0.741553 0.670894 0.000000
-8.505623 -7.442533 -0.486588 499 0.741553 0.670894 0.000000
-8.506506 -7.443299 -0.483150 503 0.741553 0.670894 0.000000
-8.506449 -7.443252 -0.479671 489 0.741553 0.670894 0.000000
-8.506497 -7.443297 -0.476200 501 0.741553 0.670894 0.000000
-8.507275 -7.443971 -0.472763 509 0.741553 0.670894 0.000000
-8.507147 -7.443868 -0.469284 509 0.741553 0.670894 0.000000
-8.506817 -7.443570 -0.465787 521 0.741553 0.670894 0.000000
-8.506376 -7.443187 -0.462291 497 0.741553 0.670894 0.000000
-8.507529 -7.444189 -0.458870 521 0.741553 0.670894 0.000000
-8.507131 -7.443851 -0.455374 513 0.741553 0.670894 0.000000
-8.505796 -7.442675 -0.451826 489 0.741553 0.670894 0.000000
-8.505241 -7.442192 -0.448321 517 0.741553 0.670894 0.000000
-8.505010 -7.441995 -0.444833 537 0.741553 0.670894 0.000000
-8.504831 -7.441828 -0.441355 521 0.741553 0.670894 0.000000
-8.505433 -7.442353 -0.437899 519 0.741553 0.670894 0.000000
-8.506025 -7.442871 -0.434454 511 0.741553 0.670894 0.000000
-8.505737 -7.442617 -0.430966 489 0.741553 0.670894 0.000000
-8.505224 -7.442179 -0.427471 495 0.741553 0.670894 0.000000
-8.506091 -7.442933 -0.424033 529 0.741553 0.670894 0.000000
-8.507070 -7.443787 -0.420604 525 0.741553 0.670894 0.000000
-8.507591 -7.444250 -0.417159 525 0.741553 0.670894 0.000000
-8.507800 -7.444433 -0.413687 521 0.741553 0.670894 0.000000
-8.507517 -7.444171 -0.410199 523 0.741553 0.670894 0.000000
-8.506940 -7.443669 -0.406695 509 0.741553 0.670894 0.000000
-8.506754 -7.443510 -0.403216 513 0.741553 0.670894 0.000000
-8.507010 -7.443729 -0.399744 465 0.741553 0.670894 0.000000
-8.506763 -7.443521 -0.396266 485 0.741553 0.670894 0.000000
-8.506529 -7.443310 -0.392778 521 0.741553 0.670894 0.000000
-8.506665 -7.443437 -0.389307 509 0.741553 0.670894 0.000000
-8.506368 -7.443164 -0.385819 477 0.741553 0.670894 0.000000
-8.505846 -7.442719 -0.382324 479 0.741553 0.670894 0.000000
-8.506488 -7.443274 -0.378878 481 0.741553 0.670894 0.000000
-8.507513 -7.444165 -0.375439 483 0.741553 0.670894 0.000000
-8.507748 -7.444380 -0.371976 499 0.741553 0.670894 0.000000
-8.506952 -7.443686 -0.368464 475 0.741553 0.670894 0.000000
-8.505933 -7.442791 -0.364953 489 0.741553 0.670894 0.000000
-8.506012 -7.442861 -0.361482 473 0.741553 0.670894 0.000000
-8.507474 -7.444139 -0.358069 497 0.741553 0.670894 0.000000
-8.508099 -7.444681 -0.354613 505 0.741553 0.670894 0.000000
-8.507255 -7.443935 -0.351110 515 0.741553 0.670894 0.000000
-8.506452 -7.443235 -0.347598 515 0.741553 0.670894 0.000000
-8.506685 -7.443449 -0.344135 511 0.741553 0.670894 0.000000
-8.507255 -7.443935 -0.340680 503 0.741553 0.670894 0.000000
-8.506613 -7.443384 -0.337186 505 0.741553 0.670894 0.000000
-8.506579 -7.443356 -0.333706 505 0.741553 0.670894 0.000000
-8.506427 -7.443220 -0.330227 495 0.741553 0.670894 0.000000
-8.506499 -7.443284 -0.326757 521 0.741553 0.670894 0.000000
-8.507188 -7.443876 -0.323310 509 0.741553 0.670894 0.000000
-8.506980 -7.443698 -0.319832 493 0.741553 0.670894 0.000000
-8.506835 -7.443569 -0.316343 499 0.741553 0.670894 0.000000
-8.506618 -7.443385 -0.312865 499 0.741553 0.670894 0.000000
-8.505758 -7.442627 -0.309363 489 0.741553 0.670894 0.000000
-8.505717 -7.442592 -0.305893 485 0.741553 0.670894 0.000000
-8.507759 -7.439935 -0.695386 455 0.741553 0.670894 0.000000
-8.508458 -7.440547 -0.691959 457 0.741553 0.670894 0.000000
-8.508009 -7.440157 -0.688443 473 0.741553 0.670894 0.000000
-8.509155 -7.441154 -0.685043 487 0.741553 0.670894 0.000000
-8.510640 -7.442450 -0.681679 497 0.741553 0.670894 0.000000
-8.509965 -7.441861 -0.678145 485 0.741553 0.670894 0.000000
-8.509241 -7.441220 -0.674602 473 0.741553 0.670894 0.000000
-8.509387 -7.441354 -0.671130 489 0.741553 0.670894 0.000000
-8.509096 -7.441100 -0.667623 479 0.741553 0.670894 0.000000
-8.508486 -7.440560 -0.664099 455 0.741553 0.670894 0.000000
-8.508632 -7.440694 -0.660627 481 0.741553 0.670894 0.000000
-8.508831 -7.440870 -0.657155 461 0.741553 0.670894 0.000000
-8.509040 -7.441051 -0.653683 459 0.741553 0.670894 0.000000
-8.508638 -7.440699 -0.650177 447 0.741553 0.670894 0.000000
-8.509446 -7.441396 -0.646749 471 0.741553 0.670894 0.000000
-8.509487 -7.441436 -0.643269 477 0.741553 0.670894 0.000000
-8.509358 -7.441319 -0.639780 485 0.741553 0.670894 0.000000
-8.510161 -7.442025 -0.636363 451 0.741553 0.670894 0.000000
-8.509688 -7.441617 -0.632847 475 0.741553 0.670894 0.000000
-8.508516 -7.440592 -0.629277 459 0.741553 0.670894 0.000000
-8.508667 -7.440717 -0.625806 481 0.741553 0.670894 0.000000
-8.509517 -7.441460 -0.622388 473 0.741553 0.670894 0.000000
-8.509661 -7.441579 -0.618907 467 0.741553 0.670894 0.000000
-8.509798 -7.441707 -0.615435 473 0.741553 0.670894 0.000000
-8.509444 -7.441390 -0.611929 499 0.741553 0.670894 0.000000
-8.508585 -7.440646 -0.608396 489 0.741553 0.670894 0.000000
-8.508448 -7.440523 -0.604897 475 0.741553 0.670894 0.000000
-8.508976 -7.440978 -0.601453 497 0.741553 0.670894 0.000000
-8.509378 -7.441336 -0.598009 527 0.741553 0.670894 0.000000
-8.508752 -7.440784 -0.594485 523 0.741553 0.670894 0.000000
-8.507835 -7.439982 -0.590943 489 0.741553 0.670894 0.000000
-8.507362 -7.439574 -0.587427 491 0.741553 0.670894 0.000000
-8.508100 -7.440217 -0.584000 495 0.741553 0.670894 0.000000
-8.508783 -7.440816 -0.580564 475 0.741553 0.670894 0.000000
-8.509577 -7.441502 -0.577137 499 0.741553 0.670894 0.000000
-8.509593 -7.441523 -0.573656 497 0.741553 0.670894 0.000000
-8.509126 -7.441107 -0.570141 477 0.741553 0.670894 0.000000
-8.508693 -7.440730 -0.566634 477 0.741553 0.670894 0.000000
-8.508170 -7.440271 -0.563119 501 0.741553 0.670894 0.000000
-8.508066 -7.440187 -0.559640 511 0.741553 0.670894 0.000000
-8.508362 -7.440436 -0.556177 493 0.741553 0.670894 0.000000
-8.508049 -7.440164 -0.552680 471 0.741553 0.670894 0.000000
-8.507895 -7.440029 -0.549191 493 0.741553 0.670894 0.000000
-8.508241 -7.440330 -0.545728 485 0.741553 0.670894 0.000000
-8.508635 -7.440681 -0.542274 491 0.741553 0.670894 0.000000
-8.508320 -7.440395 -0.538777 497 0.741553 0.670894 0.000000
-8.507229 -7.439445 -0.535237 529 0.741553 0.670894 0.000000
-8.507011 -7.439261 -0.531739 503 0.741553 0.670894 0.000000
-8.506809 -7.439075 -0.528251 491 0.741553 0.670894 0.000000
-8.507806 -7.439956 -0.524831 533 0.741553 0.670894 0.000000
-8.509474 -7.441407 -0.521456 533 0.741553 0.670894 0.000000
-8.508865 -7.440880 -0.517942 509 0.741553 0.670894 0.000000
-8.508164 -7.440259 -0.514418 477 0.741553 0.670894 0.000000
-8.508221 -7.440311 -0.510947 513 0.741553 0.670894 0.000000
-8.508887 -7.440898 -0.507511 505 0.741553 0.670894 0.000000
-8.509553 -7.441472 -0.504065 503 0.741553 0.670894 0.000000
-8.509559 -7.441473 -0.500595 529 0.741553 0.670894 0.000000
-8.509280 -7.441240 -0.497097 525 0.741553 0.670894 0.000000
-8.507522 -7.439699 -0.493523 545 0.741553 0.670894 0.000000
-8.507633 -7.439793 -0.490052 529 0.741553 0.670894 0.000000
-8.508669 -7.440704 -0.486633 513 0.741553 0.670894 0.000000
-8.507905 -7.440033 -0.483110 497 0.741553 0.670894 0.000000
-8.507960 -7.440072 -0.479639 513 0.741553 0.670894 0.000000
-8.508451 -7.440510 -0.476184 513 0.741553 0.670894 0.000000
-8.509934 -7.441806 -0.472791 507 0.741553 0.670894 0.000000
-8.510704 -7.442472 -0.469354 505 0.741553 0.670894 0.000000
-8.510087 -7.441941 -0.465839 529 0.741553 0.670894 0.000000
-8.509757 -7.441643 -0.462352 511 0.741553 0.670894 0.000000
-8.509637 -7.441546 -0.458863 523 0.741553 0.670894 0.000000
-8.509131 -7.441100 -0.455358 547 0.741553 0.670894 0.000000
-8.509130 -7.441095 -0.451888 555 0.741553 0.670894 0.000000
-8.508849 -7.440848 -0.448390 547 0.741553 0.670894 0.000000
-8.508454 -7.440501 -0.444894 521 0.741553 0.670894 0.000000
-8.508600 -7.440634 -0.441432 531 0.741553 0.670894 0.000000
-8.508759 -7.440765 -0.437961 529 0.741553 0.670894 0.000000
-8.509248 -7.441191 -0.434506 507 0.741553 0.670894 0.000000
-8.508727 -7.440746 -0.431011 519 0.741553 0.670894 0.000000
-8.508060 -7.440163 -0.427497 513 0.741553 0.670894 0.000000
-8.508430 -7.440482 -0.424044 507 0.741553 0.670894 0.000000
-8.508685 -7.440700 -0.420581 497 0.741553 0.670894 0.000000
-8.508557 -7.440597 -0.417092 493 0.741553 0.670894 0.000000
-8.508380 -7.440431 -0.413614 499 0.741553 0.670894 0.000000
-8.508797 -7.440800 -0.410160 519 0.741553 0.670894 0.000000
-8.508950 -7.440939 -0.406688 519 0.741553 0.670894 0.000000
-8.509310 -7.441252 -0.403225 515 0.741553 0.670894 0.000000
-8.508804 -7.440806 -0.399730 497 0.741553 0.670894 0.000000
-8.508450 -7.440489 -0.396243 535 0.741553 0.670894 0.000000
-8.508482 -7.440523 -0.392762 511 0.741553 0.670894 0.000000
-8.508787 -7.440793 -0.389299 483 0.741553 0.670894 0.000000
-8.509099 -7.441055 -0.385837 489 0.741553 0.670894 0.000000
-8.508416 -7.440459 -0.382333 479 0.741553 0.670894 0.000000
-8.508658 -7.440680 -0.378870 511 0.741553 0.670894 0.000000
-8.509347 -7.441272 -0.375424 527 0.741553 0.670894 0.000000
-8.508448 -7.440484 -0.371912 499 0.741553 0.670894 0.000000
-8.508744 -7.440747 -0.368449 493 0.741553 0.670894 0.000000
-8.509427 -7.441347 -0.365003 489 0.741553 0.670894 0.000000
-8.510069 -7.441902 -0.361557 505 0.741553 0.670894 0.000000
-8.509979 -7.441830 -0.358078 505 0.741553 0.670894 0.000000
-8.508855 -7.440842 -0.354558 525 0.741553 0.670894 0.000000
-8.508367 -7.440422 -0.351062 517 0.741553 0.670894 0.000000
-8.508229 -7.440298 -0.347584 527 0.741553 0.670894 0.000000
-8.508646 -7.440654 -0.344130 533 0.741553 0.670894 0.000000
-8.508997 -7.440960 -0.340666 509 0.741553 0.670894 0.000000
-8.508840 -7.440833 -0.337188 543 0.741553 0.670894 0.000000
-8.509359 -7.441282 -0.333733 527 0.741553 0.670894 0.000000
-8.509495 -7.441396 -0.330262 521 0.741553 0.670894 0.000000
-8.510056 -7.441889 -0.326807 517 0.741553 0.670894 0.000000
-8.509686 -7.441561 -0.323320 539 0.741553 0.670894 0.000000
-8.508611 -7.440623 -0.319810 503 0.741553 0.670894 0.000000
-8.509830 -7.441689 -0.316378 513 0.741553 0.670894 0.000000
-8.510338 -7.442140 -0.312924 529 0.741553 0.670894 0.000000
-8.509148 -7.441089 -0.309404 501 0.741553 0.670894 0.000000
-8.508224 -7.440283 -0.305903 485 0.741553 0.670894 0.000000
-8.510905 -7.438108 -0.695460 477 0.741553 0.670894 0.000000
-8.511667 -7.438769 -0.692033 455 0.741553 0.670894 0.000000
-8.511939 -7.439000 -0.688570 473 0.741553 0.670894 0.000000
-8.510718 -7.437938 -0.684991 453 0.741553 0.670894 0.000000
-8.510492 -7.437734 -0.681493 473 0.741553 0.670894 0.000000
-8.511024 -7.438203 -0.678048 459 0.741553 0.670894 0.000000
-8.510516 -7.437757 -0.674523 473 0.741553 0.670894 0.000000
-8.510782 -7.437996 -0.671060 481 0.741553 0.670894 0.000000
-8.511318 -7.438457 -0.667625 467 0.741553 0.670894 0.000000
-8.511078 -7.438254 -0.664117 461 0.741553 0.670894 0.000000
-8.511567 -7.438679 -0.660673 461 0.741553 0.670894 0.000000
-8.511551 -7.438663 -0.657193 493 0.741553 0.670894 0.000000
-8.511806 -7.438881 -0.653731 503 0.741553 0.670894 0.000000
-8.511187 -7.438335 -0.650196 461 0.741553 0.670894 0.000000
-8.510723 -7.437933 -0.646680 463 0.741553 0.670894 0.000000
-8.512078 -7.439117 -0.643298 485 0.741553 0.670894 0.000000
-8.512616 -7.439592 -0.639853 479 0.741553 0.670894 0.000000
-8.511772 -7.438846 -0.636311 463 0.741553 0.670894 0.000000
-8.511090 -7.438251 -0.632777 449 0.741553 0.670894 0.000000
-8.510960 -7.438134 -0.629288 465 0.741553 0.670894 0.000000
-8.510873 -7.438062 -0.625798 463 0.741553 0.670894 0.000000
-8.511346 -7.438475 -0.622354 475 0.741553 0.670894 0.000000
-8.512149 -7.439180 -0.618927 469 0.741553 0.670894 0.000000
-8.511794 -7.438863 -0.615420 495 0.741553 0.670894 0.000000
-8.510774 -7.437969 -0.611869 501 0.741553 0.670894 0.000000
-8.510639 -7.437860 -0.608380 511 0.741553 0.670894 0.000000
-8.510283 -7.437544 -0.604873 509 0.741553 0.670894 0.000000
-8.511849 -7.438915 -0.601499 509 0.741553 0.670894 0.000000
-8.512595 -7.439564 -0.598072 489 0.741553 0.670894 0.000000
-8.511350 -7.438470 -0.594503 495 0.741553 0.670894 0.000000
-8.510989 -7.438161 -0.590997 511 0.741553 0.670894 0.000000
-8.510795 -7.437982 -0.587508 497 0.741553 0.670894 0.000000
-8.510644 -7.437860 -0.584020 503 0.741553 0.670894 0.000000
-8.510449 -7.437680 -0.580521 495 0.741553 0.670894 0.000000
-8.510473 -7.437708 -0.577041 493 0.741553 0.670894 0.000000
-8.510539 -7.437766 -0.573570 501 0.741553 0.670894 0.000000
-8.510674 -7.437879 -0.570099 491 0.741553 0.670894 0.000000
-8.510529 -7.437750 -0.566610 465 0.741553 0.670894 0.000000
-8.511203 -7.438344 -0.563174 499 0.741553 0.670894 0.000000
-8.511170 -7.438314 -0.559694 507 0.741553 0.670894 0.000000
-8.510583 -7.437793 -0.556180 497 0.741553 0.670894 0.000000
-8.510430 -7.437657 -0.552691 497 0.741553 0.670894 0.000000
-8.511217 -7.438351 -0.549254 477 0.741553 0.670894 0.000000
-8.511450 -7.438551 -0.545791 493 0.741553 0.670894 0.000000
-8.510301 -7.437544 -0.542242 477 0.741553 0.670894 0.000000
-8.510261 -7.437510 -0.538762 473 0.741553 0.670894 0.000000
-8.510654 -7.437861 -0.535308 493 0.741553 0.670894 0.000000
-8.511440 -7.438540 -0.531881 509 0.741553 0.670894 0.000000
-8.512162 -7.439170 -0.528444 499 0.741553 0.670894 0.000000
-8.512171 -7.439186 -0.524964 503 0.741553 0.670894 0.000000
-8.511189 -7.438321 -0.521423 499 0.741553 0.670894 0.000000
-8.510974 -7.438138 -0.517935 521 0.741553 0.670894 0.000000
-8.511919 -7.438953 -0.514516 503 0.741553 0.670894 0.000000
-8.512530 -7.439497 -0.511071 521 0.741553 0.670894 0.000000
-8.511599 -7.438684 -0.507539 523 0.741553 0.670894 0.000000
-8.510715 -7.437909 -0.504007 515 0.741553 0.670894 0.000000
-8.511115 -7.438251 -0.500553 499 0.741553 0.670894 0.000000
-8.511108 -7.438254 -0.497073 525 0.741553 0.670894 0.000000
-8.509686 -7.436998 -0.493516 523 0.741553 0.670894 0.000000
-8.509854 -7.437150 -0.490045 509 0.741553 0.670894 0.000000
-8.511611 -7.438682 -0.486669 489 0.741553 0.670894 0.000000
-8.511500 -7.438591 -0.483189 463 0.741553 0.670894 0.000000
-8.510399 -7.437622 -0.479649 493 0.741553 0.670894 0.000000
-8.510391 -7.437624 -0.476169 501 0.741553 0.670894 0.000000
-8.511378 -7.438485 -0.472750 503 0.741553 0.670894 0.000000
-8.511482 -7.438573 -0.469279 503 0.741553 0.670894 0.000000
-8.510775 -7.437946 -0.465766 493 0.741553 0.670894 0.000000
-8.510542 -7.437749 -0.462268 501 0.741553 0.670894 0.000000
-8.510976 -7.438131 -0.458814 521 0.741553 0.670894 0.000000
-8.511408 -7.438499 -0.455360 559 0.741553 0.670894 0.000000
-8.511569 -7.438645 -0.451898 555 0.741553 0.670894 0.000000
-8.512050 -7.439063 -0.448444 509 0.741553 0.670894 0.000000
-8.511872 -7.438910 -0.444955 495 0.741553 0.670894 0.000000
-8.511039 -7.438184 -0.441443 497 0.741553 0.670894 0.000000
-8.511470 -7.438552 -0.437989 517 0.741553 0.670894 0.000000
-8.510691 -7.437869 -0.434466 513 0.741553 0.670894 0.000000
-8.511004 -7.438145 -0.431013 525 0.741553 0.670894 0.000000
-8.511542 -7.438621 -0.427558 517 0.741553 0.670894 0.000000
-8.510363 -7.437590 -0.424028 511 0.741553 0.670894 0.000000
-8.509911 -7.437186 -0.420532 503 0.741553 0.670894 0.000000
-8.510224 -7.437462 -0.417070 507 0.741553 0.670894 0.000000
-8.510376 -7.437601 -0.413598 499 0.741553 0.670894 0.000000
-8.510633 -7.437821 -0.410136 521 0.741553 0.670894 0.000000
-8.510898 -7.438046 -0.406673 515 0.741553 0.670894 0.000000
-8.511257 -7.438358 -0.403220 497 0.741553 0.670894 0.000000
-8.511620 -7.438685 -0.399756 507 0.741553 0.670894 0.000000
-8.510335 -7.437561 -0.396218 497 0.741553 0.670894 0.000000
-8.510696 -7.437874 -0.392765 495 0.741553 0.670894 0.000000
-8.512106 -7.439100 -0.389352 485 0.741553 0.670894 0.000000
-8.512139 -7.439134 -0.385881 499 0.741553 0.670894 0.000000
-8.511561 -7.438632 -0.382377 501 0.741553 0.670894 0.000000
-8.511040 -7.438173 -0.378881 511 0.741553 0.670894 0.000000
-8.511513 -7.438586 -0.375427 519 0.741553 0.670894 0.000000
-8.511648 -7.438699 -0.371956 507 0.741553 0.670894 0.000000
-8.511351 -7.438440 -0.368468 505 0.741553 0.670894 0.000000
-8.511206 -7.438311 -0.364989 501 0.741553 0.670894 0.000000
-8.511679 -7.438723 -0.361535 503 0.741553 0.670894 0.000000
-8.512306 -7.439280 -0.358079 503 0.741553 0.670894 0.000000
-8.511839 -7.438864 -0.354583 517 0.741553 0.670894 0.000000
-8.511205 -7.438305 -0.351089 511 0.741553 0.670894 0.000000
-8.511501 -7.438569 -0.347626 489 0.741553 0.670894 0.000000
-8.511510 -7.438584 -0.344156 493 0.741553 0.670894 0.000000
-8.512361 -7.439326 -0.340708 517 0.741553 0.670894 0.000000
-8.512985 -7.439869 -0.337263 525 0.741553 0.670894 0.000000
-8.511020 -7.438155 -0.333710 507 0.741553 0.670894 0.000000
-8.511098 -7.438211 -0.330240 499 0.741553 0.670894 0.000000
-8.512495 -7.439439 -0.326817 495 0.741553 0.670894 0.000000
-8.512455 -7.439404 -0.323337 523 0.741553 0.670894 0.000000
-8.511812 -7.438839 -0.319843 525 0.741553 0.670894 0.000000
-8.511450 -7.438517 -0.316356 485 0.741553 0.670894 0.000000
-8.512334 -7.439298 -0.312918 519 0.741553 0.670894 0.000000
-8.512637 -7.439553 -0.309445 515 0.741553 0.670894 0.000000
-8.511755 -7.438791 -0.305943 513 0.741553 0.670894 0.000000
-8.514045 -7.436174 -0.695524 469 0.741553 0.670894 0.000000
-8.514316 -7.436406 -0.692062 485 0.741553 0.670894 0.000000
-8.512984 -7.435245 -0.688474 475 0.741553 0.670894 0.000000
-8.512205 -7.434562 -0.684931 443 0.741553 0.670894 0.000000
-8.512308 -7.434650 -0.681450 473 0.741553 0.670894 0.000000
-8.512412 -7.434739 -0.677979 459 0.741553 0.670894 0.000000
-8.512501 -7.434815 -0.674498 461 0.741553 0.670894 0.000000
-8.512604 -7.434904 -0.671027 457 0.741553 0.670894 0.000000
-8.513744 -7.435909 -0.667636 465 0.741553 0.670894 0.000000
-8.513951 -7.436077 -0.664164 467 0.741553 0.670894 0.000000
-8.513991 -7.436117 -0.660684 449 0.741553 0.670894 0.000000
-8.514795 -7.436822 -0.657266 465 0.741553 0.670894 0.000000
-8.514849 -7.436861 -0.653786 465 0.741553 0.670894 0.000000
-8.514665 -7.436701 -0.650287 463 0.741553 0.670894 0.000000
-8.513316 -7.435527 -0.646700 465 0.741553 0.670894 0.000000
-8.513186 -7.435410 -0.643211 445 0.741553 0.670894 0.000000
-8.513772 -7.435922 -0.639775 451 0.741553 0.670894 0.000000
-8.513474 -7.435663 -0.636268 453 0.741553 0.670894 0.000000
-8.514727 -7.436753 -0.632877 447 0.741553 0.670894 0.000000
-8.515753 -7.437644 -0.629467 465 0.741553 0.670894 0.000000
-8.514847 -7.436863 -0.625925 477 0.741553 0.670894 0.000000
-8.514823 -7.436841 -0.622435 473 0.741553 0.670894 0.000000
-8.513803 -7.435946 -0.618885 477 0.741553 0.670894 0.000000
-8.513337 -7.435544 -0.615369 499 0.741553 0.670894 0.000000
-8.513754 -7.435899 -0.611915 493 0.741553 0.670894 0.000000
-8.513392 -7.435591 -0.608408 497 0.741553 0.670894 0.000000
-8.514411 -7.436476 -0.604999 509 0.741553 0.670894 0.000000
-8.515767 -7.437659 -0.601616 503 0.741553 0.670894 0.000000
-8.514684 -7.436717 -0.598056 509 0.741553 0.670894 0.000000
-8.513174 -7.435392 -0.594470 495 0.741553 0.670894 0.000000
-8.512425 -7.434734 -0.590946 505 0.741553 0.670894 0.000000
-8.512891 -7.435140 -0.587492 503 0.741553 0.670894 0.000000
-8.513293 -7.435498 -0.584038 513 0.741553 0.670894 0.000000
-8.512988 -7.435232 -0.580541 499 0.741553 0.670894 0.000000
-8.513831 -7.435968 -0.577113 477 0.741553 0.670894 0.000000
-8.514238 -7.436317 -0.573660 477 0.741553 0.670894 0.000000
-8.514809 -7.436818 -0.570224 497 0.741553 0.670894 0.000000
-8.514985 -7.436975 -0.566753 501 0.741553 0.670894 0.000000
-8.513966 -7.436080 -0.563202 499 0.741553 0.670894 0.000000
-8.512383 -7.434701 -0.559626 479 0.741553 0.670894 0.000000
-8.512511 -7.434809 -0.556155 491 0.741553 0.670894 0.000000
-8.513619 -7.435775 -0.552745 495 0.741553 0.670894 0.000000
-8.513858 -7.435981 -0.549283 469 0.741553 0.670894 0.000000
-8.513546 -7.435710 -0.545785 477 0.741553 0.670894 0.000000
-8.513337 -7.435532 -0.542287 513 0.741553 0.670894 0.000000
-8.512910 -7.435146 -0.538781 475 0.741553 0.670894 0.000000
-8.513359 -7.435541 -0.535337 487 0.741553 0.670894 0.000000
-8.514356 -7.436421 -0.531918 501 0.741553 0.670894 0.000000
-8.514869 -7.436864 -0.528463 485 0.741553 0.670894 0.000000
-8.514924 -7.436916 -0.524992 507 0.741553 0.670894 0.000000
-8.514387 -7.436445 -0.521477 503 0.741553 0.670894 0.000000
-8.513623 -7.435774 -0.517954 503 0.741553 0.670894 0.000000
-8.513960 -7.436069 -0.514501 523 0.741553 0.670894 0.000000
-8.514409 -7.436462 -0.511047 537 0.741553 0.670894 0.000000
-8.513421 -7.435593 -0.507506 529 0.741553 0.670894 0.000000
-8.513260 -7.435452 -0.504027 495 0.741553 0.670894 0.000000
-8.514753 -7.436754 -0.500633 485 0.741553 0.670894 0.000000
-8.514423 -7.436470 -0.497136 509 0.741553 0.670894 0.000000
-8.513764 -7.435893 -0.493622 539 0.741553 0.670894 0.000000
-8.513211 -7.435410 -0.490107 499 0.741553 0.670894 0.000000
-8.513041 -7.435262 -0.486619 473 0.741553 0.670894 0.000000
-8.513484 -7.435650 -0.483174 513 0.741553 0.670894 0.000000
-8.513048 -7.435259 -0.479668 503 0.741553 0.670894 0.000000
-8.512325 -7.434633 -0.476155 495 0.741553 0.670894 0.000000
-8.512815 -7.435057 -0.472700 503 0.741553 0.670894 0.000000
-8.513860 -7.435975 -0.469281 515 0.741553 0.670894 0.000000
-8.514179 -7.436256 -0.465818 515 0.741553 0.670894 0.000000
-8.514075 -7.436159 -0.462339 537 0.741553 0.670894 0.000000
-8.513400 -7.435569 -0.458825 519 0.741553 0.670894 0.000000
-8.513947 -7.436051 -0.455379 549 0.741553 0.670894 0.000000
-8.515038 -7.437005 -0.451960 547 0.741553 0.670894 0.000000
-8.514363 -7.436415 -0.448446 507 0.741553 0.670894 0.000000
-8.512765 -7.435010 -0.444890 487 0.741553 0.670894 0.000000
-8.512420 -7.434714 -0.441393 513 0.741553 0.670894 0.000000
-8.513783 -7.435904 -0.437991 509 0.741553 0.670894 0.000000
-8.514545 -7.436564 -0.434544 533 0.741553 0.670894 0.000000
-8.514423 -7.436454 -0.431065 515 0.741553 0.670894 0.000000
-8.514297 -7.436351 -0.427586 521 0.741553 0.670894 0.000000
-8.512962 -7.435176 -0.424038 523 0.741553 0.670894 0.000000
-8.512835 -7.435073 -0.420559 515 0.741553 0.670894 0.000000
-8.512986 -7.435199 -0.417087 477 0.741553 0.670894 0.000000
-8.513629 -7.435768 -0.413641 511 0.741553 0.670894 0.000000
-8.513940 -7.436030 -0.410189 505 0.741553 0.670894 0.000000
-8.512930 -7.435155 -0.406668 493 0.741553 0.670894 0.000000
-8.512689 -7.434939 -0.403180 521 0.741553 0.670894 0.000000
-8.513106 -7.435308 -0.399716 495 0.741553 0.670894 0.000000
-8.513425 -7.435576 -0.396263 481 0.741553 0.670894 0.000000
-8.514613 -7.436618 -0.392842 483 0.741553 0.670894 0.000000
-8.515521 -7.437417 -0.389404 465 0.741553 0.670894 0.000000
-8.514956 -7.436913 -0.385899 523 0.741553 0.670894 0.000000
-8.514043 -7.436127 -0.382387 513 0.741553 0.670894 0.000000
-8.514347 -7.436382 -0.378924 521 0.741553 0.670894 0.000000
-8.514266 -7.436316 -0.375445 491 0.741553 0.670894 0.000000
-8.513969 -7.436057 -0.371957 487 0.741553 0.670894 0.000000
-8.513887 -7.435977 -0.368478 501 0.741553 0.670894 0.000000
-8.513520 -7.435663 -0.364991 521 0.741553 0.670894 0.000000
-8.514329 -7.436360 -0.361544 531 0.741553 0.670894 0.000000
-8.514458 -7.436481 -0.358073 503 0.741553 0.670894 0.000000
-8.514040 -7.436117 -0.354586 513 0.741553 0.670894 0.000000
-8.514233 -7.436286 -0.351115 507 0.741553 0.670894 0.000000
-8.514641 -7.436635 -0.347661 501 0.741553 0.670894 0.000000
-8.513887 -7.435985 -0.344158 521 0.741553 0.670894 0.000000
-8.513356 -7.435520 -0.340662 503 0.741553 0.670894 0.000000
-8.512666 -7.434906 -0.337159 483 0.741553 0.670894 0.000000
-8.512360 -7.434640 -0.333671 509 0.741553 0.670894 0.000000
-8.512754 -7.434991 -0.330217 531 0.741553 0.670894 0.000000
-8.513652 -7.435770 -0.326779 507 0.741553 0.670894 0.000000
-8.513892 -7.435976 -0.323307 503 0.741553 0.670894 0.000000
-8.513193 -7.435369 -0.319813 507 0.741553 0.670894 0.000000
-8.513433 -7.435576 -0.316351 529 0.741553 0.670894 0.000000
-8.513716 -7.435827 -0.312878 533 0.741553 0.670894 0.000000
-8.512630 -7.434870 -0.309368 505 0.741553 0.670894 0.000000
-8.512927 -7.435134 -0.305905 481 0.741553 0.670894 0.000000
-8.517520 -7.434526 -0.695616 507 0.741553 0.670894 0.000000
-8.516468 -7.433608 -0.692055 495 0.741553 0.670894 0.000000
-8.516074 -7.433260 -0.688538 459 0.741553 0.670894 0.000000
-8.515787 -7.433021 -0.685031 443 0.741553 0.670894 0.000000
-8.515385 -7.432668 -0.681515 435 0.741553 0.670894 0.000000
-8.515601 -7.432857 -0.678053 421 0.741553 0.670894 0.000000
-8.514765 -7.432117 -0.674500 435 0.741553 0.670894 0.000000
-8.514252 -7.431678 -0.670975 461 0.741553 0.670894 0.000000
-8.514956 -7.432281 -0.667548 489 0.741553 0.670894 0.000000
-8.514836 -7.432185 -0.664059 475 0.741553 0.670894 0.000000
-8.515093 -7.432405 -0.660597 453 0.741553 0.670894 0.000000
-8.516239 -7.433401 -0.657196 441 0.741553 0.670894 0.000000
-8.516272 -7.433435 -0.653716 475 0.741553 0.670894 0.000000
-8.514874 -7.432210 -0.650129 483 0.741553 0.670894 0.000000
-8.515187 -7.432486 -0.646676 485 0.741553 0.670894 0.000000
-8.516062 -7.433247 -0.643258 469 0.741553 0.670894 0.000000
-8.515644 -7.432882 -0.639741 453 0.741553 0.670894 0.000000
-8.515852 -7.433064 -0.636279 457 0.741553 0.670894 0.000000
-8.516710 -7.433813 -0.632851 481 0.741553 0.670894 0.000000
-8.516350 -7.433504 -0.629345 461 0.741553 0.670894 0.000000
-8.515402 -7.432665 -0.625793 453 0.741553 0.670894 0.000000
-8.514719 -7.432069 -0.622269 453 0.741553 0.670894 0.000000
-8.514631 -7.431997 -0.618780 491 0.741553 0.670894 0.000000
-8.514774 -7.432117 -0.615309 489 0.741553 0.670894 0.000000
-8.515022 -7.432329 -0.611846 463 0.741553 0.670894 0.000000
-8.515376 -7.432650 -0.608393 465 0.741553 0.670894 0.000000
-8.515512 -7.432763 -0.604922 477 0.741553 0.670894 0.000000
-8.515881 -7.433082 -0.601458 499 0.741553 0.670894 0.000000
-8.515785 -7.433004 -0.597979 493 0.741553 0.670894 0.000000
-8.514547 -7.431916 -0.594410 501 0.741553 0.670894 0.000000
-8.514627 -7.431986 -0.590939 501 0.741553 0.670894 0.000000
-8.515975 -7.433164 -0.587547 501 0.741553 0.670894 0.000000
-8.516321 -7.433465 -0.584094 503 0.741553 0.670894 0.000000
-8.515805 -7.433012 -0.580579 485 0.741553 0.670894 0.000000
-8.515429 -7.432691 -0.577072 461 0.741553 0.670894 0.000000
-8.516503 -7.433619 -0.573662 483 0.741553 0.670894 0.000000
-8.516793 -7.433877 -0.570199 515 0.741553 0.670894 0.000000
-8.515989 -7.433175 -0.566666 497 0.741553 0.670894 0.000000
-8.515723 -7.432940 -0.563169 485 0.741553 0.670894 0.000000
-8.516244 -7.433389 -0.559724 497 0.741553 0.670894 0.000000
-8.517024 -7.434076 -0.556297 495 0.741553 0.670894 0.000000
-8.516548 -7.433654 -0.552781 463 0.741553 0.670894 0.000000
-8.516671 -7.433769 -0.549310 479 0.741553 0.670894 0.000000
-8.516467 -7.433583 -0.545822 491 0.741553 0.670894 0.000000
-8.514935 -7.432241 -0.542246 501 0.741553 0.670894 0.000000
-8.514893 -7.432206 -0.538766 471 0.741553 0.670894 0.000000
-8.515456 -7.432700 -0.535321 487 0.741553 0.670894 0.000000
-8.517173 -7.434201 -0.531945 523 0.741553 0.670894 0.000000
-8.517735 -7.434695 -0.528500 515 0.741553 0.670894 0.000000
-8.516361 -7.433488 -0.524942 499 0.741553 0.670894 0.000000
-8.515606 -7.432825 -0.521419 513 0.741553 0.670894 0.000000
