774
-0.944683 -0.822553 -0.323626 1249 0.746816 0.665031 0.000000
-0.944600 -0.822476 -0.323187 1251 0.746816 0.665031 0.000000
-0.944726 -0.822586 -0.322815 1253 0.746816 0.665031 0.000000
-0.944701 -0.822566 -0.322396 1251 0.746816 0.665031 0.000000
-0.943966 -0.821922 -0.321732 1239 0.746816 0.665031 0.000000
-0.942742 -0.820864 -0.320913 1223 0.746816 0.665031 0.000000
-0.942338 -0.820514 -0.320357 1211 0.746816 0.665031 0.000000
-0.943227 -0.821275 -0.320259 1221 0.746816 0.665031 0.000000
-0.943459 -0.821479 -0.319927 1225 0.746816 0.665031 0.000000
-0.943312 -0.821353 -0.319468 1227 0.746816 0.665031 0.000000
-0.943342 -0.821375 -0.319068 1225 0.746816 0.665031 0.000000
-0.943518 -0.821536 -0.318716 1219 0.746816 0.665031 0.000000
-0.943758 -0.821746 -0.318384 1221 0.746816 0.665031 0.000000
-0.943338 -0.821383 -0.317838 1217 0.746816 0.665031 0.000000
-0.942821 -0.820934 -0.317253 1211 0.746816 0.665031 0.000000
-0.942310 -0.820476 -0.316667 1201 0.746816 0.665031 0.000000
-0.942542 -0.820680 -0.316335 1205 0.746816 0.665031 0.000000
-0.942831 -0.820940 -0.316032 1217 0.746816 0.665031 0.000000
-0.942530 -0.820670 -0.315515 1221 0.746816 0.665031 0.000000
-0.942762 -0.820873 -0.315183 1221 0.746816 0.665031 0.000000
-0.943324 -0.821370 -0.314968 1219 0.746816 0.665031 0.000000
-0.942750 -0.820863 -0.314363 1209 0.746816 0.665031 0.000000
-0.942169 -0.820364 -0.313768 1205 0.746816 0.665031 0.000000
-0.941981 -0.820194 -0.313290 1201 0.746816 0.665031 0.000000
-0.942431 -0.820590 -0.313036 1203 0.746816 0.665030 0.000000
-0.943257 -0.821303 -0.312899 1207 0.746816 0.665031 0.000000
-0.943544 -0.821549 -0.312586 1213 0.746816 0.665031 0.000000
-0.943076 -0.821150 -0.312030 1207 0.746816 0.665030 0.000000
-0.942502 -0.820644 -0.311425 1205 0.746816 0.665030 0.000000
-0.942791 -0.820904 -0.311113 1209 0.746816 0.665031 0.000000
-0.942756 -0.820864 -0.310693 1219 0.746816 0.665031 0.000000
-0.941692 -0.819942 -0.309933 1219 0.746816 0.665030 0.000000
-0.940966 -0.819305 -0.309289 1211 0.746816 0.665031 0.000000
-0.941512 -0.819789 -0.309064 1207 0.746816 0.665030 0.000000
-0.942072 -0.820272 -0.308839 1211 0.746816 0.665031 0.000000
-0.942304 -0.820475 -0.308507 1209 0.746816 0.665031 0.000000
-0.942872 -0.820964 -0.308282 1205 0.746816 0.665031 0.000000
-0.943041 -0.821119 -0.307940 1211 0.746816 0.665031 0.000000
-0.942684 -0.820805 -0.307414 1217 0.746816 0.665030 0.000000
-0.942811 -0.820915 -0.307042 1223 0.746816 0.665031 0.000000
-0.943043 -0.821119 -0.306710 1223 0.746816 0.665031 0.000000
-0.943548 -0.821558 -0.306466 1227 0.746816 0.665031 0.000000
-0.943457 -0.821475 -0.306037 1231 0.746816 0.665031 0.000000
-0.942666 -0.820789 -0.305364 1231 0.746816 0.665031 0.000000
-0.942946 -0.821030 -0.305051 1233 0.746816 0.665030 0.000000
-0.944047 -0.821992 -0.305001 1239 0.746816 0.665030 0.000000
-0.944229 -0.822145 -0.304649 1243 0.746816 0.665031 0.000000
-0.943914 -0.821876 -0.304142 1239 0.746816 0.665031 0.000000
-0.943453 -0.821469 -0.303587 1227 0.746816 0.665031 0.000000
-0.942550 -0.820684 -0.302885 1217 0.746816 0.665030 0.000000
-0.942082 -0.820285 -0.302329 1207 0.746816 0.665031 0.000000
-0.942201 -0.820389 -0.301968 1215 0.746816 0.665031 0.000000
-0.942922 -0.821008 -0.301791 1221 0.746816 0.665031 0.000000
-0.943587 -0.821584 -0.301595 1223 0.746816 0.665031 0.000000
-0.943554 -0.821557 -0.301176 1219 0.746816 0.665031 0.000000
-0.943512 -0.821525 -0.300756 1219 0.746816 0.665030 0.000000
-0.943092 -0.821163 -0.300220 1217 0.746816 0.665031 0.000000
-0.942791 -0.820892 -0.299712 1213 0.746816 0.665031 0.000000
-0.942742 -0.820853 -0.299293 1211 0.746816 0.665031 0.000000
-0.943037 -0.821106 -0.298980 1219 0.746816 0.665031 0.000000
-0.943213 -0.821267 -0.298629 1217 0.746816 0.665031 0.000000
-0.943548 -0.821550 -0.298336 1217 0.746816 0.665031 0.000000
-0.943779 -0.821754 -0.298003 1221 0.746816 0.665031 0.000000
-0.943746 -0.821727 -0.297584 1227 0.746816 0.665031 0.000000
-0.944062 -0.821555 -0.405976 1191 0.746816 0.665031 0.000000
-0.944478 -0.821913 -0.405732 1199 0.746816 0.665031 0.000000
-0.944355 -0.821805 -0.405253 1199 0.746816 0.665031 0.000000
-0.944129 -0.821618 -0.404735 1195 0.746816 0.665030 0.000000
-0.944335 -0.821789 -0.404393 1193 0.746816 0.665031 0.000000
-0.943794 -0.821320 -0.403738 1191 0.746816 0.665031 0.000000
-0.942987 -0.820622 -0.402965 1187 0.746816 0.665031 0.000000
-0.943193 -0.820793 -0.402633 1183 0.746816 0.665030 0.000000
-0.943441 -0.821009 -0.402311 1189 0.746816 0.665031 0.000000
-0.944164 -0.821642 -0.402195 1189 0.746816 0.665031 0.000000
-0.944588 -0.822007 -0.401951 1187 0.746816 0.665031 0.000000
-0.943878 -0.821396 -0.401227 1187 0.746816 0.665031 0.000000
-0.943232 -0.820834 -0.400533 1183 0.746816 0.665031 0.000000
-0.943327 -0.820919 -0.400142 1177 0.746816 0.665031 0.000000
-0.943841 -0.821365 -0.399937 1177 0.746816 0.665031 0.000000
-0.943942 -0.821443 -0.399557 1183 0.746816 0.665031 0.000000
-0.943658 -0.821198 -0.399009 1191 0.746816 0.665031 0.000000
-0.943432 -0.821011 -0.398491 1189 0.746816 0.665031 0.000000
-0.942994 -0.820622 -0.397885 1183 0.746816 0.665031 0.000000
-0.943145 -0.820750 -0.397524 1183 0.746816 0.665031 0.000000
-0.944086 -0.821577 -0.397495 1187 0.746816 0.665031 0.000000
-0.944436 -0.821872 -0.397222 1191 0.746816 0.665031 0.000000
-0.944531 -0.821958 -0.396841 1185 0.746816 0.665031 0.000000
-0.944095 -0.821583 -0.396235 1179 0.746816 0.665031 0.000000
-0.943336 -0.820921 -0.395492 1175 0.746816 0.665031 0.000000
-0.943431 -0.821007 -0.395111 1173 0.746816 0.665031 0.000000
-0.943414 -0.820992 -0.394681 1181 0.746816 0.665031 0.000000
-0.942920 -0.820561 -0.394056 1183 0.746816 0.665031 0.000000
-0.942490 -0.820178 -0.393450 1181 0.746816 0.665031 0.000000
-0.942787 -0.820445 -0.393147 1187 0.746816 0.665031 0.000000
-0.943469 -0.821033 -0.393011 1195 0.746816 0.665031 0.000000
-0.943506 -0.821062 -0.392600 1197 0.746816 0.665031 0.000000
-0.943328 -0.820911 -0.392112 1193 0.746816 0.665031 0.000000
-0.943366 -0.820940 -0.391702 1193 0.746816 0.665031 0.000000
-0.943565 -0.821119 -0.391360 1183 0.746816 0.665031 0.000000
-0.944665 -0.822068 -0.391400 1177 0.746816 0.665031 0.000000
-0.945291 -0.822613 -0.391234 1179 0.746816 0.665031 0.000000
-0.945315 -0.822644 -0.390824 1187 0.746816 0.665031 0.000000
-0.944780 -0.822168 -0.390179 1195 0.746816 0.665030 0.000000
-0.944336 -0.821787 -0.389573 1197 0.746816 0.665031 0.000000
-0.944060 -0.821548 -0.389035 1197 0.746816 0.665030 0.000000
-0.943882 -0.821398 -0.388537 1201 0.746816 0.665030 0.000000
-0.943870 -0.821375 -0.388117 1203 0.746816 0.665031 0.000000
-0.943902 -0.821412 -0.387707 1197 0.746816 0.665031 0.000000
-0.943884 -0.821398 -0.387277 1195 0.746816 0.665031 0.000000
-0.943188 -0.820785 -0.386563 1195 0.746816 0.665030 0.000000
-0.943115 -0.820728 -0.386124 1199 0.746816 0.665031 0.000000
-0.943683 -0.821217 -0.385929 1203 0.746816 0.665031 0.000000
-0.943771 -0.821296 -0.385548 1195 0.746816 0.665031 0.000000
-0.943382 -0.820958 -0.384971 1187 0.746816 0.665031 0.000000
-0.943364 -0.820944 -0.384541 1185 0.746816 0.665031 0.000000
-0.943667 -0.821202 -0.384239 1183 0.746816 0.665031 0.000000
-0.943489 -0.821052 -0.383750 1189 0.746816 0.665031 0.000000
-0.942891 -0.820526 -0.383086 1203 0.746816 0.665031 0.000000
-0.943138 -0.820742 -0.382763 1211 0.746816 0.665031 0.000000
-0.943386 -0.820958 -0.382441 1207 0.746816 0.665031 0.000000
-0.943473 -0.821037 -0.382060 1203 0.746816 0.665030 0.000000
-0.943510 -0.821066 -0.381650 1205 0.746816 0.665031 0.000000
-0.942849 -0.820492 -0.380966 1207 0.746816 0.665030 0.000000
-0.942678 -0.820347 -0.380477 1205 0.746816 0.665031 0.000000
-0.942506 -0.820188 -0.379989 1201 0.746816 0.665031 0.000000
-0.943550 -0.821095 -0.379990 1203 0.746816 0.665031 0.000000
-0.944273 -0.821728 -0.379863 1193 0.746816 0.665031 0.000000
-0.944094 -0.821577 -0.379365 1189 0.746816 0.665031 0.000000
-0.943964 -0.821463 -0.378896 1183 0.746816 0.665031 0.000000
-0.944009 -0.821498 -0.378495 1189 0.746816 0.665031 0.000000
-0.943773 -0.821290 -0.377978 1195 0.746816 0.665031 0.000000
-0.943224 -0.820816 -0.377342 1197 0.746816 0.665031 0.000000
-0.943102 -0.820708 -0.376874 1205 0.746816 0.665031 0.000000
-0.943028 -0.820651 -0.376424 1205 0.746816 0.665031 0.000000
-0.943066 -0.820679 -0.376014 1199 0.746816 0.665031 0.000000
-0.942620 -0.820284 -0.375418 1191 0.746816 0.665031 0.000000
-0.941588 -0.819386 -0.374587 1187 0.746816 0.665031 0.000000
-0.941620 -0.819423 -0.374187 1183 0.746816 0.665031 0.000000
-0.943147 -0.820753 -0.374373 1187 0.746816 0.665031 0.000000
-0.944343 -0.821789 -0.374432 1199 0.746816 0.665031 0.000000
-0.944228 -0.821687 -0.373963 1211 0.746816 0.665031 0.000000
-0.943567 -0.821113 -0.373289 1213 0.746816 0.665031 0.000000
-0.943275 -0.820863 -0.372752 1207 0.746816 0.665031 0.000000
-0.943103 -0.820704 -0.372264 1201 0.746816 0.665031 0.000000
-0.943511 -0.821056 -0.372010 1197 0.746816 0.665031 0.000000
-0.944339 -0.821783 -0.371922 1197 0.746816 0.665031 0.000000
-0.944272 -0.821718 -0.371473 1201 0.746816 0.665031 0.000000
-0.943505 -0.821050 -0.370750 1195 0.746816 0.665030 0.000000
-0.942627 -0.820297 -0.369988 1187 0.746816 0.665030 0.000000
-0.942182 -0.819902 -0.369392 1185 0.746816 0.665031 0.000000
-0.942479 -0.820168 -0.369089 1195 0.746816 0.665030 0.000000
-0.943039 -0.820651 -0.368894 1203 0.746816 0.665031 0.000000
-0.943077 -0.820680 -0.368494 1203 0.746816 0.665031 0.000000
-0.942689 -0.820342 -0.367927 1205 0.746816 0.665031 0.000000
-0.942936 -0.820558 -0.367605 1209 0.746816 0.665031 0.000000
-0.943281 -0.820861 -0.367322 1213 0.746816 0.665031 0.000000
-0.943213 -0.820796 -0.366872 1207 0.746816 0.665031 0.000000
-0.943461 -0.821012 -0.366550 1199 0.746816 0.665031 0.000000
-0.943540 -0.821085 -0.366169 1203 0.746816 0.665031 0.000000
-0.943304 -0.820877 -0.365662 1203 0.746816 0.665031 0.000000
-0.942748 -0.820397 -0.365027 1209 0.746816 0.665031 0.000000
-0.942946 -0.820562 -0.364685 1207 0.746816 0.665030 0.000000
-0.943556 -0.821095 -0.364509 1215 0.746816 0.665031 0.000000
-0.943643 -0.821175 -0.364118 1213 0.746816 0.665031 0.000000
-0.943833 -0.821334 -0.363777 1209 0.746816 0.665031 0.000000
-0.944025 -0.821507 -0.363435 1209 0.746816 0.665031 0.000000
-0.944063 -0.821535 -0.363035 1205 0.746816 0.665031 0.000000
-0.943561 -0.821098 -0.362419 1201 0.746816 0.665031 0.000000
-0.942997 -0.820611 -0.361794 1191 0.746816 0.665031 0.000000
-0.943076 -0.820684 -0.361403 1185 0.746816 0.665031 0.000000
-0.943434 -0.820986 -0.361120 1193 0.746816 0.665031 0.000000
-0.943409 -0.820965 -0.360700 1199 0.746816 0.665031 0.000000
-0.943440 -0.821002 -0.360300 1197 0.746816 0.665030 0.000000
-0.943155 -0.820743 -0.359763 1199 0.746816 0.665031 0.000000
-0.943339 -0.820910 -0.359421 1213 0.746816 0.665031 0.000000
-0.944327 -0.821774 -0.359382 1217 0.746816 0.665031 0.000000
-0.945064 -0.822405 -0.359246 1223 0.746816 0.665031 0.000000
-0.945577 -0.822851 -0.359021 1225 0.746816 0.665030 0.000000
-0.945223 -0.822551 -0.358474 1227 0.746816 0.665031 0.000000
-0.944504 -0.821920 -0.357791 1227 0.746816 0.665031 0.000000
-0.944107 -0.821576 -0.357224 1223 0.746816 0.665031 0.000000
-0.943921 -0.821419 -0.356736 1215 0.746816 0.665031 0.000000
-0.943798 -0.821312 -0.356267 1205 0.746816 0.665030 0.000000
-0.944198 -0.821658 -0.356003 1207 0.746816 0.665030 0.000000
-0.944388 -0.821817 -0.355662 1209 0.746816 0.665031 0.000000
-0.944202 -0.821660 -0.355173 1209 0.746816 0.665031 0.000000
-0.943596 -0.821129 -0.354529 1207 0.746816 0.665031 0.000000
-0.942709 -0.820355 -0.353787 1203 0.746816 0.665031 0.000000
-0.942691 -0.820341 -0.353357 1199 0.746816 0.665030 0.000000
-0.943091 -0.820687 -0.353093 1207 0.746816 0.665031 0.000000
-0.943499 -0.821039 -0.352830 1211 0.746816 0.665031 0.000000
-0.943523 -0.821070 -0.352429 1219 0.746816 0.665031 0.000000
-0.943544 -0.821086 -0.352019 1219 0.746816 0.665030 0.000000
-0.943629 -0.821151 -0.351638 1217 0.746816 0.665031 0.000000
-0.943766 -0.821282 -0.351277 1215 0.746816 0.665031 0.000000
-0.943586 -0.821117 -0.350789 1213 0.746816 0.665030 0.000000
-0.943552 -0.821090 -0.350369 1209 0.746816 0.665031 0.000000
-0.943687 -0.821206 -0.349998 1207 0.746816 0.665030 0.000000
-0.944144 -0.821609 -0.349754 1209 0.746816 0.665031 0.000000
-0.944544 -0.821956 -0.349490 1213 0.746816 0.665031 0.000000
-0.944952 -0.822308 -0.349226 1211 0.746816 0.665031 0.000000
-0.945087 -0.822424 -0.348865 1219 0.746816 0.665031 0.000000
-0.944152 -0.821614 -0.348104 1221 0.746816 0.665031 0.000000
-0.943538 -0.821076 -0.347459 1217 0.746816 0.665031 0.000000
-0.943883 -0.821380 -0.347176 1205 0.746816 0.665031 0.000000
-0.944500 -0.821919 -0.346990 1197 0.746816 0.665031 0.000000
-0.944586 -0.821985 -0.346600 1193 0.746816 0.665031 0.000000
-0.944182 -0.821634 -0.346043 1197 0.746816 0.665031 0.000000
-0.943987 -0.821471 -0.345555 1197 0.746816 0.665031 0.000000
-0.943976 -0.821449 -0.345135 1197 0.746816 0.665031 0.000000
-0.943508 -0.821050 -0.344549 1205 0.746816 0.665031 0.000000
-0.942951 -0.820570 -0.343934 1209 0.746816 0.665031 0.000000
-0.943078 -0.820680 -0.343573 1207 0.746816 0.665031 0.000000
-0.943591 -0.821126 -0.343338 1201 0.746816 0.665031 0.000000
-0.943991 -0.821472 -0.343075 1195 0.746816 0.665031 0.000000
-0.944118 -0.821582 -0.342714 1207 0.746816 0.665031 0.000000
-0.944043 -0.821511 -0.342264 1221 0.746816 0.665031 0.000000
-0.943912 -0.821397 -0.341806 1227 0.746816 0.665031 0.000000
-0.943718 -0.821234 -0.341327 1221 0.746816 0.665031 0.000000
-0.943321 -0.820890 -0.340761 1207 0.746816 0.665031 0.000000
-0.943133 -0.820719 -0.340283 1203 0.746816 0.665031 0.000000
-0.943317 -0.820886 -0.339941 1201 0.746816 0.665031 0.000000
-0.943500 -0.821039 -0.339589 1205 0.746816 0.665031 0.000000
-0.943096 -0.820688 -0.339033 1211 0.746816 0.665031 0.000000
-0.943070 -0.820668 -0.338613 1223 0.746816 0.665031 0.000000
-0.943735 -0.821244 -0.338437 1229 0.746816 0.665031 0.000000
-0.943878 -0.821367 -0.338076 1235 0.746816 0.665031 0.000000
-0.943410 -0.820967 -0.337500 1231 0.746816 0.665031 0.000000
-0.942691 -0.820337 -0.336826 1229 0.746816 0.665031 0.000000
-0.942931 -0.820546 -0.336494 1219 0.746816 0.665031 0.000000
-0.943113 -0.820699 -0.336153 1209 0.746816 0.665031 0.000000
-0.943087 -0.820679 -0.335733 1205 0.746816 0.665031 0.000000
-0.943109 -0.820695 -0.335323 1203 0.746816 0.665031 0.000000
-0.943133 -0.820726 -0.334922 1207 0.746816 0.665031 0.000000
-0.942735 -0.820368 -0.334366 1211 0.746816 0.665031 0.000000
-0.942806 -0.820435 -0.333985 1223 0.746816 0.665031 0.000000
-0.943521 -0.821062 -0.333829 1229 0.746816 0.665031 0.000000
-0.943711 -0.821221 -0.333487 1227 0.746816 0.665030 0.000000
-0.943685 -0.821200 -0.333057 1225 0.746816 0.665031 0.000000
-0.943547 -0.821080 -0.332599 1225 0.746816 0.665031 0.000000
-0.943513 -0.821054 -0.332179 1225 0.746816 0.665031 0.000000
-0.942947 -0.820553 -0.331564 1221 0.746816 0.665030 0.000000
-0.942543 -0.820203 -0.331008 1217 0.746816 0.665031 0.000000
-0.942992 -0.820600 -0.330764 1213 0.746816 0.665031 0.000000
-0.943392 -0.820946 -0.330490 1211 0.746816 0.665031 0.000000
-0.943519 -0.821056 -0.330119 1217 0.746816 0.665030 0.000000
-0.943444 -0.820985 -0.329679 1219 0.746816 0.665031 0.000000
-0.943515 -0.821052 -0.329299 1215 0.746816 0.665031 0.000000
-0.943754 -0.821262 -0.328967 1215 0.746816 0.665031 0.000000
-0.943727 -0.821227 -0.328547 1219 0.746816 0.665031 0.000000
-0.943315 -0.820871 -0.328001 1213 0.746816 0.665031 0.000000
-0.943659 -0.821175 -0.327708 1215 0.746816 0.665031 0.000000
-0.943465 -0.821012 -0.327229 1215 0.746816 0.665031 0.000000
-0.942899 -0.820511 -0.326624 1215 0.746816 0.665031 0.000000
-0.942760 -0.820391 -0.326156 1221 0.746816 0.665031 0.000000
-0.943210 -0.820788 -0.325912 1223 0.746816 0.665031 0.000000
-0.943834 -0.821319 -0.325716 1219 0.746816 0.665030 0.000000
-0.943960 -0.821429 -0.325345 1219 0.746816 0.665031 0.000000
-0.943871 -0.821360 -0.324906 1223 0.746816 0.665031 0.000000
-0.944216 -0.821663 -0.324612 1231 0.746816 0.665031 0.000000
-0.944616 -0.822010 -0.324339 1237 0.746816 0.665031 0.000000
-0.945121 -0.822449 -0.324104 1245 0.746816 0.665031 0.000000
-0.945247 -0.822559 -0.323733 1251 0.746816 0.665031 0.000000
-0.945228 -0.822531 -0.323313 1257 0.746816 0.665030 0.000000
-0.945299 -0.822598 -0.322933 1261 0.746816 0.665031 0.000000
-0.944992 -0.822336 -0.322415 1259 0.746816 0.665030 0.000000
-0.944426 -0.821835 -0.321810 1249 0.746816 0.665031 0.000000
-0.943418 -0.820956 -0.321060 1227 0.746816 0.665031 0.000000
-0.942958 -0.820563 -0.320494 1219 0.746816 0.665030 0.000000
-0.943406 -0.820946 -0.320230 1223 0.746816 0.665031 0.000000
-0.943799 -0.821300 -0.319956 1229 0.746816 0.665031 0.000000
-0.943346 -0.820899 -0.319390 1229 0.746816 0.665031 0.000000
-0.942661 -0.820307 -0.318756 1225 0.746816 0.665031 0.000000
-0.943061 -0.820653 -0.318483 1223 0.746816 0.665031 0.000000
-0.944000 -0.821465 -0.318384 1221 0.746816 0.665031 0.000000
-0.943917 -0.821388 -0.317945 1219 0.746816 0.665031 0.000000
-0.943651 -0.821170 -0.317457 1211 0.746816 0.665031 0.000000
-0.943407 -0.820956 -0.316960 1209 0.746816 0.665031 0.000000
-0.942938 -0.820543 -0.316394 1209 0.746816 0.665031 0.000000
-0.943395 -0.820946 -0.316140 1219 0.746816 0.665031 0.000000
-0.943633 -0.821142 -0.315807 1227 0.746816 0.665030 0.000000
-0.943158 -0.820737 -0.315242 1221 0.746816 0.665031 0.000000
-0.942914 -0.820523 -0.314754 1219 0.746816 0.665031 0.000000
-0.942718 -0.820346 -0.314276 1215 0.746816 0.665031 0.000000
-0.942685 -0.820320 -0.313856 1209 0.746816 0.665031 0.000000
-0.943239 -0.820810 -0.313631 1205 0.746816 0.665031 0.000000
-0.943316 -0.820869 -0.313250 1197 0.746816 0.665031 0.000000
-0.943233 -0.820792 -0.312811 1201 0.746816 0.665030 0.000000
-0.943191 -0.820760 -0.312391 1209 0.746816 0.665031 0.000000
-0.942506 -0.820167 -0.311758 1205 0.746816 0.665031 0.000000
-0.941877 -0.819618 -0.311143 1207 0.746816 0.665031 0.000000
-0.941304 -0.819125 -0.310548 1207 0.746816 0.665031 0.000000
-0.941269 -0.819085 -0.310129 1213 0.746816 0.665031 0.000000
-0.941453 -0.819252 -0.309777 1217 0.746816 0.665031 0.000000
-0.941572 -0.819356 -0.309416 1215 0.746816 0.665031 0.000000
-0.941488 -0.819278 -0.308977 1217 0.746816 0.665030 0.000000
-0.942041 -0.819755 -0.308752 1217 0.746816 0.665031 0.000000
-0.942764 -0.820388 -0.308585 1213 0.746816 0.665030 0.000000
-0.942835 -0.820455 -0.308195 1221 0.746816 0.665031 0.000000
-0.942849 -0.820465 -0.307794 1229 0.746816 0.665031 0.000000
-0.942976 -0.820575 -0.307433 1227 0.746816 0.665031 0.000000
-0.943053 -0.820634 -0.307043 1215 0.746816 0.665031 0.000000
-0.943397 -0.820938 -0.306749 1207 0.746816 0.665031 0.000000
-0.943516 -0.821042 -0.306378 1215 0.746816 0.665031 0.000000
-0.943538 -0.821058 -0.305978 1225 0.746816 0.665030 0.000000
-0.943336 -0.820889 -0.305510 1231 0.746816 0.665031 0.000000
-0.943413 -0.820948 -0.305129 1239 0.746816 0.665031 0.000000
-0.943427 -0.820958 -0.304719 1239 0.746816 0.665031 0.000000
-0.943176 -0.820739 -0.304231 1235 0.746816 0.665031 0.000000
-0.943078 -0.820663 -0.303792 1231 0.746816 0.665031 0.000000
-0.942932 -0.820537 -0.303344 1229 0.746816 0.665031 0.000000
-0.942463 -0.820124 -0.302788 1225 0.746816 0.665031 0.000000
-0.941890 -0.819632 -0.302193 1215 0.746816 0.665031 0.000000
-0.942611 -0.820251 -0.302016 1221 0.746816 0.665031 0.000000
-0.943591 -0.821108 -0.301928 1227 0.746816 0.665031 0.000000
-0.943886 -0.821360 -0.301615 1225 0.746816 0.665031 0.000000
-0.943362 -0.820904 -0.301040 1223 0.746816 0.665031 0.000000
-0.943376 -0.820914 -0.300640 1219 0.746816 0.665031 0.000000
-0.943278 -0.820839 -0.300200 1217 0.746816 0.665031 0.000000
-0.942977 -0.820569 -0.299693 1215 0.746816 0.665030 0.000000
-0.942613 -0.820249 -0.299176 1211 0.746816 0.665031 0.000000
-0.942516 -0.820174 -0.298737 1211 0.746816 0.665031 0.000000
-0.943350 -0.820892 -0.298600 1225 0.746816 0.665031 0.000000
-0.944057 -0.821513 -0.298413 1229 0.746816 0.665030 0.000000
-0.944512 -0.821902 -0.298159 1233 0.746816 0.665031 0.000000
-0.944471 -0.821870 -0.297740 1235 0.746816 0.665031 0.000000
-0.944149 -0.821129 -0.405907 1185 0.746816 0.665031 0.000000
-0.944195 -0.821164 -0.405507 1191 0.746816 0.665030 0.000000
-0.944184 -0.821156 -0.405067 1191 0.746816 0.665031 0.000000
-0.944175 -0.821148 -0.404647 1191 0.746816 0.665031 0.000000
-0.944632 -0.821551 -0.404413 1193 0.746816 0.665031 0.000000
-0.944838 -0.821722 -0.404081 1195 0.746816 0.665031 0.000000
-0.944612 -0.821535 -0.403563 1195 0.746816 0.665031 0.000000
-0.944287 -0.821246 -0.402996 1193 0.746816 0.665031 0.000000
-0.944222 -0.821194 -0.402536 1187 0.746816 0.665031 0.000000
-0.944525 -0.821453 -0.402244 1189 0.746816 0.665031 0.000000
-0.944507 -0.821439 -0.401814 1187 0.746816 0.665031 0.000000
-0.944505 -0.821437 -0.401384 1187 0.746816 0.665031 0.000000
-0.944277 -0.821235 -0.400866 1183 0.746816 0.665031 0.000000
-0.943421 -0.820486 -0.400074 1177 0.746816 0.665031 0.000000
-0.943355 -0.820435 -0.399624 1173 0.746816 0.665031 0.000000
-0.944189 -0.821154 -0.399557 1181 0.746816 0.665030 0.000000
-0.944437 -0.821370 -0.399234 1193 0.746816 0.665031 0.000000
-0.944267 -0.821225 -0.398746 1195 0.746816 0.665031 0.000000
-0.943726 -0.820757 -0.398091 1197 0.746816 0.665031 0.000000
-0.943282 -0.820376 -0.397485 1199 0.746816 0.665031 0.000000
-0.943593 -0.820641 -0.397192 1195 0.746816 0.665031 0.000000
-0.943470 -0.820533 -0.396713 1191 0.746816 0.665031 0.000000
-0.943515 -0.820567 -0.396303 1187 0.746816 0.665031 0.000000
-0.944286 -0.821237 -0.396206 1179 0.746816 0.665031 0.000000
-0.944381 -0.821323 -0.395825 1173 0.746816 0.665030 0.000000
-0.943840 -0.820854 -0.395180 1171 0.746816 0.665031 0.000000
-0.943242 -0.820329 -0.394505 1177 0.746816 0.665031 0.000000
-0.943016 -0.820142 -0.393987 1179 0.746816 0.665031 0.000000
-0.942788 -0.819940 -0.393469 1181 0.746816 0.665031 0.000000
-0.943035 -0.820156 -0.393147 1185 0.746816 0.665031 0.000000
-0.943338 -0.820415 -0.392854 1187 0.746816 0.665031 0.000000
-0.943489 -0.820543 -0.392493 1187 0.746816 0.665031 0.000000
-0.944051 -0.821040 -0.392308 1189 0.746816 0.665031 0.000000
-0.943887 -0.820887 -0.391809 1183 0.746816 0.665031 0.000000
-0.943122 -0.820233 -0.391076 1169 0.746816 0.665030 0.000000
-0.943425 -0.820492 -0.390783 1159 0.746816 0.665031 0.000000
-0.944372 -0.821311 -0.390745 1167 0.746816 0.665031 0.000000
-0.944885 -0.821757 -0.390540 1177 0.746816 0.665031 0.000000
-0.945182 -0.822023 -0.390247 1191 0.746816 0.665031 0.000000
-0.944423 -0.821361 -0.389504 1199 0.746816 0.665031 0.000000
-0.943617 -0.820663 -0.388752 1203 0.746816 0.665031 0.000000
-0.944241 -0.821195 -0.388586 1209 0.746816 0.665031 0.000000
-0.944167 -0.821137 -0.388137 1207 0.746816 0.665030 0.000000
-0.944262 -0.821223 -0.387756 1205 0.746816 0.665031 0.000000
-0.944292 -0.821245 -0.387345 1199 0.746816 0.665031 0.000000
-0.943959 -0.820950 -0.386788 1193 0.746816 0.665031 0.000000
-0.944159 -0.821129 -0.386447 1195 0.746816 0.665031 0.000000
-0.943666 -0.820698 -0.385821 1197 0.746816 0.665031 0.000000
-0.943487 -0.820547 -0.385323 1193 0.746816 0.665031 0.000000
-0.943686 -0.820712 -0.384991 1193 0.746816 0.665031 0.000000
-0.943297 -0.820374 -0.384404 1191 0.746816 0.665031 0.000000
-0.943329 -0.820411 -0.384004 1191 0.746816 0.665031 0.000000
-0.943632 -0.820669 -0.383701 1193 0.746816 0.665031 0.000000
-0.943453 -0.820519 -0.383213 1201 0.746816 0.665031 0.000000
-0.943121 -0.820223 -0.382656 1205 0.746816 0.665031 0.000000
-0.943047 -0.820166 -0.382207 1201 0.746816 0.665031 0.000000
-0.943035 -0.820144 -0.381777 1197 0.746816 0.665031 0.000000
-0.943067 -0.820181 -0.381376 1201 0.746816 0.665031 0.000000
-0.942629 -0.819792 -0.380770 1197 0.746816 0.665031 0.000000
-0.942290 -0.819504 -0.380213 1193 0.746816 0.665031 0.000000
-0.942908 -0.820044 -0.380048 1197 0.746816 0.665031 0.000000
-0.943532 -0.820576 -0.379882 1199 0.746816 0.665030 0.000000
-0.943354 -0.820425 -0.379394 1195 0.746816 0.665031 0.000000
-0.943384 -0.820448 -0.378983 1191 0.746816 0.665031 0.000000
-0.943689 -0.820720 -0.378681 1187 0.746816 0.665031 0.000000
-0.943621 -0.820655 -0.378241 1189 0.746816 0.665031 0.000000
-0.943916 -0.820908 -0.377939 1197 0.746816 0.665031 0.000000
-0.944003 -0.820987 -0.377558 1205 0.746816 0.665031 0.000000
-0.943510 -0.820556 -0.376932 1207 0.746816 0.665031 0.000000
-0.943918 -0.820908 -0.376679 1213 0.746816 0.665031 0.000000
-0.943950 -0.820944 -0.376268 1213 0.746816 0.665031 0.000000
-0.943183 -0.820277 -0.375545 1201 0.746816 0.665030 0.000000
-0.942054 -0.819291 -0.374675 1189 0.746816 0.665031 0.000000
-0.941658 -0.818947 -0.374099 1183 0.746816 0.665031 0.000000
-0.942911 -0.820040 -0.374188 1187 0.746816 0.665031 0.000000
-0.943690 -0.820716 -0.374071 1195 0.746816 0.665031 0.000000
-0.943680 -0.820708 -0.373651 1209 0.746816 0.665031 0.000000
-0.943654 -0.820688 -0.373221 1211 0.746816 0.665031 0.000000
-0.943523 -0.820574 -0.372752 1211 0.746816 0.665030 0.000000
-0.943030 -0.820142 -0.372137 1201 0.746816 0.665031 0.000000
-0.942747 -0.819898 -0.371609 1197 0.746816 0.665031 0.000000
-0.943363 -0.820423 -0.371434 1197 0.746816 0.665031 0.000000
-0.944408 -0.821344 -0.371424 1195 0.746816 0.665031 0.000000
-0.944389 -0.821315 -0.371004 1195 0.746816 0.665031 0.000000
-0.943036 -0.820145 -0.370046 1185 0.746816 0.665031 0.000000
-0.942277 -0.819483 -0.369333 1187 0.746816 0.665031 0.000000
-0.942572 -0.819735 -0.369031 1201 0.746816 0.665031 0.000000
-0.943190 -0.820275 -0.368855 1203 0.746816 0.665031 0.000000
-0.943598 -0.820627 -0.368601 1201 0.746816 0.665031 0.000000
-0.943685 -0.820707 -0.368211 1205 0.746816 0.665031 0.000000
-0.943715 -0.820729 -0.367810 1215 0.746816 0.665031 0.000000
-0.943697 -0.820715 -0.367380 1219 0.746816 0.665031 0.000000
-0.944049 -0.821024 -0.367107 1211 0.746816 0.665031 0.000000
-0.944450 -0.821371 -0.366844 1201 0.746816 0.665030 0.000000
-0.944479 -0.821393 -0.366433 1197 0.746816 0.665031 0.000000
-0.944091 -0.821055 -0.365867 1203 0.746816 0.665031 0.000000
-0.943631 -0.820662 -0.365271 1213 0.746816 0.665031 0.000000
-0.943193 -0.820273 -0.364685 1213 0.746816 0.665031 0.000000
-0.944077 -0.821043 -0.364607 1221 0.746816 0.665031 0.000000
-0.944855 -0.821719 -0.364490 1225 0.746816 0.665031 0.000000
-0.944508 -0.821426 -0.363943 1219 0.746816 0.665030 0.000000
-0.944594 -0.821491 -0.363562 1217 0.746816 0.665031 0.000000
-0.944360 -0.821297 -0.363054 1211 0.746816 0.665031 0.000000
-0.943698 -0.820723 -0.362380 1203 0.746816 0.665031 0.000000
-0.943140 -0.820229 -0.361745 1193 0.746816 0.665031 0.000000
-0.943058 -0.820165 -0.361306 1185 0.746816 0.665031 0.000000
-0.943361 -0.820424 -0.361003 1191 0.746816 0.665031 0.000000
-0.943336 -0.820404 -0.360574 1195 0.746816 0.665030 0.000000
-0.943155 -0.820239 -0.360085 1193 0.746816 0.665031 0.000000
-0.942969 -0.820082 -0.359607 1195 0.746816 0.665031 0.000000
-0.943161 -0.820255 -0.359265 1203 0.746816 0.665031 0.000000
-0.943464 -0.820514 -0.358962 1211 0.746816 0.665031 0.000000
-0.943920 -0.820903 -0.358718 1219 0.746816 0.665031 0.000000
-0.945231 -0.822053 -0.358806 1227 0.746816 0.665031 0.000000
-0.945799 -0.822542 -0.358601 1225 0.746816 0.665031 0.000000
-0.945613 -0.822385 -0.358113 1223 0.746816 0.665031 0.000000
-0.944950 -0.821797 -0.357449 1225 0.746816 0.665031 0.000000
-0.944127 -0.821086 -0.356716 1217 0.746816 0.665031 0.000000
-0.943884 -0.820872 -0.356209 1211 0.746816 0.665031 0.000000
-0.944026 -0.820995 -0.355847 1207 0.746816 0.665031 0.000000
-0.944106 -0.821068 -0.355456 1203 0.746816 0.665031 0.000000
-0.943870 -0.820860 -0.354959 1207 0.746816 0.665030 0.000000
-0.943844 -0.820840 -0.354529 1209 0.746816 0.665031 0.000000
-0.944293 -0.821237 -0.354285 1213 0.746816 0.665031 0.000000
-0.944436 -0.821359 -0.353923 1213 0.746816 0.665031 0.000000
-0.943767 -0.820779 -0.353259 1215 0.746816 0.665031 0.000000
-0.943531 -0.820571 -0.352752 1219 0.746816 0.665031 0.000000
-0.943721 -0.820730 -0.352410 1215 0.746816 0.665030 0.000000
-0.943856 -0.820846 -0.352049 1211 0.746816 0.665031 0.000000
-0.944145 -0.821107 -0.351736 1213 0.746816 0.665031 0.000000
-0.944503 -0.821408 -0.351453 1217 0.746816 0.665031 0.000000
-0.944527 -0.821439 -0.351053 1215 0.746816 0.665031 0.000000
-0.944283 -0.821225 -0.350545 1211 0.746816 0.665031 0.000000
-0.944152 -0.821111 -0.350086 1211 0.746816 0.665031 0.000000
-0.944608 -0.821500 -0.349832 1215 0.746816 0.665031 0.000000
-0.944961 -0.821810 -0.349549 1215 0.746816 0.665031 0.000000
-0.945151 -0.821968 -0.349207 1211 0.746816 0.665031 0.000000
-0.945125 -0.821948 -0.348787 1211 0.746816 0.665031 0.000000
-0.944721 -0.821598 -0.348221 1219 0.746816 0.665031 0.000000
-0.944758 -0.821627 -0.347820 1213 0.746816 0.665031 0.000000
-0.944501 -0.821415 -0.347313 1201 0.746816 0.665031 0.000000
-0.944265 -0.821207 -0.346805 1187 0.746816 0.665031 0.000000
-0.944350 -0.821272 -0.346424 1185 0.746816 0.665031 0.000000
-0.944429 -0.821346 -0.346043 1193 0.746816 0.665031 0.000000
-0.944299 -0.821232 -0.345574 1195 0.746816 0.665031 0.000000
-0.944320 -0.821248 -0.345174 1197 0.746816 0.665031 0.000000
-0.944190 -0.821134 -0.344716 1207 0.746816 0.665031 0.000000
-0.943835 -0.820835 -0.344169 1207 0.746816 0.665031 0.000000
-0.943221 -0.820297 -0.343534 1199 0.746816 0.665031 0.000000
-0.943033 -0.820127 -0.343046 1185 0.746816 0.665030 0.000000
-0.943811 -0.820803 -0.342919 1191 0.746816 0.665031 0.000000
-0.944752 -0.821629 -0.342850 1207 0.746816 0.665031 0.000000
-0.945530 -0.822305 -0.342713 1223 0.746816 0.665031 0.000000
-0.945342 -0.822134 -0.342235 1233 0.746816 0.665031 0.000000
-0.944778 -0.821648 -0.341620 1225 0.746816 0.665030 0.000000
-0.944051 -0.821010 -0.340937 1211 0.746816 0.665031 0.000000
-0.943760 -0.820760 -0.340419 1199 0.746816 0.665031 0.000000
-0.944209 -0.821157 -0.340165 1199 0.746816 0.665031 0.000000
-0.944336 -0.821267 -0.339804 1195 0.746816 0.665031 0.000000
-0.944205 -0.821153 -0.339345 1199 0.746816 0.665031 0.000000
-0.943752 -0.820752 -0.338769 1213 0.746816 0.665030 0.000000
-0.943726 -0.820732 -0.338340 1229 0.746816 0.665031 0.000000
-0.944013 -0.820978 -0.338037 1239 0.746816 0.665031 0.000000
-0.943987 -0.820958 -0.337607 1245 0.746816 0.665031 0.000000
-0.943373 -0.820421 -0.336983 1235 0.746816 0.665030 0.000000
-0.942906 -0.820021 -0.336407 1219 0.746816 0.665031 0.000000
-0.943419 -0.820467 -0.336172 1205 0.746816 0.665031 0.000000
-0.943335 -0.820390 -0.335733 1201 0.746816 0.665031 0.000000
-0.942763 -0.819897 -0.335118 1201 0.746816 0.665031 0.000000
-0.942848 -0.819963 -0.334727 1203 0.746816 0.665031 0.000000
-0.943353 -0.820403 -0.334503 1213 0.746816 0.665031 0.000000
-0.943159 -0.820240 -0.334025 1219 0.746816 0.665031 0.000000
-0.943028 -0.820126 -0.333566 1221 0.746816 0.665031 0.000000
-0.943589 -0.820608 -0.333351 1219 0.746816 0.665031 0.000000
-0.943884 -0.820861 -0.333038 1219 0.746816 0.665031 0.000000
-0.943577 -0.820598 -0.332521 1223 0.746816 0.665031 0.000000
-0.943117 -0.820205 -0.331945 1223 0.746816 0.665031 0.000000
-0.942874 -0.819992 -0.331447 1219 0.746816 0.665031 0.000000
-0.942735 -0.819872 -0.330998 1217 0.746816 0.665030 0.000000
-0.942169 -0.819371 -0.330383 1211 0.746816 0.665031 0.000000
-0.942192 -0.819401 -0.329983 1205 0.746816 0.665031 0.000000
-0.942913 -0.820020 -0.329827 1213 0.746816 0.665030 0.000000
-0.943363 -0.820417 -0.329573 1215 0.746816 0.665030 0.000000
-0.943119 -0.820204 -0.329075 1213 0.746816 0.665031 0.000000
-0.943309 -0.820363 -0.328733 1211 0.746816 0.665031 0.000000
-0.943709 -0.820709 -0.328460 1211 0.746816 0.665030 0.000000
-0.943571 -0.820589 -0.328001 1217 0.746816 0.665031 0.000000
-0.943860 -0.820849 -0.327688 1221 0.746816 0.665031 0.000000
-0.943559 -0.820579 -0.327171 1221 0.746816 0.665031 0.000000
-0.942671 -0.819805 -0.326449 1221 0.746816 0.665031 0.000000
-0.943281 -0.820338 -0.326253 1221 0.746816 0.665030 0.000000
-0.944270 -0.821202 -0.326184 1221 0.746816 0.665030 0.000000
-0.944775 -0.821641 -0.325950 1229 0.746816 0.665031 0.000000
-0.944852 -0.821701 -0.325569 1233 0.746816 0.665031 0.000000
-0.944392 -0.821307 -0.324993 1231 0.746816 0.665031 0.000000
-0.944519 -0.821418 -0.324632 1233 0.746816 0.665030 0.000000
-0.944541 -0.821434 -0.324232 1231 0.746816 0.665031 0.000000
-0.944723 -0.821587 -0.323880 1233 0.746816 0.665031 0.000000
-0.945559 -0.822320 -0.323753 1245 0.746816 0.665031 0.000000
-0.945951 -0.822659 -0.323479 1255 0.746816 0.665031 0.000000
-0.945707 -0.822446 -0.322991 1259 0.746816 0.665031 0.000000
-0.944812 -0.821666 -0.322269 1255 0.746816 0.665031 0.000000
-0.943701 -0.820707 -0.321479 1247 0.746816 0.665031 0.000000
-0.942911 -0.820022 -0.320796 1233 0.746816 0.665031 0.000000
-0.943101 -0.820180 -0.320455 1219 0.746816 0.665031 0.000000
-0.943921 -0.820901 -0.320327 1223 0.746816 0.665031 0.000000
-0.943998 -0.820960 -0.319947 1227 0.746816 0.665031 0.000000
-0.943263 -0.820317 -0.319283 1223 0.746816 0.665031 0.000000
-0.942747 -0.819867 -0.318698 1219 0.746816 0.665031 0.000000
-0.942608 -0.819747 -0.318239 1223 0.746816 0.665030 0.000000
-0.942735 -0.819857 -0.317878 1215 0.746816 0.665031 0.000000
-0.943618 -0.820627 -0.317770 1211 0.746816 0.665031 0.000000
-0.944236 -0.821166 -0.317564 1211 0.746816 0.665031 0.000000
-0.943879 -0.820853 -0.317038 1215 0.746816 0.665030 0.000000
-0.943089 -0.820167 -0.316355 1221 0.746816 0.665031 0.000000
-0.943376 -0.820413 -0.316042 1227 0.746816 0.665031 0.000000
-0.943721 -0.820717 -0.315749 1229 0.746816 0.665031 0.000000
-0.943792 -0.820784 -0.315368 1227 0.746816 0.665031 0.000000
-0.943814 -0.820800 -0.314968 1229 0.746816 0.665031 0.000000
-0.943184 -0.820251 -0.314354 1225 0.746816 0.665031 0.000000
-0.943150 -0.820224 -0.313924 1215 0.746816 0.665031 0.000000
-0.943542 -0.820564 -0.313651 1203 0.746816 0.665031 0.000000
-0.943509 -0.820538 -0.313231 1199 0.746816 0.665031 0.000000
-0.943691 -0.820691 -0.312879 1205 0.746816 0.665031 0.000000
-0.943657 -0.820664 -0.312470 1205 0.746816 0.665030 0.000000
-0.942867 -0.819978 -0.311797 1201 0.746816 0.665031 0.000000
-0.942182 -0.819386 -0.311163 1211 0.746816 0.665031 0.000000
-0.942099 -0.819309 -0.310724 1211 0.746816 0.665031 0.000000
-0.942217 -0.819413 -0.310353 1215 0.746816 0.665031 0.000000
-0.942344 -0.819523 -0.309991 1217 0.746816 0.665031 0.000000
-0.942206 -0.819403 -0.309533 1217 0.746816 0.665031 0.000000
-0.941794 -0.819046 -0.308996 1217 0.746816 0.665031 0.000000
-0.942297 -0.819472 -0.308752 1215 0.746816 0.665031 0.000000
-0.942794 -0.819906 -0.308507 1215 0.746816 0.665031 0.000000
-0.943033 -0.820115 -0.308175 1227 0.746816 0.665031 0.000000
-0.943265 -0.820319 -0.307853 1227 0.746816 0.665031 0.000000
-0.943063 -0.820150 -0.307375 1225 0.746816 0.665031 0.000000
-0.942867 -0.819973 -0.306907 1213 0.746816 0.665031 0.000000
-0.942560 -0.819711 -0.306399 1205 0.746816 0.665031 0.000000
-0.942847 -0.819957 -0.306087 1209 0.746816 0.665031 0.000000
-0.943303 -0.820346 -0.305823 1219 0.746816 0.665031 0.000000
-0.943697 -0.820700 -0.305549 1231 0.746816 0.665030 0.000000
-0.944249 -0.821176 -0.305314 1241 0.746816 0.665031 0.000000
-0.943837 -0.820820 -0.304778 1241 0.746816 0.665031 0.000000
-0.943039 -0.820128 -0.304115 1235 0.746816 0.665031 0.000000
-0.943326 -0.820375 -0.303792 1235 0.746816 0.665031 0.000000
-0.943461 -0.820491 -0.303431 1237 0.746816 0.665031 0.000000
-0.943307 -0.820359 -0.302973 1233 0.746816 0.665031 0.000000
-0.943425 -0.820462 -0.302611 1225 0.746816 0.665031 0.000000
-0.943398 -0.820428 -0.302192 1223 0.746816 0.665031 0.000000
-0.943629 -0.820632 -0.301860 1223 0.746816 0.665031 0.000000
-0.943540 -0.820562 -0.301420 1223 0.746816 0.665030 0.000000
-0.943449 -0.820479 -0.300991 1219 0.746816 0.665031 0.000000
-0.943568 -0.820583 -0.300620 1219 0.746816 0.665031 0.000000
-0.943372 -0.820406 -0.300152 1215 0.746816 0.665031 0.000000
-0.942792 -0.819907 -0.299557 1215 0.746816 0.665030 0.000000
-0.942596 -0.819731 -0.299089 1215 0.746816 0.665031 0.000000
-0.942932 -0.820028 -0.298796 1217 0.746816 0.665031 0.000000
-0.943703 -0.820697 -0.298629 1227 0.746816 0.665031 0.000000
-0.943990 -0.820944 -0.298316 1233 0.746816 0.665031 0.000000
-0.943625 -0.820624 -0.297790 1235 0.746816 0.665031 0.000000
-0.944467 -0.820882 -0.405937 1175 0.746816 0.665031 0.000000
-0.944659 -0.821055 -0.405595 1179 0.746816 0.665031 0.000000
-0.945019 -0.821370 -0.405322 1179 0.746816 0.665031 0.000000
-0.945386 -0.821678 -0.405048 1189 0.746816 0.665031 0.000000
-0.945368 -0.821664 -0.404619 1191 0.746816 0.665031 0.000000
-0.945623 -0.821886 -0.404306 1195 0.746816 0.665031 0.000000
-0.945508 -0.821784 -0.403827 1195 0.746816 0.665031 0.000000
-0.945282 -0.821596 -0.403309 1201 0.746816 0.665031 0.000000
-0.945159 -0.821488 -0.402830 1199 0.746816 0.665031 0.000000
-0.944723 -0.821114 -0.402224 1197 0.746816 0.665031 0.000000
-0.944559 -0.820961 -0.401726 1185 0.746816 0.665031 0.000000
-0.944493 -0.820910 -0.401276 1177 0.746816 0.665030 0.000000
-0.944273 -0.820715 -0.400758 1179 0.746816 0.665031 0.000000
-0.944842 -0.821204 -0.400573 1187 0.746816 0.665031 0.000000
-0.945089 -0.821419 -0.400251 1189 0.746816 0.665030 0.000000
-0.944863 -0.821232 -0.399733 1191 0.746816 0.665031 0.000000
-0.944964 -0.821309 -0.399352 1189 0.746816 0.665031 0.000000
-0.944730 -0.821116 -0.398834 1195 0.746816 0.665031 0.000000
-0.944245 -0.820690 -0.398199 1199 0.746816 0.665031 0.000000
-0.943696 -0.820216 -0.397544 1203 0.746816 0.665031 0.000000
-0.944007 -0.820480 -0.397251 1195 0.746816 0.665031 0.000000
-0.943773 -0.820287 -0.396733 1185 0.746816 0.665031 0.000000
-0.943343 -0.819904 -0.396127 1179 0.746816 0.665031 0.000000
-0.943381 -0.819933 -0.395716 1175 0.746816 0.665031 0.000000
-0.943468 -0.820012 -0.395336 1169 0.746816 0.665031 0.000000
-0.943458 -0.820004 -0.394906 1167 0.746816 0.665031 0.000000
-0.943392 -0.819953 -0.394456 1181 0.746816 0.665030 0.000000
-0.943591 -0.820118 -0.394114 1185 0.746816 0.665031 0.000000
-0.943476 -0.820016 -0.393646 1187 0.746816 0.665031 0.000000
-0.943402 -0.819959 -0.393196 1187 0.746816 0.665031 0.000000
-0.943384 -0.819945 -0.392766 1191 0.746816 0.665031 0.000000
-0.943366 -0.819930 -0.392336 1189 0.746816 0.665030 0.000000
-0.943733 -0.820238 -0.392063 1187 0.746816 0.665030 0.000000
-0.943980 -0.820454 -0.391751 1185 0.746816 0.665031 0.000000
-0.944067 -0.820533 -0.391360 1171 0.746816 0.665031 0.000000
-0.944113 -0.820568 -0.390960 1163 0.746816 0.665031 0.000000
-0.944731 -0.821108 -0.390794 1171 0.746816 0.665030 0.000000
-0.944448 -0.820863 -0.390257 1183 0.746816 0.665031 0.000000
-0.943849 -0.820338 -0.389582 1191 0.746816 0.665031 0.000000
-0.943574 -0.820100 -0.389045 1203 0.746816 0.665031 0.000000
-0.943982 -0.820452 -0.388791 1205 0.746816 0.665031 0.000000
-0.944279 -0.820719 -0.388498 1207 0.746816 0.665031 0.000000
-0.944107 -0.820560 -0.388000 1203 0.746816 0.665031 0.000000
-0.944033 -0.820503 -0.387550 1197 0.746816 0.665031 0.000000
-0.944499 -0.820912 -0.387326 1189 0.746816 0.665030 0.000000
-0.944271 -0.820711 -0.386808 1187 0.746816 0.665031 0.000000
-0.943567 -0.820092 -0.386095 1185 0.746816 0.665031 0.000000
-0.943550 -0.820077 -0.385675 1189 0.746816 0.665030 0.000000
-0.943965 -0.820436 -0.385411 1199 0.746816 0.665031 0.000000
-0.944520 -0.820926 -0.385226 1205 0.746816 0.665031 0.000000
-0.944566 -0.820961 -0.384825 1211 0.746816 0.665031 0.000000
-0.944387 -0.820810 -0.384327 1205 0.746816 0.665031 0.000000
-0.944096 -0.820560 -0.383790 1203 0.746816 0.665031 0.000000
-0.944141 -0.820595 -0.383389 1199 0.746816 0.665031 0.000000
-0.944179 -0.820623 -0.382979 1197 0.746816 0.665031 0.000000
-0.944056 -0.820515 -0.382510 1199 0.746816 0.665031 0.000000
-0.944088 -0.820552 -0.382100 1199 0.746816 0.665031 0.000000
-0.943489 -0.820027 -0.381435 1199 0.746816 0.665031 0.000000
-0.942507 -0.819179 -0.380624 1195 0.746816 0.665031 0.000000
-0.942279 -0.818978 -0.380106 1191 0.746816 0.665031 0.000000
-0.943218 -0.819790 -0.380068 1195 0.746816 0.665031 0.000000
-0.944472 -0.820884 -0.380156 1205 0.746816 0.665031 0.000000
-0.944888 -0.821242 -0.379902 1203 0.746816 0.665031 0.000000
-0.944812 -0.821171 -0.379453 1199 0.746816 0.665031 0.000000
-0.944642 -0.821026 -0.378965 1193 0.746816 0.665030 0.000000
-0.944672 -0.821049 -0.378554 1193 0.746816 0.665031 0.000000
-0.944333 -0.820762 -0.377997 1195 0.746816 0.665031 0.000000
-0.944152 -0.820597 -0.377509 1205 0.746816 0.665031 0.000000
-0.944408 -0.820819 -0.377197 1209 0.746816 0.665031 0.000000
-0.944326 -0.820756 -0.376737 1209 0.746816 0.665031 0.000000
-0.943407 -0.819957 -0.375956 1207 0.746816 0.665031 0.000000
-0.942431 -0.819102 -0.375145 1203 0.746816 0.665031 0.000000
-0.941769 -0.818528 -0.374460 1189 0.746816 0.665031 0.000000
-0.942234 -0.818937 -0.374226 1189 0.746816 0.665030 0.000000
-0.943165 -0.819744 -0.374188 1191 0.746816 0.665031 0.000000
-0.943357 -0.819917 -0.373846 1197 0.746816 0.665031 0.000000
-0.943989 -0.820455 -0.373670 1205 0.746816 0.665031 0.000000
-0.944502 -0.820900 -0.373456 1207 0.746816 0.665031 0.000000
-0.943946 -0.820420 -0.372821 1207 0.746816 0.665031 0.000000
-0.943187 -0.819758 -0.372098 1199 0.746816 0.665031 0.000000
-0.942896 -0.819508 -0.371560 1197 0.746816 0.665031 0.000000
-0.943611 -0.820135 -0.371434 1195 0.746816 0.665031 0.000000
-0.944397 -0.820817 -0.371327 1193 0.746816 0.665031 0.000000
-0.944120 -0.820565 -0.370789 1193 0.746816 0.665031 0.000000
-0.943870 -0.820359 -0.370281 1191 0.746816 0.665031 0.000000
-0.944068 -0.820524 -0.369940 1197 0.746816 0.665031 0.000000
-0.943680 -0.820186 -0.369363 1197 0.746816 0.665031 0.000000
-0.943228 -0.819799 -0.368777 1197 0.746816 0.665031 0.000000
-0.943371 -0.819921 -0.368416 1203 0.746816 0.665031 0.000000
-0.944365 -0.820777 -0.368377 1209 0.746816 0.665031 0.000000
-0.944927 -0.821273 -0.368182 1219 0.746816 0.665031 0.000000
-0.944747 -0.821109 -0.367693 1219 0.746816 0.665031 0.000000
-0.944674 -0.821051 -0.367244 1213 0.746816 0.665031 0.000000
-0.944753 -0.821125 -0.366863 1207 0.746816 0.665031 0.000000
-0.944686 -0.821060 -0.366414 1207 0.746816 0.665031 0.000000
-0.944499 -0.820903 -0.365926 1205 0.746816 0.665031 0.000000
-0.944264 -0.820695 -0.365418 1209 0.746816 0.665031 0.000000
-0.944406 -0.820817 -0.365057 1211 0.746816 0.665030 0.000000
-0.945072 -0.821394 -0.364900 1217 0.746816 0.665031 0.000000
-0.945537 -0.821803 -0.364656 1225 0.746816 0.665031 0.000000
-0.945036 -0.821365 -0.364051 1225 0.746816 0.665031 0.000000
-0.944535 -0.820928 -0.363435 1221 0.746816 0.665030 0.000000
-0.944774 -0.821137 -0.363113 1223 0.746816 0.665031 0.000000
-0.944434 -0.820836 -0.362566 1213 0.746816 0.665031 0.000000
-0.943932 -0.820398 -0.361951 1199 0.746816 0.665031 0.000000
-0.943691 -0.820199 -0.361453 1189 0.746816 0.665031 0.000000
-0.943665 -0.820178 -0.361023 1181 0.746816 0.665031 0.000000
-0.943702 -0.820207 -0.360623 1183 0.746816 0.665031 0.000000
-0.942983 -0.819576 -0.359929 1183 0.746816 0.665031 0.000000
-0.942742 -0.819376 -0.359421 1183 0.746816 0.665030 0.000000
-0.943310 -0.819865 -0.359216 1191 0.746816 0.665030 0.000000
-0.943823 -0.820311 -0.359002 1203 0.746816 0.665031 0.000000
-0.944441 -0.820850 -0.358816 1217 0.746816 0.665031 0.000000
-0.944639 -0.821015 -0.358474 1219 0.746816 0.665031 0.000000
-0.944718 -0.821089 -0.358094 1213 0.746816 0.665031 0.000000
-0.944853 -0.821205 -0.357722 1213 0.746816 0.665031 0.000000
-0.945471 -0.821744 -0.357547 1219 0.746816 0.665030 0.000000
-0.945605 -0.821860 -0.357175 1225 0.746816 0.665031 0.000000
-0.944621 -0.820999 -0.356394 1217 0.746816 0.665030 0.000000
-0.943476 -0.820002 -0.355545 1207 0.746816 0.665030 0.000000
-0.943395 -0.819938 -0.355095 1199 0.746816 0.665031 0.000000
-0.944552 -0.820944 -0.355115 1209 0.746816 0.665031 0.000000
-0.945225 -0.821527 -0.354959 1219 0.746816 0.665031 0.000000
-0.945352 -0.821637 -0.354588 1229 0.746816 0.665031 0.000000
-0.944851 -0.821199 -0.353982 1229 0.746816 0.665030 0.000000
-0.943971 -0.820431 -0.353240 1225 0.746816 0.665031 0.000000
-0.943246 -0.819808 -0.352557 1219 0.746816 0.665031 0.000000
-0.943541 -0.820061 -0.352244 1209 0.746816 0.665031 0.000000
-0.944054 -0.820507 -0.352019 1207 0.746816 0.665031 0.000000
-0.944567 -0.820953 -0.351795 1215 0.746816 0.665031 0.000000
-0.945128 -0.821435 -0.351590 1217 0.746816 0.665031 0.000000
-0.945046 -0.821372 -0.351150 1209 0.746816 0.665031 0.000000
-0.944601 -0.820977 -0.350564 1209 0.746816 0.665031 0.000000
-0.944462 -0.820857 -0.350106 1211 0.746816 0.665031 0.000000
-0.944702 -0.821067 -0.349773 1215 0.746816 0.665031 0.000000
-0.945117 -0.821425 -0.349510 1215 0.746816 0.665031 0.000000
-0.944866 -0.821206 -0.349012 1203 0.746816 0.665031 0.000000
-0.944848 -0.821191 -0.348582 1199 0.746816 0.665031 0.000000
-0.945298 -0.821588 -0.348338 1201 0.746816 0.665030 0.000000
-0.945167 -0.821474 -0.347879 1203 0.746816 0.665031 0.000000
-0.944497 -0.820894 -0.347215 1193 0.746816 0.665031 0.000000
-0.944254 -0.820680 -0.346707 1189 0.746816 0.665031 0.000000
-0.944283 -0.820703 -0.346307 1187 0.746816 0.665031 0.000000
-0.944313 -0.820726 -0.345907 1191 0.746816 0.665031 0.000000
-0.944826 -0.821171 -0.345672 1193 0.746816 0.665031 0.000000
-0.945163 -0.821469 -0.345389 1199 0.746816 0.665031 0.000000
-0.945192 -0.821491 -0.344989 1207 0.746816 0.665031 0.000000
-0.944418 -0.820817 -0.344286 1205 0.746816 0.665031 0.000000
-0.943210 -0.819771 -0.343427 1191 0.746816 0.665031 0.000000
-0.942966 -0.819557 -0.342929 1179 0.746816 0.665031 0.000000
-0.943158 -0.819730 -0.342587 1185 0.746816 0.665031 0.000000
-0.944313 -0.820722 -0.342597 1201 0.746816 0.665031 0.000000
-0.945091 -0.821398 -0.342460 1215 0.746816 0.665030 0.000000
-0.945491 -0.821744 -0.342196 1223 0.746816 0.665031 0.000000
-0.945241 -0.821538 -0.341688 1219 0.746816 0.665031 0.000000
-0.944418 -0.820814 -0.340976 1207 0.746816 0.665031 0.000000
-0.944544 -0.820924 -0.340615 1205 0.746816 0.665031 0.000000
-0.945372 -0.821650 -0.340497 1203 0.746816 0.665031 0.000000
-0.945457 -0.821716 -0.340117 1199 0.746816 0.665030 0.000000
-0.944675 -0.821036 -0.339424 1191 0.746816 0.665031 0.000000
-0.943950 -0.820413 -0.338750 1201 0.746816 0.665031 0.000000
-0.943714 -0.820205 -0.338252 1217 0.746816 0.665031 0.000000
-0.944275 -0.820688 -0.338037 1231 0.746816 0.665031 0.000000
-0.944136 -0.820568 -0.337578 1235 0.746816 0.665031 0.000000
-0.943837 -0.820311 -0.337051 1229 0.746816 0.665031 0.000000
-0.944132 -0.820564 -0.336748 1221 0.746816 0.665031 0.000000
-0.943728 -0.820214 -0.336192 1215 0.746816 0.665031 0.000000
-0.943211 -0.819764 -0.335597 1205 0.746816 0.665031 0.000000
-0.943290 -0.819837 -0.335216 1201 0.746816 0.665031 0.000000
-0.944124 -0.820556 -0.335098 1205 0.746816 0.665031 0.000000
-0.944259 -0.820672 -0.334737 1213 0.746816 0.665031 0.000000
-0.943526 -0.820043 -0.334064 1217 0.746816 0.665031 0.000000
-0.943169 -0.819729 -0.333527 1221 0.746816 0.665031 0.000000
-0.943409 -0.819939 -0.333195 1217 0.746816 0.665031 0.000000
-0.944292 -0.820709 -0.333097 1225 0.746816 0.665031 0.000000
-0.945126 -0.821427 -0.332979 1233 0.746816 0.665031 0.000000
-0.944288 -0.820705 -0.332277 1223 0.746816 0.665031 0.000000
-0.943072 -0.819652 -0.331438 1219 0.746816 0.665030 0.000000
-0.942185 -0.818879 -0.330706 1211 0.746816 0.665030 0.000000
-0.941508 -0.818292 -0.330062 1203 0.746816 0.665031 0.000000
-0.942019 -0.818724 -0.329827 1203 0.746816 0.665030 0.000000
-0.942910 -0.819500 -0.329729 1203 0.746816 0.665030 0.000000
-0.942981 -0.819567 -0.329349 1207 0.746816 0.665031 0.000000
-0.943318 -0.819864 -0.329056 1211 0.746816 0.665031 0.000000
-0.943726 -0.820216 -0.328782 1211 0.746816 0.665030 0.000000
-0.944013 -0.820463 -0.328479 1213 0.746816 0.665031 0.000000
-0.944631 -0.821002 -0.328284 1225 0.746816 0.665031 0.000000
