774
-8.684012 -8.724888 -0.460516 1391 0.716863 0.697214 0.000000
-8.683957 -8.724836 -0.456726 1393 0.716863 0.697214 0.000000
-8.684306 -8.725190 -0.452963 1387 0.716863 0.697214 0.000000
-8.684655 -8.725543 -0.449189 1395 0.716863 0.697214 0.000000
-8.684646 -8.725530 -0.445409 1391 0.716863 0.697214 0.000000
-8.684123 -8.725010 -0.441594 1395 0.716863 0.697214 0.000000
-8.683754 -8.724631 -0.437788 1391 0.716863 0.697214 0.000000
-8.683846 -8.724730 -0.434007 1395 0.716863 0.697214 0.000000
-8.683673 -8.724555 -0.430218 1391 0.716863 0.697214 0.000000
-8.684123 -8.725005 -0.426454 1391 0.716863 0.697214 0.000000
-8.684317 -8.725202 -0.422682 1399 0.716863 0.697214 0.000000
-8.683684 -8.724577 -0.418868 1387 0.716863 0.697214 0.000000
-8.683722 -8.724603 -0.415077 1395 0.716863 0.697214 0.000000
-8.684219 -8.725105 -0.411322 1399 0.716863 0.697214 0.000000
-8.684772 -8.725668 -0.407557 1411 0.716863 0.697214 0.000000
-8.684903 -8.725799 -0.403786 1405 0.716863 0.697214 0.000000
-8.684472 -8.725369 -0.399980 1399 0.716863 0.697214 0.000000
-8.683839 -8.724730 -0.396166 1397 0.716863 0.697214 0.000000
-8.683611 -8.724496 -0.392368 1389 0.716863 0.697214 0.000000
-8.684413 -8.725306 -0.388620 1403 0.716863 0.697214 0.000000
-8.684957 -8.725847 -0.384865 1407 0.716863 0.697214 0.000000
-8.684777 -8.725679 -0.381066 1397 0.716863 0.697214 0.000000
-8.684384 -8.725282 -0.377270 1395 0.716863 0.697214 0.000000
-8.684002 -8.724904 -0.373474 1399 0.716863 0.697214 0.000000
-8.683822 -8.724723 -0.369675 1395 0.716863 0.697214 0.000000
-8.683797 -8.724697 -0.365895 1393 0.716863 0.697214 0.000000
-8.684239 -8.725142 -0.362131 1385 0.716863 0.697214 0.000000
-8.684471 -8.725369 -0.358359 1389 0.716863 0.697214 0.000000
-8.684127 -8.725025 -0.354562 1391 0.716863 0.697214 0.000000
-8.683946 -8.724843 -0.350764 1389 0.716863 0.697214 0.000000
-8.683554 -8.724444 -0.346967 1401 0.716863 0.697214 0.000000
-8.683365 -8.724256 -0.343179 1393 0.716863 0.697214 0.000000
-8.683591 -8.724492 -0.339407 1387 0.716863 0.697214 0.000000
-8.683707 -8.724610 -0.335626 1397 0.716863 0.697214 0.000000
-8.683728 -8.724624 -0.331845 1393 0.716863 0.697214 0.000000
-8.684101 -8.725011 -0.328072 1389 0.716863 0.697214 0.000000
-8.684177 -8.725082 -0.324291 1397 0.716863 0.697214 0.000000
-8.684192 -8.725103 -0.320511 1397 0.716863 0.697214 0.000000
-8.684002 -8.724900 -0.316722 1395 0.716863 0.697214 0.000000
-8.683969 -8.724868 -0.312943 1395 0.716863 0.697214 0.000000
-8.683557 -8.724465 -0.309146 1395 0.716863 0.697214 0.000000
-8.688060 -8.723376 -0.687920 1411 0.716863 0.697214 0.000000
-8.688044 -8.723371 -0.684130 1405 0.716863 0.697214 0.000000
-8.688190 -8.723515 -0.680349 1399 0.716863 0.697214 0.000000
-8.688236 -8.723561 -0.676558 1403 0.716863 0.697214 0.000000
-8.688679 -8.724005 -0.672794 1407 0.716863 0.697214 0.000000
-8.688466 -8.723783 -0.668986 1397 0.716863 0.697214 0.000000
-8.688098 -8.723419 -0.665169 1389 0.716863 0.697214 0.000000
-8.688292 -8.723616 -0.661397 1403 0.716863 0.697214 0.000000
-8.688166 -8.723493 -0.657588 1391 0.716863 0.697214 0.000000
-8.687892 -8.723220 -0.653781 1385 0.716863 0.697214 0.000000
-8.687671 -8.722991 -0.649973 1387 0.716863 0.697214 0.000000
-8.687451 -8.722776 -0.646165 1387 0.716863 0.697214 0.000000
-8.687630 -8.722960 -0.642393 1387 0.716863 0.697214 0.000000
-8.688297 -8.723619 -0.638647 1395 0.716863 0.697214 0.000000
-8.688063 -8.723392 -0.634839 1403 0.716863 0.697214 0.000000
-8.687429 -8.722753 -0.631005 1407 0.716863 0.697214 0.000000
-8.687451 -8.722779 -0.627214 1403 0.716863 0.697214 0.000000
-8.687535 -8.722857 -0.623434 1397 0.716863 0.697214 0.000000
-8.687978 -8.723302 -0.619669 1385 0.716863 0.697214 0.000000
-8.688360 -8.723695 -0.615905 1389 0.716863 0.697214 0.000000
-8.688086 -8.723422 -0.612098 1393 0.716863 0.697214 0.000000
-8.688013 -8.723344 -0.608299 1393 0.716863 0.697214 0.000000
-8.687924 -8.723252 -0.604509 1391 0.716863 0.697214 0.000000
-8.687799 -8.723130 -0.600710 1397 0.716863 0.697214 0.000000
-8.687970 -8.723307 -0.596929 1403 0.716863 0.697214 0.000000
-8.688310 -8.723639 -0.593165 1407 0.716863 0.697214 0.000000
-8.688021 -8.723353 -0.589358 1397 0.716863 0.697214 0.000000
-8.687785 -8.723126 -0.585550 1391 0.716863 0.697214 0.000000
-8.687807 -8.723140 -0.581760 1387 0.716863 0.697214 0.000000
-8.688390 -8.723727 -0.578014 1401 0.716863 0.697214 0.000000
-8.688458 -8.723793 -0.574224 1405 0.716863 0.697214 0.000000
-8.687811 -8.723142 -0.570400 1389 0.716863 0.697214 0.000000
-8.687724 -8.723063 -0.566600 1389 0.716863 0.697214 0.000000
-8.687744 -8.723077 -0.562820 1393 0.716863 0.697214 0.000000
-8.687704 -8.723038 -0.559020 1405 0.716863 0.697214 0.000000
-8.687610 -8.722955 -0.555231 1397 0.716863 0.697214 0.000000
-8.687672 -8.723014 -0.551451 1391 0.716863 0.697214 0.000000
-8.687787 -8.723132 -0.547669 1403 0.716863 0.697214 0.000000
-8.687699 -8.723042 -0.543870 1389 0.716863 0.697214 0.000000
-8.687564 -8.722898 -0.540071 1393 0.716863 0.697214 0.000000
-8.687523 -8.722859 -0.536282 1401 0.716863 0.697214 0.000000
-8.687679 -8.723024 -0.532510 1389 0.716863 0.697214 0.000000
-8.688107 -8.723455 -0.528746 1399 0.716863 0.697214 0.000000
-8.688011 -8.723358 -0.524957 1403 0.716863 0.697214 0.000000
-8.687455 -8.722797 -0.521132 1393 0.716863 0.697214 0.000000
-8.687149 -8.722485 -0.517325 1389 0.716863 0.697214 0.000000
-8.687461 -8.722806 -0.513562 1389 0.716863 0.697214 0.000000
-8.687716 -8.723067 -0.509789 1391 0.716863 0.697214 0.000000
-8.687521 -8.722873 -0.505991 1387 0.716863 0.697214 0.000000
-8.687418 -8.722769 -0.502192 1397 0.716863 0.697214 0.000000
-8.687376 -8.722716 -0.498402 1397 0.716863 0.697214 0.000000
-8.687531 -8.722880 -0.494630 1399 0.716863 0.697214 0.000000
-8.687117 -8.722464 -0.490824 1383 0.716863 0.697214 0.000000
-8.687427 -8.722771 -0.487051 1391 0.716863 0.697214 0.000000
-8.688042 -8.723398 -0.483295 1389 0.716863 0.697214 0.000000
-8.688040 -8.723392 -0.479515 1389 0.716863 0.697214 0.000000
-8.687312 -8.722661 -0.475682 1383 0.716863 0.697214 0.000000
-8.687162 -8.722505 -0.471894 1379 0.716863 0.697214 0.000000
-8.687824 -8.723172 -0.468137 1389 0.716863 0.697214 0.000000
-8.688032 -8.723381 -0.464365 1391 0.716863 0.697214 0.000000
-8.687454 -8.722800 -0.460550 1381 0.716863 0.697214 0.000000
-8.687243 -8.722593 -0.456752 1385 0.716863 0.697214 0.000000
-8.687180 -8.722535 -0.452963 1393 0.716863 0.697214 0.000000
-8.686966 -8.722313 -0.449165 1399 0.716863 0.697214 0.000000
-8.686903 -8.722256 -0.445375 1393 0.716863 0.697214 0.000000
-8.686901 -8.722249 -0.441595 1397 0.716863 0.697214 0.000000
-8.687447 -8.722805 -0.437840 1401 0.716863 0.697214 0.000000
-8.687242 -8.722589 -0.434042 1401 0.716863 0.697214 0.000000
-8.687271 -8.722623 -0.430261 1397 0.716863 0.697214 0.000000
-8.687464 -8.722820 -0.426480 1401 0.716863 0.697214 0.000000
-8.686987 -8.722338 -0.422674 1397 0.716863 0.697214 0.000000
-8.687181 -8.722534 -0.418902 1403 0.716863 0.697214 0.000000
-8.687110 -8.722470 -0.415113 1395 0.716863 0.697214 0.000000
-8.687147 -8.722509 -0.411332 1391 0.716863 0.697214 0.000000
-8.687076 -8.722432 -0.407543 1395 0.716863 0.697214 0.000000
-8.686692 -8.722055 -0.403736 1393 0.716863 0.697214 0.000000
-8.686262 -8.721625 -0.399940 1389 0.716863 0.697214 0.000000
-8.686394 -8.721756 -0.396159 1393 0.716863 0.697214 0.000000
-8.686735 -8.722103 -0.392386 1391 0.716863 0.697214 0.000000
-8.687178 -8.722547 -0.388621 1397 0.716863 0.697214 0.000000
-8.686997 -8.722365 -0.384833 1397 0.716863 0.697214 0.000000
-8.686723 -8.722093 -0.381036 1393 0.716863 0.697214 0.000000
-8.686853 -8.722223 -0.377254 1399 0.716863 0.697214 0.000000
-8.687093 -8.722458 -0.373482 1403 0.716863 0.697214 0.000000
-8.687217 -8.722583 -0.369711 1397 0.716863 0.697214 0.000000
-8.686934 -8.722303 -0.365913 1389 0.716863 0.697214 0.000000
-8.686746 -8.722115 -0.362115 1383 0.716863 0.697214 0.000000
-8.686830 -8.722193 -0.358344 1401 0.716863 0.697214 0.000000
-8.686893 -8.722266 -0.354563 1411 0.716863 0.697214 0.000000
-8.686772 -8.722136 -0.350774 1403 0.716863 0.697214 0.000000
-8.686787 -8.722157 -0.346984 1389 0.716863 0.697214 0.000000
-8.686707 -8.722072 -0.343205 1381 0.716863 0.697214 0.000000
-8.686933 -8.722308 -0.339423 1391 0.716863 0.697214 0.000000
-8.687304 -8.722680 -0.335659 1399 0.716863 0.697214 0.000000
-8.687272 -8.722648 -0.331869 1399 0.716863 0.697214 0.000000
-8.686880 -8.722251 -0.328073 1395 0.716863 0.697214 0.000000
-8.686076 -8.721442 -0.324260 1399 0.716863 0.697214 0.000000
-8.686035 -8.721403 -0.320481 1399 0.716863 0.697214 0.000000
-8.686814 -8.722194 -0.316723 1397 0.716863 0.697214 0.000000
-8.686782 -8.722162 -0.312943 1391 0.716863 0.697214 0.000000
-8.686336 -8.721705 -0.309148 1395 0.716863 0.697214 0.000000
-8.690875 -8.720777 -0.687930 1401 0.716863 0.697214 0.000000
-8.690966 -8.720861 -0.684139 1409 0.716863 0.697214 0.000000
-8.691019 -8.720914 -0.680359 1413 0.716863 0.697214 0.000000
-8.690744 -8.720640 -0.676541 1397 0.716863 0.697214 0.000000
-8.690581 -8.720486 -0.672733 1397 0.716863 0.697214 0.000000
-8.690156 -8.720048 -0.668917 1391 0.716863 0.697214 0.000000
-8.690141 -8.720043 -0.665117 1397 0.716863 0.697214 0.000000
-8.690544 -8.720442 -0.661363 1395 0.716863 0.697214 0.000000
-8.690730 -8.720632 -0.657581 1397 0.716863 0.697214 0.000000
-8.690511 -8.720417 -0.653773 1383 0.716863 0.697214 0.000000
-8.690234 -8.720130 -0.649966 1395 0.716863 0.697214 0.000000
-8.689805 -8.719699 -0.646140 1399 0.716863 0.697214 0.000000
-8.689991 -8.719890 -0.642368 1397 0.716863 0.697214 0.000000
-8.690753 -8.720654 -0.638630 1403 0.716863 0.697214 0.000000
-8.690830 -8.720739 -0.634839 1399 0.716863 0.697214 0.000000
-8.690555 -8.720451 -0.631032 1395 0.716863 0.697214 0.000000
-8.690328 -8.720231 -0.627224 1399 0.716863 0.697214 0.000000
-8.690412 -8.720309 -0.623443 1397 0.716863 0.697214 0.000000
-8.690480 -8.720389 -0.619653 1397 0.716863 0.697214 0.000000
-8.690612 -8.720520 -0.615871 1399 0.716863 0.697214 0.000000
-8.690642 -8.720554 -0.612091 1393 0.716863 0.697214 0.000000
-8.690773 -8.720685 -0.608309 1395 0.716863 0.697214 0.000000
-8.690700 -8.720607 -0.604510 1397 0.716863 0.697214 0.000000
-8.690464 -8.720366 -0.600702 1401 0.716863 0.697214 0.000000
-8.690129 -8.720041 -0.596895 1399 0.716863 0.697214 0.000000
-8.690150 -8.720055 -0.593105 1399 0.716863 0.697214 0.000000
-8.690220 -8.720135 -0.589324 1397 0.716863 0.697214 0.000000
-8.690599 -8.720513 -0.585561 1401 0.716863 0.697214 0.000000
-8.690777 -8.720696 -0.581779 1395 0.716863 0.697214 0.000000
-8.690434 -8.720351 -0.577972 1393 0.716863 0.697214 0.000000
-8.690049 -8.719959 -0.574156 1395 0.716863 0.697214 0.000000
-8.690057 -8.719974 -0.570365 1393 0.716863 0.697214 0.000000
-8.690498 -8.720405 -0.566611 1393 0.716863 0.697214 0.000000
-8.690660 -8.720575 -0.562829 1395 0.716863 0.697214 0.000000
-8.690776 -8.720694 -0.559048 1401 0.716863 0.697214 0.000000
-8.690696 -8.720608 -0.555259 1397 0.716863 0.697214 0.000000
-8.690453 -8.720361 -0.551451 1395 0.716863 0.697214 0.000000
-8.690507 -8.720428 -0.547671 1393 0.716863 0.697214 0.000000
-8.690941 -8.720851 -0.543906 1397 0.716863 0.697214 0.000000
-8.690596 -8.720506 -0.540100 1395 0.716863 0.697214 0.000000
-8.690642 -8.720567 -0.536309 1393 0.716863 0.697214 0.000000
-8.690866 -8.720789 -0.532537 1387 0.716863 0.697214 0.000000
-8.690662 -8.720588 -0.528739 1393 0.716863 0.697214 0.000000
-8.690677 -8.720594 -0.524948 1395 0.716863 0.697214 0.000000
-8.690113 -8.720027 -0.521134 1395 0.716863 0.697214 0.000000
-8.689660 -8.719578 -0.517318 1391 0.716863 0.697214 0.000000
-8.689877 -8.719794 -0.513546 1397 0.716863 0.697214 0.000000
-8.690390 -8.720309 -0.509781 1393 0.716863 0.697214 0.000000
-8.690606 -8.720526 -0.506009 1387 0.716863 0.697214 0.000000
-8.689935 -8.719855 -0.502185 1391 0.716863 0.697214 0.000000
-8.689878 -8.719804 -0.498395 1391 0.716863 0.697214 0.000000
-8.690764 -8.720684 -0.494657 1393 0.716863 0.697214 0.000000
-8.690865 -8.720789 -0.490876 1391 0.716863 0.697214 0.000000
-8.690770 -8.720692 -0.487087 1395 0.716863 0.697214 0.000000
-8.690402 -8.720327 -0.483280 1387 0.716863 0.697214 0.000000
-8.690448 -8.720374 -0.479499 1389 0.716863 0.697214 0.000000
-8.690454 -8.720374 -0.475709 1397 0.716863 0.697214 0.000000
-8.690032 -8.719964 -0.471903 1391 0.716863 0.697214 0.000000
-8.689867 -8.719795 -0.468105 1383 0.716863 0.697214 0.000000
-8.690123 -8.720057 -0.464332 1395 0.716863 0.697214 0.000000
-8.690222 -8.720148 -0.460551 1393 0.716863 0.697214 0.000000
-8.689855 -8.719784 -0.456745 1397 0.716863 0.697214 0.000000
-8.690008 -8.719934 -0.452973 1405 0.716863 0.697214 0.000000
-8.690092 -8.720026 -0.449192 1397 0.716863 0.697214 0.000000
-8.689888 -8.719811 -0.445394 1387 0.716863 0.697214 0.000000
-8.690128 -8.720060 -0.441622 1387 0.716863 0.697214 0.000000
-8.689910 -8.719847 -0.437824 1389 0.716863 0.697214 0.000000
-8.689589 -8.719521 -0.434027 1399 0.716863 0.697214 0.000000
-8.689836 -8.719762 -0.430254 1407 0.716863 0.697214 0.000000
-8.689764 -8.719698 -0.426465 1393 0.716863 0.697214 0.000000
-8.689607 -8.719536 -0.422666 1393 0.716863 0.697214 0.000000
-8.689488 -8.719419 -0.418877 1395 0.716863 0.697214 0.000000
-8.689417 -8.719355 -0.415098 1393 0.716863 0.697214 0.000000
-8.689805 -8.719740 -0.411324 1397 0.716863 0.697214 0.000000
-8.689890 -8.719832 -0.407543 1401 0.716863 0.697214 0.000000
-8.689466 -8.719395 -0.403747 1385 0.716863 0.697214 0.000000
-8.689598 -8.719540 -0.399966 1393 0.716863 0.697214 0.000000
-8.690095 -8.720029 -0.396201 1405 0.716863 0.697214 0.000000
-8.690079 -8.720024 -0.392421 1407 0.716863 0.697214 0.000000
-8.690210 -8.720156 -0.388640 1403 0.716863 0.697214 0.000000
-8.690449 -8.720390 -0.384867 1397 0.716863 0.697214 0.000000
-8.690112 -8.720052 -0.381070 1399 0.716863 0.697214 0.000000
-8.689674 -8.719616 -0.377264 1393 0.716863 0.697214 0.000000
-8.689345 -8.719283 -0.373468 1393 0.716863 0.697214 0.000000
-8.689157 -8.719095 -0.369679 1393 0.716863 0.697214 0.000000
-8.689140 -8.719076 -0.365889 1385 0.716863 0.697214 0.000000
-8.688742 -8.718685 -0.362093 1379 0.716863 0.697214 0.000000
-8.688669 -8.718607 -0.358304 1395 0.716863 0.697214 0.000000
-8.689104 -8.719046 -0.354539 1393 0.716863 0.697214 0.000000
-8.689376 -8.719320 -0.350767 1389 0.716863 0.697214 0.000000
-8.689296 -8.719236 -0.346977 1399 0.716863 0.697214 0.000000
-8.689630 -8.719576 -0.343214 1399 0.716863 0.697214 0.000000
-8.689645 -8.719597 -0.339424 1397 0.716863 0.697214 0.000000
-8.689510 -8.719453 -0.335645 1395 0.716863 0.697214 0.000000
-8.689525 -8.719474 -0.331855 1395 0.716863 0.697214 0.000000
-8.689187 -8.719134 -0.328058 1395 0.716863 0.697214 0.000000
-8.689194 -8.719149 -0.324278 1395 0.716863 0.697214 0.000000
-8.689730 -8.719685 -0.320513 1393 0.716863 0.697214 0.000000
-8.689440 -8.719383 -0.316725 1387 0.716863 0.697214 0.000000
-8.689346 -8.719300 -0.312936 1395 0.716863 0.697214 0.000000
-8.689663 -8.719613 -0.309163 1391 0.716863 0.697214 0.000000
-8.693955 -8.718530 -0.687958 1405 0.716863 0.697214 0.000000
-8.693844 -8.718419 -0.684159 1401 0.716863 0.697214 0.000000
-8.693009 -8.717585 -0.680306 1389 0.716863 0.697214 0.000000
-8.692844 -8.717416 -0.676498 1387 0.716863 0.697214 0.000000
-8.693350 -8.717925 -0.672743 1397 0.716863 0.697214 0.000000
-8.693433 -8.718018 -0.668962 1397 0.716863 0.697214 0.000000
-8.693735 -8.718318 -0.665189 1403 0.716863 0.697214 0.000000
-8.693150 -8.717732 -0.661355 1401 0.716863 0.697214 0.000000
-8.692883 -8.717465 -0.657547 1387 0.716863 0.697214 0.000000
-8.693739 -8.718320 -0.653819 1397 0.716863 0.697214 0.000000
-8.693878 -8.718457 -0.650037 1401 0.716863 0.697214 0.000000
-8.693547 -8.718125 -0.646221 1401 0.716863 0.697214 0.000000
-8.693329 -8.717912 -0.642412 1399 0.716863 0.697214 0.000000
-8.693515 -8.718102 -0.638641 1399 0.716863 0.697214 0.000000
-8.693389 -8.717978 -0.634832 1399 0.716863 0.697214 0.000000
-8.693060 -8.717645 -0.631025 1397 0.716863 0.697214 0.000000
-8.693299 -8.717880 -0.627252 1405 0.716863 0.697214 0.000000
-8.693017 -8.717601 -0.623435 1397 0.716863 0.697214 0.000000
-8.692891 -8.717478 -0.619636 1403 0.716863 0.697214 0.000000
-8.693335 -8.717922 -0.615882 1405 0.716863 0.697214 0.000000
-8.693566 -8.718150 -0.612110 1407 0.716863 0.697214 0.000000
-8.693440 -8.718027 -0.608311 1395 0.716863 0.697214 0.000000
-8.693522 -8.718105 -0.604520 1399 0.716863 0.697214 0.000000
-8.693126 -8.717716 -0.600703 1395 0.716863 0.697214 0.000000
-8.692741 -8.717324 -0.596887 1391 0.716863 0.697214 0.000000
-8.693130 -8.717710 -0.593133 1393 0.716863 0.697214 0.000000
-8.693198 -8.717790 -0.589342 1399 0.716863 0.697214 0.000000
-8.692907 -8.717489 -0.585535 1397 0.716863 0.697214 0.000000
-8.693445 -8.718039 -0.581780 1403 0.716863 0.697214 0.000000
-8.693568 -8.718163 -0.577999 1399 0.716863 0.697214 0.000000
-8.693224 -8.717818 -0.574192 1393 0.716863 0.697214 0.000000
-8.693036 -8.717630 -0.570394 1383 0.716863 0.697214 0.000000
-8.693151 -8.717749 -0.566612 1395 0.716863 0.697214 0.000000
-8.693274 -8.717873 -0.562831 1393 0.716863 0.697214 0.000000
-8.693864 -8.718453 -0.559075 1401 0.716863 0.697214 0.000000
-8.693917 -8.718519 -0.555295 1407 0.716863 0.697214 0.000000
-8.693425 -8.718024 -0.551469 1401 0.716863 0.697214 0.000000
-8.693073 -8.717672 -0.547663 1391 0.716863 0.697214 0.000000
-8.693039 -8.717627 -0.543873 1391 0.716863 0.697214 0.000000
-8.693101 -8.717699 -0.540092 1397 0.716863 0.697214 0.000000
-8.692849 -8.717445 -0.536285 1395 0.716863 0.697214 0.000000
-8.692810 -8.717407 -0.532495 1389 0.716863 0.697214 0.000000
-8.692458 -8.717056 -0.528688 1391 0.716863 0.697214 0.000000
-8.692409 -8.717011 -0.524899 1395 0.716863 0.697214 0.000000
-8.692726 -8.717325 -0.521125 1391 0.716863 0.697214 0.000000
-8.693045 -8.717638 -0.517362 1389 0.716863 0.697214 0.000000
-8.693098 -8.717705 -0.513572 1391 0.716863 0.697214 0.000000
-8.693104 -8.717705 -0.509791 1395 0.716863 0.697214 0.000000
-8.693274 -8.717868 -0.506010 1393 0.716863 0.697214 0.000000
-8.692961 -8.717563 -0.502203 1383 0.716863 0.697214 0.000000
-8.692810 -8.717406 -0.498414 1391 0.716863 0.697214 0.000000
-8.693113 -8.717721 -0.494641 1397 0.716863 0.697214 0.000000
-8.693120 -8.717721 -0.490861 1395 0.716863 0.697214 0.000000
-8.692963 -8.717572 -0.487062 1397 0.716863 0.697214 0.000000
-8.693070 -8.717670 -0.483281 1393 0.716863 0.697214 0.000000
-8.693062 -8.717671 -0.479491 1399 0.716863 0.697214 0.000000
-8.692959 -8.717567 -0.475702 1389 0.716863 0.697214 0.000000
-8.692801 -8.717404 -0.471904 1399 0.716863 0.697214 0.000000
-8.692845 -8.717450 -0.468123 1401 0.716863 0.697214 0.000000
-8.693203 -8.717811 -0.464359 1403 0.716863 0.697214 0.000000
-8.693249 -8.717857 -0.460569 1389 0.716863 0.697214 0.000000
-8.693247 -8.717851 -0.456789 1393 0.716863 0.697214 0.000000
-8.693129 -8.717733 -0.453000 1389 0.716863 0.697214 0.000000
-8.692807 -8.717422 -0.449193 1395 0.716863 0.697214 0.000000
-8.692595 -8.717200 -0.445395 1395 0.716863 0.697214 0.000000
-8.692430 -8.717045 -0.441606 1395 0.716863 0.697214 0.000000
-8.692266 -8.716876 -0.437808 1387 0.716863 0.697214 0.000000
-8.692559 -8.717170 -0.434045 1393 0.716863 0.697214 0.000000
-8.692653 -8.717269 -0.430264 1399 0.716863 0.697214 0.000000
-8.692588 -8.717197 -0.426474 1401 0.716863 0.697214 0.000000
-8.692828 -8.717446 -0.422702 1395 0.716863 0.697214 0.000000
-8.692452 -8.717061 -0.418896 1399 0.716863 0.697214 0.000000
-8.692436 -8.717056 -0.415116 1405 0.716863 0.697214 0.000000
-8.693198 -8.717820 -0.411358 1405 0.716863 0.697214 0.000000
-8.692978 -8.717592 -0.407570 1409 0.716863 0.697214 0.000000
-8.692743 -8.717364 -0.403772 1401 0.716863 0.697214 0.000000
-8.692725 -8.717345 -0.399982 1395 0.716863 0.697214 0.000000
-8.693020 -8.717639 -0.396220 1409 0.716863 0.697214 0.000000
-8.692839 -8.717458 -0.392421 1403 0.716863 0.697214 0.000000
-8.692363 -8.716975 -0.388616 1397 0.716863 0.697214 0.000000
-8.692650 -8.717263 -0.384843 1405 0.716863 0.697214 0.000000
-8.692726 -8.717349 -0.381062 1389 0.716863 0.697214 0.000000
-8.692490 -8.717108 -0.377274 1393 0.716863 0.697214 0.000000
-8.692161 -8.716776 -0.373477 1389 0.716863 0.697214 0.000000
-8.692136 -8.716750 -0.369687 1379 0.716863 0.697214 0.000000
-8.692260 -8.716875 -0.365906 1387 0.716863 0.697214 0.000000
-8.692337 -8.716961 -0.362135 1393 0.716863 0.697214 0.000000
-8.692624 -8.717249 -0.358362 1395 0.716863 0.697214 0.000000
-8.692592 -8.717216 -0.354573 1403 0.716863 0.697214 0.000000
-8.692145 -8.716774 -0.350777 1399 0.716863 0.697214 0.000000
-8.692113 -8.716743 -0.346987 1403 0.716863 0.697214 0.000000
-8.692244 -8.716873 -0.343206 1397 0.716863 0.697214 0.000000
-8.692204 -8.716835 -0.339426 1395 0.716863 0.697214 0.000000
-8.692327 -8.716960 -0.335645 1397 0.716863 0.697214 0.000000
-8.692605 -8.717227 -0.331872 1391 0.716863 0.697214 0.000000
-8.692151 -8.716778 -0.328076 1391 0.716863 0.697214 0.000000
-8.692018 -8.716647 -0.324288 1397 0.716863 0.697214 0.000000
-8.692398 -8.717027 -0.320514 1401 0.716863 0.697214 0.000000
-8.692101 -8.716734 -0.316726 1393 0.716863 0.697214 0.000000
-8.691966 -8.716590 -0.312938 1401 0.716863 0.697214 0.000000
-8.692074 -8.716702 -0.309157 1397 0.716863 0.697214 0.000000
-8.696617 -8.715880 -0.687959 1401 0.716863 0.697214 0.000000
-8.696918 -8.716181 -0.684196 1403 0.716863 0.697214 0.000000
-8.696441 -8.715697 -0.680360 1403 0.716863 0.697214 0.000000
-8.695661 -8.714922 -0.676508 1393 0.716863 0.697214 0.000000
-8.695807 -8.715066 -0.672736 1393 0.716863 0.697214 0.000000
-8.695633 -8.714890 -0.668928 1391 0.716863 0.697214 0.000000
-8.696037 -8.715302 -0.665164 1397 0.716863 0.697214 0.000000
-8.696692 -8.715962 -0.661427 1405 0.716863 0.697214 0.000000
-8.696214 -8.715480 -0.657592 1405 0.716863 0.697214 0.000000
-8.695993 -8.715252 -0.653784 1399 0.716863 0.697214 0.000000
-8.696024 -8.715285 -0.650004 1403 0.716863 0.697214 0.000000
-8.696318 -8.715579 -0.646231 1405 0.716863 0.697214 0.000000
-8.696714 -8.715985 -0.642467 1401 0.716863 0.697214 0.000000
-8.696277 -8.715549 -0.638641 1395 0.716863 0.697214 0.000000
-8.695847 -8.715118 -0.634825 1395 0.716863 0.697214 0.000000
-8.695470 -8.714733 -0.631008 1385 0.716863 0.697214 0.000000
-8.695453 -8.714714 -0.627219 1391 0.716863 0.697214 0.000000
-8.695631 -8.714898 -0.623437 1403 0.716863 0.697214 0.000000
-8.695870 -8.715133 -0.619664 1403 0.716863 0.697214 0.000000
-8.696314 -8.715577 -0.615900 1405 0.716863 0.697214 0.000000
-8.696336 -8.715605 -0.612120 1391 0.716863 0.697214 0.000000
-8.696054 -8.715324 -0.608302 1391 0.716863 0.697214 0.000000
-8.695920 -8.715196 -0.604503 1389 0.716863 0.697214 0.000000
-8.695995 -8.715267 -0.600723 1395 0.716863 0.697214 0.000000
-8.695659 -8.714929 -0.596906 1389 0.716863 0.697214 0.000000
-8.695580 -8.714845 -0.593117 1389 0.716863 0.697214 0.000000
-8.695758 -8.715028 -0.589335 1393 0.716863 0.697214 0.000000
-8.695771 -8.715049 -0.585554 1393 0.716863 0.697214 0.000000
-8.695895 -8.715174 -0.581773 1403 0.716863 0.697214 0.000000
-8.695457 -8.714723 -0.577947 1403 0.716863 0.697214 0.000000
-8.695891 -8.715161 -0.574193 1395 0.716863 0.697214 0.000000
-8.696623 -8.715899 -0.570446 1401 0.716863 0.697214 0.000000
-8.696231 -8.715501 -0.566640 1403 0.716863 0.697214 0.000000
-8.695576 -8.714856 -0.562806 1387 0.716863 0.697214 0.000000
-8.695745 -8.715019 -0.559024 1391 0.716863 0.697214 0.000000
-8.696016 -8.715294 -0.555261 1395 0.716863 0.697214 0.000000
-8.696397 -8.715673 -0.551488 1403 0.716863 0.697214 0.000000
-8.696357 -8.715634 -0.547698 1397 0.716863 0.697214 0.000000
-8.696160 -8.715439 -0.543900 1391 0.716863 0.697214 0.000000
-8.696064 -8.715343 -0.540111 1399 0.716863 0.697214 0.000000
-8.695977 -8.715251 -0.536311 1393 0.716863 0.697214 0.000000
-8.696032 -8.715319 -0.532531 1389 0.716863 0.697214 0.000000
-8.696045 -8.715324 -0.528740 1393 0.716863 0.697214 0.000000
-8.696309 -8.715593 -0.524968 1399 0.716863 0.697214 0.000000
-8.695957 -8.715241 -0.521161 1399 0.716863 0.697214 0.000000
-8.695704 -8.714988 -0.517363 1397 0.716863 0.697214 0.000000
-8.695874 -8.715151 -0.513582 1393 0.716863 0.697214 0.000000
-8.695562 -8.714846 -0.509775 1397 0.716863 0.697214 0.000000
-8.695257 -8.714547 -0.505978 1391 0.716863 0.697214 0.000000
-8.694903 -8.714182 -0.502171 1385 0.716863 0.697214 0.000000
-8.695105 -8.714384 -0.498389 1385 0.716863 0.697214 0.000000
-8.695828 -8.715116 -0.494652 1393 0.716863 0.697214 0.000000
-8.696294 -8.715579 -0.490887 1401 0.716863 0.697214 0.000000
-8.695724 -8.715006 -0.487073 1391 0.716863 0.697214 0.000000
-8.695216 -8.714499 -0.483257 1391 0.716863 0.697214 0.000000
-8.695473 -8.714760 -0.479485 1389 0.716863 0.697214 0.000000
-8.695822 -8.715113 -0.475711 1399 0.716863 0.697214 0.000000
-8.695874 -8.715166 -0.471931 1391 0.716863 0.697214 0.000000
-8.695818 -8.715115 -0.468141 1389 0.716863 0.697214 0.000000
-8.695708 -8.715004 -0.464352 1389 0.716863 0.697214 0.000000
-8.695395 -8.714684 -0.460545 1385 0.716863 0.697214 0.000000
-8.695596 -8.714887 -0.456773 1399 0.716863 0.697214 0.000000
-8.695533 -8.714829 -0.452984 1391 0.716863 0.697214 0.000000
-8.695367 -8.714661 -0.449195 1403 0.716863 0.697214 0.000000
-8.695303 -8.714602 -0.445406 1397 0.716863 0.697214 0.000000
-8.695301 -8.714597 -0.441616 1389 0.716863 0.697214 0.000000
-8.695292 -8.714583 -0.437826 1391 0.716863 0.697214 0.000000
-8.695330 -8.714623 -0.434045 1385 0.716863 0.697214 0.000000
-8.695570 -8.714872 -0.430273 1391 0.716863 0.697214 0.000000
-8.695147 -8.714449 -0.426467 1391 0.716863 0.697214 0.000000
-8.695239 -8.714535 -0.422686 1403 0.716863 0.697214 0.000000
-8.695377 -8.714671 -0.418914 1403 0.716863 0.697214 0.000000
-8.695726 -8.715024 -0.415141 1407 0.716863 0.697214 0.000000
-8.696115 -8.715409 -0.411377 1413 0.716863 0.697214 0.000000
-8.695740 -8.715039 -0.407570 1399 0.716863 0.697214 0.000000
-8.695045 -8.714349 -0.403757 1391 0.716863 0.697214 0.000000
-8.694615 -8.713920 -0.399951 1387 0.716863 0.697214 0.000000
-8.695057 -8.714363 -0.396187 1403 0.716863 0.697214 0.000000
-8.695094 -8.714390 -0.392406 1397 0.716863 0.697214 0.000000
-8.695063 -8.714372 -0.388617 1401 0.716863 0.697214 0.000000
-8.695350 -8.714659 -0.384854 1401 0.716863 0.697214 0.000000
-8.695542 -8.714841 -0.381072 1403 0.716863 0.697214 0.000000
-8.695416 -8.714719 -0.377283 1395 0.716863 0.697214 0.000000
-8.695391 -8.714693 -0.373503 1393 0.716863 0.697214 0.000000
-8.695357 -8.714661 -0.369713 1381 0.716863 0.697214 0.000000
-8.695232 -8.714538 -0.365924 1393 0.716863 0.697214 0.000000
-8.694848 -8.714147 -0.362128 1395 0.716863 0.697214 0.000000
-8.694559 -8.713861 -0.358331 1395 0.716863 0.697214 0.000000
-8.694941 -8.714253 -0.354567 1395 0.716863 0.697214 0.000000
-8.695217 -8.714520 -0.350794 1395 0.716863 0.697214 0.000000
-8.695084 -8.714392 -0.347005 1389 0.716863 0.697214 0.000000
-8.695107 -8.714418 -0.343215 1391 0.716863 0.697214 0.000000
-8.695074 -8.714386 -0.339435 1385 0.716863 0.697214 0.000000
-8.694893 -8.714205 -0.335647 1385 0.716863 0.697214 0.000000
-8.694697 -8.714010 -0.331859 1387 0.716863 0.697214 0.000000
-8.694609 -8.713918 -0.328070 1393 0.716863 0.697214 0.000000
-8.694584 -8.713892 -0.324290 1397 0.716863 0.697214 0.000000
-8.694895 -8.714214 -0.320516 1401 0.716863 0.697214 0.000000
-8.695120 -8.714437 -0.316734 1403 0.716863 0.697214 0.000000
-8.694923 -8.714241 -0.312946 1395 0.716863 0.697214 0.000000
-8.695148 -8.714463 -0.309174 1407 0.716863 0.697214 0.000000
-8.699121 -8.713058 -0.687952 1399 0.716863 0.697214 0.000000
-8.699118 -8.713052 -0.684161 1397 0.716863 0.697214 0.000000
-8.698851 -8.712786 -0.680344 1403 0.716863 0.697214 0.000000
-8.699201 -8.713139 -0.676581 1401 0.716863 0.697214 0.000000
-8.699855 -8.713799 -0.672834 1401 0.716863 0.697214 0.000000
-8.699953 -8.713890 -0.669053 1397 0.716863 0.697214 0.000000
-8.699110 -8.713049 -0.665201 1395 0.716863 0.697214 0.000000
-8.698423 -8.712365 -0.661358 1397 0.716863 0.697214 0.000000
-8.698670 -8.712606 -0.657585 1397 0.716863 0.697214 0.000000
-8.699121 -8.713058 -0.653821 1391 0.716863 0.697214 0.000000
-8.699253 -8.713202 -0.650039 1391 0.716863 0.697214 0.000000
-8.699189 -8.713131 -0.646250 1395 0.716863 0.697214 0.000000
-8.699015 -8.712955 -0.642442 1391 0.716863 0.697214 0.000000
-8.698688 -8.712637 -0.638625 1405 0.716863 0.697214 0.000000
-8.698467 -8.712408 -0.634817 1395 0.716863 0.697214 0.000000
-8.698746 -8.712688 -0.631054 1393 0.716863 0.697214 0.000000
-8.699189 -8.713134 -0.627289 1401 0.716863 0.697214 0.000000
-8.699070 -8.713017 -0.623490 1399 0.716863 0.697214 0.000000
-8.698524 -8.712477 -0.619666 1401 0.716863 0.697214 0.000000
-8.698506 -8.712458 -0.615876 1403 0.716863 0.697214 0.000000
-8.698731 -8.712680 -0.612103 1399 0.716863 0.697214 0.000000
-8.698502 -8.712445 -0.608296 1397 0.716863 0.697214 0.000000
-8.698580 -8.712531 -0.604505 1395 0.716863 0.697214 0.000000
-8.699022 -8.712976 -0.600750 1407 0.716863 0.697214 0.000000
-8.698732 -8.712675 -0.596943 1409 0.716863 0.697214 0.000000
-8.698606 -8.712552 -0.593144 1399 0.716863 0.697214 0.000000
-8.699244 -8.713199 -0.589398 1397 0.716863 0.697214 0.000000
-8.699212 -8.713167 -0.585598 1393 0.716863 0.697214 0.000000
-8.698461 -8.712418 -0.581765 1395 0.716863 0.697214 0.000000
-8.698483 -8.712431 -0.577975 1395 0.716863 0.697214 0.000000
-8.698863 -8.712810 -0.574211 1397 0.716863 0.697214 0.000000
-8.698512 -8.712473 -0.570405 1395 0.716863 0.697214 0.000000
-8.698220 -8.712172 -0.566597 1397 0.716863 0.697214 0.000000
-8.698297 -8.712243 -0.562806 1397 0.716863 0.697214 0.000000
-8.698725 -8.712676 -0.559052 1405 0.716863 0.697214 0.000000
-8.698840 -8.712794 -0.555271 1393 0.716863 0.697214 0.000000
-8.698690 -8.712650 -0.551472 1387 0.716863 0.697214 0.000000
-8.699119 -8.713083 -0.547708 1389 0.716863 0.697214 0.000000
-8.699241 -8.713193 -0.543927 1399 0.716863 0.697214 0.000000
-8.698631 -8.712587 -0.540103 1397 0.716863 0.697214 0.000000
-8.698435 -8.712393 -0.536305 1393 0.716863 0.697214 0.000000
-8.698543 -8.712503 -0.532523 1391 0.716863 0.697214 0.000000
-8.698455 -8.712413 -0.528734 1393 0.716863 0.697214 0.000000
-8.698455 -8.712420 -0.524944 1405 0.716863 0.697214 0.000000
-8.698414 -8.712368 -0.521154 1395 0.716863 0.697214 0.000000
-8.698162 -8.712129 -0.517347 1395 0.716863 0.697214 0.000000
-8.697966 -8.711920 -0.513548 1393 0.716863 0.697214 0.000000
-8.697864 -8.711830 -0.509759 1385 0.716863 0.697214 0.000000
-8.697667 -8.711621 -0.505961 1389 0.716863 0.697214 0.000000
-8.697767 -8.711726 -0.502180 1381 0.716863 0.697214 0.000000
-8.698186 -8.712152 -0.498416 1389 0.716863 0.697214 0.000000
-8.698184 -8.712145 -0.494626 1389 0.716863 0.697214 0.000000
-8.698651 -8.712623 -0.490871 1405 0.716863 0.697214 0.000000
-8.698602 -8.712564 -0.487082 1391 0.716863 0.697214 0.000000
-8.698282 -8.712252 -0.483275 1391 0.716863 0.697214 0.000000
-8.698023 -8.711991 -0.479477 1395 0.716863 0.697214 0.000000
-8.698124 -8.712097 -0.475696 1393 0.716863 0.697214 0.000000
-8.698386 -8.712352 -0.471923 1401 0.716863 0.697214 0.000000
-8.698010 -8.711980 -0.468117 1397 0.716863 0.697214 0.000000
-8.697861 -8.711823 -0.464328 1395 0.716863 0.697214 0.000000
-8.697953 -8.711923 -0.460547 1395 0.716863 0.697214 0.000000
-8.697897 -8.711871 -0.456758 1389 0.716863 0.697214 0.000000
-8.697474 -8.711449 -0.452952 1393 0.716863 0.697214 0.000000
-8.697621 -8.711592 -0.449170 1397 0.716863 0.697214 0.000000
-8.698031 -8.711996 -0.445406 1383 0.716863 0.697214 0.000000
-8.697913 -8.711880 -0.441617 1389 0.716863 0.697214 0.000000
-8.697951 -8.711920 -0.437827 1399 0.716863 0.697214 0.000000
-8.698246 -8.712214 -0.434064 1395 0.716863 0.697214 0.000000
-8.698135 -8.712103 -0.430275 1389 0.716863 0.697214 0.000000
-8.697760 -8.711733 -0.426468 1391 0.716863 0.697214 0.000000
-8.697953 -8.711929 -0.422696 1393 0.716863 0.697214 0.000000
-8.698248 -8.712223 -0.418923 1399 0.716863 0.697214 0.000000
-8.698332 -8.712302 -0.415143 1401 0.716863 0.697214 0.000000
-8.697949 -8.711925 -0.411336 1387 0.716863 0.697214 0.000000
-8.697426 -8.711404 -0.407531 1385 0.716863 0.697214 0.000000
-8.697664 -8.711638 -0.403759 1401 0.716863 0.697214 0.000000
-8.697586 -8.711569 -0.399969 1397 0.716863 0.697214 0.000000
-8.697569 -8.711550 -0.396179 1391 0.716863 0.697214 0.000000
-8.697496 -8.711472 -0.392400 1391 0.716863 0.697214 0.000000
-8.697839 -8.711818 -0.388627 1399 0.716863 0.697214 0.000000
-8.698281 -8.712261 -0.384862 1397 0.716863 0.697214 0.000000
-8.698048 -8.712035 -0.381065 1393 0.716863 0.697214 0.000000
-8.697406 -8.711390 -0.377261 1383 0.716863 0.697214 0.000000
-8.697801 -8.711782 -0.373487 1401 0.716863 0.697214 0.000000
-8.698026 -8.712004 -0.369714 1387 0.716863 0.697214 0.000000
-8.698359 -8.712343 -0.365941 1399 0.716863 0.697214 0.000000
-8.698179 -8.712162 -0.362153 1411 0.716863 0.697214 0.000000
-8.697329 -8.711315 -0.358341 1395 0.716863 0.697214 0.000000
-8.697194 -8.711185 -0.354552 1397 0.716863 0.697214 0.000000
-8.696959 -8.710943 -0.350754 1391 0.716863 0.697214 0.000000
-8.696974 -8.710964 -0.346974 1389 0.716863 0.697214 0.000000
-8.697510 -8.711500 -0.343209 1403 0.716863 0.697214 0.000000
-8.697430 -8.711415 -0.339419 1397 0.716863 0.697214 0.000000
-8.697289 -8.711280 -0.335641 1397 0.716863 0.697214 0.000000
-8.697520 -8.711509 -0.331858 1395 0.716863 0.697214 0.000000
-8.697378 -8.711372 -0.328070 1395 0.716863 0.697214 0.000000
-8.697135 -8.711124 -0.324282 1401 0.716863 0.697214 0.000000
-8.697718 -8.711713 -0.320516 1405 0.716863 0.697214 0.000000
-8.698255 -8.712248 -0.316751 1413 0.716863 0.697214 0.000000
-8.697855 -8.711844 -0.312955 1403 0.716863 0.697214 0.000000
-8.697450 -8.711447 -0.309158 1403 0.716863 0.697214 0.000000
-8.701468 -8.710095 -0.687926 1395 0.716863 0.697214 0.000000
-8.701771 -8.710396 -0.684163 1403 0.716863 0.697214 0.000000
-8.702229 -8.710854 -0.680398 1411 0.716863 0.697214 0.000000
-8.702219 -8.710840 -0.676608 1403 0.716863 0.697214 0.000000
-8.701377 -8.710000 -0.672756 1395 0.716863 0.697214 0.000000
-8.701110 -8.709733 -0.668939 1399 0.716863 0.697214 0.000000
-8.701202 -8.709832 -0.665158 1395 0.716863 0.697214 0.000000
-8.701395 -8.710014 -0.661376 1391 0.716863 0.697214 0.000000
-8.701433 -8.710054 -0.657585 1393 0.716863 0.697214 0.000000
-8.701206 -8.709834 -0.653787 1397 0.716863 0.697214 0.000000
-8.701196 -8.709821 -0.649988 1403 0.716863 0.697214 0.000000
-8.700969 -8.709599 -0.646180 1393 0.716863 0.697214 0.000000
-8.701060 -8.709684 -0.642399 1391 0.716863 0.697214 0.000000
-8.701199 -8.709822 -0.638617 1393 0.716863 0.697214 0.000000
-8.701268 -8.709902 -0.634836 1399 0.716863 0.697214 0.000000
-8.701407 -8.710039 -0.631055 1399 0.716863 0.697214 0.000000
-8.701389 -8.710020 -0.627265 1405 0.716863 0.697214 0.000000
-8.701060 -8.709688 -0.623448 1407 0.716863 0.697214 0.000000
-8.700770 -8.709402 -0.619641 1397 0.716863 0.697214 0.000000
-8.701267 -8.709891 -0.615876 1397 0.716863 0.697214 0.000000
-8.701243 -8.709880 -0.612086 1405 0.716863 0.697214 0.000000
-8.700642 -8.709281 -0.608262 1393 0.716863 0.697214 0.000000
-8.700882 -8.709516 -0.604489 1391 0.716863 0.697214 0.000000
-8.701114 -8.709744 -0.600707 1395 0.716863 0.697214 0.000000
-8.701136 -8.709771 -0.596927 1385 0.716863 0.697214 0.000000
-8.701259 -8.709896 -0.593146 1403 0.716863 0.697214 0.000000
-8.701288 -8.709915 -0.589355 1397 0.716863 0.697214 0.000000
-8.701254 -8.709884 -0.585565 1391 0.716863 0.697214 0.000000
-8.701060 -8.709702 -0.581767 1389 0.716863 0.697214 0.000000
-8.701089 -8.709723 -0.577977 1395 0.716863 0.697214 0.000000
-8.701469 -8.710101 -0.574213 1403 0.716863 0.697214 0.000000
-8.701639 -8.710279 -0.570431 1391 0.716863 0.697214 0.000000
-8.701552 -8.710187 -0.566642 1395 0.716863 0.697214 0.000000
-8.701823 -8.710462 -0.562869 1397 0.716863 0.697214 0.000000
-8.702056 -8.710690 -0.559097 1409 0.716863 0.697214 0.000000
-8.701601 -8.710241 -0.555271 1395 0.716863 0.697214 0.000000
-8.701406 -8.710046 -0.551473 1391 0.716863 0.697214 0.000000
-8.701162 -8.709798 -0.547675 1381 0.716863 0.697214 0.000000
-8.700817 -8.709453 -0.543859 1383 0.716863 0.697214 0.000000
-8.700878 -8.709513 -0.540078 1379 0.716863 0.697214 0.000000
-8.701141 -8.709781 -0.536305 1387 0.716863 0.697214 0.000000
-8.701413 -8.710055 -0.532533 1387 0.716863 0.697214 0.000000
-8.701577 -8.710226 -0.528761 1389 0.716863 0.697214 0.000000
-8.701021 -8.709666 -0.524936 1397 0.716863 0.697214 0.000000
-8.700817 -8.709464 -0.521138 1399 0.716863 0.697214 0.000000
-8.700978 -8.709621 -0.517356 1393 0.716863 0.697214 0.000000
-8.701039 -8.709681 -0.513576 1393 0.716863 0.697214 0.000000
-8.700992 -8.709636 -0.509786 1387 0.716863 0.697214 0.000000
-8.701248 -8.709898 -0.506014 1399 0.716863 0.697214 0.000000
-8.701253 -8.709898 -0.502223 1391 0.716863 0.697214 0.000000
-8.701253 -8.709906 -0.498443 1395 0.716863 0.697214 0.000000
-8.701055 -8.709697 -0.494645 1395 0.716863 0.697214 0.000000
-8.701046 -8.709698 -0.490855 1391 0.716863 0.697214 0.000000
-8.701255 -8.709908 -0.487083 1391 0.716863 0.697214 0.000000
-8.701308 -8.709960 -0.483302 1399 0.716863 0.697214 0.000000
-8.701306 -8.709953 -0.479512 1393 0.716863 0.697214 0.000000
-8.701040 -8.709687 -0.475715 1391 0.716863 0.697214 0.000000
-8.700781 -8.709426 -0.471907 1387 0.716863 0.697214 0.000000
-8.701037 -8.709689 -0.468135 1397 0.716863 0.697214 0.000000
-8.701394 -8.710048 -0.464371 1393 0.716863 0.697214 0.000000
-8.701283 -8.709938 -0.460582 1389 0.716863 0.697214 0.000000
-8.700557 -8.709207 -0.456759 1387 0.716863 0.697214 0.000000
-8.700494 -8.709150 -0.452970 1405 0.716863 0.697214 0.000000
-8.700795 -8.709450 -0.449197 1405 0.716863 0.697214 0.000000
-8.700685 -8.709340 -0.445408 1393 0.716863 0.697214 0.000000
-8.700934 -8.709596 -0.441635 1381 0.716863 0.697214 0.000000
-8.701329 -8.709987 -0.437871 1393 0.716863 0.697214 0.000000
-8.701374 -8.710033 -0.434081 1401 0.716863 0.697214 0.000000
-8.701569 -8.710230 -0.430309 1401 0.716863 0.697214 0.000000
-8.701816 -8.710471 -0.426536 1393 0.716863 0.697214 0.000000
-8.701643 -8.710296 -0.422738 1395 0.716863 0.697214 0.000000
-8.701322 -8.709984 -0.418941 1395 0.716863 0.697214 0.000000
-8.701352 -8.710017 -0.415160 1391 0.716863 0.697214 0.000000
-8.701138 -8.709795 -0.411362 1389 0.716863 0.697214 0.000000
-8.700702 -8.709359 -0.407556 1399 0.716863 0.697214 0.000000
-8.700426 -8.709086 -0.403759 1395 0.716863 0.697214 0.000000
-8.700253 -8.708910 -0.399971 1389 0.716863 0.697214 0.000000
-8.700487 -8.709153 -0.396198 1393 0.716863 0.697214 0.000000
-8.700415 -8.709075 -0.392409 1391 0.716863 0.697214 0.000000
-8.700601 -8.709265 -0.388637 1399 0.716863 0.697214 0.000000
-8.700631 -8.709299 -0.384847 1395 0.716863 0.697214 0.000000
-8.700559 -8.709221 -0.381067 1397 0.716863 0.697214 0.000000
-8.700838 -8.709502 -0.377294 1405 0.716863 0.697214 0.000000
-8.700820 -8.709483 -0.373505 1401 0.716863 0.697214 0.000000
-8.700483 -8.709144 -0.369708 1385 0.716863 0.697214 0.000000
-8.700459 -8.709119 -0.365928 1391 0.716863 0.697214 0.000000
-8.700684 -8.709355 -0.362146 1395 0.716863 0.697214 0.000000
-8.700557 -8.709218 -0.358357 1395 0.716863 0.697214 0.000000
-8.700423 -8.709088 -0.354568 1397 0.716863 0.697214 0.000000
-8.700493 -8.709168 -0.350787 1393 0.716863 0.697214 0.000000
-8.700568 -8.709240 -0.347006 1387 0.716863 0.697214 0.000000
-8.700840 -8.709515 -0.343234 1403 0.716863 0.697214 0.000000
-8.700916 -8.709587 -0.339453 1405 0.716863 0.697214 0.000000
-8.700673 -8.709340 -0.335665 1399 0.716863 0.697214 0.000000
-8.700898 -8.709576 -0.331893 1415 0.716863 0.697214 0.000000
-8.701021 -8.709701 -0.328111 1407 0.716863 0.697214 0.000000
-8.700317 -8.708990 -0.324298 1397 0.716863 0.697214 0.000000
-8.700176 -8.708853 -0.320509 1395 0.716863 0.697214 0.000000
-8.700494 -8.709167 -0.316746 1407 0.716863 0.697214 0.000000
-8.700562 -8.709233 -0.312966 1409 0.716863 0.697214 0.000000
-8.700218 -8.708887 -0.309169 1397 0.716863 0.697214 0.000000
-8.703978 -8.707175 -0.687919 1397 0.716863 0.697214 0.000000
-8.704179 -8.707377 -0.684137 1391 0.716863 0.697214 0.000000
-8.704684 -8.707888 -0.680382 1401 0.716863 0.697214 0.000000
-8.704472 -8.707665 -0.676574 1409 0.716863 0.697214 0.000000
-8.704089 -8.707288 -0.672758 1395 0.716863 0.697214 0.000000
-8.704338 -8.707544 -0.668985 1407 0.716863 0.697214 0.000000
-8.704633 -8.707838 -0.665212 1399 0.716863 0.697214 0.000000
-8.704310 -8.707512 -0.661395 1391 0.716863 0.697214 0.000000
-8.703989 -8.707187 -0.657578 1393 0.716863 0.697214 0.000000
-8.703770 -8.706972 -0.653770 1401 0.716863 0.697214 0.000000
-8.703650 -8.706856 -0.649971 1395 0.716863 0.697214 0.000000
-8.704141 -8.707353 -0.646216 1403 0.716863 0.697214 0.000000
-8.704280 -8.707490 -0.642435 1403 0.716863 0.697214 0.000000
-8.704160 -8.707359 -0.638636 1389 0.716863 0.697214 0.000000
-8.703934 -8.707138 -0.634828 1383 0.716863 0.697214 0.000000
-8.703815 -8.707022 -0.631029 1385 0.716863 0.697214 0.000000
-8.703993 -8.707205 -0.627257 1391 0.716863 0.697214 0.000000
-8.703976 -8.707186 -0.623457 1389 0.716863 0.697214 0.000000
-8.704263 -8.707474 -0.619695 1397 0.716863 0.697214 0.000000
-8.704651 -8.707858 -0.615931 1393 0.716863 0.697214 0.000000
-8.704165 -8.707370 -0.612105 1395 0.716863 0.697214 0.000000
-8.703672 -8.706875 -0.608280 1393 0.716863 0.697214 0.000000
-8.704163 -8.707372 -0.604525 1399 0.716863 0.697214 0.000000
-8.704394 -8.707600 -0.600753 1407 0.716863 0.697214 0.000000
-8.703848 -8.707060 -0.596928 1391 0.716863 0.697214 0.000000
-8.703308 -8.706512 -0.593103 1389 0.716863 0.697214 0.000000
-8.703322 -8.706533 -0.589313 1391 0.716863 0.697214 0.000000
-8.703866 -8.707074 -0.585558 1395 0.716863 0.697214 0.000000
-8.704090 -8.707297 -0.581785 1397 0.716863 0.697214 0.000000
-8.704213 -8.707421 -0.578004 1395 0.716863 0.697214 0.000000
-8.704181 -8.707389 -0.574214 1393 0.716863 0.697214 0.000000
-8.703628 -8.706842 -0.570390 1387 0.716863 0.697214 0.000000
-8.703337 -8.706556 -0.566582 1381 0.716863 0.697214 0.000000
-8.703710 -8.706928 -0.562819 1385 0.716863 0.697214 0.000000
-8.703886 -8.707098 -0.559037 1391 0.716863 0.697214 0.000000
-8.703793 -8.707014 -0.555248 1401 0.716863 0.697214 0.000000
-8.704321 -8.707544 -0.551492 1393 0.716863 0.697214 0.000000
-8.704545 -8.707767 -0.547710 1395 0.716863 0.697214 0.000000
-8.704146 -8.707361 -0.543904 1389 0.716863 0.697214 0.000000
-8.704058 -8.707271 -0.540105 1389 0.716863 0.697214 0.000000
-8.703909 -8.707129 -0.536316 1397 0.716863 0.697214 0.000000
-8.703970 -8.707188 -0.532525 1389 0.716863 0.697214 0.000000
-8.703875 -8.707090 -0.528736 1389 0.716863 0.697214 0.000000
-8.703577 -8.706798 -0.524929 1399 0.716863 0.697214 0.000000
-8.703990 -8.707216 -0.521165 1393 0.716863 0.697214 0.000000
-8.704261 -8.707478 -0.517392 1391 0.716863 0.697214 0.000000
-8.704063 -8.707282 -0.513594 1395 0.716863 0.697214 0.000000
-8.704062 -8.707290 -0.509814 1399 0.716863 0.697214 0.000000
-8.703452 -8.706671 -0.505990 1397 0.716863 0.697214 0.000000
-8.703404 -8.706626 -0.502200 1389 0.716863 0.697214 0.000000
-8.703817 -8.707045 -0.498436 1399 0.716863 0.697214 0.000000
-8.703861 -8.707090 -0.494655 1403 0.716863 0.697214 0.000000
-8.703407 -8.706628 -0.490840 1391 0.716863 0.697214 0.000000
-8.703507 -8.706733 -0.487059 1395 0.716863 0.697214 0.000000
-8.704076 -8.707308 -0.483303 1399 0.716863 0.697214 0.000000
-8.704377 -8.707608 -0.479530 1409 0.716863 0.697214 0.000000
-8.703815 -8.707041 -0.475716 1399 0.716863 0.697214 0.000000
-8.703446 -8.706676 -0.471909 1403 0.716863 0.697214 0.000000
-8.703857 -8.707081 -0.468145 1399 0.716863 0.697214 0.000000
-8.703950 -8.707180 -0.464364 1397 0.716863 0.697214 0.000000
-8.704043 -8.707279 -0.460583 1391 0.716863 0.697214 0.000000
-8.703526 -8.706750 -0.456768 1401 0.716863 0.697214 0.000000
-8.703002 -8.706229 -0.452963 1391 0.716863 0.697214 0.000000
-8.703616 -8.706842 -0.449207 1399 0.716863 0.697214 0.000000
-8.703444 -8.706681 -0.445408 1399 0.716863 0.697214 0.000000
-8.703435 -8.706668 -0.441628 1393 0.716863 0.697214 0.000000
-8.704041 -8.707275 -0.437872 1395 0.716863 0.697214 0.000000
-8.703572 -8.706800 -0.434057 1401 0.716863 0.697214 0.000000
-8.703041 -8.706272 -0.430252 1399 0.716863 0.697214 0.000000
-8.702875 -8.706103 -0.426453 1389 0.716863 0.697214 0.000000
-8.703008 -8.706248 -0.422682 1389 0.716863 0.697214 0.000000
-8.703567 -8.706803 -0.418917 1393 0.716863 0.697214 0.000000
-8.703657 -8.706887 -0.415136 1397 0.716863 0.697214 0.000000
-8.703383 -8.706614 -0.411338 1393 0.716863 0.697214 0.000000
-8.703414 -8.706648 -0.407558 1401 0.716863 0.697214 0.000000
-8.703600 -8.706838 -0.403786 1397 0.716863 0.697214 0.000000
-8.703379 -8.706610 -0.399988 1401 0.716863 0.697214 0.000000
-8.703198 -8.706442 -0.396199 1399 0.716863 0.697214 0.000000
-8.702511 -8.705744 -0.392386 1385 0.716863 0.697214 0.000000
-8.702642 -8.705875 -0.388605 1385 0.716863 0.697214 0.000000
-8.703241 -8.706476 -0.384849 1401 0.716863 0.697214 0.000000
-8.703372 -8.706607 -0.381068 1395 0.716863 0.697214 0.000000
-8.703341 -8.706590 -0.377288 1393 0.716863 0.697214 0.000000
-8.702699 -8.705944 -0.373474 1399 0.716863 0.697214 0.000000
-8.702722 -8.705972 -0.369693 1395 0.716863 0.697214 0.000000
-8.702852 -8.706102 -0.365912 1391 0.716863 0.697214 0.000000
-8.703092 -8.706337 -0.362140 1389 0.716863 0.697214 0.000000
-8.703059 -8.706305 -0.358350 1407 0.716863 0.697214 0.000000
-8.702511 -8.705751 -0.354545 1395 0.716863 0.697214 0.000000
-8.702737 -8.705987 -0.350773 1397 0.716863 0.697214 0.000000
-8.703125 -8.706372 -0.347009 1401 0.716863 0.697214 0.000000
-8.703194 -8.706438 -0.343228 1401 0.716863 0.697214 0.000000
-8.702904 -8.706152 -0.339431 1405 0.716863 0.697214 0.000000
-8.702615 -8.705865 -0.335634 1407 0.716863 0.697214 0.000000
-8.703150 -8.706401 -0.331878 1407 0.716863 0.697214 0.000000
-8.703218 -8.706467 -0.328098 1417 0.716863 0.697214 0.000000
-8.702406 -8.705651 -0.324285 1401 0.716863 0.697214 0.000000
-8.702374 -8.705620 -0.320496 1395 0.716863 0.697214 0.000000
-8.702645 -8.705894 -0.316723 1399 0.716863 0.697214 0.000000
-8.702349 -8.705602 -0.312936 1395 0.716863 0.697214 0.000000
-8.701840 -8.705093 -0.309131 1385 0.716863 0.697214 0.000000
-8.707111 -8.704881 -0.687946 1409 0.716863 0.697214 0.000000
-8.707149 -8.704921 -0.684156 1399 0.716863 0.697214 0.000000
-8.707086 -8.704863 -0.680366 1405 0.716863 0.697214 0.000000
-8.707075 -8.704850 -0.676566 1397 0.716863 0.697214 0.000000
-8.707324 -8.705106 -0.672794 1397 0.716863 0.697214 0.000000
-8.707003 -8.704780 -0.668977 1405 0.716863 0.697214 0.000000
-8.706728 -8.704507 -0.665169 1389 0.716863 0.697214 0.000000
-8.706975 -8.704748 -0.661397 1399 0.716863 0.697214 0.000000
-8.707013 -8.704788 -0.657606 1403 0.716863 0.697214 0.000000
-8.706996 -8.704769 -0.653817 1397 0.716863 0.697214 0.000000
-8.706878 -8.704653 -0.650008 1397 0.716863 0.697214 0.000000
-8.706907 -8.704686 -0.646227 1395 0.716863 0.697214 0.000000
-8.706734 -8.704511 -0.642419 1399 0.716863 0.697214 0.000000
-8.706414 -8.704198 -0.638602 1393 0.716863 0.697214 0.000000
-8.706490 -8.704269 -0.634821 1395 0.716863 0.697214 0.000000
-8.706316 -8.704094 -0.631023 1391 0.716863 0.697214 0.000000
-8.706393 -8.704181 -0.627232 1395 0.716863 0.697214 0.000000
-8.706430 -8.704206 -0.623441 1401 0.716863 0.697214 0.000000
-8.706196 -8.703979 -0.619643 1395 0.716863 0.697214 0.000000
-8.706326 -8.704110 -0.615862 1395 0.716863 0.697214 0.000000
-8.706614 -8.704398 -0.612089 1391 0.716863 0.697214 0.000000
-8.707165 -8.704946 -0.608334 1399 0.716863 0.697214 0.000000
-8.707227 -8.705019 -0.604553 1397 0.716863 0.697214 0.000000
-8.707107 -8.704889 -0.600754 1403 0.716863 0.697214 0.000000
-8.706973 -8.704760 -0.596955 1405 0.716863 0.697214 0.000000
-8.706893 -8.704675 -0.593156 1401 0.716863 0.697214 0.000000
