336
-21.294214 -20.215000 -0.652240 1147 0.732289 0.680993 0.000000
-21.295351 -20.216089 -0.643249 1151 0.732289 0.680993 0.000000
-21.295664 -20.216385 -0.634236 1145 0.732289 0.680993 0.000000
-21.295362 -20.216103 -0.625208 1151 0.732289 0.680993 0.000000
-21.295504 -20.216232 -0.616187 1157 0.732289 0.680993 0.000000
-21.295439 -20.216169 -0.607167 1167 0.732289 0.680993 0.000000
-21.294241 -20.215036 -0.598108 1155 0.732289 0.680993 0.000000
-21.294912 -20.215672 -0.589112 1143 0.732289 0.680993 0.000000
-21.295074 -20.215832 -0.580090 1147 0.732289 0.680993 0.000000
-21.294371 -20.215160 -0.571056 1155 0.732289 0.680993 0.000000
-21.295395 -20.216133 -0.562056 1149 0.732289 0.680993 0.000000
-21.295727 -20.216455 -0.553053 1139 0.732289 0.680993 0.000000
-21.295218 -20.215969 -0.544018 1129 0.732289 0.680993 0.000000
-21.295170 -20.215931 -0.534998 1131 0.732289 0.680993 0.000000
-21.295128 -20.215887 -0.525968 1145 0.732289 0.680993 0.000000
-21.295885 -20.216604 -0.516971 1147 0.732289 0.680993 0.000000
-21.295418 -20.216166 -0.507935 1173 0.732289 0.680993 0.000000
-21.293779 -20.214607 -0.498880 1151 0.732289 0.680993 0.000000
-21.293779 -20.214609 -0.489860 1149 0.732289 0.680993 0.000000
-21.294369 -20.215166 -0.480854 1153 0.732289 0.680993 0.000000
-21.295109 -20.215872 -0.471857 1147 0.732289 0.680993 0.000000
-21.294689 -20.215469 -0.462821 1165 0.732289 0.680993 0.000000
-21.294466 -20.215265 -0.453802 1145 0.732289 0.680993 0.000000
-21.295412 -20.216164 -0.444803 1159 0.732289 0.680993 0.000000
-21.294983 -20.215752 -0.435777 1163 0.732289 0.680993 0.000000
-21.294548 -20.215351 -0.426751 1153 0.732289 0.680993 0.000000
-21.295057 -20.215832 -0.417736 1165 0.732289 0.680993 0.000000
-21.294828 -20.215620 -0.408718 1149 0.732289 0.680993 0.000000
-21.294186 -20.215000 -0.399684 1149 0.732289 0.680993 0.000000
-21.293638 -20.214481 -0.390659 1149 0.732289 0.680993 0.000000
-21.293606 -20.214458 -0.381639 1123 0.732289 0.680993 0.000000
-21.293802 -20.214643 -0.372617 1161 0.732289 0.680993 0.000000
-21.293768 -20.214619 -0.363607 1153 0.732289 0.680993 0.000000
-21.294699 -20.215506 -0.354598 1131 0.732289 0.680993 0.000000
-21.294514 -20.215317 -0.345580 1137 0.732289 0.680993 0.000000
-21.292208 -20.213131 -0.336521 1133 0.732289 0.680993 0.000000
-21.292379 -20.213297 -0.327509 1143 0.732289 0.680993 0.000000
-21.292883 -20.213785 -0.318504 1141 0.732289 0.680993 0.000000
-21.293535 -20.214392 -0.309498 1139 0.732289 0.680993 0.000000
-21.294285 -20.215118 -0.300491 1139 0.732289 0.680993 0.000000
-21.294672 -20.215485 -0.291477 1149 0.732289 0.680993 0.000000
-21.293564 -20.214434 -0.282447 1143 0.732289 0.680993 0.000000
-21.301571 -20.209145 -0.652264 1153 0.732289 0.680993 0.000000
-21.302193 -20.209726 -0.643268 1169 0.732289 0.680993 0.000000
-21.302080 -20.209627 -0.634239 1161 0.732289 0.680993 0.000000
-21.300997 -20.208595 -0.625189 1145 0.732289 0.680993 0.000000
-21.301611 -20.209187 -0.616183 1163 0.732289 0.680993 0.000000
-21.301331 -20.208908 -0.607156 1139 0.732289 0.680993 0.000000
-21.300869 -20.208475 -0.598120 1125 0.732289 0.680993 0.000000
-21.300522 -20.208158 -0.589093 1133 0.732289 0.680993 0.000000
-21.300812 -20.208431 -0.580080 1145 0.732289 0.680993 0.000000
-21.301411 -20.208998 -0.571074 1175 0.732289 0.680993 0.000000
-21.301390 -20.208969 -0.562054 1159 0.732289 0.680993 0.000000
-21.301352 -20.208941 -0.553034 1163 0.732289 0.680993 0.000000
-21.300623 -20.208248 -0.543991 1161 0.732289 0.680993 0.000000
-21.300953 -20.208570 -0.534977 1155 0.732289 0.680993 0.000000
-21.301746 -20.209320 -0.525980 1149 0.732289 0.680993 0.000000
-21.302298 -20.209845 -0.516974 1157 0.732289 0.680993 0.000000
-21.301254 -20.208847 -0.507934 1141 0.732289 0.680993 0.000000
-21.300518 -20.208149 -0.498891 1153 0.732289 0.680993 0.000000
-21.300674 -20.208305 -0.489879 1147 0.732289 0.680993 0.000000
-21.300997 -20.208605 -0.480866 1151 0.732289 0.680993 0.000000
-21.301413 -20.209011 -0.471852 1163 0.732289 0.680993 0.000000
-21.301405 -20.209007 -0.462831 1153 0.732289 0.680993 0.000000
-21.301363 -20.208961 -0.453812 1157 0.732289 0.680993 0.000000
-21.301193 -20.208801 -0.444793 1169 0.732289 0.680993 0.000000
-21.300072 -20.207739 -0.435753 1183 0.732289 0.680993 0.000000
-21.299849 -20.207521 -0.426725 1173 0.732289 0.680993 0.000000
-21.301222 -20.208830 -0.417732 1175 0.732289 0.680993 0.000000
-21.300564 -20.208208 -0.408708 1157 0.732289 0.680993 0.000000
-21.300278 -20.207941 -0.399681 1151 0.732289 0.680993 0.000000
-21.300789 -20.208422 -0.390676 1153 0.732289 0.680993 0.000000
-21.299871 -20.207552 -0.381634 1151 0.732289 0.680993 0.000000
-21.300539 -20.208185 -0.372627 1155 0.732289 0.680993 0.000000
-21.301037 -20.208668 -0.363623 1153 0.732289 0.680993 0.000000
-21.299904 -20.207584 -0.354583 1141 0.732289 0.680993 0.000000
-21.300243 -20.207912 -0.345570 1139 0.732289 0.680993 0.000000
-21.302231 -20.209797 -0.336581 1141 0.732289 0.680993 0.000000
-21.301456 -20.209066 -0.327558 1163 0.732289 0.680993 0.000000
-21.300190 -20.207865 -0.318519 1143 0.732289 0.680993 0.000000
-21.300859 -20.208498 -0.309513 1131 0.732289 0.680993 0.000000
-21.300440 -20.208109 -0.300487 1147 0.732289 0.680993 0.000000
-21.299978 -20.207661 -0.291461 1141 0.732289 0.680993 0.000000
-21.300089 -20.207777 -0.282449 1145 0.732289 0.680993 0.000000
-21.308960 -20.203058 -0.652300 1133 0.732289 0.680993 0.000000
-21.308413 -20.202539 -0.643255 1115 0.732289 0.680993 0.000000
-21.307606 -20.201773 -0.634212 1133 0.732289 0.680993 0.000000
-21.308014 -20.202156 -0.625208 1143 0.732289 0.680993 0.000000
-21.308352 -20.202486 -0.616195 1151 0.732289 0.680993 0.000000
-21.308231 -20.202362 -0.607166 1137 0.732289 0.680993 0.000000
-21.307779 -20.201935 -0.598140 1141 0.732289 0.680993 0.000000
-21.307705 -20.201866 -0.589110 1151 0.732289 0.680993 0.000000
-21.307560 -20.201738 -0.580091 1157 0.732289 0.680993 0.000000
-21.306896 -20.201113 -0.571047 1169 0.732289 0.680993 0.000000
-21.308767 -20.202887 -0.562080 1177 0.732289 0.680993 0.000000
-21.309326 -20.203405 -0.553074 1157 0.732289 0.680993 0.000000
-21.307688 -20.201862 -0.544009 1151 0.732289 0.680993 0.000000
-21.307117 -20.201326 -0.534975 1133 0.732289 0.680993 0.000000
-21.307337 -20.201532 -0.525962 1131 0.732289 0.680993 0.000000
-21.308094 -20.202250 -0.516965 1141 0.732289 0.680993 0.000000
-21.308311 -20.202454 -0.507943 1139 0.732289 0.680993 0.000000
-21.308161 -20.202307 -0.498924 1157 0.732289 0.680993 0.000000
-21.307898 -20.202059 -0.489896 1163 0.732289 0.680993 0.000000
-21.307478 -20.201668 -0.480870 1149 0.732289 0.680993 0.000000
-21.307524 -20.201708 -0.471849 1151 0.732289 0.680993 0.000000
-21.308319 -20.202473 -0.462852 1155 0.732289 0.680993 0.000000
-21.307739 -20.201914 -0.453817 1145 0.732289 0.680993 0.000000
-21.307999 -20.202166 -0.444804 1127 0.732289 0.680993 0.000000
-21.308029 -20.202190 -0.435784 1157 0.732289 0.680993 0.000000
-21.306858 -20.201092 -0.426744 1155 0.732289 0.680993 0.000000
-21.306896 -20.201122 -0.417724 1161 0.732289 0.680993 0.000000
-21.306990 -20.201214 -0.408703 1155 0.732289 0.680993 0.000000
-21.306608 -20.200857 -0.399676 1173 0.732289 0.680993 0.000000
-21.306852 -20.201080 -0.390664 1157 0.732289 0.680993 0.000000
-21.306667 -20.200909 -0.381645 1139 0.732289 0.680993 0.000000
-21.306067 -20.200333 -0.372621 1137 0.732289 0.680993 0.000000
-21.306469 -20.200726 -0.363607 1143 0.732289 0.680993 0.000000
-21.306490 -20.200745 -0.354586 1149 0.732289 0.680993 0.000000
-21.306559 -20.200817 -0.345575 1153 0.732289 0.680993 0.000000
-21.307394 -20.201597 -0.336567 1163 0.732289 0.680993 0.000000
-21.307833 -20.202021 -0.327553 1151 0.732289 0.680993 0.000000
-21.306948 -20.201176 -0.318521 1143 0.732289 0.680993 0.000000
-21.306063 -20.200344 -0.309499 1157 0.732289 0.680993 0.000000
-21.305870 -20.200153 -0.300471 1149 0.732289 0.680993 0.000000
-21.307297 -20.201519 -0.291477 1145 0.732289 0.680993 0.000000
-21.308535 -20.202690 -0.282475 1183 0.732289 0.680993 0.000000
-21.314949 -20.196110 -0.652297 1131 0.732289 0.680993 0.000000
-21.314451 -20.195642 -0.643251 1127 0.732289 0.680993 0.000000
-21.314535 -20.195728 -0.634240 1129 0.732289 0.680993 0.000000
-21.314993 -20.196163 -0.625226 1143 0.732289 0.680993 0.000000
-21.313648 -20.194885 -0.616168 1145 0.732289 0.680993 0.000000
-21.313093 -20.194359 -0.607133 1137 0.732289 0.680993 0.000000
-21.314924 -20.196102 -0.598166 1163 0.732289 0.680993 0.000000
-21.313990 -20.195221 -0.589114 1171 0.732289 0.680993 0.000000
-21.313917 -20.195150 -0.580095 1165 0.732289 0.680993 0.000000
-21.314569 -20.195772 -0.571088 1137 0.732289 0.680993 0.000000
-21.313478 -20.194735 -0.562038 1141 0.732289 0.680993 0.000000
-21.313280 -20.194550 -0.553020 1159 0.732289 0.680993 0.000000
-21.313726 -20.194965 -0.544005 1151 0.732289 0.680993 0.000000
-21.314947 -20.196125 -0.535014 1153 0.732289 0.680993 0.000000
-21.316355 -20.197458 -0.526030 1183 0.732289 0.680993 0.000000
-21.315292 -20.196461 -0.516990 1183 0.732289 0.680993 0.000000
-21.313553 -20.194809 -0.507926 1169 0.732289 0.680993 0.000000
-21.312548 -20.193855 -0.498885 1169 0.732289 0.680993 0.000000
-21.312706 -20.194012 -0.489864 1159 0.732289 0.680993 0.000000
-21.313026 -20.194311 -0.480851 1145 0.732289 0.680993 0.000000
-21.313658 -20.194916 -0.471844 1143 0.732289 0.680993 0.000000
-21.313932 -20.195179 -0.462832 1159 0.732289 0.680993 0.000000
-21.313076 -20.194357 -0.453799 1157 0.732289 0.680993 0.000000
-21.313549 -20.194809 -0.444785 1155 0.732289 0.680993 0.000000
-21.313648 -20.194902 -0.435774 1165 0.732289 0.680993 0.000000
-21.313213 -20.194489 -0.426748 1153 0.732289 0.680993 0.000000
-21.313354 -20.194630 -0.417726 1143 0.732289 0.680993 0.000000
-21.314079 -20.195322 -0.408729 1151 0.732289 0.680993 0.000000
-21.314447 -20.195663 -0.399715 1155 0.732289 0.680993 0.000000
-21.314209 -20.195446 -0.390687 1163 0.732289 0.680993 0.000000
-21.314405 -20.195633 -0.381675 1163 0.732289 0.680993 0.000000
-21.315065 -20.196259 -0.372669 1169 0.732289 0.680993 0.000000
-21.314724 -20.195934 -0.363642 1163 0.732289 0.680993 0.000000
-21.314060 -20.195309 -0.354618 1151 0.732289 0.680993 0.000000
-21.314247 -20.195488 -0.345596 1143 0.732289 0.680993 0.000000
-21.314104 -20.195349 -0.336577 1155 0.732289 0.680993 0.000000
-21.313383 -20.194662 -0.327544 1149 0.732289 0.680993 0.000000
-21.313887 -20.195137 -0.318539 1127 0.732289 0.680993 0.000000
-21.313633 -20.194908 -0.309521 1143 0.732289 0.680993 0.000000
-21.313005 -20.194313 -0.300486 1141 0.732289 0.680993 0.000000
-21.313028 -20.194334 -0.291476 1127 0.732289 0.680993 0.000000
-21.313185 -20.194487 -0.282454 1133 0.732289 0.680993 0.000000
-21.320498 -20.188547 -0.652268 1133 0.732289 0.680993 0.000000
-21.320955 -20.188982 -0.643264 1131 0.732289 0.680993 0.000000
-21.321419 -20.189425 -0.634259 1147 0.732289 0.680993 0.000000
-21.321346 -20.189354 -0.625230 1145 0.732289 0.680993 0.000000
-21.320530 -20.188581 -0.616187 1137 0.732289 0.680993 0.000000
-21.320408 -20.188457 -0.607158 1133 0.732289 0.680993 0.000000
-21.320318 -20.188375 -0.598139 1117 0.732289 0.680993 0.000000
-21.319710 -20.187809 -0.589104 1107 0.732289 0.680993 0.000000
-21.320910 -20.188934 -0.580113 1129 0.732289 0.680993 0.000000
-21.321672 -20.189659 -0.571115 1137 0.732289 0.680993 0.000000
-21.320408 -20.188469 -0.562057 1121 0.732289 0.680993 0.000000
-21.319790 -20.187881 -0.553023 1127 0.732289 0.680993 0.000000
-21.320711 -20.188759 -0.544024 1159 0.732289 0.680993 0.000000
-21.321838 -20.189829 -0.535033 1143 0.732289 0.680993 0.000000
-21.322168 -20.190138 -0.526020 1155 0.732289 0.680993 0.000000
-21.321968 -20.189951 -0.516991 1157 0.732289 0.680993 0.000000
-21.321594 -20.189600 -0.507965 1173 0.732289 0.680993 0.000000
-21.321018 -20.189056 -0.498930 1159 0.732289 0.680993 0.000000
-21.321346 -20.189365 -0.489916 1165 0.732289 0.680993 0.000000
-21.321186 -20.189213 -0.480898 1161 0.732289 0.680993 0.000000
-21.321035 -20.189064 -0.471879 1149 0.732289 0.680993 0.000000
-21.320593 -20.188658 -0.462843 1147 0.732289 0.680993 0.000000
-21.320013 -20.188099 -0.453818 1139 0.732289 0.680993 0.000000
-21.320431 -20.188505 -0.444804 1133 0.732289 0.680993 0.000000
-21.320152 -20.188242 -0.435776 1145 0.732289 0.680993 0.000000
-21.319984 -20.188084 -0.426758 1137 0.732289 0.680993 0.000000
-21.320930 -20.188980 -0.417759 1143 0.732289 0.680993 0.000000
-21.320700 -20.188757 -0.408731 1145 0.732289 0.680993 0.000000
-21.319727 -20.187843 -0.399699 1121 0.732289 0.680993 0.000000
-21.319283 -20.187420 -0.390673 1147 0.732289 0.680993 0.000000
-21.319630 -20.187756 -0.381660 1139 0.732289 0.680993 0.000000
-21.319445 -20.187582 -0.372631 1149 0.732289 0.680993 0.000000
-21.320169 -20.188261 -0.363635 1145 0.732289 0.680993 0.000000
-21.320412 -20.188499 -0.354612 1161 0.732289 0.680993 0.000000
-21.319954 -20.188065 -0.345586 1165 0.732289 0.680993 0.000000
-21.320576 -20.188648 -0.336580 1147 0.732289 0.680993 0.000000
-21.320108 -20.188206 -0.327554 1129 0.732289 0.680993 0.000000
-21.319221 -20.187376 -0.318522 1123 0.732289 0.680993 0.000000
-21.320513 -20.188591 -0.309530 1149 0.732289 0.680993 0.000000
-21.321064 -20.189117 -0.300515 1145 0.732289 0.680993 0.000000
-21.318899 -20.187071 -0.291465 1137 0.732289 0.680993 0.000000
-21.319166 -20.187313 -0.282452 1141 0.732289 0.680993 0.000000
-21.328190 -20.182976 -0.652310 1133 0.732289 0.680993 0.000000
-21.328014 -20.182810 -0.643281 1129 0.732289 0.680993 0.000000
-21.327515 -20.182329 -0.634246 1133 0.732289 0.680993 0.000000
-21.326550 -20.181421 -0.625195 1137 0.732289 0.680993 0.000000
-21.326206 -20.181097 -0.616168 1121 0.732289 0.680993 0.000000
-21.326071 -20.180975 -0.607139 1121 0.732289 0.680993 0.000000
-21.326094 -20.180996 -0.598128 1113 0.732289 0.680993 0.000000
-21.327560 -20.182379 -0.589144 1135 0.732289 0.680993 0.000000
-21.327154 -20.182001 -0.580108 1145 0.732289 0.680993 0.000000
-21.326752 -20.181625 -0.571082 1135 0.732289 0.680993 0.000000
-21.327316 -20.182150 -0.562076 1141 0.732289 0.680993 0.000000
-21.326527 -20.181408 -0.553033 1127 0.732289 0.680993 0.000000
-21.326595 -20.181479 -0.544012 1157 0.732289 0.680993 0.000000
-21.327192 -20.182043 -0.535007 1155 0.732289 0.680993 0.000000
-21.326788 -20.181654 -0.525980 1161 0.732289 0.680993 0.000000
-21.325941 -20.180853 -0.516938 1139 0.732289 0.680993 0.000000
-21.325783 -20.180716 -0.507919 1149 0.732289 0.680993 0.000000
-21.325687 -20.180626 -0.498900 1147 0.732289 0.680993 0.000000
-21.327490 -20.182322 -0.489923 1155 0.732289 0.680993 0.000000
-21.328033 -20.182842 -0.480907 1155 0.732289 0.680993 0.000000
-21.327709 -20.182541 -0.471880 1139 0.732289 0.680993 0.000000
-21.326437 -20.181334 -0.462832 1127 0.732289 0.680993 0.000000
-21.325258 -20.180212 -0.453793 1117 0.732289 0.680993 0.000000
-21.325674 -20.180616 -0.444779 1129 0.732289 0.680993 0.000000
-21.326572 -20.181461 -0.435780 1147 0.732289 0.680993 0.000000
-21.327946 -20.182770 -0.426787 1155 0.732289 0.680993 0.000000
-21.327660 -20.182503 -0.417769 1161 0.732289 0.680993 0.000000
-21.327379 -20.182224 -0.408742 1151 0.732289 0.680993 0.000000
-21.327211 -20.182066 -0.399723 1139 0.732289 0.680993 0.000000
-21.326982 -20.181856 -0.390695 1141 0.732289 0.680993 0.000000
-21.326689 -20.181583 -0.381678 1135 0.732289 0.680993 0.000000
-21.326513 -20.181416 -0.372649 1133 0.732289 0.680993 0.000000
-21.327236 -20.182095 -0.363642 1129 0.732289 0.680993 0.000000
-21.327354 -20.182219 -0.354631 1141 0.732289 0.680993 0.000000
-21.326641 -20.181540 -0.345597 1131 0.732289 0.680993 0.000000
-21.325977 -20.180914 -0.336573 1135 0.732289 0.680993 0.000000
-21.325779 -20.180727 -0.327545 1147 0.732289 0.680993 0.000000
-21.325903 -20.180845 -0.318534 1149 0.732289 0.680993 0.000000
-21.326035 -20.180965 -0.309522 1141 0.732289 0.680993 0.000000
-21.326468 -20.181385 -0.300508 1123 0.732289 0.680993 0.000000
-21.326267 -20.181185 -0.291490 1133 0.732289 0.680993 0.000000
-21.326227 -20.181154 -0.282470 1151 0.732289 0.680993 0.000000
-21.334097 -20.175987 -0.652307 1135 0.732289 0.680993 0.000000
-21.334568 -20.176420 -0.643293 1129 0.732289 0.680993 0.000000
-21.333910 -20.175800 -0.634259 1115 0.732289 0.680993 0.000000
-21.332874 -20.174820 -0.625208 1117 0.732289 0.680993 0.000000
-21.332962 -20.174906 -0.616187 1111 0.732289 0.680993 0.000000
-21.332624 -20.174585 -0.607150 1101 0.732289 0.680993 0.000000
-21.332378 -20.174364 -0.598132 1109 0.732289 0.680993 0.000000
-21.333475 -20.175394 -0.589142 1111 0.732289 0.680993 0.000000
-21.333656 -20.175568 -0.580120 1113 0.732289 0.680993 0.000000
-21.333565 -20.175486 -0.571100 1133 0.732289 0.680993 0.000000
-21.334173 -20.176054 -0.562094 1143 0.732289 0.680993 0.000000
-21.334036 -20.175936 -0.553065 1113 0.732289 0.680993 0.000000
-21.333519 -20.175444 -0.544040 1119 0.732289 0.680993 0.000000
-21.332041 -20.174040 -0.534974 1149 0.732289 0.680993 0.000000
-21.332104 -20.174107 -0.525963 1145 0.732289 0.680993 0.000000
-21.332432 -20.174414 -0.516950 1137 0.732289 0.680993 0.000000
-21.331532 -20.173571 -0.507908 1119 0.732289 0.680993 0.000000
-21.331861 -20.173878 -0.498895 1127 0.732289 0.680993 0.000000
-21.333517 -20.175440 -0.489919 1147 0.732289 0.680993 0.000000
-21.334044 -20.175947 -0.480904 1147 0.732289 0.680993 0.000000
-21.333458 -20.175398 -0.471879 1139 0.732289 0.680993 0.000000
-21.333670 -20.175598 -0.462857 1151 0.732289 0.680993 0.000000
-21.333399 -20.175341 -0.453839 1139 0.732289 0.680993 0.000000
-21.332600 -20.174580 -0.444796 1133 0.732289 0.680993 0.000000
-21.332542 -20.174520 -0.435777 1141 0.732289 0.680993 0.000000
-21.333961 -20.175867 -0.426793 1135 0.732289 0.680993 0.000000
-21.334425 -20.176310 -0.417779 1149 0.732289 0.680993 0.000000
-21.333776 -20.175695 -0.408744 1149 0.732289 0.680993 0.000000
-21.333752 -20.175678 -0.399724 1131 0.732289 0.680993 0.000000
-21.332993 -20.174961 -0.390691 1141 0.732289 0.680993 0.000000
-21.331743 -20.173773 -0.381653 1139 0.732289 0.680993 0.000000
-21.332317 -20.174314 -0.372647 1125 0.732289 0.680993 0.000000
-21.332655 -20.174644 -0.363634 1129 0.732289 0.680993 0.000000
-21.332685 -20.174671 -0.354613 1147 0.732289 0.680993 0.000000
-21.333134 -20.175100 -0.345609 1141 0.732289 0.680993 0.000000
-21.332949 -20.174929 -0.336580 1123 0.732289 0.680993 0.000000
-21.333706 -20.175644 -0.327583 1133 0.732289 0.680993 0.000000
-21.334358 -20.176254 -0.318567 1125 0.732289 0.680993 0.000000
-21.334064 -20.175980 -0.309549 1133 0.732289 0.680993 0.000000
-21.333336 -20.175287 -0.300516 1147 0.732289 0.680993 0.000000
-21.333239 -20.175200 -0.291497 1153 0.732289 0.680993 0.000000
-21.333200 -20.175169 -0.282477 1135 0.732289 0.680993 0.000000
-21.341288 -20.170176 -0.652332 1141 0.732289 0.680993 0.000000
-21.341600 -20.170469 -0.643319 1129 0.732289 0.680993 0.000000
-21.340469 -20.169403 -0.634270 1129 0.732289 0.680993 0.000000
-21.339649 -20.168636 -0.625217 1141 0.732289 0.680993 0.000000
-21.339361 -20.168354 -0.616190 1129 0.732289 0.680993 0.000000
-21.339386 -20.168388 -0.607169 1111 0.732289 0.680993 0.000000
-21.340157 -20.169106 -0.598172 1145 0.732289 0.680993 0.000000
-21.340351 -20.169292 -0.589160 1127 0.732289 0.680993 0.000000
-21.340105 -20.169067 -0.580132 1119 0.732289 0.680993 0.000000
-21.340931 -20.169844 -0.571134 1125 0.732289 0.680993 0.000000
-21.341049 -20.169966 -0.562113 1127 0.732289 0.680993 0.000000
-21.340485 -20.169422 -0.553078 1131 0.732289 0.680993 0.000000
-21.339590 -20.168585 -0.544036 1119 0.732289 0.680993 0.000000
-21.338800 -20.167843 -0.534993 1129 0.732289 0.680993 0.000000
-21.338877 -20.167908 -0.525972 1137 0.732289 0.680993 0.000000
-21.339310 -20.168324 -0.516968 1123 0.732289 0.680993 0.000000
-21.338730 -20.167768 -0.507933 1119 0.732289 0.680993 0.000000
-21.338997 -20.168024 -0.498920 1129 0.732289 0.680993 0.000000
-21.339485 -20.168486 -0.489915 1119 0.732289 0.680993 0.000000
-21.339325 -20.168331 -0.480887 1127 0.732289 0.680993 0.000000
-21.340231 -20.169199 -0.471888 1135 0.732289 0.680993 0.000000
-21.340063 -20.169039 -0.462869 1139 0.732289 0.680993 0.000000
-21.339802 -20.168789 -0.453842 1141 0.732289 0.680993 0.000000
-21.338892 -20.167927 -0.444800 1121 0.732289 0.680993 0.000000
-21.337809 -20.166908 -0.435760 1137 0.732289 0.680993 0.000000
-21.338335 -20.167402 -0.426755 1123 0.732289 0.680993 0.000000
-21.338697 -20.167749 -0.417741 1127 0.732289 0.680993 0.000000
-21.339216 -20.168236 -0.408736 1135 0.732289 0.680993 0.000000
-21.340200 -20.169180 -0.399737 1141 0.732289 0.680993 0.000000
-21.339497 -20.168507 -0.390703 1147 0.732289 0.680993 0.000000
-21.338778 -20.167837 -0.381669 1137 0.732289 0.680993 0.000000
-21.338017 -20.167107 -0.372636 1117 0.732289 0.680993 0.000000
-21.336714 -20.165886 -0.363598 1113 0.732289 0.680993 0.000000
-21.337107 -20.166256 -0.354584 1125 0.732289 0.680993 0.000000
-21.337996 -20.167095 -0.345586 1125 0.732289 0.680993 0.000000
-21.338444 -20.167513 -0.336572 1121 0.732289 0.680993 0.000000
-21.338402 -20.167480 -0.327562 1129 0.732289 0.680993 0.000000
-21.339056 -20.168104 -0.318545 1133 0.732289 0.680993 0.000000
-21.339985 -20.168974 -0.309547 1119 0.732289 0.680993 0.000000
-21.339090 -20.168137 -0.300515 1107 0.732289 0.680993 0.000000
-21.338892 -20.167952 -0.291496 1125 0.732289 0.680993 0.000000
-21.339010 -20.168062 -0.282475 1129 0.732289 0.680993 0.000000
