186
-28.677166 -27.032482 -0.648364 883 0.715661 0.698447 0.000000
-28.676458 -27.031815 -0.636240 857 0.715661 0.698447 0.000000
-28.678087 -27.033356 -0.624175 863 0.715661 0.698447 0.000000
-28.681684 -27.036753 -0.612141 883 0.715661 0.698447 0.000000
-28.682142 -27.037186 -0.600046 877 0.715661 0.698447 0.000000
-28.682163 -27.037201 -0.587936 859 0.715661 0.698447 0.000000
-28.679651 -27.034838 -0.575779 873 0.715661 0.698447 0.000000
-28.678127 -27.033392 -0.563643 895 0.715661 0.698447 0.000000
-28.682400 -27.037426 -0.551623 885 0.715661 0.698447 0.000000
-28.682425 -27.037443 -0.539512 889 0.715661 0.698447 0.000000
-28.679667 -27.034855 -0.527358 903 0.715661 0.698447 0.000000
-28.679735 -27.034908 -0.515247 877 0.715661 0.698447 0.000000
-28.680475 -27.035610 -0.503160 869 0.715661 0.698447 0.000000
-28.679737 -27.034920 -0.491036 879 0.715661 0.698447 0.000000
-28.679476 -27.034664 -0.478928 889 0.715661 0.698447 0.000000
-28.681398 -27.036484 -0.466860 893 0.715661 0.698447 0.000000
-28.681438 -27.036528 -0.454750 865 0.715661 0.698447 0.000000
-28.680746 -27.035873 -0.442636 865 0.715661 0.698447 0.000000
-28.679625 -27.034805 -0.430516 891 0.715661 0.698447 0.000000
-28.679310 -27.034508 -0.418399 861 0.715661 0.698447 0.000000
-28.679293 -27.034494 -0.406298 881 0.715661 0.698447 0.000000
-28.677509 -27.032824 -0.394165 855 0.715661 0.698447 0.000000
-28.677551 -27.032856 -0.382064 865 0.715661 0.698447 0.000000
-28.677538 -27.032843 -0.369964 867 0.715661 0.698447 0.000000
-28.679745 -27.034929 -0.357883 855 0.715661 0.698447 0.000000
-28.680195 -27.035357 -0.345789 835 0.715661 0.698447 0.000000
-28.679956 -27.035124 -0.333681 845 0.715661 0.698447 0.000000
-28.681038 -27.036154 -0.321590 879 0.715661 0.698447 0.000000
-28.680429 -27.035570 -0.309476 827 0.715661 0.698447 0.000000
-28.680817 -27.035944 -0.297372 849 0.715661 0.698447 0.000000
-28.679279 -27.034489 -0.285256 873 0.715661 0.698447 0.000000
-28.689512 -27.027578 -0.648461 883 0.715661 0.698447 0.000000
-28.691206 -27.029171 -0.636395 869 0.715661 0.698447 0.000000
-28.690876 -27.028862 -0.624278 865 0.715661 0.698447 0.000000
-28.691916 -27.029848 -0.612188 891 0.715661 0.698447 0.000000
-28.692638 -27.030521 -0.600101 889 0.715661 0.698447 0.000000
-28.690907 -27.028894 -0.587957 855 0.715661 0.698447 0.000000
-28.689978 -27.028023 -0.575825 859 0.715661 0.698447 0.000000
-28.689734 -27.027796 -0.563717 869 0.715661 0.698447 0.000000
-28.689165 -27.027254 -0.551602 869 0.715661 0.698447 0.000000
-28.689016 -27.027119 -0.539483 885 0.715661 0.698447 0.000000
-28.688669 -27.026785 -0.527376 849 0.715661 0.698447 0.000000
-28.689787 -27.027843 -0.515286 875 0.715661 0.698447 0.000000
-28.689482 -27.027555 -0.503178 893 0.715661 0.698447 0.000000
-28.689535 -27.027611 -0.491067 871 0.715661 0.698447 0.000000
-28.690187 -27.028217 -0.478981 861 0.715661 0.698447 0.000000
-28.688007 -27.026173 -0.466831 869 0.715661 0.698447 0.000000
-28.687517 -27.025707 -0.454725 853 0.715661 0.698447 0.000000
-28.689711 -27.027771 -0.442655 877 0.715661 0.698447 0.000000
-28.690605 -27.028612 -0.430556 875 0.715661 0.698447 0.000000
-28.688898 -27.027002 -0.418432 871 0.715661 0.698447 0.000000
-28.688189 -27.026337 -0.406308 877 0.715661 0.698447 0.000000
-28.688227 -27.026379 -0.394207 869 0.715661 0.698447 0.000000
-28.689379 -27.027464 -0.382116 863 0.715661 0.698447 0.000000
-28.689678 -27.027746 -0.370013 863 0.715661 0.698447 0.000000
-28.689226 -27.027313 -0.357907 849 0.715661 0.698447 0.000000
-28.689945 -27.028000 -0.345810 879 0.715661 0.698447 0.000000
-28.689749 -27.027811 -0.333702 853 0.715661 0.698447 0.000000
-28.689766 -27.027834 -0.321591 849 0.715661 0.698447 0.000000
-28.689363 -27.027456 -0.309485 875 0.715661 0.698447 0.000000
-28.688904 -27.027016 -0.297379 841 0.715661 0.698447 0.000000
-28.689661 -27.027731 -0.285281 809 0.715661 0.698447 0.000000
-28.698372 -27.018412 -0.648466 877 0.715661 0.698447 0.000000
-28.698565 -27.018606 -0.636364 853 0.715661 0.698447 0.000000
-28.700310 -27.020241 -0.624297 843 0.715661 0.698447 0.000000
-28.698578 -27.018614 -0.612153 875 0.715661 0.698447 0.000000
-28.697319 -27.017433 -0.600015 843 0.715661 0.698447 0.000000
-28.698624 -27.018660 -0.587942 847 0.715661 0.698447 0.000000
-28.699184 -27.019192 -0.575847 867 0.715661 0.698447 0.000000
-28.696175 -27.016357 -0.563674 859 0.715661 0.698447 0.000000
-28.694710 -27.014971 -0.551538 871 0.715661 0.698447 0.000000
-28.696222 -27.016394 -0.539463 887 0.715661 0.698447 0.000000
-28.695646 -27.015858 -0.527348 885 0.715661 0.698447 0.000000
-28.695127 -27.015369 -0.515233 883 0.715661 0.698447 0.000000
-28.697262 -27.017374 -0.503163 891 0.715661 0.698447 0.000000
-28.698334 -27.018383 -0.491083 895 0.715661 0.698447 0.000000
-28.698870 -27.018894 -0.478977 873 0.715661 0.698447 0.000000
-28.697121 -27.017239 -0.466843 863 0.715661 0.698447 0.000000
-28.696371 -27.016539 -0.454730 857 0.715661 0.698447 0.000000
-28.697649 -27.017742 -0.442648 865 0.715661 0.698447 0.000000
-28.697420 -27.017529 -0.430540 883 0.715661 0.698447 0.000000
-28.696465 -27.016621 -0.418418 857 0.715661 0.698447 0.000000
-28.697184 -27.017307 -0.406321 841 0.715661 0.698447 0.000000
-28.698917 -27.018946 -0.394245 869 0.715661 0.698447 0.000000
-28.696575 -27.016731 -0.382106 877 0.715661 0.698447 0.000000
-28.695858 -27.016058 -0.369993 859 0.715661 0.698447 0.000000
-28.698545 -27.018585 -0.357917 891 0.715661 0.698447 0.000000
-28.698521 -27.018564 -0.345807 881 0.715661 0.698447 0.000000
-28.697845 -27.017937 -0.333703 857 0.715661 0.698447 0.000000
-28.696537 -27.016703 -0.321575 859 0.715661 0.698447 0.000000
-28.697521 -27.017630 -0.309486 837 0.715661 0.698447 0.000000
-28.699238 -27.019241 -0.297400 843 0.715661 0.698447 0.000000
-28.698355 -27.018406 -0.285287 853 0.715661 0.698447 0.000000
-28.706730 -27.008442 -0.648467 867 0.715661 0.698447 0.000000
-28.705809 -27.007574 -0.636335 873 0.715661 0.698447 0.000000
-28.705366 -27.007162 -0.624219 873 0.715661 0.698447 0.000000
-28.703972 -27.005846 -0.612082 851 0.715661 0.698447 0.000000
-28.706982 -27.008677 -0.600043 865 0.715661 0.698447 0.000000
-28.707006 -27.008707 -0.587933 841 0.715661 0.698447 0.000000
-28.706068 -27.007828 -0.575811 865 0.715661 0.698447 0.000000
-28.707691 -27.009350 -0.563736 851 0.715661 0.698447 0.000000
-28.706375 -27.008110 -0.551598 843 0.715661 0.698447 0.000000
-28.704485 -27.006329 -0.539455 869 0.715661 0.698447 0.000000
-28.704548 -27.006392 -0.527354 869 0.715661 0.698447 0.000000
-28.706747 -27.008457 -0.515284 871 0.715661 0.698447 0.000000
-28.708086 -27.009724 -0.503211 891 0.715661 0.698447 0.000000
-28.708258 -27.009890 -0.491099 879 0.715661 0.698447 0.000000
-28.706345 -27.008087 -0.478967 853 0.715661 0.698447 0.000000
-28.705807 -27.007572 -0.466851 871 0.715661 0.698447 0.000000
-28.706448 -27.008181 -0.454755 879 0.715661 0.698447 0.000000
-28.706377 -27.008121 -0.442645 847 0.715661 0.698447 0.000000
-28.706856 -27.008574 -0.430551 865 0.715661 0.698447 0.000000
-28.705786 -27.007559 -0.418430 863 0.715661 0.698447 0.000000
-28.706894 -27.008600 -0.406340 861 0.715661 0.698447 0.000000
-28.706776 -27.008490 -0.394230 843 0.715661 0.698447 0.000000
-28.705044 -27.006861 -0.382106 869 0.715661 0.698447 0.000000
-28.704596 -27.006445 -0.369990 859 0.715661 0.698447 0.000000
-28.706863 -27.008579 -0.357919 847 0.715661 0.698447 0.000000
-28.705887 -27.007656 -0.345798 829 0.715661 0.698447 0.000000
-28.705160 -27.006975 -0.333684 811 0.715661 0.698447 0.000000
-28.706621 -27.008352 -0.321600 807 0.715661 0.698447 0.000000
-28.707390 -27.009066 -0.309503 829 0.715661 0.698447 0.000000
-28.707085 -27.008787 -0.297395 845 0.715661 0.698447 0.000000
-28.704113 -27.005987 -0.285263 843 0.715661 0.698447 0.000000
-28.716578 -27.000517 -0.648501 849 0.715661 0.698447 0.000000
-28.715452 -26.999458 -0.636361 853 0.715661 0.698447 0.000000
-28.712616 -26.996792 -0.624197 851 0.715661 0.698447 0.000000
-28.713177 -26.997322 -0.612102 865 0.715661 0.698447 0.000000
-28.713690 -26.997803 -0.600007 849 0.715661 0.698447 0.000000
-28.715042 -26.999079 -0.587924 819 0.715661 0.698447 0.000000
-28.715721 -26.999720 -0.575837 851 0.715661 0.698447 0.000000
-28.714254 -26.998333 -0.563700 851 0.715661 0.698447 0.000000
-28.714216 -26.998299 -0.551591 839 0.715661 0.698447 0.000000
-28.714659 -26.998722 -0.539496 867 0.715661 0.698447 0.000000
-28.713861 -26.997969 -0.527373 877 0.715661 0.698447 0.000000
-28.712334 -26.996532 -0.515237 861 0.715661 0.698447 0.000000
-28.714048 -26.998144 -0.503161 877 0.715661 0.698447 0.000000
-28.713160 -26.997301 -0.491049 863 0.715661 0.698447 0.000000
-28.711285 -26.995546 -0.478906 845 0.715661 0.698447 0.000000
-28.712732 -26.996902 -0.466822 851 0.715661 0.698447 0.000000
-28.715067 -26.999104 -0.454760 865 0.715661 0.698447 0.000000
-28.714800 -26.998846 -0.442653 847 0.715661 0.698447 0.000000
-28.715538 -26.999546 -0.430555 863 0.715661 0.698447 0.000000
-28.717611 -27.001499 -0.418486 839 0.715661 0.698447 0.000000
-28.714396 -26.998474 -0.406325 831 0.715661 0.698447 0.000000
-28.713964 -26.998070 -0.394219 863 0.715661 0.698447 0.000000
-28.715273 -26.999296 -0.382127 827 0.715661 0.698447 0.000000
-28.715366 -26.999384 -0.370026 845 0.715661 0.698447 0.000000
-28.716404 -27.000355 -0.357936 837 0.715661 0.698447 0.000000
-28.717184 -27.001091 -0.345838 841 0.715661 0.698447 0.000000
-28.717634 -27.001516 -0.333734 837 0.715661 0.698447 0.000000
-28.715790 -26.999784 -0.321611 847 0.715661 0.698447 0.000000
-28.715382 -26.999401 -0.309504 813 0.715661 0.698447 0.000000
-28.714972 -26.999014 -0.297388 823 0.715661 0.698447 0.000000
-28.714977 -26.999016 -0.285287 813 0.715661 0.698447 0.000000
-28.725105 -26.991365 -0.648507 835 0.715661 0.698447 0.000000
-28.725412 -26.991652 -0.636404 839 0.715661 0.698447 0.000000
-28.721813 -26.988276 -0.624217 833 0.715661 0.698447 0.000000
-28.723137 -26.989515 -0.612134 847 0.715661 0.698447 0.000000
-28.723595 -26.989950 -0.600040 837 0.715661 0.698447 0.000000
-28.723680 -26.990017 -0.587939 833 0.715661 0.698447 0.000000
-28.723059 -26.989433 -0.575814 833 0.715661 0.698447 0.000000
-28.722490 -26.988905 -0.563699 801 0.715661 0.698447 0.000000
-28.722561 -26.988974 -0.551598 837 0.715661 0.698447 0.000000
-28.722807 -26.989197 -0.539496 845 0.715661 0.698447 0.000000
-28.723349 -26.989712 -0.527400 839 0.715661 0.698447 0.000000
-28.723358 -26.989716 -0.515290 851 0.715661 0.698447 0.000000
-28.724066 -26.990381 -0.503193 821 0.715661 0.698447 0.000000
-28.724285 -26.990597 -0.491091 849 0.715661 0.698447 0.000000
-28.724342 -26.990654 -0.478990 829 0.715661 0.698447 0.000000
-28.725403 -26.991642 -0.466900 859 0.715661 0.698447 0.000000
-28.722475 -26.988888 -0.454747 831 0.715661 0.698447 0.000000
-28.721664 -26.988138 -0.442634 833 0.715661 0.698447 0.000000
-28.723530 -26.989883 -0.430557 841 0.715661 0.698447 0.000000
-28.722082 -26.988523 -0.418430 843 0.715661 0.698447 0.000000
-28.722929 -26.989315 -0.406332 817 0.715661 0.698447 0.000000
-28.724239 -26.990557 -0.394249 835 0.715661 0.698447 0.000000
-28.721560 -26.988031 -0.382104 839 0.715661 0.698447 0.000000
-28.722427 -26.988850 -0.370015 823 0.715661 0.698447 0.000000
-28.724815 -26.991095 -0.357943 823 0.715661 0.698447 0.000000
-28.723663 -26.990017 -0.345823 811 0.715661 0.698447 0.000000
-28.722569 -26.988983 -0.333703 813 0.715661 0.698447 0.000000
-28.723436 -26.989801 -0.321605 819 0.715661 0.698447 0.000000
-28.724318 -26.990633 -0.309506 811 0.715661 0.698447 0.000000
-28.724295 -26.990599 -0.297406 809 0.715661 0.698447 0.000000
-28.724718 -26.991005 -0.285302 817 0.715661 0.698447 0.000000
