774
-5.046394 -5.274713 -0.343695 1323 0.720234 0.693732 0.000000
-5.045908 -5.274207 -0.341420 1329 0.720233 0.693732 0.000000
-5.046035 -5.274344 -0.339179 1335 0.720234 0.693732 0.000000
-5.046757 -5.275097 -0.336981 1347 0.720234 0.693732 0.000000
-5.046417 -5.274746 -0.334715 1329 0.720234 0.693732 0.000000
-5.046286 -5.274613 -0.332456 1315 0.720234 0.693732 0.000000
-5.046452 -5.274781 -0.330224 1309 0.720234 0.693732 0.000000
-5.046426 -5.274757 -0.327974 1295 0.720234 0.693732 0.000000
-5.046037 -5.274354 -0.325708 1297 0.720234 0.693732 0.000000
-5.045898 -5.274216 -0.323449 1315 0.720234 0.693732 0.000000
-5.045765 -5.274068 -0.321201 1311 0.720234 0.693732 0.000000
-5.045675 -5.273980 -0.318942 1311 0.720234 0.693732 0.000000
-5.046196 -5.274522 -0.316736 1329 0.720234 0.693732 0.000000
-5.046517 -5.274865 -0.314503 1333 0.720234 0.693732 0.000000
-5.046378 -5.274725 -0.312254 1313 0.720234 0.693732 0.000000
-5.046343 -5.274682 -0.310005 1307 0.720233 0.693732 0.000000
-5.046446 -5.274800 -0.307764 1345 0.720234 0.693732 0.000000
-5.045702 -5.274024 -0.305471 1335 0.720233 0.693732 0.000000
-5.045465 -5.273767 -0.303213 1329 0.720234 0.693732 0.000000
-5.048079 -5.273080 -0.697484 1339 0.720234 0.693732 0.000000
-5.047826 -5.272811 -0.695186 1333 0.720234 0.693732 0.000000
-5.047516 -5.272484 -0.692889 1335 0.720234 0.693732 0.000000
-5.047104 -5.272062 -0.690573 1353 0.720234 0.693732 0.000000
-5.046697 -5.271632 -0.688257 1353 0.720234 0.693732 0.000000
-5.047445 -5.272419 -0.686090 1359 0.720234 0.693732 0.000000
-5.048450 -5.273461 -0.683970 1351 0.720234 0.693732 0.000000
-5.048786 -5.273818 -0.681746 1335 0.720233 0.693732 0.000000
-5.048826 -5.273871 -0.679496 1337 0.720234 0.693732 0.000000
-5.048669 -5.273706 -0.677217 1349 0.720234 0.693732 0.000000
-5.047707 -5.272690 -0.674827 1339 0.720234 0.693732 0.000000
-5.047286 -5.272262 -0.672511 1315 0.720234 0.693732 0.000000
-5.047534 -5.272521 -0.670278 1325 0.720234 0.693732 0.000000
-5.047474 -5.272458 -0.668009 1339 0.720234 0.693732 0.000000
-5.047206 -5.272177 -0.665722 1333 0.720234 0.693732 0.000000
-5.047598 -5.272590 -0.663508 1333 0.720233 0.693732 0.000000
-5.048242 -5.273268 -0.661331 1329 0.720234 0.693732 0.000000
-5.048376 -5.273410 -0.659090 1331 0.720234 0.693732 0.000000
-5.048261 -5.273290 -0.656821 1341 0.720234 0.693732 0.000000
-5.047492 -5.272481 -0.654459 1333 0.720234 0.693732 0.000000
-5.047578 -5.272573 -0.652208 1333 0.720234 0.693732 0.000000
-5.047866 -5.272877 -0.649985 1331 0.720234 0.693732 0.000000
-5.047750 -5.272756 -0.647716 1329 0.720234 0.693732 0.000000
-5.048240 -5.273273 -0.645521 1351 0.720233 0.693732 0.000000
-5.047915 -5.272933 -0.643214 1339 0.720234 0.693732 0.000000
-5.047856 -5.272871 -0.640954 1319 0.720234 0.693732 0.000000
-5.048740 -5.273792 -0.638806 1339 0.720234 0.693732 0.000000
-5.048625 -5.273671 -0.636527 1359 0.720234 0.693732 0.000000
-5.047946 -5.272972 -0.634183 1345 0.720233 0.693732 0.000000
-5.048025 -5.273058 -0.631943 1349 0.720233 0.693732 0.000000
-5.047861 -5.272886 -0.629664 1349 0.720234 0.693732 0.000000
-5.047536 -5.272546 -0.627357 1335 0.720234 0.693732 0.000000
-5.047114 -5.272104 -0.625051 1323 0.720234 0.693732 0.000000
-5.046539 -5.271502 -0.622727 1323 0.720234 0.693732 0.000000
-5.047422 -5.272422 -0.620578 1341 0.720234 0.693732 0.000000
-5.048364 -5.273415 -0.618429 1353 0.720234 0.693732 0.000000
-5.048088 -5.273127 -0.616142 1325 0.720234 0.693732 0.000000
-5.048013 -5.273052 -0.613872 1321 0.720234 0.693732 0.000000
-5.048146 -5.273181 -0.611631 1337 0.720233 0.693732 0.000000
-5.048217 -5.273261 -0.609380 1351 0.720234 0.693732 0.000000
-5.047690 -5.272708 -0.607065 1335 0.720234 0.693732 0.000000
-5.047720 -5.272743 -0.604815 1349 0.720233 0.693732 0.000000
-5.047637 -5.272661 -0.602546 1343 0.720234 0.693732 0.000000
-5.047014 -5.272006 -0.600212 1323 0.720234 0.693732 0.000000
-5.047690 -5.272723 -0.598035 1331 0.720233 0.693732 0.000000
-5.048171 -5.273219 -0.595840 1337 0.720234 0.693732 0.000000
-5.047234 -5.272251 -0.593469 1331 0.720234 0.693732 0.000000
-5.047214 -5.272219 -0.591210 1325 0.720234 0.693732 0.000000
-5.047882 -5.272929 -0.589033 1343 0.720234 0.693732 0.000000
-5.048007 -5.273052 -0.586792 1351 0.720234 0.693732 0.000000
-5.047578 -5.272604 -0.584486 1347 0.720234 0.693732 0.000000
-5.047745 -5.272786 -0.582254 1341 0.720234 0.693732 0.000000
-5.048073 -5.273121 -0.580031 1357 0.720234 0.693732 0.000000
-5.047435 -5.272468 -0.577707 1351 0.720233 0.693732 0.000000
-5.047003 -5.272006 -0.575401 1351 0.720234 0.693732 0.000000
-5.046719 -5.271712 -0.573114 1349 0.720234 0.693732 0.000000
-5.046935 -5.271945 -0.570882 1351 0.720234 0.693732 0.000000
-5.047408 -5.272436 -0.568677 1345 0.720234 0.693732 0.000000
-5.047931 -5.272991 -0.566482 1361 0.720234 0.693732 0.000000
-5.047854 -5.272902 -0.564223 1369 0.720234 0.693732 0.000000
-5.046803 -5.271803 -0.561853 1343 0.720234 0.693732 0.000000
-5.046915 -5.271928 -0.559612 1343 0.720234 0.693732 0.000000
-5.047395 -5.272424 -0.557407 1353 0.720234 0.693732 0.000000
-5.046901 -5.271912 -0.555102 1341 0.720234 0.693732 0.000000
-5.046609 -5.271612 -0.552815 1325 0.720234 0.693732 0.000000
-5.047033 -5.272050 -0.550610 1335 0.720234 0.693732 0.000000
-5.047443 -5.272491 -0.548396 1337 0.720234 0.693732 0.000000
-5.048118 -5.273192 -0.546219 1341 0.720233 0.693732 0.000000
-5.048179 -5.273251 -0.543969 1351 0.720234 0.693732 0.000000
-5.047637 -5.272687 -0.541654 1355 0.720234 0.693732 0.000000
-5.047595 -5.272651 -0.539394 1355 0.720234 0.693732 0.000000
-5.047408 -5.272460 -0.537126 1335 0.720234 0.693732 0.000000
-5.047017 -5.272043 -0.534830 1335 0.720234 0.693732 0.000000
-5.047080 -5.272116 -0.532579 1341 0.720234 0.693732 0.000000
-5.047585 -5.272645 -0.530384 1351 0.720234 0.693732 0.000000
-5.047301 -5.272351 -0.528097 1345 0.720234 0.693732 0.000000
-5.047660 -5.272726 -0.525883 1345 0.720234 0.693732 0.000000
-5.047875 -5.272945 -0.523651 1347 0.720234 0.693732 0.000000
-5.047624 -5.272690 -0.521374 1329 0.720234 0.693732 0.000000
-5.047782 -5.272852 -0.519142 1339 0.720234 0.693732 0.000000
-5.047797 -5.272874 -0.516892 1345 0.720234 0.693732 0.000000
-5.047648 -5.272714 -0.514623 1331 0.720234 0.693732 0.000000
-5.047147 -5.272195 -0.512318 1327 0.720234 0.693732 0.000000
-5.047103 -5.272145 -0.510059 1341 0.720234 0.693732 0.000000
-5.047409 -5.272476 -0.507835 1341 0.720234 0.693732 0.000000
-5.047720 -5.272799 -0.505622 1349 0.720234 0.693732 0.000000
-5.047878 -5.272961 -0.503381 1347 0.720234 0.693732 0.000000
-5.048391 -5.273496 -0.501176 1371 0.720234 0.693732 0.000000
-5.047826 -5.272913 -0.498871 1355 0.720234 0.693732 0.000000
-5.047179 -5.272240 -0.496557 1339 0.720234 0.693732 0.000000
-5.047329 -5.272396 -0.494316 1341 0.720233 0.693732 0.000000
-5.047585 -5.272661 -0.492093 1351 0.720234 0.693732 0.000000
-5.047840 -5.272926 -0.489871 1351 0.720234 0.693732 0.000000
-5.047790 -5.272883 -0.487611 1343 0.720234 0.693732 0.000000
-5.047940 -5.273039 -0.485370 1335 0.720234 0.693732 0.000000
-5.047792 -5.272880 -0.483111 1341 0.720234 0.693732 0.000000
-5.047637 -5.272728 -0.480842 1343 0.720234 0.693732 0.000000
-5.047586 -5.272671 -0.478583 1339 0.720234 0.693732 0.000000
-5.047228 -5.272293 -0.476306 1331 0.720234 0.693732 0.000000
-5.047831 -5.272925 -0.474110 1339 0.720234 0.693732 0.000000
-5.048038 -5.273139 -0.471878 1333 0.720234 0.693732 0.000000
-5.047480 -5.272563 -0.469574 1315 0.720234 0.693732 0.000000
-5.047921 -5.273027 -0.467359 1343 0.720234 0.693732 0.000000
-5.048281 -5.273401 -0.465146 1343 0.720234 0.693732 0.000000
-5.047869 -5.272980 -0.462860 1333 0.720233 0.693732 0.000000
-5.047511 -5.272602 -0.460573 1329 0.720234 0.693732 0.000000
-5.047605 -5.272700 -0.458332 1331 0.720234 0.693732 0.000000
-5.048054 -5.273171 -0.456118 1331 0.720234 0.693732 0.000000
-5.048407 -5.273539 -0.453904 1335 0.720234 0.693732 0.000000
-5.048243 -5.273367 -0.451636 1339 0.720234 0.693732 0.000000
-5.047725 -5.272835 -0.449341 1339 0.720234 0.693732 0.000000
-5.047270 -5.272354 -0.447055 1331 0.720234 0.693732 0.000000
-5.047365 -5.272453 -0.444814 1315 0.720234 0.693732 0.000000
-5.047306 -5.272389 -0.442555 1309 0.720234 0.693732 0.000000
-5.047184 -5.272277 -0.440296 1323 0.720234 0.693732 0.000000
-5.047793 -5.272902 -0.438100 1329 0.720234 0.693732 0.000000
-5.048532 -5.273682 -0.435912 1335 0.720234 0.693732 0.000000
-5.048368 -5.273510 -0.433654 1339 0.720234 0.693732 0.000000
-5.047101 -5.272187 -0.431297 1319 0.720234 0.693732 0.000000
-5.047034 -5.272118 -0.429037 1317 0.720234 0.693732 0.000000
-5.048080 -5.273220 -0.426877 1327 0.720234 0.693732 0.000000
-5.048070 -5.273208 -0.424627 1323 0.720234 0.693732 0.000000
-5.047760 -5.272882 -0.422350 1311 0.720233 0.693732 0.000000
-5.048089 -5.273231 -0.420126 1323 0.720233 0.693732 0.000000
-5.047877 -5.273007 -0.417868 1333 0.720234 0.693732 0.000000
-5.047915 -5.273048 -0.415618 1325 0.720234 0.693732 0.000000
-5.048348 -5.273506 -0.413404 1333 0.720234 0.693732 0.000000
-5.048330 -5.273489 -0.411154 1327 0.720234 0.693732 0.000000
-5.047763 -5.272892 -0.408859 1331 0.720234 0.693732 0.000000
-5.047905 -5.273042 -0.406618 1337 0.720234 0.693732 0.000000
-5.048492 -5.273661 -0.404422 1327 0.720234 0.693732 0.000000
-5.048418 -5.273586 -0.402163 1333 0.720234 0.693732 0.000000
-5.047947 -5.273092 -0.399877 1325 0.720234 0.693732 0.000000
-5.047832 -5.272972 -0.397618 1329 0.720234 0.693732 0.000000
-5.048015 -5.273166 -0.395386 1323 0.720234 0.693732 0.000000
-5.048094 -5.273252 -0.393146 1319 0.720233 0.693732 0.000000
-5.048178 -5.273330 -0.390905 1323 0.720234 0.693732 0.000000
-5.047750 -5.272895 -0.388629 1313 0.720234 0.693732 0.000000
-5.047932 -5.273076 -0.386387 1315 0.720234 0.693732 0.000000
-5.048462 -5.273638 -0.384182 1329 0.720234 0.693732 0.000000
-5.047887 -5.273035 -0.381887 1317 0.720234 0.693732 0.000000
-5.047667 -5.272805 -0.379630 1321 0.720234 0.693732 0.000000
-5.047439 -5.272569 -0.377362 1327 0.720233 0.693732 0.000000
-5.047671 -5.272816 -0.375129 1329 0.720234 0.693732 0.000000
-5.047693 -5.272843 -0.372889 1325 0.720234 0.693732 0.000000
-5.047570 -5.272717 -0.370630 1315 0.720234 0.693732 0.000000
-5.048252 -5.273426 -0.368433 1313 0.720234 0.693732 0.000000
-5.047871 -5.273028 -0.366157 1311 0.720234 0.693732 0.000000
-5.047094 -5.272213 -0.363855 1317 0.720234 0.693732 0.000000
-5.047060 -5.272183 -0.361605 1319 0.720234 0.693732 0.000000
-5.047647 -5.272802 -0.359399 1339 0.720234 0.693732 0.000000
-5.047514 -5.272655 -0.357150 1327 0.720234 0.693732 0.000000
-5.046885 -5.272009 -0.354857 1311 0.720234 0.693732 0.000000
-5.047212 -5.272344 -0.352633 1313 0.720234 0.693732 0.000000
-5.047581 -5.272738 -0.350410 1307 0.720233 0.693732 0.000000
-5.047956 -5.273125 -0.348186 1319 0.720234 0.693732 0.000000
-5.048084 -5.273263 -0.345955 1309 0.720234 0.693732 0.000000
-5.047848 -5.273020 -0.343687 1313 0.720234 0.693732 0.000000
-5.048425 -5.273620 -0.341481 1337 0.720234 0.693732 0.000000
-5.049051 -5.274271 -0.339275 1361 0.720234 0.693732 0.000000
-5.048518 -5.273726 -0.336990 1337 0.720234 0.693732 0.000000
-5.047926 -5.273097 -0.334706 1335 0.720234 0.693732 0.000000
-5.047135 -5.272284 -0.332414 1321 0.720234 0.693732 0.000000
-5.047204 -5.272349 -0.330173 1315 0.720234 0.693732 0.000000
-5.047678 -5.272853 -0.327958 1313 0.720233 0.693732 0.000000
-5.047643 -5.272809 -0.325708 1299 0.720234 0.693732 0.000000
-5.048318 -5.273525 -0.323502 1319 0.720233 0.693732 0.000000
-5.048485 -5.273694 -0.321270 1325 0.720234 0.693732 0.000000
-5.048249 -5.273451 -0.319002 1333 0.720234 0.693732 0.000000
-5.047860 -5.273048 -0.316736 1331 0.720234 0.693732 0.000000
-5.047463 -5.272638 -0.314470 1325 0.720233 0.693732 0.000000
-5.048033 -5.273231 -0.312254 1321 0.720233 0.693732 0.000000
-5.048513 -5.273727 -0.310039 1329 0.720234 0.693732 0.000000
-5.047906 -5.273100 -0.307755 1337 0.720234 0.693732 0.000000
-5.047768 -5.272960 -0.305507 1327 0.720234 0.693732 0.000000
-5.047636 -5.272813 -0.303248 1327 0.720234 0.693732 0.000000
-5.048826 -5.270966 -0.699651 1335 0.720234 0.693732 0.000000
-5.048767 -5.270903 -0.697381 1331 0.720234 0.693732 0.000000
-5.049063 -5.271214 -0.695158 1341 0.720234 0.693732 0.000000
-5.048852 -5.271004 -0.692870 1343 0.720234 0.693732 0.000000
-5.048647 -5.270787 -0.690582 1335 0.720234 0.693732 0.000000
-5.049186 -5.271355 -0.688397 1349 0.720234 0.693732 0.000000
-5.049635 -5.271826 -0.686192 1343 0.720234 0.693732 0.000000
-5.049584 -5.271770 -0.683923 1345 0.720234 0.693732 0.000000
-5.049171 -5.271348 -0.681607 1337 0.720234 0.693732 0.000000
-5.048708 -5.270860 -0.679291 1327 0.720234 0.693732 0.000000
-5.048496 -5.270636 -0.676994 1337 0.720234 0.693732 0.000000
-5.048584 -5.270742 -0.674753 1337 0.720234 0.693732 0.000000
-5.048719 -5.270885 -0.672511 1329 0.720234 0.693732 0.000000
-5.049015 -5.271195 -0.670288 1339 0.720234 0.693732 0.000000
-5.048754 -5.270920 -0.667991 1343 0.720234 0.693732 0.000000
-5.048541 -5.270697 -0.665703 1329 0.720234 0.693732 0.000000
-5.049128 -5.271316 -0.663527 1335 0.720234 0.693732 0.000000
-5.049174 -5.271363 -0.661266 1339 0.720234 0.693732 0.000000
-5.048503 -5.270670 -0.658923 1333 0.720234 0.693732 0.000000
-5.048637 -5.270814 -0.656681 1329 0.720234 0.693732 0.000000
-5.049683 -5.271902 -0.654551 1327 0.720234 0.693732 0.000000
-5.050011 -5.272251 -0.652338 1333 0.720234 0.693732 0.000000
-5.049799 -5.272027 -0.650050 1351 0.720234 0.693732 0.000000
-5.049587 -5.271803 -0.647762 1349 0.720234 0.693732 0.000000
-5.049375 -5.271580 -0.645474 1333 0.720233 0.693732 0.000000
-5.049655 -5.271878 -0.643251 1335 0.720234 0.693732 0.000000
-5.049991 -5.272233 -0.641038 1337 0.720233 0.693732 0.000000
-5.049771 -5.272004 -0.638750 1345 0.720234 0.693732 0.000000
-5.049050 -5.271246 -0.636407 1347 0.720233 0.693732 0.000000
-5.049026 -5.271236 -0.634147 1341 0.720234 0.693732 0.000000
-5.049458 -5.271681 -0.631943 1339 0.720234 0.693732 0.000000
-5.049092 -5.271297 -0.629636 1323 0.720234 0.693732 0.000000
-5.048976 -5.271175 -0.627357 1341 0.720233 0.693732 0.000000
-5.048645 -5.270844 -0.625061 1327 0.720234 0.693732 0.000000
-5.047973 -5.270138 -0.622727 1321 0.720234 0.693732 0.000000
-5.047995 -5.270166 -0.620467 1329 0.720234 0.693732 0.000000
-5.048171 -5.270354 -0.618235 1325 0.720234 0.693732 0.000000
-5.047950 -5.270124 -0.615947 1309 0.720234 0.693732 0.000000
-5.048584 -5.270782 -0.613771 1337 0.720234 0.693732 0.000000
-5.048510 -5.270707 -0.611502 1339 0.720234 0.693732 0.000000
-5.048685 -5.270895 -0.609270 1339 0.720234 0.693732 0.000000
-5.049479 -5.271719 -0.607102 1351 0.720234 0.693732 0.000000
-5.049453 -5.271695 -0.604842 1351 0.720233 0.693732 0.000000
-5.049475 -5.271722 -0.602592 1351 0.720233 0.693732 0.000000
-5.048941 -5.271165 -0.600277 1333 0.720234 0.693732 0.000000
-5.049117 -5.271354 -0.598035 1337 0.720234 0.693732 0.000000
-5.049500 -5.271747 -0.595821 1351 0.720234 0.693732 0.000000
-5.049007 -5.271248 -0.593516 1339 0.720234 0.693732 0.000000
-5.049092 -5.271326 -0.591265 1339 0.720233 0.693732 0.000000
-5.048447 -5.270667 -0.588932 1337 0.720234 0.693732 0.000000
-5.048273 -5.270474 -0.586663 1351 0.720234 0.693732 0.000000
-5.048804 -5.271036 -0.584468 1345 0.720234 0.693732 0.000000
-5.049325 -5.271577 -0.582273 1343 0.720234 0.693732 0.000000
-5.049597 -5.271869 -0.580040 1355 0.720233 0.693732 0.000000
-5.049257 -5.271518 -0.577753 1353 0.720234 0.693732 0.000000
-5.049223 -5.271487 -0.575493 1347 0.720234 0.693732 0.000000
-5.049606 -5.271881 -0.573280 1347 0.720234 0.693732 0.000000
-5.049572 -5.271850 -0.571020 1359 0.720234 0.693732 0.000000
-5.048884 -5.271132 -0.568687 1363 0.720234 0.693732 0.000000
-5.048648 -5.270890 -0.566409 1343 0.720234 0.693732 0.000000
-5.049371 -5.271643 -0.564232 1345 0.720234 0.693732 0.000000
-5.049482 -5.271768 -0.561990 1353 0.720234 0.693732 0.000000
-5.048851 -5.271107 -0.559667 1341 0.720234 0.693732 0.000000
-5.048406 -5.270646 -0.557361 1339 0.720233 0.693732 0.000000
-5.048370 -5.270602 -0.555101 1335 0.720234 0.693732 0.000000
-5.048287 -5.270520 -0.552842 1327 0.720234 0.693732 0.000000
-5.048149 -5.270381 -0.550573 1347 0.720233 0.693732 0.000000
-5.048163 -5.270403 -0.548323 1343 0.720234 0.693732 0.000000
-5.048628 -5.270886 -0.546119 1339 0.720234 0.693732 0.000000
-5.048899 -5.271164 -0.543896 1355 0.720234 0.693732 0.000000
-5.049050 -5.271334 -0.541654 1347 0.720234 0.693732 0.000000
-5.049168 -5.271451 -0.539413 1357 0.720233 0.693732 0.000000
-5.049481 -5.271787 -0.537190 1361 0.720233 0.693732 0.000000
-5.049898 -5.272219 -0.534986 1363 0.720234 0.693732 0.000000
-5.049501 -5.271810 -0.532690 1355 0.720233 0.693732 0.000000
-5.049215 -5.271502 -0.530402 1351 0.720234 0.693732 0.000000
-5.049326 -5.271627 -0.528161 1369 0.720234 0.693732 0.000000
-5.049436 -5.271737 -0.525920 1351 0.720233 0.693732 0.000000
-5.049338 -5.271643 -0.523661 1335 0.720234 0.693732 0.000000
-5.049086 -5.271388 -0.521383 1335 0.720234 0.693732 0.000000
-5.049398 -5.271711 -0.519160 1335 0.720234 0.693732 0.000000
-5.049661 -5.271983 -0.516937 1345 0.720234 0.693732 0.000000
-5.049111 -5.271412 -0.514623 1335 0.720234 0.693732 0.000000
-5.048762 -5.271054 -0.512336 1335 0.720234 0.693732 0.000000
-5.048970 -5.271268 -0.510104 1323 0.720234 0.693732 0.000000
-5.049434 -5.271752 -0.507900 1337 0.720234 0.693732 0.000000
-5.048981 -5.271285 -0.505604 1329 0.720234 0.693732 0.000000
-5.048527 -5.270817 -0.503308 1327 0.720234 0.693732 0.000000
-5.048985 -5.271295 -0.501104 1351 0.720234 0.693732 0.000000
-5.048997 -5.271302 -0.498844 1349 0.720234 0.693732 0.000000
-5.048835 -5.271144 -0.496585 1349 0.720233 0.693732 0.000000
-5.049195 -5.271519 -0.494361 1349 0.720234 0.693732 0.000000
-5.050209 -5.272581 -0.492211 1369 0.720234 0.693732 0.000000
-5.050561 -5.272950 -0.489988 1367 0.720234 0.693732 0.000000
-5.050162 -5.272526 -0.487702 1375 0.720234 0.693732 0.000000
-5.049604 -5.271950 -0.485397 1385 0.720234 0.693732 0.000000
-5.049402 -5.271746 -0.483129 1365 0.720234 0.693732 0.000000
-5.049149 -5.271477 -0.480852 1341 0.720234 0.693732 0.000000
-5.048388 -5.270689 -0.478529 1317 0.720234 0.693732 0.000000
-5.048184 -5.270472 -0.476261 1319 0.720234 0.693732 0.000000
-5.048843 -5.271161 -0.474074 1341 0.720234 0.693732 0.000000
-5.049036 -5.271377 -0.471842 1339 0.720234 0.693732 0.000000
-5.049138 -5.271481 -0.469591 1325 0.720233 0.693732 0.000000
-5.049989 -5.272362 -0.467423 1353 0.720234 0.693732 0.000000
-5.049834 -5.272210 -0.465154 1341 0.720234 0.693732 0.000000
-5.049276 -5.271634 -0.462860 1329 0.720234 0.693732 0.000000
-5.048919 -5.271256 -0.460573 1327 0.720233 0.693732 0.000000
-5.049013 -5.271354 -0.458332 1319 0.720233 0.693732 0.000000
-5.048857 -5.271188 -0.456064 1323 0.720234 0.693732 0.000000
-5.048944 -5.271294 -0.453823 1323 0.720234 0.693732 0.000000
-5.049337 -5.271707 -0.451609 1321 0.720234 0.693732 0.000000
-5.049189 -5.271548 -0.449350 1327 0.720234 0.693732 0.000000
-5.048622 -5.270951 -0.447046 1321 0.720234 0.693732 0.000000
-5.048404 -5.270736 -0.444778 1331 0.720234 0.693732 0.000000
-5.048295 -5.270621 -0.442519 1335 0.720234 0.693732 0.000000
-5.048140 -5.270455 -0.440261 1319 0.720234 0.693732 0.000000
-5.048436 -5.270765 -0.438038 1315 0.720233 0.693732 0.000000
-5.048925 -5.271282 -0.435823 1321 0.720234 0.693732 0.000000
-5.049165 -5.271534 -0.433600 1315 0.720234 0.693732 0.000000
-5.048697 -5.271055 -0.431315 1321 0.720234 0.693732 0.000000
-5.048588 -5.270941 -0.429056 1333 0.720233 0.693732 0.000000
-5.048877 -5.271245 -0.426823 1327 0.720234 0.693732 0.000000
-5.049270 -5.271658 -0.424609 1323 0.720234 0.693732 0.000000
-5.049509 -5.271911 -0.422376 1339 0.720234 0.693732 0.000000
-5.049386 -5.271784 -0.420117 1337 0.720234 0.693732 0.000000
-5.049230 -5.271618 -0.417859 1323 0.720233 0.693732 0.000000
-5.049768 -5.272186 -0.415654 1321 0.720233 0.693732 0.000000
-5.050159 -5.272585 -0.413440 1327 0.720234 0.693732 0.000000
-5.049287 -5.271681 -0.411118 1317 0.720234 0.693732 0.000000
-5.048720 -5.271084 -0.408824 1325 0.720234 0.693732 0.000000
-5.048597 -5.270958 -0.406565 1327 0.720233 0.693732 0.000000
-5.048572 -5.270948 -0.404315 1313 0.720234 0.693732 0.000000
-5.048762 -5.271135 -0.402083 1311 0.720234 0.693732 0.000000
-5.049050 -5.271439 -0.399860 1321 0.720234 0.693732 0.000000
-5.049129 -5.271525 -0.397619 1317 0.720233 0.693732 0.000000
-5.049005 -5.271398 -0.395361 1301 0.720234 0.693732 0.000000
-5.049648 -5.272075 -0.393154 1319 0.720234 0.693732 0.000000
-5.049218 -5.271626 -0.390878 1307 0.720234 0.693732 0.000000
-5.048387 -5.270768 -0.388567 1295 0.720234 0.693732 0.000000
-5.048923 -5.271322 -0.386361 1311 0.720234 0.693732 0.000000
-5.049406 -5.271832 -0.384146 1317 0.720234 0.693732 0.000000
-5.049589 -5.272027 -0.381914 1321 0.720234 0.693732 0.000000
-5.049674 -5.272105 -0.379674 1325 0.720234 0.693732 0.000000
-5.049286 -5.271716 -0.377397 1331 0.720234 0.693732 0.000000
-5.048864 -5.271273 -0.375121 1331 0.720234 0.693732 0.000000
-5.049038 -5.271447 -0.372880 1317 0.720234 0.693732 0.000000
-5.049270 -5.271694 -0.370657 1317 0.720234 0.693732 0.000000
-5.049042 -5.271458 -0.368390 1309 0.720234 0.693732 0.000000
-5.048460 -5.270849 -0.366105 1315 0.720233 0.693732 0.000000
-5.048233 -5.270627 -0.363837 1317 0.720234 0.693732 0.000000
-5.048358 -5.270750 -0.361606 1315 0.720233 0.693732 0.000000
-5.048131 -5.270514 -0.359338 1323 0.720234 0.693732 0.000000
-5.048249 -5.270645 -0.357097 1333 0.720234 0.693732 0.000000
-5.048578 -5.270994 -0.354874 1323 0.720234 0.693732 0.000000
-5.049107 -5.271542 -0.352668 1331 0.720234 0.693732 0.000000
-5.049630 -5.272097 -0.350453 1319 0.720234 0.693732 0.000000
-5.049561 -5.272014 -0.348204 1327 0.720234 0.693732 0.000000
-5.048868 -5.271304 -0.345911 1309 0.720234 0.693732 0.000000
-5.048888 -5.271317 -0.343670 1311 0.720234 0.693732 0.000000
-5.049925 -5.272398 -0.341490 1329 0.720233 0.693732 0.000000
-5.049932 -5.272414 -0.339240 1333 0.720234 0.693732 0.000000
-5.049397 -5.271856 -0.336955 1329 0.720234 0.693732 0.000000
-5.049218 -5.271672 -0.334707 1325 0.720234 0.693732 0.000000
-5.049031 -5.271481 -0.332449 1315 0.720234 0.693732 0.000000
-5.048940 -5.271393 -0.330189 1309 0.720233 0.693732 0.000000
-5.048551 -5.270990 -0.327923 1305 0.720234 0.693732 0.000000
-5.048378 -5.270798 -0.325665 1299 0.720234 0.693732 0.000000
-5.049143 -5.271611 -0.323467 1311 0.720234 0.693732 0.000000
-5.049817 -5.272313 -0.321260 1327 0.720234 0.693732 0.000000
-5.049331 -5.271807 -0.318985 1311 0.720233 0.693732 0.000000
-5.049241 -5.271719 -0.316736 1311 0.720234 0.693732 0.000000
-5.049359 -5.271836 -0.314495 1311 0.720234 0.693732 0.000000
-5.049623 -5.272121 -0.312272 1339 0.720234 0.693732 0.000000
-5.049991 -5.272502 -0.310048 1347 0.720234 0.693732 0.000000
-5.049498 -5.271989 -0.307773 1333 0.720233 0.693732 0.000000
-5.048907 -5.271374 -0.305489 1319 0.720233 0.693732 0.000000
-5.048976 -5.271440 -0.303248 1325 0.720234 0.693732 0.000000
-5.051146 -5.269527 -0.697447 1331 0.720233 0.693732 0.000000
-5.051200 -5.269580 -0.695186 1335 0.720234 0.693732 0.000000
-5.051238 -5.269620 -0.692936 1341 0.720234 0.693732 0.000000
-5.050672 -5.269038 -0.690592 1321 0.720234 0.693732 0.000000
-5.050968 -5.269348 -0.688379 1327 0.720234 0.693732 0.000000
-5.050868 -5.269240 -0.686100 1329 0.720234 0.693732 0.000000
-5.050552 -5.268921 -0.683793 1315 0.720234 0.693732 0.000000
-5.050806 -5.269172 -0.681570 1319 0.720233 0.693732 0.000000
-5.051393 -5.269791 -0.679384 1339 0.720234 0.693732 0.000000
-5.051737 -5.270154 -0.677171 1343 0.720234 0.693732 0.000000
-5.051532 -5.269936 -0.674883 1343 0.720233 0.693732 0.000000
-5.051265 -5.269669 -0.672585 1355 0.720234 0.693732 0.000000
-5.051400 -5.269812 -0.670344 1349 0.720234 0.693732 0.000000
-5.051856 -5.270275 -0.668149 1351 0.720234 0.693732 0.000000
-5.051942 -5.270367 -0.665898 1345 0.720234 0.693732 0.000000
-5.051416 -5.269829 -0.663563 1331 0.720234 0.693732 0.000000
-5.051510 -5.269928 -0.661322 1323 0.720234 0.693732 0.000000
-5.051799 -5.270231 -0.659100 1343 0.720234 0.693732 0.000000
-5.051939 -5.270367 -0.656858 1347 0.720234 0.693732 0.000000
-5.052026 -5.270459 -0.654607 1337 0.720234 0.693732 0.000000
-5.052113 -5.270551 -0.652356 1339 0.720234 0.693732 0.000000
-5.051588 -5.270013 -0.650031 1343 0.720234 0.693732 0.000000
-5.051125 -5.269526 -0.647716 1339 0.720234 0.693732 0.000000
-5.051357 -5.269772 -0.645484 1331 0.720233 0.693732 0.000000
-5.051998 -5.270435 -0.643307 1335 0.720234 0.693732 0.000000
-5.052189 -5.270636 -0.641075 1327 0.720234 0.693732 0.000000
-5.051155 -5.269564 -0.638685 1317 0.720234 0.693732 0.000000
-5.050380 -5.268763 -0.636333 1311 0.720234 0.693732 0.000000
-5.051022 -5.269426 -0.634147 1335 0.720234 0.693732 0.000000
-5.051350 -5.269775 -0.631933 1335 0.720234 0.693732 0.000000
-5.051895 -5.270336 -0.629738 1333 0.720234 0.693732 0.000000
-5.051569 -5.269996 -0.627441 1327 0.720234 0.693732 0.000000
-5.050133 -5.268500 -0.625005 1321 0.720233 0.693732 0.000000
-5.049261 -5.267596 -0.622644 1333 0.720234 0.693732 0.000000
-5.050047 -5.268414 -0.620486 1339 0.720234 0.693732 0.000000
-5.050473 -5.268866 -0.618282 1333 0.720234 0.693732 0.000000
-5.050405 -5.268783 -0.616012 1319 0.720234 0.693732 0.000000
-5.050935 -5.269345 -0.613817 1335 0.720233 0.693732 0.000000
-5.050957 -5.269373 -0.611567 1335 0.720234 0.693732 0.000000
-5.051243 -5.269662 -0.609344 1331 0.720233 0.693732 0.000000
-5.051274 -5.269697 -0.607083 1345 0.720234 0.693732 0.000000
-5.050588 -5.268992 -0.604750 1343 0.720234 0.693732 0.000000
-5.050616 -5.269012 -0.602500 1333 0.720234 0.693732 0.000000
-5.051243 -5.269677 -0.600314 1339 0.720234 0.693732 0.000000
-5.051064 -5.269492 -0.598035 1343 0.720234 0.693732 0.000000
-5.050481 -5.268883 -0.595711 1331 0.720234 0.693732 0.000000
-5.050558 -5.268954 -0.593470 1331 0.720234 0.693732 0.000000
-5.051081 -5.269510 -0.591275 1347 0.720234 0.693732 0.000000
-5.051103 -5.269537 -0.589015 1349 0.720234 0.693732 0.000000
-5.051228 -5.269660 -0.586773 1361 0.720234 0.693732 0.000000
-5.051202 -5.269637 -0.584514 1353 0.720234 0.693732 0.000000
-5.050514 -5.268918 -0.582180 1345 0.720233 0.693732 0.000000
-5.050480 -5.268888 -0.579921 1339 0.720234 0.693732 0.000000
-5.050356 -5.268761 -0.577652 1337 0.720234 0.693732 0.000000
-5.050676 -5.269091 -0.575439 1337 0.720234 0.693732 0.000000
-5.050900 -5.269331 -0.573206 1335 0.720234 0.693732 0.000000
-5.050816 -5.269235 -0.570937 1349 0.720234 0.693732 0.000000
-5.050887 -5.269314 -0.568696 1367 0.720234 0.693732 0.000000
-5.050804 -5.269232 -0.566427 1359 0.720234 0.693732 0.000000
-5.050568 -5.268990 -0.564149 1365 0.720234 0.693732 0.000000
-5.050484 -5.268894 -0.561880 1341 0.720234 0.693732 0.000000
-5.050241 -5.268646 -0.559602 1325 0.720234 0.693732 0.000000
-5.050206 -5.268616 -0.557343 1309 0.720234 0.693732 0.000000
-5.050631 -5.269054 -0.555139 1319 0.720234 0.693732 0.000000
-5.050901 -5.269332 -0.552916 1343 0.720234 0.693732 0.000000
-5.051311 -5.269772 -0.550702 1347 0.720234 0.693732 0.000000
-5.051235 -5.269682 -0.548442 1331 0.720234 0.693732 0.000000
-5.050588 -5.269009 -0.546119 1323 0.720234 0.693732 0.000000
-5.049989 -5.268388 -0.543805 1331 0.720234 0.693732 0.000000
-5.050052 -5.268460 -0.541554 1345 0.720234 0.693732 0.000000
-5.050872 -5.269317 -0.539386 1349 0.720234 0.693732 0.000000
-5.051434 -5.269904 -0.537190 1371 0.720234 0.693732 0.000000
-5.051045 -5.269501 -0.534904 1349 0.720234 0.693732 0.000000
-5.050454 -5.268885 -0.532580 1339 0.720234 0.693732 0.000000
-5.050717 -5.269156 -0.530357 1355 0.720234 0.693732 0.000000
-5.051375 -5.269846 -0.528170 1357 0.720234 0.693732 0.000000
-5.051792 -5.270278 -0.525966 1355 0.720234 0.693732 0.000000
-5.051895 -5.270397 -0.523725 1349 0.720233 0.693732 0.000000
-5.051464 -5.269935 -0.521419 1345 0.720233 0.693732 0.000000
-5.051261 -5.269731 -0.519151 1339 0.720234 0.693732 0.000000
-5.051121 -5.269578 -0.516883 1341 0.720234 0.693732 0.000000
-5.050466 -5.268898 -0.514559 1327 0.720234 0.693732 0.000000
-5.050125 -5.268547 -0.512282 1325 0.720234 0.693732 0.000000
-5.050526 -5.268966 -0.510068 1341 0.720234 0.693732 0.000000
-5.050934 -5.269392 -0.507854 1343 0.720233 0.693732 0.000000
-5.051601 -5.270088 -0.505668 1347 0.720234 0.693732 0.000000
-5.051446 -5.269936 -0.503399 1341 0.720233 0.693732 0.000000
-5.051105 -5.269571 -0.501112 1347 0.720233 0.693732 0.000000
-5.051103 -5.269580 -0.498862 1369 0.720234 0.693732 0.000000
-5.051011 -5.269478 -0.496603 1369 0.720234 0.693732 0.000000
-5.051113 -5.269582 -0.494362 1353 0.720234 0.693732 0.000000
-5.051368 -5.269847 -0.492130 1357 0.720234 0.693732 0.000000
-5.051769 -5.270267 -0.489915 1355 0.720234 0.693732 0.000000
-5.051566 -5.270063 -0.487647 1359 0.720234 0.693732 0.000000
-5.051321 -5.269801 -0.485370 1363 0.720234 0.693732 0.000000
-5.051062 -5.269540 -0.483102 1343 0.720234 0.693732 0.000000
-5.050657 -5.269125 -0.480806 1331 0.720233 0.693732 0.000000
-5.050411 -5.268862 -0.478539 1333 0.720234 0.693732 0.000000
-5.050409 -5.268857 -0.476279 1335 0.720234 0.693732 0.000000
-5.050809 -5.269276 -0.474075 1331 0.720234 0.693732 0.000000
-5.051307 -5.269799 -0.471870 1335 0.720234 0.693732 0.000000
-5.051207 -5.269691 -0.469601 1327 0.720234 0.693732 0.000000
-5.051206 -5.269700 -0.467350 1343 0.720234 0.693732 0.000000
-5.051300 -5.269798 -0.465109 1349 0.720234 0.693732 0.000000
-5.051039 -5.269523 -0.462842 1329 0.720234 0.693732 0.000000
-5.050988 -5.269466 -0.460582 1329 0.720234 0.693732 0.000000
-5.051286 -5.269791 -0.458359 1333 0.720234 0.693732 0.000000
-5.051733 -5.270247 -0.456145 1343 0.720233 0.693732 0.000000
-5.051827 -5.270346 -0.453904 1351 0.720234 0.693732 0.000000
-5.051665 -5.270188 -0.451645 1353 0.720234 0.693732 0.000000
-5.051453 -5.269964 -0.449378 1329 0.720234 0.693732 0.000000
-5.051047 -5.269535 -0.447092 1321 0.720233 0.693732 0.000000
-5.051191 -5.269698 -0.444850 1343 0.720234 0.693732 0.000000
-5.051180 -5.269687 -0.442600 1339 0.720234 0.693732 0.000000
-5.050467 -5.268935 -0.440287 1313 0.720234 0.693732 0.000000
-5.050561 -5.269033 -0.438046 1313 0.720234 0.693732 0.000000
-5.051148 -5.269653 -0.435850 1329 0.720234 0.693732 0.000000
-5.051944 -5.270491 -0.433662 1333 0.720234 0.693732 0.000000
-5.052343 -5.270896 -0.431448 1343 0.720234 0.693732 0.000000
-5.052076 -5.270629 -0.429181 1327 0.720234 0.693732 0.000000
-5.051961 -5.270509 -0.426922 1319 0.720234 0.693732 0.000000
-5.051603 -5.270130 -0.424635 1323 0.720234 0.693732 0.000000
-5.050828 -5.269329 -0.422323 1325 0.720234 0.693732 0.000000
-5.050664 -5.269157 -0.420065 1311 0.720234 0.693732 0.000000
-5.051001 -5.269513 -0.417841 1307 0.720234 0.693732 0.000000
-5.050982 -5.269495 -0.415591 1321 0.720234 0.693732 0.000000
-5.050964 -5.269478 -0.413341 1323 0.720234 0.693732 0.000000
-5.050655 -5.269152 -0.411075 1309 0.720233 0.693732 0.000000
-5.050838 -5.269346 -0.408833 1319 0.720233 0.693732 0.000000
-5.051334 -5.269855 -0.406628 1335 0.720234 0.693732 0.000000
-5.050648 -5.269150 -0.404324 1315 0.720234 0.693732 0.000000
-5.050484 -5.268978 -0.402066 1325 0.720234 0.693732 0.000000
-5.050514 -5.269012 -0.399816 1325 0.720234 0.693732 0.000000
-5.050802 -5.269316 -0.397593 1317 0.720234 0.693732 0.000000
-5.050526 -5.269029 -0.395325 1305 0.720234 0.693732 0.000000
-5.050715 -5.269216 -0.393093 1321 0.720234 0.693732 0.000000
-5.051205 -5.269732 -0.390878 1325 0.720234 0.693732 0.000000
-5.051130 -5.269657 -0.388629 1321 0.720234 0.693732 0.000000
-5.050854 -5.269370 -0.386362 1317 0.720234 0.693732 0.000000
-5.050731 -5.269243 -0.384103 1325 0.720234 0.693732 0.000000
-5.051213 -5.269753 -0.381888 1323 0.720234 0.693732 0.000000
-5.051499 -5.270043 -0.379665 1323 0.720234 0.693732 0.000000
-5.051223 -5.269755 -0.377398 1315 0.720234 0.693732 0.000000
-5.051245 -5.269783 -0.375148 1309 0.720233 0.693732 0.000000
-5.051170 -5.269708 -0.372898 1305 0.720234 0.693732 0.000000
-5.051095 -5.269633 -0.370639 1299 0.720234 0.693732 0.000000
-5.050876 -5.269403 -0.368381 1301 0.720234 0.693732 0.000000
-5.050543 -5.269057 -0.366104 1309 0.720234 0.693732 0.000000
-5.050821 -5.269341 -0.363882 1323 0.720234 0.693732 0.000000
-5.050650 -5.269163 -0.361623 1323 0.720234 0.693732 0.000000
-5.050317 -5.268817 -0.359357 1315 0.720234 0.693732 0.000000
-5.051042 -5.269585 -0.357159 1331 0.720234 0.693732 0.000000
-5.051772 -5.270345 -0.354962 1331 0.720234 0.693732 0.000000
-5.051600 -5.270167 -0.352704 1321 0.720234 0.693732 0.000000
-5.051260 -5.269815 -0.350427 1317 0.720234 0.693732 0.000000
-5.051595 -5.270157 -0.348204 1325 0.720234 0.693732 0.000000
-5.051311 -5.269864 -0.345946 1323 0.720234 0.693732 0.000000
-5.051430 -5.269994 -0.343705 1317 0.720233 0.693732 0.000000
-5.051959 -5.270542 -0.341490 1331 0.720234 0.693732 0.000000
-5.051521 -5.270087 -0.339214 1331 0.720234 0.693732 0.000000
-5.050729 -5.269259 -0.336922 1313 0.720234 0.693732 0.000000
-5.050799 -5.269339 -0.334671 1311 0.720234 0.693732 0.000000
-5.050919 -5.269470 -0.332440 1321 0.720234 0.693732 0.000000
-5.051440 -5.270011 -0.330225 1321 0.720234 0.693732 0.000000
-5.051405 -5.269981 -0.327975 1321 0.720234 0.693732 0.000000
-5.051072 -5.269621 -0.325708 1311 0.720233 0.693732 0.000000
-5.051344 -5.269913 -0.323485 1333 0.720233 0.693732 0.000000
-5.051052 -5.269613 -0.321218 1345 0.720234 0.693732 0.000000
-5.050920 -5.269466 -0.318959 1325 0.720234 0.693732 0.000000
-5.050829 -5.269378 -0.316710 1313 0.720234 0.693732 0.000000
-5.050941 -5.269503 -0.314469 1323 0.720233 0.693732 0.000000
-5.051115 -5.269678 -0.312237 1327 0.720233 0.693732 0.000000
-5.050774 -5.269326 -0.309971 1311 0.720234 0.693732 0.000000
-5.050127 -5.268653 -0.307687 1299 0.720234 0.693732 0.000000
-5.050849 -5.269407 -0.305480 1311 0.720234 0.693732 0.000000
-5.051113 -5.269678 -0.303257 1329 0.720234 0.693732 0.000000
-5.052775 -5.267872 -0.697438 1335 0.720234 0.693732 0.000000
-5.052668 -5.267758 -0.695159 1337 0.720233 0.693732 0.000000
-5.052861 -5.267973 -0.692927 1333 0.720234 0.693732 0.000000
-5.053413 -5.268539 -0.690741 1321 0.720234 0.693732 0.000000
-5.053757 -5.268901 -0.688528 1337 0.720234 0.693732 0.000000
-5.052998 -5.268112 -0.686165 1325 0.720234 0.693732 0.000000
-5.052270 -5.267363 -0.683802 1307 0.720233 0.693732 0.000000
-5.052324 -5.267415 -0.681552 1311 0.720234 0.693732 0.000000
-5.052313 -5.267404 -0.679292 1317 0.720234 0.693732 0.000000
-5.052553 -5.267656 -0.677059 1329 0.720234 0.693732 0.000000
-5.052598 -5.267703 -0.674809 1329 0.720234 0.693732 0.000000
-5.053137 -5.268271 -0.672613 1337 0.720234 0.693732 0.000000
-5.053584 -5.268728 -0.670409 1341 0.720234 0.693732 0.000000
-5.053421 -5.268556 -0.668131 1341 0.720234 0.693732 0.000000
-5.053620 -5.268764 -0.665899 1321 0.720234 0.693732 0.000000
-5.053393 -5.268541 -0.663611 1321 0.720234 0.693732 0.000000
-5.052729 -5.267841 -0.661257 1323 0.720234 0.693732 0.000000
-5.052774 -5.267888 -0.659007 1331 0.720234 0.693732 0.000000
-5.053256 -5.268398 -0.656812 1329 0.720234 0.693732 0.000000
-5.053641 -5.268805 -0.654598 1325 0.720234 0.693732 0.000000
-5.053485 -5.268639 -0.652319 1337 0.720234 0.693732 0.000000
-5.053063 -5.268197 -0.650004 1331 0.720233 0.693732 0.000000
-5.052698 -5.267812 -0.647697 1329 0.720234 0.693732 0.000000
-5.053139 -5.268278 -0.645493 1335 0.720234 0.693732 0.000000
-5.052862 -5.267990 -0.643205 1337 0.720234 0.693732 0.000000
-5.052496 -5.267605 -0.640899 1341 0.720234 0.693732 0.000000
-5.052881 -5.268012 -0.638685 1343 0.720234 0.693732 0.000000
-5.052306 -5.267409 -0.636361 1339 0.720234 0.693732 0.000000
-5.052239 -5.267340 -0.634091 1325 0.720233 0.693732 0.000000
-5.052374 -5.267483 -0.631850 1321 0.720234 0.693732 0.000000
-5.052251 -5.267357 -0.629581 1327 0.720233 0.693732 0.000000
-5.052184 -5.267288 -0.627312 1331 0.720234 0.693732 0.000000
-5.051810 -5.266897 -0.625005 1323 0.720234 0.693732 0.000000
-5.051744 -5.266828 -0.622746 1321 0.720234 0.693732 0.000000
-5.052072 -5.267177 -0.620523 1329 0.720234 0.693732 0.000000
-5.052859 -5.267995 -0.618365 1335 0.720234 0.693732 0.000000
-5.052833 -5.267971 -0.616105 1315 0.720233 0.693732 0.000000
-5.052306 -5.267419 -0.613780 1327 0.720233 0.693732 0.000000
-5.052385 -5.267505 -0.611539 1323 0.720234 0.693732 0.000000
-5.052108 -5.267217 -0.609242 1321 0.720234 0.693732 0.000000
-5.052429 -5.267560 -0.607029 1329 0.720234 0.693732 0.000000
-5.052772 -5.267909 -0.604815 1343 0.720233 0.693732 0.000000
-5.052940 -5.268090 -0.602574 1345 0.720234 0.693732 0.000000
-5.053114 -5.268279 -0.600342 1349 0.720234 0.693732 0.000000
-5.053095 -5.268248 -0.598082 1349 0.720234 0.693732 0.000000
-5.052707 -5.267859 -0.595776 1331 0.720234 0.693732 0.000000
-5.052327 -5.267462 -0.593479 1335 0.720234 0.693732 0.000000
-5.052557 -5.267694 -0.591247 1339 0.720233 0.693732 0.000000
-5.052530 -5.267670 -0.588987 1335 0.720234 0.693732 0.000000
-5.052593 -5.267743 -0.586737 1345 0.720234 0.693732 0.000000
-5.052977 -5.268137 -0.584533 1349 0.720233 0.693732 0.000000
-5.052490 -5.267630 -0.582218 1339 0.720234 0.693732 0.000000
-5.051707 -5.266822 -0.579875 1327 0.720234 0.693732 0.000000
-5.051922 -5.267042 -0.577643 1335 0.720234 0.693732 0.000000
-5.051993 -5.267121 -0.575392 1335 0.720234 0.693732 0.000000
-5.051764 -5.266885 -0.573114 1339 0.720234 0.693732 0.000000
-5.051785 -5.266899 -0.570864 1347 0.720234 0.693732 0.000000
-5.051549 -5.266657 -0.568587 1339 0.720234 0.693732 0.000000
-5.051869 -5.266985 -0.566363 1341 0.720234 0.693732 0.000000
-5.051939 -5.267065 -0.564112 1351 0.720234 0.693732 0.000000
-5.052001 -5.267124 -0.561872 1343 0.720234 0.693732 0.000000
-5.052571 -5.267731 -0.559676 1337 0.720234 0.693732 0.000000
-5.052745 -5.267906 -0.557444 1331 0.720234 0.693732 0.000000
-5.052954 -5.268133 -0.555212 1341 0.720234 0.693732 0.000000
-5.052670 -5.267839 -0.552925 1339 0.720234 0.693732 0.000000
-5.052537 -5.267692 -0.550656 1335 0.720234 0.693732 0.000000
-5.052544 -5.267707 -0.548406 1331 0.720234 0.693732 0.000000
-5.052306 -5.267451 -0.546118 1335 0.720234 0.693732 0.000000
-5.052417 -5.267575 -0.543877 1345 0.720234 0.693732 0.000000
-5.052486 -5.267641 -0.541636 1349 0.720234 0.693732 0.000000
-5.052848 -5.268029 -0.539423 1347 0.720234 0.693732 0.000000
-5.052562 -5.267721 -0.537136 1355 0.720233 0.693732 0.000000
-5.051861 -5.267004 -0.534812 1339 0.720234 0.693732 0.000000
-5.051873 -5.267012 -0.532562 1341 0.720234 0.693732 0.000000
-5.052338 -5.267495 -0.530348 1361 0.720234 0.693732 0.000000
-5.052296 -5.267459 -0.528098 1347 0.720234 0.693732 0.000000
-5.052107 -5.267254 -0.525820 1349 0.720234 0.693732 0.000000
-5.052413 -5.267585 -0.523607 1343 0.720233 0.693732 0.000000
-5.052571 -5.267747 -0.521365 1339 0.720233 0.693732 0.000000
-5.052834 -5.268018 -0.519142 1347 0.720234 0.693732 0.000000
-5.053298 -5.268502 -0.516938 1359 0.720234 0.693732 0.000000
-5.052894 -5.268086 -0.514642 1353 0.720234 0.693732 0.000000
-5.052247 -5.267413 -0.512318 1335 0.720233 0.693732 0.000000
-5.052259 -5.267420 -0.510068 1329 0.720234 0.693732 0.000000
-5.052821 -5.268007 -0.507872 1335 0.720234 0.693732 0.000000
-5.053473 -5.268691 -0.505686 1345 0.720234 0.693732 0.000000
-5.053479 -5.268706 -0.503436 1349 0.720234 0.693732 0.000000
-5.053081 -5.268282 -0.501140 1351 0.720234 0.693732 0.000000
-5.052829 -5.268028 -0.498872 1347 0.720233 0.693732 0.000000
-5.052689 -5.267874 -0.496603 1335 0.720233 0.693732 0.000000
-5.052430 -5.267613 -0.494326 1335 0.720234 0.693732 0.000000
-5.052588 -5.267775 -0.492084 1345 0.720234 0.693732 0.000000
-5.052480 -5.267661 -0.489825 1341 0.720234 0.693732 0.000000
-5.052229 -5.267406 -0.487548 1339 0.720234 0.693732 0.000000
-5.051935 -5.267092 -0.485271 1331 0.720234 0.693732 0.000000
-5.051627 -5.266779 -0.482993 1319 0.720234 0.693732 0.000000
-5.051729 -5.266883 -0.480752 1323 0.720234 0.693732 0.000000
-5.051879 -5.267039 -0.478511 1319 0.720234 0.693732 0.000000
-5.052127 -5.267298 -0.476288 1327 0.720234 0.693732 0.000000
-5.052632 -5.267827 -0.474083 1333 0.720234 0.693732 0.000000
-5.052888 -5.268092 -0.471861 1341 0.720234 0.693732 0.000000
-5.052782 -5.267992 -0.469592 1333 0.720234 0.693732 0.000000
-5.052626 -5.267826 -0.467333 1327 0.720234 0.693732 0.000000
-5.052109 -5.267295 -0.465038 1329 0.720234 0.693732 0.000000
-5.052114 -5.267296 -0.462788 1331 0.720234 0.693732 0.000000
-5.052756 -5.267973 -0.460592 1347 0.720233 0.693732 0.000000
-5.052899 -5.268123 -0.458350 1335 0.720234 0.693732 0.000000
-5.053001 -5.268228 -0.456109 1331 0.720234 0.693732 0.000000
-5.052999 -5.268222 -0.453859 1341 0.720234 0.693732 0.000000
-5.052835 -5.268050 -0.451601 1343 0.720234 0.693732 0.000000
-5.052729 -5.267950 -0.449342 1333 0.720233 0.693732 0.000000
-5.052774 -5.267996 -0.447091 1327 0.720234 0.693732 0.000000
-5.052763 -5.267985 -0.444841 1335 0.720233 0.693732 0.000000
-5.052398 -5.267601 -0.442565 1325 0.720234 0.693732 0.000000
-5.051985 -5.267179 -0.440279 1307 0.720233 0.693732 0.000000
-5.052225 -5.267431 -0.438046 1315 0.720233 0.693732 0.000000
-5.052166 -5.267368 -0.435797 1323 0.720234 0.693732 0.000000
-5.052107 -5.267306 -0.433537 1315 0.720234 0.693732 0.000000
-5.052708 -5.267924 -0.431341 1321 0.720234 0.693732 0.000000
-5.052690 -5.267906 -0.429092 1315 0.720234 0.693732 0.000000
-5.052680 -5.267909 -0.426841 1315 0.720234 0.693732 0.000000
-5.052460 -5.267680 -0.424574 1319 0.720234 0.693732 0.000000
-5.052248 -5.267456 -0.422306 1315 0.720234 0.693732 0.000000
-5.053252 -5.268498 -0.420136 1319 0.720234 0.693732 0.000000
-5.053685 -5.268957 -0.417921 1331 0.720234 0.693732 0.000000
-5.053667 -5.268939 -0.415671 1333 0.720234 0.693732 0.000000
-5.053560 -5.268826 -0.413412 1327 0.720234 0.693732 0.000000
-5.053597 -5.268866 -0.411172 1329 0.720234 0.693732 0.000000
-5.053773 -5.269054 -0.408940 1347 0.720234 0.693732 0.000000
-5.053109 -5.268354 -0.406637 1347 0.720234 0.693732 0.000000
-5.052326 -5.267547 -0.404325 1327 0.720234 0.693732 0.000000
-5.052614 -5.267851 -0.402102 1327 0.720234 0.693732 0.000000
-5.052908 -5.268147 -0.399869 1323 0.720234 0.693732 0.000000
-5.052528 -5.267764 -0.397592 1327 0.720234 0.693732 0.000000
-5.052349 -5.267580 -0.395334 1319 0.720233 0.693732 0.000000
-5.052540 -5.267781 -0.393102 1321 0.720234 0.693732 0.000000
-5.052673 -5.267910 -0.390861 1321 0.720234 0.693732 0.000000
-5.052502 -5.267732 -0.388602 1329 0.720234 0.693732 0.000000
-5.052281 -5.267502 -0.386334 1331 0.720234 0.693732 0.000000
-5.052659 -5.267903 -0.384121 1323 0.720234 0.693732 0.000000
-5.052834 -5.268092 -0.381889 1311 0.720234 0.693732 0.000000
-5.052759 -5.268016 -0.379629 1315 0.720234 0.693732 0.000000
-5.053102 -5.268364 -0.377406 1323 0.720234 0.693732 0.000000
-5.052825 -5.268076 -0.375139 1325 0.720234 0.693732 0.000000
-5.052799 -5.268053 -0.372889 1317 0.720234 0.693732 0.000000
-5.052628 -5.267875 -0.370631 1295 0.720234 0.693732 0.000000
-5.052190 -5.267420 -0.368355 1299 0.720234 0.693732 0.000000
-5.051666 -5.266883 -0.366070 1305 0.720234 0.693732 0.000000
-5.051638 -5.266845 -0.363820 1325 0.720233 0.693732 0.000000
-5.052321 -5.267567 -0.361623 1313 0.720234 0.693732 0.000000
-5.052697 -5.267954 -0.359400 1307 0.720234 0.693732 0.000000
-5.052517 -5.267769 -0.357141 1301 0.720234 0.693732 0.000000
-5.052693 -5.267958 -0.354910 1309 0.720234 0.693732 0.000000
-5.053020 -5.268293 -0.352686 1311 0.720234 0.693732 0.000000
-5.053494 -5.268797 -0.350471 1321 0.720234 0.693732 0.000000
-5.053265 -5.268547 -0.348204 1325 0.720234 0.693732 0.000000
-5.052724 -5.267997 -0.345929 1319 0.720234 0.693732 0.000000
-5.053107 -5.268390 -0.343705 1319 0.720234 0.693732 0.000000
-5.053532 -5.268829 -0.341481 1319 0.720233 0.693732 0.000000
-5.052989 -5.268265 -0.339206 1313 0.720234 0.693732 0.000000
-5.052810 -5.268080 -0.336948 1305 0.720233 0.693732 0.000000
-5.053645 -5.268950 -0.334750 1335 0.720233 0.693732 0.000000
-5.053200 -5.268489 -0.332474 1323 0.720234 0.693732 0.000000
-5.052609 -5.267873 -0.330190 1305 0.720234 0.693732 0.000000
-5.052930 -5.268217 -0.327966 1333 0.720233 0.693732 0.000000
-5.052799 -5.268083 -0.325708 1315 0.720234 0.693732 0.000000
-5.052917 -5.268200 -0.323476 1331 0.720234 0.693732 0.000000
-5.053133 -5.268434 -0.321244 1315 0.720234 0.693732 0.000000
-5.053549 -5.268866 -0.319020 1315 0.720234 0.693732 0.000000
-5.052764 -5.268045 -0.316728 1305 0.720234 0.693732 0.000000
-5.052771 -5.268060 -0.314478 1311 0.720233 0.693732 0.000000
-5.052986 -5.268280 -0.312245 1305 0.720234 0.693732 0.000000
-5.052653 -5.267934 -0.309979 1313 0.720234 0.693732 0.000000
-5.052763 -5.268045 -0.307748 1313 0.720234 0.693732 0.000000
-5.053076 -5.268382 -0.305514 1317 0.720234 0.693732 0.000000
-5.053452 -5.268769 -0.303291 1325 0.720234 0.693732 0.000000
-5.054417 -5.266306 -0.699698 1335 0.720234 0.693732 0.000000
-5.054810 -5.266720 -0.697494 1347 0.720234 0.693732 0.000000
-5.054605 -5.266502 -0.695206 1347 0.720234 0.693732 0.000000
-5.054505 -5.266394 -0.692927 1335 0.720233 0.693732 0.000000
-5.054648 -5.266544 -0.690685 1327 0.720234 0.693732 0.000000
-5.054534 -5.266438 -0.688406 1325 0.720234 0.693732 0.000000
-5.054176 -5.266059 -0.686100 1323 0.720234 0.693732 0.000000
-5.054569 -5.266473 -0.683896 1331 0.720234 0.693732 0.000000
-5.054865 -5.266783 -0.681673 1341 0.720234 0.693732 0.000000
-5.054055 -5.265928 -0.679301 1323 0.720233 0.693732 0.000000
-5.053739 -5.265609 -0.676994 1315 0.720234 0.693732 0.000000
-5.054542 -5.266440 -0.674846 1327 0.720234 0.693732 0.000000
-5.054629 -5.266531 -0.672595 1325 0.720234 0.693732 0.000000
-5.055021 -5.266945 -0.670391 1351 0.720234 0.693732 0.000000
-5.054712 -5.266618 -0.668084 1339 0.720233 0.693732 0.000000
-5.054388 -5.266293 -0.665787 1317 0.720234 0.693732 0.000000
-5.054580 -5.266494 -0.663545 1313 0.720233 0.693732 0.000000
-5.053915 -5.265794 -0.661202 1305 0.720234 0.693732 0.000000
-5.053961 -5.265841 -0.658951 1313 0.720234 0.693732 0.000000
-5.054846 -5.266775 -0.656802 1329 0.720234 0.693732 0.000000
-5.055044 -5.266969 -0.654570 1335 0.720234 0.693732 0.000000
-5.054615 -5.266534 -0.652255 1331 0.720234 0.693732 0.000000
-5.054855 -5.266787 -0.650022 1331 0.720234 0.693732 0.000000
-5.055150 -5.267083 -0.647799 1329 0.720234 0.693732 0.000000
-5.055325 -5.267272 -0.645567 1331 0.720234 0.693732 0.000000
-5.054862 -5.266784 -0.643252 1343 0.720234 0.693732 0.000000
-5.054337 -5.266247 -0.640927 1327 0.720234 0.693732 0.000000
-5.054520 -5.266441 -0.638685 1339 0.720234 0.693732 0.000000
-5.054397 -5.266315 -0.636416 1345 0.720234 0.693732 0.000000
-5.054532 -5.266458 -0.634175 1343 0.720234 0.693732 0.000000
-5.055173 -5.267121 -0.631999 1341 0.720234 0.693732 0.000000
-5.055001 -5.266943 -0.629710 1331 0.720234 0.693732 0.000000
-5.054016 -5.265923 -0.627340 1329 0.720234 0.693732 0.000000
-5.053845 -5.265744 -0.625062 1317 0.720234 0.693732 0.000000
-5.054494 -5.266414 -0.622875 1329 0.720234 0.693732 0.000000
-5.054411 -5.266332 -0.620616 1335 0.720234 0.693732 0.000000
-5.054094 -5.265999 -0.618319 1321 0.720233 0.693732 0.000000
-5.054770 -5.266716 -0.616142 1323 0.720234 0.693732 0.000000
-5.054904 -5.266845 -0.613901 1317 0.720234 0.693732 0.000000
-5.054379 -5.266307 -0.611576 1311 0.720234 0.693732 0.000000
-5.054150 -5.266071 -0.609298 1325 0.720234 0.693732 0.000000
-5.054284 -5.266201 -0.607057 1329 0.720234 0.693732 0.000000
-5.053999 -5.265906 -0.604760 1337 0.720234 0.693732 0.000000
-5.053674 -5.265567 -0.602463 1331 0.720234 0.693732 0.000000
-5.054156 -5.266078 -0.600268 1341 0.720234 0.693732 0.000000
-5.054219 -5.266150 -0.598017 1345 0.720234 0.693732 0.000000
-5.053644 -5.265547 -0.595693 1331 0.720234 0.693732 0.000000
-5.054019 -5.265934 -0.593479 1331 0.720234 0.693732 0.000000
-5.054952 -5.266907 -0.591340 1355 0.720234 0.693732 0.000000
-5.054829 -5.266780 -0.589061 1357 0.720234 0.693732 0.000000
