670
-15.159910 -15.034726 -0.663547 1375 0.707407 0.706807 0.000000
-15.160114 -15.034928 -0.656995 1381 0.707407 0.706807 0.000000
-15.160093 -15.034916 -0.650425 1369 0.707407 0.706807 0.000000
-15.160187 -15.035000 -0.643874 1375 0.707407 0.706807 0.000000
-15.160639 -15.035448 -0.637330 1375 0.707407 0.706807 0.000000
-15.160414 -15.035228 -0.630751 1359 0.707407 0.706807 0.000000
-15.160494 -15.035313 -0.624191 1373 0.707407 0.706807 0.000000
-15.160729 -15.035554 -0.617638 1379 0.707407 0.706807 0.000000
-15.160402 -15.035221 -0.611061 1373 0.707407 0.706807 0.000000
-15.160114 -15.034948 -0.604494 1375 0.707407 0.706807 0.000000
-15.160357 -15.035181 -0.597941 1387 0.707407 0.706807 0.000000
-15.160374 -15.035201 -0.591381 1385 0.707407 0.706807 0.000000
-15.160501 -15.035325 -0.584819 1377 0.707407 0.706807 0.000000
-15.160423 -15.035254 -0.578260 1371 0.707407 0.706807 0.000000
-15.160028 -15.034863 -0.571684 1385 0.707407 0.706807 0.000000
-15.159785 -15.034630 -0.565106 1385 0.707407 0.706807 0.000000
-15.159491 -15.034336 -0.558539 1387 0.707407 0.706807 0.000000
-15.159873 -15.034714 -0.551985 1371 0.707407 0.706807 0.000000
-15.160825 -15.035657 -0.545465 1385 0.707407 0.706807 0.000000
-15.160319 -15.035163 -0.538880 1389 0.707407 0.706807 0.000000
-15.159968 -15.034811 -0.532313 1381 0.707407 0.706807 0.000000
-15.160127 -15.034974 -0.525752 1377 0.707407 0.706807 0.000000
-15.160713 -15.035561 -0.519216 1387 0.707407 0.706807 0.000000
-15.160620 -15.035461 -0.512647 1387 0.707407 0.706807 0.000000
-15.159998 -15.034858 -0.506072 1383 0.707407 0.706807 0.000000
-15.159640 -15.034499 -0.499496 1387 0.707407 0.706807 0.000000
-15.159906 -15.034759 -0.486383 1375 0.707407 0.706807 0.000000
-15.160321 -15.035175 -0.479839 1377 0.707407 0.706807 0.000000
-15.160735 -15.035592 -0.473284 1381 0.707407 0.706807 0.000000
-15.160470 -15.035324 -0.466717 1383 0.707407 0.706807 0.000000
-15.160160 -15.035019 -0.460150 1383 0.707407 0.706807 0.000000
-15.160201 -15.035072 -0.453589 1379 0.707407 0.706807 0.000000
-15.165129 -15.030719 -0.663573 1361 0.707407 0.706807 0.000000
-15.165068 -15.030661 -0.657013 1355 0.707407 0.706807 0.000000
-15.164335 -15.029924 -0.650420 1347 0.707407 0.706807 0.000000
-15.164048 -15.029653 -0.643843 1361 0.707407 0.706807 0.000000
-15.163979 -15.029587 -0.637273 1349 0.707407 0.706807 0.000000
-15.164433 -15.030037 -0.630729 1335 0.707407 0.706807 0.000000
-15.164464 -15.030068 -0.624168 1359 0.707407 0.706807 0.000000
-15.164441 -15.030042 -0.617608 1347 0.707407 0.706807 0.000000
-15.164474 -15.030075 -0.611048 1349 0.707407 0.706807 0.000000
-15.164702 -15.030311 -0.604496 1359 0.707407 0.706807 0.000000
-15.164373 -15.029976 -0.597919 1355 0.707407 0.706807 0.000000
-15.164188 -15.029801 -0.591350 1365 0.707407 0.706807 0.000000
-15.163901 -15.029515 -0.584773 1357 0.707407 0.706807 0.000000
-15.163456 -15.029072 -0.578197 1359 0.707407 0.706807 0.000000
-15.163480 -15.029098 -0.571636 1347 0.707407 0.706807 0.000000
-15.163552 -15.029177 -0.565076 1347 0.707407 0.706807 0.000000
-15.163615 -15.029235 -0.558525 1355 0.707407 0.706807 0.000000
-15.163640 -15.029262 -0.551964 1359 0.707407 0.706807 0.000000
-15.163493 -15.029118 -0.545396 1349 0.707407 0.706807 0.000000
-15.163971 -15.029600 -0.538851 1351 0.707407 0.706807 0.000000
-15.164509 -15.030134 -0.532306 1353 0.707407 0.706807 0.000000
-15.164097 -15.029730 -0.525739 1353 0.707407 0.706807 0.000000
-15.163639 -15.029275 -0.519154 1359 0.707407 0.706807 0.000000
-15.163499 -15.029138 -0.512595 1351 0.707407 0.706807 0.000000
-15.164016 -15.029653 -0.506050 1355 0.707407 0.706807 0.000000
-15.163922 -15.029554 -0.499490 1347 0.707407 0.706807 0.000000
-15.164079 -15.029717 -0.492929 1359 0.707407 0.706807 0.000000
-15.164447 -15.030082 -0.486385 1355 0.707407 0.706807 0.000000
-15.164441 -15.030083 -0.479825 1355 0.707407 0.706807 0.000000
-15.164393 -15.030036 -0.473265 1355 0.707407 0.706807 0.000000
-15.163715 -15.029359 -0.466682 1347 0.707407 0.706807 0.000000
-15.163600 -15.029255 -0.460123 1357 0.707407 0.706807 0.000000
-15.163765 -15.029411 -0.453561 1353 0.707407 0.706807 0.000000
-15.163384 -15.029047 -0.446994 1351 0.707407 0.706807 0.000000
-15.163384 -15.029040 -0.440434 1353 0.707407 0.706807 0.000000
-15.163784 -15.029444 -0.433890 1353 0.707407 0.706807 0.000000
-15.163723 -15.029386 -0.427321 1341 0.707407 0.706807 0.000000
-15.162781 -15.028448 -0.420740 1345 0.707407 0.706807 0.000000
-15.162601 -15.028279 -0.414171 1357 0.707407 0.706807 0.000000
-15.163117 -15.028781 -0.407636 1357 0.707407 0.706807 0.000000
-15.163149 -15.028812 -0.401076 1363 0.707407 0.706807 0.000000
-15.163337 -15.029001 -0.394524 1349 0.707407 0.706807 0.000000
-15.163370 -15.029048 -0.387963 1359 0.707407 0.706807 0.000000
-15.163034 -15.028708 -0.381396 1359 0.707407 0.706807 0.000000
-15.163746 -15.029411 -0.374859 1357 0.707407 0.706807 0.000000
-15.163404 -15.029079 -0.368292 1365 0.707407 0.706807 0.000000
-15.163179 -15.028859 -0.361724 1359 0.707407 0.706807 0.000000
-15.163664 -15.029346 -0.355179 1355 0.707407 0.706807 0.000000
-15.163174 -15.028852 -0.348604 1359 0.707407 0.706807 0.000000
-15.162776 -15.028461 -0.342038 1353 0.707407 0.706807 0.000000
-15.162848 -15.028540 -0.335487 1369 0.707407 0.706807 0.000000
-15.163183 -15.028865 -0.328933 1363 0.707407 0.706807 0.000000
-15.163154 -15.028846 -0.322373 1363 0.707407 0.706807 0.000000
-15.162648 -15.028337 -0.315808 1359 0.707407 0.706807 0.000000
-15.162611 -15.028313 -0.309248 1361 0.707407 0.706807 0.000000
-15.162938 -15.028630 -0.302695 1363 0.707407 0.706807 0.000000
-15.162995 -15.028697 -0.296144 1365 0.707407 0.706807 0.000000
-15.162848 -15.028554 -0.289586 1355 0.707407 0.706807 0.000000
-15.169420 -15.025249 -0.663550 1345 0.707407 0.706807 0.000000
-15.169304 -15.025131 -0.656981 1353 0.707407 0.706807 0.000000
-15.169190 -15.025028 -0.650422 1347 0.707407 0.706807 0.000000
-15.169173 -15.025008 -0.643852 1349 0.707407 0.706807 0.000000
-15.168418 -15.024265 -0.637259 1339 0.707407 0.706807 0.000000
-15.167943 -15.023797 -0.630674 1345 0.707407 0.706807 0.000000
-15.169161 -15.025002 -0.624162 1359 0.707407 0.706807 0.000000
-15.169614 -15.025450 -0.617627 1367 0.707407 0.706807 0.000000
-15.169023 -15.024871 -0.611033 1363 0.707407 0.706807 0.000000
-15.169407 -15.025249 -0.604489 1351 0.707407 0.706807 0.000000
-15.169383 -15.025222 -0.597929 1349 0.707407 0.706807 0.000000
-15.169510 -15.025359 -0.591368 1365 0.707407 0.706807 0.000000
-15.169284 -15.025125 -0.584800 1341 0.707407 0.706807 0.000000
-15.168935 -15.024787 -0.578223 1339 0.707407 0.706807 0.000000
-15.168694 -15.024552 -0.571655 1343 0.707407 0.706807 0.000000
-15.168040 -15.023909 -0.565071 1343 0.707407 0.706807 0.000000
-15.168110 -15.023973 -0.558510 1337 0.707407 0.706807 0.000000
-15.168860 -15.024722 -0.551973 1347 0.707407 0.706807 0.000000
-15.168714 -15.024578 -0.545414 1349 0.707407 0.706807 0.000000
-15.168628 -15.024487 -0.538845 1353 0.707407 0.706807 0.000000
-15.168427 -15.024298 -0.532277 1355 0.707407 0.706807 0.000000
-15.168343 -15.024207 -0.525717 1355 0.707407 0.706807 0.000000
-15.169022 -15.024884 -0.519181 1353 0.707407 0.706807 0.000000
-15.169078 -15.024949 -0.512620 1355 0.707407 0.706807 0.000000
-15.168204 -15.024083 -0.506028 1355 0.707407 0.706807 0.000000
-15.167690 -15.023569 -0.499453 1363 0.707407 0.706807 0.000000
-15.168214 -15.024090 -0.492908 1357 0.707407 0.706807 0.000000
-15.169308 -15.025176 -0.486387 1353 0.707407 0.706807 0.000000
-15.168894 -15.024774 -0.479811 1355 0.707407 0.706807 0.000000
-15.167742 -15.023635 -0.473212 1339 0.707407 0.706807 0.000000
-15.167953 -15.023843 -0.466660 1343 0.707407 0.706807 0.000000
-15.168570 -15.024454 -0.460123 1345 0.707407 0.706807 0.000000
-15.168882 -15.024760 -0.453570 1345 0.707407 0.706807 0.000000
-15.169080 -15.024969 -0.447018 1351 0.707407 0.706807 0.000000
-15.168604 -15.024487 -0.440443 1349 0.707407 0.706807 0.000000
-15.168381 -15.024280 -0.433885 1353 0.707407 0.706807 0.000000
-15.167702 -15.023602 -0.427301 1341 0.707407 0.706807 0.000000
-15.167063 -15.022971 -0.420727 1337 0.707407 0.706807 0.000000
-15.167728 -15.023636 -0.414180 1345 0.707407 0.706807 0.000000
-15.168236 -15.024130 -0.407635 1349 0.707407 0.706807 0.000000
-15.167751 -15.023653 -0.401070 1353 0.707407 0.706807 0.000000
-15.167372 -15.023276 -0.394503 1353 0.707407 0.706807 0.000000
-15.167763 -15.023674 -0.387949 1349 0.707407 0.706807 0.000000
-15.167842 -15.023759 -0.381398 1343 0.707407 0.706807 0.000000
-15.168031 -15.023948 -0.374846 1369 0.707407 0.706807 0.000000
-15.167485 -15.023408 -0.368272 1361 0.707407 0.706807 0.000000
-15.167620 -15.023538 -0.361720 1359 0.707407 0.706807 0.000000
-15.168274 -15.024181 -0.355174 1351 0.707407 0.706807 0.000000
-15.167933 -15.023849 -0.348607 1349 0.707407 0.706807 0.000000
-15.167849 -15.023772 -0.342047 1343 0.707407 0.706807 0.000000
-15.167763 -15.023680 -0.335488 1347 0.707407 0.706807 0.000000
-15.167265 -15.023192 -0.328923 1355 0.707407 0.706807 0.000000
-15.167390 -15.023314 -0.322361 1349 0.707407 0.706807 0.000000
-15.168024 -15.023953 -0.315825 1355 0.707407 0.706807 0.000000
-15.167838 -15.023766 -0.309257 1357 0.707407 0.706807 0.000000
-15.167324 -15.023265 -0.302691 1359 0.707407 0.706807 0.000000
-15.167239 -15.023173 -0.296132 1351 0.707407 0.706807 0.000000
-15.167614 -15.023544 -0.289578 1345 0.707407 0.706807 0.000000
-15.174382 -15.020441 -0.663561 1351 0.707407 0.706807 0.000000
-15.174273 -15.020330 -0.656992 1361 0.707407 0.706807 0.000000
-15.174618 -15.020675 -0.650449 1357 0.707407 0.706807 0.000000
-15.174705 -15.020766 -0.643888 1355 0.707407 0.706807 0.000000
-15.174384 -15.020440 -0.637311 1363 0.707407 0.706807 0.000000
-15.173942 -15.020011 -0.630725 1347 0.707407 0.706807 0.000000
-15.173825 -15.019894 -0.624156 1339 0.707407 0.706807 0.000000
-15.173594 -15.019667 -0.617588 1351 0.707407 0.706807 0.000000
-15.173469 -15.019542 -0.611019 1347 0.707407 0.706807 0.000000
-15.174015 -15.020082 -0.604483 1357 0.707407 0.706807 0.000000
-15.173931 -15.020003 -0.597914 1351 0.707407 0.706807 0.000000
-15.173542 -15.019621 -0.591338 1351 0.707407 0.706807 0.000000
-15.173575 -15.019653 -0.584777 1361 0.707407 0.706807 0.000000
-15.173435 -15.019517 -0.578208 1337 0.707407 0.706807 0.000000
-15.173717 -15.019796 -0.571665 1349 0.707407 0.706807 0.000000
-15.174046 -15.020128 -0.565112 1343 0.707407 0.706807 0.000000
-15.173860 -15.019939 -0.558544 1337 0.707407 0.706807 0.000000
-15.173767 -15.019855 -0.551984 1351 0.707407 0.706807 0.000000
-15.174041 -15.020128 -0.545432 1341 0.707407 0.706807 0.000000
-15.173956 -15.020050 -0.538862 1343 0.707407 0.706807 0.000000
-15.173185 -15.019281 -0.532280 1343 0.707407 0.706807 0.000000
-15.173045 -15.019145 -0.525711 1341 0.707407 0.706807 0.000000
-15.172946 -15.019054 -0.519152 1347 0.707407 0.706807 0.000000
-15.173470 -15.019575 -0.512606 1347 0.707407 0.706807 0.000000
-15.173376 -15.019477 -0.506037 1351 0.707407 0.706807 0.000000
-15.173174 -15.019275 -0.499479 1365 0.707407 0.706807 0.000000
-15.173597 -15.019699 -0.492925 1355 0.707407 0.706807 0.000000
-15.174112 -15.020212 -0.486389 1365 0.707407 0.706807 0.000000
-15.173646 -15.019752 -0.479814 1343 0.707407 0.706807 0.000000
-15.172656 -15.018775 -0.473223 1343 0.707407 0.706807 0.000000
-15.172711 -15.018827 -0.466662 1335 0.707407 0.706807 0.000000
-15.172760 -15.018886 -0.460102 1339 0.707407 0.706807 0.000000
-15.173539 -15.019646 -0.453564 1347 0.707407 0.706807 0.000000
-15.173839 -15.019953 -0.447021 1355 0.707407 0.706807 0.000000
-15.173364 -15.019485 -0.440446 1349 0.707407 0.706807 0.000000
-15.172834 -15.018957 -0.433870 1347 0.707407 0.706807 0.000000
-15.172251 -15.018385 -0.427296 1351 0.707407 0.706807 0.000000
-15.172860 -15.018990 -0.420750 1355 0.707407 0.706807 0.000000
-15.173625 -15.019752 -0.414212 1349 0.707407 0.706807 0.000000
-15.173611 -15.019732 -0.407652 1347 0.707407 0.706807 0.000000
-15.172613 -15.018749 -0.401072 1343 0.707407 0.706807 0.000000
-15.172271 -15.018416 -0.394505 1353 0.707407 0.706807 0.000000
-15.172467 -15.018613 -0.387953 1347 0.707407 0.706807 0.000000
-15.172499 -15.018645 -0.381392 1337 0.707407 0.706807 0.000000
-15.172368 -15.018515 -0.374833 1361 0.707407 0.706807 0.000000
-15.171838 -15.017988 -0.368258 1347 0.707407 0.706807 0.000000
-15.172011 -15.018164 -0.361707 1343 0.707407 0.706807 0.000000
-15.172145 -15.018294 -0.355155 1343 0.707407 0.706807 0.000000
-15.172583 -15.018730 -0.348601 1345 0.707407 0.706807 0.000000
-15.172811 -15.018965 -0.342048 1341 0.707407 0.706807 0.000000
-15.172515 -15.018672 -0.335491 1337 0.707407 0.706807 0.000000
-15.172647 -15.018801 -0.328930 1333 0.707407 0.706807 0.000000
-15.173030 -15.019178 -0.322386 1345 0.707407 0.706807 0.000000
-15.172938 -15.019094 -0.315827 1347 0.707407 0.706807 0.000000
-15.172698 -15.018861 -0.309259 1349 0.707407 0.706807 0.000000
-15.172964 -15.019127 -0.302706 1353 0.707407 0.706807 0.000000
-15.172879 -15.019036 -0.296147 1361 0.707407 0.706807 0.000000
-15.171904 -15.018072 -0.289576 1349 0.707407 0.706807 0.000000
-15.178748 -15.015396 -0.663546 1357 0.707407 0.706807 0.000000
-15.179051 -15.015696 -0.657003 1345 0.707407 0.706807 0.000000
-15.179148 -15.015794 -0.650442 1347 0.707407 0.706807 0.000000
-15.179336 -15.015982 -0.643880 1357 0.707407 0.706807 0.000000
-15.179531 -15.016177 -0.637328 1359 0.707407 0.706807 0.000000
-15.178932 -15.015593 -0.630744 1343 0.707407 0.706807 0.000000
-15.178658 -15.015317 -0.624166 1347 0.707407 0.706807 0.000000
-15.178535 -15.015194 -0.617597 1345 0.707407 0.706807 0.000000
-15.178302 -15.014966 -0.611029 1351 0.707407 0.706807 0.000000
-15.178592 -15.015252 -0.604476 1359 0.707407 0.706807 0.000000
-15.178460 -15.015122 -0.597907 1353 0.707407 0.706807 0.000000
-15.178173 -15.014850 -0.591340 1337 0.707407 0.706807 0.000000
-15.178768 -15.015442 -0.584804 1355 0.707407 0.706807 0.000000
-15.178628 -15.015306 -0.578235 1367 0.707407 0.706807 0.000000
-15.178339 -15.015018 -0.571658 1359 0.707407 0.706807 0.000000
-15.178248 -15.014935 -0.565098 1349 0.707407 0.706807 0.000000
-15.177804 -15.014491 -0.558523 1349 0.707407 0.706807 0.000000
-15.177930 -15.014616 -0.551961 1343 0.707407 0.706807 0.000000
-15.178096 -15.014785 -0.545409 1343 0.707407 0.706807 0.000000
-15.177745 -15.014434 -0.538833 1349 0.707407 0.706807 0.000000
-15.177809 -15.014504 -0.532272 1337 0.707407 0.706807 0.000000
-15.177980 -15.014668 -0.525720 1347 0.707407 0.706807 0.000000
-15.177928 -15.014628 -0.519160 1333 0.707407 0.706807 0.000000
-15.178357 -15.015045 -0.512616 1341 0.707407 0.706807 0.000000
-15.178523 -15.015215 -0.506054 1347 0.707407 0.706807 0.000000
-15.178164 -15.014856 -0.499488 1347 0.707407 0.706807 0.000000
-15.178119 -15.014811 -0.492928 1337 0.707407 0.706807 0.000000
-15.178383 -15.015077 -0.486375 1343 0.707407 0.706807 0.000000
-15.178377 -15.015078 -0.479815 1337 0.707407 0.706807 0.000000
-15.178698 -15.015389 -0.473262 1353 0.707407 0.706807 0.000000
-15.178270 -15.014974 -0.466696 1335 0.707407 0.706807 0.000000
-15.177852 -15.014565 -0.460120 1337 0.707407 0.706807 0.000000
-15.178210 -15.014922 -0.453566 1341 0.707407 0.706807 0.000000
-15.177946 -15.014654 -0.446999 1329 0.707407 0.706807 0.000000
-15.177471 -15.014186 -0.440433 1319 0.707407 0.706807 0.000000
-15.177566 -15.014283 -0.433872 1347 0.707407 0.706807 0.000000
-15.177497 -15.014219 -0.427312 1355 0.707407 0.706807 0.000000
-15.177803 -15.014518 -0.420759 1351 0.707407 0.706807 0.000000
-15.177062 -15.013789 -0.414186 1345 0.707407 0.706807 0.000000
-15.176775 -15.013516 -0.407619 1349 0.707407 0.706807 0.000000
-15.177237 -15.013972 -0.401074 1349 0.707407 0.706807 0.000000
-15.177268 -15.014005 -0.394514 1345 0.707407 0.706807 0.000000
-15.177300 -15.014037 -0.387953 1353 0.707407 0.706807 0.000000
-15.177076 -15.013817 -0.381395 1351 0.707407 0.706807 0.000000
-15.177879 -15.014609 -0.374857 1353 0.707407 0.706807 0.000000
-15.177599 -15.014329 -0.368290 1347 0.707407 0.706807 0.000000
-15.177265 -15.014004 -0.361723 1343 0.707407 0.706807 0.000000
-15.177595 -15.014338 -0.355170 1349 0.707407 0.706807 0.000000
-15.177416 -15.014154 -0.348611 1349 0.707407 0.706807 0.000000
-15.177230 -15.013978 -0.342053 1347 0.707407 0.706807 0.000000
-15.177254 -15.014004 -0.335492 1339 0.707407 0.706807 0.000000
-15.177794 -15.014539 -0.328947 1339 0.707407 0.706807 0.000000
-15.178225 -15.014969 -0.322393 1339 0.707407 0.706807 0.000000
-15.177827 -15.014577 -0.315826 1349 0.707407 0.706807 0.000000
-15.177166 -15.013927 -0.309263 1359 0.707407 0.706807 0.000000
-15.177236 -15.013991 -0.302702 1357 0.707407 0.706807 0.000000
-15.176885 -15.013639 -0.296135 1359 0.707407 0.706807 0.000000
-15.176107 -15.012879 -0.289562 1343 0.707407 0.706807 0.000000
-15.184040 -15.011099 -0.663573 1365 0.707407 0.706807 0.000000
-15.183510 -15.010572 -0.656988 1349 0.707407 0.706807 0.000000
-15.184111 -15.011169 -0.650452 1349 0.707407 0.706807 0.000000
-15.184097 -15.011165 -0.643882 1347 0.707407 0.706807 0.000000
-15.183559 -15.010631 -0.637297 1343 0.707407 0.706807 0.000000
-15.183443 -15.010513 -0.630738 1335 0.707407 0.706807 0.000000
-15.183631 -15.010701 -0.624176 1349 0.707407 0.706807 0.000000
-15.183352 -15.010435 -0.617608 1353 0.707407 0.706807 0.000000
-15.182698 -15.009791 -0.611015 1351 0.707407 0.706807 0.000000
-15.183088 -15.010175 -0.604471 1347 0.707407 0.706807 0.000000
-15.183278 -15.010364 -0.597919 1343 0.707407 0.706807 0.000000
-15.182677 -15.009765 -0.591334 1347 0.707407 0.706807 0.000000
-15.183115 -15.010200 -0.584790 1357 0.707407 0.706807 0.000000
-15.183661 -15.010740 -0.578245 1359 0.707407 0.706807 0.000000
-15.183210 -15.010304 -0.571669 1353 0.707407 0.706807 0.000000
-15.183080 -15.010176 -0.565100 1355 0.707407 0.706807 0.000000
-15.183298 -15.010388 -0.558548 1355 0.707407 0.706807 0.000000
-15.183058 -15.010156 -0.551980 1351 0.707407 0.706807 0.000000
-15.183175 -15.010272 -0.545418 1343 0.707407 0.706807 0.000000
-15.183762 -15.010858 -0.538883 1345 0.707407 0.706807 0.000000
-15.183255 -15.010349 -0.532297 1341 0.707407 0.706807 0.000000
-15.182641 -15.009751 -0.525723 1343 0.707407 0.706807 0.000000
-15.182853 -15.009960 -0.519171 1349 0.707407 0.706807 0.000000
-15.183275 -15.010383 -0.512617 1361 0.707407 0.706807 0.000000
-15.183495 -15.010598 -0.506064 1359 0.707407 0.706807 0.000000
-15.183246 -15.010357 -0.499497 1343 0.707407 0.706807 0.000000
-15.182880 -15.009993 -0.492930 1345 0.707407 0.706807 0.000000
-15.183036 -15.010155 -0.486368 1357 0.707407 0.706807 0.000000
-15.183615 -15.010721 -0.479833 1345 0.707407 0.706807 0.000000
-15.183982 -15.011086 -0.473279 1347 0.707407 0.706807 0.000000
-15.183094 -15.010208 -0.466697 1343 0.707407 0.706807 0.000000
-15.182518 -15.009641 -0.460113 1351 0.707407 0.706807 0.000000
-15.183135 -15.010253 -0.453577 1355 0.707407 0.706807 0.000000
-15.183440 -15.010551 -0.447023 1341 0.707407 0.706807 0.000000
-15.183060 -15.010188 -0.440457 1333 0.707407 0.706807 0.000000
-15.182749 -15.009881 -0.433890 1345 0.707407 0.706807 0.000000
-15.182212 -15.009348 -0.427315 1345 0.707407 0.706807 0.000000
-15.182260 -15.009394 -0.420754 1345 0.707407 0.706807 0.000000
-15.182447 -15.009583 -0.414202 1339 0.707407 0.706807 0.000000
-15.181652 -15.008794 -0.407620 1343 0.707407 0.706807 0.000000
-15.181631 -15.008782 -0.401060 1343 0.707407 0.706807 0.000000
-15.181515 -15.008665 -0.394501 1337 0.707407 0.706807 0.000000
-15.181704 -15.008855 -0.387949 1333 0.707407 0.706807 0.000000
-15.182982 -15.010123 -0.381426 1367 0.707407 0.706807 0.000000
-15.182642 -15.009791 -0.374859 1359 0.707407 0.706807 0.000000
-15.182104 -15.009258 -0.368284 1351 0.707407 0.706807 0.000000
-15.181871 -15.009030 -0.361716 1343 0.707407 0.706807 0.000000
-15.182207 -15.009369 -0.355173 1351 0.707407 0.706807 0.000000
-15.182442 -15.009595 -0.348621 1351 0.707407 0.706807 0.000000
-15.182101 -15.009265 -0.342054 1343 0.707407 0.706807 0.000000
-15.181602 -15.008762 -0.335478 1337 0.707407 0.706807 0.000000
-15.181823 -15.008992 -0.328926 1351 0.707407 0.706807 0.000000
-15.182103 -15.009271 -0.322383 1343 0.707407 0.706807 0.000000
-15.181762 -15.008926 -0.315816 1341 0.707407 0.706807 0.000000
-15.181153 -15.008334 -0.309242 1339 0.707407 0.706807 0.000000
-15.181116 -15.008295 -0.302682 1343 0.707407 0.706807 0.000000
-15.181125 -15.008307 -0.296132 1341 0.707407 0.706807 0.000000
-15.181454 -15.008627 -0.289579 1355 0.707407 0.706807 0.000000
-15.189202 -15.006486 -0.663592 1359 0.707407 0.706807 0.000000
-15.188463 -15.005757 -0.656989 1347 0.707407 0.706807 0.000000
-15.188246 -15.005543 -0.650421 1345 0.707407 0.706807 0.000000
-15.188745 -15.006044 -0.643876 1345 0.707407 0.706807 0.000000
-15.188310 -15.005621 -0.637300 1347 0.707407 0.706807 0.000000
-15.187938 -15.005251 -0.630723 1359 0.707407 0.706807 0.000000
-15.187650 -15.004964 -0.624146 1359 0.707407 0.706807 0.000000
-15.187946 -15.005257 -0.617593 1351 0.707407 0.706807 0.000000
-15.188284 -15.005595 -0.611050 1351 0.707407 0.706807 0.000000
-15.188160 -15.005472 -0.604481 1355 0.707407 0.706807 0.000000
-15.188496 -15.005809 -0.597937 1341 0.707407 0.706807 0.000000
-15.188060 -15.005373 -0.591351 1345 0.707407 0.706807 0.000000
-15.187967 -15.005288 -0.584792 1349 0.707407 0.706807 0.000000
-15.188405 -15.005725 -0.578248 1355 0.707407 0.706807 0.000000
-15.187704 -15.005029 -0.571654 1363 0.707407 0.706807 0.000000
-15.187878 -15.005205 -0.565102 1357 0.707407 0.706807 0.000000
-15.188939 -15.006252 -0.558582 1361 0.707407 0.706807 0.000000
-15.188900 -15.006213 -0.552012 1347 0.707407 0.706807 0.000000
-15.188815 -15.006135 -0.545453 1345 0.707407 0.706807 0.000000
-15.188303 -15.005634 -0.538868 1347 0.707407 0.706807 0.000000
-15.188217 -15.005543 -0.532308 1341 0.707407 0.706807 0.000000
-15.188381 -15.005712 -0.525756 1339 0.707407 0.706807 0.000000
-15.187767 -15.005100 -0.519172 1347 0.707407 0.706807 0.000000
-15.187721 -15.005068 -0.512613 1351 0.707407 0.706807 0.000000
-15.188042 -15.005381 -0.506059 1343 0.707407 0.706807 0.000000
-15.188293 -15.005634 -0.499507 1337 0.707407 0.706807 0.000000
-15.187726 -15.005075 -0.492932 1343 0.707407 0.706807 0.000000
-15.187795 -15.005139 -0.486371 1351 0.707407 0.706807 0.000000
-15.187679 -15.005035 -0.479812 1333 0.707407 0.706807 0.000000
-15.187844 -15.005191 -0.473250 1345 0.707407 0.706807 0.000000
-15.188047 -15.005393 -0.466698 1345 0.707407 0.706807 0.000000
-15.187263 -15.004626 -0.460116 1347 0.707407 0.706807 0.000000
-15.187317 -15.004678 -0.453555 1345 0.707407 0.706807 0.000000
-15.187513 -15.004872 -0.447003 1339 0.707407 0.706807 0.000000
-15.187296 -15.004659 -0.440435 1339 0.707407 0.706807 0.000000
-15.187187 -15.004546 -0.433876 1353 0.707407 0.706807 0.000000
-15.187126 -15.004488 -0.427316 1357 0.707407 0.706807 0.000000
-15.187580 -15.004937 -0.420772 1369 0.707407 0.706807 0.000000
-15.187302 -15.004672 -0.414204 1345 0.707407 0.706807 0.000000
-15.187293 -15.004658 -0.407644 1337 0.707407 0.706807 0.000000
-15.187537 -15.004906 -0.401092 1349 0.707407 0.706807 0.000000
-15.186788 -15.004170 -0.394519 1347 0.707407 0.706807 0.000000
-15.187031 -15.004404 -0.387966 1347 0.707407 0.706807 0.000000
-15.187476 -15.004847 -0.381412 1355 0.707407 0.706807 0.000000
-15.187142 -15.004521 -0.374845 1347 0.707407 0.706807 0.000000
-15.187370 -15.004757 -0.368292 1345 0.707407 0.706807 0.000000
-15.187613 -15.004990 -0.361740 1341 0.707407 0.706807 0.000000
-15.187115 -15.004502 -0.355174 1345 0.707407 0.706807 0.000000
-15.187038 -15.004431 -0.348615 1343 0.707407 0.706807 0.000000
-15.187474 -15.004852 -0.342061 1363 0.707407 0.706807 0.000000
-15.187288 -15.004678 -0.335502 1363 0.707407 0.706807 0.000000
-15.187672 -15.005054 -0.328959 1351 0.707407 0.706807 0.000000
-15.187743 -15.005134 -0.322398 1359 0.707407 0.706807 0.000000
-15.187028 -15.004424 -0.315824 1361 0.707407 0.706807 0.000000
-15.186264 -15.003676 -0.309252 1351 0.707407 0.706807 0.000000
-15.185968 -15.003384 -0.302684 1347 0.707407 0.706807 0.000000
-15.185979 -15.003398 -0.296134 1333 0.707407 0.706807 0.000000
-15.186096 -15.003514 -0.289573 1341 0.707407 0.706807 0.000000
-15.193470 -15.000826 -0.663560 1355 0.707407 0.706807 0.000000
-15.193306 -15.000655 -0.656992 1351 0.707407 0.706807 0.000000
-15.193603 -15.000948 -0.650439 1349 0.707407 0.706807 0.000000
-15.193275 -15.000629 -0.643862 1365 0.707407 0.706807 0.000000
-15.193043 -15.000401 -0.637294 1353 0.707407 0.706807 0.000000
-15.193239 -15.000597 -0.630742 1349 0.707407 0.706807 0.000000
-15.192797 -15.000168 -0.624156 1355 0.707407 0.706807 0.000000
-15.192890 -15.000252 -0.617595 1363 0.707407 0.706807 0.000000
-15.193127 -15.000493 -0.611042 1355 0.707407 0.706807 0.000000
-15.193416 -15.000780 -0.604500 1351 0.707407 0.706807 0.000000
-15.193596 -15.000961 -0.597938 1365 0.707407 0.706807 0.000000
-15.193254 -15.000629 -0.591361 1349 0.707407 0.706807 0.000000
-15.193020 -15.000387 -0.584793 1353 0.707407 0.706807 0.000000
-15.192945 -15.000318 -0.578233 1349 0.707407 0.706807 0.000000
-15.192913 -15.000284 -0.571664 1355 0.707407 0.706807 0.000000
-15.193133 -15.000513 -0.565111 1357 0.707407 0.706807 0.000000
-15.193563 -15.000941 -0.558567 1353 0.707407 0.706807 0.000000
-15.192908 -15.000284 -0.551983 1343 0.707407 0.706807 0.000000
-15.192973 -15.000357 -0.545422 1347 0.707407 0.706807 0.000000
-15.194189 -15.001559 -0.538911 1357 0.707407 0.706807 0.000000
-15.194097 -15.001462 -0.532341 1353 0.707407 0.706807 0.000000
-15.192851 -15.000246 -0.525743 1343 0.707407 0.706807 0.000000
-15.192649 -15.000044 -0.519175 1349 0.707407 0.706807 0.000000
-15.192245 -14.999647 -0.512599 1335 0.707407 0.706807 0.000000
-15.193033 -15.000428 -0.506061 1345 0.707407 0.706807 0.000000
-15.193354 -15.000739 -0.499518 1323 0.707407 0.706807 0.000000
-15.193044 -15.000435 -0.492940 1335 0.707407 0.706807 0.000000
-15.193458 -15.000851 -0.486396 1357 0.707407 0.706807 0.000000
-15.193254 -15.000648 -0.479828 1355 0.707407 0.706807 0.000000
-15.192835 -15.000239 -0.473252 1357 0.707407 0.706807 0.000000
-15.193203 -15.000604 -0.466708 1353 0.707407 0.706807 0.000000
-15.193352 -15.000746 -0.460157 1349 0.707407 0.706807 0.000000
-15.192573 -14.999985 -0.453574 1351 0.707407 0.706807 0.000000
-15.192410 -14.999816 -0.447005 1345 0.707407 0.706807 0.000000
-15.192810 -15.000220 -0.440461 1333 0.707407 0.706807 0.000000
-15.192491 -14.999907 -0.433894 1345 0.707407 0.706807 0.000000
-15.192219 -14.999634 -0.427327 1347 0.707407 0.706807 0.000000
-15.191838 -14.999270 -0.420750 1347 0.707407 0.706807 0.000000
-15.192035 -14.999466 -0.414198 1343 0.707407 0.706807 0.000000
-15.192284 -14.999705 -0.407646 1329 0.707407 0.706807 0.000000
-15.192371 -14.999797 -0.401095 1349 0.707407 0.706807 0.000000
-15.192567 -14.999992 -0.394543 1345 0.707407 0.706807 0.000000
-15.192491 -14.999921 -0.387973 1347 0.707407 0.706807 0.000000
-15.191796 -14.999230 -0.381400 1355 0.707407 0.706807 0.000000
-15.191930 -14.999361 -0.374848 1345 0.707407 0.706807 0.000000
-15.192314 -14.999752 -0.368294 1353 0.707407 0.706807 0.000000
-15.192080 -14.999523 -0.361736 1355 0.707407 0.706807 0.000000
-15.192113 -14.999557 -0.355176 1343 0.707407 0.706807 0.000000
-15.192240 -14.999680 -0.348625 1333 0.707407 0.706807 0.000000
-15.192419 -14.999863 -0.342073 1351 0.707407 0.706807 0.000000
-15.192023 -14.999472 -0.335496 1351 0.707407 0.706807 0.000000
-15.191829 -14.999276 -0.328938 1343 0.707407 0.706807 0.000000
-15.191385 -14.998834 -0.322372 1341 0.707407 0.706807 0.000000
-15.191293 -14.998750 -0.315813 1351 0.707407 0.706807 0.000000
-15.191886 -14.999342 -0.309267 1349 0.707407 0.706807 0.000000
-15.191849 -14.999302 -0.302707 1341 0.707407 0.706807 0.000000
-15.191552 -14.999010 -0.296150 1339 0.707407 0.706807 0.000000
-15.192083 -14.999536 -0.289595 1347 0.707407 0.706807 0.000000
-15.198136 -14.995889 -0.663563 1347 0.707407 0.706807 0.000000
-15.198597 -14.996345 -0.657019 1353 0.707407 0.706807 0.000000
-15.198465 -14.996226 -0.650450 1357 0.707407 0.706807 0.000000
-15.198561 -14.996312 -0.643889 1357 0.707407 0.706807 0.000000
-15.198702 -14.996462 -0.637327 1347 0.707407 0.706807 0.000000
-15.198211 -14.995980 -0.630752 1361 0.707407 0.706807 0.000000
-15.198345 -14.996110 -0.624190 1355 0.707407 0.706807 0.000000
-15.198750 -14.996506 -0.617646 1353 0.707407 0.706807 0.000000
-15.198409 -14.996175 -0.611070 1357 0.707407 0.706807 0.000000
-15.198075 -14.995851 -0.604493 1351 0.707407 0.706807 0.000000
-15.197787 -14.995563 -0.597915 1337 0.707407 0.706807 0.000000
-15.197764 -14.995537 -0.591355 1337 0.707407 0.706807 0.000000
-15.197992 -14.995771 -0.584803 1357 0.707407 0.706807 0.000000
-15.198275 -14.996052 -0.578250 1351 0.707407 0.706807 0.000000
-15.198244 -14.996018 -0.571690 1351 0.707407 0.706807 0.000000
-15.198417 -14.996195 -0.565138 1349 0.707407 0.706807 0.000000
-15.198385 -14.996161 -0.558568 1355 0.707407 0.706807 0.000000
-15.197824 -14.995608 -0.551994 1355 0.707407 0.706807 0.000000
-15.197219 -14.995017 -0.545409 1339 0.707407 0.706807 0.000000
-15.197493 -14.995290 -0.538857 1341 0.707407 0.706807 0.000000
-15.197977 -14.995765 -0.532312 1357 0.707407 0.706807 0.000000
-15.197775 -14.995564 -0.525744 1343 0.707407 0.706807 0.000000
-15.198151 -14.995948 -0.519200 1347 0.707407 0.706807 0.000000
-15.197636 -14.995433 -0.512625 1345 0.707407 0.706807 0.000000
-15.196758 -14.994575 -0.506033 1341 0.707407 0.706807 0.000000
-15.197544 -14.995341 -0.499495 1341 0.707407 0.706807 0.000000
-15.198428 -14.996228 -0.492966 1349 0.707407 0.706807 0.000000
-15.198069 -14.995868 -0.486390 1341 0.707407 0.706807 0.000000
-15.197345 -14.995153 -0.479807 1343 0.707407 0.706807 0.000000
-15.196974 -14.994797 -0.473240 1353 0.707407 0.706807 0.000000
-15.197442 -14.995258 -0.466695 1359 0.707407 0.706807 0.000000
-15.196865 -14.994692 -0.460121 1331 0.707407 0.706807 0.000000
-15.196290 -14.994127 -0.453536 1343 0.707407 0.706807 0.000000
-15.196602 -14.994431 -0.446993 1345 0.707407 0.706807 0.000000
-15.196541 -14.994373 -0.440433 1347 0.707407 0.706807 0.000000
-15.196636 -14.994471 -0.433872 1355 0.707407 0.706807 0.000000
-15.197665 -14.995479 -0.427342 1361 0.707407 0.706807 0.000000
-15.197651 -14.995472 -0.420782 1359 0.707407 0.706807 0.000000
-15.196755 -14.994588 -0.414201 1353 0.707407 0.706807 0.000000
-15.196320 -14.994164 -0.407635 1343 0.707407 0.706807 0.000000
-15.196983 -14.994815 -0.401088 1353 0.707407 0.706807 0.000000
-15.197218 -14.995057 -0.394536 1357 0.707407 0.706807 0.000000
-15.196471 -14.994322 -0.387963 1355 0.707407 0.706807 0.000000
-15.196090 -14.993944 -0.381396 1357 0.707407 0.706807 0.000000
-15.196902 -14.994744 -0.374858 1349 0.707407 0.706807 0.000000
-15.197075 -14.994921 -0.368296 1359 0.707407 0.706807 0.000000
-15.196123 -14.993976 -0.361715 1339 0.707407 0.706807 0.000000
-15.196453 -14.994308 -0.355172 1331 0.707407 0.706807 0.000000
-15.196999 -14.994847 -0.348627 1345 0.707407 0.706807 0.000000
-15.196829 -14.994673 -0.342058 1355 0.707407 0.706807 0.000000
-15.196270 -14.994133 -0.335493 1345 0.707407 0.706807 0.000000
-15.195669 -14.993533 -0.328919 1347 0.707407 0.706807 0.000000
-15.195992 -14.993859 -0.322366 1351 0.707407 0.706807 0.000000
-15.196739 -14.994594 -0.315828 1361 0.707407 0.706807 0.000000
-15.196600 -14.994457 -0.309270 1359 0.707407 0.706807 0.000000
-15.196141 -14.994016 -0.302704 1347 0.707407 0.706807 0.000000
-15.195581 -14.993464 -0.296129 1341 0.707407 0.706807 0.000000
-15.195854 -14.993735 -0.289586 1347 0.707407 0.706807 0.000000
-15.203054 -14.991943 -0.663580 1353 0.707407 0.706807 0.000000
-15.202891 -14.991775 -0.657012 1357 0.707407 0.706807 0.000000
-15.202869 -14.991761 -0.650452 1357 0.707407 0.706807 0.000000
-15.203120 -14.992002 -0.643899 1363 0.707407 0.706807 0.000000
-15.202426 -14.991325 -0.637306 1343 0.707407 0.706807 0.000000
-15.201672 -14.990583 -0.630713 1347 0.707407 0.706807 0.000000
-15.201812 -14.990720 -0.624151 1349 0.707407 0.706807 0.000000
-15.202569 -14.991475 -0.617624 1343 0.707407 0.706807 0.000000
-15.202969 -14.991865 -0.611080 1341 0.707407 0.706807 0.000000
-15.203305 -14.992205 -0.604526 1337 0.707407 0.706807 0.000000
-15.203438 -14.992333 -0.597975 1343 0.707407 0.706807 0.000000
-15.203415 -14.992307 -0.591405 1349 0.707407 0.706807 0.000000
-15.202857 -14.991768 -0.584820 1345 0.707407 0.706807 0.000000
-15.202420 -14.991332 -0.578244 1349 0.707407 0.706807 0.000000
-15.202124 -14.991038 -0.571677 1353 0.707407 0.706807 0.000000
-15.202297 -14.991215 -0.565115 1345 0.707407 0.706807 0.000000
-15.202267 -14.991181 -0.558555 1331 0.707407 0.706807 0.000000
-15.202026 -14.990948 -0.551987 1341 0.707407 0.706807 0.000000
-15.201886 -14.990810 -0.545419 1347 0.707407 0.706807 0.000000
-15.202208 -14.991137 -0.538875 1339 0.707407 0.706807 0.000000
-15.202840 -14.991762 -0.532329 1353 0.707407 0.706807 0.000000
-15.202910 -14.991825 -0.525768 1353 0.707407 0.706807 0.000000
-15.203177 -14.992093 -0.519226 1355 0.707407 0.706807 0.000000
-15.202618 -14.991540 -0.512641 1347 0.707407 0.706807 0.000000
-15.201900 -14.990830 -0.506058 1345 0.707407 0.706807 0.000000
-15.201480 -14.990420 -0.499481 1345 0.707407 0.706807 0.000000
-15.202114 -14.991046 -0.492945 1347 0.707407 0.706807 0.000000
-15.202059 -14.990993 -0.486386 1351 0.707407 0.706807 0.000000
-15.201850 -14.990799 -0.479817 1347 0.707407 0.706807 0.000000
-15.202272 -14.991208 -0.473273 1341 0.707407 0.706807 0.000000
-15.202374 -14.991312 -0.466712 1357 0.707407 0.706807 0.000000
-15.202096 -14.991046 -0.460144 1361 0.707407 0.706807 0.000000
-15.201425 -14.990376 -0.453561 1335 0.707407 0.706807 0.000000
-15.201371 -14.990322 -0.447001 1351 0.707407 0.706807 0.000000
-15.201568 -14.990519 -0.440449 1351 0.707407 0.706807 0.000000
-15.201554 -14.990512 -0.433889 1351 0.707407 0.706807 0.000000
-15.201445 -14.990401 -0.427330 1353 0.707407 0.706807 0.000000
-15.201838 -14.990799 -0.420776 1355 0.707407 0.706807 0.000000
-15.201315 -14.990278 -0.414211 1349 0.707407 0.706807 0.000000
-15.201088 -14.990056 -0.407643 1345 0.707407 0.706807 0.000000
-15.201591 -14.990559 -0.401098 1335 0.707407 0.706807 0.000000
-15.201512 -14.990487 -0.394538 1341 0.707407 0.706807 0.000000
-15.201919 -14.990883 -0.387984 1349 0.707407 0.706807 0.000000
-15.202060 -14.991020 -0.381433 1349 0.707407 0.706807 0.000000
-15.201610 -14.990584 -0.374867 1337 0.707407 0.706807 0.000000
-15.201532 -14.990513 -0.368308 1343 0.707407 0.706807 0.000000
-15.201408 -14.990389 -0.361739 1325 0.707407 0.706807 0.000000
-15.201324 -14.990311 -0.355179 1333 0.707407 0.706807 0.000000
-15.201613 -14.990597 -0.348626 1361 0.707407 0.706807 0.000000
-15.201279 -14.990258 -0.342069 1357 0.707407 0.706807 0.000000
-15.200197 -14.989204 -0.335480 1337 0.707407 0.706807 0.000000
-15.200432 -14.989432 -0.328927 1339 0.707407 0.706807 0.000000
-15.201181 -14.990169 -0.322390 1349 0.707407 0.706807 0.000000
-15.201354 -14.990343 -0.315838 1353 0.707407 0.706807 0.000000
-15.201316 -14.990305 -0.309278 1353 0.707407 0.706807 0.000000
-15.200545 -14.989551 -0.302706 1353 0.707407 0.706807 0.000000
-15.200092 -14.989100 -0.296140 1349 0.707407 0.706807 0.000000
-15.200360 -14.989368 -0.289587 1345 0.707407 0.706807 0.000000
-15.207230 -14.987079 -0.663575 1359 0.707407 0.706807 0.000000
-15.207325 -14.987178 -0.657014 1347 0.707407 0.706807 0.000000
-15.207154 -14.987000 -0.650446 1341 0.707407 0.706807 0.000000
-15.207397 -14.987248 -0.643893 1345 0.707407 0.706807 0.000000
-15.207647 -14.987489 -0.637341 1361 0.707407 0.706807 0.000000
-15.207211 -14.987066 -0.630755 1355 0.707407 0.706807 0.000000
-15.207235 -14.987092 -0.624194 1351 0.707407 0.706807 0.000000
-15.207424 -14.987282 -0.617642 1349 0.707407 0.706807 0.000000
-15.207150 -14.987006 -0.611065 1347 0.707407 0.706807 0.000000
-15.206600 -14.986475 -0.604480 1341 0.707407 0.706807 0.000000
-15.206944 -14.986806 -0.597936 1359 0.707407 0.706807 0.000000
-15.207171 -14.987041 -0.591384 1367 0.707407 0.706807 0.000000
-15.207506 -14.987365 -0.584831 1351 0.707407 0.706807 0.000000
-15.207993 -14.987854 -0.578286 1343 0.707407 0.706807 0.000000
-15.207446 -14.987313 -0.571711 1341 0.707407 0.706807 0.000000
-15.207620 -14.987489 -0.565149 1349 0.707407 0.706807 0.000000
-15.207378 -14.987256 -0.558581 1343 0.707407 0.706807 0.000000
-15.206975 -14.986859 -0.552005 1345 0.707407 0.706807 0.000000
-15.207567 -14.987437 -0.545469 1363 0.707407 0.706807 0.000000
-15.207170 -14.987046 -0.538893 1355 0.707407 0.706807 0.000000
-15.206502 -14.986389 -0.532309 1349 0.707407 0.706807 0.000000
-15.206923 -14.986813 -0.525755 1351 0.707407 0.706807 0.000000
-15.207557 -14.987438 -0.519219 1351 0.707407 0.706807 0.000000
-15.207104 -14.986987 -0.512643 1347 0.707407 0.706807 0.000000
-15.206319 -14.986221 -0.506060 1349 0.707407 0.706807 0.000000
-15.206592 -14.986480 -0.499507 1347 0.707407 0.706807 0.000000
-15.207123 -14.987007 -0.492962 1343 0.707407 0.706807 0.000000
-15.206385 -14.986293 -0.486379 1361 0.707407 0.706807 0.000000
-15.205660 -14.985578 -0.479796 1351 0.707407 0.706807 0.000000
-15.205763 -14.985682 -0.473245 1353 0.707407 0.706807 0.000000
-15.206075 -14.985987 -0.466691 1351 0.707407 0.706807 0.000000
-15.206543 -14.986447 -0.460147 1343 0.707407 0.706807 0.000000
-15.206903 -14.986807 -0.453593 1353 0.707407 0.706807 0.000000
-15.206577 -14.986487 -0.447026 1353 0.707407 0.706807 0.000000
-15.205899 -14.985811 -0.440443 1353 0.707407 0.706807 0.000000
-15.205684 -14.985610 -0.433884 1355 0.707407 0.706807 0.000000
-15.205358 -14.985291 -0.427317 1351 0.707407 0.706807 0.000000
-15.205864 -14.985785 -0.420772 1341 0.707407 0.706807 0.000000
-15.206060 -14.985980 -0.414220 1345 0.707407 0.706807 0.000000
-15.205991 -14.985915 -0.407651 1345 0.707407 0.706807 0.000000
-15.205921 -14.985849 -0.401091 1341 0.707407 0.706807 0.000000
-15.205697 -14.985630 -0.394533 1349 0.707407 0.706807 0.000000
-15.205626 -14.985563 -0.387974 1331 0.707407 0.706807 0.000000
-15.205809 -14.985747 -0.381412 1345 0.707407 0.706807 0.000000
-15.205792 -14.985725 -0.374862 1351 0.707407 0.706807 0.000000
-15.205763 -14.985707 -0.368302 1353 0.707407 0.706807 0.000000
-15.205584 -14.985524 -0.361734 1335 0.707407 0.706807 0.000000
-15.205297 -14.985239 -0.355176 1331 0.707407 0.706807 0.000000
-15.205329 -14.985271 -0.348616 1337 0.707407 0.706807 0.000000
-15.205806 -14.985753 -0.342071 1343 0.707407 0.706807 0.000000
-15.205885 -14.985825 -0.335510 1357 0.707407 0.706807 0.000000
-15.205700 -14.985649 -0.328952 1347 0.707407 0.706807 0.000000
-15.205660 -14.985609 -0.322392 1359 0.707407 0.706807 0.000000
-15.205942 -14.985888 -0.315839 1365 0.707407 0.706807 0.000000
-15.205695 -14.985649 -0.309281 1351 0.707407 0.706807 0.000000
-15.205033 -14.984999 -0.302707 1359 0.707407 0.706807 0.000000
-15.204738 -14.984706 -0.296140 1355 0.707407 0.706807 0.000000
-15.204956 -14.984920 -0.289588 1355 0.707407 0.706807 0.000000
-15.211672 -14.981942 -0.663560 1353 0.707407 0.706807 0.000000
-15.211665 -14.981929 -0.657000 1353 0.707407 0.706807 0.000000
-15.211759 -14.982026 -0.650439 1343 0.707407 0.706807 0.000000
-15.211995 -14.982269 -0.643887 1363 0.707407 0.706807 0.000000
-15.212143 -14.982411 -0.637325 1355 0.707407 0.706807 0.000000
-15.212533 -14.982795 -0.630781 1355 0.707407 0.706807 0.000000
-15.212308 -14.982572 -0.624213 1361 0.707407 0.706807 0.000000
-15.211866 -14.982145 -0.617627 1353 0.707407 0.706807 0.000000
-15.211741 -14.982019 -0.611058 1353 0.707407 0.706807 0.000000
-15.211617 -14.981896 -0.604499 1345 0.707407 0.706807 0.000000
-15.211488 -14.981780 -0.597930 1341 0.707407 0.706807 0.000000
-15.211192 -14.981487 -0.591353 1341 0.707407 0.706807 0.000000
-15.211433 -14.981720 -0.584801 1341 0.707407 0.706807 0.000000
-15.211716 -14.982000 -0.578248 1327 0.707407 0.706807 0.000000
-15.211841 -14.982123 -0.571696 1343 0.707407 0.706807 0.000000
-15.211538 -14.981838 -0.565119 1345 0.707407 0.706807 0.000000
-15.211982 -14.982266 -0.558575 1335 0.707407 0.706807 0.000000
-15.212102 -14.982385 -0.552023 1335 0.707407 0.706807 0.000000
-15.212165 -14.982457 -0.545463 1349 0.707407 0.706807 0.000000
-15.211918 -14.982216 -0.538895 1363 0.707407 0.706807 0.000000
-15.211365 -14.981668 -0.532310 1357 0.707407 0.706807 0.000000
-15.211684 -14.981981 -0.525757 1345 0.707407 0.706807 0.000000
-15.211172 -14.981481 -0.519181 1351 0.707407 0.706807 0.000000
-15.210970 -14.981278 -0.512613 1349 0.707407 0.706807 0.000000
-15.211501 -14.981806 -0.506068 1347 0.707407 0.706807 0.000000
-15.212025 -14.982327 -0.499533 1357 0.707407 0.706807 0.000000
-15.211878 -14.982183 -0.492964 1351 0.707407 0.706807 0.000000
-15.211457 -14.981773 -0.486388 1339 0.707407 0.706807 0.000000
-15.211505 -14.981819 -0.479837 1345 0.707407 0.706807 0.000000
-15.211248 -14.981571 -0.473260 1353 0.707407 0.706807 0.000000
-15.210938 -14.981267 -0.466692 1337 0.707407 0.706807 0.000000
-15.211033 -14.981364 -0.460141 1343 0.707407 0.706807 0.000000
-15.210355 -14.980687 -0.453558 1339 0.707407 0.706807 0.000000
-15.210707 -14.981038 -0.447014 1335 0.707407 0.706807 0.000000
-15.211424 -14.981747 -0.440467 1353 0.707407 0.706807 0.000000
-15.211005 -14.981337 -0.433901 1351 0.707407 0.706807 0.000000
-15.210998 -14.981324 -0.427341 1351 0.707407 0.706807 0.000000
-15.211031 -14.981369 -0.420780 1351 0.707407 0.706807 0.000000
-15.211023 -14.981357 -0.414220 1363 0.707407 0.706807 0.000000
-15.210962 -14.981298 -0.407661 1343 0.707407 0.706807 0.000000
-15.211204 -14.981531 -0.401108 1347 0.707407 0.706807 0.000000
-15.211028 -14.981364 -0.394550 1345 0.707407 0.706807 0.000000
-15.210849 -14.981194 -0.387981 1353 0.707407 0.706807 0.000000
-15.209992 -14.980356 -0.381399 1347 0.707407 0.706807 0.000000
-15.209822 -14.980180 -0.374841 1353 0.707407 0.706807 0.000000
-15.210680 -14.981031 -0.368303 1353 0.707407 0.706807 0.000000
-15.210556 -14.980907 -0.361744 1345 0.707407 0.706807 0.000000
-15.210729 -14.981084 -0.355192 1347 0.707407 0.706807 0.000000
-15.210753 -14.981110 -0.348631 1345 0.707407 0.706807 0.000000
-15.210521 -14.980882 -0.342073 1355 0.707407 0.706807 0.000000
-15.210280 -14.980648 -0.335506 1337 0.707407 0.706807 0.000000
-15.210195 -14.980556 -0.328946 1353 0.707407 0.706807 0.000000
-15.210166 -14.980538 -0.322386 1341 0.707407 0.706807 0.000000
-15.210181 -14.980543 -0.315826 1347 0.707407 0.706807 0.000000
-15.210035 -14.980414 -0.309267 1339 0.707407 0.706807 0.000000
-15.209841 -14.980219 -0.302709 1347 0.707407 0.706807 0.000000
-15.209858 -14.980240 -0.296149 1351 0.707407 0.706807 0.000000
-15.210076 -14.980453 -0.289596 1339 0.707407 0.706807 0.000000
