786
-8.926281 -8.478565 -0.358508 443 0.716863 0.697214 0.000000
-8.926303 -8.478579 -0.354728 421 0.716863 0.697214 0.000000
-8.928226 -8.480417 -0.351020 411 0.716863 0.697214 0.000000
-8.928363 -8.480541 -0.347238 423 0.716863 0.697214 0.000000
-8.926841 -8.479094 -0.343402 427 0.716863 0.697214 0.000000
-8.927553 -8.479776 -0.339636 397 0.716863 0.697214 0.000000
-8.928473 -8.480646 -0.335887 415 0.716863 0.697214 0.000000
-8.927588 -8.479810 -0.332075 379 0.716863 0.697214 0.000000
-8.927029 -8.479272 -0.328270 387 0.716863 0.697214 0.000000
-8.926670 -8.478928 -0.324474 411 0.716863 0.697214 0.000000
-8.926576 -8.478845 -0.320684 419 0.716863 0.697214 0.000000
-8.926435 -8.478708 -0.316896 429 0.716863 0.697214 0.000000
-8.926185 -8.478469 -0.313108 411 0.716863 0.697214 0.000000
-8.926889 -8.479145 -0.309351 419 0.716863 0.697214 0.000000
-8.929870 -8.476715 -0.688098 385 0.716863 0.697214 0.000000
-8.929759 -8.476618 -0.684299 391 0.716863 0.697214 0.000000
-8.930494 -8.477306 -0.680562 419 0.716863 0.697214 0.000000
-8.931642 -8.478405 -0.676852 411 0.716863 0.697214 0.000000
-8.930833 -8.477633 -0.672999 401 0.716863 0.697214 0.000000
-8.930450 -8.477270 -0.669183 367 0.716863 0.697214 0.000000
-8.930017 -8.476861 -0.665357 387 0.716863 0.697214 0.000000
-8.930114 -8.476952 -0.661576 409 0.716863 0.697214 0.000000
-8.930950 -8.477738 -0.657838 395 0.716863 0.697214 0.000000
-8.931033 -8.477818 -0.654057 405 0.716863 0.697214 0.000000
-8.930171 -8.476999 -0.650205 381 0.716863 0.697214 0.000000
-8.930580 -8.477389 -0.646441 401 0.716863 0.697214 0.000000
-8.930301 -8.477124 -0.642633 391 0.716863 0.697214 0.000000
-8.929747 -8.476592 -0.638799 389 0.716863 0.697214 0.000000
-8.930521 -8.477325 -0.635061 405 0.716863 0.697214 0.000000
-8.930869 -8.477665 -0.631298 439 0.716863 0.697214 0.000000
-8.931163 -8.477944 -0.627525 427 0.716863 0.697214 0.000000
-8.930673 -8.477478 -0.623699 413 0.716863 0.697214 0.000000
-8.930011 -8.476842 -0.619866 393 0.716863 0.697214 0.000000
-8.929459 -8.476322 -0.616041 387 0.716863 0.697214 0.000000
-8.928906 -8.475790 -0.612206 391 0.716863 0.697214 0.000000
-8.929199 -8.476069 -0.608443 385 0.716863 0.697214 0.000000
-8.929221 -8.476097 -0.604653 409 0.716863 0.697214 0.000000
-8.929668 -8.476519 -0.600888 407 0.716863 0.697214 0.000000
-8.931499 -8.478254 -0.597221 427 0.716863 0.697214 0.000000
-8.931892 -8.478631 -0.593457 437 0.716863 0.697214 0.000000
-8.930696 -8.477495 -0.589589 427 0.716863 0.697214 0.000000
-8.929710 -8.476561 -0.585738 419 0.716863 0.697214 0.000000
-8.930002 -8.476827 -0.581965 447 0.716863 0.697214 0.000000
-8.930971 -8.477750 -0.578236 439 0.716863 0.697214 0.000000
-8.930776 -8.477569 -0.574437 417 0.716863 0.697214 0.000000
-8.930370 -8.477186 -0.570621 407 0.716863 0.697214 0.000000
-8.930446 -8.477259 -0.566830 427 0.716863 0.697214 0.000000
-8.930779 -8.477571 -0.563067 417 0.716863 0.697214 0.000000
-8.930691 -8.477480 -0.559268 439 0.716863 0.697214 0.000000
-8.930015 -8.476845 -0.555444 441 0.716863 0.697214 0.000000
-8.929603 -8.476456 -0.551628 435 0.716863 0.697214 0.000000
-8.930043 -8.476872 -0.547864 453 0.716863 0.697214 0.000000
-8.930436 -8.477235 -0.544100 433 0.716863 0.697214 0.000000
-8.930334 -8.477145 -0.540311 437 0.716863 0.697214 0.000000
-8.930356 -8.477159 -0.536521 445 0.716863 0.697214 0.000000
-8.930354 -8.477166 -0.532730 441 0.716863 0.697214 0.000000
-8.930422 -8.477232 -0.528950 465 0.716863 0.697214 0.000000
-8.929792 -8.476621 -0.525126 447 0.716863 0.697214 0.000000
-8.929597 -8.476439 -0.521327 447 0.716863 0.697214 0.000000
-8.929387 -8.476246 -0.517529 443 0.716863 0.697214 0.000000
-8.930183 -8.476999 -0.513782 445 0.716863 0.697214 0.000000
-8.930236 -8.477053 -0.510001 415 0.716863 0.697214 0.000000
-8.929450 -8.476299 -0.506168 425 0.716863 0.697214 0.000000
-8.928875 -8.475748 -0.502344 449 0.716863 0.697214 0.000000
-8.927974 -8.474897 -0.498512 435 0.716863 0.697214 0.000000
-8.929360 -8.476210 -0.494799 447 0.716863 0.697214 0.000000
-8.929785 -8.476613 -0.491035 443 0.716863 0.697214 0.000000
-8.929094 -8.475965 -0.487211 411 0.716863 0.697214 0.000000
-8.929363 -8.476212 -0.483439 423 0.716863 0.697214 0.000000
-8.929356 -8.476213 -0.479659 445 0.716863 0.697214 0.000000
-8.929144 -8.476006 -0.475860 421 0.716863 0.697214 0.000000
-8.929297 -8.476155 -0.472079 423 0.716863 0.697214 0.000000
-8.928605 -8.475492 -0.468255 421 0.716863 0.697214 0.000000
-8.928069 -8.474988 -0.464440 411 0.716863 0.697214 0.000000
-8.928648 -8.475533 -0.460685 413 0.716863 0.697214 0.000000
-8.929918 -8.476735 -0.456963 447 0.716863 0.697214 0.000000
-8.929436 -8.476274 -0.453157 411 0.716863 0.697214 0.000000
-8.929745 -8.476567 -0.449384 421 0.716863 0.697214 0.000000
-8.930364 -8.477160 -0.445628 441 0.716863 0.697214 0.000000
-8.929671 -8.476498 -0.441805 435 0.716863 0.697214 0.000000
-8.929282 -8.476127 -0.438008 439 0.716863 0.697214 0.000000
-8.930017 -8.476830 -0.434251 455 0.716863 0.697214 0.000000
-8.930590 -8.477369 -0.430496 479 0.716863 0.697214 0.000000
-8.929356 -8.476200 -0.426657 449 0.716863 0.697214 0.000000
-8.928655 -8.475532 -0.422834 467 0.716863 0.697214 0.000000
-8.929111 -8.475975 -0.419070 441 0.716863 0.697214 0.000000
-8.929684 -8.476514 -0.415314 459 0.716863 0.697214 0.000000
-8.929558 -8.476391 -0.411525 453 0.716863 0.697214 0.000000
-8.929642 -8.476469 -0.407744 449 0.716863 0.697214 0.000000
-8.930105 -8.476905 -0.403980 435 0.716863 0.697214 0.000000
-8.930298 -8.477087 -0.400198 427 0.716863 0.697214 0.000000
-8.930335 -8.477127 -0.396418 437 0.716863 0.697214 0.000000
-8.929410 -8.476244 -0.392586 409 0.716863 0.697214 0.000000
-8.929447 -8.476284 -0.388806 431 0.716863 0.697214 0.000000
-8.930424 -8.477214 -0.385066 429 0.716863 0.697214 0.000000
-8.929979 -8.476785 -0.381261 427 0.716863 0.697214 0.000000
-8.930164 -8.476961 -0.377479 449 0.716863 0.697214 0.000000
-8.929932 -8.476748 -0.373691 451 0.716863 0.697214 0.000000
-8.929370 -8.476210 -0.369886 445 0.716863 0.697214 0.000000
-8.930036 -8.476840 -0.366130 429 0.716863 0.697214 0.000000
-8.930010 -8.476814 -0.362340 425 0.716863 0.697214 0.000000
-8.929342 -8.476186 -0.358526 443 0.716863 0.697214 0.000000
-8.929101 -8.475952 -0.354738 423 0.716863 0.697214 0.000000
-8.929813 -8.476635 -0.350981 415 0.716863 0.697214 0.000000
-8.930315 -8.477102 -0.347217 417 0.716863 0.697214 0.000000
-8.930547 -8.477331 -0.343434 427 0.716863 0.697214 0.000000
-8.930405 -8.477195 -0.339646 409 0.716863 0.697214 0.000000
-8.929736 -8.476552 -0.335842 431 0.716863 0.697214 0.000000
-8.929494 -8.476319 -0.332054 405 0.716863 0.697214 0.000000
-8.929928 -8.476743 -0.328280 411 0.716863 0.697214 0.000000
-8.929049 -8.475898 -0.324468 419 0.716863 0.697214 0.000000
-8.928691 -8.475569 -0.320671 425 0.716863 0.697214 0.000000
-8.928341 -8.475231 -0.316874 419 0.716863 0.697214 0.000000
-8.928253 -8.475141 -0.313095 407 0.716863 0.697214 0.000000
-8.929214 -8.476056 -0.309336 393 0.716863 0.697214 0.000000
-8.932499 -8.473634 -0.688092 389 0.716863 0.697214 0.000000
-8.933497 -8.474583 -0.684373 373 0.716863 0.697214 0.000000
-8.933550 -8.474622 -0.680582 391 0.716863 0.697214 0.000000
-8.932843 -8.473960 -0.676739 385 0.716863 0.697214 0.000000
-8.933887 -8.474948 -0.673029 405 0.716863 0.697214 0.000000
-8.933034 -8.474136 -0.669167 395 0.716863 0.697214 0.000000
-8.932280 -8.473423 -0.665324 391 0.716863 0.697214 0.000000
-8.932681 -8.473806 -0.661560 399 0.716863 0.697214 0.000000
-8.932733 -8.473845 -0.657769 409 0.716863 0.697214 0.000000
-8.933454 -8.474535 -0.654032 433 0.716863 0.697214 0.000000
-8.933808 -8.474866 -0.650269 423 0.716863 0.697214 0.000000
-8.933474 -8.474556 -0.646452 417 0.716863 0.697214 0.000000
-8.932766 -8.473881 -0.642609 381 0.716863 0.697214 0.000000
-8.932749 -8.473862 -0.638819 375 0.716863 0.697214 0.000000
-8.932941 -8.474044 -0.635037 387 0.716863 0.697214 0.000000
-8.933288 -8.474369 -0.631273 417 0.716863 0.697214 0.000000
-8.934109 -8.475155 -0.627536 395 0.716863 0.697214 0.000000
-8.934618 -8.475629 -0.623781 429 0.716863 0.697214 0.000000
-8.934230 -8.475260 -0.619964 403 0.716863 0.697214 0.000000
-8.934313 -8.475338 -0.616174 399 0.716863 0.697214 0.000000
-8.933180 -8.474268 -0.612314 413 0.716863 0.697214 0.000000
-8.931773 -8.472930 -0.608427 397 0.716863 0.697214 0.000000
-8.932440 -8.473560 -0.604681 413 0.716863 0.697214 0.000000
-8.933253 -8.474341 -0.600943 415 0.716863 0.697214 0.000000
-8.932700 -8.473808 -0.597118 415 0.716863 0.697214 0.000000
-8.933147 -8.474231 -0.593354 425 0.716863 0.697214 0.000000
-8.933372 -8.474453 -0.589582 429 0.716863 0.697214 0.000000
-8.933191 -8.474271 -0.585783 423 0.716863 0.697214 0.000000
-8.934220 -8.475245 -0.582054 447 0.716863 0.697214 0.000000
-8.933917 -8.474960 -0.578246 431 0.716863 0.697214 0.000000
-8.932458 -8.473578 -0.574370 385 0.716863 0.697214 0.000000
-8.933216 -8.474299 -0.570623 403 0.716863 0.697214 0.000000
-8.934501 -8.475514 -0.566921 425 0.716863 0.697214 0.000000
-8.933197 -8.474275 -0.563043 427 0.716863 0.697214 0.000000
-8.932311 -8.473438 -0.559201 445 0.716863 0.697214 0.000000
-8.933652 -8.474711 -0.555498 423 0.716863 0.697214 0.000000
-8.934783 -8.475783 -0.551778 425 0.716863 0.697214 0.000000
-8.934261 -8.475290 -0.547952 465 0.716863 0.697214 0.000000
-8.934120 -8.475154 -0.544154 467 0.716863 0.697214 0.000000
-8.934505 -8.475512 -0.540390 437 0.716863 0.697214 0.000000
-8.933457 -8.474525 -0.536540 431 0.716863 0.697214 0.000000
-8.932673 -8.473772 -0.532707 433 0.716863 0.697214 0.000000
-8.932841 -8.473935 -0.528925 419 0.716863 0.697214 0.000000
-8.933746 -8.474793 -0.525197 411 0.716863 0.697214 0.000000
-8.933862 -8.474897 -0.521406 423 0.716863 0.697214 0.000000
-8.932915 -8.474009 -0.517564 425 0.716863 0.697214 0.000000
-8.933348 -8.474419 -0.513810 425 0.716863 0.697214 0.000000
-8.933034 -8.474113 -0.510003 403 0.716863 0.697214 0.000000
-8.932770 -8.473861 -0.506195 431 0.716863 0.697214 0.000000
-8.933311 -8.474374 -0.502440 449 0.716863 0.697214 0.000000
-8.932891 -8.473979 -0.498634 425 0.716863 0.697214 0.000000
-8.932409 -8.473518 -0.494819 453 0.716863 0.697214 0.000000
-8.932150 -8.473272 -0.491021 425 0.716863 0.697214 0.000000
-8.932522 -8.473631 -0.487247 435 0.716863 0.697214 0.000000
-8.933364 -8.474422 -0.483509 445 0.716863 0.697214 0.000000
-8.933464 -8.474527 -0.479728 443 0.716863 0.697214 0.000000
-8.933843 -8.474878 -0.475955 441 0.716863 0.697214 0.000000
-8.932988 -8.474068 -0.472123 419 0.716863 0.697214 0.000000
-8.932350 -8.473464 -0.468308 423 0.716863 0.697214 0.000000
-8.933079 -8.474160 -0.464562 419 0.716863 0.697214 0.000000
-8.932495 -8.473602 -0.460747 445 0.716863 0.697214 0.000000
-8.931850 -8.472992 -0.456923 423 0.716863 0.697214 0.000000
-8.932430 -8.473538 -0.453167 431 0.716863 0.697214 0.000000
-8.931995 -8.473129 -0.449361 423 0.716863 0.697214 0.000000
-8.932837 -8.473922 -0.445613 437 0.716863 0.697214 0.000000
-8.932665 -8.473761 -0.441825 431 0.716863 0.697214 0.000000
-8.931384 -8.472539 -0.437977 433 0.716863 0.697214 0.000000
-8.931430 -8.472586 -0.434196 437 0.716863 0.697214 0.000000
-8.931568 -8.472724 -0.430415 441 0.716863 0.697214 0.000000
-8.932349 -8.473464 -0.426668 457 0.716863 0.697214 0.000000
-8.933354 -8.474405 -0.422928 477 0.716863 0.697214 0.000000
-8.933920 -8.474953 -0.419163 473 0.716863 0.697214 0.000000
-8.933585 -8.474628 -0.415366 451 0.716863 0.697214 0.000000
-8.931761 -8.472901 -0.411493 455 0.716863 0.697214 0.000000
-8.931690 -8.472837 -0.407713 453 0.716863 0.697214 0.000000
-8.932045 -8.473168 -0.403940 423 0.716863 0.697214 0.000000
-8.932826 -8.473909 -0.400192 439 0.716863 0.697214 0.000000
-8.933600 -8.474644 -0.396435 443 0.716863 0.697214 0.000000
-8.932722 -8.473813 -0.392613 421 0.716863 0.697214 0.000000
-8.932549 -8.473638 -0.388825 435 0.716863 0.697214 0.000000
-8.933424 -8.474469 -0.385077 431 0.716863 0.697214 0.000000
-8.932865 -8.473945 -0.381272 399 0.716863 0.697214 0.000000
-8.932901 -8.473970 -0.377481 439 0.716863 0.697214 0.000000
-8.932870 -8.473952 -0.373701 443 0.716863 0.697214 0.000000
-8.932425 -8.473524 -0.369896 427 0.716863 0.697214 0.000000
-8.932718 -8.473804 -0.366123 431 0.716863 0.697214 0.000000
-8.933004 -8.474078 -0.362350 455 0.716863 0.697214 0.000000
-8.933189 -8.474254 -0.358568 459 0.716863 0.697214 0.000000
-8.931466 -8.472611 -0.354724 403 0.716863 0.697214 0.000000
-8.931379 -8.472535 -0.350935 391 0.716863 0.697214 0.000000
-8.932680 -8.473762 -0.347203 421 0.716863 0.697214 0.000000
-8.932958 -8.474029 -0.343430 431 0.716863 0.697214 0.000000
-8.932296 -8.473392 -0.339616 415 0.716863 0.697214 0.000000
-8.932047 -8.473166 -0.335828 403 0.716863 0.697214 0.000000
-8.932549 -8.473634 -0.332064 413 0.716863 0.697214 0.000000
-8.932508 -8.473596 -0.328274 407 0.716863 0.697214 0.000000
-8.932375 -8.473466 -0.324485 413 0.716863 0.697214 0.000000
-8.931753 -8.472876 -0.320681 431 0.716863 0.697214 0.000000
-8.931288 -8.472443 -0.316885 419 0.716863 0.697214 0.000000
-8.931882 -8.473001 -0.313119 413 0.716863 0.697214 0.000000
-8.931579 -8.472716 -0.309332 403 0.716863 0.697214 0.000000
-8.936363 -8.471900 -0.688183 399 0.716863 0.697214 0.000000
-8.936090 -8.471641 -0.684366 377 0.716863 0.697214 0.000000
-8.935925 -8.471472 -0.680567 377 0.716863 0.697214 0.000000
-8.936070 -8.471616 -0.676786 407 0.716863 0.697214 0.000000
-8.936913 -8.472407 -0.673048 413 0.716863 0.697214 0.000000
-8.936525 -8.472053 -0.669231 423 0.716863 0.697214 0.000000
-8.935771 -8.471324 -0.665378 411 0.716863 0.697214 0.000000
-8.936390 -8.471916 -0.661632 419 0.716863 0.697214 0.000000
-8.936691 -8.472203 -0.657869 423 0.716863 0.697214 0.000000
-8.936790 -8.472294 -0.654078 391 0.716863 0.697214 0.000000
-8.935339 -8.470918 -0.650182 395 0.716863 0.697214 0.000000
-8.933678 -8.469340 -0.646277 383 0.716863 0.697214 0.000000
-8.934938 -8.470535 -0.642576 365 0.716863 0.697214 0.000000
-8.936714 -8.472224 -0.638909 377 0.716863 0.697214 0.000000
-8.936378 -8.471900 -0.635092 401 0.716863 0.697214 0.000000
-8.935509 -8.471076 -0.631240 391 0.716863 0.697214 0.000000
-8.935430 -8.471005 -0.627440 395 0.716863 0.697214 0.000000
-8.935149 -8.470739 -0.623633 401 0.716863 0.697214 0.000000
-8.936078 -8.471617 -0.619904 421 0.716863 0.697214 0.000000
-8.937325 -8.472798 -0.616203 415 0.716863 0.697214 0.000000
-8.936717 -8.472221 -0.612368 401 0.716863 0.697214 0.000000
-8.935793 -8.471339 -0.608517 405 0.716863 0.697214 0.000000
-8.936188 -8.471717 -0.604753 439 0.716863 0.697214 0.000000
-8.936210 -8.471744 -0.600963 411 0.716863 0.697214 0.000000
-8.935493 -8.471062 -0.597129 397 0.716863 0.697214 0.000000
-8.934725 -8.470335 -0.593286 401 0.716863 0.697214 0.000000
-8.935336 -8.470906 -0.589541 445 0.716863 0.697214 0.000000
-8.935676 -8.471225 -0.585767 421 0.716863 0.697214 0.000000
-8.935907 -8.471454 -0.581995 427 0.716863 0.697214 0.000000
-8.935664 -8.471220 -0.578187 425 0.716863 0.697214 0.000000
-8.935949 -8.471494 -0.574414 447 0.716863 0.697214 0.000000
-8.936544 -8.472052 -0.570669 447 0.716863 0.697214 0.000000
-8.936249 -8.471774 -0.566861 429 0.716863 0.697214 0.000000
-8.934727 -8.470326 -0.562976 423 0.716863 0.697214 0.000000
-8.935214 -8.470795 -0.559221 441 0.716863 0.697214 0.000000
-8.936454 -8.471971 -0.555499 451 0.716863 0.697214 0.000000
-8.936103 -8.471634 -0.551692 443 0.716863 0.697214 0.000000
-8.936326 -8.471842 -0.547920 449 0.716863 0.697214 0.000000
-8.936549 -8.472050 -0.544138 441 0.716863 0.697214 0.000000
-8.935725 -8.471265 -0.540306 427 0.716863 0.697214 0.000000
-8.935150 -8.470726 -0.536481 423 0.716863 0.697214 0.000000
-8.935366 -8.470928 -0.532709 417 0.716863 0.697214 0.000000
-8.935015 -8.470591 -0.528902 407 0.716863 0.697214 0.000000
-8.935176 -8.470747 -0.525121 423 0.716863 0.697214 0.000000
-8.936353 -8.471858 -0.521399 427 0.716863 0.697214 0.000000
-8.935880 -8.471417 -0.517584 429 0.716863 0.697214 0.000000
-8.934984 -8.470560 -0.513752 425 0.716863 0.697214 0.000000
-8.935884 -8.471425 -0.510014 429 0.716863 0.697214 0.000000
-8.936059 -8.471581 -0.506232 439 0.716863 0.697214 0.000000
-8.935314 -8.470874 -0.502409 441 0.716863 0.697214 0.000000
-8.935584 -8.471134 -0.498636 451 0.716863 0.697214 0.000000
-8.935529 -8.471084 -0.494847 441 0.716863 0.697214 0.000000
-8.935744 -8.471285 -0.491065 443 0.716863 0.697214 0.000000
-8.935268 -8.470831 -0.487259 439 0.716863 0.697214 0.000000
-8.934950 -8.470533 -0.483452 435 0.716863 0.697214 0.000000
-8.936281 -8.471786 -0.479729 441 0.716863 0.697214 0.000000
-8.936064 -8.471586 -0.475931 439 0.716863 0.697214 0.000000
-8.934999 -8.470573 -0.472091 415 0.716863 0.697214 0.000000
-8.935308 -8.470866 -0.468328 411 0.716863 0.697214 0.000000
-8.935251 -8.470815 -0.464538 425 0.716863 0.697214 0.000000
-8.934336 -8.469952 -0.460707 431 0.716863 0.697214 0.000000
-8.935024 -8.470602 -0.456950 417 0.716863 0.697214 0.000000
-8.935704 -8.471246 -0.453194 435 0.716863 0.697214 0.000000
-8.935060 -8.470636 -0.449380 421 0.716863 0.697214 0.000000
-8.934367 -8.469974 -0.445556 427 0.716863 0.697214 0.000000
-8.934196 -8.469811 -0.441768 419 0.716863 0.697214 0.000000
-8.934985 -8.470559 -0.438020 455 0.716863 0.697214 0.000000
-8.935549 -8.471092 -0.434265 467 0.716863 0.697214 0.000000
-8.935757 -8.471288 -0.430483 431 0.716863 0.697214 0.000000
-8.935740 -8.471269 -0.426703 437 0.716863 0.697214 0.000000
-8.935778 -8.471309 -0.422913 455 0.716863 0.697214 0.000000
-8.935443 -8.470998 -0.419116 427 0.716863 0.697214 0.000000
-8.935858 -8.471380 -0.415352 393 0.716863 0.697214 0.000000
-8.935950 -8.471466 -0.411561 445 0.716863 0.697214 0.000000
-8.934709 -8.470290 -0.407722 433 0.716863 0.697214 0.000000
-8.934475 -8.470078 -0.403934 413 0.716863 0.697214 0.000000
-8.934450 -8.470053 -0.400145 419 0.716863 0.697214 0.000000
-8.934122 -8.469734 -0.396348 427 0.716863 0.697214 0.000000
-8.934469 -8.470059 -0.392574 415 0.716863 0.697214 0.000000
-8.934871 -8.470443 -0.388810 437 0.716863 0.697214 0.000000
-8.933940 -8.469567 -0.384989 435 0.716863 0.697214 0.000000
-8.933867 -8.469489 -0.381200 419 0.716863 0.697214 0.000000
-8.934325 -8.469933 -0.377435 419 0.716863 0.697214 0.000000
-8.935036 -8.470601 -0.373678 431 0.716863 0.697214 0.000000
-8.935871 -8.471387 -0.369931 427 0.716863 0.697214 0.000000
-8.935357 -8.470901 -0.366125 431 0.716863 0.697214 0.000000
-8.934806 -8.470382 -0.362320 421 0.716863 0.697214 0.000000
-8.934936 -8.470499 -0.358539 437 0.716863 0.697214 0.000000
-8.935268 -8.470825 -0.354766 399 0.716863 0.697214 0.000000
-8.936415 -8.471910 -0.351025 443 0.716863 0.697214 0.000000
-8.936598 -8.472072 -0.347253 437 0.716863 0.697214 0.000000
-8.936131 -8.471638 -0.343448 421 0.716863 0.697214 0.000000
-8.936316 -8.471814 -0.339666 427 0.716863 0.697214 0.000000
-8.936708 -8.472178 -0.335902 451 0.716863 0.697214 0.000000
-8.936941 -8.472406 -0.332120 463 0.716863 0.697214 0.000000
-8.936049 -8.471563 -0.328308 437 0.716863 0.697214 0.000000
-8.935278 -8.470823 -0.324495 417 0.716863 0.697214 0.000000
-8.934602 -8.470188 -0.320691 423 0.716863 0.697214 0.000000
-8.933764 -8.469390 -0.316879 415 0.716863 0.697214 0.000000
-8.934793 -8.470365 -0.313129 433 0.716863 0.697214 0.000000
-8.935334 -8.470878 -0.309364 433 0.716863 0.697214 0.000000
-8.939376 -8.469779 -0.688220 381 0.716863 0.697214 0.000000
-8.938204 -8.468663 -0.684341 383 0.716863 0.697214 0.000000
-8.937721 -8.468202 -0.680515 403 0.716863 0.697214 0.000000
-8.938813 -8.469242 -0.676805 415 0.716863 0.697214 0.000000
-8.938222 -8.468678 -0.672971 393 0.716863 0.697214 0.000000
-8.938369 -8.468822 -0.669189 381 0.716863 0.697214 0.000000
-8.939522 -8.469913 -0.665478 389 0.716863 0.697214 0.000000
-8.939938 -8.470295 -0.661714 421 0.716863 0.697214 0.000000
-8.939976 -8.470335 -0.657924 403 0.716863 0.697214 0.000000
-8.939642 -8.470025 -0.654107 419 0.716863 0.697214 0.000000
-8.938615 -8.469044 -0.650246 407 0.716863 0.697214 0.000000
-8.939397 -8.469786 -0.646509 397 0.716863 0.697214 0.000000
-8.939325 -8.469720 -0.642709 399 0.716863 0.697214 0.000000
-8.938774 -8.469202 -0.638885 405 0.716863 0.697214 0.000000
-8.939339 -8.469735 -0.635129 393 0.716863 0.697214 0.000000
-8.940166 -8.470514 -0.631391 421 0.716863 0.697214 0.000000
-8.940196 -8.470548 -0.627601 437 0.716863 0.697214 0.000000
-8.939217 -8.469620 -0.623750 425 0.716863 0.697214 0.000000
-8.938943 -8.469347 -0.619933 429 0.716863 0.697214 0.000000
-8.939338 -8.469725 -0.616169 415 0.716863 0.697214 0.000000
-8.938668 -8.469095 -0.612335 411 0.716863 0.697214 0.000000
-8.937799 -8.468271 -0.608483 403 0.716863 0.697214 0.000000
-8.938200 -8.468640 -0.604719 419 0.716863 0.697214 0.000000
-8.939176 -8.469571 -0.601000 429 0.716863 0.697214 0.000000
-8.938888 -8.469299 -0.597193 449 0.716863 0.697214 0.000000
-8.938746 -8.469163 -0.593394 447 0.716863 0.697214 0.000000
-8.939567 -8.469935 -0.589656 445 0.716863 0.697214 0.000000
-8.939116 -8.469515 -0.585830 431 0.716863 0.697214 0.000000
-8.938231 -8.468678 -0.581988 409 0.716863 0.697214 0.000000
-8.938522 -8.468943 -0.578216 423 0.716863 0.697214 0.000000
-8.937955 -8.468412 -0.574391 413 0.716863 0.697214 0.000000
-8.938612 -8.469036 -0.570645 441 0.716863 0.697214 0.000000
-8.938782 -8.469199 -0.566863 421 0.716863 0.697214 0.000000
-8.938749 -8.469168 -0.563073 431 0.716863 0.697214 0.000000
-8.938662 -8.469076 -0.559274 425 0.716863 0.697214 0.000000
-8.938094 -8.468545 -0.555459 431 0.716863 0.697214 0.000000
-8.938378 -8.468804 -0.551686 471 0.716863 0.697214 0.000000
-8.937533 -8.468013 -0.547844 431 0.716863 0.697214 0.000000
-8.937447 -8.467923 -0.544055 425 0.716863 0.697214 0.000000
-8.938415 -8.468846 -0.540316 425 0.716863 0.697214 0.000000
-8.939327 -8.469710 -0.536587 427 0.716863 0.697214 0.000000
-8.939232 -8.469612 -0.532788 413 0.716863 0.697214 0.000000
-8.938601 -8.469016 -0.528964 419 0.716863 0.697214 0.000000
-8.938609 -8.469030 -0.525174 423 0.716863 0.697214 0.000000
-8.938568 -8.468992 -0.521384 419 0.716863 0.697214 0.000000
-8.938094 -8.468537 -0.517568 423 0.716863 0.697214 0.000000
-8.937262 -8.467746 -0.513736 423 0.716863 0.697214 0.000000
-8.936625 -8.467143 -0.509912 405 0.716863 0.697214 0.000000
-8.936888 -8.467397 -0.506139 421 0.716863 0.697214 0.000000
-8.938010 -8.468462 -0.502419 453 0.716863 0.697214 0.000000
-8.937962 -8.468404 -0.498629 449 0.716863 0.697214 0.000000
-8.938596 -8.469007 -0.494873 447 0.716863 0.697214 0.000000
-8.938230 -8.468657 -0.491066 453 0.716863 0.697214 0.000000
-8.936484 -8.467010 -0.487193 413 0.716863 0.697214 0.000000
-8.937111 -8.467608 -0.483437 413 0.716863 0.697214 0.000000
-8.937908 -8.468362 -0.479689 431 0.716863 0.697214 0.000000
-8.938177 -8.468609 -0.475917 459 0.716863 0.697214 0.000000
-8.938331 -8.468759 -0.472135 431 0.716863 0.697214 0.000000
-8.939012 -8.469401 -0.468388 429 0.716863 0.697214 0.000000
-8.939165 -8.469551 -0.464607 445 0.716863 0.697214 0.000000
-8.937891 -8.468338 -0.460759 427 0.716863 0.697214 0.000000
-8.936456 -8.466975 -0.456902 405 0.716863 0.697214 0.000000
-8.936811 -8.467320 -0.453129 441 0.716863 0.697214 0.000000
-8.936381 -8.466905 -0.449323 457 0.716863 0.697214 0.000000
-8.936481 -8.466995 -0.445542 451 0.716863 0.697214 0.000000
-8.936845 -8.467347 -0.441778 415 0.716863 0.697214 0.000000
-8.937246 -8.467731 -0.438014 445 0.716863 0.697214 0.000000
-8.938150 -8.468575 -0.434266 421 0.716863 0.697214 0.000000
-8.937979 -8.468414 -0.430477 437 0.716863 0.697214 0.000000
-8.937799 -8.468245 -0.426679 431 0.716863 0.697214 0.000000
-8.938101 -8.468533 -0.422906 433 0.716863 0.697214 0.000000
-8.937881 -8.468318 -0.419118 427 0.716863 0.697214 0.000000
-8.937919 -8.468357 -0.415328 431 0.716863 0.697214 0.000000
-8.938638 -8.469047 -0.411581 449 0.716863 0.697214 0.000000
-8.939054 -8.469430 -0.407807 449 0.716863 0.697214 0.000000
-8.939023 -8.469412 -0.404027 439 0.716863 0.697214 0.000000
-8.938316 -8.468737 -0.400203 451 0.716863 0.697214 0.000000
-8.938097 -8.468522 -0.396415 415 0.716863 0.697214 0.000000
-8.938653 -8.469049 -0.392650 407 0.716863 0.697214 0.000000
-8.938264 -8.468679 -0.388854 415 0.716863 0.697214 0.000000
-8.937333 -8.467804 -0.385022 411 0.716863 0.697214 0.000000
-8.937254 -8.467733 -0.381243 407 0.716863 0.697214 0.000000
-8.937554 -8.468006 -0.377470 397 0.716863 0.697214 0.000000
-8.937794 -8.468241 -0.373688 431 0.716863 0.697214 0.000000
-8.938404 -8.468812 -0.369932 437 0.716863 0.697214 0.000000
-8.938062 -8.468495 -0.366135 443 0.716863 0.697214 0.000000
-8.937549 -8.468009 -0.362330 433 0.716863 0.697214 0.000000
-8.937787 -8.468230 -0.358557 429 0.716863 0.697214 0.000000
-8.937916 -8.468347 -0.354776 441 0.716863 0.697214 0.000000
-8.937892 -8.468322 -0.350986 463 0.716863 0.697214 0.000000
-8.937324 -8.467791 -0.347182 427 0.716863 0.697214 0.000000
-8.937346 -8.467817 -0.343401 403 0.716863 0.697214 0.000000
-8.938058 -8.468486 -0.339645 421 0.716863 0.697214 0.000000
-8.937498 -8.467948 -0.335840 437 0.716863 0.697214 0.000000
-8.937349 -8.467819 -0.332051 429 0.716863 0.697214 0.000000
-8.937642 -8.468085 -0.328278 395 0.716863 0.697214 0.000000
-8.937386 -8.467853 -0.324490 423 0.716863 0.697214 0.000000
-8.937616 -8.468068 -0.320708 427 0.716863 0.697214 0.000000
-8.937474 -8.467932 -0.316919 427 0.716863 0.697214 0.000000
-8.936954 -8.467439 -0.313124 425 0.716863 0.697214 0.000000
-8.936765 -8.467251 -0.309336 423 0.716863 0.697214 0.000000
-8.940907 -8.466144 -0.688151 381 0.716863 0.697214 0.000000
-8.941804 -8.466995 -0.684423 405 0.716863 0.697214 0.000000
-8.942159 -8.467326 -0.680660 417 0.716863 0.697214 0.000000
-8.941251 -8.466471 -0.676798 405 0.716863 0.697214 0.000000
-8.941721 -8.466912 -0.673043 409 0.716863 0.697214 0.000000
-8.942814 -8.467951 -0.669323 397 0.716863 0.697214 0.000000
-8.942114 -8.467283 -0.665480 371 0.716863 0.697214 0.000000
-8.941841 -8.467024 -0.661672 377 0.716863 0.697214 0.000000
-8.941288 -8.466505 -0.657837 381 0.716863 0.697214 0.000000
-8.941381 -8.466590 -0.654056 383 0.716863 0.697214 0.000000
-8.941471 -8.466675 -0.650265 387 0.716863 0.697214 0.000000
-8.941245 -8.466455 -0.646457 389 0.716863 0.697214 0.000000
-8.941275 -8.466488 -0.642667 393 0.716863 0.697214 0.000000
-8.942583 -8.467722 -0.638975 417 0.716863 0.697214 0.000000
-8.942302 -8.467456 -0.635157 389 0.716863 0.697214 0.000000
-8.941851 -8.467034 -0.631331 391 0.716863 0.697214 0.000000
-8.942360 -8.467508 -0.627576 403 0.716863 0.697214 0.000000
-8.942026 -8.467198 -0.623769 435 0.716863 0.697214 0.000000
-8.941784 -8.466965 -0.619962 429 0.716863 0.697214 0.000000
-8.941706 -8.466894 -0.616162 413 0.716863 0.697214 0.000000
-8.941741 -8.466920 -0.612372 417 0.716863 0.697214 0.000000
-8.941291 -8.466499 -0.608556 415 0.716863 0.697214 0.000000
-8.940312 -8.465570 -0.604695 421 0.716863 0.697214 0.000000
-8.939860 -8.465136 -0.600879 425 0.716863 0.697214 0.000000
-8.940308 -8.465558 -0.597115 409 0.716863 0.697214 0.000000
-8.941867 -8.467040 -0.593430 431 0.716863 0.697214 0.000000
-8.942795 -8.467916 -0.589702 449 0.716863 0.697214 0.000000
-8.942443 -8.467579 -0.585885 425 0.716863 0.697214 0.000000
-8.941512 -8.466703 -0.582033 453 0.716863 0.697214 0.000000
-8.940471 -8.465711 -0.578183 439 0.716863 0.697214 0.000000
-8.940973 -8.466192 -0.574418 431 0.716863 0.697214 0.000000
-8.941785 -8.466958 -0.570680 435 0.716863 0.697214 0.000000
-8.940683 -8.465914 -0.566831 415 0.716863 0.697214 0.000000
-8.940226 -8.465487 -0.563005 413 0.716863 0.697214 0.000000
-8.940347 -8.465597 -0.559224 429 0.716863 0.697214 0.000000
-8.939570 -8.464864 -0.555391 439 0.716863 0.697214 0.000000
-8.939530 -8.464826 -0.551601 433 0.716863 0.697214 0.000000
-8.940072 -8.465339 -0.547846 435 0.716863 0.697214 0.000000
-8.940512 -8.465755 -0.544082 419 0.716863 0.697214 0.000000
-8.940534 -8.465769 -0.540292 425 0.716863 0.697214 0.000000
-8.940748 -8.465970 -0.536519 411 0.716863 0.697214 0.000000
-8.941500 -8.466685 -0.532772 415 0.716863 0.697214 0.000000
-8.941568 -8.466751 -0.528992 421 0.716863 0.697214 0.000000
-8.942101 -8.467257 -0.525237 403 0.716863 0.697214 0.000000
-8.942106 -8.467258 -0.521446 437 0.716863 0.697214 0.000000
-8.941005 -8.466214 -0.517597 455 0.716863 0.697214 0.000000
-8.940638 -8.465862 -0.513790 417 0.716863 0.697214 0.000000
-8.940117 -8.465370 -0.509975 415 0.716863 0.697214 0.000000
-8.940597 -8.465832 -0.506210 435 0.716863 0.697214 0.000000
-8.941874 -8.467041 -0.502488 445 0.716863 0.697214 0.000000
-8.940656 -8.465885 -0.498639 441 0.716863 0.697214 0.000000
-8.939869 -8.465132 -0.494807 439 0.716863 0.697214 0.000000
-8.940132 -8.465386 -0.491034 447 0.716863 0.697214 0.000000
-8.940286 -8.465537 -0.487263 425 0.716863 0.697214 0.000000
-8.940873 -8.466088 -0.483497 447 0.716863 0.697214 0.000000
-8.941663 -8.466836 -0.479760 431 0.716863 0.697214 0.000000
-8.941661 -8.466829 -0.475970 425 0.716863 0.697214 0.000000
-8.940489 -8.465727 -0.472120 449 0.716863 0.697214 0.000000
-8.941177 -8.466376 -0.468374 453 0.716863 0.697214 0.000000
-8.941547 -8.466721 -0.464600 481 0.716863 0.697214 0.000000
-8.940591 -8.465813 -0.460769 453 0.716863 0.697214 0.000000
-8.940257 -8.465502 -0.456962 445 0.716863 0.697214 0.000000
-8.940248 -8.465489 -0.453182 451 0.716863 0.697214 0.000000
-8.939929 -8.465192 -0.449375 433 0.716863 0.697214 0.000000
-8.940284 -8.465523 -0.445612 447 0.716863 0.697214 0.000000
-8.941019 -8.466225 -0.441855 455 0.716863 0.697214 0.000000
-8.940327 -8.465563 -0.438041 425 0.716863 0.697214 0.000000
-8.940100 -8.465342 -0.434243 429 0.716863 0.697214 0.000000
-8.939603 -8.464882 -0.430438 447 0.716863 0.697214 0.000000
-8.939012 -8.464318 -0.426623 435 0.716863 0.697214 0.000000
-8.939847 -8.465103 -0.422875 413 0.716863 0.697214 0.000000
-8.940094 -8.465345 -0.419103 409 0.716863 0.697214 0.000000
-8.939968 -8.465222 -0.415314 421 0.716863 0.697214 0.000000
-8.940750 -8.465963 -0.411557 445 0.716863 0.697214 0.000000
-8.941112 -8.466301 -0.407793 435 0.716863 0.697214 0.000000
-8.940506 -8.465723 -0.403979 419 0.716863 0.697214 0.000000
-8.939210 -8.464504 -0.400141 411 0.716863 0.697214 0.000000
-8.939510 -8.464790 -0.396368 419 0.716863 0.697214 0.000000
-8.940176 -8.465421 -0.392612 419 0.716863 0.697214 0.000000
-8.940159 -8.465402 -0.388822 403 0.716863 0.697214 0.000000
-8.940777 -8.465979 -0.385066 405 0.716863 0.697214 0.000000
-8.940861 -8.466058 -0.381285 413 0.716863 0.697214 0.000000
-8.940619 -8.465838 -0.377487 427 0.716863 0.697214 0.000000
-8.940912 -8.466105 -0.373714 435 0.716863 0.697214 0.000000
-8.941895 -8.467041 -0.369975 439 0.716863 0.697214 0.000000
-8.941017 -8.466209 -0.366153 431 0.716863 0.697214 0.000000
-8.939721 -8.464976 -0.362315 447 0.716863 0.697214 0.000000
-8.940596 -8.465809 -0.358567 455 0.716863 0.697214 0.000000
-8.940881 -8.466082 -0.354794 441 0.716863 0.697214 0.000000
-8.940058 -8.465297 -0.350982 433 0.716863 0.697214 0.000000
-8.939815 -8.465063 -0.347184 427 0.716863 0.697214 0.000000
-8.939775 -8.465039 -0.343404 429 0.716863 0.697214 0.000000
-8.940168 -8.465402 -0.339630 435 0.716863 0.697214 0.000000
-8.941198 -8.466376 -0.335881 455 0.716863 0.697214 0.000000
-8.941165 -8.466344 -0.332101 445 0.716863 0.697214 0.000000
-8.940180 -8.465410 -0.328280 435 0.716863 0.697214 0.000000
-8.939821 -8.465067 -0.324483 417 0.716863 0.697214 0.000000
-8.940479 -8.465691 -0.320727 449 0.716863 0.697214 0.000000
-8.940330 -8.465549 -0.316938 443 0.716863 0.697214 0.000000
-8.940025 -8.465263 -0.313141 429 0.716863 0.697214 0.000000
-8.940777 -8.465979 -0.309384 443 0.716863 0.697214 0.000000
-8.944550 -8.464315 -0.688224 409 0.716863 0.697214 0.000000
-8.944215 -8.464005 -0.684407 415 0.716863 0.697214 0.000000
-8.944314 -8.464096 -0.680626 401 0.716863 0.697214 0.000000
-8.943986 -8.463778 -0.676809 391 0.716863 0.697214 0.000000
-8.944031 -8.463824 -0.673018 391 0.716863 0.697214 0.000000
-8.944502 -8.464266 -0.669264 375 0.716863 0.697214 0.000000
-8.945113 -8.464851 -0.665508 377 0.716863 0.697214 0.000000
-8.944414 -8.464183 -0.661665 377 0.716863 0.697214 0.000000
-8.942597 -8.462462 -0.657741 355 0.716863 0.697214 0.000000
-8.942589 -8.462451 -0.653952 345 0.716863 0.697214 0.000000
-8.943782 -8.463588 -0.650250 367 0.716863 0.697214 0.000000
-8.944298 -8.464067 -0.646495 363 0.716863 0.697214 0.000000
-8.944599 -8.464355 -0.642722 367 0.716863 0.697214 0.000000
-8.944955 -8.464700 -0.638959 377 0.716863 0.697214 0.000000
-8.943395 -8.463220 -0.635054 365 0.716863 0.697214 0.000000
-8.943059 -8.462894 -0.631237 365 0.716863 0.697214 0.000000
-8.944042 -8.463830 -0.627517 389 0.716863 0.697214 0.000000
-8.943599 -8.463403 -0.623691 403 0.716863 0.697214 0.000000
-8.943791 -8.463585 -0.619920 397 0.716863 0.697214 0.000000
-8.943974 -8.463760 -0.616138 395 0.716863 0.697214 0.000000
-8.944850 -8.464592 -0.612409 407 0.716863 0.697214 0.000000
-8.944406 -8.464165 -0.608584 383 0.716863 0.697214 0.000000
-8.943367 -8.463184 -0.604723 395 0.716863 0.697214 0.000000
-8.943612 -8.463411 -0.600951 435 0.716863 0.697214 0.000000
-8.943998 -8.463783 -0.597187 433 0.716863 0.697214 0.000000
-8.944765 -8.464511 -0.593450 455 0.716863 0.697214 0.000000
-8.944476 -8.464239 -0.589642 429 0.716863 0.697214 0.000000
-8.943915 -8.463699 -0.585818 407 0.716863 0.697214 0.000000
-8.944039 -8.463824 -0.582026 439 0.716863 0.697214 0.000000
-8.943952 -8.463733 -0.578237 431 0.716863 0.697214 0.000000
-8.943865 -8.463656 -0.574438 413 0.716863 0.697214 0.000000
-8.943676 -8.463468 -0.570639 409 0.716863 0.697214 0.000000
-8.943691 -8.463489 -0.566849 417 0.716863 0.697214 0.000000
-8.943388 -8.463204 -0.563042 417 0.716863 0.697214 0.000000
-8.943308 -8.463120 -0.559253 419 0.716863 0.697214 0.000000
-8.944478 -8.464237 -0.555532 463 0.716863 0.697214 0.000000
-8.945615 -8.465302 -0.551811 431 0.716863 0.697214 0.000000
-8.945520 -8.465219 -0.548012 419 0.716863 0.697214 0.000000
-8.944728 -8.464473 -0.544179 415 0.716863 0.697214 0.000000
-8.944323 -8.464076 -0.540363 437 0.716863 0.697214 0.000000
-8.944283 -8.464038 -0.536573 419 0.716863 0.697214 0.000000
-8.944242 -8.464000 -0.532783 437 0.716863 0.697214 0.000000
-8.944350 -8.464111 -0.529002 437 0.716863 0.697214 0.000000
-8.944317 -8.464080 -0.525212 425 0.716863 0.697214 0.000000
-8.944695 -8.464430 -0.521449 449 0.716863 0.697214 0.000000
-8.944809 -8.464534 -0.517668 457 0.716863 0.697214 0.000000
-8.943327 -8.463132 -0.513791 423 0.716863 0.697214 0.000000
-8.942542 -8.462393 -0.509959 397 0.716863 0.697214 0.000000
-8.943177 -8.462997 -0.506213 427 0.716863 0.697214 0.000000
-8.943663 -8.463451 -0.502448 431 0.716863 0.697214 0.000000
-8.944251 -8.464005 -0.498693 435 0.716863 0.697214 0.000000
-8.944567 -8.464304 -0.494919 437 0.716863 0.697214 0.000000
-8.943721 -8.463499 -0.491087 449 0.716863 0.697214 0.000000
-8.943665 -8.463448 -0.487298 461 0.716863 0.697214 0.000000
-8.944617 -8.464357 -0.483559 441 0.716863 0.697214 0.000000
-8.943553 -8.463345 -0.479719 433 0.716863 0.697214 0.000000
-8.942754 -8.462594 -0.475896 427 0.716863 0.697214 0.000000
-8.943503 -8.463295 -0.472139 429 0.716863 0.697214 0.000000
-8.943758 -8.463542 -0.468366 435 0.716863 0.697214 0.000000
-8.944283 -8.464028 -0.464611 455 0.716863 0.697214 0.000000
-8.944127 -8.463881 -0.460813 455 0.716863 0.697214 0.000000
-8.943853 -8.463621 -0.457015 479 0.716863 0.697214 0.000000
-8.944642 -8.464368 -0.453268 495 0.716863 0.697214 0.000000
-8.944145 -8.463908 -0.449452 467 0.716863 0.697214 0.000000
-8.942819 -8.462650 -0.445605 423 0.716863 0.697214 0.000000
-8.943227 -8.463040 -0.441841 461 0.716863 0.697214 0.000000
-8.943908 -8.463683 -0.438084 435 0.716863 0.697214 0.000000
-8.943627 -8.463418 -0.434287 423 0.716863 0.697214 0.000000
-8.943246 -8.463055 -0.430480 427 0.716863 0.697214 0.000000
-8.943074 -8.462893 -0.426692 439 0.716863 0.697214 0.000000
-8.943017 -8.462827 -0.422902 447 0.716863 0.697214 0.000000
-8.943156 -8.462966 -0.419121 419 0.716863 0.697214 0.000000
-8.943509 -8.463297 -0.415357 431 0.716863 0.697214 0.000000
-8.942804 -8.462635 -0.411534 431 0.716863 0.697214 0.000000
-8.942049 -8.461907 -0.407721 411 0.716863 0.697214 0.000000
-8.943088 -8.462902 -0.403981 429 0.716863 0.697214 0.000000
-8.943760 -8.463526 -0.400225 425 0.716863 0.697214 0.000000
-8.942945 -8.462760 -0.396402 413 0.716863 0.697214 0.000000
-8.942865 -8.462690 -0.392613 431 0.716863 0.697214 0.000000
-8.943165 -8.462962 -0.388840 445 0.716863 0.697214 0.000000
-8.942715 -8.462542 -0.385034 441 0.716863 0.697214 0.000000
-8.942481 -8.462315 -0.381246 415 0.716863 0.697214 0.000000
-8.943572 -8.463354 -0.377506 465 0.716863 0.697214 0.000000
-8.943602 -8.463373 -0.373726 441 0.716863 0.697214 0.000000
-8.942933 -8.462745 -0.369912 429 0.716863 0.697214 0.000000
-8.942535 -8.462369 -0.366106 429 0.716863 0.697214 0.000000
-8.942720 -8.462545 -0.362334 425 0.716863 0.697214 0.000000
-8.943277 -8.463071 -0.358568 431 0.716863 0.697214 0.000000
-8.943191 -8.462995 -0.354779 431 0.716863 0.697214 0.000000
-8.942530 -8.462358 -0.350975 429 0.716863 0.697214 0.000000
-8.942180 -8.462035 -0.347178 431 0.716863 0.697214 0.000000
-8.943101 -8.462906 -0.343430 441 0.716863 0.697214 0.000000
-8.943176 -8.462977 -0.339649 433 0.716863 0.697214 0.000000
-8.943035 -8.462842 -0.335860 443 0.716863 0.697214 0.000000
-8.943157 -8.462952 -0.332079 431 0.716863 0.697214 0.000000
-8.942063 -8.461914 -0.328259 407 0.716863 0.697214 0.000000
-8.941666 -8.461538 -0.324463 409 0.716863 0.697214 0.000000
-8.943107 -8.462909 -0.320729 437 0.716863 0.697214 0.000000
-8.943337 -8.463123 -0.316947 433 0.716863 0.697214 0.000000
-8.943026 -8.462831 -0.313160 441 0.716863 0.697214 0.000000
-8.942939 -8.462742 -0.309370 429 0.716863 0.697214 0.000000
-8.946765 -8.461123 -0.688200 385 0.716863 0.697214 0.000000
-8.946754 -8.461110 -0.684400 413 0.716863 0.697214 0.000000
-8.946699 -8.461060 -0.680610 379 0.716863 0.697214 0.000000
-8.946418 -8.460793 -0.676793 367 0.716863 0.697214 0.000000
-8.946463 -8.460839 -0.673002 373 0.716863 0.697214 0.000000
-8.947237 -8.461574 -0.669265 373 0.716863 0.697214 0.000000
-8.946274 -8.460658 -0.665404 379 0.716863 0.697214 0.000000
-8.945939 -8.460348 -0.661587 375 0.716863 0.697214 0.000000
-8.946667 -8.461031 -0.657850 373 0.716863 0.697214 0.000000
-8.945966 -8.460361 -0.654007 373 0.716863 0.697214 0.000000
-8.945577 -8.459991 -0.650190 367 0.716863 0.697214 0.000000
-8.947622 -8.461934 -0.646541 373 0.716863 0.697214 0.000000
-8.947823 -8.462123 -0.642769 385 0.716863 0.697214 0.000000
-8.947433 -8.461754 -0.638943 369 0.716863 0.697214 0.000000
-8.948106 -8.462390 -0.635196 387 0.716863 0.697214 0.000000
-8.947500 -8.461812 -0.631362 391 0.716863 0.697214 0.000000
-8.947265 -8.461585 -0.627554 397 0.716863 0.697214 0.000000
-8.947558 -8.461864 -0.623791 399 0.716863 0.697214 0.000000
-8.946906 -8.461249 -0.619947 395 0.716863 0.697214 0.000000
-8.945555 -8.459970 -0.616070 391 0.716863 0.697214 0.000000
-8.945793 -8.460192 -0.612297 431 0.716863 0.697214 0.000000
-8.946296 -8.460673 -0.608543 405 0.716863 0.697214 0.000000
-8.945629 -8.460044 -0.604709 401 0.716863 0.697214 0.000000
-8.945765 -8.460168 -0.600927 409 0.716863 0.697214 0.000000
-8.947276 -8.461596 -0.597233 417 0.716863 0.697214 0.000000
-8.947771 -8.462072 -0.593478 425 0.716863 0.697214 0.000000
-8.946421 -8.460793 -0.589601 447 0.716863 0.697214 0.000000
-8.945597 -8.460008 -0.585749 391 0.716863 0.697214 0.000000
-8.947309 -8.461632 -0.582072 417 0.716863 0.697214 0.000000
-8.946856 -8.461196 -0.578257 405 0.716863 0.697214 0.000000
-8.946134 -8.460508 -0.574423 413 0.716863 0.697214 0.000000
-8.946048 -8.460432 -0.570624 417 0.716863 0.697214 0.000000
-8.945325 -8.459744 -0.566791 423 0.716863 0.697214 0.000000
-8.944920 -8.459361 -0.562974 389 0.716863 0.697214 0.000000
-8.946260 -8.460635 -0.559272 409 0.716863 0.697214 0.000000
-8.947654 -8.461953 -0.555569 417 0.716863 0.697214 0.000000
-8.947513 -8.461818 -0.551770 417 0.716863 0.697214 0.000000
-8.946464 -8.460818 -0.547920 413 0.716863 0.697214 0.000000
-8.946524 -8.460877 -0.544129 407 0.716863 0.697214 0.000000
-8.947236 -8.461546 -0.540382 425 0.716863 0.697214 0.000000
-8.946452 -8.460807 -0.536549 433 0.716863 0.697214 0.000000
-8.945659 -8.460060 -0.532717 439 0.716863 0.697214 0.000000
-8.946301 -8.460672 -0.528961 421 0.716863 0.697214 0.000000
-8.946687 -8.461029 -0.525197 407 0.716863 0.697214 0.000000
-8.946321 -8.460679 -0.521390 403 0.716863 0.697214 0.000000
-8.946962 -8.461290 -0.517634 445 0.716863 0.697214 0.000000
-8.947023 -8.461349 -0.513854 439 0.716863 0.697214 0.000000
-8.946814 -8.461156 -0.510055 413 0.716863 0.697214 0.000000
-8.947517 -8.461818 -0.506309 431 0.716863 0.697214 0.000000
-8.946622 -8.460960 -0.502467 443 0.716863 0.697214 0.000000
-8.946033 -8.460410 -0.498652 441 0.716863 0.697214 0.000000
-8.946782 -8.461110 -0.494905 443 0.716863 0.697214 0.000000
-8.946355 -8.460710 -0.491089 447 0.716863 0.697214 0.000000
-8.945724 -8.460113 -0.487275 463 0.716863 0.697214 0.000000
-8.945824 -8.460204 -0.483484 451 0.716863 0.697214 0.000000
-8.945505 -8.459907 -0.479687 421 0.716863 0.697214 0.000000
-8.945666 -8.460063 -0.475905 413 0.716863 0.697214 0.000000
-8.945448 -8.459849 -0.472107 431 0.716863 0.697214 0.000000
-8.945438 -8.459850 -0.468327 419 0.716863 0.697214 0.000000
-8.947081 -8.461402 -0.464622 431 0.716863 0.697214 0.000000
-8.946117 -8.460487 -0.460781 435 0.716863 0.697214 0.000000
-8.945425 -8.459826 -0.456967 441 0.716863 0.697214 0.000000
-8.946322 -8.460676 -0.453219 465 0.716863 0.697214 0.000000
-8.946740 -8.461073 -0.449455 475 0.716863 0.697214 0.000000
-8.946405 -8.460762 -0.445658 451 0.716863 0.697214 0.000000
-8.946397 -8.460750 -0.441868 445 0.716863 0.697214 0.000000
-8.945806 -8.460186 -0.438053 431 0.716863 0.697214 0.000000
-8.945051 -8.459471 -0.434230 435 0.716863 0.697214 0.000000
-8.946151 -8.460518 -0.430500 435 0.716863 0.697214 0.000000
-8.947149 -8.461452 -0.426760 459 0.716863 0.697214 0.000000
-8.946342 -8.460694 -0.422938 437 0.716863 0.697214 0.000000
-8.945634 -8.460018 -0.419114 433 0.716863 0.697214 0.000000
-8.944982 -8.459403 -0.415300 413 0.716863 0.697214 0.000000
-8.944640 -8.459086 -0.411503 403 0.716863 0.697214 0.000000
-8.944793 -8.459223 -0.407722 429 0.716863 0.697214 0.000000
-8.944884 -8.459307 -0.403941 437 0.716863 0.697214 0.000000
-8.945658 -8.460041 -0.400194 439 0.716863 0.697214 0.000000
-8.946114 -8.460470 -0.396429 449 0.716863 0.697214 0.000000
-8.945662 -8.460050 -0.392624 441 0.716863 0.697214 0.000000
-8.946381 -8.460725 -0.388867 409 0.716863 0.697214 0.000000
-8.947155 -8.461459 -0.385119 431 0.716863 0.697214 0.000000
-8.946603 -8.460940 -0.381305 425 0.716863 0.697214 0.000000
-8.946315 -8.460669 -0.377507 413 0.716863 0.697214 0.000000
-8.946771 -8.461097 -0.373743 445 0.716863 0.697214 0.000000
-8.946421 -8.460760 -0.369946 421 0.716863 0.697214 0.000000
-8.945170 -8.459579 -0.366108 417 0.716863 0.697214 0.000000
-8.944943 -8.459358 -0.362320 435 0.716863 0.697214 0.000000
-8.945020 -8.459431 -0.358539 439 0.716863 0.697214 0.000000
-8.944562 -8.459004 -0.354733 433 0.716863 0.697214 0.000000
-8.944901 -8.459322 -0.350970 417 0.716863 0.697214 0.000000
-8.945776 -8.460154 -0.347211 431 0.716863 0.697214 0.000000
-8.946324 -8.460673 -0.343446 463 0.716863 0.697214 0.000000
-8.945331 -8.459733 -0.339635 427 0.716863 0.697214 0.000000
-8.944670 -8.459097 -0.335822 397 0.716863 0.697214 0.000000
-8.945157 -8.459566 -0.332057 397 0.716863 0.697214 0.000000
-8.945449 -8.459831 -0.328284 407 0.716863 0.697214 0.000000
-8.945835 -8.460202 -0.324510 431 0.716863 0.697214 0.000000
-8.945694 -8.460067 -0.320722 447 0.716863 0.697214 0.000000
-8.944647 -8.459082 -0.316901 431 0.716863 0.697214 0.000000
-8.944449 -8.458886 -0.313113 435 0.716863 0.697214 0.000000
-8.944720 -8.459147 -0.309340 429 0.716863 0.697214 0.000000
-8.950741 -8.460004 -0.688317 413 0.716863 0.697214 0.000000
-8.949885 -8.459192 -0.684455 395 0.716863 0.697214 0.000000
-8.948970 -8.458330 -0.680594 391 0.716863 0.697214 0.000000
-8.949279 -8.458623 -0.676831 371 0.716863 0.697214 0.000000
-8.948943 -8.458312 -0.673014 361 0.716863 0.697214 0.000000
-8.949197 -8.458547 -0.669231 361 0.716863 0.697214 0.000000
-8.949931 -8.459234 -0.665494 383 0.716863 0.697214 0.000000
-8.949652 -8.458969 -0.661687 381 0.716863 0.697214 0.000000
-8.949100 -8.458450 -0.657852 361 0.716863 0.697214 0.000000
-8.950362 -8.459645 -0.654150 377 0.716863 0.697214 0.000000
-8.950987 -8.460229 -0.650404 389 0.716863 0.697214 0.000000
-8.950063 -8.459361 -0.646543 367 0.716863 0.697214 0.000000
-8.949512 -8.458841 -0.642718 365 0.716863 0.697214 0.000000
-8.948804 -8.458167 -0.638874 369 0.716863 0.697214 0.000000
-8.948942 -8.458304 -0.635093 383 0.716863 0.697214 0.000000
-8.948662 -8.458039 -0.631275 381 0.716863 0.697214 0.000000
-8.948962 -8.458311 -0.627513 407 0.716863 0.697214 0.000000
-8.948248 -8.457644 -0.623669 401 0.716863 0.697214 0.000000
-8.947905 -8.457313 -0.619852 399 0.716863 0.697214 0.000000
-8.948252 -8.457638 -0.616089 401 0.716863 0.697214 0.000000
-8.947436 -8.456872 -0.612247 419 0.716863 0.697214 0.000000
-8.948675 -8.458049 -0.608535 413 0.716863 0.697214 0.000000
-8.949713 -8.459029 -0.604815 421 0.716863 0.697214 0.000000
-8.948619 -8.457991 -0.600955 419 0.716863 0.697214 0.000000
-8.948011 -8.457413 -0.597121 429 0.716863 0.697214 0.000000
-8.948777 -8.458141 -0.593383 415 0.716863 0.697214 0.000000
-8.948752 -8.458116 -0.589594 371 0.716863 0.697214 0.000000
-8.948774 -8.458129 -0.585803 411 0.716863 0.697214 0.000000
-8.949059 -8.458402 -0.582031 411 0.716863 0.697214 0.000000
-8.949615 -8.458929 -0.578275 421 0.716863 0.697214 0.000000
-8.949522 -8.458845 -0.574476 421 0.716863 0.697214 0.000000
-8.947575 -8.457003 -0.570574 427 0.716863 0.697214 0.000000
-8.946689 -8.456165 -0.566722 435 0.716863 0.697214 0.000000
-8.948462 -8.457841 -0.563046 407 0.716863 0.697214 0.000000
-8.948855 -8.458204 -0.559282 423 0.716863 0.697214 0.000000
-8.948497 -8.457874 -0.555475 423 0.716863 0.697214 0.000000
-8.948301 -8.457680 -0.551667 387 0.716863 0.697214 0.000000
-8.949223 -8.458549 -0.547938 417 0.716863 0.697214 0.000000
-8.949864 -8.459161 -0.544182 413 0.716863 0.697214 0.000000
-8.948810 -8.458169 -0.540332 421 0.716863 0.697214 0.000000
-8.948776 -8.458123 -0.536542 421 0.716863 0.697214 0.000000
-8.948472 -8.457838 -0.532735 429 0.716863 0.697214 0.000000
-8.948952 -8.458301 -0.528980 443 0.716863 0.697214 0.000000
-8.949538 -8.458852 -0.525225 441 0.716863 0.697214 0.000000
-8.948816 -8.458164 -0.521392 417 0.716863 0.697214 0.000000
-8.948768 -8.458119 -0.517602 421 0.716863 0.697214 0.000000
-8.948774 -8.458120 -0.513822 399 0.716863 0.697214 0.000000
-8.947921 -8.457323 -0.509980 411 0.716863 0.697214 0.000000
-8.948353 -8.457732 -0.506216 437 0.716863 0.697214 0.000000
-8.948303 -8.457673 -0.502426 433 0.716863 0.697214 0.000000
-8.948521 -8.457889 -0.498654 427 0.716863 0.697214 0.000000
-8.949162 -8.458486 -0.494898 455 0.716863 0.697214 0.000000
-8.949005 -8.458337 -0.491099 433 0.716863 0.697214 0.000000
-8.948104 -8.457488 -0.487267 425 0.716863 0.697214 0.000000
-8.947148 -8.456579 -0.483436 413 0.716863 0.697214 0.000000
-8.948791 -8.458131 -0.479731 411 0.716863 0.697214 0.000000
-8.949897 -8.459183 -0.476000 427 0.716863 0.697214 0.000000
-8.948469 -8.457828 -0.472144 421 0.716863 0.697214 0.000000
-8.948090 -8.457479 -0.468337 423 0.716863 0.697214 0.000000
-8.948141 -8.457518 -0.464557 435 0.716863 0.697214 0.000000
-8.948829 -8.458166 -0.460800 445 0.716863 0.697214 0.000000
-8.948975 -8.458310 -0.457019 469 0.716863 0.697214 0.000000
-8.947803 -8.457194 -0.453180 435 0.716863 0.697214 0.000000
-8.947104 -8.456539 -0.449356 425 0.716863 0.697214 0.000000
-8.946932 -8.456377 -0.445567 431 0.716863 0.697214 0.000000
