186
-28.601885 -27.114040 -0.648336 1157 0.715661 0.698447 0.000000
-28.601809 -27.113977 -0.636227 1177 0.715661 0.698447 0.000000
-28.603022 -27.115129 -0.624145 1181 0.715661 0.698447 0.000000
-28.603786 -27.115850 -0.612057 1177 0.715661 0.698447 0.000000
-28.602976 -27.115088 -0.599935 1179 0.715661 0.698447 0.000000
-28.603045 -27.115154 -0.587834 1187 0.715661 0.698447 0.000000
-28.602919 -27.115036 -0.575725 1177 0.715661 0.698447 0.000000
-28.603298 -27.115396 -0.563621 1199 0.715661 0.698447 0.000000
-28.603266 -27.115366 -0.551521 1187 0.715661 0.698447 0.000000
-28.603092 -27.115198 -0.539402 1187 0.715661 0.698447 0.000000
-28.604683 -27.116709 -0.527327 1175 0.715661 0.698447 0.000000
-28.603533 -27.115616 -0.515208 1161 0.715661 0.698447 0.000000
-28.602011 -27.114174 -0.503072 1147 0.715661 0.698447 0.000000
-28.600584 -27.112818 -0.490945 1155 0.715661 0.698447 0.000000
-28.600632 -27.112869 -0.478834 1161 0.715661 0.698447 0.000000
-28.602013 -27.114182 -0.466751 1175 0.715661 0.698447 0.000000
-28.602272 -27.114429 -0.454658 1185 0.715661 0.698447 0.000000
-28.602381 -27.114527 -0.442557 1167 0.715661 0.698447 0.000000
-28.602856 -27.114977 -0.430452 1167 0.715661 0.698447 0.000000
-28.604868 -27.116890 -0.418383 1177 0.715661 0.698447 0.000000
-28.605055 -27.117069 -0.406281 1191 0.715661 0.698447 0.000000
-28.603289 -27.115387 -0.394147 1179 0.715661 0.698447 0.000000
-28.602367 -27.114521 -0.382025 1177 0.715661 0.698447 0.000000
-28.602657 -27.114792 -0.369932 1173 0.715661 0.698447 0.000000
-28.601950 -27.114124 -0.357819 1181 0.715661 0.698447 0.000000
-28.602453 -27.114595 -0.345714 1169 0.715661 0.698447 0.000000
-28.603645 -27.115730 -0.333632 1179 0.715661 0.698447 0.000000
-28.604143 -27.116209 -0.321527 1153 0.715661 0.698447 0.000000
-28.604378 -27.116426 -0.309425 1167 0.715661 0.698447 0.000000
-28.602169 -27.114332 -0.297295 1159 0.715661 0.698447 0.000000
-28.601162 -27.113384 -0.285184 1135 0.715661 0.698447 0.000000
-28.612566 -27.106600 -0.648384 1183 0.715661 0.698447 0.000000
-28.613600 -27.107580 -0.636304 1183 0.715661 0.698447 0.000000
-28.613585 -27.107565 -0.624194 1187 0.715661 0.698447 0.000000
-28.611605 -27.105698 -0.612042 1173 0.715661 0.698447 0.000000
-28.611307 -27.105415 -0.599934 1193 0.715661 0.698447 0.000000
-28.610817 -27.104950 -0.587819 1175 0.715661 0.698447 0.000000
-28.609879 -27.104057 -0.575687 1167 0.715661 0.698447 0.000000
-28.610598 -27.104744 -0.563600 1181 0.715661 0.698447 0.000000
-28.610928 -27.105061 -0.551497 1159 0.715661 0.698447 0.000000
-28.611805 -27.105886 -0.539408 1179 0.715661 0.698447 0.000000
-28.612242 -27.106306 -0.527314 1167 0.715661 0.698447 0.000000
-28.611982 -27.106054 -0.515206 1173 0.715661 0.698447 0.000000
-28.611580 -27.105675 -0.503090 1171 0.715661 0.698447 0.000000
-28.611210 -27.105320 -0.490983 1165 0.715661 0.698447 0.000000
-28.611803 -27.105888 -0.478887 1163 0.715661 0.698447 0.000000
-28.611376 -27.105490 -0.466771 1173 0.715661 0.698447 0.000000
-28.611425 -27.105526 -0.454670 1167 0.715661 0.698447 0.000000
-28.612209 -27.106281 -0.442572 1167 0.715661 0.698447 0.000000
-28.612045 -27.106117 -0.430464 1165 0.715661 0.698447 0.000000
-28.612301 -27.106359 -0.418361 1155 0.715661 0.698447 0.000000
-28.612770 -27.106806 -0.406266 1181 0.715661 0.698447 0.000000
-28.612694 -27.106741 -0.394157 1183 0.715661 0.698447 0.000000
-28.611303 -27.105417 -0.382039 1173 0.715661 0.698447 0.000000
-28.609730 -27.103931 -0.369914 1181 0.715661 0.698447 0.000000
-28.610826 -27.104975 -0.357823 1185 0.715661 0.698447 0.000000
-28.611378 -27.105495 -0.345728 1155 0.715661 0.698447 0.000000
-28.611406 -27.105518 -0.333617 1159 0.715661 0.698447 0.000000
-28.610895 -27.105038 -0.321512 1157 0.715661 0.698447 0.000000
-28.610392 -27.104561 -0.309406 1155 0.715661 0.698447 0.000000
-28.611267 -27.105387 -0.297308 1149 0.715661 0.698447 0.000000
-28.611210 -27.105339 -0.285208 1153 0.715661 0.698447 0.000000
-28.620846 -27.096563 -0.648375 1189 0.715661 0.698447 0.000000
-28.621256 -27.096949 -0.636281 1175 0.715661 0.698447 0.000000
-28.620293 -27.096035 -0.624150 1169 0.715661 0.698447 0.000000
-28.620378 -27.096115 -0.612049 1169 0.715661 0.698447 0.000000
-28.620609 -27.096338 -0.599946 1143 0.715661 0.698447 0.000000
-28.620909 -27.096632 -0.587843 1167 0.715661 0.698447 0.000000
-28.621414 -27.097105 -0.575748 1145 0.715661 0.698447 0.000000
-28.620159 -27.095917 -0.563620 1155 0.715661 0.698447 0.000000
-28.619333 -27.095140 -0.551497 1165 0.715661 0.698447 0.000000
-28.620255 -27.096003 -0.539408 1179 0.715661 0.698447 0.000000
-28.620750 -27.096481 -0.527313 1167 0.715661 0.698447 0.000000
-28.620602 -27.096331 -0.515205 1173 0.715661 0.698447 0.000000
-28.619741 -27.095530 -0.503082 1183 0.715661 0.698447 0.000000
-28.620768 -27.096502 -0.490992 1167 0.715661 0.698447 0.000000
-28.621824 -27.097500 -0.478912 1167 0.715661 0.698447 0.000000
-28.622366 -27.098017 -0.466807 1173 0.715661 0.698447 0.000000
-28.622099 -27.097757 -0.454699 1177 0.715661 0.698447 0.000000
-28.620121 -27.095892 -0.442567 1171 0.715661 0.698447 0.000000
-28.620964 -27.096691 -0.430469 1177 0.715661 0.698447 0.000000
-28.620270 -27.096022 -0.418355 1171 0.715661 0.698447 0.000000
-28.618931 -27.094765 -0.406228 1169 0.715661 0.698447 0.000000
-28.619608 -27.095404 -0.394141 1153 0.715661 0.698447 0.000000
-28.620119 -27.095882 -0.382036 1159 0.715661 0.698447 0.000000
-28.622391 -27.098034 -0.369964 1173 0.715661 0.698447 0.000000
-28.622368 -27.098011 -0.357864 1189 0.715661 0.698447 0.000000
-28.621382 -27.097080 -0.345743 1171 0.715661 0.698447 0.000000
-28.620712 -27.096445 -0.333629 1165 0.715661 0.698447 0.000000
-28.620371 -27.096128 -0.321522 1141 0.715661 0.698447 0.000000
-28.621761 -27.097448 -0.309439 1141 0.715661 0.698447 0.000000
-28.620453 -27.096203 -0.297311 1151 0.715661 0.698447 0.000000
-28.619457 -27.095263 -0.285200 1153 0.715661 0.698447 0.000000
-28.631004 -27.089241 -0.648425 1161 0.715661 0.698447 0.000000
-28.630251 -27.088535 -0.636292 1161 0.715661 0.698447 0.000000
-28.629438 -27.087759 -0.624169 1187 0.715661 0.698447 0.000000
-28.628555 -27.086937 -0.612047 1175 0.715661 0.698447 0.000000
-28.629023 -27.087378 -0.599952 1167 0.715661 0.698447 0.000000
-28.630747 -27.089008 -0.587876 1165 0.715661 0.698447 0.000000
-28.630508 -27.088776 -0.575768 1167 0.715661 0.698447 0.000000
-28.629463 -27.087795 -0.563637 1141 0.715661 0.698447 0.000000
-28.631016 -27.089258 -0.551562 1171 0.715661 0.698447 0.000000
-28.631676 -27.089884 -0.539466 1167 0.715661 0.698447 0.000000
-28.630095 -27.088392 -0.527331 1175 0.715661 0.698447 0.000000
-28.629091 -27.087446 -0.515210 1167 0.715661 0.698447 0.000000
-28.628952 -27.087318 -0.503101 1167 0.715661 0.698447 0.000000
-28.628689 -27.087065 -0.490993 1157 0.715661 0.698447 0.000000
-28.629118 -27.087473 -0.478889 1189 0.715661 0.698447 0.000000
-28.629866 -27.088184 -0.466801 1169 0.715661 0.698447 0.000000
-28.630178 -27.088474 -0.454698 1191 0.715661 0.698447 0.000000
-28.630291 -27.088577 -0.442597 1163 0.715661 0.698447 0.000000
-28.629366 -27.087708 -0.430475 1151 0.715661 0.698447 0.000000
-28.628998 -27.087355 -0.418368 1155 0.715661 0.698447 0.000000
-28.627012 -27.085482 -0.406236 1159 0.715661 0.698447 0.000000
-28.627476 -27.085922 -0.394132 1157 0.715661 0.698447 0.000000
-28.630014 -27.088316 -0.382068 1179 0.715661 0.698447 0.000000
-28.628651 -27.087040 -0.369940 1177 0.715661 0.698447 0.000000
-28.628105 -27.086517 -0.357835 1171 0.715661 0.698447 0.000000
-28.630352 -27.088650 -0.345754 1163 0.715661 0.698447 0.000000
-28.629967 -27.088284 -0.333647 1159 0.715661 0.698447 0.000000
-28.629391 -27.087736 -0.321532 1151 0.715661 0.698447 0.000000
-28.629099 -27.087460 -0.309425 1163 0.715661 0.698447 0.000000
-28.628792 -27.087168 -0.297317 1141 0.715661 0.698447 0.000000
-28.629274 -27.087635 -0.285222 1151 0.715661 0.698447 0.000000
-28.638157 -27.079769 -0.648399 1169 0.715661 0.698447 0.000000
-28.638363 -27.079962 -0.636297 1171 0.715661 0.698447 0.000000
-28.636902 -27.078581 -0.624160 1169 0.715661 0.698447 0.000000
-28.637518 -27.079168 -0.612064 1173 0.715661 0.698447 0.000000
-28.637440 -27.079090 -0.599964 1155 0.715661 0.698447 0.000000
-28.636454 -27.078157 -0.587833 1141 0.715661 0.698447 0.000000
-28.639030 -27.080599 -0.575779 1151 0.715661 0.698447 0.000000
-28.639380 -27.080931 -0.563685 1173 0.715661 0.698447 0.000000
-28.638544 -27.080147 -0.551553 1173 0.715661 0.698447 0.000000
-28.637875 -27.079512 -0.539439 1173 0.715661 0.698447 0.000000
-28.637299 -27.078964 -0.527324 1181 0.715661 0.698447 0.000000
-28.639278 -27.080839 -0.515255 1169 0.715661 0.698447 0.000000
-28.638338 -27.079948 -0.503124 1163 0.715661 0.698447 0.000000
-28.635530 -27.077291 -0.490970 1165 0.715661 0.698447 0.000000
-28.634680 -27.076494 -0.478857 1159 0.715661 0.698447 0.000000
-28.634453 -27.076284 -0.466749 1163 0.715661 0.698447 0.000000
-28.634949 -27.076748 -0.454654 1169 0.715661 0.698447 0.000000
-28.635786 -27.077541 -0.442556 1179 0.715661 0.698447 0.000000
-28.635618 -27.077377 -0.430458 1181 0.715661 0.698447 0.000000
-28.635872 -27.077620 -0.418355 1169 0.715661 0.698447 0.000000
-28.635965 -27.077709 -0.406254 1161 0.715661 0.698447 0.000000
-28.635258 -27.077040 -0.394140 1147 0.715661 0.698447 0.000000
-28.637581 -27.079235 -0.382068 1179 0.715661 0.698447 0.000000
-28.638529 -27.080132 -0.369969 1153 0.715661 0.698447 0.000000
-28.636950 -27.078640 -0.357843 1137 0.715661 0.698447 0.000000
-28.637560 -27.079224 -0.345747 1149 0.715661 0.698447 0.000000
-28.638441 -27.080055 -0.333659 1151 0.715661 0.698447 0.000000
-28.638678 -27.080282 -0.321556 1143 0.715661 0.698447 0.000000
-28.638062 -27.079691 -0.309442 1155 0.715661 0.698447 0.000000
-28.636528 -27.078249 -0.297326 1155 0.715661 0.698447 0.000000
-28.636177 -27.077911 -0.285209 1147 0.715661 0.698447 0.000000
-28.645412 -27.069740 -0.648385 1135 0.715661 0.698447 0.000000
-28.646036 -27.070322 -0.636289 1135 0.715661 0.698447 0.000000
-28.645958 -27.070257 -0.624180 1137 0.715661 0.698447 0.000000
-28.647486 -27.071690 -0.612105 1147 0.715661 0.698447 0.000000
-28.649014 -27.073133 -0.600031 1169 0.715661 0.698447 0.000000
-28.647446 -27.071653 -0.587895 1175 0.715661 0.698447 0.000000
-28.646250 -27.070526 -0.575766 1147 0.715661 0.698447 0.000000
-28.646437 -27.070702 -0.563654 1145 0.715661 0.698447 0.000000
-28.646564 -27.070827 -0.551552 1159 0.715661 0.698447 0.000000
-28.646626 -27.070889 -0.539451 1169 0.715661 0.698447 0.000000
-28.645800 -27.070101 -0.527329 1165 0.715661 0.698447 0.000000
-28.645702 -27.070005 -0.515220 1137 0.715661 0.698447 0.000000
-28.644270 -27.068663 -0.503093 1143 0.715661 0.698447 0.000000
-28.644215 -27.068613 -0.490983 1153 0.715661 0.698447 0.000000
-28.645720 -27.070026 -0.478909 1141 0.715661 0.698447 0.000000
-28.646467 -27.070736 -0.466811 1145 0.715661 0.698447 0.000000
-28.645657 -27.069971 -0.454689 1141 0.715661 0.698447 0.000000
-28.646675 -27.070938 -0.442609 1137 0.715661 0.698447 0.000000
-28.646872 -27.071123 -0.430507 1153 0.715661 0.698447 0.000000
-28.646336 -27.070606 -0.418391 1137 0.715661 0.698447 0.000000
-28.647539 -27.071753 -0.406300 1133 0.715661 0.698447 0.000000
-28.647581 -27.071796 -0.394199 1139 0.715661 0.698447 0.000000
-28.646502 -27.070774 -0.382079 1157 0.715661 0.698447 0.000000
-28.645903 -27.070211 -0.369964 1163 0.715661 0.698447 0.000000
-28.646667 -27.070930 -0.357867 1163 0.715661 0.698447 0.000000
-28.645798 -27.070108 -0.345755 1153 0.715661 0.698447 0.000000
-28.645233 -27.069571 -0.333640 1141 0.715661 0.698447 0.000000
-28.644773 -27.069145 -0.321534 1135 0.715661 0.698447 0.000000
-28.643623 -27.068052 -0.309414 1143 0.715661 0.698447 0.000000
-28.643379 -27.067827 -0.297306 1157 0.715661 0.698447 0.000000
-28.644444 -27.068830 -0.285216 1149 0.715661 0.698447 0.000000
