520
-17.600758 -16.847658 -0.659504 1411 0.731248 0.682111 0.000000
-17.601490 -16.848356 -0.652037 1403 0.731248 0.682111 0.000000
-17.601046 -16.847935 -0.644541 1413 0.731248 0.682111 0.000000
-17.601452 -16.848320 -0.637067 1401 0.731248 0.682111 0.000000
-17.601704 -16.848564 -0.629585 1413 0.731248 0.682111 0.000000
-17.601788 -16.848635 -0.622104 1397 0.731248 0.682111 0.000000
-17.601919 -16.848774 -0.614622 1401 0.731248 0.682111 0.000000
-17.601425 -16.848299 -0.607117 1401 0.731248 0.682111 0.000000
-17.601866 -16.848722 -0.599642 1415 0.731248 0.682111 0.000000
-17.602005 -16.848852 -0.592161 1401 0.731248 0.682111 0.000000
-17.601925 -16.848778 -0.584672 1405 0.731248 0.682111 0.000000
-17.602110 -16.848959 -0.577190 1411 0.731248 0.682111 0.000000
-17.601334 -16.848219 -0.569677 1415 0.731248 0.682111 0.000000
-17.601456 -16.848333 -0.562195 1399 0.731248 0.682111 0.000000
-17.602324 -16.849167 -0.554737 1397 0.731248 0.682111 0.000000
-17.603027 -16.849840 -0.547270 1397 0.731248 0.682111 0.000000
-17.603292 -16.850098 -0.539787 1413 0.731248 0.682111 0.000000
-17.602419 -16.849255 -0.532276 1397 0.731248 0.682111 0.000000
-17.603008 -16.849825 -0.524810 1395 0.731248 0.682111 0.000000
-17.602816 -16.849634 -0.517311 1403 0.731248 0.682111 0.000000
-17.602238 -16.849094 -0.509817 1395 0.731248 0.682111 0.000000
-17.602558 -16.849394 -0.502334 1401 0.731248 0.682111 0.000000
-17.602303 -16.849154 -0.494846 1407 0.731248 0.682111 0.000000
-17.602781 -16.849609 -0.487371 1401 0.731248 0.682111 0.000000
-17.603310 -16.850115 -0.479896 1407 0.731248 0.682111 0.000000
-17.603521 -16.850313 -0.472414 1411 0.731248 0.682111 0.000000
-17.603249 -16.850061 -0.464926 1405 0.731248 0.682111 0.000000
-17.602192 -16.849043 -0.457406 1405 0.731248 0.682111 0.000000
-17.601713 -16.848597 -0.449910 1397 0.731248 0.682111 0.000000
-17.602551 -16.849394 -0.442452 1405 0.731248 0.682111 0.000000
-17.603441 -16.850245 -0.434984 1403 0.731248 0.682111 0.000000
-17.603954 -16.850740 -0.427508 1409 0.731248 0.682111 0.000000
-17.603945 -16.850735 -0.420028 1407 0.731248 0.682111 0.000000
-17.603022 -16.849852 -0.412517 1401 0.731248 0.682111 0.000000
-17.602854 -16.849695 -0.405028 1405 0.731248 0.682111 0.000000
-17.603895 -16.850695 -0.397568 1411 0.731248 0.682111 0.000000
-17.603298 -16.850111 -0.390064 1407 0.731248 0.682111 0.000000
-17.603384 -16.850197 -0.382583 1403 0.731248 0.682111 0.000000
-17.603569 -16.850378 -0.375101 1395 0.731248 0.682111 0.000000
-17.603489 -16.850302 -0.367621 1403 0.731248 0.682111 0.000000
-17.604111 -16.850901 -0.360145 1397 0.731248 0.682111 0.000000
-17.603491 -16.850311 -0.352651 1403 0.731248 0.682111 0.000000
-17.603260 -16.850090 -0.345153 1405 0.731248 0.682111 0.000000
-17.603643 -16.850456 -0.337679 1417 0.731248 0.682111 0.000000
-17.603514 -16.850328 -0.330190 1421 0.731248 0.682111 0.000000
-17.604010 -16.850811 -0.322715 1405 0.731248 0.682111 0.000000
-17.603706 -16.850517 -0.315228 1401 0.731248 0.682111 0.000000
-17.603720 -16.850531 -0.307738 1411 0.731248 0.682111 0.000000
-17.604738 -16.851513 -0.300278 1413 0.731248 0.682111 0.000000
-17.604855 -16.851622 -0.292797 1407 0.731248 0.682111 0.000000
-17.604599 -16.851381 -0.285299 1415 0.731248 0.682111 0.000000
-17.604246 -16.851036 -0.277812 1411 0.731248 0.682111 0.000000
-17.606314 -16.842478 -0.659514 1375 0.731248 0.682111 0.000000
-17.606411 -16.842562 -0.652033 1391 0.731248 0.682111 0.000000
-17.606600 -16.842754 -0.644551 1383 0.731248 0.682111 0.000000
-17.606485 -16.842642 -0.637062 1373 0.731248 0.682111 0.000000
-17.607210 -16.843332 -0.629595 1377 0.731248 0.682111 0.000000
-17.607615 -16.843725 -0.622121 1379 0.731248 0.682111 0.000000
-17.607483 -16.843599 -0.614632 1377 0.731248 0.682111 0.000000
-17.606934 -16.843069 -0.607127 1383 0.731248 0.682111 0.000000
-17.606693 -16.842838 -0.599629 1385 0.731248 0.682111 0.000000
-17.606501 -16.842663 -0.592141 1377 0.731248 0.682111 0.000000
-17.606750 -16.842894 -0.584658 1375 0.731248 0.682111 0.000000
-17.608141 -16.844227 -0.577215 1385 0.731248 0.682111 0.000000
-17.606998 -16.843140 -0.569696 1381 0.731248 0.682111 0.000000
-17.606592 -16.842751 -0.562189 1375 0.731248 0.682111 0.000000
-17.607729 -16.843842 -0.554738 1373 0.731248 0.682111 0.000000
-17.607372 -16.843504 -0.547241 1371 0.731248 0.682111 0.000000
-17.606964 -16.843113 -0.539745 1377 0.731248 0.682111 0.000000
-17.607239 -16.843380 -0.532262 1377 0.731248 0.682111 0.000000
-17.607195 -16.843334 -0.524783 1371 0.731248 0.682111 0.000000
-17.607103 -16.843237 -0.517293 1373 0.731248 0.682111 0.000000
-17.608007 -16.844112 -0.509835 1379 0.731248 0.682111 0.000000
-17.608492 -16.844572 -0.502360 1389 0.731248 0.682111 0.000000
-17.607912 -16.844017 -0.494855 1379 0.731248 0.682111 0.000000
-17.607229 -16.843367 -0.487351 1373 0.731248 0.682111 0.000000
-17.607716 -16.843828 -0.479877 1365 0.731248 0.682111 0.000000
-17.607546 -16.843670 -0.472388 1377 0.731248 0.682111 0.000000
-17.606800 -16.842968 -0.464885 1367 0.731248 0.682111 0.000000
-17.608025 -16.844126 -0.457423 1381 0.731248 0.682111 0.000000
-17.607965 -16.844069 -0.449944 1361 0.731248 0.682111 0.000000
-17.607742 -16.843868 -0.442445 1373 0.731248 0.682111 0.000000
-17.608095 -16.844208 -0.434972 1377 0.731248 0.682111 0.000000
-17.608671 -16.844753 -0.427506 1379 0.731248 0.682111 0.000000
-17.608393 -16.844494 -0.420009 1387 0.731248 0.682111 0.000000
-17.608166 -16.844276 -0.412521 1385 0.731248 0.682111 0.000000
-17.608259 -16.844368 -0.405040 1375 0.731248 0.682111 0.000000
-17.607969 -16.844086 -0.397542 1381 0.731248 0.682111 0.000000
-17.608021 -16.844131 -0.390062 1367 0.731248 0.682111 0.000000
-17.607840 -16.843964 -0.382573 1375 0.731248 0.682111 0.000000
-17.607756 -16.843885 -0.375084 1385 0.731248 0.682111 0.000000
-17.607895 -16.844015 -0.367602 1375 0.731248 0.682111 0.000000
-17.607338 -16.843494 -0.360107 1381 0.731248 0.682111 0.000000
-17.607788 -16.843924 -0.352633 1389 0.731248 0.682111 0.000000
-17.608822 -16.844902 -0.345163 1373 0.731248 0.682111 0.000000
-17.609690 -16.845736 -0.337694 1393 0.731248 0.682111 0.000000
-17.609552 -16.845602 -0.330206 1385 0.731248 0.682111 0.000000
-17.609407 -16.845478 -0.322727 1389 0.731248 0.682111 0.000000
-17.609316 -16.845381 -0.315238 1381 0.731248 0.682111 0.000000
-17.609076 -16.845152 -0.307750 1383 0.731248 0.682111 0.000000
-17.608875 -16.844969 -0.300261 1381 0.731248 0.682111 0.000000
-17.609152 -16.845234 -0.292778 1365 0.731248 0.682111 0.000000
-17.609425 -16.845495 -0.285296 1361 0.731248 0.682111 0.000000
-17.609121 -16.845203 -0.277808 1371 0.731248 0.682111 0.000000
-17.611343 -16.836580 -0.659510 1363 0.731248 0.682111 0.000000
-17.611229 -16.836466 -0.652011 1363 0.731248 0.682111 0.000000
-17.610744 -16.835999 -0.644506 1349 0.731248 0.682111 0.000000
-17.610353 -16.835636 -0.637009 1367 0.731248 0.682111 0.000000
-17.610073 -16.835363 -0.629512 1361 0.731248 0.682111 0.000000
-17.610832 -16.836094 -0.622054 1355 0.731248 0.682111 0.000000
-17.611881 -16.837099 -0.614604 1369 0.731248 0.682111 0.000000
-17.612553 -16.837734 -0.607138 1379 0.731248 0.682111 0.000000
-17.612999 -16.838165 -0.599663 1385 0.731248 0.682111 0.000000
-17.613020 -16.838184 -0.592183 1367 0.731248 0.682111 0.000000
-17.612988 -16.838160 -0.584693 1379 0.731248 0.682111 0.000000
-17.612167 -16.837374 -0.577180 1373 0.731248 0.682111 0.000000
-17.612040 -16.837248 -0.569681 1377 0.731248 0.682111 0.000000
-17.612209 -16.837416 -0.562200 1375 0.731248 0.682111 0.000000
-17.612015 -16.837223 -0.554711 1367 0.731248 0.682111 0.000000
-17.612244 -16.837450 -0.547229 1365 0.731248 0.682111 0.000000
-17.612684 -16.837873 -0.539755 1381 0.731248 0.682111 0.000000
-17.611803 -16.837023 -0.532243 1369 0.731248 0.682111 0.000000
-17.611277 -16.836527 -0.524748 1369 0.731248 0.682111 0.000000
-17.612082 -16.837296 -0.517280 1367 0.731248 0.682111 0.000000
-17.612568 -16.837757 -0.509815 1371 0.731248 0.682111 0.000000
-17.612352 -16.837561 -0.502317 1363 0.731248 0.682111 0.000000
-17.612999 -16.838175 -0.494851 1361 0.731248 0.682111 0.000000
-17.613218 -16.838383 -0.487368 1367 0.731248 0.682111 0.000000
-17.612375 -16.837578 -0.479866 1351 0.731248 0.682111 0.000000
-17.612261 -16.837477 -0.472377 1359 0.731248 0.682111 0.000000
-17.612314 -16.837523 -0.464886 1357 0.731248 0.682111 0.000000
-17.612146 -16.837364 -0.457398 1361 0.731248 0.682111 0.000000
-17.612514 -16.837717 -0.449924 1371 0.731248 0.682111 0.000000
-17.613146 -16.838322 -0.442458 1355 0.731248 0.682111 0.000000
-17.613291 -16.838455 -0.434976 1353 0.731248 0.682111 0.000000
-17.613123 -16.838297 -0.427478 1357 0.731248 0.682111 0.000000
-17.612001 -16.837231 -0.419968 1365 0.731248 0.682111 0.000000
-17.611986 -16.837219 -0.412488 1369 0.731248 0.682111 0.000000
-17.612402 -16.837610 -0.405014 1367 0.731248 0.682111 0.000000
-17.611956 -16.837191 -0.397518 1371 0.731248 0.682111 0.000000
-17.612675 -16.837875 -0.390051 1385 0.731248 0.682111 0.000000
-17.613337 -16.838518 -0.382575 1381 0.731248 0.682111 0.000000
-17.613214 -16.838396 -0.375086 1369 0.731248 0.682111 0.000000
-17.613464 -16.838627 -0.367613 1367 0.731248 0.682111 0.000000
-17.614010 -16.839163 -0.360138 1367 0.731248 0.682111 0.000000
-17.613777 -16.838938 -0.352650 1375 0.731248 0.682111 0.000000
-17.613750 -16.838907 -0.345160 1365 0.731248 0.682111 0.000000
-17.613661 -16.838827 -0.337670 1359 0.731248 0.682111 0.000000
-17.613951 -16.839104 -0.330198 1363 0.731248 0.682111 0.000000
-17.614334 -16.839468 -0.322714 1367 0.731248 0.682111 0.000000
-17.614452 -16.839592 -0.315232 1357 0.731248 0.682111 0.000000
-17.613998 -16.839151 -0.307747 1357 0.731248 0.682111 0.000000
-17.614010 -16.839167 -0.300256 1367 0.731248 0.682111 0.000000
-17.613604 -16.838778 -0.292770 1345 0.731248 0.682111 0.000000
-17.614098 -16.839245 -0.285295 1365 0.731248 0.682111 0.000000
-17.614634 -16.839758 -0.277810 1371 0.731248 0.682111 0.000000
-17.616640 -16.830946 -0.659514 1367 0.731248 0.682111 0.000000
-17.617260 -16.831541 -0.652047 1373 0.731248 0.682111 0.000000
-17.616766 -16.831068 -0.644542 1363 0.731248 0.682111 0.000000
-17.616272 -16.830597 -0.637037 1371 0.731248 0.682111 0.000000
-17.616268 -16.830584 -0.629546 1379 0.731248 0.682111 0.000000
-17.616505 -16.830814 -0.622064 1367 0.731248 0.682111 0.000000
-17.617594 -16.831854 -0.614613 1363 0.731248 0.682111 0.000000
-17.617298 -16.831579 -0.607116 1357 0.731248 0.682111 0.000000
-17.616699 -16.830997 -0.599612 1377 0.731248 0.682111 0.000000
-17.617197 -16.831480 -0.592147 1373 0.731248 0.682111 0.000000
-17.617180 -16.831455 -0.584657 1371 0.731248 0.682111 0.000000
-17.616827 -16.831123 -0.577160 1369 0.731248 0.682111 0.000000
-17.617537 -16.831804 -0.569693 1375 0.731248 0.682111 0.000000
-17.617922 -16.832170 -0.562219 1375 0.731248 0.682111 0.000000
-17.617357 -16.831640 -0.554714 1373 0.731248 0.682111 0.000000
-17.617321 -16.831604 -0.547224 1359 0.731248 0.682111 0.000000
-17.617025 -16.831316 -0.539727 1369 0.731248 0.682111 0.000000
-17.616985 -16.831285 -0.532247 1369 0.731248 0.682111 0.000000
-17.617733 -16.831999 -0.524780 1369 0.731248 0.682111 0.000000
-17.617699 -16.831961 -0.517290 1373 0.731248 0.682111 0.000000
-17.617641 -16.831919 -0.509810 1373 0.731248 0.682111 0.000000
-17.617331 -16.831619 -0.502313 1363 0.731248 0.682111 0.000000
-17.618347 -16.832584 -0.494853 1359 0.731248 0.682111 0.000000
-17.618923 -16.833145 -0.487388 1369 0.731248 0.682111 0.000000
-17.618565 -16.832792 -0.479891 1379 0.731248 0.682111 0.000000
-17.618292 -16.832539 -0.472393 1359 0.731248 0.682111 0.000000
-17.618185 -16.832432 -0.464904 1357 0.731248 0.682111 0.000000
-17.618383 -16.832632 -0.457422 1373 0.731248 0.682111 0.000000
-17.619179 -16.833395 -0.449964 1371 0.731248 0.682111 0.000000
-17.619810 -16.833998 -0.442488 1373 0.731248 0.682111 0.000000
-17.618633 -16.832872 -0.434979 1365 0.731248 0.682111 0.000000
-17.617680 -16.831951 -0.427468 1379 0.731248 0.682111 0.000000
-17.618130 -16.832396 -0.419994 1377 0.731248 0.682111 0.000000
-17.618546 -16.832785 -0.412520 1383 0.731248 0.682111 0.000000
-17.619320 -16.833530 -0.405052 1385 0.731248 0.682111 0.000000
-17.619150 -16.833372 -0.397563 1375 0.731248 0.682111 0.000000
-17.617809 -16.832087 -0.390046 1363 0.731248 0.682111 0.000000
-17.618210 -16.832466 -0.382572 1371 0.731248 0.682111 0.000000
-17.618505 -16.832748 -0.375089 1373 0.731248 0.682111 0.000000
-17.618530 -16.832783 -0.367609 1361 0.731248 0.682111 0.000000
-17.618565 -16.832817 -0.360118 1363 0.731248 0.682111 0.000000
-17.618746 -16.832989 -0.352646 1363 0.731248 0.682111 0.000000
-17.618877 -16.833113 -0.345165 1361 0.731248 0.682111 0.000000
-17.618793 -16.833036 -0.337675 1369 0.731248 0.682111 0.000000
-17.619560 -16.833761 -0.330208 1371 0.731248 0.682111 0.000000
-17.618780 -16.833019 -0.322705 1363 0.731248 0.682111 0.000000
-17.618532 -16.832785 -0.315217 1355 0.731248 0.682111 0.000000
-17.619028 -16.833252 -0.307743 1353 0.731248 0.682111 0.000000
-17.619087 -16.833319 -0.300252 1367 0.731248 0.682111 0.000000
-17.618690 -16.832935 -0.292765 1365 0.731248 0.682111 0.000000
-17.618639 -16.832886 -0.285276 1377 0.731248 0.682111 0.000000
-17.618652 -16.832901 -0.277795 1361 0.731248 0.682111 0.000000
-17.622223 -16.826160 -0.659531 1371 0.731248 0.682111 0.000000
-17.622368 -16.826294 -0.652050 1377 0.731248 0.682111 0.000000
-17.622461 -16.826385 -0.644569 1377 0.731248 0.682111 0.000000
-17.621864 -16.825819 -0.637054 1365 0.731248 0.682111 0.000000
-17.621998 -16.825954 -0.629573 1355 0.731248 0.682111 0.000000
-17.622351 -16.826281 -0.622099 1369 0.731248 0.682111 0.000000
-17.621904 -16.825861 -0.614593 1367 0.731248 0.682111 0.000000
-17.622091 -16.826040 -0.607111 1371 0.731248 0.682111 0.000000
-17.622120 -16.826067 -0.599631 1359 0.731248 0.682111 0.000000
-17.621777 -16.825745 -0.592134 1351 0.731248 0.682111 0.000000
-17.621582 -16.825565 -0.584635 1357 0.731248 0.682111 0.000000
-17.622459 -16.826391 -0.577177 1373 0.731248 0.682111 0.000000
-17.622797 -16.826719 -0.569704 1371 0.731248 0.682111 0.000000
-17.622803 -16.826729 -0.562213 1371 0.731248 0.682111 0.000000
-17.622625 -16.826565 -0.554725 1365 0.731248 0.682111 0.000000
-17.622211 -16.826170 -0.547229 1363 0.731248 0.682111 0.000000
-17.621964 -16.825933 -0.539731 1363 0.731248 0.682111 0.000000
-17.621668 -16.825645 -0.532234 1363 0.731248 0.682111 0.000000
-17.621782 -16.825756 -0.524752 1351 0.731248 0.682111 0.000000
-17.621677 -16.825663 -0.517263 1347 0.731248 0.682111 0.000000
-17.622114 -16.826073 -0.509789 1353 0.731248 0.682111 0.000000
-17.622969 -16.826893 -0.502330 1369 0.731248 0.682111 0.000000
-17.622919 -16.826841 -0.494841 1367 0.731248 0.682111 0.000000
-17.622915 -16.826845 -0.487361 1353 0.731248 0.682111 0.000000
-17.623556 -16.827454 -0.479884 1353 0.731248 0.682111 0.000000
-17.623400 -16.827307 -0.472396 1359 0.731248 0.682111 0.000000
-17.623184 -16.827099 -0.464907 1353 0.731248 0.682111 0.000000
-17.622763 -16.826696 -0.457411 1353 0.731248 0.682111 0.000000
-17.622704 -16.826639 -0.449922 1357 0.731248 0.682111 0.000000
-17.623325 -16.827236 -0.442456 1357 0.731248 0.682111 0.000000
-17.623528 -16.827429 -0.434974 1369 0.731248 0.682111 0.000000
-17.622877 -16.826817 -0.427469 1367 0.731248 0.682111 0.000000
-17.623026 -16.826952 -0.419988 1367 0.731248 0.682111 0.000000
-17.623545 -16.827454 -0.412523 1375 0.731248 0.682111 0.000000
-17.623480 -16.827391 -0.405033 1373 0.731248 0.682111 0.000000
-17.623720 -16.827629 -0.397551 1367 0.731248 0.682111 0.000000
-17.623543 -16.827450 -0.390062 1361 0.731248 0.682111 0.000000
-17.624216 -16.828098 -0.382596 1377 0.731248 0.682111 0.000000
-17.625343 -16.829182 -0.375135 1373 0.731248 0.682111 0.000000
-17.624224 -16.828100 -0.367625 1375 0.731248 0.682111 0.000000
-17.623137 -16.827074 -0.360115 1363 0.731248 0.682111 0.000000
-17.623537 -16.827450 -0.352641 1357 0.731248 0.682111 0.000000
-17.623663 -16.827566 -0.345160 1361 0.731248 0.682111 0.000000
-17.623840 -16.827742 -0.337678 1371 0.731248 0.682111 0.000000
-17.624557 -16.828426 -0.330201 1369 0.731248 0.682111 0.000000
-17.625158 -16.829006 -0.322735 1365 0.731248 0.682111 0.000000
-17.625004 -16.828859 -0.315247 1373 0.731248 0.682111 0.000000
-17.624296 -16.828175 -0.307743 1363 0.731248 0.682111 0.000000
-17.623398 -16.827326 -0.300252 1359 0.731248 0.682111 0.000000
-17.623262 -16.827194 -0.292763 1363 0.731248 0.682111 0.000000
-17.624105 -16.828009 -0.285294 1373 0.731248 0.682111 0.000000
-17.624229 -16.828125 -0.277803 1363 0.731248 0.682111 0.000000
-17.627050 -16.820894 -0.659535 1373 0.731248 0.682111 0.000000
-17.627190 -16.821037 -0.652043 1373 0.731248 0.682111 0.000000
-17.627758 -16.821575 -0.644578 1377 0.731248 0.682111 0.000000
-17.627264 -16.821104 -0.637072 1375 0.731248 0.682111 0.000000
-17.626722 -16.820580 -0.629567 1365 0.731248 0.682111 0.000000
-17.626965 -16.820816 -0.622085 1365 0.731248 0.682111 0.000000
-17.627104 -16.820948 -0.614603 1375 0.731248 0.682111 0.000000
-17.626919 -16.820776 -0.607115 1371 0.731248 0.682111 0.000000
-17.626892 -16.820744 -0.599625 1363 0.731248 0.682111 0.000000
-17.626978 -16.820831 -0.592144 1367 0.731248 0.682111 0.000000
-17.626896 -16.820753 -0.584655 1367 0.731248 0.682111 0.000000
-17.627287 -16.821127 -0.577181 1371 0.731248 0.682111 0.000000
-17.627777 -16.821602 -0.569706 1367 0.731248 0.682111 0.000000
-17.627701 -16.821518 -0.562217 1363 0.731248 0.682111 0.000000
-17.627872 -16.821688 -0.554735 1365 0.731248 0.682111 0.000000
-17.628408 -16.822201 -0.547269 1383 0.731248 0.682111 0.000000
-17.627487 -16.821320 -0.539748 1373 0.731248 0.682111 0.000000
-17.627224 -16.821072 -0.532260 1365 0.731248 0.682111 0.000000
-17.628185 -16.821993 -0.524801 1355 0.731248 0.682111 0.000000
-17.628412 -16.822205 -0.517319 1349 0.731248 0.682111 0.000000
-17.628315 -16.822119 -0.509829 1359 0.731248 0.682111 0.000000
-17.628635 -16.822418 -0.502356 1379 0.731248 0.682111 0.000000
-17.628382 -16.822178 -0.494858 1365 0.731248 0.682111 0.000000
-17.628647 -16.822435 -0.487386 1363 0.731248 0.682111 0.000000
-17.628597 -16.822386 -0.479896 1351 0.731248 0.682111 0.000000
-17.628433 -16.822231 -0.472407 1363 0.731248 0.682111 0.000000
-17.628115 -16.821928 -0.464910 1361 0.731248 0.682111 0.000000
-17.628162 -16.821981 -0.457430 1377 0.731248 0.682111 0.000000
-17.627951 -16.821775 -0.449931 1361 0.731248 0.682111 0.000000
-17.628946 -16.822725 -0.442472 1379 0.731248 0.682111 0.000000
-17.628998 -16.822771 -0.434991 1375 0.731248 0.682111 0.000000
-17.627815 -16.821651 -0.427472 1363 0.731248 0.682111 0.000000
-17.627481 -16.821335 -0.419985 1351 0.731248 0.682111 0.000000
-17.627937 -16.821772 -0.412511 1363 0.731248 0.682111 0.000000
-17.629780 -16.823532 -0.405063 1363 0.731248 0.682111 0.000000
-17.629982 -16.823725 -0.397581 1371 0.731248 0.682111 0.000000
-17.628792 -16.822588 -0.390072 1363 0.731248 0.682111 0.000000
-17.629408 -16.823179 -0.382606 1365 0.731248 0.682111 0.000000
-17.629236 -16.823006 -0.375107 1367 0.731248 0.682111 0.000000
-17.628515 -16.822323 -0.367614 1371 0.731248 0.682111 0.000000
-17.628653 -16.822453 -0.360133 1359 0.731248 0.682111 0.000000
-17.628683 -16.822479 -0.352642 1363 0.731248 0.682111 0.000000
-17.629232 -16.823004 -0.345177 1365 0.731248 0.682111 0.000000
-17.630039 -16.823788 -0.337699 1359 0.731248 0.682111 0.000000
-17.629862 -16.823608 -0.330211 1365 0.731248 0.682111 0.000000
-17.629715 -16.823471 -0.322732 1373 0.731248 0.682111 0.000000
-17.628883 -16.822685 -0.315229 1375 0.731248 0.682111 0.000000
-17.629166 -16.822954 -0.307747 1377 0.731248 0.682111 0.000000
-17.629606 -16.823380 -0.300272 1373 0.731248 0.682111 0.000000
-17.629143 -16.822931 -0.292776 1363 0.731248 0.682111 0.000000
-17.629471 -16.823238 -0.285303 1371 0.731248 0.682111 0.000000
-17.629745 -16.823503 -0.277820 1373 0.731248 0.682111 0.000000
-17.632290 -16.815407 -0.659538 1373 0.731248 0.682111 0.000000
-17.632326 -16.815441 -0.652047 1377 0.731248 0.682111 0.000000
-17.632099 -16.815224 -0.644549 1371 0.731248 0.682111 0.000000
-17.632082 -16.815214 -0.637059 1361 0.731248 0.682111 0.000000
-17.632010 -16.815144 -0.629570 1355 0.731248 0.682111 0.000000
-17.632202 -16.815315 -0.622088 1351 0.731248 0.682111 0.000000
-17.632452 -16.815561 -0.614615 1367 0.731248 0.682111 0.000000
-17.632362 -16.815479 -0.607126 1373 0.731248 0.682111 0.000000
-17.633183 -16.816261 -0.599668 1371 0.731248 0.682111 0.000000
-17.633751 -16.816801 -0.592192 1375 0.731248 0.682111 0.000000
-17.633289 -16.816366 -0.584697 1361 0.731248 0.682111 0.000000
-17.633160 -16.816240 -0.577198 1359 0.731248 0.682111 0.000000
-17.633181 -16.816261 -0.569717 1367 0.731248 0.682111 0.000000
-17.632820 -16.815924 -0.562221 1361 0.731248 0.682111 0.000000
-17.632740 -16.815849 -0.554731 1379 0.731248 0.682111 0.000000
-17.633497 -16.816566 -0.547264 1373 0.731248 0.682111 0.000000
-17.632607 -16.815723 -0.539752 1359 0.731248 0.682111 0.000000
-17.632414 -16.815531 -0.532254 1369 0.731248 0.682111 0.000000
-17.633589 -16.816652 -0.524812 1375 0.731248 0.682111 0.000000
-17.633121 -16.816214 -0.517307 1363 0.731248 0.682111 0.000000
-17.632917 -16.816017 -0.509818 1363 0.731248 0.682111 0.000000
-17.633034 -16.816126 -0.502337 1373 0.731248 0.682111 0.000000
-17.632723 -16.815826 -0.494840 1361 0.731248 0.682111 0.000000
-17.632299 -16.815426 -0.487344 1361 0.731248 0.682111 0.000000
-17.632877 -16.815983 -0.479868 1365 0.731248 0.682111 0.000000
-17.633625 -16.816694 -0.472401 1373 0.731248 0.682111 0.000000
-17.633774 -16.816843 -0.464919 1357 0.731248 0.682111 0.000000
-17.633556 -16.816633 -0.457431 1355 0.731248 0.682111 0.000000
-17.633133 -16.816231 -0.449935 1361 0.731248 0.682111 0.000000
-17.632601 -16.815716 -0.442440 1353 0.731248 0.682111 0.000000
-17.632795 -16.815916 -0.434958 1365 0.731248 0.682111 0.000000
-17.633583 -16.816656 -0.427490 1355 0.731248 0.682111 0.000000
-17.632885 -16.815994 -0.419987 1357 0.731248 0.682111 0.000000
-17.632439 -16.815573 -0.412491 1363 0.731248 0.682111 0.000000
-17.633593 -16.816675 -0.405039 1377 0.731248 0.682111 0.000000
-17.633099 -16.816204 -0.397544 1355 0.731248 0.682111 0.000000
-17.632984 -16.816088 -0.390055 1363 0.731248 0.682111 0.000000
-17.633703 -16.816776 -0.382588 1361 0.731248 0.682111 0.000000
-17.634102 -16.817167 -0.375104 1355 0.731248 0.682111 0.000000
-17.634186 -16.817238 -0.367623 1359 0.731248 0.682111 0.000000
-17.633360 -16.816460 -0.360121 1367 0.731248 0.682111 0.000000
-17.633913 -16.816986 -0.352645 1375 0.731248 0.682111 0.000000
-17.634954 -16.817970 -0.345185 1361 0.731248 0.682111 0.000000
-17.634912 -16.817942 -0.337695 1363 0.731248 0.682111 0.000000
-17.635416 -16.818415 -0.330220 1365 0.731248 0.682111 0.000000
-17.634581 -16.817631 -0.322728 1365 0.731248 0.682111 0.000000
-17.634499 -16.817541 -0.315239 1363 0.731248 0.682111 0.000000
-17.635092 -16.818113 -0.307763 1371 0.731248 0.682111 0.000000
-17.634794 -16.817827 -0.300276 1365 0.731248 0.682111 0.000000
-17.635015 -16.818047 -0.292793 1371 0.731248 0.682111 0.000000
-17.634180 -16.817247 -0.285291 1359 0.731248 0.682111 0.000000
-17.633820 -16.816896 -0.277804 1363 0.731248 0.682111 0.000000
-17.636578 -16.808996 -0.659500 1365 0.731248 0.682111 0.000000
-17.637611 -16.809992 -0.652050 1367 0.731248 0.682111 0.000000
-17.638027 -16.810381 -0.644576 1373 0.731248 0.682111 0.000000
-17.637897 -16.810270 -0.637087 1363 0.731248 0.682111 0.000000
-17.638306 -16.810654 -0.629613 1357 0.731248 0.682111 0.000000
-17.637806 -16.810175 -0.622107 1373 0.731248 0.682111 0.000000
-17.637526 -16.809916 -0.614610 1371 0.731248 0.682111 0.000000
-17.637712 -16.810095 -0.607128 1369 0.731248 0.682111 0.000000
-17.638111 -16.810472 -0.599654 1375 0.731248 0.682111 0.000000
-17.638395 -16.810745 -0.592181 1377 0.731248 0.682111 0.000000
-17.637680 -16.810068 -0.584668 1363 0.731248 0.682111 0.000000
-17.636963 -16.809376 -0.577154 1371 0.731248 0.682111 0.000000
-17.638094 -16.810459 -0.569703 1371 0.731248 0.682111 0.000000
-17.638857 -16.811184 -0.562246 1359 0.731248 0.682111 0.000000
-17.638666 -16.811007 -0.554748 1377 0.731248 0.682111 0.000000
-17.638687 -16.811028 -0.547267 1381 0.731248 0.682111 0.000000
-17.638327 -16.810690 -0.539770 1375 0.731248 0.682111 0.000000
-17.638498 -16.810844 -0.532289 1373 0.731248 0.682111 0.000000
-17.638195 -16.810564 -0.524791 1367 0.731248 0.682111 0.000000
-17.638470 -16.810814 -0.517319 1365 0.731248 0.682111 0.000000
-17.638641 -16.810984 -0.509837 1369 0.731248 0.682111 0.000000
-17.638208 -16.810574 -0.502331 1375 0.731248 0.682111 0.000000
-17.637741 -16.810135 -0.494835 1355 0.731248 0.682111 0.000000
-17.638172 -16.810539 -0.487361 1351 0.731248 0.682111 0.000000
-17.638020 -16.810392 -0.479872 1355 0.731248 0.682111 0.000000
-17.638016 -16.810394 -0.472382 1359 0.731248 0.682111 0.000000
-17.638227 -16.810595 -0.464910 1373 0.731248 0.682111 0.000000
-17.637053 -16.809483 -0.457390 1355 0.731248 0.682111 0.000000
-17.637690 -16.810078 -0.449924 1369 0.731248 0.682111 0.000000
-17.639002 -16.811335 -0.442472 1361 0.731248 0.682111 0.000000
-17.639046 -16.811373 -0.434981 1355 0.731248 0.682111 0.000000
-17.638451 -16.810818 -0.427487 1367 0.731248 0.682111 0.000000
-17.638756 -16.811108 -0.420004 1383 0.731248 0.682111 0.000000
-17.638641 -16.810993 -0.412524 1367 0.731248 0.682111 0.000000
-17.638252 -16.810631 -0.405028 1367 0.731248 0.682111 0.000000
-17.637859 -16.810255 -0.397531 1369 0.731248 0.682111 0.000000
-17.638374 -16.810749 -0.390056 1363 0.731248 0.682111 0.000000
-17.639091 -16.811436 -0.382589 1367 0.731248 0.682111 0.000000
-17.639442 -16.811762 -0.375116 1381 0.731248 0.682111 0.000000
-17.639576 -16.811897 -0.367634 1383 0.731248 0.682111 0.000000
-17.638969 -16.811312 -0.360130 1375 0.731248 0.682111 0.000000
-17.638834 -16.811190 -0.352641 1371 0.731248 0.682111 0.000000
-17.639187 -16.811516 -0.345168 1361 0.731248 0.682111 0.000000
-17.639675 -16.811993 -0.337693 1351 0.731248 0.682111 0.000000
-17.640226 -16.812519 -0.330217 1373 0.731248 0.682111 0.000000
-17.640238 -16.812534 -0.322737 1369 0.731248 0.682111 0.000000
-17.639627 -16.811953 -0.315243 1369 0.731248 0.682111 0.000000
-17.639435 -16.811762 -0.307754 1361 0.731248 0.682111 0.000000
-17.639771 -16.812090 -0.300271 1355 0.731248 0.682111 0.000000
-17.639997 -16.812302 -0.292789 1369 0.731248 0.682111 0.000000
-17.639900 -16.812214 -0.285309 1375 0.731248 0.682111 0.000000
-17.640062 -16.812363 -0.277828 1373 0.731248 0.682111 0.000000
-17.642916 -16.804567 -0.659542 1373 0.731248 0.682111 0.000000
-17.644176 -16.805756 -0.652100 1377 0.731248 0.682111 0.000000
-17.643415 -16.805042 -0.644587 1379 0.731248 0.682111 0.000000
-17.642715 -16.804365 -0.637074 1369 0.731248 0.682111 0.000000
-17.642857 -16.804508 -0.629592 1361 0.731248 0.682111 0.000000
-17.643312 -16.804943 -0.622118 1371 0.731248 0.682111 0.000000
-17.643932 -16.805527 -0.614652 1361 0.731248 0.682111 0.000000
-17.643101 -16.804743 -0.607139 1367 0.731248 0.682111 0.000000
-17.642447 -16.804115 -0.599625 1363 0.731248 0.682111 0.000000
-17.643372 -16.805008 -0.592176 1361 0.731248 0.682111 0.000000
-17.643614 -16.805231 -0.584694 1361 0.731248 0.682111 0.000000
-17.642994 -16.804644 -0.577190 1367 0.731248 0.682111 0.000000
-17.642706 -16.804365 -0.569692 1369 0.731248 0.682111 0.000000
-17.642616 -16.804283 -0.562203 1363 0.731248 0.682111 0.000000
-17.642954 -16.804609 -0.554729 1359 0.731248 0.682111 0.000000
-17.643229 -16.804874 -0.547247 1371 0.731248 0.682111 0.000000
-17.644094 -16.805693 -0.539788 1367 0.731248 0.682111 0.000000
-17.644743 -16.806311 -0.532322 1369 0.731248 0.682111 0.000000
-17.644272 -16.805870 -0.524816 1375 0.731248 0.682111 0.000000
-17.644291 -16.805876 -0.517336 1369 0.731248 0.682111 0.000000
-17.643234 -16.804874 -0.509816 1359 0.731248 0.682111 0.000000
-17.642553 -16.804224 -0.502312 1367 0.731248 0.682111 0.000000
-17.643288 -16.804935 -0.494845 1361 0.731248 0.682111 0.000000
-17.643141 -16.804796 -0.487356 1355 0.731248 0.682111 0.000000
-17.642876 -16.804533 -0.479869 1339 0.731248 0.682111 0.000000
-17.643887 -16.805508 -0.472409 1357 0.731248 0.682111 0.000000
-17.644201 -16.805803 -0.464926 1359 0.731248 0.682111 0.000000
-17.644033 -16.805645 -0.457437 1353 0.731248 0.682111 0.000000
-17.643665 -16.805288 -0.449940 1357 0.731248 0.682111 0.000000
-17.643764 -16.805386 -0.442459 1359 0.731248 0.682111 0.000000
-17.643278 -16.804918 -0.434964 1369 0.731248 0.682111 0.000000
-17.643639 -16.805265 -0.427490 1371 0.731248 0.682111 0.000000
-17.644312 -16.805914 -0.420013 1375 0.731248 0.682111 0.000000
-17.644403 -16.806005 -0.412532 1381 0.731248 0.682111 0.000000
-17.644012 -16.805630 -0.405036 1365 0.731248 0.682111 0.000000
-17.643946 -16.805567 -0.397556 1369 0.731248 0.682111 0.000000
-17.644251 -16.805855 -0.390073 1369 0.731248 0.682111 0.000000
-17.644392 -16.805984 -0.382592 1373 0.731248 0.682111 0.000000
-17.644943 -16.806524 -0.375116 1383 0.731248 0.682111 0.000000
-17.645502 -16.807056 -0.367651 1377 0.731248 0.682111 0.000000
-17.645323 -16.806879 -0.360162 1377 0.731248 0.682111 0.000000
-17.644760 -16.806349 -0.352658 1371 0.731248 0.682111 0.000000
-17.644791 -16.806376 -0.345177 1353 0.731248 0.682111 0.000000
-17.644865 -16.806456 -0.337696 1347 0.731248 0.682111 0.000000
-17.644783 -16.806366 -0.330207 1367 0.731248 0.682111 0.000000
-17.643948 -16.805580 -0.322705 1361 0.731248 0.682111 0.000000
-17.643805 -16.805443 -0.315226 1361 0.731248 0.682111 0.000000
-17.645147 -16.806721 -0.307763 1365 0.731248 0.682111 0.000000
-17.645950 -16.807491 -0.300295 1369 0.731248 0.682111 0.000000
-17.645496 -16.807051 -0.292799 1371 0.731248 0.682111 0.000000
-17.644978 -16.806559 -0.285304 1365 0.731248 0.682111 0.000000
-17.645357 -16.806919 -0.277830 1361 0.731248 0.682111 0.000000
-17.647934 -16.798862 -0.659537 1359 0.731248 0.682111 0.000000
-17.648403 -16.799311 -0.652073 1369 0.731248 0.682111 0.000000
-17.648291 -16.799196 -0.644574 1373 0.731248 0.682111 0.000000
-17.648317 -16.799223 -0.637093 1373 0.731248 0.682111 0.000000
-17.649044 -16.799915 -0.629626 1379 0.731248 0.682111 0.000000
-17.648867 -16.799749 -0.622138 1377 0.731248 0.682111 0.000000
-17.648094 -16.799017 -0.614625 1377 0.731248 0.682111 0.000000
-17.648182 -16.799101 -0.607134 1365 0.731248 0.682111 0.000000
-17.649483 -16.800337 -0.599691 1363 0.731248 0.682111 0.000000
-17.649986 -16.800810 -0.592226 1373 0.731248 0.682111 0.000000
-17.648741 -16.799629 -0.584698 1369 0.731248 0.682111 0.000000
-17.648176 -16.799099 -0.577183 1361 0.731248 0.682111 0.000000
-17.648039 -16.798967 -0.569694 1365 0.731248 0.682111 0.000000
-17.647949 -16.798885 -0.562205 1365 0.731248 0.682111 0.000000
-17.648287 -16.799198 -0.554732 1353 0.731248 0.682111 0.000000
-17.648781 -16.799667 -0.547257 1357 0.731248 0.682111 0.000000
-17.649008 -16.799892 -0.539784 1359 0.731248 0.682111 0.000000
-17.649395 -16.800261 -0.532311 1361 0.731248 0.682111 0.000000
-17.648930 -16.799812 -0.524805 1367 0.731248 0.682111 0.000000
-17.648193 -16.799116 -0.517301 1369 0.731248 0.682111 0.000000
-17.648577 -16.799484 -0.509828 1361 0.731248 0.682111 0.000000
-17.649216 -16.800093 -0.502352 1361 0.731248 0.682111 0.000000
-17.648960 -16.799849 -0.494864 1363 0.731248 0.682111 0.000000
-17.648157 -16.799091 -0.487351 1367 0.731248 0.682111 0.000000
-17.648796 -16.799700 -0.479885 1369 0.731248 0.682111 0.000000
-17.649378 -16.800249 -0.472419 1355 0.731248 0.682111 0.000000
-17.649487 -16.800356 -0.464928 1361 0.731248 0.682111 0.000000
-17.649429 -16.800297 -0.457448 1355 0.731248 0.682111 0.000000
-17.650011 -16.800850 -0.449973 1361 0.731248 0.682111 0.000000
-17.649851 -16.800697 -0.442484 1367 0.731248 0.682111 0.000000
-17.649466 -16.800341 -0.434987 1365 0.731248 0.682111 0.000000
-17.650406 -16.801231 -0.427528 1365 0.731248 0.682111 0.000000
-17.650711 -16.801519 -0.420045 1367 0.731248 0.682111 0.000000
-17.649323 -16.800196 -0.412528 1349 0.731248 0.682111 0.000000
-17.648466 -16.799379 -0.405026 1343 0.731248 0.682111 0.000000
-17.650078 -16.800917 -0.397581 1359 0.731248 0.682111 0.000000
-17.650280 -16.801109 -0.390099 1367 0.731248 0.682111 0.000000
-17.649572 -16.800440 -0.382595 1367 0.731248 0.682111 0.000000
-17.650068 -16.800920 -0.375120 1365 0.731248 0.682111 0.000000
-17.650429 -16.801252 -0.367647 1359 0.731248 0.682111 0.000000
-17.649817 -16.800674 -0.360142 1369 0.731248 0.682111 0.000000
-17.649942 -16.800804 -0.352661 1371 0.731248 0.682111 0.000000
-17.650074 -16.800924 -0.345180 1369 0.731248 0.682111 0.000000
-17.649673 -16.800545 -0.337693 1367 0.731248 0.682111 0.000000
-17.649048 -16.799952 -0.330189 1373 0.731248 0.682111 0.000000
-17.648972 -16.799881 -0.322709 1367 0.731248 0.682111 0.000000
-17.649889 -16.800753 -0.315241 1373 0.731248 0.682111 0.000000
-17.650068 -16.800926 -0.307759 1361 0.731248 0.682111 0.000000
-17.649977 -16.800833 -0.300269 1363 0.731248 0.682111 0.000000
-17.650251 -16.801096 -0.292797 1365 0.731248 0.682111 0.000000
-17.649891 -16.800758 -0.285300 1361 0.731248 0.682111 0.000000
-17.650427 -16.801271 -0.277825 1375 0.731248 0.682111 0.000000
