550
-16.688162 -16.320311 -0.666520 1123 0.697975 0.716122 0.000000
-16.688145 -16.320301 -0.659350 1137 0.697975 0.716122 0.000000
-16.687761 -16.319935 -0.652153 1135 0.697975 0.716122 0.000000
-16.687183 -16.319363 -0.644959 1141 0.697975 0.716122 0.000000
-16.687422 -16.319593 -0.637796 1143 0.697975 0.716122 0.000000
-16.688292 -16.320456 -0.630658 1147 0.697975 0.716122 0.000000
-16.686808 -16.319002 -0.623432 1131 0.697975 0.716122 0.000000
-16.687105 -16.319292 -0.616269 1133 0.697975 0.716122 0.000000
-16.687599 -16.319775 -0.609114 1143 0.697975 0.716122 0.000000
-16.687529 -16.319706 -0.601935 1157 0.697975 0.716122 0.000000
-16.687393 -16.319574 -0.594756 1143 0.697975 0.716122 0.000000
-16.686798 -16.318993 -0.587561 1151 0.697975 0.716122 0.000000
-16.687283 -16.319477 -0.580406 1155 0.697975 0.716122 0.000000
-16.687521 -16.319708 -0.573244 1145 0.697975 0.716122 0.000000
-16.687696 -16.319872 -0.566082 1157 0.697975 0.716122 0.000000
-16.687548 -16.319738 -0.558903 1137 0.697975 0.716122 0.000000
-16.686789 -16.318995 -0.551700 1125 0.697975 0.716122 0.000000
-16.686951 -16.319162 -0.544539 1137 0.697975 0.716122 0.000000
-16.687237 -16.319429 -0.537376 1145 0.697975 0.716122 0.000000
-16.686985 -16.319185 -0.530198 1143 0.697975 0.716122 0.000000
-16.686733 -16.318941 -0.523020 1129 0.697975 0.716122 0.000000
-16.687418 -16.319620 -0.515863 1141 0.697975 0.716122 0.000000
-16.687687 -16.319876 -0.508701 1141 0.697975 0.716122 0.000000
-16.687693 -16.319885 -0.501530 1149 0.697975 0.716122 0.000000
-16.688175 -16.320356 -0.494376 1155 0.697975 0.716122 0.000000
-16.688126 -16.320309 -0.487206 1147 0.697975 0.716122 0.000000
-16.688013 -16.320208 -0.480027 1141 0.697975 0.716122 0.000000
-16.688066 -16.320255 -0.472856 1137 0.697975 0.716122 0.000000
-16.687334 -16.319544 -0.465663 1141 0.697975 0.716122 0.000000
-16.686911 -16.319132 -0.458487 1147 0.697975 0.716122 0.000000
-16.686487 -16.318720 -0.451301 1143 0.697975 0.716122 0.000000
-16.686321 -16.318560 -0.444132 1129 0.697975 0.716122 0.000000
-16.686415 -16.318655 -0.436961 1147 0.697975 0.716122 0.000000
-16.686356 -16.318598 -0.429792 1149 0.697975 0.716122 0.000000
-16.686651 -16.318888 -0.422629 1159 0.697975 0.716122 0.000000
-16.686125 -16.318363 -0.415444 1145 0.697975 0.716122 0.000000
-16.685741 -16.317997 -0.408267 1145 0.697975 0.716122 0.000000
-16.685772 -16.318026 -0.401097 1131 0.697975 0.716122 0.000000
-16.685604 -16.317863 -0.393918 1133 0.697975 0.716122 0.000000
-16.685635 -16.317894 -0.386757 1145 0.697975 0.716122 0.000000
-16.685665 -16.317923 -0.379587 1129 0.697975 0.716122 0.000000
-16.686268 -16.318510 -0.372431 1147 0.697975 0.716122 0.000000
-16.686096 -16.318344 -0.365253 1135 0.697975 0.716122 0.000000
-16.685907 -16.318167 -0.358084 1131 0.697975 0.716122 0.000000
-16.686255 -16.318501 -0.350921 1153 0.697975 0.716122 0.000000
-16.685177 -16.317450 -0.343731 1127 0.697975 0.716122 0.000000
-16.685770 -16.318041 -0.336575 1125 0.697975 0.716122 0.000000
-16.686779 -16.319031 -0.329425 1147 0.697975 0.716122 0.000000
-16.686014 -16.318279 -0.322242 1139 0.697975 0.716122 0.000000
-16.685398 -16.317678 -0.315058 1135 0.697975 0.716122 0.000000
-16.685844 -16.318110 -0.307904 1129 0.697975 0.716122 0.000000
-16.686008 -16.318275 -0.300732 1139 0.697975 0.716122 0.000000
-16.686131 -16.318396 -0.293570 1127 0.697975 0.716122 0.000000
-16.686876 -16.319128 -0.286413 1131 0.697975 0.716122 0.000000
-16.686508 -16.318773 -0.279236 1123 0.697975 0.716122 0.000000
-16.692612 -16.314711 -0.666498 1129 0.697975 0.716122 0.000000
-16.692608 -16.314701 -0.659327 1119 0.697975 0.716122 0.000000
-16.692533 -16.314629 -0.652148 1111 0.697975 0.716122 0.000000
-16.692369 -16.314470 -0.644969 1111 0.697975 0.716122 0.000000
-16.692976 -16.315073 -0.637823 1143 0.697975 0.716122 0.000000
-16.692598 -16.314697 -0.630637 1147 0.697975 0.716122 0.000000
-16.691786 -16.313908 -0.623434 1141 0.697975 0.716122 0.000000
-16.691925 -16.314041 -0.616263 1129 0.697975 0.716122 0.000000
-16.692219 -16.314331 -0.609100 1131 0.697975 0.716122 0.000000
-16.692289 -16.314405 -0.601929 1133 0.697975 0.716122 0.000000
-16.691748 -16.313868 -0.594734 1133 0.697975 0.716122 0.000000
-16.691402 -16.313534 -0.587557 1141 0.697975 0.716122 0.000000
-16.691530 -16.313660 -0.580386 1121 0.697975 0.716122 0.000000
-16.692389 -16.314508 -0.573247 1137 0.697975 0.716122 0.000000
-16.692097 -16.314219 -0.566060 1135 0.697975 0.716122 0.000000
-16.691696 -16.313826 -0.558874 1129 0.697975 0.716122 0.000000
-16.692335 -16.314453 -0.551727 1143 0.697975 0.716122 0.000000
-16.692722 -16.314833 -0.544563 1135 0.697975 0.716122 0.000000
-16.691950 -16.314075 -0.537371 1143 0.697975 0.716122 0.000000
-16.691385 -16.313532 -0.530176 1133 0.697975 0.716122 0.000000
-16.692078 -16.314203 -0.523029 1137 0.697975 0.716122 0.000000
-16.692871 -16.314987 -0.515881 1145 0.697975 0.716122 0.000000
-16.692354 -16.314484 -0.508696 1135 0.697975 0.716122 0.000000
-16.691362 -16.313519 -0.501495 1141 0.697975 0.716122 0.000000
-16.691530 -16.313677 -0.494334 1147 0.697975 0.716122 0.000000
-16.692316 -16.314440 -0.487186 1137 0.697975 0.716122 0.000000
-16.692314 -16.314444 -0.480006 1139 0.697975 0.716122 0.000000
-16.692102 -16.314245 -0.472838 1145 0.697975 0.716122 0.000000
-16.691841 -16.313982 -0.465660 1133 0.697975 0.716122 0.000000
-16.691576 -16.313725 -0.458482 1135 0.697975 0.716122 0.000000
-16.691151 -16.313313 -0.451296 1143 0.697975 0.716122 0.000000
-16.691727 -16.313873 -0.444141 1161 0.697975 0.716122 0.000000
-16.691601 -16.313761 -0.436972 1149 0.697975 0.716122 0.000000
-16.690811 -16.312992 -0.429779 1131 0.697975 0.716122 0.000000
-16.691698 -16.313852 -0.422630 1131 0.697975 0.716122 0.000000
-16.692411 -16.314556 -0.415473 1137 0.697975 0.716122 0.000000
-16.692232 -16.314384 -0.408305 1139 0.697975 0.716122 0.000000
-16.690702 -16.312880 -0.401100 1123 0.697975 0.716122 0.000000
-16.691463 -16.313637 -0.393942 1145 0.697975 0.716122 0.000000
-16.692499 -16.314648 -0.386802 1137 0.697975 0.716122 0.000000
-16.691225 -16.313393 -0.379604 1129 0.697975 0.716122 0.000000
-16.690569 -16.312759 -0.372420 1135 0.697975 0.716122 0.000000
-16.690332 -16.312529 -0.365242 1119 0.697975 0.716122 0.000000
-16.690838 -16.313021 -0.358087 1131 0.697975 0.716122 0.000000
-16.690912 -16.313101 -0.350916 1123 0.697975 0.716122 0.000000
-16.691458 -16.313637 -0.343761 1145 0.697975 0.716122 0.000000
-16.691633 -16.313803 -0.336599 1149 0.697975 0.716122 0.000000
-16.690977 -16.313169 -0.329415 1141 0.697975 0.716122 0.000000
-16.690626 -16.312828 -0.322238 1137 0.697975 0.716122 0.000000
-16.690802 -16.312994 -0.315076 1119 0.697975 0.716122 0.000000
-16.691391 -16.313581 -0.307910 1117 0.697975 0.716122 0.000000
-16.692038 -16.314201 -0.300754 1147 0.697975 0.716122 0.000000
-16.691364 -16.313555 -0.293580 1149 0.697975 0.716122 0.000000
-16.689911 -16.312128 -0.286384 1135 0.697975 0.716122 0.000000
-16.689663 -16.311884 -0.279206 1123 0.697975 0.716122 0.000000
-16.697662 -16.309652 -0.666509 1113 0.697975 0.716122 0.000000
-16.698229 -16.310209 -0.659354 1117 0.697975 0.716122 0.000000
-16.698568 -16.310549 -0.652190 1125 0.697975 0.716122 0.000000
-16.697775 -16.309771 -0.644988 1143 0.697975 0.716122 0.000000
-16.697334 -16.309345 -0.637802 1145 0.697975 0.716122 0.000000
-16.696795 -16.308823 -0.630607 1147 0.697975 0.716122 0.000000
-16.696627 -16.308649 -0.623428 1135 0.697975 0.716122 0.000000
-16.697119 -16.309139 -0.616273 1139 0.697975 0.716122 0.000000
-16.696781 -16.308811 -0.609086 1129 0.697975 0.716122 0.000000
-16.696552 -16.308588 -0.601909 1133 0.697975 0.716122 0.000000
-16.696840 -16.308870 -0.594746 1147 0.697975 0.716122 0.000000
-16.697289 -16.309301 -0.587591 1147 0.697975 0.716122 0.000000
-16.697779 -16.309780 -0.580436 1151 0.697975 0.716122 0.000000
-16.697542 -16.309547 -0.573248 1151 0.697975 0.716122 0.000000
-16.696985 -16.309011 -0.566063 1143 0.697975 0.716122 0.000000
-16.697319 -16.309334 -0.558900 1119 0.697975 0.716122 0.000000
-16.698267 -16.310272 -0.551761 1121 0.697975 0.716122 0.000000
-16.698973 -16.310957 -0.544614 1145 0.697975 0.716122 0.000000
-16.697836 -16.309843 -0.537405 1129 0.697975 0.716122 0.000000
-16.697109 -16.309139 -0.530201 1133 0.697975 0.716122 0.000000
-16.697121 -16.309153 -0.523031 1141 0.697975 0.716122 0.000000
-16.696924 -16.308954 -0.515853 1145 0.697975 0.716122 0.000000
-16.696814 -16.308853 -0.508684 1135 0.697975 0.716122 0.000000
-16.696976 -16.309019 -0.501512 1135 0.697975 0.716122 0.000000
-16.698034 -16.310049 -0.494382 1141 0.697975 0.716122 0.000000
-16.697931 -16.309956 -0.487202 1149 0.697975 0.716122 0.000000
-16.696882 -16.308931 -0.480002 1123 0.697975 0.716122 0.000000
-16.697046 -16.309084 -0.472831 1133 0.697975 0.716122 0.000000
-16.696825 -16.308880 -0.465662 1127 0.697975 0.716122 0.000000
-16.696829 -16.308876 -0.458492 1145 0.697975 0.716122 0.000000
-16.697399 -16.309431 -0.451337 1159 0.697975 0.716122 0.000000
-16.697870 -16.309896 -0.444172 1147 0.697975 0.716122 0.000000
-16.698063 -16.310087 -0.437010 1149 0.697975 0.716122 0.000000
-16.697315 -16.309364 -0.429817 1137 0.697975 0.716122 0.000000
-16.696993 -16.309048 -0.422640 1131 0.697975 0.716122 0.000000
-16.696623 -16.308680 -0.415463 1119 0.697975 0.716122 0.000000
-16.696653 -16.308710 -0.408293 1117 0.697975 0.716122 0.000000
-16.696169 -16.308245 -0.401107 1131 0.697975 0.716122 0.000000
-16.696203 -16.308281 -0.393947 1143 0.697975 0.716122 0.000000
-16.696547 -16.308607 -0.386783 1143 0.697975 0.716122 0.000000
-16.696629 -16.308695 -0.379612 1143 0.697975 0.716122 0.000000
-16.697023 -16.309080 -0.372448 1147 0.697975 0.716122 0.000000
-16.697210 -16.309265 -0.365286 1143 0.697975 0.716122 0.000000
-16.697386 -16.309444 -0.358124 1153 0.697975 0.716122 0.000000
-16.697048 -16.309116 -0.350947 1125 0.697975 0.716122 0.000000
-16.696869 -16.308931 -0.343769 1131 0.697975 0.716122 0.000000
-16.696577 -16.308655 -0.336592 1143 0.697975 0.716122 0.000000
-16.697010 -16.309072 -0.329437 1127 0.697975 0.716122 0.000000
-16.696762 -16.308844 -0.322260 1129 0.697975 0.716122 0.000000
-16.696789 -16.308859 -0.315089 1149 0.697975 0.716122 0.000000
-16.696810 -16.308882 -0.307929 1143 0.697975 0.716122 0.000000
-16.696186 -16.308273 -0.300745 1135 0.697975 0.716122 0.000000
-16.697039 -16.309109 -0.293586 1137 0.697975 0.716122 0.000000
-16.697046 -16.309118 -0.286426 1139 0.697975 0.716122 0.000000
-16.697216 -16.309292 -0.279254 1141 0.697975 0.716122 0.000000
-16.704094 -16.305798 -0.666559 1131 0.697975 0.716122 0.000000
-16.704021 -16.305729 -0.659389 1131 0.697975 0.716122 0.000000
-16.703068 -16.304796 -0.652178 1139 0.697975 0.716122 0.000000
-16.702950 -16.304672 -0.644999 1131 0.697975 0.716122 0.000000
-16.703089 -16.304821 -0.637828 1129 0.697975 0.716122 0.000000
-16.702961 -16.304693 -0.630649 1145 0.697975 0.716122 0.000000
-16.702320 -16.304071 -0.623455 1137 0.697975 0.716122 0.000000
-16.702303 -16.304049 -0.616275 1127 0.697975 0.716122 0.000000
-16.702751 -16.304495 -0.609120 1147 0.697975 0.716122 0.000000
-16.703249 -16.304977 -0.601965 1149 0.697975 0.716122 0.000000
-16.702694 -16.304443 -0.594770 1149 0.697975 0.716122 0.000000
-16.702246 -16.303997 -0.587585 1149 0.697975 0.716122 0.000000
-16.703688 -16.305410 -0.580461 1149 0.697975 0.716122 0.000000
-16.703085 -16.304823 -0.573266 1149 0.697975 0.716122 0.000000
-16.701843 -16.303610 -0.566058 1119 0.697975 0.716122 0.000000
-16.701756 -16.303528 -0.558879 1129 0.697975 0.716122 0.000000
-16.701933 -16.303694 -0.551717 1119 0.697975 0.716122 0.000000
-16.702358 -16.304119 -0.544553 1135 0.697975 0.716122 0.000000
-16.702436 -16.304188 -0.537392 1139 0.697975 0.716122 0.000000
-16.702074 -16.303841 -0.530205 1147 0.697975 0.716122 0.000000
-16.702868 -16.304623 -0.523057 1165 0.697975 0.716122 0.000000
-16.703302 -16.305042 -0.515903 1141 0.697975 0.716122 0.000000
-16.703197 -16.304945 -0.508723 1141 0.697975 0.716122 0.000000
-16.702791 -16.304546 -0.501537 1139 0.697975 0.716122 0.000000
-16.701902 -16.303679 -0.494346 1139 0.697975 0.716122 0.000000
-16.701431 -16.303226 -0.487160 1127 0.697975 0.716122 0.000000
-16.701227 -16.303022 -0.479982 1127 0.697975 0.716122 0.000000
-16.701277 -16.303070 -0.472811 1111 0.697975 0.716122 0.000000
-16.701426 -16.303225 -0.465650 1125 0.697975 0.716122 0.000000
-16.701742 -16.303532 -0.458486 1129 0.697975 0.716122 0.000000
-16.701944 -16.303730 -0.451324 1147 0.697975 0.716122 0.000000
-16.702105 -16.303881 -0.444152 1125 0.697975 0.716122 0.000000
-16.702406 -16.304178 -0.436989 1137 0.697975 0.716122 0.000000
-16.702078 -16.303856 -0.429812 1147 0.697975 0.716122 0.000000
-16.701849 -16.303644 -0.422634 1145 0.697975 0.716122 0.000000
-16.702158 -16.303947 -0.415471 1143 0.697975 0.716122 0.000000
-16.702345 -16.304132 -0.408309 1119 0.697975 0.716122 0.000000
-16.701967 -16.303759 -0.401133 1135 0.697975 0.716122 0.000000
-16.701529 -16.303331 -0.393947 1129 0.697975 0.716122 0.000000
-16.701878 -16.303680 -0.386793 1139 0.697975 0.716122 0.000000
-16.702280 -16.304071 -0.379629 1151 0.697975 0.716122 0.000000
-16.701935 -16.303738 -0.372452 1139 0.697975 0.716122 0.000000
-16.701078 -16.302895 -0.365260 1117 0.697975 0.716122 0.000000
-16.702251 -16.304049 -0.358119 1155 0.697975 0.716122 0.000000
-16.703745 -16.305508 -0.350984 1153 0.697975 0.716122 0.000000
-16.702993 -16.304768 -0.343791 1159 0.697975 0.716122 0.000000
-16.701799 -16.303608 -0.336603 1127 0.697975 0.716122 0.000000
-16.701517 -16.303326 -0.329425 1113 0.697975 0.716122 0.000000
-16.701899 -16.303699 -0.322261 1141 0.697975 0.716122 0.000000
-16.701591 -16.303411 -0.315094 1113 0.697975 0.716122 0.000000
-16.700670 -16.302504 -0.307903 1115 0.697975 0.716122 0.000000
-16.700792 -16.302624 -0.300742 1115 0.697975 0.716122 0.000000
-16.701172 -16.302998 -0.293578 1137 0.697975 0.716122 0.000000
-16.701077 -16.302910 -0.286408 1135 0.697975 0.716122 0.000000
-16.701605 -16.303419 -0.279243 1133 0.697975 0.716122 0.000000
-16.709000 -16.299822 -0.666546 1135 0.697975 0.716122 0.000000
-16.709238 -16.300066 -0.659383 1125 0.697975 0.716122 0.000000
-16.708759 -16.299595 -0.652188 1125 0.697975 0.716122 0.000000
-16.708214 -16.299063 -0.644993 1121 0.697975 0.716122 0.000000
-16.708414 -16.299261 -0.637831 1121 0.697975 0.716122 0.000000
-16.708652 -16.299492 -0.630668 1127 0.697975 0.716122 0.000000
-16.708115 -16.298969 -0.623473 1129 0.697975 0.716122 0.000000
-16.707714 -16.298590 -0.616287 1123 0.697975 0.716122 0.000000
-16.708380 -16.299227 -0.609131 1135 0.697975 0.716122 0.000000
-16.708309 -16.299160 -0.601961 1133 0.697975 0.716122 0.000000
-16.707239 -16.298117 -0.594751 1129 0.697975 0.716122 0.000000
-16.707722 -16.298601 -0.587596 1139 0.697975 0.716122 0.000000
-16.708220 -16.299086 -0.580441 1141 0.697975 0.716122 0.000000
-16.708504 -16.299355 -0.573278 1153 0.697975 0.716122 0.000000
-16.708897 -16.299740 -0.566114 1149 0.697975 0.716122 0.000000
-16.708439 -16.299295 -0.558929 1119 0.697975 0.716122 0.000000
-16.708405 -16.299259 -0.551749 1147 0.697975 0.716122 0.000000
-16.708893 -16.299738 -0.544594 1149 0.697975 0.716122 0.000000
-16.707542 -16.298420 -0.537387 1133 0.697975 0.716122 0.000000
-16.706770 -16.297676 -0.530184 1133 0.697975 0.716122 0.000000
-16.707718 -16.298601 -0.523045 1145 0.697975 0.716122 0.000000
-16.708044 -16.298916 -0.515881 1135 0.697975 0.716122 0.000000
-16.708151 -16.299023 -0.508710 1159 0.697975 0.716122 0.000000
-16.708372 -16.299240 -0.501548 1131 0.697975 0.716122 0.000000
-16.708216 -16.299088 -0.494369 1137 0.697975 0.716122 0.000000
-16.707958 -16.298838 -0.487192 1121 0.697975 0.716122 0.000000
-16.707651 -16.298536 -0.480014 1113 0.697975 0.716122 0.000000
-16.707071 -16.297979 -0.472830 1115 0.697975 0.716122 0.000000
-16.706963 -16.297867 -0.465651 1127 0.697975 0.716122 0.000000
-16.706959 -16.297869 -0.458480 1115 0.697975 0.716122 0.000000
-16.707949 -16.298841 -0.451341 1129 0.697975 0.716122 0.000000
-16.707781 -16.298668 -0.444162 1127 0.697975 0.716122 0.000000
-16.707087 -16.298002 -0.436979 1133 0.697975 0.716122 0.000000
-16.707817 -16.298706 -0.429822 1123 0.697975 0.716122 0.000000
-16.707859 -16.298748 -0.422661 1123 0.697975 0.716122 0.000000
-16.706799 -16.297726 -0.415461 1119 0.697975 0.716122 0.000000
-16.707521 -16.298424 -0.408304 1131 0.697975 0.716122 0.000000
-16.707815 -16.298714 -0.401141 1123 0.697975 0.716122 0.000000
-16.707268 -16.298183 -0.393966 1129 0.697975 0.716122 0.000000
-16.707352 -16.298271 -0.386795 1131 0.697975 0.716122 0.000000
-16.706757 -16.297688 -0.379610 1119 0.697975 0.716122 0.000000
-16.706320 -16.297262 -0.372435 1127 0.697975 0.716122 0.000000
-16.706131 -16.297085 -0.365256 1131 0.697975 0.716122 0.000000
-16.706745 -16.297678 -0.358100 1129 0.697975 0.716122 0.000000
-16.707972 -16.298876 -0.350958 1145 0.697975 0.716122 0.000000
-16.708103 -16.299002 -0.343797 1143 0.697975 0.716122 0.000000
-16.706861 -16.297791 -0.336598 1133 0.697975 0.716122 0.000000
-16.706728 -16.297670 -0.329430 1139 0.697975 0.716122 0.000000
-16.707005 -16.297932 -0.322267 1119 0.697975 0.716122 0.000000
-16.706964 -16.297903 -0.315097 1129 0.697975 0.716122 0.000000
-16.706465 -16.297415 -0.307912 1129 0.697975 0.716122 0.000000
-16.706532 -16.297474 -0.300751 1129 0.697975 0.716122 0.000000
-16.706911 -16.297848 -0.293587 1133 0.697975 0.716122 0.000000
-16.706129 -16.297085 -0.286404 1139 0.697975 0.716122 0.000000
-16.705568 -16.296543 -0.279229 1145 0.697975 0.716122 0.000000
-16.713274 -16.293648 -0.666517 1129 0.697975 0.716122 0.000000
-16.713318 -16.293690 -0.659347 1127 0.697975 0.716122 0.000000
-16.713673 -16.294031 -0.652183 1117 0.697975 0.716122 0.000000
-16.713026 -16.293402 -0.644979 1123 0.697975 0.716122 0.000000
-16.714161 -16.294512 -0.637858 1155 0.697975 0.716122 0.000000
-16.714882 -16.295210 -0.630711 1159 0.697975 0.716122 0.000000
-16.714548 -16.294893 -0.623524 1143 0.697975 0.716122 0.000000
-16.713577 -16.293947 -0.616313 1119 0.697975 0.716122 0.000000
-16.712610 -16.293003 -0.609102 1115 0.697975 0.716122 0.000000
-16.713427 -16.293804 -0.601964 1127 0.697975 0.716122 0.000000
-16.713976 -16.294333 -0.594809 1131 0.697975 0.716122 0.000000
-16.713381 -16.293751 -0.587614 1127 0.697975 0.716122 0.000000
-16.713295 -16.293669 -0.580435 1135 0.697975 0.716122 0.000000
-16.713682 -16.294050 -0.573281 1141 0.697975 0.716122 0.000000
-16.713648 -16.294027 -0.566101 1131 0.697975 0.716122 0.000000
-16.713726 -16.294096 -0.558930 1117 0.697975 0.716122 0.000000
-16.713793 -16.294157 -0.551759 1135 0.697975 0.716122 0.000000
-16.713493 -16.293873 -0.544582 1141 0.697975 0.716122 0.000000
-16.713135 -16.293526 -0.537395 1157 0.697975 0.716122 0.000000
-16.712835 -16.293230 -0.530218 1157 0.697975 0.716122 0.000000
-16.712849 -16.293245 -0.523048 1167 0.697975 0.716122 0.000000
-16.713440 -16.293819 -0.515892 1157 0.697975 0.716122 0.000000
-16.712448 -16.292854 -0.508691 1137 0.697975 0.716122 0.000000
-16.712236 -16.292658 -0.501513 1145 0.697975 0.716122 0.000000
-16.713139 -16.293531 -0.494364 1141 0.697975 0.716122 0.000000
-16.712925 -16.293333 -0.487196 1127 0.697975 0.716122 0.000000
-16.713140 -16.293543 -0.480024 1131 0.697975 0.716122 0.000000
-16.713661 -16.294046 -0.472869 1139 0.697975 0.716122 0.000000
-16.712973 -16.293373 -0.465685 1131 0.697975 0.716122 0.000000
-16.711920 -16.292358 -0.458485 1121 0.697975 0.716122 0.000000
-16.711449 -16.291893 -0.451300 1127 0.697975 0.716122 0.000000
-16.711760 -16.292194 -0.444136 1127 0.697975 0.716122 0.000000
-16.712639 -16.293062 -0.436988 1137 0.697975 0.716122 0.000000
-16.712847 -16.293253 -0.429826 1149 0.697975 0.716122 0.000000
-16.712307 -16.292730 -0.422641 1145 0.697975 0.716122 0.000000
-16.712498 -16.292921 -0.415479 1137 0.697975 0.716122 0.000000
-16.712584 -16.293011 -0.408307 1115 0.697975 0.716122 0.000000
-16.712729 -16.293150 -0.401146 1143 0.697975 0.716122 0.000000
-16.712555 -16.292984 -0.393967 1137 0.697975 0.716122 0.000000
-16.712172 -16.292601 -0.386791 1127 0.697975 0.716122 0.000000
-16.712561 -16.292995 -0.379627 1123 0.697975 0.716122 0.000000
-16.712385 -16.292814 -0.372459 1113 0.697975 0.716122 0.000000
-16.711575 -16.292027 -0.365266 1111 0.697975 0.716122 0.000000
-16.711710 -16.292158 -0.358105 1139 0.697975 0.716122 0.000000
-16.712309 -16.292753 -0.350949 1131 0.697975 0.716122 0.000000
-16.712332 -16.292776 -0.343778 1123 0.697975 0.716122 0.000000
-16.712250 -16.292686 -0.336609 1131 0.697975 0.716122 0.000000
-16.712318 -16.292763 -0.329438 1125 0.697975 0.716122 0.000000
-16.712175 -16.292622 -0.322269 1121 0.697975 0.716122 0.000000
-16.711412 -16.291885 -0.315086 1111 0.697975 0.716122 0.000000
-16.711065 -16.291536 -0.307910 1109 0.697975 0.716122 0.000000
-16.711601 -16.292067 -0.300744 1113 0.697975 0.716122 0.000000
-16.711668 -16.292128 -0.293584 1131 0.697975 0.716122 0.000000
-16.711363 -16.291840 -0.286406 1137 0.697975 0.716122 0.000000
-16.711790 -16.292252 -0.279242 1127 0.697975 0.716122 0.000000
-16.720514 -16.290728 -0.666608 1123 0.697975 0.716122 0.000000
-16.720085 -16.290323 -0.659412 1139 0.697975 0.716122 0.000000
-16.719334 -16.289585 -0.652209 1135 0.697975 0.716122 0.000000
-16.718742 -16.289017 -0.645014 1127 0.697975 0.716122 0.000000
-16.718731 -16.288998 -0.637844 1129 0.697975 0.716122 0.000000
-16.719439 -16.289696 -0.630697 1135 0.697975 0.716122 0.000000
-16.719000 -16.289270 -0.623501 1131 0.697975 0.716122 0.000000
-16.718084 -16.288370 -0.616300 1123 0.697975 0.716122 0.000000
-16.719120 -16.289381 -0.609160 1133 0.697975 0.716122 0.000000
-16.719353 -16.289604 -0.601998 1125 0.697975 0.716122 0.000000
-16.717854 -16.288153 -0.594772 1121 0.697975 0.716122 0.000000
-16.718094 -16.288383 -0.587609 1109 0.697975 0.716122 0.000000
-16.718271 -16.288563 -0.580437 1115 0.697975 0.716122 0.000000
-16.717459 -16.287773 -0.573235 1109 0.697975 0.716122 0.000000
-16.717363 -16.287685 -0.566066 1109 0.697975 0.716122 0.000000
-16.717712 -16.288019 -0.558902 1115 0.697975 0.716122 0.000000
-16.718512 -16.288795 -0.551754 1135 0.697975 0.716122 0.000000
-16.718361 -16.288662 -0.544576 1129 0.697975 0.716122 0.000000
-16.717541 -16.287851 -0.537383 1127 0.697975 0.716122 0.000000
-16.717968 -16.288279 -0.530219 1133 0.697975 0.716122 0.000000
-16.718719 -16.289001 -0.523072 1153 0.697975 0.716122 0.000000
-16.719139 -16.289421 -0.515917 1159 0.697975 0.716122 0.000000
-16.718779 -16.289072 -0.508731 1135 0.697975 0.716122 0.000000
-16.717957 -16.288261 -0.501539 1139 0.697975 0.716122 0.000000
-16.717848 -16.288162 -0.494359 1119 0.697975 0.716122 0.000000
-16.717955 -16.288269 -0.487198 1119 0.697975 0.716122 0.000000
-16.718061 -16.288376 -0.480027 1125 0.697975 0.716122 0.000000
-16.717850 -16.288166 -0.472849 1129 0.697975 0.716122 0.000000
-16.718174 -16.288479 -0.465686 1131 0.697975 0.716122 0.000000
-16.718958 -16.289244 -0.458538 1145 0.697975 0.716122 0.000000
-16.718256 -16.288570 -0.451354 1133 0.697975 0.716122 0.000000
-16.718512 -16.288815 -0.444182 1135 0.697975 0.716122 0.000000
-16.718195 -16.288504 -0.437005 1145 0.697975 0.716122 0.000000
-16.717558 -16.287884 -0.429821 1151 0.697975 0.716122 0.000000
-16.717602 -16.287928 -0.422650 1135 0.697975 0.716122 0.000000
-16.717793 -16.288118 -0.415488 1107 0.697975 0.716122 0.000000
-16.717987 -16.288309 -0.408316 1121 0.697975 0.716122 0.000000
-16.717915 -16.288242 -0.401146 1123 0.697975 0.716122 0.000000
-16.718214 -16.288536 -0.393983 1123 0.697975 0.716122 0.000000
-16.718456 -16.288767 -0.386821 1123 0.697975 0.716122 0.000000
-16.717855 -16.288191 -0.379636 1131 0.697975 0.716122 0.000000
-16.716892 -16.287252 -0.372446 1127 0.697975 0.716122 0.000000
-16.716925 -16.287281 -0.365275 1119 0.697975 0.716122 0.000000
-16.717466 -16.287817 -0.358120 1125 0.697975 0.716122 0.000000
-16.718336 -16.288666 -0.350971 1127 0.697975 0.716122 0.000000
-16.717829 -16.288168 -0.343786 1125 0.697975 0.716122 0.000000
-16.716860 -16.287222 -0.336605 1107 0.697975 0.716122 0.000000
-16.717138 -16.287498 -0.329432 1129 0.697975 0.716122 0.000000
-16.717113 -16.287468 -0.322272 1125 0.697975 0.716122 0.000000
-16.718334 -16.288660 -0.315120 1119 0.697975 0.716122 0.000000
-16.718664 -16.288980 -0.307957 1129 0.697975 0.716122 0.000000
-16.717520 -16.287874 -0.300768 1125 0.697975 0.716122 0.000000
-16.717066 -16.287437 -0.293592 1111 0.697975 0.716122 0.000000
-16.717281 -16.287647 -0.286430 1137 0.697975 0.716122 0.000000
-16.717825 -16.288170 -0.279264 1107 0.697975 0.716122 0.000000
-16.723810 -16.283997 -0.666547 1121 0.697975 0.716122 0.000000
-16.725216 -16.285357 -0.659423 1115 0.697975 0.716122 0.000000
-16.725355 -16.285503 -0.652251 1113 0.697975 0.716122 0.000000
-16.724247 -16.284414 -0.645032 1111 0.697975 0.716122 0.000000
-16.723848 -16.284033 -0.637846 1113 0.697975 0.716122 0.000000
-16.724049 -16.284231 -0.630683 1117 0.697975 0.716122 0.000000
-16.723923 -16.284103 -0.623504 1125 0.697975 0.716122 0.000000
-16.724167 -16.284340 -0.616342 1127 0.697975 0.716122 0.000000
-16.723877 -16.284065 -0.609155 1133 0.697975 0.716122 0.000000
-16.723175 -16.283379 -0.601961 1129 0.697975 0.716122 0.000000
-16.723726 -16.283922 -0.594806 1111 0.697975 0.716122 0.000000
-16.723965 -16.284151 -0.587643 1119 0.697975 0.716122 0.000000
-16.723192 -16.283407 -0.580440 1117 0.697975 0.716122 0.000000
-16.723269 -16.283476 -0.573270 1115 0.697975 0.716122 0.000000
-16.724028 -16.284220 -0.566122 1113 0.697975 0.716122 0.000000
-16.724401 -16.284588 -0.558958 1123 0.697975 0.716122 0.000000
-16.723900 -16.284096 -0.551773 1129 0.697975 0.716122 0.000000
-16.723969 -16.284159 -0.544602 1129 0.697975 0.716122 0.000000
-16.724138 -16.284330 -0.537440 1121 0.697975 0.716122 0.000000
-16.724096 -16.284286 -0.530261 1127 0.697975 0.716122 0.000000
-16.724264 -16.284460 -0.523099 1121 0.697975 0.716122 0.000000
-16.724482 -16.284670 -0.515926 1119 0.697975 0.716122 0.000000
-16.724129 -16.284328 -0.508750 1145 0.697975 0.716122 0.000000
-16.723495 -16.283714 -0.501556 1139 0.697975 0.716122 0.000000
-16.723137 -16.283365 -0.494379 1141 0.697975 0.716122 0.000000
-16.723249 -16.283466 -0.487208 1139 0.697975 0.716122 0.000000
-16.723513 -16.283730 -0.480045 1131 0.697975 0.716122 0.000000
-16.723932 -16.284134 -0.472881 1131 0.697975 0.716122 0.000000
-16.724241 -16.284437 -0.465718 1147 0.697975 0.716122 0.000000
-16.723656 -16.283876 -0.458533 1133 0.697975 0.716122 0.000000
-16.722719 -16.282955 -0.451342 1113 0.697975 0.716122 0.000000
-16.722912 -16.283148 -0.444170 1113 0.697975 0.716122 0.000000
-16.723850 -16.284067 -0.437031 1119 0.697975 0.716122 0.000000
-16.723997 -16.284206 -0.429859 1123 0.697975 0.716122 0.000000
-16.723356 -16.283587 -0.422675 1135 0.697975 0.716122 0.000000
-16.722506 -16.282764 -0.415483 1115 0.697975 0.716122 0.000000
-16.722380 -16.282637 -0.408304 1123 0.697975 0.716122 0.000000
-16.723412 -16.283648 -0.401164 1119 0.697975 0.716122 0.000000
-16.723869 -16.284084 -0.393999 1133 0.697975 0.716122 0.000000
-16.722963 -16.283205 -0.386808 1133 0.697975 0.716122 0.000000
-16.722246 -16.282518 -0.379625 1119 0.697975 0.716122 0.000000
-16.722555 -16.282806 -0.372461 1127 0.697975 0.716122 0.000000
-16.723263 -16.283504 -0.365314 1119 0.697975 0.716122 0.000000
-16.723236 -16.283474 -0.358145 1117 0.697975 0.716122 0.000000
-16.722525 -16.282782 -0.350951 1119 0.697975 0.716122 0.000000
-16.722805 -16.283060 -0.343788 1125 0.697975 0.716122 0.000000
-16.722412 -16.282686 -0.336612 1123 0.697975 0.716122 0.000000
-16.722013 -16.282293 -0.329436 1121 0.697975 0.716122 0.000000
-16.722401 -16.282673 -0.322272 1111 0.697975 0.716122 0.000000
-16.722204 -16.282488 -0.315103 1137 0.697975 0.716122 0.000000
-16.721952 -16.282244 -0.307926 1129 0.697975 0.716122 0.000000
-16.722185 -16.282469 -0.300763 1121 0.697975 0.716122 0.000000
-16.723085 -16.283340 -0.293614 1119 0.697975 0.716122 0.000000
-16.722988 -16.283253 -0.286445 1127 0.697975 0.716122 0.000000
-16.721798 -16.282093 -0.279256 1131 0.697975 0.716122 0.000000
-16.729137 -16.278843 -0.666548 1115 0.697975 0.716122 0.000000
-16.729126 -16.278826 -0.659378 1105 0.697975 0.716122 0.000000
-16.729107 -16.278816 -0.652198 1107 0.697975 0.716122 0.000000
-16.729364 -16.279058 -0.645035 1103 0.697975 0.716122 0.000000
-16.729136 -16.278833 -0.637857 1103 0.697975 0.716122 0.000000
-16.729164 -16.278875 -0.630687 1109 0.697975 0.716122 0.000000
-16.729980 -16.279665 -0.623538 1125 0.697975 0.716122 0.000000
-16.729542 -16.279240 -0.616353 1139 0.697975 0.716122 0.000000
-16.729361 -16.279066 -0.609174 1103 0.697975 0.716122 0.000000
-16.729548 -16.279253 -0.602002 1121 0.697975 0.716122 0.000000
-16.728624 -16.278345 -0.594801 1117 0.697975 0.716122 0.000000
-16.728340 -16.278074 -0.587613 1109 0.697975 0.716122 0.000000
-16.729151 -16.278858 -0.580465 1123 0.697975 0.716122 0.000000
-16.729748 -16.279453 -0.573319 1121 0.697975 0.716122 0.000000
-16.728825 -16.278545 -0.566108 1121 0.697975 0.716122 0.000000
-16.727367 -16.277140 -0.558892 1103 0.697975 0.716122 0.000000
-16.727911 -16.277662 -0.551737 1123 0.697975 0.716122 0.000000
-16.728142 -16.277887 -0.544574 1113 0.697975 0.716122 0.000000
-16.728205 -16.277954 -0.537403 1113 0.697975 0.716122 0.000000
-16.729105 -16.278828 -0.530265 1117 0.697975 0.716122 0.000000
-16.729071 -16.278791 -0.523085 1115 0.697975 0.716122 0.000000
-16.729233 -16.278959 -0.515923 1125 0.697975 0.716122 0.000000
-16.729610 -16.279318 -0.508759 1141 0.697975 0.716122 0.000000
-16.729088 -16.278820 -0.501574 1121 0.697975 0.716122 0.000000
-16.729202 -16.278919 -0.494403 1123 0.697975 0.716122 0.000000
-16.728998 -16.278727 -0.487225 1131 0.697975 0.716122 0.000000
-16.729197 -16.278925 -0.480062 1137 0.697975 0.716122 0.000000
-16.728830 -16.278572 -0.472876 1135 0.697975 0.716122 0.000000
-16.727884 -16.277645 -0.465685 1137 0.697975 0.716122 0.000000
-16.728033 -16.277800 -0.458513 1139 0.697975 0.716122 0.000000
-16.728403 -16.278152 -0.451359 1125 0.697975 0.716122 0.000000
-16.728712 -16.278454 -0.444196 1125 0.697975 0.716122 0.000000
-16.728703 -16.278452 -0.437026 1121 0.697975 0.716122 0.000000
-16.728748 -16.278494 -0.429856 1121 0.697975 0.716122 0.000000
-16.728729 -16.278482 -0.422686 1109 0.697975 0.716122 0.000000
-16.728874 -16.278622 -0.415514 1123 0.697975 0.716122 0.000000
-16.729233 -16.278963 -0.408350 1135 0.697975 0.716122 0.000000
-16.728474 -16.278233 -0.401168 1113 0.697975 0.716122 0.000000
-16.728098 -16.277872 -0.393981 1107 0.697975 0.716122 0.000000
-16.728758 -16.278505 -0.386834 1117 0.697975 0.716122 0.000000
-16.728210 -16.277975 -0.379650 1121 0.697975 0.716122 0.000000
-16.727406 -16.277191 -0.372457 1127 0.697975 0.716122 0.000000
-16.727694 -16.277473 -0.365294 1117 0.697975 0.716122 0.000000
-16.728245 -16.278017 -0.358139 1129 0.697975 0.716122 0.000000
-16.728523 -16.278294 -0.350976 1121 0.697975 0.716122 0.000000
-16.728289 -16.278061 -0.343798 1121 0.697975 0.716122 0.000000
-16.728003 -16.277779 -0.336621 1137 0.697975 0.716122 0.000000
-16.727917 -16.277697 -0.329451 1119 0.697975 0.716122 0.000000
-16.727253 -16.277058 -0.322277 1111 0.697975 0.716122 0.000000
-16.727999 -16.277788 -0.315120 1105 0.697975 0.716122 0.000000
-16.728548 -16.278318 -0.307955 1113 0.697975 0.716122 0.000000
-16.728556 -16.278326 -0.300794 1117 0.697975 0.716122 0.000000
-16.728304 -16.278084 -0.293617 1113 0.697975 0.716122 0.000000
-16.727320 -16.277124 -0.286426 1115 0.697975 0.716122 0.000000
-16.727753 -16.277542 -0.279272 1111 0.697975 0.716122 0.000000
-16.734720 -16.273928 -0.666566 1101 0.697975 0.716122 0.000000
-16.734812 -16.274023 -0.659395 1103 0.697975 0.716122 0.000000
-16.734907 -16.274109 -0.652224 1117 0.697975 0.716122 0.000000
-16.734737 -16.273943 -0.645046 1125 0.697975 0.716122 0.000000
-16.735247 -16.274439 -0.637891 1107 0.697975 0.716122 0.000000
-16.735432 -16.274626 -0.630729 1107 0.697975 0.716122 0.000000
-16.735470 -16.274660 -0.623558 1125 0.697975 0.716122 0.000000
-16.734814 -16.274025 -0.616354 1121 0.697975 0.716122 0.000000
-16.733791 -16.273035 -0.609144 1097 0.697975 0.716122 0.000000
-16.733713 -16.272961 -0.601964 1101 0.697975 0.716122 0.000000
-16.733274 -16.272535 -0.594778 1113 0.697975 0.716122 0.000000
-16.733715 -16.272961 -0.587624 1091 0.697975 0.716122 0.000000
-16.734735 -16.273958 -0.580484 1113 0.697975 0.716122 0.000000
-16.734659 -16.273874 -0.573315 1111 0.697975 0.716122 0.000000
-16.734884 -16.274105 -0.566142 1115 0.697975 0.716122 0.000000
-16.734587 -16.273809 -0.558965 1137 0.697975 0.716122 0.000000
-16.733976 -16.273216 -0.551771 1111 0.697975 0.716122 0.000000
-16.733889 -16.273134 -0.544591 1117 0.697975 0.716122 0.000000
-16.734011 -16.273254 -0.537430 1101 0.697975 0.716122 0.000000
-16.734072 -16.273310 -0.530259 1101 0.697975 0.716122 0.000000
-16.734390 -16.273632 -0.523096 1123 0.697975 0.716122 0.000000
-16.734247 -16.273491 -0.515917 1111 0.697975 0.716122 0.000000
-16.734673 -16.273903 -0.508763 1107 0.697975 0.716122 0.000000
-16.735199 -16.274414 -0.501608 1135 0.697975 0.716122 0.000000
-16.734421 -16.273663 -0.494405 1121 0.697975 0.716122 0.000000
-16.733639 -16.272898 -0.487212 1131 0.697975 0.716122 0.000000
-16.733589 -16.272848 -0.480043 1119 0.697975 0.716122 0.000000
-16.733847 -16.273106 -0.472880 1129 0.697975 0.716122 0.000000
-16.733530 -16.272797 -0.465703 1121 0.697975 0.716122 0.000000
-16.733521 -16.272793 -0.458523 1125 0.697975 0.716122 0.000000
-16.733784 -16.273043 -0.451360 1123 0.697975 0.716122 0.000000
-16.734404 -16.273643 -0.444204 1135 0.697975 0.716122 0.000000
-16.734652 -16.273893 -0.437041 1131 0.697975 0.716122 0.000000
-16.734230 -16.273481 -0.429865 1129 0.697975 0.716122 0.000000
-16.733162 -16.272451 -0.422665 1111 0.697975 0.716122 0.000000
-16.732893 -16.272181 -0.415488 1111 0.697975 0.716122 0.000000
-16.733982 -16.273251 -0.408347 1119 0.697975 0.716122 0.000000
-16.734182 -16.273434 -0.401175 1127 0.697975 0.716122 0.000000
-16.734047 -16.273315 -0.394006 1133 0.697975 0.716122 0.000000
-16.733719 -16.272993 -0.386829 1113 0.697975 0.716122 0.000000
-16.734114 -16.273380 -0.379665 1119 0.697975 0.716122 0.000000
-16.734882 -16.274130 -0.372518 1121 0.697975 0.716122 0.000000
-16.734327 -16.273592 -0.365333 1125 0.697975 0.716122 0.000000
-16.733616 -16.272900 -0.358149 1109 0.697975 0.716122 0.000000
-16.733809 -16.273079 -0.350977 1103 0.697975 0.716122 0.000000
-16.733879 -16.273153 -0.343817 1099 0.697975 0.716122 0.000000
-16.734165 -16.273436 -0.336644 1107 0.697975 0.716122 0.000000
-16.733662 -16.272945 -0.329468 1099 0.697975 0.716122 0.000000
-16.733576 -16.272863 -0.322299 1117 0.697975 0.716122 0.000000
-16.734016 -16.273289 -0.315134 1109 0.697975 0.716122 0.000000
-16.733601 -16.272896 -0.307958 1119 0.697975 0.716122 0.000000
-16.733259 -16.272562 -0.300781 1129 0.697975 0.716122 0.000000
-16.733582 -16.272877 -0.293618 1117 0.697975 0.716122 0.000000
-16.734064 -16.273348 -0.286463 1121 0.697975 0.716122 0.000000
-16.733446 -16.272747 -0.279279 1099 0.697975 0.716122 0.000000
