191
-27.991585 -26.295706 -0.662560 355 0.742323 0.670042 0.000000
-27.992895 -26.296942 -0.650797 287 0.742323 0.670042 0.000000
-27.992565 -26.296635 -0.638990 363 0.742323 0.670042 0.000000
-27.992645 -26.296711 -0.627199 327 0.742323 0.670042 0.000000
-27.996586 -26.300409 -0.615482 353 0.742323 0.670042 0.000000
-27.998625 -26.302328 -0.603722 371 0.742323 0.670042 0.000000
-27.997429 -26.301210 -0.591903 413 0.742323 0.670042 0.000000
-27.990843 -26.295017 -0.579965 373 0.742323 0.670042 0.000000
-27.991976 -26.296080 -0.568194 379 0.742323 0.670042 0.000000
-27.994223 -26.298195 -0.556442 381 0.742323 0.670042 0.000000
-27.997234 -26.301022 -0.544704 427 0.742323 0.670042 0.000000
-27.997780 -26.301542 -0.532908 417 0.742323 0.670042 0.000000
-27.996080 -26.299936 -0.521084 405 0.742323 0.670042 0.000000
-27.996616 -26.300449 -0.509289 383 0.742323 0.670042 0.000000
-27.991388 -26.295530 -0.497408 419 0.742323 0.670042 0.000000
-27.987814 -26.292177 -0.485551 397 0.742323 0.670042 0.000000
-27.990856 -26.295031 -0.473802 461 0.742323 0.670042 0.000000
-27.993301 -26.297331 -0.462049 417 0.742323 0.670042 0.000000
-28.000818 -26.304398 -0.450368 365 0.742323 0.670042 0.000000
-27.999584 -26.303236 -0.438549 365 0.742323 0.670042 0.000000
-27.988045 -26.292398 -0.426577 419 0.742323 0.670042 0.000000
-27.992779 -26.296850 -0.414852 331 0.742323 0.670042 0.000000
-27.992235 -26.296328 -0.403047 395 0.742323 0.670042 0.000000
-27.989918 -26.294155 -0.391229 373 0.742323 0.670042 0.000000
-27.995548 -26.299450 -0.379506 403 0.742323 0.670042 0.000000
-27.990879 -26.295065 -0.367649 395 0.742323 0.670042 0.000000
-27.991436 -26.295582 -0.355864 411 0.742323 0.670042 0.000000
-27.994183 -26.298166 -0.344098 409 0.742323 0.670042 0.000000
-27.994095 -26.298080 -0.332298 371 0.742323 0.670042 0.000000
-27.997791 -26.301558 -0.320543 411 0.742323 0.670042 0.000000
-27.996204 -26.300068 -0.308728 413 0.742323 0.670042 0.000000
-27.992432 -26.296528 -0.296893 407 0.742323 0.670042 0.000000
-28.007931 -26.294025 -0.662752 357 0.742323 0.670042 0.000000
-28.006802 -26.292961 -0.650922 387 0.742323 0.670042 0.000000
-28.009331 -26.295343 -0.639178 351 0.742323 0.670042 0.000000
-28.008030 -26.294127 -0.627350 395 0.742323 0.670042 0.000000
-28.002258 -26.288702 -0.615424 353 0.742323 0.670042 0.000000
-28.005592 -26.291828 -0.603702 411 0.742323 0.670042 0.000000
-28.006035 -26.292252 -0.591908 381 0.742323 0.670042 0.000000
-27.999233 -26.285873 -0.579971 379 0.742323 0.670042 0.000000
-28.002562 -26.288994 -0.568240 357 0.742323 0.670042 0.000000
-28.007269 -26.293411 -0.556535 341 0.742323 0.670042 0.000000
-28.004660 -26.290960 -0.544689 359 0.742323 0.670042 0.000000
-28.000511 -26.287062 -0.532808 341 0.742323 0.670042 0.000000
-27.991613 -26.278713 -0.520851 329 0.742323 0.670042 0.000000
-27.998335 -26.285028 -0.509178 285 0.742323 0.670042 0.000000
-28.010025 -26.296000 -0.497588 385 0.742323 0.670042 0.000000
-28.008589 -26.294645 -0.485761 385 0.742323 0.670042 0.000000
-28.011095 -26.296997 -0.474007 435 0.742323 0.670042 0.000000
-28.007950 -26.294046 -0.462157 419 0.742323 0.670042 0.000000
-28.002817 -26.289232 -0.450275 409 0.742323 0.670042 0.000000
-28.007332 -26.293476 -0.438542 397 0.742323 0.670042 0.000000
-28.011492 -26.297380 -0.426803 369 0.742323 0.670042 0.000000
-28.002823 -26.289244 -0.414884 415 0.742323 0.670042 0.000000
-28.001156 -26.287678 -0.403059 441 0.742323 0.670042 0.000000
-28.002258 -26.288717 -0.391278 361 0.742323 0.670042 0.000000
-27.998335 -26.285028 -0.379435 379 0.742323 0.670042 0.000000
-28.000937 -26.287470 -0.367670 379 0.742323 0.670042 0.000000
-27.999292 -26.285923 -0.355855 361 0.742323 0.670042 0.000000
-28.001394 -26.287905 -0.344085 317 0.742323 0.670042 0.000000
-28.000782 -26.287327 -0.332281 323 0.742323 0.670042 0.000000
-28.000414 -26.286987 -0.320484 353 0.742323 0.670042 0.000000
-28.002724 -26.289152 -0.308712 385 0.742323 0.670042 0.000000
-28.001894 -26.288372 -0.296910 327 0.742323 0.670042 0.000000
-28.015162 -26.283443 -0.662721 323 0.742323 0.670042 0.000000
-28.007885 -26.276621 -0.650759 319 0.742323 0.670042 0.000000
-28.008871 -26.277544 -0.638979 341 0.742323 0.670042 0.000000
-28.010172 -26.278769 -0.615416 347 0.742323 0.670042 0.000000
-28.010149 -26.278748 -0.603616 383 0.742323 0.670042 0.000000
-28.006903 -26.275702 -0.591756 379 0.742323 0.670042 0.000000
-28.009539 -26.278170 -0.580011 403 0.742323 0.670042 0.000000
-28.007582 -26.276342 -0.568169 415 0.742323 0.670042 0.000000
-28.008402 -26.277113 -0.556392 385 0.742323 0.670042 0.000000
-28.010878 -26.279425 -0.544648 371 0.742323 0.670042 0.000000
-28.012386 -26.280846 -0.532874 387 0.742323 0.670042 0.000000
-28.007750 -26.276499 -0.520997 341 0.742323 0.670042 0.000000
-28.001398 -26.270536 -0.509086 363 0.742323 0.670042 0.000000
-28.006903 -26.275703 -0.497384 325 0.742323 0.670042 0.000000
-28.010313 -26.278908 -0.485652 381 0.742323 0.670042 0.000000
-28.014103 -26.282461 -0.473916 389 0.742323 0.670042 0.000000
-28.019175 -26.287222 -0.462198 377 0.742323 0.670042 0.000000
-28.018482 -26.286568 -0.450385 377 0.742323 0.670042 0.000000
-28.015905 -26.284157 -0.438548 395 0.742323 0.670042 0.000000
-28.013220 -26.281631 -0.426713 425 0.742323 0.670042 0.000000
-28.012230 -26.280708 -0.414902 363 0.742323 0.670042 0.000000
-28.008587 -26.277288 -0.403046 359 0.742323 0.670042 0.000000
-28.004942 -26.273863 -0.391210 395 0.742323 0.670042 0.000000
-28.007421 -26.276192 -0.379447 377 0.742323 0.670042 0.000000
-28.010862 -26.279421 -0.367694 359 0.742323 0.670042 0.000000
-28.011627 -26.280148 -0.355907 339 0.742323 0.670042 0.000000
-28.013952 -26.282324 -0.344135 295 0.742323 0.670042 0.000000
-28.014095 -26.282452 -0.332343 373 0.742323 0.670042 0.000000
-28.016289 -26.284523 -0.320572 355 0.742323 0.670042 0.000000
-28.013742 -26.282124 -0.308746 321 0.742323 0.670042 0.000000
-28.011826 -26.280327 -0.296933 353 0.742323 0.670042 0.000000
-28.015984 -26.267487 -0.662557 371 0.742323 0.670042 0.000000
-28.019537 -26.270821 -0.650833 331 0.742323 0.670042 0.000000
-28.023949 -26.274956 -0.639141 383 0.742323 0.670042 0.000000
-28.017944 -26.269327 -0.627207 361 0.742323 0.670042 0.000000
-28.021929 -26.273062 -0.615490 345 0.742323 0.670042 0.000000
-28.019718 -26.271000 -0.603650 369 0.742323 0.670042 0.000000
-28.019897 -26.271158 -0.591858 367 0.742323 0.670042 0.000000
-28.022114 -26.273233 -0.580097 409 0.742323 0.670042 0.000000
-28.016842 -26.268291 -0.568196 347 0.742323 0.670042 0.000000
-28.020489 -26.271713 -0.556472 371 0.742323 0.670042 0.000000
-28.018099 -26.269482 -0.544624 389 0.742323 0.670042 0.000000
-28.017157 -26.268597 -0.532813 413 0.742323 0.670042 0.000000
-28.021591 -26.272751 -0.521101 383 0.742323 0.670042 0.000000
-28.019249 -26.270557 -0.509262 327 0.742323 0.670042 0.000000
-28.014338 -26.265947 -0.497378 407 0.742323 0.670042 0.000000
-28.018072 -26.269453 -0.485643 371 0.742323 0.670042 0.000000
-28.020636 -26.271866 -0.473889 353 0.742323 0.670042 0.000000
-28.023668 -26.274696 -0.462140 361 0.742323 0.670042 0.000000
-28.025902 -26.276798 -0.450379 335 0.742323 0.670042 0.000000
-28.018206 -26.269587 -0.438461 351 0.742323 0.670042 0.000000
-28.016920 -26.268379 -0.426642 297 0.742323 0.670042 0.000000
-28.017595 -26.269009 -0.414866 411 0.742323 0.670042 0.000000
-28.019815 -26.271099 -0.403095 401 0.742323 0.670042 0.000000
-28.018196 -26.269571 -0.391280 359 0.742323 0.670042 0.000000
-28.015720 -26.267258 -0.379452 381 0.742323 0.670042 0.000000
-28.018360 -26.269730 -0.367687 337 0.742323 0.670042 0.000000
-28.021593 -26.272762 -0.355937 351 0.742323 0.670042 0.000000
-28.018362 -26.269728 -0.344097 355 0.742323 0.670042 0.000000
-28.017042 -26.268497 -0.332289 333 0.742323 0.670042 0.000000
-28.016846 -26.268309 -0.320490 387 0.742323 0.670042 0.000000
-28.016802 -26.268272 -0.308691 389 0.742323 0.670042 0.000000
-28.022585 -26.273693 -0.296956 361 0.742323 0.670042 0.000000
-28.025057 -26.259283 -0.662575 313 0.742323 0.670042 0.000000
-28.026211 -26.260366 -0.650804 281 0.742323 0.670042 0.000000
-28.031284 -26.265116 -0.639116 297 0.742323 0.670042 0.000000
-28.024731 -26.258987 -0.627177 271 0.742323 0.670042 0.000000
-28.021515 -26.255964 -0.615307 335 0.742323 0.670042 0.000000
-28.026987 -26.261095 -0.603636 341 0.742323 0.670042 0.000000
-28.034271 -26.267921 -0.591987 359 0.742323 0.670042 0.000000
-28.035995 -26.269547 -0.580221 389 0.742323 0.670042 0.000000
-28.033298 -26.267010 -0.568366 355 0.742323 0.670042 0.000000
-28.034700 -26.268333 -0.556592 365 0.742323 0.670042 0.000000
-28.031998 -26.265791 -0.544737 387 0.742323 0.670042 0.000000
-28.028751 -26.262758 -0.532878 447 0.742323 0.670042 0.000000
-28.024744 -26.259003 -0.521015 409 0.742323 0.670042 0.000000
-28.025175 -26.259403 -0.509221 377 0.742323 0.670042 0.000000
-28.027206 -26.261301 -0.497461 407 0.742323 0.670042 0.000000
-28.028753 -26.262754 -0.485686 389 0.742323 0.670042 0.000000
-28.027159 -26.261261 -0.473871 379 0.742323 0.670042 0.000000
-28.027269 -26.261362 -0.462070 385 0.742323 0.670042 0.000000
-28.033339 -26.267057 -0.450373 389 0.742323 0.670042 0.000000
-28.040861 -26.274101 -0.438682 375 0.742323 0.670042 0.000000
-28.038071 -26.271492 -0.426838 417 0.742323 0.670042 0.000000
-28.029142 -26.263119 -0.414911 373 0.742323 0.670042 0.000000
-28.025709 -26.259907 -0.403073 357 0.742323 0.670042 0.000000
-28.028673 -26.262680 -0.391315 369 0.742323 0.670042 0.000000
-28.026617 -26.260759 -0.379494 371 0.742323 0.670042 0.000000
-28.025312 -26.259541 -0.367676 381 0.742323 0.670042 0.000000
-28.032015 -26.265814 -0.355963 363 0.742323 0.670042 0.000000
-28.032307 -26.266088 -0.344170 387 0.742323 0.670042 0.000000
-28.030987 -26.264858 -0.332352 389 0.742323 0.670042 0.000000
-28.028856 -26.262863 -0.320532 415 0.742323 0.670042 0.000000
-28.030813 -26.264688 -0.308763 391 0.742323 0.670042 0.000000
-28.031460 -26.265291 -0.296967 363 0.742323 0.670042 0.000000
-28.042326 -26.258739 -0.662787 295 0.742323 0.670042 0.000000
-28.034662 -26.251566 -0.650809 395 0.742323 0.670042 0.000000
-28.032196 -26.249258 -0.638961 325 0.742323 0.670042 0.000000
-28.028479 -26.245775 -0.627086 311 0.742323 0.670042 0.000000
-28.033052 -26.250057 -0.615383 315 0.742323 0.670042 0.000000
-28.042273 -26.258690 -0.603786 367 0.742323 0.670042 0.000000
-28.041338 -26.257826 -0.591965 343 0.742323 0.670042 0.000000
-28.032276 -26.249331 -0.579979 383 0.742323 0.670042 0.000000
-28.036411 -26.253201 -0.568270 325 0.742323 0.670042 0.000000
-28.043526 -26.259876 -0.556603 359 0.742323 0.670042 0.000000
-28.040068 -26.256630 -0.544736 361 0.742323 0.670042 0.000000
-28.039606 -26.256201 -0.532930 335 0.742323 0.670042 0.000000
-28.038324 -26.255001 -0.521111 379 0.742323 0.670042 0.000000
-28.037052 -26.253809 -0.509293 383 0.742323 0.670042 0.000000
-28.035498 -26.252359 -0.497467 385 0.742323 0.670042 0.000000
-28.035931 -26.252764 -0.485673 369 0.742323 0.670042 0.000000
-28.035664 -26.252506 -0.473875 369 0.742323 0.670042 0.000000
-28.033628 -26.250601 -0.462044 389 0.742323 0.670042 0.000000
-28.033195 -26.250195 -0.450248 379 0.742323 0.670042 0.000000
-28.035749 -26.252588 -0.438483 393 0.742323 0.670042 0.000000
-28.039423 -26.256029 -0.426749 335 0.742323 0.670042 0.000000
-28.040100 -26.256670 -0.414952 371 0.742323 0.670042 0.000000
-28.038158 -26.254856 -0.403130 397 0.742323 0.670042 0.000000
-28.037916 -26.254618 -0.391332 399 0.742323 0.670042 0.000000
-28.038811 -26.255463 -0.379543 337 0.742323 0.670042 0.000000
-28.041616 -26.258081 -0.367787 387 0.742323 0.670042 0.000000
-28.037619 -26.254347 -0.355934 353 0.742323 0.670042 0.000000
-28.031561 -26.248672 -0.344070 387 0.742323 0.670042 0.000000
-28.036551 -26.253344 -0.332334 353 0.742323 0.670042 0.000000
-28.039341 -26.255953 -0.320567 349 0.742323 0.670042 0.000000
-28.038605 -26.255274 -0.308764 357 0.742323 0.670042 0.000000
-28.036011 -26.252836 -0.296938 369 0.742323 0.670042 0.000000
